VERSION 0.7
FIELDS x y z intensity label
SIZE 4 4 4 4 4
TYPE F F F F F
COUNT 1 1 1 1 1
WIDTH 1164
HEIGHT 1
VIEWPOINT 5.59765 20.9092 2.72772 0.880178 -0.00052463 0.00112332 0.474642
POINTS 1164
DATA ascii
7.5253 -2.41643 -2.63214 0.000310887 4
7.83942 -2.51729 -2.67427 0.000361275 4
8.14383 -2.61504 -2.70808 0.000703786 1
8.3548 -2.68279 -2.70672 0.000644695 1
8.48569 -2.72482 -2.67682 0.00099541 4
8.52991 -2.73902 -2.61841 0.00117493 4
8.5391 -2.74196 -2.54911 0.00116189 4
8.66621 -2.78278 -2.51417 0.000470823 4
9.32932 -2.99571 -2.62841 0.00030356 4
9.58804 -3.07879 -2.62131 0.00075893 4
9.6268 -3.09123 -2.5519 0.000890073 4
9.78815 -3.14304 -2.51363 0.000319223 4
10.1075 -3.24559 -2.51227 0.000245927 4
10.4363 -3.35119 -2.50821 0.000207525 4
10.8097 -3.47106 -2.50937 0.00019296 4
11.1982 -3.59583 -2.50813 0.000188224 4
12.5027 -4.0147 -2.69853 0.000148557 1
12.9637 -4.16274 -2.69284 0.00012804 1
13.505 -4.33654 -2.69599 0.000109544 1
14.0604 -4.51489 -2.69343 9.29619e-05 1
14.6668 -4.70962 -2.69158 7.81885e-05 1
15.2446 -4.89514 -2.67526 0.000713133 10
15.2337 -4.89164 -2.55138 0.000716887 10
15.2321 -4.89114 -2.42947 0.000720487 10
15.2471 -4.89596 -2.31036 0.000723927 10
15.2514 -4.89732 -2.18972 0.000727207 10
15.2504 -4.897 -2.06856 0.000730326 10
15.2497 -4.89678 -1.94768 0.000733281 10
15.2431 -4.89466 -1.82631 0.000736071 10
15.2297 -4.89036 -1.7045 0.000738694 10
15.4557 -4.96295 -1.60801 9.20249e-05 10
20.8651 -6.69993 -2.00661 0.000199308 10
20.8818 -6.7053 -1.84413 0.000199947 10
20.8751 -6.70314 -1.6797 0.000200534 10
20.8773 -6.70385 -1.51621 0.00020107 10
20.8774 -6.70389 -1.35272 0.000201555 10
20.8521 -6.69576 -1.18793 0.000201988 10
20.8743 -6.70288 -1.026 0.000202368 10
20.8522 -6.69577 -0.862004 0.000202696 10
20.8709 -6.70181 -0.699823 0.000202971 10
20.8601 -6.69833 -0.536664 0.000203193 10
20.8689 -6.70114 -0.374083 0.000203363 10
20.8608 -6.69857 -0.211238 0.000203479 10
20.8688 -6.70111 -0.0485771 0.000203543 10
20.873 -6.70245 0.11418 0.000203554 10
20.8558 -6.69695 0.276733 0.000203513 10
20.8571 -6.69736 0.439437 0.000203418 10
20.8631 -6.6993 0.602347 0.000203271 10
20.8486 -6.69465 0.764665 0.000203071 10
5.43544 -1.72738 -2.6353 0.000835716 4
5.54918 -1.76352 -2.63817 0.000676973 4
5.65619 -1.79753 -2.63611 0.000785406 4
5.76372 -1.8317 -2.63264 0.000803096 4
5.87685 -1.86765 -2.63002 0.000401626 4
6.02316 -1.91415 -2.64022 0.00083281 4
6.13424 -1.94945 -2.63295 0.000302264 4
6.25693 -1.98844 -2.62888 0.000801015 4
6.39425 -2.03208 -2.62895 0.00114257 4
6.55632 -2.08359 -2.63683 0.000802642 4
6.70316 -2.13026 -2.63617 0.000812193 4
6.85975 -2.18002 -2.63697 0.000541074 4
7.01522 -2.22943 -2.63491 0.0003994 4
7.17015 -2.27867 -2.63026 0.000249013 4
7.35351 -2.33694 -2.63339 0.00137061 4
7.51668 -2.38879 -2.62661 0.000190899 4
7.81165 -2.48253 -2.66225 0.000344156 4
8.14489 -2.58844 -2.70583 0.000703802 1
8.36737 -2.65914 -2.70819 0.00064471 1
8.52102 -2.70797 -2.68539 0.00119298 4
8.53675 -2.71297 -2.618 0.000897537 4
8.58201 -2.72735 -2.55947 0.00110911 4
8.67351 -2.75643 -2.51388 0.000369474 4
9.33342 -2.96615 -2.62704 4.44884e-05 4
9.6073 -3.05319 -2.62406 0.000780931 4
9.66795 -3.07246 -2.56035 0.000875844 4
9.80512 -3.11605 -2.51558 0.000276668 4
10.1185 -3.21565 -2.51259 0.000223233 4
10.4472 -3.32012 -2.50842 0.000254393 4
10.8276 -3.44099 -2.51112 0.00011195 4
11.2058 -3.56118 -2.50742 0.000158577 4
12.5148 -3.97719 -2.69856 0.000148562 1
12.9868 -4.12719 -2.69505 0.000128045 1
13.4901 -4.28715 -2.69045 0.000109548 1
14.0789 -4.47426 -2.69439 9.29658e-05 1
14.6675 -4.66131 -2.68913 7.81919e-05 1
15.2805 -4.85614 -2.679 0.000705754 10
15.2995 -4.86218 -2.55996 0.000709473 10
15.2982 -4.86175 -2.43767 0.000713038 10
15.2803 -4.85608 -2.31317 0.000716445 10
15.2918 -4.85972 -2.19343 0.000719694 10
15.2989 -4.86197 -2.07315 0.000722783 10
15.279 -4.85566 -1.94955 0.00072571 10
15.2879 -4.85848 -1.82993 0.000728473 10
15.297 -4.86136 -1.7104 0.000731071 10
15.4906 -4.92289 -1.61009 9.20321e-05 10
20.8106 -6.61358 -1.99945 0.000202847 10
20.7975 -6.60941 -1.83492 0.000203495 10
20.824 -6.61783 -1.67398 0.000204092 10
20.7987 -6.60979 -1.50905 0.000204637 10
20.8052 -6.61187 -1.34675 0.000205129 10
20.818 -6.61595 -1.18485 0.000205569 10
20.8157 -6.6152 -1.02214 0.000205956 10
20.8028 -6.61112 -0.859141 0.000206289 10
20.8119 -6.61399 -0.697173 0.000206568 10
20.8112 -6.61376 -0.534891 0.000206794 10
20.8208 -6.61681 -0.372863 0.000206967 10
20.8125 -6.61419 -0.210546 0.000207085 10
20.8007 -6.61044 -0.0483722 0.000207149 10
20.7997 -6.61012 0.113671 0.00020716 10
20.8038 -6.61143 0.275779 0.000207118 10
20.8051 -6.61185 0.437923 0.000207022 10
20.7953 -6.60873 0.599814 0.000206873 10
20.7997 -6.61013 0.762139 0.000206669 10
5.45129 -1.71441 -2.64048 0.000582025 4
5.53758 -1.74155 -2.63016 0.000634671 4
5.65007 -1.77693 -2.63076 0.000692233 4
5.76837 -1.81413 -2.63226 0.000627428 4
5.888 -1.85176 -2.63252 0.000448883 4
6.0114 -1.89057 -2.63256 0.000510798 4
6.15269 -1.935 -2.63837 0.000583691 4
6.28237 -1.97579 -2.63707 0.000507969 4
6.40364 -2.01393 -2.63031 0.000438754 4
6.5513 -2.06036 -2.63232 0.00038425 4
6.69816 -2.10655 -2.6317 0.000422029 4
6.84967 -2.1542 -2.6306 0.000326132 4
7.01041 -2.20475 -2.63061 0.000330544 4
7.18103 -2.25841 -2.63175 0.000446956 4
7.35744 -2.31389 -2.6323 0.00109296 4
7.5331 -2.36914 -2.62985 0.00109087 4
7.8059 -2.45493 -2.65776 0.000418587 4
8.14714 -2.56225 -2.70401 0.000703817 1
8.38006 -2.6355 -2.70973 0.000644724 1
8.54655 -2.68786 -2.69088 0.00113981 4
8.57598 -2.69712 -2.62754 0.000994542 4
8.61226 -2.70853 -2.56605 0.00113909 4
8.69489 -2.73451 -2.51768 0.00041853 4
9.34972 -2.94046 -2.62913 0.000149171 4
9.61455 -3.02374 -2.62355 0.000287094 4
9.67484 -3.04271 -2.55975 0.00072 4
9.81454 -3.08664 -2.51561 0.000314984 4
10.1397 -3.18891 -2.51547 0.000255401 4
10.4772 -3.29504 -2.51322 0.000219254 4
10.8386 -3.40871 -2.5113 2.65153e-05 4
11.2287 -3.53139 -2.51017 0.000116036 4
12.5216 -3.93799 -2.69745 0.000148568 1
13.0057 -4.09024 -2.6964 0.00012805 1
13.5154 -4.25057 -2.69294 0.000109552 1
14.0762 -4.42692 -2.69132 9.29697e-05 1
14.7007 -4.62333 -2.69266 7.81953e-05 1
15.3455 -4.8261 -2.68783 0.000698402 10
15.346 -4.82626 -2.5653 0.000702085 10
15.3542 -4.82884 -2.44427 0.000705616 10
15.3465 -4.82643 -2.32098 0.00070899 10
15.3407 -4.82459 -2.19834 0.000712208 10
15.345 -4.82596 -2.07742 0.000715267 10
15.3414 -4.82481 -1.95565 0.000718165 10
15.3436 -4.82551 -1.83486 0.000720901 10
15.3316 -4.82174 -1.71264 0.000723475 10
15.4908 -4.87182 -1.60859 9.20392e-05 10
20.7619 -6.52954 -1.99288 0.000206421 10
20.7566 -6.52788 -1.82957 0.00020708 10
20.7625 -6.52974 -1.66745 0.000207686 10
20.743 -6.5236 -1.50358 0.00020824 10
20.7603 -6.52903 -1.34256 0.00020874 10
20.7459 -6.52453 -1.17963 0.000209187 10
20.7648 -6.53048 -1.01867 0.00020958 10
20.7381 -6.52208 -0.855657 0.000209918 10
20.7443 -6.52401 -0.69425 0.000210202 10
20.7519 -6.52641 -0.532862 0.000210432 10
20.7404 -6.52278 -0.371071 0.000210607 10
20.7375 -6.52188 -0.209588 0.000210727 10
20.7456 -6.52442 -0.0481983 0.000210792 10
20.7519 -6.52642 0.113302 0.000210803 10
20.7498 -6.52575 0.274802 0.000210761 10
20.7397 -6.52256 0.43613 0.000210663 10
20.7377 -6.52194 0.597584 0.000210511 10
20.7417 -6.5232 0.759292 0.000210304 10
5.45413 -1.69733 -2.63938 0.000910358 4
5.56854 -1.73294 -2.64238 0.000973176 4
5.67768 -1.7669 -2.64113 0.000998426 4
5.78779 -1.80117 -2.63864 0.00089096 4
5.90124 -1.83647 -2.63596 0.000118129 4
6.02793 -1.8759 -2.63732 0.00135475 4
6.15239 -1.91463 -2.63576 0.000552431 4
6.29015 -1.9575 -2.63786 0.000918267 4
6.41636 -1.99678 -2.63306 0.00063986 4
6.55665 -2.04043 -2.63199 0.000597732 4
6.71319 -2.08915 -2.63513 0.000493703 4
6.86195 -2.13544 -2.63284 0.000385436 4
7.00884 -2.18116 -2.62755 0.000172161 4
7.18835 -2.23702 -2.63195 0.000249023 4
7.35508 -2.28891 -2.62899 0.00092756 4
7.53773 -2.34575 -2.629 0.000959988 4
7.8159 -2.43231 -2.65867 0.000468974 4
8.16179 -2.53996 -2.70634 0.000703831 1
8.36591 -2.60348 -2.70261 0.000644738 1
8.56415 -2.66517 -2.69389 0.00109516 4
8.60681 -2.67845 -2.63451 0.00121492 4
8.63264 -2.68648 -2.56971 0.000880741 4
8.70919 -2.71031 -2.51946 0.000382572 4
9.35922 -2.9126 -2.62933 0.000259093 4
9.64464 -3.00142 -2.62929 0.000256509 4
9.70208 -3.01929 -2.56455 0.000653253 4
9.80086 -3.05004 -2.50974 0.000325635 4
10.1243 -3.1507 -2.5093 0.000274328 4
10.4768 -3.2604 -2.51078 0.000169048 4
10.8482 -3.37596 -2.51115 9.13332e-05 4
11.2464 -3.49988 -2.51175 0.000152141 4
12.5163 -3.89508 -2.69379 0.000148573 1
12.9969 -4.04465 -2.69206 0.000128055 1
13.5213 -4.20784 -2.69158 0.000109556 1
14.0893 -4.38461 -2.6913 9.29734e-05 1
14.703 -4.57558 -2.69054 7.81987e-05 1
15.3516 -4.77742 -2.68638 6.51252e-05 1
15.4116 -4.79611 -2.57385 0.000694723 10
15.3992 -4.79225 -2.44913 0.00069822 10
15.4027 -4.79333 -2.32729 0.000701561 10
15.3845 -4.78768 -2.20256 0.000704748 10
15.4027 -4.79334 -2.08328 0.000707776 10
15.3912 -4.78976 -1.96016 0.000710647 10
15.406 -4.79436 -1.84059 0.000713357 10
15.4005 -4.79264 -1.71872 0.000715905 10
15.5037 -4.82477 -1.60841 9.20462e-05 10
20.71 -6.44498 -1.98603 0.00021003 10
20.6845 -6.43704 -1.82151 0.0002107 10
20.7087 -6.44455 -1.66157 0.000211316 10
20.7072 -6.4441 -1.49958 0.000211879 10
20.6851 -6.43721 -1.33644 0.000212387 10
20.6919 -6.43934 -1.17545 0.000212841 10
20.7089 -6.44461 -1.01497 0.00021324 10
20.6994 -6.44166 -0.853255 0.000213584 10
20.7059 -6.44368 -0.692314 0.000213872 10
20.6997 -6.44178 -0.531024 0.000214106 10
20.6861 -6.43752 -0.369751 0.000214283 10
20.6897 -6.43865 -0.208909 0.000214405 10
20.7027 -6.44269 -0.0480534 0.000214471 10
20.6919 -6.43934 0.112868 0.000214483 10
20.696 -6.44061 0.273831 0.000214439 10
20.701 -6.44218 0.434909 0.00021434 10
20.6854 -6.43731 0.595517 0.000214185 10
20.692 -6.43936 0.756761 0.000213974 10
5.44172 -1.67557 -2.63093 0.001179 4
5.56967 -1.71496 -2.64046 0.000733418 4
5.68464 -1.75036 -2.64191 0.00147769 4
5.79402 -1.78404 -2.63903 0.000652544 4
5.89542 -1.81527 -2.63091 0.0005434 4
6.02759 -1.85596 -2.63472 0.000521918 4
6.15506 -1.89521 -2.63446 0.000719214 4
6.29218 -1.93743 -2.63626 0.000801054 4
6.42507 -1.97835 -2.63419 0.000530178 4
6.55586 -2.01862 -2.62923 0.000213479 4
6.70453 -2.0644 -2.62929 0.000509638 4
6.88161 -2.11892 -2.63793 0.000192721 4
7.01936 -2.16134 -2.62905 0.000344329 4
7.19694 -2.21602 -2.63265 0.00080455 4
7.35951 -2.26608 -2.62813 0.00126434 4
7.55271 -2.32557 -2.63178 0.00119455 4
7.79297 -2.39954 -2.6484 0.000408981 4
8.17476 -2.5171 -2.70812 0.00035024 4
8.38184 -2.58086 -2.70524 0.000644751 1
8.5913 -2.64536 -2.69992 0.00105069 4
8.6144 -2.65247 -2.63438 0.000906541 4
8.65116 -2.66379 -2.57283 0.000952101 4
8.71615 -2.6838 -2.51913 0.000392391 4
9.35111 -2.87931 -2.62462 0.000319294 4
9.63908 -2.96798 -2.62533 2.824e-05 4
9.74511 -3.00063 -2.57353 0.000780501 4
9.83358 -3.02787 -2.51578 0.000285204 4
10.1324 -3.11989 -2.50897 0.000285688 4
10.4784 -3.22643 -2.50883 0.000204203 4
10.8484 -3.34035 -2.50888 0.00020035 4
11.246 -3.46278 -2.50935 0.000140542 4
11.6691 -3.59305 -2.50913 7.06681e-05 4
13.0129 -4.00681 -2.69286 0.000128059 1
13.5549 -4.17371 -2.69577 0.000109561 1
14.1123 -4.34534 -2.69318 9.29772e-05 1
14.7021 -4.52693 -2.68788 7.82021e-05 1
15.3809 -4.73594 -2.689 6.51282e-05 1
15.4522 -4.7579 -2.57823 0.00068739 10
15.4391 -4.75386 -2.45319 0.000690851 10
15.4562 -4.75913 -2.33321 0.000694161 10
15.45 -4.75723 -2.20988 0.000697315 10
15.4599 -4.76028 -2.08907 0.000700315 10
15.457 -4.75938 -1.96671 0.000703158 10
15.4541 -4.75849 -1.84462 0.000705841 10
15.4596 -4.7602 -1.72372 0.000708364 10
15.5182 -4.77823 -1.60842 9.20532e-05 10
20.7111 -6.37717 -1.98429 0.000254751 10
20.7333 -6.38402 -1.82411 0.000255553 10
20.7249 -6.38144 -1.66133 0.00025629 10
20.7227 -6.38075 -1.49931 0.000256962 10
20.7175 -6.37916 -1.3373 0.000257567 10
20.7162 -6.37874 -1.17574 0.000258107 10
20.7318 -6.38356 -1.01516 0.00025858 10
20.7345 -6.38439 -0.85391 0.000258986 10
20.7325 -6.38376 -0.69256 0.000259325 10
20.7262 -6.38184 -0.531209 0.000259597 10
20.7154 -6.37851 -0.369932 0.000259801 10
20.7362 -6.38491 -0.209184 0.000259939 10
20.7269 -6.38205 -0.0480651 0.000260008 10
20.7316 -6.3835 0.11298 0.000260009 10
20.7151 -6.37842 0.27383 0.000259943 10
20.7121 -6.37748 0.434737 0.00025981 10
20.7294 -6.38281 0.59623 0.000259608 10
20.7214 -6.38035 0.757133 0.00025934 10
5.4615 -1.66372 -2.63806 0.00123872 4
5.57314 -1.69773 -2.63967 0.000860367 4
5.68453 -1.73167 -2.63943 0.000625698 4
5.78502 -1.76228 -2.63251 0.00115452 4
5.91943 -1.80322 -2.6392 0.000744233 4
6.02267 -1.83467 -2.63015 0.000344249 4
6.15465 -1.87488 -2.63186 0.000938119 4
6.28705 -1.91521 -2.63169 0.000498224 4
6.42325 -1.9567 -2.63102 0.000585033 4
6.56274 -1.99919 -2.62957 0.00036719 4
6.72623 -2.049 -2.63537 0.000254823 4
6.86173 -2.09027 -2.62789 0.000214962 4
7.02747 -2.14076 -2.62967 0.000151507 4
7.20236 -2.19404 -2.63221 0.000217105 4
7.37344 -2.24615 -2.63068 0.000212697 4
7.56496 -2.3045 -2.63362 0.000932752 4
7.77528 -2.36856 -2.63996 0.000431894 4
8.1599 -2.48573 -2.70071 0.000369946 4
8.38823 -2.55529 -2.70482 0.000644766 1
8.61673 -2.6249 -2.70542 0.000589011 1
8.66601 -2.63991 -2.64773 0.00115044 4
8.68192 -2.64475 -2.57961 0.00094115 4
8.72075 -2.65658 -2.51814 0.000236071 4
9.36997 -2.85435 -2.62749 0.000240785 4
9.64238 -2.93734 -2.62382 0.000451855 4
9.78473 -2.9807 -2.58162 0.000836757 4
9.84469 -2.99896 -2.51631 0.000161241 4
10.1497 -3.09187 -2.51093 0.000215691 4
10.5044 -3.19992 -2.51273 0.000190818 4
10.8532 -3.30618 -2.50767 0.000137008 4
11.2435 -3.42508 -2.50648 0.000158598 4
11.6764 -3.55696 -2.50839 0.000133489 4
13.0356 -3.97102 -2.69509 0.000128064 1
13.5464 -4.12661 -2.6916 0.000109565 1
14.1037 -4.29637 -2.68907 9.29809e-05 1
14.7402 -4.49026 -2.69237 7.82053e-05 1
15.4033 -4.69227 -2.69045 6.5131e-05 1
15.516 -4.72661 -2.5865 0.000680084 10
15.5098 -4.72471 -2.46216 0.000683511 10
15.4965 -4.72066 -2.33714 0.000686788 10
15.5085 -4.72432 -2.21621 0.000689912 10
15.5121 -4.72542 -2.0942 0.000692882 10
15.5073 -4.72395 -1.9713 0.000695696 10
15.49 -4.71867 -1.8472 0.000698353 10
15.5114 -4.72519 -1.7279 0.000700852 10
15.5206 -4.72802 -1.6072 9.206e-05 10
20.7962 -6.33511 -1.99062 0.000251775 10
20.7968 -6.33527 -1.82801 0.000252568 10
20.8021 -6.3369 -1.66598 0.000253297 10
20.7929 -6.33409 -1.50301 0.000253961 10
20.8011 -6.33658 -1.34146 0.00025456 10
20.8039 -6.33743 -1.17963 0.000255094 10
20.7834 -6.3312 -1.01675 0.000255562 10
20.807 -6.3384 -0.856109 0.000255964 10
20.7973 -6.33543 -0.694087 0.000256299 10
20.7949 -6.33469 -0.532478 0.000256568 10
20.7879 -6.33258 -0.370886 0.00025677 10
20.7973 -6.33543 -0.209607 0.000256906 10
20.7946 -6.33462 -0.0481778 0.000256975 10
20.8039 -6.33744 0.11327 0.000256976 10
20.7838 -6.33132 0.274485 0.000256911 10
20.8025 -6.33701 0.436233 0.000256779 10
20.7832 -6.33114 0.597228 0.00025658 10
20.777 -6.32926 0.758468 0.000256314 10
5.4554 -1.64398 -2.63272 0.000850696 4
5.57348 -1.67957 -2.63744 0.00101553 4
5.67288 -1.70952 -2.63163 0.000492577 4
5.80402 -1.74904 -2.63875 0.000828252 4
5.90654 -1.77993 -2.63106 0.00101595 4
6.02961 -1.81702 -2.63079 0.000333149 4
6.15512 -1.85485 -2.62967 0.000416948 4
6.29038 -1.89561 -2.63069 0.000420078 4
6.42319 -1.93563 -2.6286 0.00035651 4
6.57993 -1.98286 -2.63406 0.000264723 4
6.71366 -2.02316 -2.62805 0.000151304 4
6.87028 -2.07036 -2.62877 0.000296504 4
7.05116 -2.12487 -2.63614 0.000413209 4
7.20329 -2.17071 -2.63016 8.93976e-05 4
7.37773 -2.22328 -2.62982 0.000289509 4
7.57613 -2.28306 -2.63511 0.00100914 4
7.76722 -2.34065 -2.63483 0.000420909 4
8.14757 -2.45527 -2.69418 0.00039774 4
8.40135 -2.53174 -2.70658 0.000644779 1
8.6384 -2.60318 -2.70976 0.000589023 1
8.67114 -2.61305 -2.64689 0.000942208 4
8.70932 -2.62455 -2.5854 0.000970999 4
8.72705 -2.6299 -2.51767 0.00109682 4
9.3776 -2.82594 -2.62724 6.2815e-05 4
9.66768 -2.91335 -2.62831 0.000475401 4
9.79824 -2.9527 -2.58283 0.000793452 4
9.8618 -2.97185 -2.51839 0.000137887 4
10.1671 -3.06387 -2.51296 0.000266783 4
10.5149 -3.16868 -2.51297 0.000185802 4
10.864 -3.27388 -2.5079 0.00018563 4
11.2786 -3.3988 -2.51201 0.000168919 4
11.6997 -3.5257 -2.5111 0.000144711 4
13.0378 -3.92893 -2.69308 0.000128068 1
13.5653 -4.08792 -2.69291 0.000109569 1
14.1198 -4.255 -2.68969 9.29846e-05 1
14.7351 -4.44042 -2.68899 7.82086e-05 1
15.3932 -4.63874 -2.68624 6.51339e-05 1
15.5651 -4.69054 -2.59232 0.000672805 10
15.5588 -4.68864 -2.4677 0.000676199 10
15.564 -4.6902 -2.34518 0.000679442 10
15.5501 -4.68603 -2.22014 0.000682535 10
15.5512 -4.68635 -2.09757 0.000685476 10
15.5596 -4.68889 -1.97615 0.000688263 10
15.5627 -4.68982 -1.85419 0.000690893 10
15.5667 -4.69103 -1.73249 0.000693367 10
15.558 -4.68841 -1.6096 0.000692714 10
20.8647 -6.28758 -1.99536 0.000248812 10
20.8741 -6.29042 -1.83314 0.000249596 10
20.8551 -6.28468 -1.66871 0.000250317 10
20.8553 -6.28476 -1.50615 0.000250974 10
20.8604 -6.28628 -1.34406 0.000251567 10
20.8787 -6.29181 -1.1828 0.000252095 10
20.8759 -6.29094 -1.02034 0.000252558 10
20.8785 -6.29175 -0.85827 0.000252956 10
20.8588 -6.2858 -0.695507 0.000253288 10
20.8585 -6.28572 -0.533623 0.000253554 10
20.8604 -6.28627 -0.37184 0.000253754 10
20.8614 -6.28657 -0.210062 0.000253888 10
20.8549 -6.28462 -0.0482734 0.000253956 10
20.8595 -6.28602 0.113469 0.000253957 10
20.8494 -6.28295 0.275101 0.000253893 10
20.8678 -6.2885 0.437204 0.000253762 10
20.8667 -6.28819 0.599083 0.000253565 10
20.8549 -6.28461 0.760617 0.000253303 10
5.45852 -1.62707 -2.63186 0.000865632 4
5.56507 -1.65883 -2.63109 0.00104375 4
5.68702 -1.69518 -2.63582 0.000772159 4
5.79988 -1.72882 -2.6345 0.00115455 4
5.93428 -1.76888 -2.64104 0.000354407 4
6.03298 -1.7983 -2.6299 0.00119935 4
6.1783 -1.84162 -2.6372 0.000354411 4
6.30827 -1.88036 -2.6358 0.000381006 4
6.45528 -1.92418 -2.63936 0.000429647 4
6.59471 -1.96574 -2.6376 0.000392821 4
6.74511 -2.01057 -2.63799 0.000589298 4
6.89181 -2.0543 -2.63464 0.000429939 4
7.04908 -2.10118 -2.63299 0.000730015 4
7.21461 -2.15052 -2.63192 0.000197955 4
7.39875 -2.20541 -2.63494 0.000632205 4
7.56056 -2.25364 -2.62733 0.000987336 4
7.78334 -2.32005 -2.63793 0.000450215 4
8.13069 -2.42358 -2.68618 0.000407098 4
8.40609 -2.50567 -2.70568 0.000644792 1
8.63982 -2.57534 -2.70777 0.000589036 1
8.70115 -2.59362 -2.65366 0.00107007 4
8.73335 -2.60322 -2.5902 0.00102501 4
8.76653 -2.61311 -2.52679 0.000842398 4
9.39233 -2.79965 -2.629 0.000274822 4
9.67006 -2.88243 -2.62659 0.000265949 4
9.81783 -2.92648 -2.58567 0.000709639 4
9.89867 -2.95058 -2.52554 0.000859193 4
10.186 -3.03624 -2.51537 0.000213811 4
10.5302 -3.13883 -2.51436 0.000184134 4
10.8856 -3.24477 -2.51063 0.000215101 4
11.2659 -3.35812 -2.50693 0.000165056 4
11.6949 -3.48601 -2.50783 0.000142472 4
13.0535 -3.89096 -2.6939 0.000128073 1
13.5751 -4.04643 -2.69242 0.000109573 1
14.1478 -4.21715 -2.6926 9.29882e-05 1
14.7425 -4.39443 -2.68793 7.82118e-05 1
15.4201 -4.59638 -2.68851 6.51368e-05 1
15.6014 -4.65044 -2.59603 0.000665556 10
15.602 -4.65061 -2.47232 0.000668915 10
15.6137 -4.65411 -2.35056 0.000672127 10
15.6037 -4.65114 -2.22579 0.000675189 10
15.6186 -4.65556 -2.10476 0.0006781 10
15.6143 -4.65429 -1.98132 0.000680859 10
15.6141 -4.65424 -1.85864 0.000683463 10
15.5938 -4.64817 -1.73394 0.000685912 10
15.6154 -4.6546 -1.61408 0.000688204 10
20.9396 -6.24164 -2.00072 0.000245863 10
20.9308 -6.23901 -1.83646 0.000246639 10
20.9337 -6.23987 -1.67349 0.000247353 10
20.9431 -6.24267 -1.51112 0.000248003 10
20.9371 -6.24091 -1.34779 0.000248589 10
20.9254 -6.2374 -1.18437 0.000249111 10
20.9273 -6.23797 -1.02193 0.000249569 10
20.9306 -6.23895 -0.859636 0.000249962 10
20.9357 -6.24048 -0.697443 0.00025029 10
20.9451 -6.24328 -0.535356 0.000250554 10
20.9214 -6.23622 -0.372593 0.000250752 10
20.9323 -6.23946 -0.210587 0.000250885 10
20.9384 -6.24128 -0.0484231 0.000250952 10
20.9324 -6.23949 0.113763 0.000250953 10
20.9449 -6.24322 0.276113 0.00025089 10
20.9375 -6.24103 0.438272 0.00025076 10
20.9368 -6.2408 0.600554 0.000250566 10
20.9222 -6.23646 0.762388 0.000250306 10
5.4684 -1.61215 -2.63427 0.00192531 4
5.58819 -1.64747 -2.63967 0.000296204 4
5.70442 -1.68174 -2.64153 0.00061241 4
5.80186 -1.71046 -2.63306 0.000702778 4
5.93218 -1.74888 -2.63775 0.000708823 4
6.04186 -1.78122 -2.63142 0.000766265 4
6.18737 -1.82411 -2.63872 0.000281448 4
6.32063 -1.8634 -2.63861 0.000410321 4
6.45722 -1.90367 -2.6378 0.000246822 4
6.58974 -1.94274 -2.63327 0.000264731 4
6.75132 -1.99037 -2.63807 0.000469853 4
6.89975 -2.03413 -2.63533 0.000200147 4
7.04763 -2.07773 -2.6301 0.000296143 4
7.22237 -2.12925 -2.63241 0.000312903 4
7.3872 -2.17784 -2.62849 0.000177257 4
7.58086 -2.23493 -2.63204 0.00105827 4
7.76374 -2.28885 -2.62894 0.000562753 4
8.12738 -2.39605 -2.6827 0.000387149 4
8.42829 -2.48477 -2.71041 0.000644805 1
8.64772 -2.54946 -2.70783 0.000589048 1
8.73242 -2.57443 -2.66083 0.000985349 4
8.75295 -2.58048 -2.5937 0.00117594 4
8.78712 -2.59055 -2.53047 0.00113857 4
8.98252 -2.64816 -2.51205 0.000422441 4
9.68784 -2.8561 -2.62908 0.000324795 4
9.85575 -2.9056 -2.59334 0.000823455 4
9.90446 -2.91996 -2.52476 0.000702374 4
10.1852 -3.00272 -2.51292 0.000219493 4
10.5355 -3.10599 -2.51338 0.000210923 4
10.8837 -3.20865 -2.50795 0.000223948 4
11.2745 -3.32385 -2.5066 0.000183115 4
11.7118 -3.45278 -2.5092 0.000142477 4
13.0679 -3.85259 -2.69448 0.000128077 1
13.6018 -4.00998 -2.69532 0.000109577 1
14.1463 -4.17052 -2.68993 9.29918e-05 1
14.7577 -4.35076 -2.6883 7.8215e-05 1
15.4452 -4.55345 -2.6905 6.51396e-05 1
15.6556 -4.61548 -2.60274 0.000658335 10
15.653 -4.61469 -2.4782 0.000661661 10
15.6549 -4.61526 -2.35467 0.00066484 10
15.6587 -4.61638 -2.23164 0.000667871 10
15.6692 -4.61948 -2.10971 0.000670753 10
15.6716 -4.62019 -1.98682 0.000673484 10
15.6607 -4.61698 -1.86253 0.000676063 10
15.6516 -4.6143 -1.73882 0.000678487 10
15.6502 -4.61387 -1.61624 0.000680757 10
21.0078 -6.19336 -2.00545 0.000242929 10
21.0032 -6.192 -1.84118 0.000243697 10
21.0098 -6.19395 -1.67808 0.000244403 10
20.9987 -6.19069 -1.51379 0.000245045 10
20.9977 -6.19038 -1.35049 0.000245625 10
21.0074 -6.19325 -1.18796 0.000246142 10
21.0067 -6.19304 -1.0249 0.000246595 10
21.0174 -6.1962 -0.862435 0.000246984 10
21.0033 -6.19205 -0.699073 0.000247308 10
21.016 -6.19579 -0.536692 0.000247569 10
21.0057 -6.19276 -0.373762 0.000247765 10
21.0015 -6.19149 -0.211094 0.000247896 10
21.0184 -6.19649 -0.0485649 0.000247962 10
21.0115 -6.19447 0.114092 0.000247964 10
21.0177 -6.19628 0.276826 0.000247901 10
21.0121 -6.19462 0.43944 0.000247773 10
21.0177 -6.19628 0.602339 0.000247581 10
21.0043 -6.19235 0.764699 0.000247324 10
5.47417 -1.59601 -2.63473 0.000776104 4
5.5803 -1.62695 -2.63362 0.000916833 4
5.68445 -1.65732 -2.62996 0.00105176 4
5.8079 -1.69331 -2.63348 0.000489442 4
5.94349 -1.73284 -2.64046 0.000401672 4
6.06344 -1.76781 -2.6385 0.000544167 4
6.18467 -1.80316 -2.63525 0.00055248 4
6.31173 -1.8402 -2.63258 0.000185624 4
6.44887 -1.88018 -2.63208 0.000393094 4
6.59073 -1.92155 -2.63135 0.000589249 4
6.74369 -1.96614 -2.63277 0.000645063 4
6.89309 -2.0097 -2.63047 0.000296519 4
7.07333 -2.06225 -2.63737 0.0002686 4
7.22472 -2.10639 -2.63095 0.00065136 4
7.39486 -2.15599 -2.6289 0.00031316 4
7.58963 -2.21278 -2.63277 0.00108556 4
7.77234 -2.26605 -2.62954 0.000306505 4
8.1135 -2.36551 -2.67576 0.000377776 4
8.41149 -2.45239 -2.70263 0.000644818 1
8.66129 -2.52522 -2.7097 0.000589061 1
8.76657 -2.55592 -2.66888 0.000974151 4
8.79611 -2.56453 -2.6042 0.00104291 4
8.81448 -2.56989 -2.53611 0.00109474 4
8.99017 -2.62111 -2.51198 0.000345641 4
9.67758 -2.82152 -2.62398 0.000294206 4
9.89365 -2.88452 -2.60103 0.000572319 4
9.93104 -2.89542 -2.52931 0.000745721 4
10.1887 -2.97055 -2.51159 0.000264913 4
10.5477 -3.07522 -2.51409 0.0001741 4
10.9078 -3.18018 -2.51128 0.000215114 4
11.3029 -3.2954 -2.51072 0.000175383 4
11.7224 -3.41768 -2.50926 0.00013575 4
13.0863 -3.81536 -2.69591 0.000128082 1
13.6024 -3.96582 -2.69307 0.000109581 1
14.1661 -4.13017 -2.69132 9.29953e-05 1
14.7895 -4.31192 -2.69173 7.82181e-05 1
15.4392 -4.50133 -2.68708 6.51423e-05 1
15.71 -4.58029 -2.60948 0.000651144 10
15.7294 -4.58594 -2.4881 0.000654436 10
15.7015 -4.57782 -2.3596 0.000657584 10
15.7168 -4.58226 -2.23794 0.000660584 10
15.7215 -4.58365 -2.11489 0.000663437 10
15.7263 -4.58505 -1.992 0.00066614 10
15.7033 -4.57835 -1.86596 0.000668693 10
15.7082 -4.57977 -1.74357 0.000671092 10
15.7177 -4.58254 -1.62179 0.000673339 10
21.0872 -6.14804 -2.01126 0.00024001 10
21.0931 -6.14975 -1.84744 0.00024077 10
21.0936 -6.14991 -1.6833 0.000241467 10
21.0775 -6.1452 -1.51813 0.000242103 10
21.0708 -6.14326 -1.354 0.000242676 10
21.0894 -6.14867 -1.19155 0.000243187 10
21.0891 -6.1486 -1.02802 0.000243635 10
21.0728 -6.14382 -0.863945 0.00024402 10
21.0802 -6.14598 -0.701014 0.000244341 10
21.0858 -6.14761 -0.537999 0.000244599 10
21.0919 -6.14939 -0.374964 0.000244792 10
21.0923 -6.14952 -0.211821 0.000244922 10
21.0826 -6.14668 -0.0486703 0.000244988 10
21.0791 -6.14566 0.114358 0.00024499 10
21.0722 -6.14365 0.277299 0.000244927 10
21.0709 -6.14327 0.440283 0.000244801 10
21.0726 -6.14379 0.603382 0.000244611 10
21.063 -6.14097 0.766159 0.000244357 10
5.4824 -1.58057 -2.6364 0.000641786 4
5.59647 -1.61345 -2.63895 0.000846317 4
5.7009 -1.64356 -2.63528 0.000372781 4
5.82152 -1.67833 -2.63736 0.000991446 4
5.93041 -1.70973 -2.63236 0.00119322 4
6.06607 -1.74884 -2.63735 0.000410907 4
6.18532 -1.78322 -2.63323 0.000375275 4
6.31013 -1.8192 -2.62962 0.000967213 4
6.46427 -1.86364 -2.63607 0.000530227 4
6.59088 -1.90014 -2.62912 0.000426999 4
6.76125 -1.94926 -2.63733 4.77832e-05 4
6.91023 -1.99221 -2.63472 0.00021498 4
7.0628 -2.03619 -2.63116 0.000984882 4
7.24361 -2.08832 -2.63554 0.000549195 4
7.41325 -2.13723 -2.63314 0.000189081 4
7.58701 -2.18732 -2.62957 0.00105831 4
7.77359 -2.24111 -2.62767 0.000311535 4
8.10429 -2.33645 -2.6704 0.000360269 4
8.43655 -2.43224 -2.70832 0.000644831 1
8.65457 -2.4951 -2.70524 0.000589073 1
8.7812 -2.5316 -2.67101 0.000857761 4
8.82347 -2.54379 -2.61003 0.000934812 4
8.85826 -2.55382 -2.54649 0.00101902 4
9.01644 -2.59942 -2.51713 0.000407689 4
9.70285 -2.79731 -2.62855 0.000305981 4
9.90856 -2.85662 -2.60268 0.000697295 4
9.9854 -2.87877 -2.54094 0.000578794 4
10.2044 -2.94192 -2.51327 0.000208151 4
10.5405 -3.0388 -2.51018 0.000204238 4
10.9178 -3.14757 -2.51139 0.000179758 4
11.2942 -3.25608 -2.50659 0.000172809 4
11.7298 -3.38169 -2.50868 0.000142486 4
13.0882 -3.7733 -2.69394 0.000128086 1
13.6197 -3.92653 -2.69414 0.000109585 1
14.1903 -4.09105 -2.69358 9.29988e-05 1
14.7845 -4.26234 -2.68847 7.82212e-05 1
15.4658 -4.45876 -2.68937 6.5145e-05 1
15.761 -4.54387 -2.61567 0.000643982 10
15.7713 -4.54684 -2.49257 0.000647241 10
15.7635 -4.5446 -2.36686 0.000650356 10
15.7687 -4.54608 -2.24338 0.000653326 10
15.7809 -4.54962 -2.12103 0.000656149 10
15.7577 -4.54291 -1.99423 0.000658826 10
15.7749 -4.54787 -1.87283 0.000661352 10
15.771 -4.54674 -1.74902 0.000663727 10
15.7632 -4.54449 -1.62506 0.000665951 10
21.1457 -6.09628 -2.01509 0.000237106 10
21.1574 -6.09963 -1.85145 0.000237857 10
21.1454 -6.09617 -1.68595 0.000238547 10
21.1443 -6.09586 -1.52162 0.000239175 10
21.161 -6.10067 -1.35861 0.000239742 10
21.1405 -6.09478 -1.1934 0.000240248 10
21.1542 -6.09871 -1.03029 0.000240691 10
21.1504 -6.09761 -0.866372 0.000241071 10
21.1566 -6.09941 -0.702943 0.000241389 10
21.1645 -6.10169 -0.539538 0.000241643 10
21.1374 -6.09386 -0.375446 0.000241835 10
21.1376 -6.09392 -0.212091 0.000241963 10
21.1385 -6.09419 -0.048757 0.000242029 10
21.1453 -6.09616 0.114617 0.00024203 10
21.1453 -6.09615 0.27802 0.000241969 10
21.1572 -6.09958 0.441702 0.000241844 10
21.1638 -6.10148 0.605465 0.000241656 10
21.1483 -6.09702 0.768595 0.000241404 10
5.48007 -1.56209 -2.63301 0.000432838 4
5.60802 -1.59856 -2.64213 0.000846328 4
5.71628 -1.62942 -2.64012 0.000998534 4
5.81375 -1.65721 -2.63157 0.000389054 4
5.93469 -1.69168 -2.63199 0.00105146 4
6.0526 -1.72529 -2.62923 0.00088846 4
6.19414 -1.76564 -2.63472 0.000312733 4
6.32573 -1.80314 -2.63385 0.0014655 4
6.45947 -1.84127 -2.63184 0.000356537 4
6.60512 -1.88279 -2.63253 0.00160554 4
6.76176 -1.92744 -2.63526 0.000390236 4
7.08537 -2.01968 -2.63729 0.000172185 4
7.2478 -2.06598 -2.63479 0.000319305 4
7.41748 -2.11435 -2.63238 0.000360442 4
7.60107 -2.16668 -2.63218 0.00114561 4
7.78001 -2.21769 -2.62758 0.00035174 4
8.10152 -2.30933 -2.66719 0.000342638 4
8.44767 -2.408 -2.70956 0.000644843 1
8.66887 -2.47106 -2.70738 0.000589084 1
8.83052 -2.51714 -2.6837 0.00105663 4
8.84636 -2.52165 -2.61455 0.00123701 4
8.87678 -2.53032 -2.54962 0.00131161 4
9.01432 -2.56953 -2.51438 0.000389972 4
9.6922 -2.76276 -2.6234 0.000362479 4
9.93598 -2.83225 -2.60764 0.000804201 4
10.0026 -2.85124 -2.54313 0.000695704 4
10.2176 -2.91251 -2.51433 0.000242219 4
10.544 -3.00555 -2.50885 0.00015402 4
10.9296 -3.11548 -2.51196 0.000198918 4
11.3026 -3.2218 -2.5063 0.000192159 4
11.7483 -3.34883 -2.51045 0.000169418 4
13.1029 -3.73499 -2.69466 0.00012809 1
13.6189 -3.88207 -2.69168 0.000109589 1
14.182 -4.04258 -2.68968 9.30022e-05 1
14.8064 -4.22056 -2.69014 7.82242e-05 1
15.464 -4.408 -2.68674 6.51477e-05 1
15.8162 -4.50841 -2.62258 0.000636851 10
15.8335 -4.51334 -2.50025 0.000640077 10
15.8103 -4.5067 -2.37183 0.000643159 10
15.8334 -4.51329 -2.25065 0.000646099 10
15.8272 -4.51155 -2.12543 0.000648894 10
15.8172 -4.50868 -2.00004 0.000651543 10
15.8112 -4.50697 -1.87552 0.000654043 10
15.8165 -4.50847 -1.75255 0.000656394 10
15.8222 -4.5101 -1.62974 0.000658595 10
16.0232 -4.5674 -1.52562 0.000360772 10
16.0282 -4.56882 -1.4014 0.000361824 10
16.0222 -4.56713 -1.27638 0.000362791 10
16.0165 -4.5655 -1.15162 0.000363674 10
16.0334 -4.5703 -1.02851 0.000364471 10
16.0308 -4.56958 -0.90417 0.000365183 10
16.0194 -4.56633 -0.779537 0.000365809 10
16.0075 -4.56294 -0.655145 0.000366348 10
16.0111 -4.56396 -0.531523 0.0003668 10
16.015 -4.56505 -0.407911 0.000367165 10
16.0275 -4.56864 -0.28444 0.000367443 10
16.0099 -4.56362 -0.160503 0.000367634 10
16.0314 -4.56974 -0.0369454 0.000367737 10
16.0087 -4.56326 0.0866997 0.000367753 10
16.0073 -4.56287 0.210284 0.000367684 10
16.0323 -4.57001 0.334422 0.000367527 10
16.0239 -4.56761 0.458026 0.000367283 10
16.0256 -4.56809 0.581918 0.000366951 10
5.48328 -1.54522 -2.63231 0.000701504 4
5.59844 -1.57768 -2.63537 0.000352641 4
5.7083 -1.60863 -2.63419 0.000692325 4
5.81513 -1.63874 -2.62996 0.000188254 4
5.95386 -1.67784 -2.63825 0.000366245 4
6.06849 -1.71014 -2.63389 0.000577507 4
6.18924 -1.74417 -2.6304 0.000406559 4
6.32086 -1.78126 -2.62959 0.000957471 4
6.46712 -1.82248 -2.63272 0.000411395 4
6.61115 -1.86306 -2.6327 0.000444092 4
6.7712 -1.90817 -2.6367 0.000477847 4
6.91369 -1.94832 -2.63153 0.000570827 4
7.06907 -1.99211 -2.62899 0.0002755 4
7.24723 -2.04232 -2.63234 0.00042149 4
7.42736 -2.09308 -2.63364 0.000189087 4
7.59648 -2.14074 -2.62835 0.000965603 4
7.79056 -2.19543 -2.62891 0.000924591 4
8.08096 -2.27727 -2.65816 0.000406102 4
8.45236 -2.38193 -2.70876 0.000644856 1
8.67673 -2.44516 -2.70753 0.000589096 1
8.84596 -2.49285 -2.68611 0.000940596 4
8.86837 -2.49916 -2.61882 0.00110482 4
8.89189 -2.50579 -2.55179 0.000852906 4
9.01894 -2.54159 -2.51352 0.00029544 4
9.70043 -2.73364 -2.6234 0.000204782 4
9.97949 -2.81228 -2.61683 0.000727149 4
10.0398 -2.82927 -2.55041 0.000620133 4
10.2157 -2.87886 -2.51175 0.000291427 4
10.5596 -2.97577 -2.51043 2.67868e-05 4
10.9412 -3.08329 -2.51247 0.000181242 4
11.3154 -3.18876 -2.50702 0.000203772 4
11.7441 -3.30955 -2.50742 0.000152593 4
13.1062 -3.69342 -2.69305 0.000128095 1
13.6356 -3.8426 -2.69268 0.000109592 1
14.2082 -4.00397 -2.69236 9.30056e-05 1
14.8261 -4.17809 -2.69143 7.82272e-05 1
15.4921 -4.36578 -2.68934 6.51503e-05 1
15.8809 -4.47534 -2.63107 0.000629751 10
15.8927 -4.47866 -2.50745 0.000632943 10
15.8825 -4.47579 -2.38064 0.000635994 10
15.8705 -4.4724 -2.254 0.000638904 10
15.8677 -4.47161 -2.12904 0.000641669 10
15.8896 -4.47778 -2.00749 0.00064429 10
15.8701 -4.47229 -1.8809 0.000646765 10
15.8735 -4.47324 -1.75737 0.000649092 10
15.8807 -4.47529 -1.63438 0.00065127 10
15.9928 -4.50688 -1.52143 0.000366225 10
15.9717 -4.50092 -1.39527 0.000367292 10
15.9944 -4.50733 -1.27308 0.000368273 10
15.9693 -4.50027 -1.14725 0.000369168 10
15.9783 -4.50279 -1.02411 0.000369976 10
15.976 -4.50214 -0.900313 0.000370698 10
15.9742 -4.50164 -0.776677 0.000371332 10
15.9931 -4.50695 -0.653996 0.000371879 10
15.9899 -4.50604 -0.530366 0.000372337 10
15.9669 -4.49957 -0.406341 0.000372707 10
15.9882 -4.50559 -0.283501 0.000372989 10
15.9785 -4.50284 -0.160051 0.000373182 10
15.968 -4.49989 -0.036768 0.000373286 10
15.9684 -4.5 0.0864082 0.000373303 10
15.9885 -4.50567 0.209859 0.000373232 10
15.9813 -4.50365 0.333074 0.000373073 10
15.9866 -4.50511 0.456569 0.000372825 10
15.989 -4.5058 0.580095 0.000372489 10
5.50308 -1.53299 -2.6396 0.000582106 4
5.6069 -1.5619 -2.63713 0.00163627 4
5.70601 -1.58952 -2.63092 0.00123821 4
5.83988 -1.62681 -2.63893 2.51009e-05 4
5.96449 -1.66152 -2.64074 0.000862459 4
6.08204 -1.69427 -2.63755 0.000244333 4
6.20713 -1.72911 -2.63578 0.000781855 4
6.34061 -1.7663 -2.63559 0.000166094 4
6.48146 -1.80553 -2.63634 0.00081366 4
6.62786 -1.84631 -2.63713 0.00071739 4
6.76346 -1.88409 -2.63147 0.000756602 4
6.91193 -1.92545 -2.62865 0.000333605 4
7.07248 -1.97017 -2.62805 0.000647436 4
7.25437 -2.02084 -2.63272 0.000178817 4
7.41682 -2.06609 -2.62769 0.000986816 4
7.60782 -2.1193 -2.63006 0.00102017 4
7.8011 -2.17314 -2.63025 0.000884406 4
8.08662 -2.25268 -2.65778 0.000353184 4
8.45348 -2.35487 -2.70684 0.000644868 1
8.68079 -2.4182 -2.70652 0.000589108 1
8.88583 -2.47531 -2.69595 0.000905391 4
8.89669 -2.47834 -2.62498 0.000989398 4
8.92453 -2.48609 -2.559 0.00104863 4
9.03421 -2.51665 -2.51566 0.000596802 4
9.72945 -2.71032 -2.62904 0.000477835 4
10.0155 -2.78999 -2.62405 0.000781809 4
10.0706 -2.80536 -2.5561 0.000820342 4
10.223 -2.8478 -2.51142 0.000257371 4
10.5827 -2.948 -2.5138 0.000118869 4
10.9357 -3.04635 -2.50911 0.000194509 4
11.331 -3.15646 -2.50836 0.000170245 4
11.7657 -3.27755 -2.50992 0.000161574 4
13.1195 -3.65467 -2.6935 0.000128099 1
13.6427 -3.80041 -2.69181 0.000109596 1
14.2103 -3.95855 -2.69049 9.30089e-05 1
14.8358 -4.1328 -2.69093 7.82302e-05 1
15.4928 -4.3158 -2.6872 6.5153e-05 1
15.9268 -4.4367 -2.63645 0.000622681 10
15.9365 -4.4394 -2.51224 0.000625839 10
15.9243 -4.43601 -2.38491 0.000628859 10
15.9443 -4.44159 -2.26259 0.000631738 10
15.9469 -4.44231 -2.13788 0.000634475 10
15.9333 -4.43851 -2.01132 0.000637069 10
15.9278 -4.43698 -1.88616 0.000639518 10
15.9386 -4.43999 -1.7631 0.000641821 10
15.9369 -4.43952 -1.63878 0.000643976 10
15.9642 -4.44713 -1.51743 0.000369593 10
15.9707 -4.44892 -1.39401 0.00037067 10
15.9536 -4.44418 -1.26877 0.000371661 10
15.9587 -4.44558 -1.14552 0.000372565 10
15.9652 -4.4474 -1.02241 0.000373381 10
15.9691 -4.44848 -0.899166 0.000374109 10
15.974 -4.44984 -0.77601 0.00037475 10
15.966 -4.44762 -0.65234 0.000375301 10
15.948 -4.4426 -0.528532 0.000375764 10
15.9719 -4.44926 -0.406126 0.000376138 10
15.9619 -4.44649 -0.282796 0.000376422 10
15.9544 -4.44439 -0.159676 0.000376617 10
15.9479 -4.44258 -0.0366908 0.000376723 10
15.9559 -4.44481 0.0862677 0.000376739 10
15.9495 -4.44304 0.209171 0.000376668 10
15.9458 -4.44199 0.332053 0.000376507 10
15.9599 -4.44592 0.455424 0.000376256 10
15.9692 -4.44851 0.578889 0.000375917 10
5.4933 -1.5125 -2.63271 0.000835854 4
5.61609 -1.54631 -2.63926 0.000747617 4
5.72929 -1.57748 -2.63946 0.000931999 4
5.84663 -1.60979 -2.63979 0.000326316 4
5.96224 -1.64162 -2.63754 0.00108695 4
6.08556 -1.67558 -2.63688 0.000211018 4
6.205 -1.70846 -2.63269 0.000552518 4
6.35213 -1.74897 -2.63818 0.00076209 4
6.49288 -1.78773 -2.63879 0.000237702 4
6.61248 -1.82066 -2.62883 0.000461186 4
6.77024 -1.86409 -2.63192 0.00031061 4
6.91981 -1.90528 -2.62946 0.00022982 4
7.07824 -1.9489 -2.628 0.000351274 4
7.26385 -2 -2.63397 0.000843006 4
7.44153 -2.04892 -2.63426 0.00021864 4
7.61307 -2.09616 -2.62969 0.000992914 4
7.81988 -2.1531 -2.63439 0.000829145 4
8.0558 -2.21806 -2.64545 0.000340788 4
8.45259 -2.3273 -2.7043 0.00030403 4
8.69654 -2.39447 -2.70917 0.000589119 1
8.90212 -2.45108 -2.69864 0.00103805 4
8.93492 -2.46011 -2.63406 0.000914446 4
8.96507 -2.46841 -2.56849 0.000989609 4
9.03291 -2.48709 -2.51321 0.000363407 4
9.72061 -2.67644 -2.62446 0.000193022 4
10.0162 -2.75782 -2.62207 0.000305712 4
10.103 -2.78172 -2.56218 0.000755966 4
10.2388 -2.81911 -2.51321 0.000227098 4
10.582 -2.9136 -2.51154 0.000172449 4
10.9381 -3.01167 -2.50758 0.000175357 4
11.3329 -3.12035 -2.50669 0.000185727 4
11.754 -3.2363 -2.50535 0.000130161 4
13.1422 -3.61854 -2.69593 0.000128103 1
13.6729 -3.76465 -2.69554 0.0001096 1
14.2276 -3.91739 -2.69153 9.30123e-05 1
14.8505 -4.08888 -2.69135 7.82331e-05 1
15.5141 -4.27159 -2.68865 6.51556e-05 1
15.9838 -4.40092 -2.64369 0.000615643 10
16.0024 -4.40603 -2.52054 0.000618768 10
15.9824 -4.40052 -2.39161 0.000621757 10
15.9757 -4.3987 -2.26516 0.000624605 10
15.9951 -4.40404 -2.14256 0.000627314 10
15.9824 -4.40054 -2.01585 0.000629881 10
15.9982 -4.40488 -1.89292 0.000632305 10
15.9942 -4.40377 -1.76778 0.000634583 10
15.9852 -4.40131 -1.64239 0.000636716 10
15.991 -4.40289 -1.51871 0.00042188 10
15.992 -4.40318 -1.39471 0.000423093 10
15.9943 -4.40382 -1.27095 0.000424208 10
15.9756 -4.39867 -1.14578 0.000425225 10
15.9735 -4.39807 -1.02209 0.000426141 10
15.977 -4.39904 -0.898863 0.000426958 10
15.9866 -4.40168 -0.775977 0.000427673 10
15.9743 -4.3983 -0.652137 0.000428288 10
15.974 -4.39822 -0.528954 0.000428801 10
15.9977 -4.40475 -0.406445 0.000429213 10
15.971 -4.3974 -0.282722 0.000429522 10
15.9799 -4.39985 -0.159798 0.00042973 10
15.9987 -4.40501 -0.036777 0.000429835 10
15.9752 -4.39855 0.0863003 0.000429838 10
15.9874 -4.40191 0.209493 0.000429739 10
15.9947 -4.40394 0.332797 0.000429538 10
15.9976 -4.40471 0.456121 0.000429234 10
15.9931 -4.40348 0.579274 0.000428829 10
5.49679 -1.49573 -2.63222 0.000567193 4
5.62502 -1.53062 -2.64129 0.000902794 4
5.716 -1.55538 -2.63117 0.000852124 4
5.8379 -1.58855 -2.63368 0.000928756 4
5.96047 -1.6219 -2.6346 0.00118148 4
6.07425 -1.65286 -2.62982 0.000366509 4
6.20603 -1.68872 -2.63096 0.000114675 4
6.34764 -1.72725 -2.63415 0.000977052 4
6.47362 -1.76153 -2.6288 0.00021942 4
6.63832 -1.80635 -2.63693 0.000785736 4
6.78897 -1.84734 -2.63703 0.000310614 4
6.92093 -1.88325 -2.62772 0.000333615 4
7.0886 -1.92888 -2.62969 0.00031684 4
7.26937 -1.97806 -2.63381 0.000312939 4
7.44188 -2.02501 -2.63222 0.000336829 4
7.62548 -2.07496 -2.63181 0.00045282 4
7.82685 -2.12976 -2.63457 0.00112062 4
8.04177 -2.18824 -2.63867 0.000361132 4
8.43007 -2.2939 -2.69488 0.000288863 4
8.7012 -2.36768 -2.7084 0.00058913 1
8.92635 -2.42894 -2.70377 0.00125725 4
8.96444 -2.43931 -2.6406 0.00106182 4
8.98802 -2.44572 -2.57295 0.000883593 4
9.04816 -2.46209 -2.51539 0.000401825 4
9.74362 -2.65133 -2.62851 0.000341326 4
10.0419 -2.73249 -2.62663 0.000212949 4
10.1319 -2.75698 -2.5674 0.00068082 4
10.2435 -2.78735 -2.5123 0.000183575 4
10.5851 -2.88031 -2.51022 0.000301375 4
10.947 -2.97877 -2.50754 0.000221045 4
11.3458 -3.08729 -2.50748 0.000118662 4
11.7843 -3.20661 -2.50974 0.000125676 4
13.1468 -3.57737 -2.69465 0.000128107 1
13.6671 -3.71895 -2.69218 0.000109604 1
14.2397 -3.87475 -2.6916 9.30155e-05 1
14.846 -4.03975 -2.68834 7.8236e-05 1
15.5225 -4.22382 -2.6879 6.51581e-05 1
16.0518 -4.36785 -2.65275 0.000608637 10
16.0308 -4.36214 -2.52295 0.000611729 10
16.0465 -4.3664 -2.39923 0.000614686 10
16.0447 -4.36591 -2.27307 0.000617505 10
16.0307 -4.36209 -2.14555 0.000620185 10
16.0479 -4.36678 -2.02244 0.000622725 10
16.0379 -4.36407 -1.89606 0.000625123 10
16.0368 -4.36376 -1.77103 0.000627378 10
16.0555 -4.36886 -1.64826 0.000629488 10
16.2371 -4.41828 -1.54083 0.000352858 10
16.2636 -4.42548 -1.41723 0.000353889 10
16.2525 -4.42247 -1.2904 0.000354839 10
16.244 -4.42013 -1.16407 0.000355704 10
16.2411 -4.41935 -1.03836 0.000356486 10
16.2586 -4.42412 -0.913955 0.000357185 10
16.2421 -4.41962 -0.787732 0.000357798 10
16.2464 -4.42079 -0.662699 0.000358326 10
16.2562 -4.42346 -0.537856 0.00035877 10
16.2425 -4.41974 -0.412326 0.000359128 10
16.2569 -4.42366 -0.287547 0.0003594 10
16.2466 -4.42086 -0.162332 0.000359586 10
16.2443 -4.42022 -0.037311 0.000359687 10
16.2604 -4.42462 0.0877692 0.000359702 10
16.261 -4.42477 0.212903 0.000359634 10
16.2485 -4.42138 0.3378 0.00035948 10
16.2373 -4.41833 0.462576 0.000359239 10
16.2335 -4.41729 0.587499 0.000358913 10
5.51422 -1.48271 -2.63843 0.000940358 4
5.60638 -1.50749 -2.6304 0.000747635 4
5.72076 -1.53824 -2.63123 0.00145129 4
5.85312 -1.57383 -2.6384 0.00027612 4
5.97598 -1.60687 -2.63931 0.000649823 4
6.08552 -1.63632 -2.63256 0.00063307 4
6.22679 -1.67431 -2.63762 0.000479557 4
6.35258 -1.70813 -2.63406 0.000840276 4
6.48714 -1.74431 -2.63215 0.000685697 4
6.63863 -1.78505 -2.63491 0.000256222 4
6.78099 -1.82332 -2.63179 0.000406194 4
6.93202 -1.86393 -2.62979 6.67241e-05 4
7.10699 -1.91098 -2.63436 0.000392612 4
7.27688 -1.95666 -2.63439 0.000383197 4
7.44401 -2.0016 -2.63083 0.000124097 4
7.61957 -2.04881 -2.62764 0.000327345 4
7.83431 -2.10655 -2.63494 0.000804048 4
8.03817 -2.16137 -2.63535 0.000258072 4
8.43126 -2.26706 -2.69308 0.000308654 4
8.70263 -2.34003 -2.70665 0.000589142 1
8.9318 -2.40165 -2.70322 0.000536638 1
8.97541 -2.41338 -2.64168 0.00110544 4
9.0024 -2.42063 -2.57498 0.00113987 4
9.06144 -2.43651 -2.51703 0.000428422 4
9.73241 -2.61693 -2.62336 0.000553196 4
10.0544 -2.7035 -2.62776 0.000383739 4
10.1428 -2.72727 -2.56808 0.000734051 4
10.2447 -2.75468 -2.51056 0.000287671 4
10.6033 -2.8511 -2.5125 0.000264547 4
10.9588 -2.94669 -2.50822 0.00023284 4
11.3511 -3.05217 -2.50662 0.000179288 4
11.7887 -3.16984 -2.50864 0.000135779 4
13.1503 -3.53595 -2.69318 0.000128111 1
13.6837 -3.67937 -2.69326 0.000109607 1
14.2636 -3.8353 -2.69393 9.30187e-05 1
14.8722 -3.99895 -2.69088 7.82389e-05 1
15.5467 -4.18032 -2.68991 6.51606e-05 1
16.1017 -4.32956 -2.65885 0.000601663 10
16.0875 -4.32573 -2.52981 0.000604723 10
16.0953 -4.32784 -2.40458 0.000607648 10
16.0905 -4.32654 -2.27771 0.000610437 10
16.0852 -4.3251 -2.1511 0.000613089 10
16.0939 -4.32744 -2.02659 0.000615601 10
16.1004 -4.32921 -1.90191 0.000617974 10
16.0988 -4.32878 -1.77644 0.000620205 10
16.085 -4.32505 -1.64994 0.000622293 10
16.2068 -4.35781 -1.5367 0.00035808 10
16.2137 -4.35966 -1.41174 0.000359126 10
16.2022 -4.35658 -1.28537 0.000360088 10
16.2085 -4.35827 -1.16059 0.000360966 10
16.2093 -4.35847 -1.03548 0.000361759 10
16.2099 -4.35864 -0.910477 0.000362466 10
16.1979 -4.35541 -0.784951 0.000363088 10
16.2154 -4.36012 -0.660899 0.000363624 10
16.2077 -4.35805 -0.535817 0.000364073 10
16.2047 -4.35725 -0.411033 0.000364435 10
16.2078 -4.35807 -0.286445 0.000364711 10
16.1956 -4.35481 -0.161691 0.0003649 10
16.2193 -4.36117 -0.0372234 0.000365002 10
16.2194 -4.36119 0.0874763 0.000365018 10
16.2174 -4.36065 0.21216 0.000364948 10
16.1938 -4.35431 0.336388 0.000364792 10
16.2069 -4.35783 0.461334 0.000364548 10
16.2123 -4.35928 0.586254 0.000364218 10
5.51084 -1.46407 -2.6347 0.000955295 4
5.61253 -1.49109 -2.63117 0.000493727 4
5.72649 -1.52136 -2.63175 0.000199721 4
5.84617 -1.55316 -2.63316 0.000489491 4
5.97773 -1.58811 -2.63796 0.000330823 4
6.10186 -1.62109 -2.63751 0.000633077 4
6.21218 -1.6504 -2.62932 0.00055254 4
6.355 -1.68834 -2.63295 0.000244269 4
6.49584 -1.72576 -2.63357 0.00130741 4
6.64697 -1.76591 -2.63611 0.000273307 4
6.78662 -1.80301 -2.63187 0.000143364 4
6.93425 -1.84223 -2.62853 0.000496731 4
7.1084 -1.8885 -2.63278 0.000172201 4
7.28075 -1.93428 -2.63368 0.000293789 4
7.46203 -1.98245 -2.63509 0.000159555 4
7.63988 -2.0297 -2.63253 0.000163675 4
7.82069 -2.07773 -2.62825 0.000969898 4
8.03659 -2.13509 -2.63272 0.000385712 4
8.42295 -2.23774 -2.68826 0.000241748 4
8.70917 -2.31378 -2.70651 0.000589152 1
8.95262 -2.37845 -2.70735 0.000536648 1
9.0032 -2.39189 -2.64774 0.000991312 4
9.03104 -2.39929 -2.5811 0.000963436 4
9.0681 -2.40914 -2.51686 0.000171524 4
9.74884 -2.58999 -2.62568 0.000348403 4
10.0586 -2.67227 -2.62675 0.000312058 4
10.1705 -2.70202 -2.57304 0.000681577 4
10.2602 -2.72585 -2.51235 0.000249824 4
10.618 -2.82089 -2.51396 0.000229391 4
10.98 -2.91707 -2.51105 0.000150318 4
11.362 -3.01855 -2.507 0.000159945 4
11.7924 -3.1329 -2.50742 0.000140271 4
13.1783 -3.50111 -2.69676 0.000128115 1
13.7033 -3.64058 -2.69496 0.000109611 1
14.2576 -3.78783 -2.69063 9.30219e-05 1
14.8889 -3.95556 -2.69175 7.82417e-05 1
15.5538 -4.13221 -2.68898 6.51631e-05 1
16.1517 -4.29105 -2.66496 0.000594722 10
16.1668 -4.29505 -2.54024 0.000597749 10
16.1442 -4.28904 -2.40994 0.000600643 10
16.1525 -4.29125 -2.28465 0.000603402 10
16.1617 -4.29371 -2.15961 0.000606025 10
16.142 -4.28846 -2.03101 0.000608511 10
16.1435 -4.28887 -1.90547 0.000610858 10
16.1671 -4.29513 -1.78254 0.000613066 10
16.1412 -4.28826 -1.65438 0.000615132 10
16.1957 -4.30272 -1.53441 0.000403931 10
16.1835 -4.2995 -1.40798 0.000405099 10
16.1909 -4.30146 -1.28344 0.000406173 10
16.1791 -4.29832 -1.15755 0.000407151 10
16.1849 -4.29986 -1.0331 0.000408034 10
16.1926 -4.30191 -0.908777 0.000408819 10
16.1967 -4.303 -0.784265 0.000409508 10
16.1781 -4.29807 -0.658851 0.0004101 10
16.1734 -4.29682 -0.534255 0.000410594 10
16.1809 -4.29879 -0.410098 0.00041099 10
16.1982 -4.30341 -0.286047 0.000411289 10
16.1866 -4.30032 -0.161472 0.000411489 10
16.1904 -4.30131 -0.0371271 0.000411591 10
16.1867 -4.30035 0.0872303 0.000411595 10
16.1891 -4.30098 0.21162 0.000368237 10
16.1944 -4.3024 0.336132 0.000368079 10
16.1805 -4.29868 0.460212 0.000367833 10
16.1778 -4.29797 0.584538 0.000367499 10
5.50832 -1.44571 -2.6314 0.000895599 4
5.61747 -1.47436 -2.6314 0.000733545 4
5.74961 -1.50904 -2.64028 0.000852154 4
5.84391 -1.53379 -2.63005 0.00021337 4
5.97264 -1.56758 -2.63363 0.000307197 4
6.10149 -1.6014 -2.63526 0.000932968 4
6.24283 -1.63849 -2.6402 0.000302337 4
6.35699 -1.66846 -2.63169 0.000723047 4
6.49474 -1.70461 -2.63104 0.000265143 4
6.63526 -1.74149 -2.62938 0.000828474 4
6.78381 -1.78048 -2.62869 0.000135402 4
6.94913 -1.82387 -2.63208 0.000326216 4
7.12344 -1.86962 -2.63625 0.000179092 4
7.2878 -1.91276 -2.63414 0.000677002 4
7.46215 -1.95852 -2.63304 0.000165468 4
7.6481 -2.00732 -2.63327 0.000223693 4
7.82406 -2.0535 -2.6273 0.00107545 4
8.02165 -2.10536 -2.62575 0.000332472 4
8.41057 -2.20744 -2.68218 0.000256793 4
8.71413 -2.28711 -2.7059 0.000589163 1
8.94062 -2.34656 -2.70158 0.000536658 1
9.04058 -2.37279 -2.65662 0.00103472 4
9.08117 -2.38344 -2.59337 0.00100673 4
9.10437 -2.38953 -2.52493 0.000776785 4
9.75766 -2.561 -2.62597 0.000388431 4
10.0492 -2.63751 -2.62222 0.000250917 4
10.2048 -2.67834 -2.57965 0.000723294 4
10.2808 -2.6983 -2.51538 0.000265805 4
