VERSION 0.7
FIELDS x y z intensity label
SIZE 4 4 4 4 4
TYPE F F F F F
COUNT 1 1 1 1 1
WIDTH 1196
HEIGHT 1
VIEWPOINT 31.0608 7.49008 2.72773 0.999992 -2.99724e-05 0.000786474 -0.00391858
POINTS 1196
DATA ascii
9.14732 16.6389 3.00733 0.000589249 10
9.14764 16.6395 3.69093 0.000574876 10
7.85933 14.2961 3.76638 0.000216149 10
7.8603 14.2978 4.37186 0.000792751 10
4.85268 8.90044 -2.7163 0.000514749 1
5.64038 10.3452 -2.7203 0.000311567 1
6.69021 12.2707 -2.71667 0.000170152 1
7.198 13.2021 -2.3816 0.00148894 10
9.07396 16.6428 -2.32747 0.000776712 10
9.06622 16.6286 -1.657 0.000788207 10
9.073 16.6411 -0.993324 0.000525741 10
9.06744 16.6309 -0.330636 0.000528313 10
9.0695 16.6346 0.330711 0.000528318 10
9.07209 16.6394 0.993224 0.000525754 10
7.79729 14.3012 1.42508 0.000690952 10
7.79786 14.3023 2.00015 0.000681237 10
9.06644 16.629 2.99981 0.000593867 10
9.07592 16.6464 3.68542 0.000579388 10
7.80152 14.309 3.76259 0.000216166 10
7.78966 14.2873 4.36029 0.000798772 10
4.82065 8.9156 -2.71578 0.000514717 1
5.59892 10.355 -2.71772 0.000311544 1
6.64733 12.294 -2.71666 0.000170136 1
7.1426 13.21 -2.37851 0.00149991 10
8.99267 16.6316 -2.3215 0.000782736 10
9.00474 16.6539 -1.65638 0.000794314 10
9.01169 16.6668 -0.992974 0.000290584 10
9.01042 16.6644 -0.330676 0.000292136 10
9.01055 16.6647 0.33068 0.000292269 10
9.01142 16.6663 0.992944 0.000290981 10
7.73726 14.3098 1.42323 0.000696119 10
7.73632 14.308 1.99717 0.000686336 10
8.99433 16.6347 2.99514 0.000598479 10
8.99119 16.6288 3.67456 0.000583895 10
7.75813 14.3484 3.7658 0.000216184 10
7.72199 14.2815 4.35029 0.000804785 10
4.7903 8.93386 -2.71623 0.000514685 1
5.56357 10.376 -2.71813 0.000311521 1
6.59892 12.3069 -2.71442 0.000170121 1
7.083 13.2097 -2.374 0.00151086 10
8.92129 16.6381 -2.31805 0.000788757 10
8.92493 16.6449 -1.65237 0.000800418 10
9.00243 16.7895 -0.998406 0.00028328 10
9.01321 16.8096 -0.33293 0.000284796 10
9.00864 16.801 0.332761 0.000284927 10
9.00689 16.7978 0.9989 0.00028367 10
7.67734 14.3182 1.42139 0.00070128 10
7.67073 14.3059 1.99311 0.000691429 10
8.92301 16.6413 2.99072 0.000603087 10
8.91827 16.6325 3.66847 0.000588398 10
7.71393 14.3864 3.7687 0.000216201 10
7.66514 14.2954 4.34634 0.000810791 10
4.75861 8.94964 -2.71596 0.000514653 1
5.53282 10.4057 -2.72083 0.000311498 1
6.56546 12.3478 -2.71837 0.000170105 1
7.01664 13.1964 -2.36719 0.00152179 10
8.84555 16.636 -2.31344 0.000794768 10
8.84341 16.632 -1.64802 0.000806513 10
17.2025 32.3532 -1.92034 8.4349e-05 10
9.56805 17.9949 1.06809 3.79917e-05 10
7.61401 14.3199 1.41891 0.000706434 10
7.60608 14.3049 1.98928 0.000696514 10
8.85259 16.6493 2.98657 0.00060769 10
8.84613 16.6371 3.66266 0.000592895 10
7.65223 14.3917 3.76307 0.000216218 10
7.60236 14.298 4.33902 0.000816788 10
4.73425 8.97932 -2.71993 0.00051462 1
5.48849 10.4099 -2.71688 0.000311475 1
6.52084 12.3679 -2.71775 0.00017009 1
6.96559 13.2114 -2.36551 0.0015327 10
8.77414 16.6416 -2.30995 0.000800773 10
8.77523 16.6437 -1.64613 0.000812601 10
8.7756 16.6444 -0.986112 0.000542003 10
8.7789 16.6507 -0.328561 0.000544649 10
8.7792 16.6512 0.328572 0.000544654 10
8.76651 16.6272 0.985091 0.000542016 10
7.54611 14.3125 1.41556 0.00071158 10
7.54733 14.3148 1.98697 0.000701593 10
8.76789 16.6298 2.97757 0.000612287 10
8.76647 16.6271 3.65368 0.000597387 10
7.60947 14.4326 3.7668 0.000216235 10
7.52906 14.2801 4.32561 0.000822779 10
4.69554 8.98173 -2.71568 0.000514588 1
5.4507 10.4262 -2.71617 0.000311452 1
6.47636 12.3881 -2.71722 0.000170074 1
6.9074 13.2126 -2.36139 0.00081991 10
8.70471 16.6506 -2.30696 0.00080677 10
8.70094 16.6434 -1.64308 0.00081868 10
8.74032 16.7187 -0.9887 0.000286783 10
8.7328 16.7043 -0.329015 0.000288316 10
8.74197 16.7219 0.329361 0.000288451 10
8.73847 16.7151 0.98849 0.000287184 10
7.48596 14.3193 1.41365 0.000716718 10
7.47697 14.3021 1.98158 0.000706662 10
8.7006 16.6427 2.97442 0.000616877 10
8.69803 16.6378 3.64934 0.000601873 10
7.55014 14.4421 3.76236 0.000216253 10
7.4749 14.2982 4.32314 0.000828758 10
4.67575 9.02042 -2.72243 0.000514556 1
5.41612 10.4487 -2.7171 0.000311428 1
6.43361 12.4117 -2.71744 0.000170059 1
6.90815 13.3272 -2.37754 0.000799678 10
8.62747 16.6441 -2.30187 0.000812757 10
8.62689 16.6429 -1.64006 0.000824751 10
16.7788 32.3696 -1.91078 8.67079e-05 10
9.37774 18.0915 1.06794 3.80344e-05 10
7.41586 14.3066 1.40983 0.000721848 10
7.42172 14.3179 1.98017 0.000711723 10
8.62789 16.6449 2.96941 0.000621461 10
8.62562 16.6405 3.64331 0.000606352 10
8.62344 16.6363 4.32611 0.000588595 10
7.4064 14.2884 4.31234 0.000834729 10
4.63347 9.01575 -2.71612 0.000514523 1
5.38665 10.4813 -2.72066 0.000311405 1
6.39145 12.4364 -2.71796 0.000170043 1
6.9111 13.4475 -2.39469 0.00077975 10
8.54822 16.633 -2.2962 0.000818736 10
8.55461 16.6455 -1.63735 0.000830813 10
8.54693 16.6305 -0.979933 0.000554143 10
8.55266 16.6417 -0.326598 0.000556845 10
8.54582 16.6284 0.326337 0.000556849 10
8.55527 16.6467 0.980889 0.000554157 10
7.35451 14.3103 1.40765 0.000726969 10
7.35618 14.3136 1.976 0.000716777 10
8.55117 16.6388 2.96298 0.000626039 10
8.54385 16.6245 3.63326 0.000610825 10
8.55114 16.6387 4.31896 0.000592946 10
7.34002 14.2821 4.30269 0.00084069 10
4.61151 9.0506 -2.72175 0.00051449 1
5.34128 10.4828 -2.7162 0.000311382 1
6.3437 12.4502 -2.71611 0.000170028 1
6.90644 13.5546 -2.40946 0.000760131 10
8.47383 16.6308 -2.2918 0.000824705 10
8.4828 16.6484 -1.63472 0.000836864 10
8.47066 16.6246 -0.977836 0.000558176 10
8.48285 16.6485 -0.326149 0.000560897 10
8.47508 16.6333 0.32585 0.000560901 10
8.47447 16.6321 0.978276 0.00055819 10
7.29303 14.3134 1.40544 0.000732079 10
7.29422 14.3157 1.97277 0.000721821 10
8.47073 16.6247 2.9552 0.000630608 10
8.47919 16.6413 3.63044 0.00061529 10
8.4834 16.6496 4.31407 0.000597288 10
7.27397 14.276 4.29316 0.000846639 10
4.58223 9.07127 -2.72315 0.000514458 1
5.315 10.5219 -2.7215 0.000311358 1
6.30271 12.4773 -2.7172 0.000170012 1
6.89979 13.6593 -2.42376 0.000740813 10
8.39699 16.6232 -2.2867 0.000830664 10
8.42408 16.6768 -1.63462 8.32595e-05 10
8.47225 16.7722 -0.984773 0.000282815 10
8.47031 16.7684 -0.327916 0.000284329 10
8.46895 16.7657 0.327863 0.000284465 10
8.46332 16.7545 0.983735 0.000283221 10
7.22589 14.3048 1.40212 0.000737181 10
7.22637 14.3058 1.96791 0.000726855 10
8.40929 16.6476 2.95402 0.000635169 10
8.40432 16.6377 3.62323 0.000619748 10
8.3969 16.623 4.29956 0.000601624 10
7.22023 14.2936 4.29086 0.000852577 10
4.55003 9.08619 -2.72284 0.000514425 1
5.27255 10.529 -2.71857 0.000311335 1
6.25617 12.4933 -2.71592 0.000169996 1
6.90976 13.7985 -2.44417 0.000721802 10
8.32489 16.6244 -2.28285 0.000836611 10
8.36072 16.696 -1.63362 8.32415e-05 10
11.3178 22.6012 -1.32469 0.000327057 10
11.3128 22.5911 -0.441008 0.000328791 10
11.3171 22.5997 0.441176 0.000328794 10
9.12065 18.2135 1.06752 3.80919e-05 10
7.17032 14.3188 1.40102 0.000742271 10
7.17116 14.3205 1.96648 0.000731878 10
8.33524 16.6451 2.9484 0.000639723 10
8.33059 16.6358 3.61646 0.000624197 10
8.33274 16.6401 4.29643 0.000605951 10
7.1535 14.2852 4.28081 0.000858503 10
4.50714 9.07958 -2.71613 0.000514393 1
5.23331 10.5424 -2.7173 0.000311311 1
6.2171 12.5243 -2.71792 0.000169981 1
6.90323 13.9065 -2.45901 0.000703091 10
8.25966 16.639 -2.28088 0.000842547 10
8.25541 16.6304 -1.62438 0.000564718 10
8.25225 16.6241 -0.972668 0.000570233 10
8.25989 16.6394 -0.324259 0.000573009 10
8.25965 16.639 0.32425 0.000573014 10
8.2568 16.6332 0.973203 0.000570248 10
7.10252 14.3079 1.39753 0.000747351 10
7.10895 14.3209 1.96311 0.000736891 10
8.25409 16.6277 2.94021 0.000644267 10
8.25892 16.6375 3.61054 0.000628638 10
8.25476 16.6291 4.28612 0.00061027 10
7.08756 14.2778 4.27115 0.000864417 10
4.48505 9.11482 -2.72197 0.00051436 1
5.19766 10.563 -2.71791 0.000311288 1
6.17107 12.5413 -2.71692 0.000169965 1
6.90736 14.0376 -2.47792 0.000684683 10
8.17888 16.6217 -2.27458 0.00084847 10
8.20183 16.6683 -1.62527 0.000283636 10
8.2061 16.677 -0.974083 0.000286544 10
8.19392 16.6522 -0.323949 0.000288077 10
8.20232 16.6693 0.324281 0.000288217 10
8.20141 16.6675 0.973527 0.000286963 10
7.03519 14.2974 1.39409 0.000752419 10
7.04149 14.3102 1.95827 0.000741892 10
8.1832 16.6305 2.93562 0.000648802 10
8.18145 16.6269 3.60202 0.00063307 10
8.18159 16.6272 4.27824 0.00061458 10
7.03186 14.2906 4.26762 0.000870316 10
4.44915 9.1221 -2.71949 0.000514327 1
5.15837 10.5762 -2.71666 0.000311264 1
6.12725 12.5627 -2.71692 0.000169949 1
6.9013 14.1498 -2.49345 0.000666574 10
8.11699 16.6423 -2.27351 0.000854382 10
8.18476 16.7813 -1.63349 8.31871e-05 10
8.19401 16.8002 -0.979603 0.000278684 10
8.19648 16.8053 -0.326368 0.000280178 10
8.2016 16.8158 0.326571 0.000280316 10
8.1996 16.8117 0.980273 0.000279095 10
6.98035 14.3118 1.39312 0.000757476 10
6.97371 14.2982 1.95329 0.000746882 10
8.11592 16.6401 2.9323 0.000417072 10
8.10735 16.6225 3.59492 0.000406963 10
8.11085 16.6297 4.27158 0.000618882 10
6.97322 14.2972 4.2623 0.000876204 10
4.41672 9.13643 -2.71915 0.000514294 1
5.11994 10.5911 -2.71587 0.000311241 1
6.08335 12.584 -2.71691 0.000169933 1
6.9033 14.2802 -2.51217 0.000648765 10
8.03582 16.6229 -2.26701 0.000860279 10
8.12295 16.8031 -1.63285 8.3169e-05 10
11.0922 22.9453 -1.33565 0.000157959 10
11.0863 22.9332 -0.444621 0.000158883 10
11.0877 22.9359 0.444673 0.000158969 10
8.86827 18.3449 1.06786 3.81499e-05 10
6.91169 14.2975 1.38936 0.000375934 10
6.92017 14.3151 1.95227 0.000370854 10
8.07714 16.7084 2.93934 0.000414887 10
8.07109 16.6958 3.60466 0.000404825 10
8.0353 16.6218 4.26232 0.000623173 10
6.90222 14.2779 4.24934 0.000882076 10
4.38105 9.14394 -2.71682 0.000514261 1
5.08182 10.6066 -2.71527 0.000311217 1
6.04114 12.6088 -2.7177 0.000169917 1
6.90005 14.4015 -2.52926 0.000631255 10
7.96493 16.6241 -2.26337 0.000866161 10
7.97061 16.6359 -1.61389 0.000580531 10
7.97109 16.6369 -0.966814 0.000586191 10
7.9671 16.6286 -0.321849 0.00058904 10
7.96705 16.6285 0.321846 0.000589045 10
7.96672 16.6278 0.966284 0.000586206 10
6.91721 14.4373 1.40059 0.00036581 10
6.91773 14.4384 1.96579 0.00036086 10
7.04415 14.7023 3.76376 0.000216428 10
6.8888 14.378 4.27195 0.000426112 10
4.34915 9.15928 -2.71685 0.000514228 1
5.04803 10.6311 -2.71703 0.000311193 1
5.99081 12.6166 -2.71485 0.000169902 1
6.89922 14.5297 -2.54754 0.000614039 10
7.8993 16.6359 -2.26121 0.000872031 10
7.93355 16.708 -1.61818 0.000279539 10
7.92491 16.6898 -0.968274 0.000282406 10
7.92333 16.6865 -0.322432 0.000283919 10
7.92503 16.6901 0.3225 0.000284061 10
7.931 16.7027 0.969019 0.00028283 10
6.9216 14.5769 1.41178 0.000355856 10
6.91576 14.5646 1.97967 0.000351034 10
6.99429 14.7299 3.76458 0.000216446 10
6.88932 14.5089 4.30365 0.000414455 10
4.32555 9.19225 -2.72213 0.000514195 1
5.01246 10.652 -2.71788 0.000311169 1
5.95158 12.6478 -2.71707 0.000169886 1
6.90148 14.6664 -2.56726 0.00059712 10
7.82438 16.6276 -2.25636 0.000877884 10
15.2175 32.3387 -1.87307 9.53326e-05 10
8.67509 18.4355 1.06779 3.81937e-05 10
6.91361 14.6922 1.4206 0.000346073 10
6.9173 14.7 1.99478 0.000341377 10
6.94601 14.761 3.7663 0.000216463 10
6.8899 14.6418 4.33592 0.000403 10
4.29277 9.20587 -2.72171 0.000514162 1
4.98175 10.6834 -2.72143 0.000311146 1
5.90646 12.6664 -2.71664 0.00016987 1
6.89179 14.7795 -2.58283 0.000580493 10
7.761 16.6435 -2.25483 0.000883723 10
15.08 32.3393 -1.87004 9.6112e-05 10
8.60482 18.4531 1.06706 3.82084e-05 10
6.91186 14.8225 1.43086 0.000336458 10
6.91294 14.8249 2.00844 0.000331886 10
6.8875 14.7703 3.76251 0.000216481 10
6.88725 14.7698 4.36667 0.000391744 10
4.2599 9.21927 -2.72126 0.000514129 1
4.94075 10.6928 -2.71941 0.000311122 1
5.86508 12.6932 -2.71796 0.000169854 1
6.90091 14.9349 -2.60577 0.00056416 10
7.68805 16.6385 -2.25049 0.000889543 10
7.68589 16.6338 -1.60311 0.000596188 10
7.6795 16.6199 -0.959502 0.000601991 10
7.68171 16.6247 -0.319666 0.000604912 10
7.68816 16.6387 0.319935 0.000604917 10
7.67975 16.6205 0.959534 0.000602006 10
6.90989 14.9544 1.44125 0.000327013 10
6.90664 14.9473 2.02175 0.000322564 10
6.88569 14.902 3.78991 0.000393586 10
6.88139 14.8927 4.39588 0.000380688 10
4.22059 9.21856 -2.71668 0.000514095 1
4.89676 10.6955 -2.71573 0.000311098 1
5.82193 12.7162 -2.71852 0.000169838 1
6.89258 15.0547 -2.62246 0.000548116 10
7.61386 16.6301 -2.24575 0.000895348 10
7.65827 16.7271 -1.60952 0.000275292 10
7.65475 16.7194 -0.963697 0.000278116 10
7.65796 16.7264 -0.321106 0.000279608 10
7.65866 16.728 0.321135 0.000279752 10
7.65707 16.7245 0.963989 0.000278546 10
6.91445 15.1025 1.45319 0.000317734 10
6.91172 15.0965 2.03866 0.000313405 10
6.88873 15.0463 3.82047 0.000382378 10
6.88774 15.0441 4.43346 0.000369828 10
4.18764 9.2316 -2.7162 0.000514062 1
4.86524 10.7254 -2.71899 0.000311074 1
5.77191 12.7241 -2.71589 0.000169822 1
6.89082 15.1907 -2.64194 0.000532364 10
7.53807 16.6176 -2.2405 0.000901135 10
14.6743 32.3494 -1.86163 9.84424e-05 10
14.6745 32.3498 -0.620048 3.02563e-05 10
14.6704 32.3408 0.619875 3.02756e-05 10
8.41405 18.5487 1.06743 3.82525e-05 10
6.91219 15.2378 1.46389 0.000864361 10
6.90795 15.2285 2.05321 0.000852138 10
7.57645 16.7022 2.90481 0.000434635 10
7.57871 16.7072 3.56605 0.000424124 10
6.88821 15.185 3.84955 0.000371374 10
6.8891 15.1869 4.46843 0.000359166 10
4.15704 9.24983 -2.71728 0.000514029 1
4.82984 10.7469 -2.72016 0.00031105 1
5.72888 12.7473 -2.71656 0.000169806 1
6.8947 15.3414 -2.66395 0.000516899 10
7.47327 16.6288 -2.23847 0.000906904 10
7.47886 16.6412 -1.59619 0.000607813 10
7.47237 16.6268 -0.955326 0.000613722 10
7.46848 16.6181 -0.318018 0.000616696 10
7.47752 16.6382 0.318402 0.000616701 10
7.46926 16.6198 0.954928 0.000613737 10
6.90323 15.3604 1.47333 0.000299679 10
6.91256 15.3811 2.07052 0.000295585 10
6.88753 15.3254 3.87904 0.000360572 10
6.88459 15.3189 4.50016 0.0003487 10
4.13317 9.28325 -2.72284 0.000513995 1
4.79101 10.7608 -2.71943 0.000311026 1
5.68309 12.7644 -2.71596 0.00016979 1
6.89513 15.4867 -2.68498 0.000501719 10
7.4085 16.6398 -2.23646 0.000912655 10
7.39994 16.6205 -1.59172 0.000611663 10
7.4094 16.6418 -0.954697 0.000617608 10
7.40634 16.6349 -0.317842 0.000620599 10
7.40299 16.6274 0.317698 0.000620605 10
7.40296 16.6273 0.953867 0.000617623 10
6.9075 15.5145 1.4858 0.000290899 10
6.90462 15.508 2.08435 0.000286919 10
6.88065 15.4542 3.90553 0.000349969 10
6.88225 15.4578 4.53387 0.000338428 10
4.09576 9.28632 -2.71953 0.000513962 1
4.75722 10.786 -2.7216 0.000311002 1
5.64247 12.7932 -2.71787 0.000169774 1
6.89528 15.6337 -2.70627 0.000486825 10
7.33457 16.6297 -2.23165 0.000918385 10
7.39545 16.7677 -1.60333 0.0002709 10
7.3941 16.7647 -0.960259 0.000273681 10
7.39176 16.7593 -0.319725 0.000275152 10
7.38526 16.7446 0.319444 0.000275298 10
7.38878 16.7526 0.959568 0.000274117 10
6.90563 15.6571 1.49714 0.000282284 10
6.90546 15.6568 2.10109 0.000278416 10
6.87792 15.5943 3.93485 0.000339566 10
6.8778 15.594 4.56677 0.000328349 10
4.06434 9.30292 -2.72022 0.000513928 1
4.71574 10.7939 -2.71941 0.000310978 1
5.59904 12.8157 -2.71849 0.000169758 1
6.8683 15.7209 -2.71721 7.96156e-05 1
7.2622 16.6225 -2.22727 0.000924096 10
14.1258 32.3326 -1.84914 0.000101529 10
14.1352 32.3541 -0.616289 3.00433e-05 10
14.13 32.3422 0.616061 3.00629e-05 10
8.1422 18.6367 1.06586 3.83119e-05 10
6.90872 15.8134 1.50977 0.000273831 10
6.90525 15.8055 2.1178 0.000270073 10
6.88451 15.758 3.97007 0.00032936 10
6.8743 15.7346 4.60089 0.000318462 10
4.0346 9.32341 -2.72208 0.000513895 1
4.67593 10.8054 -2.71819 0.000310954 1
5.55174 12.8293 -2.71725 0.000169742 1
6.80818 15.7328 -2.71513 7.9606e-05 1
7.03209 16.2502 -2.17408 0.000134018 10
7.19665 16.6305 -1.58537 0.000943392 10
7.19146 16.6185 -0.948987 0.00095255 10
7.19287 16.6217 -0.316134 0.000957159 10
7.19982 16.6378 0.316439 0.000957167 10
7.1895 16.6139 0.948729 0.000952573 10
6.90061 15.9464 1.52015 0.000265541 10
6.9068 15.9607 2.13534 0.000261891 10
7.03678 16.261 2.8063 0.000758711 10
7.04092 16.2706 3.44611 0.000740512 10
6.87374 15.8843 3.99581 0.000319352 10
6.87231 15.881 4.63664 0.000308767 10
3.99669 9.32498 -2.71845 0.000513861 1
4.63976 10.8254 -2.71911 0.000310929 1
5.50563 12.8456 -2.71661 0.000169726 1
6.75062 15.7504 -2.71409 7.95963e-05 1
6.97964 16.2847 -2.17543 0.000133997 10
7.12272 16.6185 -1.58185 0.00094914 10
7.12519 16.6243 -0.947894 0.00095835 10
7.12655 16.6275 -0.315768 0.000962985 10
7.12614 16.6265 0.31575 0.000962993 10
7.12799 16.6308 0.948267 0.000958374 10
6.90867 16.1191 1.53431 0.000257411 10
6.87617 16.0433 2.14318 0.00033232 10
6.97592 16.276 2.80467 0.000763318 10
6.97267 16.2684 3.44048 0.000745015 10
6.87398 16.0382 4.02847 0.000309539 10
6.87324 16.0365 4.675 0.000299261 10
3.96606 9.34344 -2.71977 0.000513827 1
4.60684 10.853 -2.72201 0.000310905 1
5.46756 12.8808 -2.71999 0.000169709 1
6.70426 15.7942 -2.7176 7.95865e-05 1
6.92087 16.3046 -2.17484 0.000133976 10
7.05296 16.6157 -1.57923 0.000954865 10
7.05387 16.6179 -0.946117 0.000964128 10
7.05603 16.623 -0.315213 0.000968789 10
7.05785 16.6272 0.315294 0.000968797 10
7.05678 16.6247 0.946508 0.000964151 10
6.9065 16.2707 1.54643 0.000249443 10
6.87399 16.1941 2.1601 0.000322034 10
6.90554 16.2684 2.79919 0.000767908 10
6.90694 16.2717 3.43605 0.000749502 10
6.87365 16.1933 4.06138 0.000299921 10
6.87461 16.1956 4.71435 0.000289945 10
3.9388 9.37004 -2.7235 0.000513794 1
4.56348 10.8561 -2.71876 0.000310881 1
5.41819 12.8894 -2.7178 0.000169693 1
6.64383 15.8051 -2.71545 7.95768e-05 1
6.88707 16.3837 -2.18217 0.000424932 10
6.98702 16.6215 -1.57745 0.000960568 10
6.98905 16.6263 -0.945202 0.000969883 10
6.99134 16.6317 -0.314915 0.000974571 10
6.99408 16.6383 0.315038 0.000974578 10
6.99072 16.6303 0.945428 0.000969907 10
6.87366 16.3518 1.55185 0.000337259 10
6.8802 16.3674 2.18 0.000332605 10
6.88186 16.3713 2.81274 0.000326417 10
6.87098 16.3454 3.44653 0.000318763 10
6.87283 16.3498 4.09459 0.000309726 10
6.87708 16.3599 4.75519 0.000299406 10
3.90242 9.37496 -2.72095 0.00051376 1
4.5243 10.8689 -2.71801 0.000310857 1
5.3743 12.9109 -2.71837 0.000169677 1
6.59086 15.8335 -2.71637 7.95671e-05 1
6.87897 16.5256 -2.19787 0.000411461 10
6.91584 16.6142 -1.57446 0.000966248 10
6.91572 16.614 -0.943123 0.000975614 10
6.91782 16.619 -0.314214 0.000980327 10
6.91684 16.6166 0.314169 0.000980335 10
6.91547 16.6133 0.943088 0.000975637 10
6.87992 16.5279 1.56628 0.000326587 10
6.87738 16.5218 2.19736 0.000322073 10
6.87839 16.5243 2.83488 0.000316071 10
6.8716 16.5079 3.47572 0.000308647 10
6.87357 16.5127 4.12935 0.000299882 10
6.87287 16.511 4.7921 0.000289871 10
3.8701 9.38956 -2.72126 0.000513726 1
4.48916 10.8915 -2.71972 0.000310833 1
5.32674 12.9236 -2.71712 0.000169661 1
6.53008 15.8431 -2.7141 7.95574e-05 1
6.88327 16.7 -2.21785 0.000398267 10
6.8813 16.6953 -1.57985 0.000404315 10
6.87887 16.6894 -0.946035 0.000408463 10
6.8813 16.6953 -0.3152 0.000410664 10
6.87548 16.6812 0.314933 0.000410893 10
6.87617 16.6828 0.945663 0.000409149 10
6.87147 16.6714 1.5776 0.000316134 10
6.87125 16.6709 2.21398 0.000311758 10
6.87382 16.6771 2.85697 0.000305938 10
6.86765 16.6621 3.50312 0.000298739 10
6.87659 16.6838 4.16612 0.000290239 10
6.86595 16.658 4.82778 0.000280533 10
3.83895 9.40706 -2.72243 0.000513692 1
4.45013 10.9047 -2.71912 0.000310808 1
5.28025 12.9389 -2.71643 0.000169644 1
6.4818 15.8832 -2.71706 7.95476e-05 1
6.88184 16.8634 -2.23635 0.000385345 10
6.88043 16.86 -1.59316 0.000391211 10
6.88322 16.8668 -0.954726 0.000395234 10
6.87369 16.8435 -0.317543 0.00039737 10
6.87449 16.8454 0.31758 0.000397594 10
6.87355 16.8431 0.953385 0.000395905 10
6.87417 16.8446 1.59171 0.000305897 10
6.8685 16.8307 2.23201 0.000301655 10
6.87091 16.8367 2.88017 0.000296014 10
6.87645 16.8502 3.53759 0.000289036 10
6.87423 16.8448 4.20029 0.000280797 10
6.86516 16.8226 4.86849 0.000271389 10
3.80803 9.42521 -2.72381 0.000513658 1
4.40898 10.9126 -2.71723 0.000310784 1
5.23429 12.9553 -2.71603 0.000169628 1
6.42877 15.9117 -2.71809 7.95378e-05 1
6.87639 17.0196 -2.25387 0.000372697 10
6.87805 17.0238 -1.60635 0.000378385 10
6.8773 17.0219 -0.962139 0.000382286 10
6.87755 17.0225 -0.320464 0.000384357 10
6.87621 17.0192 0.320402 0.000384577 10
6.87149 17.0075 0.961327 0.000382941 10
6.87226 17.0094 1.605 0.000295876 10
6.87497 17.0161 2.2534 0.000291766 10
6.86894 17.0012 2.9042 0.000286301 10
6.87322 17.0118 3.56645 0.000279539 10
6.86745 16.9975 4.23237 0.000271556 10
6.8689 17.0011 4.91319 0.00026244 10
3.77273 9.43249 -2.7221 0.000513624 1
4.37259 10.9323 -2.71831 0.000310759 1
5.19311 12.9837 -2.71816 0.000169612 1
6.36802 15.9212 -2.71589 7.9528e-05 1
6.87459 17.1877 -2.27293 0.000360318 10
6.94481 17.3633 -1.63609 8.27993e-05 10
11.0589 27.6492 -1.56064 7.91059e-05 10
11.0563 27.6428 -0.519671 7.96001e-05 10
11.0566 27.6435 0.519684 7.96528e-05 10
7.55468 18.8881 1.06612 3.8447e-05 10
6.87651 17.1925 1.62 0.000286068 10
6.87152 17.18 2.27192 0.000282088 10
6.86999 17.1762 2.92998 0.000276794 10
6.86446 17.1624 3.59297 0.000270244 10
6.86911 17.174 4.27032 0.000262512 10
6.86433 17.162 4.95275 0.000253683 10
3.73478 9.43298 -2.71846 0.00051359 1
4.33524 10.9495 -2.71883 0.000310735 1
5.15212 13.0128 -2.72047 0.000169595 1
6.3107 15.939 -2.71516 7.95182e-05 1
6.87277 17.3586 -2.29235 0.000348209 10
6.88374 17.3863 -1.63599 8.27805e-05 10
12.8029 32.3364 -1.82267 0.000109101 10
7.48786 18.9122 1.066 3.84622e-05 10
6.87268 17.3584 1.63336 0.000276473 10
6.8668 17.3436 2.29036 0.00027262 10
6.86502 17.339 2.95365 0.000267494 10
6.86777 17.346 3.62638 0.000261153 10
6.87009 17.3519 4.30855 0.000253666 10
6.86799 17.3466 4.99905 0.000245118 10
3.70217 9.44683 -2.71871 0.000513556 1
4.30201 10.9774 -2.72201 0.00031071 1
5.10676 13.0309 -2.72052 0.000169579 1
6.2536 15.9573 -2.71454 7.95083e-05 1
6.87337 17.5388 -2.31296 0.000336365 10
6.87441 17.5414 -1.64832 0.000341536 10
12.6734 32.3386 -1.82029 0.000109845 10
7.42062 18.9352 1.06583 3.84774e-05 10
6.86712 17.5228 1.64657 0.000267088 10
6.86702 17.5226 2.31082 0.000263358 10
6.86316 17.5127 2.97914 0.000258397 10
6.86654 17.5213 3.658 0.00025226 10
6.86314 17.5127 4.34251 0.000245014 10
6.86685 17.5221 5.04271 0.000236741 10
3.6673 9.45486 -2.71732 0.000513522 1
4.2581 10.978 -2.71845 0.000310686 1
5.05552 13.0339 -2.71744 0.000169563 1
6.20003 15.9846 -2.71549 7.94985e-05 1
6.87078 17.7139 -2.33288 0.000324786 10
6.87622 17.728 -1.66358 0.000329792 10
12.5374 32.3233 -1.81696 0.000110585 10
7.34446 18.9351 1.06438 3.84926e-05 10
6.87335 17.7205 1.66288 0.000257912 10
6.86247 17.6925 2.33005 0.000254304 10
6.86763 17.7058 3.00788 0.000249505 10
6.86331 17.6947 3.68916 0.000243567 10
6.86779 17.7062 4.38453 0.000236557 10
6.8659 17.7013 5.08735 0.000228553 10
3.63719 9.47521 -2.7195 0.000513487 1
4.22408 11.0041 -2.72124 0.000310661 1
5.0111 13.0544 -2.71804 0.000169546 1
6.1509 16.0237 -2.71846 7.94887e-05 1
6.87566 17.9117 -2.35575 0.000313467 10
6.86717 17.8896 -1.67649 0.000318311 10
12.4046 32.3151 -1.81405 0.000111323 10
7.28761 18.9849 1.06574 3.85078e-05 10
6.86706 17.8893 1.67646 0.000633797 10
6.86968 17.8961 2.3537 0.000624541 10
6.86363 17.8804 3.03345 0.000240812 10
6.86 17.8709 3.72089 0.000235069 10
6.86518 17.8844 4.42269 0.00022829 10
6.86625 17.8872 5.13384 0.00022055 10
3.60577 9.49225 -2.72076 0.000513454 1
4.1848 11.0166 -2.7207 0.000310637 1
4.97117 13.0867 -2.72115 0.00016953 1
6.09302 16.04 -2.7176 7.94788e-05 1
6.87294 18.0931 -2.37644 0.000302409 10
6.86812 18.0805 -1.69212 0.000307094 10
12.2765 32.3182 -1.81181 0.000112057 10
7.21417 18.9914 1.06469 3.85231e-05 10
6.79162 17.8791 1.67327 0.000637274 10
6.79454 17.8867 2.34933 0.00062797 10
6.79383 17.8849 3.03018 0.000615725 10
6.79353 17.8841 3.71867 0.000600679 10
6.79163 17.8791 4.41549 0.000582998 10
6.78946 17.8734 5.12304 0.000562878 10
3.5701 9.49808 -2.71885 0.000513419 1
4.14918 11.0387 -2.72257 0.000310612 1
4.91698 13.0814 -2.71646 0.000169513 1
6.03616 16.0589 -2.71723 7.94689e-05 1
6.87448 18.2892 -2.39903 0.000291608 10
6.87379 18.2874 -1.70923 0.000296138 10
12.1483 32.3201 -1.80953 0.000112789 10
7.14629 19.0124 1.06446 3.85384e-05 10
6.72323 17.8869 1.67179 0.000640732 10
6.71726 17.871 2.34417 0.000631381 10
6.71962 17.8772 3.02489 0.000619074 10
6.71944 17.8768 3.71226 0.000603951 10
6.72612 17.8945 4.41348 0.000586179 10
6.7252 17.8921 5.12165 0.000565957 10
3.54236 9.52511 -2.72303 0.000513385 1
4.1018 11.0294 -2.71673 0.000310587 1
4.87542 13.1096 -2.71877 0.000169497 1
5.97422 16.0642 -2.71457 7.9459e-05 1
6.86795 18.4674 -2.41924 0.00028106 10
6.86314 18.4544 -1.72259 0.000285439 10
6.98568 18.7839 -1.0503 0.000474696 10
6.98751 18.7888 -0.349906 0.000477051 10
6.99026 18.7962 0.350043 0.000477055 10
6.98833 18.791 1.05069 0.000474707 10
6.65524 17.8954 1.67041 0.000644172 10
6.65116 17.8844 2.34287 0.000634774 10
6.64642 17.8717 3.02001 0.000622405 10
6.64669 17.8724 3.70651 0.000607206 10
6.65473 17.894 4.4076 0.000589345 10
6.65181 17.8862 5.11328 0.00056902 10
3.50632 9.52988 -2.72088 0.00051335 1
4.06956 11.0607 -2.72092 0.000310563 1
4.82991 13.1273 -2.71892 0.00016948 1
5.92332 16.0991 -2.71696 7.94491e-05 1
6.8692 18.6699 -2.44262 0.000270766 10
6.86074 18.6469 -1.73831 0.000274996 10
6.91066 18.7826 -1.04887 0.000477247 10
6.91307 18.7892 -0.34946 0.000479614 10
6.91485 18.794 0.34955 0.000479618 10
6.91172 18.7855 1.04903 0.000477258 10
6.58234 17.8903 1.66777 0.000647594 10
6.58211 17.8896 2.34053 0.000638148 10
6.57675 17.8751 3.01668 0.000625718 10
6.58429 17.8956 3.70652 0.000610442 10
6.58352 17.8935 4.40177 0.000592492 10
6.57607 17.8732 5.10298 0.000572065 10
3.47593 9.55004 -2.72315 0.000513316 1
4.03188 11.0775 -2.72157 0.000310538 1
4.78473 13.1459 -2.7193 0.000169464 1
5.86816 16.1226 -2.71746 7.94392e-05 1
6.86538 18.8625 -2.46466 0.000260721 10
6.86536 18.8624 -1.75616 0.000264805 10
6.85863 18.8439 -1.05095 0.000176765 10
6.85805 18.8423 -0.350002 0.000177754 10
6.86491 18.8612 0.350352 0.000177867 10
6.86262 18.8549 1.05156 0.000177103 10
6.50581 17.8746 1.66418 0.000650996 10
6.50771 17.8798 2.33626 0.000641504 10
6.51082 17.8883 3.01506 0.000629012 10
6.50592 17.8749 3.69751 0.000613661 10
6.5087 17.8825 4.39346 0.000595622 10
6.51186 17.8912 5.10159 0.000575094 10
3.44101 9.55778 -2.72192 0.000513281 1
3.99481 11.096 -2.72268 0.000310513 1
4.73817 13.1608 -2.71894 0.000169447 1
5.81207 16.1436 -2.71756 7.94293e-05 1
6.86872 19.0786 -2.48975 0.000250924 10
6.8667 19.073 -1.77352 0.000254866 10
6.86484 19.0678 -1.06209 0.000170135 10
6.86507 19.0684 -0.353755 0.000171091 10
6.86462 19.0672 0.353732 0.000463956 10
6.8604 19.0555 1.0614 0.000461666 10
6.85475 19.0398 1.77043 0.000199366 10
6.88183 19.115 2.4945 0.000336089 10
6.88475 19.1231 3.21912 0.000329434 10
6.50085 18.0568 3.73042 0.000220999 10
6.50297 18.0627 4.43213 0.00021463 10
6.50284 18.0623 5.14389 0.000207356 10
3.40447 9.56087 -2.7194 0.000513247 1
3.95028 11.0937 -2.71871 0.000310488 1
4.68761 13.1643 -2.71628 0.000169431 1
5.75423 16.1598 -2.71688 7.94193e-05 1
6.86503 19.2792 -2.51279 0.00024137 10
6.85927 19.2631 -1.78896 0.000245174 10
6.88015 19.3217 -1.07489 0.000444381 10
6.88537 19.3364 -0.358277 0.0004466 10
6.87954 19.32 0.357973 0.000446604 10
6.85574 19.2532 1.07108 0.000193583 10
6.85459 19.2499 1.78774 0.000191792 10
6.819 19.15 2.49594 0.000526673 10
6.81511 19.1391 3.21778 0.000516244 10
6.4964 18.244 3.76439 0.000212689 10
6.85034 19.238 4.71462 0.000175654 10
6.85452 19.2497 5.47519 0.000169605 10
3.37162 9.57423 -2.71983 0.000513212 1
3.91434 11.1154 -2.72065 0.000310463 1
4.65068 13.2063 -2.72157 0.000169414 1
5.70064 16.1878 -2.71824 7.94093e-05 1
6.86517 19.4947 -2.53773 0.00023206 10
6.86379 19.4908 -1.80787 0.000235728 10
6.89682 19.5846 -1.08817 0.000427914 10
6.89938 19.5918 -0.362562 0.000430057 10
6.89891 19.5905 0.362537 0.000430061 10
6.85221 19.4579 1.08113 0.000186136 10
6.85428 19.4638 1.80536 0.00018441 10
6.74052 19.1407 2.49166 0.000529399 10
6.74616 19.1567 3.21677 0.000518919 10
6.49694 18.4491 3.802 0.000204587 10
6.84717 19.4436 4.75912 0.000168859 10
6.84851 19.4474 5.52458 0.000163031 10
3.33969 9.59027 -2.72106 0.000513178 1
3.87039 11.1142 -2.71706 0.000310438 1
4.60048 13.2108 -2.71917 0.000169397 1
5.63989 16.1956 -2.71621 7.93994e-05 1
6.85659 19.6895 -2.55996 0.000222989 10
6.85778 19.6929 -1.82438 0.000226524 10
6.91565 19.8591 -1.10207 0.000412206 10
6.9203 19.8724 -0.367305 0.000414278 10
6.85151 19.6749 0.363653 0.000152192 10
6.85219 19.6768 1.09196 0.000178879 10
6.8491 19.6679 1.82207 0.000177217 10
6.66875 19.15 2.48982 0.000532108 10
6.66738 19.1461 3.21106 0.000521579 10
6.4968 18.6563 3.84001 0.00019669 10
6.84463 19.6551 4.80501 0.00016224 10
6.84293 19.6502 5.57539 0.000156627 10
3.30605 9.60146 -2.72094 0.000513143 1
3.83429 11.1356 -2.71898 0.000310414 1
4.55509 13.2289 -2.71961 0.000169381 1
5.58535 16.221 -2.7172 7.93894e-05 1
6.85999 19.9229 -2.58717 0.000214156 10
6.85962 19.9218 -1.84336 0.000217562 10
6.85252 19.9012 -1.10307 0.000145253 10
6.85256 19.9013 -0.367394 0.000146081 10
6.8514 19.8979 0.367332 0.00014618 10
6.85093 19.8965 1.10282 0.000171811 10
6.85114 19.8972 1.84108 0.000170213 10
6.58653 19.1287 2.48404 0.000534801 10
6.59534 19.1543 3.20854 0.000524221 10
6.50009 18.8776 3.88087 0.000188997 10
6.84591 19.8819 4.85459 0.000155795 10
6.84615 19.8827 5.63452 0.000150392 10
3.26934 9.60361 -2.7183 0.000513108 1
3.80167 11.1673 -2.72348 0.000310389 1
4.51241 13.2551 -2.72174 0.000169364 1
5.53069 16.2463 -2.71818 7.93794e-05 1
6.8525 20.1291 -2.61083 0.000205557 10
6.85453 20.135 -1.86087 0.000208837 10
6.8558 20.1388 -1.11491 0.000399225 10
6.85359 20.1323 -0.371215 0.000401237 10
6.85077 20.124 0.371062 0.00040124 10
6.84518 20.1076 1.11318 0.000164931 10
6.84991 20.1215 1.85961 0.000163394 10
6.51799 19.1464 2.48338 0.000537476 10
6.51773 19.1457 3.20328 0.000526847 10
6.84293 20.1009 4.12743 0.000154076 10
6.84678 20.1123 4.90497 0.000149522 10
6.84719 20.1135 5.69312 0.000144323 10
3.24384 9.63887 -2.72506 0.000513073 1
3.7623 11.1794 -2.72322 0.000310364 1
4.45893 13.2494 -2.71736 0.000169347 1
5.47618 16.2721 -2.71929 7.93693e-05 1
6.85317 20.3638 -2.63815 0.000197189 10
6.85742 20.3764 -1.88095 0.000200345 10
6.86581 20.4013 -1.12811 0.000384821 10
6.86533 20.3999 -0.375706 0.000386767 10
6.86684 20.4044 0.375788 0.00038677 10
6.84619 20.343 1.12489 0.000158235 10
6.84671 20.3446 1.87801 0.000156757 10
6.84275 20.3328 2.63414 0.000154506 10
6.84666 20.3444 3.39982 0.000151508 10
6.84672 20.3446 4.17253 0.000147797 10
6.84643 20.3438 4.95556 0.000143417 10
6.84109 20.3279 5.74702 0.000138418 10
3.20247 9.62696 -2.71852 0.000513038 1
3.71961 11.1815 -2.72055 0.000310339 1
4.42042 13.2883 -2.72214 0.000169331 1
5.41687 16.2837 -2.71804 7.93593e-05 1
6.84877 20.5881 -2.6641 0.000189051 10
6.84645 20.5812 -1.89763 0.000192087 10
6.87452 20.6656 -1.14139 0.000371058 10
6.87392 20.6637 -0.38012 0.000372942 10
6.88077 20.6843 0.380499 0.000372945 10
6.84775 20.5851 1.13694 0.000151722 10
6.84288 20.5704 1.89664 0.000150302 10
6.84222 20.5684 2.66156 0.000148139 10
6.84062 20.5637 3.43244 0.000145257 10
6.84343 20.5721 4.21426 0.000141691 10
6.84362 20.5727 5.00547 0.000137481 10
6.83774 20.555 5.80444 0.000132677 10
3.17465 9.65575 -2.7235 0.000513004 1
3.68371 11.2041 -2.72288 0.000310314 1
4.36959 13.2902 -2.7194 0.000169314 1
5.3584 16.2977 -2.71724 7.93493e-05 1
6.85281 20.843 -2.69397 0.000181139 10
6.85196 20.8404 -1.91932 0.000184057 10
6.88803 20.9501 -1.15577 0.000357904 10
6.88269 20.9338 -0.384644 0.000359726 10
6.88908 20.9533 0.385001 0.000359729 10
6.84298 20.813 1.14821 0.000145389 10
6.84136 20.8081 1.91634 0.000144026 10
6.83762 20.7967 4.25537 0.000135754 10
6.84243 20.8114 5.05771 0.00013171 10
3.13815 9.65824 -2.7211 0.000512969 1
3.64421 11.2157 -2.72261 0.000310288 1
4.32367 13.3069 -2.71971 0.000169297 1
5.30295 16.3208 -2.71799 7.93392e-05 1
6.83134 21.0247 -2.71436 2.90784e-05 1
6.84908 21.0793 -1.93911 0.000176254 10
6.88972 21.2044 -1.16846 0.000345322 10
6.88881 21.2016 -0.38912 0.000347086 10
6.89333 21.2155 0.389375 0.000347089 10
6.84677 21.0722 1.16118 0.000139235 10
6.84043 21.0527 1.93665 0.000137927 10
6.84152 21.056 4.3035 0.000129986 10
6.84084 21.0539 5.11083 0.000126104 10
3.10293 9.66451 -2.7198 0.000512933 1
3.59827 11.2073 -2.7175 0.000310263 1
4.27914 13.328 -2.72095 0.00016928 1
5.24305 16.3302 -2.71649 7.93292e-05 1
6.76209 21.0615 -2.71604 2.90734e-05 1
6.84604 21.3229 -1.95931 0.000168674 10
6.89754 21.4833 -1.1825 0.000333285 10
6.89624 21.4793 -0.393772 0.000334993 10
6.9 21.491 0.393987 0.000334995 10
6.84057 21.3059 1.17273 0.000133257 10
6.84288 21.3131 1.9584 0.000132001 10
6.83172 21.2783 4.34404 0.000124383 10
6.83253 21.2808 5.16008 0.000120658 10
3.06717 9.66893 -2.71801 0.000512899 1
3.56349 11.2335 -2.72083 0.000310238 1
4.23011 13.335 -2.71935 0.000169264 1
5.18751 16.3531 -2.71727 7.93191e-05 1
6.68855 21.085 -2.71604 2.90683e-05 1
6.84701 21.5845 -1.98113 0.000161316 10
6.84012 21.5628 -1.18555 0.00010773 10
6.83724 21.5537 -0.394697 0.000108362 10
6.84394 21.5748 0.395083 0.000108442 10
6.84284 21.5714 1.18602 0.000127452 10
6.8387 21.5583 1.97873 0.000126249 10
6.86494 21.641 2.78767 0.000240567 10
6.86113 21.629 3.59393 0.000235658 10
6.83596 21.5497 4.39454 0.000118944 10
6.83326 21.5411 5.21739 0.000115372 10
6.85857 21.6209 6.07781 0.000214513 10
3.03942 9.6988 -2.72341 0.000512864 1
3.52304 11.242 -2.71989 0.000310213 1
4.18354 13.3497 -2.71935 0.000169247 1
5.12965 16.3687 -2.71687 7.9309e-05 1
6.61246 21.1004 -2.71504 2.90632e-05 1
6.84542 21.8437 -2.00272 0.000154175 10
6.83758 21.8187 -1.1983 0.000102965 10
6.83878 21.8226 -0.399181 0.000103572 10
6.84114 21.8301 0.399318 0.00010365 10
6.83579 21.813 1.19799 0.000121819 10
6.83315 21.8046 1.99913 0.000120667 10
6.83213 21.8013 2.80523 0.000118909 10
6.83659 21.8156 3.62094 0.000116566 10
6.8307 21.7968 4.44004 0.000113667 10
6.82821 21.7888 5.27157 0.000110244 10
6.82644 21.7832 6.11668 0.000106338 10
3.00511 9.70795 -2.72302 0.000512829 1
3.48229 11.2495 -2.71873 0.000310188 1
4.13787 13.3673 -2.71998 0.00016923 1
5.07059 16.3804 -2.71586 7.92989e-05 1
6.54114 21.131 -2.71603 2.90581e-05 1
6.84303 22.1062 -2.02459 0.000147248 10
6.83595 22.0834 -1.21152 9.83433e-05 10
6.83888 22.0929 -0.403686 9.89257e-05 10
6.83417 22.0776 0.403407 9.90012e-05 10
6.83446 22.0786 1.21126 0.000116355 10
6.83458 22.079 2.02209 0.000115252 10
6.83138 22.0686 2.83654 0.000113568 10
6.82717 22.055 3.6567 0.000111325 10
6.83117 22.0679 4.49039 0.000108548 10
6.82642 22.0526 5.32959 0.00010527 10
6.82389 22.0444 6.18331 0.00010153 10
2.96608 9.7016 -2.71831 0.000512793 1
3.44341 11.2629 -2.71905 0.000310163 1
4.08882 13.3739 -2.71841 0.000169213 1
5.0158 16.4059 -2.71717 7.92888e-05 1
6.46307 21.1397 -2.71423 2.90531e-05 1
6.83885 22.3688 -2.04644 0.000140534 10
6.84011 22.373 -1.22609 9.38632e-05 10
6.83088 22.3428 -0.407814 9.44216e-05 10
6.82969 22.3389 0.407743 9.44947e-05 10
6.83176 22.3456 1.22459 0.000111058 10
6.8338 22.3523 2.04493 0.000110003 10
6.8262 22.3275 2.86673 0.000108392 10
6.82426 22.3211 3.69686 0.000106245 10
6.82936 22.3378 4.54042 0.000103587 10
6.8297 22.3389 5.39299 0.00010045 10
6.82825 22.3342 6.25787 9.68699e-05 10
2.93934 9.73556 -2.72494 0.000512758 1
3.4092 11.2918 -2.72314 0.000310137 1
4.04087 13.384 -2.71757 0.000169196 1
4.96243 16.4364 -2.71933 7.92786e-05 1
6.39189 21.171 -2.71536 2.90479e-05 1
6.83688 22.6448 -2.06949 0.000134028 10
6.83096 22.6252 -1.2386 0.000135531 10
6.83505 22.6388 -0.412779 0.000136341 10
6.82912 22.6191 0.41242 0.000136448 10
6.83159 22.6273 1.23872 0.000105925 10
6.82458 22.6041 2.06577 0.000104916 10
6.82833 22.6165 2.90077 0.000103375 10
6.82454 22.604 3.73973 0.000101322 10
6.82145 22.5937 4.58757 9.87797e-05 10
6.8208 22.5916 5.44821 9.57792e-05 10
6.81819 22.5829 6.32086 9.23558e-05 10
2.8987 9.72347 -2.71871 0.000512723 1
3.37042 11.3058 -2.72368 0.000310112 1
3.9981 13.4113 -2.72028 0.000169179 1
4.90189 16.4431 -2.71759 7.92685e-05 1
6.32217 21.2073 -2.71717 2.90428e-05 1
6.83044 22.9122 -2.09174 0.000127728 10
6.83269 22.9198 -1.25341 0.000129167 10
6.83464 22.9263 -0.417584 0.000129942 10
6.82643 22.8988 0.417083 0.000130046 10
6.82496 22.8939 1.252 0.000100954 10
6.82903 22.9075 2.09131 9.99904e-05 10
6.82366 22.8895 2.9327 9.85182e-05 10
6.82086 22.8801 3.78145 9.65556e-05 10
6.82087 22.8801 4.64086 9.41258e-05 10
6.82295 22.8871 5.5137 9.12581e-05 10
6.82312 22.8877 6.39945 8.79862e-05 10
2.86654 9.73968 -2.72042 0.000512687 1
3.32911 11.3114 -2.72219 0.000310087 1
3.95188 13.4273 -2.72071 0.000169162 1
4.8488 16.4748 -2.72002 7.92584e-05 1
6.24361 21.214 -2.71522 2.90377e-05 1
6.82744 23.1976 -2.11561 0.00012163 10
9.5091 32.3091 -1.76506 0.00012726 10
6.82285 23.1821 1.26645 9.61428e-05 10
6.76327 22.9796 2.09572 0.000323462 10
6.76372 22.9811 2.9414 0.000318442 10
6.7653 22.9865 3.79511 0.000311841 10
6.8209 23.1754 4.6959 8.96216e-05 10
6.82203 23.1793 5.57832 8.68827e-05 10
6.76611 22.9893 6.42121 0.000283431 10
2.83755 9.76692 -2.72525 0.000512652 1
3.28894 11.3206 -2.72163 0.000310061 1
3.90283 13.4336 -2.7192 0.000169145 1
4.78898 16.4838 -2.71872 7.92482e-05 1
6.17003 21.2374 -2.71544 2.90326e-05 1
6.82465 23.4906 -2.14014 0.000115733 10
9.3883 32.3147 -1.76357 0.000127899 10
9.38378 32.2991 -0.587095 8.49738e-05 10
9.3815 32.2913 0.586952 8.49747e-05 10
6.82255 23.4834 1.2816 9.14889e-05 10
6.68092 22.9959 2.09506 0.000324914 10
6.67763 22.9845 2.93884 0.000319872 10
6.67878 22.9885 3.79157 0.000313244 10
6.81631 23.4619 4.74909 8.52658e-05 10
6.80045 23.4073 5.62744 6.70119e-05 10
6.67412 22.9724 6.40997 0.000284715 10
2.80044 9.76631 -2.72233 0.000512617 1
3.24911 11.331 -2.72139 0.000310036 1
3.859 13.4579 -2.72138 0.000169128 1
4.732 16.5025 -2.71907 7.92381e-05 1
6.10053 21.2751 -2.71752 2.90275e-05 1
6.82252 23.793 -2.1655 0.000110031 10
6.98992 24.3768 -1.32902 0.000230415 10
6.98919 24.3742 -0.442599 0.000231637 10
6.98624 24.3639 0.442412 0.000231639 10
6.81894 23.7805 1.29651 8.69891e-05 10
6.58995 22.9819 2.09168 0.000326353 10
6.58984 22.9815 2.93549 0.000321291 10
6.58644 22.9696 3.78465 0.000314635 10
6.81524 23.7676 4.80613 8.1055e-05 10
6.71852 23.4303 5.6273 6.70185e-05 10
6.58762 22.9738 6.40388 0.000285988 10
2.76609 9.77514 -2.72209 0.000512582 1
3.20643 11.3313 -2.71875 0.000310011 1
3.80875 13.4598 -2.71906 0.000169112 1
4.67508 16.5214 -2.71948 7.92279e-05 1
6.02108 21.278 -2.7152 2.90224e-05 1
6.82639 24.1239 -2.19344 0.000104523 10
6.89263 24.358 -1.32667 0.00023144 10
6.89597 24.3698 -0.44208 0.000232667 10
6.89081 24.3516 0.441748 0.000232669 10
6.74432 23.8339 1.29813 0.000294343 10
6.50163 22.9763 2.08909 0.00032778 10
6.50365 22.9834 2.93281 0.000322697 10
6.50118 22.9747 3.78171 0.000316014 10
6.73959 23.8172 4.81138 0.000273337 10
6.63355 23.4425 5.62463 6.70251e-05 10
6.50121 22.9748 6.3978 0.00028725 10
2.73544 9.79723 -2.72556 0.000512546 1
3.16723 11.3437 -2.71907 0.000309985 1
3.76263 13.4762 -2.71969 0.000169095 1
4.61876 16.5425 -2.72028 7.92177e-05 1
5.95248 21.3194 -2.71781 2.90173e-05 1
6.82456 24.4428 -2.22026 9.92055e-05 10
6.81847 24.421 -1.3288 6.62824e-05 10
6.81847 24.421 -0.442573 6.66909e-05 10
6.82032 24.4276 0.442693 6.67484e-05 10
6.64932 23.8151 1.29583 0.000295626 10
6.46504 23.1551 2.10329 9.24593e-05 10
6.65494 23.8353 3.03854 0.000287956 10
6.45964 23.1358 3.8045 8.92863e-05 10
6.64991 23.8173 4.80667 0.000274535 10
6.54884 23.4553 5.62218 6.70316e-05 10
6.65441 23.8334 6.63038 0.000256007 10
2.69439 9.78191 -2.71867 0.000512511 1
3.12933 11.361 -2.72057 0.000309959 1
3.71553 13.4891 -2.71967 0.000169078 1
4.55865 16.5501 -2.7189 7.92075e-05 1
5.87338 21.3232 -2.71566 2.90121e-05 1
6.82206 24.7673 -2.24756 9.4074e-05 10
6.85731 24.8953 -1.3533 0.000216924 10
6.86235 24.9136 -0.451064 0.000218082 10
6.85817 24.8984 0.450789 0.000218084 10
6.55952 23.8142 1.29453 0.000296897 10
6.46565 23.4734 2.13014 8.77567e-05 10
6.55773 23.8077 3.03208 0.000289196 10
6.45718 23.4426 3.85122 8.47362e-05 10
6.56045 23.8175 4.80208 0.000275721 10
6.46876 23.4847 5.62378 6.70381e-05 10
6.55995 23.8157 6.61906 0.000257119 10
2.66602 9.81258 -2.72459 0.000512475 1
3.08767 11.3645 -2.71881 0.000309934 1
3.67144 13.5131 -2.72191 0.000169061 1
4.50445 16.5791 -2.72107 7.91973e-05 1
5.79892 21.3435 -2.71566 2.9007e-05 1
6.81385 25.0791 -2.27368 8.91267e-05 10
6.83592 25.1604 -1.3664 0.000210077 10
6.84174 25.1818 -0.455484 0.000211202 10
6.83753 25.1663 0.455204 0.000211203 10
6.47464 23.8306 1.29418 0.000298156 10
6.46948 23.8116 2.15877 0.000295045 10
6.47352 23.8265 3.03158 0.000290425 10
6.46962 23.8121 3.9082 0.000284351 10
6.46983 23.8129 4.79656 0.000276897 10
6.45126 23.7446 5.68059 7.59097e-05 10
6.47488 23.8315 6.61712 0.000258221 10
2.63249 9.82457 -2.72535 0.00051244 1
3.05473 11.4004 -2.72484 0.000309909 1
3.62508 13.529 -2.72254 0.000169043 1
4.44363 16.5839 -2.71928 7.91871e-05 1
5.72895 21.3807 -2.71783 2.90018e-05 1
6.81354 25.4285 -2.30318 8.43592e-05 10
6.8164 25.4391 -1.38024 0.000203487 10
6.81832 25.4463 -0.459836 0.00020458 10
6.81549 25.4357 0.459644 0.000204582 10
6.48088 24.187 1.3123 5.69341e-05 10
7.29966 27.2427 2.4675 0.000187796 10
7.30441 27.2604 3.46523 0.000184729 10
6.45145 24.0771 3.94797 7.61133e-05 10
6.47217 24.1545 4.86078 5.30481e-05 10
6.44853 24.0662 5.75213 6.74318e-05 10
7.29805 27.2367 7.5555 0.000163403 10
2.59856 9.83515 -2.72575 0.000512404 1
3.0088 11.3878 -2.71931 0.000309883 1
3.57386 13.5265 -2.71951 0.000169026 1
4.38651 16.6023 -2.71977 7.91768e-05 1
5.64992 21.3841 -2.71573 2.89967e-05 1
6.81021 25.7756 -2.33245 7.97694e-05 10
6.80957 25.7732 -1.39706 5.33086e-05 10
6.80973 25.7738 -0.465321 5.36447e-05 10
6.80493 25.7556 0.464992 5.3694e-05 10
6.47551 24.5088 1.32853 5.3888e-05 10
7.20201 27.2585 2.46664 0.000188605 10
7.20044 27.2526 3.46102 0.000185526 10
6.45048 24.414 3.9995 7.20351e-05 10
6.47071 24.4906 4.92385 5.01984e-05 10
7.1961 27.2361 6.50373 0.000170707 10
7.19592 27.2354 7.54814 0.000164114 10
2.5628 9.83873 -2.72425 0.000512368 1
2.97207 11.4099 -2.72209 0.000309857 1
3.52641 13.5381 -2.71935 0.000169009 1
4.32659 16.61 -2.71855 7.91666e-05 1
5.57729 21.4115 -2.71673 2.89916e-05 1
6.80577 26.1277 -2.36216 7.53528e-05 10
7.09562 27.2405 -1.47525 0.000245582 10
7.09589 27.2416 -0.49137 0.000246929 10
7.10008 27.2576 0.491659 0.000246932 10
6.47321 24.8511 1.34585 5.09543e-05 10
7.09723 27.2467 2.46332 0.000189406 10
7.09635 27.2433 3.45668 0.000186315 10
6.44774 24.7533 4.05135 6.81077e-05 10
6.46839 24.8326 4.98803 4.74544e-05 10
7.09674 27.2448 6.49985 0.000171438 10
7.09982 27.2566 7.54709 0.000164819 10
2.52374 9.8293 -2.71918 0.000512333 1
2.92942 11.4093 -2.71949 0.000309832 1
3.47987 13.5532 -2.71993 0.000168992 1
4.27166 16.637 -2.72051 7.91563e-05 1
5.50464 21.4391 -2.71778 2.89864e-05 1
6.80358 26.4982 -2.39349 7.11072e-05 10
6.99571 27.2465 -1.47424 0.00024661 10
6.99534 27.245 -0.490989 0.000247962 10
6.99791 27.2551 0.491169 0.000247964 10
6.47221 25.2076 1.36392 4.8132e-05 10
6.99741 27.2531 2.46167 0.000190199 10
6.99572 27.2465 3.45396 0.000187096 10
6.44764 25.1119 4.10634 6.43297e-05 10
6.46551 25.1815 5.05355 4.48151e-05 10
6.99474 27.2427 6.49348 0.000172161 10
6.998 27.2554 7.53994 0.000165516 10
2.49489 9.8597 -2.72517 0.000512297 1
2.89058 11.4234 -2.72043 0.000309806 1
3.43404 13.5712 -2.72111 0.000168975 1
4.21468 16.6563 -2.72124 7.9146e-05 1
5.42946 21.457 -2.71763 2.89812e-05 1
6.79948 26.8713 -2.42503 6.70281e-05 10
6.89592 27.2524 -1.47325 0.000247627 10
6.89169 27.2357 -0.490385 0.000248985 10
6.89758 27.259 0.490804 0.000248987 10
6.47171 25.576 1.38263 4.54181e-05 10
6.89536 27.2502 2.45922 0.000190984 10
6.89531 27.25 3.45134 0.000187869 10
6.44426 25.4675 4.16078 6.06969e-05 10
6.4651 25.5498 5.12292 4.22776e-05 10
6.89357 27.2431 6.4878 0.000172877 10
6.89664 27.2552 7.5332 0.000166207 10
2.45727 9.85556 -2.72164 0.000512261 1
2.85048 11.4327 -2.72024 0.000309781 1
3.38562 13.579 -2.72029 0.000168958 1
4.15424 16.6617 -2.71975 7.91358e-05 1
5.35492 21.4774 -2.71783 2.89761e-05 1
6.80045 27.2751 -2.45931 6.31134e-05 10
6.79818 27.266 -1.4727 6.38707e-05 10
6.79554 27.2554 -0.490309 6.42836e-05 10
6.79799 27.2652 0.490485 6.4347e-05 10
6.46546 25.9315 1.40062 4.28112e-05 10
6.79437 27.2507 2.45712 0.000191761 10
6.78993 27.2329 3.44615 0.000188634 10
6.43827 25.8225 4.21508 5.72077e-05 10
6.45968 25.9083 5.19024 3.98408e-05 10
6.79067 27.2359 6.48039 0.000173585 10
6.79284 27.2446 7.52365 0.00016689 10
2.42511 9.87325 -2.72416 0.000512226 1
2.81426 11.4576 -2.72382 0.000309755 1
3.34043 13.5998 -2.7221 0.000168941 1
4.09322 16.6646 -2.71787 7.91255e-05 1
5.27922 21.4931 -2.71746 2.89709e-05 1
6.79887 27.68 -2.49367 5.93589e-05 10
6.79398 27.6601 -1.49269 6.00753e-05 10
6.79205 27.6523 -0.497019 6.04662e-05 10
6.7951 27.6647 0.497242 6.0527e-05 10
6.46358 26.3149 1.4201 4.03087e-05 10
6.692 27.2449 2.45447 0.00019253 10
6.68938 27.2342 3.44334 0.000189391 10
6.43758 26.2091 4.2745 5.38587e-05 10
6.45478 26.2791 5.25998 3.75021e-05 10
6.69332 27.2503 6.47822 0.000174286 10
6.5565 26.6932 7.36503 4.96929e-05 10
2.3879 9.87038 -2.72106 0.00051219 1
2.77249 11.4601 -2.7221 0.000309729 1
3.29271 13.6104 -2.72192 0.000168924 1
4.03962 16.6978 -2.72096 7.91152e-05 1
5.2017 21.5013 -2.71618 2.89657e-05 1
6.79309 28.0793 -2.52749 5.57607e-05 10
7.81195 32.2907 -1.74111 0.000135711 10
6.45732 26.6914 1.43919 3.79082e-05 10
6.59121 27.2448 2.45237 0.00019329 10
6.59291 27.2518 3.44263 0.00019014 10
6.43225 26.5877 4.33257 5.06464e-05 10
6.45158 26.6676 5.3332 3.52593e-05 10
6.5897 27.2385 6.46992 0.00017498 10
6.45935 26.6997 7.36055 4.96973e-05 10
2.35323 9.87783 -2.72083 0.000512154 1
2.73143 11.4653 -2.72106 0.000309703 1
3.24492 13.6207 -2.7217 0.000168906 1
3.97842 16.6996 -2.71898 7.91049e-05 1
5.12646 21.5186 -2.7161 2.89605e-05 1
6.79169 28.5085 -2.56397 5.23167e-05 10
7.69626 32.3055 -1.74044 0.00013627 10
6.45657 27.1018 1.4601 3.56083e-05 10
6.48715 27.2302 2.449 0.000194042 10
6.49105 27.2465 3.43908 0.00019088 10
6.43317 27.0036 4.39664 4.75689e-05 10
6.44934 27.0715 5.40942 3.31109e-05 10
6.49293 27.2544 6.46828 0.000175665 10
6.4245 26.9672 7.42807 4.31779e-05 10
2.31841 9.88459 -2.72044 0.000512118 1
2.69121 11.474 -2.72087 0.000309678 1
3.19446 13.6197 -2.71924 0.000168889 1
3.9228 16.7249 -2.72086 7.90946e-05 1
5.05251 21.5415 -2.71674 2.89553e-05 1
6.7891 28.9455 -2.60113 4.90222e-05 10
7.57458 32.2944 -1.73841 0.000136824 10
6.73888 28.7314 1.54661 0.000163076 10
6.42872 27.409 2.46305 4.62761e-05 10
6.42604 27.3975 3.45529 4.55684e-05 10
6.42665 27.4002 4.45754 4.46223e-05 10
6.42767 27.4045 5.47146 4.34497e-05 10
6.42333 27.386 6.49414 4.20653e-05 10
6.4218 27.3795 7.53541 4.04866e-05 10
2.288 9.9104 -2.72533 0.000512082 1
2.64944 11.476 -2.71913 0.000309652 1
3.1484 13.6372 -2.72053 0.000168872 1
3.86026 16.7206 -2.71795 7.90843e-05 1
4.97651 21.5556 -2.71632 2.89502e-05 1
