VERSION 0.7
FIELDS x y z intensity label
SIZE 4 4 4 4 4
TYPE F F F F F
COUNT 1 1 1 1 1
WIDTH 1198
HEIGHT 1
VIEWPOINT 31.0301 7.49287 2.7262 0.999998 0.000320181 0.000882167 -0.00191873
POINTS 1198
DATA ascii
36.2947 18.4931 -2.1348 5.08479e-05 6
8.91808 4.58327 -2.6867 0.000299509 4
9.97318 5.12552 -2.58877 0.000613233 4
11.727 6.02687 -2.56292 0.000380366 4
14.136 7.2649 -2.51729 0.000104527 4
19.5386 10.0415 -2.69732 2.98555e-05 1
8.92934 4.62853 -2.69494 0.000300426 4
9.89902 5.13116 -2.57415 0.000611907 4
11.6425 6.03492 -2.54904 0.000418691 4
14.1119 7.31492 -2.51754 5.31637e-05 4
19.5023 10.109 -2.69715 2.98506e-05 1
8.93216 4.66962 -2.7007 0.000290669 4
9.8164 5.13189 -2.55731 0.000585734 4
11.5516 6.03904 -2.53374 0.000269966 4
14.0659 7.35347 -2.51389 0.000103899 4
19.4813 10.1846 -2.69916 2.98458e-05 1
8.94702 4.71723 -2.71015 0.000213962 4
9.74545 5.13819 -2.54348 0.000493313 4
14.0572 7.4115 -2.51694 6.88552e-05 4
19.4365 10.2477 -2.69789 2.9841e-05 1
36.3014 19.1395 -2.15071 4.03518e-05 6
8.94265 4.75489 -2.71384 0.000518549 1
9.66002 5.13632 -2.52585 0.000579807 4
11.4341 6.07964 -2.51722 0.0001485 4
14.0401 7.46525 -2.51853 7.54903e-05 4
19.4129 10.322 -2.6996 2.98361e-05 1
36.3069 19.3047 -2.15501 4.03812e-05 6
8.91471 4.78002 -2.7104 0.000518516 1
9.62121 5.15885 -2.52039 0.000315382 4
11.4169 6.12168 -2.51811 0.000145949 4
13.9942 7.50362 -2.51498 9.7824e-05 4
19.3772 10.39 -2.69966 2.98312e-05 1
36.3271 19.4784 -2.16024 3.99502e-05 6
8.89632 4.81022 -2.7099 0.000518482 1
9.60897 5.19555 -2.52192 0.000349887 4
11.4105 6.16966 -2.52145 0.000168777 4
13.9824 7.56026 -2.51759 3.68306e-05 4
19.3276 10.4504 -2.69781 2.98264e-05 1
36.328 19.6425 -2.16435 3.90736e-05 6
8.89386 4.84909 -2.71429 0.000518449 1
9.60253 5.23547 -2.52501 0.000319938 4
11.3747 6.20167 -2.51828 0.000166224 4
14.9947 8.17537 -2.70498 8.08387e-05 1
19.2858 10.515 -2.69709 2.98215e-05 1
36.3327 19.8092 -2.16874 3.9091e-05 6
8.8669 4.87462 -2.71124 0.000518415 1
9.58221 5.26786 -2.52449 0.000322216 4
11.373 6.25234 -2.52273 0.000170015 4
14.9644 8.22675 -2.70468 8.08291e-05 1
19.2599 10.5882 -2.69861 2.98165e-05 1
36.3584 19.9882 -2.17442 4.30313e-05 6
8.86714 4.91514 -2.71654 0.000518381 1
9.99233 5.53884 -2.63762 0.000113058 4
11.3417 6.2868 -2.52064 0.000157312 4
14.9247 8.27291 -2.70271 8.08193e-05 1
19.2322 10.6606 -2.69994 2.98116e-05 1
36.3445 20.1461 -2.17779 5.5085e-05 6
8.82833 4.93398 -2.70991 0.000518348 1
9.9618 5.56746 -2.63467 0.000503584 4
11.32 6.3265 -2.5207 0.000131927 4
14.9192 8.33803 -2.70696 8.08095e-05 1
19.1757 10.717 -2.69725 2.98067e-05 1
8.8186 4.96902 -2.71224 0.000518314 1
9.94915 5.60606 -2.63649 0.000236358 4
11.2871 6.35997 -2.51832 0.000161088 4
14.8766 8.38256 -2.70454 8.07998e-05 1
19.1434 10.7867 -2.69797 2.98017e-05 1
8.79331 4.9953 -2.7098 0.00051828 1
9.93091 5.64154 -2.63685 0.000363757 4
11.2723 6.40356 -2.51999 0.000143317 4
14.8578 8.44039 -2.70645 8.07899e-05 1
19.117 10.86 -2.69958 2.97967e-05 1
8.78303 5.03009 -2.71203 0.000518246 1
9.89882 5.66911 -2.63357 0.000119188 4
11.2582 6.44763 -2.52185 0.000153449 4
14.81 8.48177 -2.70312 8.07801e-05 1
19.0836 10.9293 -2.70024 2.97918e-05 1
36.3864 20.8387 -2.19752 4.58264e-05 6
8.75855 5.05675 -2.70991 0.000518212 1
9.89592 5.71341 -2.63809 0.000258906 4
11.222 6.47903 -2.51879 0.000186404 4
14.7937 8.54113 -2.70556 8.07702e-05 1
19.048 10.9973 -2.70061 2.97868e-05 1
36.3956 21.013 -2.20249 4.57057e-05 6
8.71316 5.07118 -2.70132 0.000810355 4
9.85511 5.73581 -2.63253 8.62951e-05 4
11.2127 6.52592 -2.52179 0.000185118 4
14.7583 8.58954 -2.70456 8.07602e-05 1
19.0117 11.0651 -2.70093 2.97817e-05 1
36.3978 21.184 -2.20708 4.51738e-05 6
8.67445 5.08927 -2.69481 0.000992889 4
9.85589 5.78242 -2.63812 0.000225993 4
11.1916 6.56605 -2.52218 0.000161012 4
14.7211 8.63682 -2.70325 8.07503e-05 1
18.9688 11.1289 -2.70033 2.97767e-05 1
36.4497 21.3849 -2.21474 3.56309e-05 6
8.6067 5.08999 -2.67927 0.000990407 4
9.8169 5.8057 -2.63309 0.000279388 4
11.1557 6.59747 -2.51928 0.000171138 4
14.6959 8.69112 -2.70418 8.07403e-05 1
18.9172 11.1876 -2.69853 2.97717e-05 1
36.4627 21.564 -2.2201 3.92958e-05 6
8.54687 5.09495 -2.66616 0.000806583 4
9.81654 5.85183 -2.63845 0.000324558 4
11.1448 6.64361 -2.52203 0.000173657 4
14.6812 8.75175 -2.70708 8.07303e-05 1
18.8759 11.2523 -2.69823 2.97666e-05 1
36.5111 21.765 -2.22765 3.86893e-05 6
8.47849 5.09439 -2.65036 0.000750208 4
9.79597 5.88601 -2.63843 0.000320424 4
11.1197 6.68137 -2.52161 0.000158431 4
14.6321 8.79182 -2.70366 8.07203e-05 1
18.8481 11.3251 -2.69989 2.97615e-05 1
8.41967 5.09913 -2.63752 0.000907553 4
9.75221 5.90615 -2.63218 0.000334775 4
11.0846 6.71308 -2.51896 0.000157148 4
14.6233 8.85616 -2.70773 8.07102e-05 1
18.8056 11.3891 -2.69948 2.97565e-05 1
8.35631 5.10071 -2.62324 0.000183234 4
9.73101 5.93983 -2.63204 0.000310105 4
11.0642 6.75363 -2.51967 0.000158401 4
14.5897 8.90557 -2.70725 8.07001e-05 1
18.7678 11.4559 -2.69977 2.97514e-05 1
36.6217 22.354 -2.24856 3.04167e-05 6
8.31045 5.11262 -2.61443 0.000924691 4
9.69811 5.96631 -2.62876 0.000569739 4
11.0502 6.79814 -2.52187 0.000146982 4
14.5378 8.94371 -2.7034 8.069e-05 1
18.7359 11.5264 -2.70096 2.97462e-05 1
8.24291 5.11082 -2.59878 0.00108483 4
9.64183 5.97819 -2.61914 0.000721025 4
11.0127 6.82816 -2.51873 0.000153302 4
14.5093 8.99613 -2.70392 8.06799e-05 1
18.689 11.5877 -2.70001 2.97411e-05 1
20.466 12.6895 1.26202 0.000225742 10
8.19855 5.12302 -2.59041 0.00114975 4
9.58081 5.98676 -2.60823 0.000613833 4
10.9994 6.87322 -2.52117 0.000135552 4
14.4989 9.05992 -2.70787 8.06697e-05 1
18.6459 11.6512 -2.69964 2.9736e-05 1
20.3025 12.6864 1.25465 0.000231251 10
8.12151 5.11438 -2.57169 0.000863267 4
9.5122 5.99015 -2.59523 0.000686384 4
10.9847 6.91741 -2.5233 0.000165939 4
14.461 9.1066 -2.70671 8.06595e-05 1
18.615 11.7225 -2.70108 2.97308e-05 1
20.1318 12.6777 1.24684 0.000236841 10
8.08189 5.12892 -2.5648 0.00103747 4
9.46232 6.00497 -2.58732 0.000771625 4
10.9396 6.94247 -2.5185 0.000176056 4
14.4196 9.15096 -2.70492 8.06493e-05 1
18.5798 11.7911 -2.70193 2.97257e-05 1
20.8486 13.231 -2.16032 0.000209362 10
20.8442 13.2281 -1.29381 0.000211532 10
20.8506 13.2322 -0.431051 0.000212605 10
20.8538 13.2342 0.431116 0.000212566 10
19.991 12.6867 1.24085 0.000242513 10
20.8466 13.2297 2.16011 0.000163093 10
8.02545 5.13249 -2.55256 0.000860125 4
9.38676 6.00308 -2.57238 0.000475571 4
10.9306 6.99039 -2.52203 0.000139311 4
14.3966 9.20697 -2.70661 8.06391e-05 1
18.5233 11.8461 -2.69971 2.97205e-05 1
20.671 13.2197 -2.14668 0.000214393 10
20.677 13.2235 -1.28629 0.000216612 10
20.6932 13.2339 -0.42875 0.000217709 10
20.691 13.2325 0.428704 0.00021767 10
19.8294 12.6814 1.23356 0.000248264 10
20.6939 13.2343 2.14906 0.000167014 10
20.6932 13.2339 3.01596 0.000164371 10
20.6774 13.2237 3.88743 0.000160908 10
20.6909 13.2323 4.77403 0.000156666 10
20.6812 13.2262 5.66753 0.000151696 10
20.6956 13.2354 6.58242 0.000146057 10
7.96582 5.13362 -2.53928 0.00116317 4
9.33963 6.01898 -2.5652 0.000729845 4
10.9137 7.0334 -2.52378 0.000160825 4
14.3746 9.26377 -2.70854 8.06288e-05 1
18.4939 11.9185 -2.70147 2.97153e-05 1
20.5303 13.2308 -2.13685 0.000219496 10
20.5179 13.2229 -1.27925 0.000221765 10
20.5119 13.219 -0.425946 0.000222886 10
20.5144 13.2206 0.425997 0.000222846 10
19.6721 12.6778 1.22652 0.000254098 10
20.5226 13.2259 2.13605 0.00017099 10
20.5347 13.2337 2.99957 0.00016829 10
20.5183 13.2231 3.86617 0.00016475 10
20.5226 13.2259 4.74583 0.000160414 10
20.5361 13.2346 5.64039 0.000155333 10
20.5178 13.2228 6.54049 0.000149569 10
7.90637 5.13445 -2.52603 0.000721171 4
9.26522 6.0169 -2.55052 0.000729877 4
10.8881 7.07084 -2.52357 0.000163342 4
14.3264 9.3037 -2.70557 8.06185e-05 1
18.4386 11.9741 -2.69947 2.97101e-05 1
20.3638 13.2244 -2.12431 0.000224672 10
20.3532 13.2175 -1.27186 0.000226991 10
20.3577 13.2205 -0.423701 0.000228137 10
20.3586 13.221 0.423719 0.000228096 10
19.5248 12.6796 1.22009 0.000260012 10
20.3754 13.2319 2.12553 0.000175024 10
20.3617 13.2231 2.98103 0.000172264 10
20.3726 13.2301 3.8474 0.000168646 10
20.3652 13.2253 4.72009 0.000164215 10
20.377 13.233 5.60936 0.000159023 10
20.3629 13.2238 6.50581 0.000153132 10
7.87964 5.15629 -2.52322 0.000444981 4
9.21053 6.0272 -2.54124 0.000729659 4
10.8572 7.10478 -2.52214 0.000148133 4
14.3006 9.35803 -2.70684 8.06081e-05 1
18.3978 12.0392 -2.69965 2.97049e-05 1
20.2133 13.2272 -2.11342 0.000229921 10
20.2157 13.2288 -1.26614 0.00023229 10
20.218 13.2303 -0.421751 0.000233461 10
20.2117 13.2262 0.421619 0.00023342 10
19.3804 12.6822 1.21382 0.000266008 10
20.2223 13.2331 2.11436 0.000179114 10
20.2093 13.2246 2.96546 0.000176294 10
20.216 13.229 3.82653 0.000172598 10
20.2064 13.2227 4.69395 0.00016807 10
20.2111 13.2258 5.57636 0.000162765 10
20.2226 13.2333 6.47569 0.000156745 10
7.86613 5.18676 -2.52468 0.000516595 4
9.16045 6.0402 -2.53322 0.000677513 4
10.8305 7.14137 -2.52169 0.000163309 4
14.2557 9.39989 -2.70454 8.05978e-05 1
18.3595 12.1059 -2.70021 2.96996e-05 1
20.053 13.2225 -2.10148 0.000235242 10
20.0504 13.2208 -1.25867 0.000237662 10
20.0555 13.2242 -0.419322 0.000238859 10
20.0629 13.229 0.419476 0.000238817 10
19.2354 12.6834 1.20751 0.000272085 10
20.0493 13.2201 2.10109 0.00018326 10
20.0492 13.22 2.94872 0.00018038 10
20.0552 13.224 3.80481 0.000176604 10
20.0501 13.2206 4.66834 0.000171979 10
20.0624 13.2287 5.54804 0.000166559 10
20.0605 13.2274 6.43852 0.000160409 10
7.84187 5.21012 -2.52271 0.00052033 4
9.11442 6.05561 -2.52633 0.000218233 4
10.8169 7.1867 -2.52435 0.000162027 4
14.2362 9.45852 -2.70709 8.05874e-05 1
18.3202 12.1719 -2.70066 2.96944e-05 1
19.8938 13.2174 -2.08961 0.000240636 10
19.9126 13.2299 -1.25291 0.000243108 10
19.9085 13.2272 -0.417212 0.00024433 10
19.9079 13.2267 0.417198 0.000244288 10
19.0788 12.676 1.20045 0.000278244 10
19.9067 13.226 2.09096 0.000187463 10
19.9052 13.225 2.93432 0.000184522 10
19.9012 13.2223 3.78433 0.000180666 10
19.9032 13.2237 4.64484 0.000175942 10
19.906 13.2255 5.51753 0.000170406 10
19.9117 13.2293 6.40555 0.000164123 10
7.82166 5.23614 -2.52208 0.000505213 4
9.08421 6.08135 -2.52382 0.000287126 4
10.7753 7.21344 -2.52051 0.000121508 4
14.1975 9.50439 -2.70602 8.0577e-05 1
18.2732 12.2329 -2.70002 2.96891e-05 1
19.7416 13.2159 -2.07846 0.000246103 10
19.7429 13.2167 -1.24513 0.000248627 10
19.7432 13.2169 -0.414711 0.000249875 10
19.7551 13.2249 0.41496 0.000249832 10
18.9442 12.6821 1.19476 0.000284484 10
19.7565 13.2259 2.08003 0.000191723 10
19.7625 13.2298 2.92007 0.000188719 10
19.7462 13.2189 3.76359 0.000184782 10
19.7577 13.2266 4.62164 0.000179958 10
19.7636 13.2306 5.49081 0.000174305 10
19.7583 13.227 6.37101 0.000167889 10
7.81855 5.27368 -2.527 0.000561728 4
9.07304 6.11984 -2.52663 0.000257244 4
10.7564 7.25527 -2.52199 0.000141746 4
14.1613 9.55193 -2.70547 8.05666e-05 1
18.2375 12.3014 -2.70107 2.96839e-05 1
19.0696 12.8626 -2.01242 0.000275249 10
19.0608 12.8567 -1.20493 0.000278045 10
19.0745 12.8659 -0.401606 0.000279428 10
19.6064 13.2247 0.412805 0.000255451 10
18.8044 12.6837 1.18872 0.000290806 10
19.0758 12.8668 2.01307 0.000214432 10
19.0628 12.858 2.82329 0.000211105 10
19.0698 12.8628 3.64322 0.000206742 10
19.6079 13.2257 4.59738 0.000184028 10
19.0699 12.8628 5.31053 0.00019513 10
19.0653 12.8597 6.16201 0.000188016 10
8.15262 5.54051 -2.6412 0.000405432 4
9.03409 6.13956 -2.52174 0.000323825 4
10.72 7.28533 -2.51942 0.000153121 4
14.1454 9.61321 -2.70882 8.05561e-05 1
18.2008 12.3692 -2.70201 2.96786e-05 1
19.0554 12.95 -2.01568 0.000408011 10
19.045 12.9429 -1.20678 0.000412359 10
19.0634 12.9554 -0.402321 0.000414608 10
19.4517 13.2193 0.410516 0.000261142 10
18.6526 12.6763 1.18192 0.00029721 10
19.0441 12.9424 2.01449 0.000318628 10
19.0535 12.9488 2.8286 0.000313836 10
19.0434 12.9419 3.64678 0.000307501 10
19.4676 13.2302 4.57527 0.000188152 10
19.0309 12.9334 5.31222 0.000290518 10
19.0318 12.934 6.16572 0.000280069 10
8.11324 5.55525 -2.63471 0.000847969 4
9.0255 6.17988 -2.52535 0.000339873 4
10.717 7.33811 -2.52472 0.000175881 4
14.0908 9.64817 -2.7048 8.05457e-05 1
18.1446 12.4239 -2.70008 2.96733e-05 1
19.0563 13.0481 -2.02058 0.000403968 10
19.044 13.0397 -1.2096 0.000408273 10
19.0418 13.0382 -0.402825 0.000410505 10
19.2994 13.2146 0.408273 0.000266908 10
18.5089 12.6733 1.17561 0.000303695 10
19.0574 13.0489 2.0207 0.000315472 10
19.0469 13.0417 2.83436 0.000310725 10
19.0369 13.0348 3.65421 0.000304448 10
19.3131 13.224 4.54979 0.000192331 10
19.05 13.0438 5.33023 0.000287623 10
19.0274 13.0284 6.17901 0.000277272 10
8.1021 5.58926 -2.63741 0.00068576 4
9.0012 6.20951 -2.5246 0.000247995 4
10.6878 7.373 -2.52387 0.000115134 4
14.0772 9.71123 -2.70868 8.05351e-05 1
18.108 12.4919 -2.70111 2.9668e-05 1
19.0593 13.1481 -2.02575 0.00039993 10
19.0404 13.1351 -1.21227 0.000404198 10
19.0488 13.1409 -0.403941 0.000406409 10
19.1587 13.2167 0.406271 0.000272748 10
18.384 12.6822 1.17048 0.000310263 10
19.047 13.1396 2.02444 0.000312322 10
19.0489 13.141 2.84147 0.000307619 10
19.0545 13.1448 3.66638 0.000301401 10
19.1758 13.2285 4.52828 0.000196563 10
19.0502 13.1419 5.34309 0.000284734 10
19.0402 13.135 6.19801 0.000274479 10
8.07805 5.61439 -2.63595 0.000172272 4
8.96925 6.23379 -2.52173 0.000257159 4
10.6431 7.39715 -2.51941 0.00016193 4
14.0352 9.75474 -2.70714 8.05246e-05 1
18.0575 12.5503 -2.70009 2.96626e-05 1
19.0265 13.2238 -2.02716 0.000397907 10
19.0259 13.2234 -1.21428 0.000402155 10
19.014 13.2151 -0.404179 0.000278708 10
19.0201 13.2193 0.404307 0.000278662 10
18.2345 12.6733 1.16377 0.000316912 10
19.0275 13.2244 2.02727 0.000136533 10
19.0358 13.2302 2.84638 0.000134411 10
19.024 13.222 3.66938 0.000131628 10
19.0229 13.2213 4.50306 0.000200849 10
19.0226 13.2211 5.34826 0.000124221 10
19.0193 13.2188 6.20619 0.000119683 10
8.07398 5.65346 -2.64104 0.000405318 4
8.96504 6.27739 -2.52669 0.00025025 4
10.6331 7.44541 -2.52319 0.000174563 4
14.0042 9.80583 -2.70773 8.0514e-05 1
18.0214 12.6187 -2.70127 2.96573e-05 1
18.9731 13.2851 -2.0264 0.000275847 10
18.981 13.2906 -1.21437 0.000278657 10
18.985 13.2935 -0.404546 0.000280047 10
18.8798 13.2197 0.402303 0.000284649 10
18.1126 12.6825 1.15881 0.000323643 10
18.9852 13.2936 2.0277 0.00013719 10
18.9822 13.2914 2.84528 0.000135057 10
18.9921 13.2984 3.67216 0.000132261 10
18.8912 13.2278 4.48278 0.000205189 10
18.9703 13.2832 5.34656 0.000124818 10
18.9809 13.2906 6.20876 0.000120258 10
8.03685 5.66937 -2.63536 0.000479593 4
8.94213 6.30798 -2.52642 0.000211203 4
10.5925 7.47217 -2.51971 0.000163162 4
13.9781 9.86046 -2.70933 8.05035e-05 1
17.9815 12.6846 -2.70191 2.9652e-05 1
18.7519 13.228 0.400559 0.000290711 10
17.9761 12.6808 1.1529 0.000330455 10
18.7426 13.2215 4.45845 0.000209583 10
8.03255 5.70843 -2.64046 0.00033434 4
8.9155 6.33592 -2.52513 0.000277754 4
10.5828 7.52082 -2.52364 0.00016441 4
13.9309 9.90015 -2.70685 8.04929e-05 1
17.9373 12.7474 -2.70194 2.96466e-05 1
18.612 13.2268 0.398555 0.000296846 10
17.8404 12.6785 1.14703 0.000337349 10
18.6158 13.2295 4.43923 0.000214031 10
7.99901 5.72673 -2.63599 0.000162093 4
8.87962 6.35718 -2.52124 0.000335114 4
11.3496 8.1255 -2.71324 0.000171245 1
13.9074 9.95673 -2.70903 8.04822e-05 1
17.8889 12.8072 -2.70136 2.96412e-05 1
18.4725 13.225 0.396555 0.000303056 10
17.7054 12.6758 1.14119 0.000344325 10
18.4552 13.2127 4.41192 0.000218534 10
7.98843 5.76143 -2.63912 0.000496374 4
8.87249 6.39904 -2.52554 0.000296069 4
11.3021 8.1513 -2.70866 0.000171228 1
13.8765 10.0081 -2.70981 8.04716e-05 1
17.8598 12.8809 -2.70374 2.96359e-05 1
18.3179 13.2113 0.394223 0.000309339 10
17.5865 12.6838 1.13637 0.000351383 10
18.3376 13.2255 4.3948 0.00022309 10
7.95559 5.78007 -2.63492 0.000438939 4
8.84144 6.42368 -2.52307 0.000316698 4
11.28 8.19541 -2.71022 0.00017121 1
13.8219 10.0422 -2.70597 8.04608e-05 1
17.8 12.9325 -2.70151 2.96305e-05 1
18.3061 13.3002 -1.97966 0.00042325 10
18.3019 13.2971 -1.18559 0.00042774 10
18.2895 13.2881 -0.394608 0.000430067 10
18.1955 13.2198 0.392579 0.000315695 10
17.4519 12.6796 1.13053 0.000358521 10
18.2918 13.2897 1.97811 0.00021101 10
18.2983 13.2945 2.77714 0.000207855 10
18.2936 13.2911 3.58141 0.000203682 10
18.186 13.2129 4.36949 0.000227699 10
18.2798 13.2811 5.2165 0.000138564 10
18.2938 13.2912 6.05896 0.000133539 10
7.94915 5.81789 -2.63949 0.000219454 4
8.81989 6.45518 -2.52333 0.000240946 4
11.2643 8.24423 -2.71334 0.000171192 1
13.7908 10.0933 -2.70676 8.04502e-05 1
17.5621 12.8535 -2.6722 0.000341348 10
17.5713 12.8603 -1.90504 0.00034653 10
17.5522 12.8462 -1.13992 0.000349999 10
17.5684 12.8581 -0.380016 0.000351716 10
18.0576 13.2162 0.390597 0.000322126 10
17.314 12.6719 1.12445 0.000365741 10
17.5608 12.8526 1.9039 0.000269979 10
17.5553 12.8485 2.67116 0.000265856 10
17.557 12.8498 3.44597 0.000260449 10
18.0603 13.2182 4.35037 0.000232363 10
17.5768 12.8643 5.02866 0.000246047 10
17.5609 12.8526 5.83104 0.000237218 10
7.92234 5.84085 -2.63735 0.000337597 4
8.81276 6.49732 -2.52777 0.000291405 4
11.2365 8.28427 -2.7136 0.000171174 1
13.7666 10.1496 -2.70895 8.04394e-05 1
17.4911 12.8956 -2.66823 0.000470565 10
17.4837 12.8901 -1.9004 0.000477935 10
17.4916 12.896 -1.13891 0.000482948 10
17.4978 12.9005 -0.37946 0.000485547 10
17.9235 13.2144 0.388692 0.00032863 10
17.1986 12.6799 1.11982 0.000373043 10
17.4975 12.9003 1.90191 0.000373242 10
17.4881 12.8933 2.66776 0.000367723 10
17.4937 12.8975 3.44236 0.000360423 10
17.9365 13.2239 4.33163 0.000237081 10
17.4842 12.8905 5.01502 0.000340842 10
17.4882 12.8934 5.82181 0.000328787 10
7.89432 5.86284 -2.63482 0.000344325 4
8.77744 6.5187 -2.52415 0.000266143 4
11.1911 8.31126 -2.70963 0.000171156 1
13.7249 10.193 -2.70773 8.04287e-05 1
17.4995 12.9963 -2.67641 0.000465584 10
17.4901 12.9893 -1.90602 0.000472882 10
17.5004 12.9969 -1.14242 0.000477846 10
17.4915 12.9903 -0.380304 0.00048042 10
17.791 13.2128 0.386816 0.000335208 10
17.0616 12.6711 1.11378 0.000380426 10
17.4765 12.9792 1.90454 0.000369298 10
17.4831 12.9841 2.6739 0.000363833 10
17.4789 12.981 3.44834 0.000356606 10
17.8063 13.2241 4.3113 0.000241852 10
17.4929 12.9914 5.03047 0.00033722 10
17.4893 12.9887 5.83723 0.000325284 10
7.89139 5.90351 -2.6407 0.000229533 4
8.75106 6.54663 -2.52312 0.000291356 4
11.1801 8.3638 -2.71402 0.000171138 1
13.702 10.2504 -2.71025 8.04179e-05 1
17.5042 13.0948 -2.6841 0.000460617 10
17.4899 13.0841 -1.91096 0.000467842 10
17.5018 13.093 -1.14549 0.000472757 10
17.4856 13.0809 -0.381168 0.000475305 10
17.6734 13.2214 0.385261 0.000341859 10
16.9406 12.6732 1.10876 0.00038789 10
17.4892 13.0836 1.91089 0.000365364 10
17.4784 13.0755 2.68014 0.000359954 10
17.4725 13.0711 3.45606 0.000352799 10
17.6736 13.2216 4.29034 0.000246677 10
17.4765 13.0741 5.03884 0.000333607 10
17.4781 13.0753 5.84871 0.000321791 10
7.86237 5.92472 -2.63789 0.000367902 4
8.72377 6.57383 -2.52185 0.000256922 4
11.1511 8.40295 -2.71407 0.000171121 1
13.6579 10.2919 -2.70861 8.04071e-05 1
17.4852 13.1761 -2.68823 0.000455663 10
17.504 13.1902 -1.91752 0.000462816 10
17.4958 13.184 -1.1481 0.000467682 10
17.4971 13.185 -0.382419 0.000470205 10
17.5413 13.2183 0.383384 0.000348584 10
16.8156 12.6715 1.10347 0.000395434 10
17.4746 13.1681 1.91431 0.000361441 10
17.4801 13.1722 2.68745 0.000356085 10
17.4836 13.1748 3.46732 0.000349002 10
17.5487 13.2239 4.27119 0.000251556 10
17.478 13.1706 5.05252 0.000330004 10
17.4692 13.164 5.86106 0.000318307 10
7.83736 5.94888 -2.63645 0.000486 4
8.7109 6.61193 -2.52479 0.000307363 4
11.116 8.43752 -2.71269 0.000171103 1
13.6253 10.3421 -2.70929 8.03963e-05 1
17.4129 13.2171 -2.68418 0.000344943 10
17.4054 13.2114 -1.91176 0.000350187 10
17.4097 13.2147 -1.14548 0.000353698 10
17.414 13.2179 -0.381608 0.000355436 10
17.4011 13.2082 0.381326 0.000355381 10
16.6981 12.6746 1.09866 0.000403059 10
17.4012 13.2082 1.9113 0.000272833 10
17.4115 13.216 2.68396 0.000268663 10
17.4099 13.2149 3.46185 0.000263193 10
17.4139 13.2178 4.24957 0.000256488 10
17.4076 13.2131 5.04545 0.000248625 10
17.4103 13.2151 5.85673 0.000239694 10
7.80642 5.96846 -2.63304 0.00112884 4
8.68528 6.6404 -2.52407 0.000259172 4
11.0832 8.47371 -2.71187 0.000171084 1
13.5775 10.3808 -2.70698 8.03854e-05 1
17.2763 13.2087 -2.67022 0.000351624 10
17.291 13.22 -1.90425 0.000356962 10
17.2874 13.2172 -1.14046 0.000360538 10
17.2798 13.2114 -0.379675 0.000362308 10
17.2909 13.2199 0.37992 0.000362252 10
16.5746 12.6722 1.09343 0.000410766 10
17.2902 13.2194 1.90417 0.000278113 10
17.2956 13.2234 2.6732 0.000273868 10
17.2973 13.2248 3.4486 0.0002683 10
17.2765 13.2089 4.22728 0.000261474 10
17.2982 13.2255 5.0271 0.000253468 10
17.2875 13.2173 5.83091 0.000244375 10
7.7621 5.97762 -2.62511 0.00104289 4
8.67694 6.68214 -2.5284 0.00029355 4
11.0621 8.51893 -2.71397 0.000171066 1
13.5483 10.4336 -2.70841 8.03746e-05 1
17.1465 13.2046 -2.65727 0.000358376 10
17.1557 13.2117 -1.89442 0.00036381 10
17.1573 13.2129 -1.13491 0.000367449 10
17.1667 13.2202 -0.378203 0.000369251 10
17.1663 13.2198 0.378193 0.000369195 10
16.4605 12.6763 1.08881 0.000418551 10
17.1545 13.2108 1.89429 0.00028345 10
17.1675 13.2208 2.66052 0.000279129 10
17.1557 13.2116 3.42954 0.000273461 10
17.172 13.2242 4.21299 0.000266512 10
17.1521 13.2089 4.99802 0.000258363 10
17.168 13.2211 5.80614 0.000249106 10
7.71677 5.98574 -2.61683 0.000701121 4
8.65263 6.71166 -2.52813 0.000302698 4
11.0332 8.55823 -2.7142 0.000171048 1
13.5061 10.4764 -2.70727 8.03636e-05 1
17.0402 13.2177 -2.64792 0.000365199 10
17.0398 13.2174 -1.8867 0.00037073 10
17.0356 13.2141 -1.1299 0.000374434 10
17.0235 13.2048 -0.376061 0.000376268 10
17.0295 13.2094 0.376194 0.000376211 10
16.3372 12.6724 1.08358 0.000426418 10
17.0422 13.2192 1.88696 0.000288842 10
17.0361 13.2146 2.64729 0.000284445 10
17.0421 13.2192 3.41605 0.000278676 10
17.0282 13.2084 4.18899 0.000271604 10
17.0282 13.2084 4.9753 0.00026331 10
17.0444 13.221 5.7799 0.000253888 10
7.65245 5.97875 -2.60208 0.000812431 4
8.6273 6.74038 -2.52759 0.000222418 4
11.0035 8.59686 -2.71425 0.00017103 1
13.4816 10.5329 -2.7097 8.03527e-05 1
16.9127 13.2137 -2.63527 0.000372093 10
16.9149 13.2154 -1.87798 0.000377721 10
16.9065 13.2088 -1.12439 0.000381491 10
16.9134 13.2142 -0.374646 0.000383357 10
16.9076 13.2097 0.374517 0.000383299 10
16.2269 12.6779 1.07919 0.000434364 10
16.9058 13.2083 1.87696 0.00029429 10
16.9198 13.2192 2.63638 0.000289816 10
16.923 13.2217 3.4014 0.000283946 10
16.9253 13.2235 4.17501 0.000276749 10
16.9112 13.2125 4.95457 0.000268308 10
16.9044 13.2072 5.74805 0.00025872 10
7.61995 5.99631 -2.59813 0.00113409 4
8.58994 6.75962 -2.52354 0.000259083 4
10.9578 8.62297 -2.7104 0.000171012 1
13.4309 10.569 -2.70691 8.03418e-05 1
16.7897 13.2122 -2.62328 0.000379057 10
16.7945 13.216 -1.86972 0.000384784 10
16.7835 13.2073 -1.11927 0.00038862 10
16.7892 13.2118 -0.372913 0.000390519 10
16.7966 13.2176 0.373078 0.00039046 10
16.1153 12.6815 1.07471 3.69146e-05 10
16.7952 13.2165 1.8698 0.000299795 10
16.7818 13.206 2.62203 0.000295242 10
16.7838 13.2075 3.38267 0.00028927 10
16.7906 13.2129 4.15314 0.000281947 10
16.8006 13.2208 4.93566 0.000273358 10
16.8037 13.2232 5.72946 0.000263602 10
7.56998 5.99989 -2.58822 0.00100774 4
8.58008 6.80049 -2.5276 0.000247598 4
10.9265 8.66024 -2.71011 0.000170994 1
13.394 10.616 -2.70693 8.03308e-05 1
16.6586 13.2034 -2.60997 0.000386091 10
16.6569 13.2021 -1.85951 0.000391918 10
16.6747 13.2162 -1.11509 0.00039582 10
16.6613 13.2056 -0.371094 0.000397753 10
16.6729 13.2148 0.371353 0.000397694 10
16.0559 12.7258 1.07371 3.69309e-05 10
16.6675 13.2105 1.8607 0.000305354 10
16.6812 13.2214 2.61352 0.000300723 10
16.6765 13.2176 3.37032 0.000294648 10
16.6677 13.2107 4.13411 0.000287198 10
16.6724 13.2144 4.91153 0.00027846 10
16.668 13.2109 5.69888 0.000268533 10
7.52393 6.00628 -2.57963 0.000815984 4
8.55658 6.83062 -2.52769 0.000229237 4
10.8993 8.7008 -2.71088 0.000170975 1
13.359 10.6644 -2.70736 8.03198e-05 1
16.5489 13.2108 -2.6 0.000393196 10
16.5562 13.2166 -1.85341 0.000399123 10
16.55 13.2117 -1.10982 0.000403092 10
16.5369 13.2012 -0.369347 0.000405058 10
16.5497 13.2115 0.369634 0.000404998 10
16.0241 12.7919 1.07456 3.69472e-05 10
16.5607 13.2202 1.85391 0.000310969 10
16.5468 13.2091 2.59966 0.000306259 10
16.5593 13.2191 3.35594 0.000300079 10
16.5441 13.2069 4.11485 0.000292501 10
16.5455 13.2081 4.8877 0.000283613 10
16.5438 13.2068 5.67215 0.000273515 10
7.47521 6.01022 -2.5701 0.0009874 4
8.52138 6.85136 -2.52434 0.000279645 4
10.866 8.7365 -2.71017 0.000170957 1
13.3403 10.7258 -2.71113 8.03088e-05 1
16.427 13.2076 -2.58806 0.000400371 10
16.4177 13.2001 -1.84305 0.000406399 10
16.4394 13.2176 -1.10549 0.000410436 10
16.4278 13.2083 -0.367938 0.000412436 10
16.4397 13.2179 0.368206 0.000412375 10
15.9659 12.8369 1.07365 3.69636e-05 10
16.4235 13.2048 1.8437 0.000316639 10
16.4415 13.2193 2.59036 0.000311849 10
16.4239 13.2052 3.33782 0.000305564 10
16.445 13.2221 4.10166 0.000297857 10
16.4386 13.217 4.86971 0.000288817 10
16.426 13.2069 5.64754 0.000278546 10
7.41323 6.00312 -2.55598 0.00141709 4
8.49309 6.87757 -2.52306 0.000284205 4
10.8545 8.78981 -2.71494 0.000170939 1
13.2894 10.7616 -2.70843 8.02978e-05 1
16.3186 13.2146 -2.57825 0.000407615 10
16.3031 13.202 -1.83535 0.000413746 10
16.3172 13.2134 -1.10037 0.000417851 10
16.3125 13.2096 -0.366387 0.000419885 10
16.3228 13.218 0.366618 0.000419823 10
15.9151 12.8878 1.07325 3.698e-05 10
16.3189 13.2148 1.83713 0.000322364 10
16.3054 13.2039 2.57616 0.000317493 10
16.3225 13.2177 3.32657 0.000311102 10
16.3054 13.2039 4.07832 0.000303265 10
16.3202 13.2158 4.84827 0.000294072 10
16.3251 13.2198 5.62868 0.000283626 10
7.3817 6.02037 -2.55234 0.0012685 4
8.48497 6.92017 -2.52781 0.000330016 4
10.8184 8.82325 -2.71359 0.00017092 1
13.2556 10.811 -2.7092 8.02867e-05 1
16.2021 13.2141 -2.5671 0.000414929 10
16.2 13.2124 -1.82892 0.000421162 10
16.2033 13.2151 -1.09579 0.000425336 10
16.2052 13.2166 -0.365011 0.000427404 10
16.1928 13.2065 0.36473 0.000427342 10
15.8801 12.9515 1.07394 3.69965e-05 10
16.1975 13.2103 1.82864 0.000328144 10
16.1872 13.202 2.56475 0.000323192 10
16.21 13.2205 3.31302 0.000316694 10
16.2075 13.2185 4.06534 0.000308725 10
16.2041 13.2158 4.82747 0.000299377 10
16.1995 13.212 5.60124 0.000288756 10
7.3285 6.0197 -2.54119 0.00114398 4
8.44623 6.93781 -2.52347 0.000224575 4
10.7886 8.86186 -2.71386 0.000170902 1
13.2177 10.8571 -2.70918 8.02756e-05 1
16.0858 13.213 -2.55598 0.000422311 10
16.0765 13.2054 -1.82018 0.000428648 10
16.085 13.2124 -1.09091 0.000432892 10
16.0832 13.2109 -0.363299 0.000434994 10
16.0829 13.2106 0.363292 0.000434931 10
15.8188 12.9937 1.07285 3.70129e-05 10
16.0742 13.2035 1.81991 0.000333978 10
16.0861 13.2133 2.55602 0.000328944 10
16.0905 13.2169 3.29801 0.000322338 10
16.0828 13.2105 4.04561 0.000314237 10
16.0868 13.2139 4.80623 0.000304733 10
16.0796 13.208 5.5757 0.000293935 10
7.28355 6.02548 -2.53289 0.00136443 4
8.42558 6.97024 -2.52455 0.000355164 4
10.7621 8.90319 -2.715 0.000170883 1
13.1786 10.9023 -2.70895 8.02645e-05 1
15.9717 13.213 -2.54516 0.000429763 10
15.9635 13.2062 -1.81259 0.000436204 10
15.9682 13.2101 -1.08611 0.000440519 10
15.9607 13.2038 -0.36157 0.000442656 10
15.9664 13.2085 0.361699 0.000442592 10
15.7841 13.0578 1.07359 3.70295e-05 10
15.9647 13.2072 1.81273 0.000339867 10
15.9754 13.216 2.54574 0.00033475 10
15.9647 13.2071 3.28165 0.000328035 10
15.9753 13.2159 4.03015 0.000319801 10
15.9647 13.2071 4.78347 0.00031014 10
15.9725 13.2136 5.5545 0.000299163 10
7.23564 6.02851 -2.52353 0.000462748 4
8.40073 6.99922 -2.52441 0.000345968 4
10.727 8.93738 -2.71399 0.000170865 1
13.1379 10.9461 -2.70842 8.02534e-05 1
15.8546 13.2096 -2.53383 0.000437283 10
15.8586 13.2129 -1.80591 0.00044383 10
15.8465 13.2028 -1.08096 0.000448215 10
15.8547 13.2097 -0.360213 0.000450388 10
15.8579 13.2123 0.360284 0.000450323 10
15.7363 13.111 1.07344 3.70461e-05 10
15.8463 13.2026 1.8045 0.00034581 10
15.8546 13.2095 2.53382 0.000340609 10
15.8615 13.2153 3.26991 0.000333785 10
15.8544 13.2094 4.01125 0.000325416 10
15.8532 13.2084 4.76387 0.000315597 10
15.8592 13.2134 5.53111 0.000304439 10
7.22078 6.05895 -2.52571 0.000398761 4
8.373 7.02578 -2.52343 0.000213061 4
10.6997 8.97812 -2.715 0.000170846 1
13.1136 11.0036 -2.71131 8.02423e-05 1
15.7603 13.2244 -2.52612 8.5573e-05 10
15.8102 13.2663 -1.80565 0.000534433 10
15.8111 13.2671 -1.08169 0.000539969 10
15.8059 13.2627 -0.360153 0.000542843 10
15.8018 13.2593 0.36006 0.000543021 10
15.683 13.1596 1.07293 3.70627e-05 10
15.8035 13.2607 1.8049 0.000417388 10
15.7989 13.2569 2.53231 0.000411307 10
15.7936 13.2524 3.26543 0.000403262 10
15.8108 13.2668 4.01191 0.000393343 10
15.8069 13.2635 4.76383 0.000381665 10
15.7903 13.2496 5.52317 0.00036836 10
7.2099 6.09284 -2.52932 0.000466441 4
8.3668 7.07049 -2.52898 3.43616e-05 4
10.6626 9.01059 -2.71355 0.000170828 1
13.0633 11.0393 -2.70887 8.02311e-05 1
15.7131 13.2786 -2.52598 8.5557e-05 10
15.8038 13.3553 -1.81024 0.000528094 10
15.8119 13.3621 -1.08493 0.00053357 10
15.8166 13.366 -0.361457 0.000536412 10
15.8081 13.3589 0.361264 0.000536588 10
15.6336 13.2114 1.0727 3.70793e-05 10
15.7988 13.351 1.80966 0.00041244 10
15.8131 13.3631 2.54204 0.000406427 10
15.8076 13.3585 3.27794 0.000398471 10
15.7929 13.346 4.01917 0.000388664 10
15.7945 13.3473 4.7741 0.000377116 10
15.7954 13.3481 5.54121 0.000363959 10
7.18967 6.11889 -2.5297 0.00042127 4
8.33457 7.09327 -2.52671 0.000135144 4
10.6211 9.03923 -2.71099 0.000170809 1
13.0229 11.0834 -2.70851 8.02199e-05 1
15.6727 13.3385 -2.52694 8.55409e-05 10
15.8025 13.449 -1.81546 0.000521781 10
15.8018 13.4484 -1.08746 0.000527196 10
15.8052 13.4513 -0.362268 0.000530008 10
15.7966 13.444 0.36207 0.000530182 10
15.5875 13.266 1.07271 3.7096e-05 10
15.8132 13.4581 1.81669 0.000407512 10
15.8051 13.4512 2.54829 0.000401567 10
15.8021 13.4486 3.28651 0.0003937 10
15.8014 13.448 4.03326 0.000384003 10
15.795 13.4426 4.78843 0.000372585 10
15.8051 13.4512 5.56106 0.000359577 10
7.16565 6.1417 -2.52878 0.000428761 4
8.30632 7.11938 -2.52567 0.000254231 4
10.6016 9.08668 -2.71411 0.00017079 1
12.9807 11.1258 -2.70779 8.02087e-05 1
15.6374 13.4029 -2.52879 8.55249e-05 10
15.8168 13.5566 -1.82253 0.000515496 10
15.8122 13.5527 -1.09142 0.00052085 10
15.7973 13.5399 -0.363167 0.00052363 10
15.8137 13.554 0.363544 0.000523803 10
15.5447 13.3234 1.07295 3.71127e-05 10
15.8107 13.5514 1.82182 0.000402606 10
15.8025 13.5444 2.55548 0.000396727 10
15.8013 13.5433 3.29615 0.00038895 10
15.7902 13.5338 4.04243 0.000379362 10
15.8022 13.5441 4.80491 0.000368074 10
15.8039 13.5456 5.57724 0.000355213 10
7.14664 6.16881 -2.52965 0.000601725 4
8.28918 7.15503 -2.52803 0.000196955 4
10.565 9.11948 -2.71288 0.000170772 1
12.9631 11.1894 -2.71224 8.01975e-05 1
15.5713 13.4407 -2.52566 8.55087e-05 10
15.8098 13.6467 -1.8272 0.000509236 10
15.8115 13.6482 -1.09465 0.00051453 10
15.8112 13.6479 -0.364581 0.000517279 10
15.817 13.6529 0.364715 0.000517451 10
15.5032 13.382 1.07331 3.71295e-05 10
15.8061 13.6435 1.82677 0.000397719 10
15.7957 13.6345 2.56206 0.000391908 10
15.8006 13.6387 3.30592 0.00038422 10
15.7965 13.6351 4.0562 0.000374742 10
15.8075 13.6447 4.82097 0.000363582 10
15.7986 13.637 5.59214 0.000350869 10
7.11704 6.18675 -2.52681 0.000436218 4
8.26387 7.18367 -2.52795 0.000320595 4
10.5444 9.16607 -2.71577 0.000170753 1
12.9137 11.2257 -2.7101 8.01862e-05 1
15.5255 13.4962 -2.52587 8.54925e-05 10
15.8036 13.7378 -1.83201 0.000503004 10
15.8187 13.7509 -1.09846 0.000508239 10
15.8016 13.7361 -0.365462 0.000510957 10
15.8084 13.742 0.36562 0.000511127 10
15.4543 13.4342 1.07316 3.71463e-05 10
15.7935 13.7291 1.83084 0.000392855 10
15.8014 13.736 2.57075 0.000387111 10
15.7956 13.7309 3.31489 0.00037951 10
15.8083 13.742 4.07154 0.000370141 10
15.8093 13.7428 4.83611 0.000359111 10
15.7878 13.7241 5.60525 0.000346544 10
7.09586 6.21195 -2.52697 0.000477548 4
8.23164 7.20625 -2.52576 0.000345754 4
10.5023 9.19407 -2.71318 0.000170734 1
12.8718 11.2684 -2.70954 8.0175e-05 1
15.4856 13.5566 -2.52705 8.54763e-05 10
15.816 13.8459 -1.83904 0.000496801 10
15.802 13.8336 -1.10065 0.000501975 10
15.8102 13.8407 -0.366775 0.000504662 10
15.8159 13.8458 0.36691 0.000504831 10
15.394 13.4764 1.07224 3.71632e-05 10
15.8072 13.8382 1.83802 0.000388012 10
15.7938 13.8264 2.57735 0.000382335 10
15.8009 13.8327 3.32612 0.000374823 10
15.7929 13.8257 4.07997 0.000365562 10
15.7976 13.8297 4.84727 0.000354659 10
15.8062 13.8373 5.62888 0.000342239 10
7.06795 6.23123 -2.52476 0.000545191 4
8.21896 7.24598 -2.52962 0.000348013 4
10.4723 9.23254 -2.71373 0.000170715 1
12.8381 11.3183 -2.71073 8.01637e-05 1
15.4466 13.618 -2.52843 8.54602e-05 10
15.8108 13.9391 -1.84408 0.000490625 10
15.8164 13.9441 -1.10504 0.00049574 10
15.7993 13.9289 -0.367649 0.000498397 10
15.7965 13.9265 0.367583 0.000498564 10
15.3484 13.5314 1.07234 3.718e-05 10
15.7988 13.9285 1.84268 0.000383192 10
15.807 13.9357 2.58742 0.00037758 10
15.8088 13.9373 3.338 0.000370156 10
15.7964 13.9264 4.0934 0.000361004 10
15.806 13.9349 4.86476 0.000350228 10
15.7956 13.9257 5.64237 0.000337953 10
7.05249 6.26149 -2.52703 0.000601545 4
8.18133 7.26372 -2.52583 0.000345693 4
10.4407 9.26965 -2.71391 0.000170697 1
12.7962 11.361 -2.71025 8.01524e-05 1
15.4051 13.6773 -2.52944 8.54439e-05 10
15.8008 14.0286 -1.84861 0.000484479 10
15.8055 14.0328 -1.1077 0.000489534 10
15.8097 14.0365 -0.36903 0.00049216 10
15.8141 14.0404 0.369132 0.000492326 10
15.3056 13.5889 1.07266 3.7197e-05 10
15.814 14.0403 1.85016 0.000378393 10
15.7993 14.0272 2.59416 0.000372848 10
15.8051 14.0325 3.34754 0.000365511 10
15.8047 14.0321 4.10824 0.000356467 10
15.7976 14.0257 4.8772 0.000345818 10
15.7959 14.0243 5.65995 0.000333688 10
7.03323 6.28843 -2.52798 0.000560146 4
8.15879 7.2948 -2.52672 0.000219759 4
10.4085 9.30628 -2.71398 0.000170678 1
12.7682 11.416 -2.71273 8.0141e-05 1
15.3394 13.715 -2.5265 8.54277e-05 10
15.8065 14.1327 -1.85504 0.000478362 10
15.8099 14.1357 -1.11145 0.000483358 10
15.8011 14.1278 -0.369978 0.000485953 10
15.8085 14.1345 0.370151 0.000486118 10
15.2481 13.6333 1.07195 3.72139e-05 10
15.8058 14.132 1.85496 0.000373618 10
15.7917 14.1194 2.60098 0.000368139 10
15.802 14.1286 3.35731 0.000360889 10
15.7957 14.123 4.11868 0.000351952 10
15.8073 14.1334 4.8954 0.00034143 10
15.7961 14.1234 5.67767 0.000329443 10
7.01442 6.31581 -2.52913 0.000488681 4
8.1319 7.32199 -2.52629 0.000215161 4
10.3745 9.34121 -2.71359 0.000170659 1
12.7159 11.4494 -2.7101 8.01297e-05 1
15.3098 13.785 -2.52952 8.54113e-05 10
15.8158 14.2406 -1.86196 0.000472274 10
15.8145 14.2394 -1.11526 0.000477211 10
15.8158 14.2406 -0.371484 0.000479777 10
15.8073 14.2329 0.371282 0.00047994 10
15.209 13.6943 1.07257 3.72309e-05 10
15.8041 14.2301 1.86058 0.000368866 10
15.8049 14.2308 2.61132 0.000363452 10
15.7919 14.2191 3.36568 0.000356289 10
15.794 14.221 4.13115 0.000347459 10
15.8018 14.228 4.90903 0.000337063 10
15.7854 14.2132 5.69161 0.00032522 10
6.98223 6.3311 -2.52548 0.000424745 4
8.09815 7.34295 -2.52375 0.000315847 4
10.3432 9.37862 -2.71395 0.00017064 1
12.6839 11.5011 -2.71183 8.01183e-05 1
15.243 13.8215 -2.52645 8.5395e-05 10
15.8154 14.3405 -1.86779 0.000466217 10
15.7973 14.3241 -1.11757 0.000471096 10
15.8109 14.3365 -0.372542 0.000473631 10
15.8021 14.3284 0.372333 0.000473792 10
15.1599 13.7461 1.07248 3.72479e-05 10
15.7988 14.3255 1.86583 0.000364138 10
15.7959 14.3228 2.61809 0.000358789 10
15.7971 14.3239 3.37742 0.000351712 10
15.7956 14.3226 4.14463 0.000342988 10
15.7997 14.3263 4.9239 0.000332718 10
15.7915 14.3189 5.71179 0.000321018 10
6.96882 6.3634 -2.52864 0.000541227 4
8.07662 7.37496 -2.52505 0.000299799 4
10.3133 9.41732 -2.71472 0.000170621 1
12.6361 11.5384 -2.71021 8.01069e-05 1
15.2094 13.8881 -2.52889 8.53786e-05 10
15.8111 14.4375 -1.87323 0.000460191 10
15.8113 14.4377 -1.12212 0.000465011 10
15.7954 14.4232 -0.373361 0.000467516 10
15.7997 14.4271 0.373463 0.000467676 10
15.0928 13.7816 1.07113 3.7265e-05 10
15.8101 14.4366 1.8731 0.000359433 10
15.7916 14.4197 2.6257 0.00035415 10
15.7932 14.4212 3.38734 0.000347159 10
15.7935 14.4215 4.15726 0.00033854 10
15.7996 14.427 4.93953 0.000328395 10
15.7896 14.4179 5.72929 0.000316838 10
6.9344 6.37651 -2.52421 0.000454746 4
8.0464 7.39904 -2.52366 0.000359268 4
10.2795 9.45247 -2.71449 0.000170602 1
12.5881 11.5753 -2.70855 8.00955e-05 1
15.1578 13.9383 -2.5284 8.53623e-05 10
15.8086 14.5368 -1.87893 0.000454195 10
15.7996 14.5285 -1.12488 0.000458957 10
15.8129 14.5407 -0.374972 0.000461432 10
15.8008 14.5296 0.374684 0.000461591 10
15.0556 13.8444 1.07191 3.72821e-05 10
15.8084 14.5366 1.87891 0.000354753 10
15.809 14.5371 2.63701 0.000349534 10
15.7947 14.5239 3.39851 0.000342629 10
15.7908 14.5204 4.16985 0.000334116 10
15.7986 14.5275 4.95504 0.000324095 10
15.7929 14.5223 5.74883 0.000312679 10
6.93062 6.41783 -2.53098 0.000503565 4
8.02223 7.42866 -2.52419 0.000340931 4
10.2481 9.48986 -2.71494 0.000170583 1
12.5485 11.62 -2.70873 8.00841e-05 1
15.1006 13.9833 -2.52698 8.53458e-05 10
15.8033 14.634 -1.88436 0.000448232 10
15.8097 14.6399 -1.12923 0.000452936 10
15.8041 14.6347 -0.375971 0.000455381 10
15.8009 14.6317 0.375894 0.000455538 10
15.0097 13.8992 1.07209 3.72993e-05 10
15.7975 14.6287 1.88367 0.000350098 10
15.8009 14.6318 2.64417 0.000344943 10
15.7999 14.6309 3.41061 0.000338123 10
15.8029 14.6336 4.18651 0.000329715 10
15.795 14.6263 4.9699 0.000319818 10
15.8022 14.633 5.77078 0.000308544 10
6.8924 6.42726 -2.5252 0.000552376 4
8.00327 7.46317 -2.52641 0.000315733 4
10.2103 9.52124 -2.71371 0.000170564 1
12.5241 11.6789 -2.71225 8.00726e-05 1
15.0623 14.0458 -2.52875 8.53294e-05 10
15.8101 14.7431 -1.89129 0.0004423 10
15.797 14.7309 -1.13199 0.000446947 10
15.7955 14.7295 -0.376987 0.000449362 10
15.8027 14.7362 0.377159 0.000449518 10
14.9538 13.9446 1.07157 3.73164e-05 10
15.8064 14.7397 1.89085 0.000345467 10
15.7961 14.7301 2.65195 0.000340377 10
15.7886 14.7231 3.41922 0.000333641 10
15.7869 14.7216 4.19588 0.000325338 10
15.7962 14.7301 4.98641 0.000315564 10
15.7926 14.7268 5.78599 0.00030443 10
6.88567 6.46608 -2.53099 0.000589908 4
7.98579 7.49915 -2.52914 0.000263087 4
10.1769 9.55678 -2.71369 0.000170545 1
12.4808 11.7203 -2.71173 8.00611e-05 1
15.0169 14.1018 -2.52939 8.53129e-05 10
15.817 14.8532 -1.89831 0.000436401 10
15.7977 14.835 -1.13574 0.00044099 10
15.7968 14.8342 -0.378253 0.000443376 10
15.7924 14.8301 0.378148 0.00044353 10
14.9079 13.9995 1.07178 3.73337e-05 10
15.8012 14.8384 1.89642 0.000340862 10
15.7908 14.8285 2.65973 0.000335835 10
15.8019 14.8389 3.4333 0.000329184 10
15.7962 14.8336 4.21207 0.000320985 10
15.7946 14.8322 5.00224 0.000311333 10
15.7987 14.836 5.80718 0.000300339 10
6.86515 6.49205 -2.53176 0.000383223 4
7.94266 7.511 -2.52377 0.000301951 4
10.1364 9.5855 -2.71178 0.000170526 1
12.4395 11.7635 -2.71166 8.00496e-05 1
14.958 14.1451 -2.52776 8.52965e-05 10
15.8045 14.9456 -1.90306 0.000430534 10
15.7987 14.9401 -1.13956 0.000435067 10
15.7961 14.9377 -0.379483 0.000437423 10
15.803 14.9441 0.379647 0.000437576 10
14.8571 14.0496 1.07164 3.73509e-05 10
15.7948 14.9364 1.90189 0.000336282 10
15.7942 14.9358 2.66907 0.000331319 10
15.7949 14.9365 3.4431 0.000324752 10
15.7953 14.9369 4.22571 0.000316656 10
15.7933 14.935 5.0183 0.000307126 10
15.7885 14.9304 5.82254 0.000296271 10
6.83624 6.51006 -2.52946 0.000556007 4
8.51271 8.10655 -2.71388 0.000312166 1
10.1085 9.62623 -2.71331 0.000170507 1
12.3937 11.8024 -2.71064 8.00381e-05 1
14.9076 14.1963 -2.52761 8.52799e-05 10
15.8148 15.0602 -1.91061 0.000424701 10
15.7973 15.0435 -1.14324 0.000429177 10
15.8014 15.0474 -0.380868 0.000431504 10
15.8004 15.0466 0.380845 0.000431655 10
14.7933 14.0875 1.07058 3.73682e-05 10
15.8016 15.0476 1.90902 0.000331728 10
15.7985 15.0447 2.67867 0.000326829 10
15.8061 15.052 3.45698 0.000320345 10
15.79 15.0366 4.2383 0.000312352 10
15.7965 15.0428 5.03596 0.000302943 10
15.7914 15.038 5.84295 0.000292227 10
6.80713 6.5278 -2.52711 0.000394434 4
8.48221 8.13414 -2.71319 0.000312137 1
10.0716 9.6583 -2.71242 0.000170487 1
12.3628 11.8555 -2.71291 8.00266e-05 1
14.8721 14.2619 -2.53002 8.52634e-05 10
15.8 15.1516 -1.9152 0.000418902 10
15.803 15.1545 -1.14747 0.000423321 10
15.7948 15.1467 -0.381982 0.000425619 10
15.8002 15.1518 0.382111 0.000425768 10
14.7414 14.1365 1.07039 3.73855e-05 10
12.8142 12.2884 1.55328 0.000587152 10
12.8247 12.2984 2.18171 0.000578653 10
12.8147 12.2889 2.81209 0.000567492 10
12.82 12.2939 3.4526 0.000553794 10
15.795 15.1469 5.05232 0.000298785 10
12.819 12.2929 4.75896 0.000519408 10
6.78875 6.55582 -2.52876 0.000413185 4
8.46283 8.17246 -2.7161 0.000312109 1
10.0436 9.69903 -2.714 0.000170468 1
12.3142 11.8917 -2.71134 8.00151e-05 1
14.8152 14.3068 -2.52881 8.52468e-05 10
15.8108 15.2683 -1.92296 0.000413136 10
15.8121 15.2696 -1.152 0.000417499 10
15.7965 15.2545 -0.383308 0.000419768 10
15.809 15.2665 0.38361 0.000419916 10
14.6861 14.1822 1.06997 3.74029e-05 10
12.7518 12.3142 1.55092 0.000619491 10
12.7526 12.3151 2.17676 0.000610815 10
12.7389 12.3018 2.80485 0.000599325 10
12.7399 12.3028 3.44259 0.000585147 10
15.7328 15.193 5.04936 0.000285695 10
12.7394 12.3023 4.74534 0.000526992 10
6.76955 6.5831 -2.53016 0.000409397 4
8.44072 8.20824 -2.71818 0.00031208 1
10.0001 9.72468 -2.71139 0.000170449 1
12.276 11.9379 -2.7121 8.00035e-05 1
14.7743 14.3674 -2.53039 8.52302e-05 10
15.8056 15.3702 -1.92884 0.000407405 10
15.8112 15.3757 -1.15583 0.000411712 10
15.7965 15.3614 -0.384606 0.000413952 10
15.7937 15.3587 0.384539 0.000414099 10
14.6406 14.2374 1.07026 3.74203e-05 10
12.7518 12.4006 1.55617 0.000611361 10
12.7449 12.3939 2.18281 0.000602793 10
12.7524 12.4011 2.81733 0.000591446 10
12.7541 12.4028 3.4581 0.000577444 10
15.6264 15.196 5.0322 0.00029006 10
12.6598 12.3111 4.73165 0.000205536 10
6.73748 6.59782 -2.52676 0.000570858 4
8.40353 8.22934 -2.71544 0.000312051 1
9.97499 9.76823 -2.71381 0.000170429 1
12.2235 11.9701 -2.70971 7.99919e-05 1
14.7248 14.4196 -2.5305 8.52135e-05 10
15.8039 15.4764 -1.93523 0.000401709 10
15.7998 15.4723 -1.15894 0.00040596 10
15.8002 15.4727 -0.38601 0.000408171 10
15.8023 15.4747 0.386061 0.000408317 10
14.5943 14.2918 1.07052 3.74377e-05 10
12.7544 12.4901 1.56181 0.000603276 10
12.752 12.4877 2.19148 0.000594815 10
12.7425 12.4784 2.82477 0.000583609 10
12.7433 12.4791 3.46695 0.000569783 10
15.5087 15.1872 5.01133 0.000294457 10
12.6102 12.3488 4.7292 0.000205554 10
6.71283 6.61975 -2.52617 0.000495707 4
8.37265 8.25655 -2.71476 0.000312022 1
9.94665 9.80872 -2.7154 0.00017041 1
12.1818 12.0129 -2.70974 7.99803e-05 1
14.6747 14.4713 -2.53057 8.51969e-05 10
15.7937 15.5747 -1.94062 0.000396048 10
15.8081 15.5889 -1.16354 0.000400244 10
15.7933 15.5743 -0.387168 0.000402427 10
15.8041 15.585 0.387432 0.000402571 10
14.5519 14.3501 1.07108 3.74552e-05 10
12.7591 12.5821 1.56774 0.000595236 10
12.7411 12.5645 2.19713 0.000586882 10
12.7395 12.5629 2.8338 0.000575818 10
12.7422 12.5656 3.47858 0.000562165 10
12.8401 12.662 4.16327 0.00052259 10
12.5632 12.389 4.72776 0.000205571 10
6.69516 6.64858 -2.52824 0.000431833 4
8.35774 8.29959 -2.7193 0.000311993 1
9.90809 9.83916 -2.71423 0.000170391 1
12.1428 12.0583 -2.7104 7.99687e-05 1
14.622 14.5203 -2.53021 8.51802e-05 10
15.8049 15.6949 -1.94871 0.000390423 10
15.8008 15.6908 -1.16702 0.000394563 10
15.7946 15.6847 -0.388539 0.000396718 10
15.8053 15.6954 0.388803 0.000396861 10
14.4884 14.3876 1.07009 3.74727e-05 10
12.7499 12.6612 1.57204 0.00036955 10
12.7515 12.6628 2.20653 0.000364187 10
12.7434 12.6548 2.84448 0.00056807 10
12.7534 12.6647 3.49367 0.000554591 10
12.748 12.6593 4.14771 0.000530019 10
12.522 12.4349 4.72857 0.00020559 10
6.66901 6.66901 -2.52714 0.000428044 4
8.32506 8.32506 -2.71811 0.000311964 1
9.86655 9.86654 -2.71227 0.000170371 1
12.0982 12.0982 -2.70987 7.9957e-05 1
14.57 14.57 -2.52999 8.51635e-05 10
15.7981 15.7981 -1.95466 0.000384834 10
15.8055 15.8054 -1.17143 0.000388919 10
15.7927 15.7927 -0.389847 0.000391045 10
15.799 15.799 0.390001 0.000391187 10
14.4356 14.4356 1.06991 3.74902e-05 10
12.7215 12.7215 1.57401 0.000372368 10
12.7165 12.7165 2.20814 0.000367138 10
12.7196 12.7196 2.84905 0.00036021 10
12.7183 12.7183 3.49619 0.000351661 10
12.6647 12.6647 4.135 0.000537495 10
12.4832 12.4832 4.73036 0.000205608 10
6.64556 6.69211 -2.52709 0.000480574 4
8.28718 8.34524 -2.71523 0.000311935 1
9.83491 9.90381 -2.71306 0.000170352 1
12.0689 12.1534 -2.71279 7.99454e-05 1
14.5097 14.6113 -2.52835 8.51468e-05 10
15.7986 15.9093 -1.96159 0.00037928 10
15.7981 15.9088 -1.175 0.000383311 10
15.8099 15.9206 -0.391639 0.00038541 10
15.7948 15.9055 0.391266 0.00038555 10
14.3916 14.4924 1.07039 2.92453e-05 10
12.5605 12.6485 4.11536 0.000545016 10
12.4271 12.5142 4.72563 0.000205626 10
6.6169 6.70994 -2.52508 0.000503062 4
8.25155 8.36757 -2.71311 0.000311906 1
9.80063 9.93844 -2.71316 0.000170333 1
12.0272 12.1963 -2.71296 7.99337e-05 1
14.4729 14.6764 -2.53085 8.51301e-05 10
15.8039 16.0262 -1.96918 0.000373764 10
15.7924 16.0145 -1.17872 0.000377741 10
15.7952 16.0173 -0.392659 0.000379811 10
15.788 16.01 0.392479 0.00037995 10
14.3387 14.5403 1.07022 2.9259e-05 10
12.4838 12.6593 4.10467 0.000552583 10
12.3954 12.5697 4.73023 0.000205644 10
6.59703 6.73666 -2.52646 0.000405421 4
8.22954 8.40373 -2.71551 0.000311877 1
9.76397 9.97064 -2.71263 0.000170313 1
11.9753 12.2287 -2.71087 7.9922e-05 1
14.4224 14.7276 -2.53099 8.51133e-05 10
15.8083 16.143 -1.97674 0.000368285 10
15.7936 16.1279 -1.18301 0.000372208 10
15.7923 16.1265 -0.393983 0.00037425 10
15.8047 16.1392 0.394291 0.000374387 10
14.2785 14.5807 1.06952 2.92727e-05 10
12.3974 12.6598 4.09078 0.000560194 10
12.3527 12.6142 4.7307 0.000205662 10
6.57172 6.75785 -2.52578 0.000517998 4
8.19981 8.43204 -2.71539 0.000311848 1
9.74325 10.0192 -2.71657 0.000170294 1
11.9304 12.2684 -2.7104 7.99103e-05 1
14.3621 14.7689 -2.52945 8.50965e-05 10
15.8106 16.2584 -1.98411 0.000362842 10
15.808 16.2557 -1.18833 0.000366712 10
15.8041 16.2518 -0.395692 0.000368727 10
15.794 16.2413 0.395436 0.000368863 10
14.2372 14.6404 1.07025 2.92865e-05 10
12.3128 12.6615 4.07741 0.00056785 10
12.2962 12.6444 4.72592 0.00020568 10
6.5479 6.78055 -2.52571 0.000570504 4
8.1741 8.46453 -2.71664 0.000311818 1
9.7117 10.0568 -2.71754 0.000170274 1
11.891 12.3134 -2.71118 7.98986e-05 1
14.3125 14.821 -2.52981 8.50796e-05 10
15.7918 16.3529 -1.9889 0.000357438 10
15.8088 16.3705 -1.19268 0.000361254 10
15.8026 16.3641 -0.397081 0.000363241 10
15.7955 16.3567 0.396901 0.000363376 10
14.1687 14.6721 1.06894 3.79076e-05 10
12.2279 12.6623 4.0639 0.000575549 10
12.2309 12.6654 4.71779 0.000556011 10
6.52275 6.80185 -2.52515 0.000273971 4
8.15246 8.5013 -2.7193 0.000311789 1
9.67111 10.0849 -2.71602 0.000170255 1
11.8613 12.3688 -2.71424 7.98868e-05 1
