VERSION 0.7
FIELDS x y z intensity label
SIZE 4 4 4 4 4
TYPE F F F F F
COUNT 1 1 1 1 1
WIDTH 1174
HEIGHT 1
VIEWPOINT 5.06484 3.95552 2.72872 0.729841 0.000630758 0.000413493 -0.683617
POINTS 1174
DATA ascii
8.93112 -6.73008 -0.978384 0.00213703 10
8.92999 -6.72923 -0.586001 0.00215596 10
8.92345 -6.7243 -0.195032 0.00216554 10
8.9394 -6.73632 0.19538 0.00216567 10
8.92382 -6.72458 0.585596 0.00215634 10
8.92503 -6.72549 0.977716 0.00213766 10
8.94128 -6.73774 1.37466 0.00164504 10
8.92452 -6.72511 1.7699 0.00161639 10
8.94347 -6.73939 2.17676 0.00158109 10
8.92317 -6.72409 2.57949 0.0015395 10
8.93983 -6.73665 2.99939 0.00149203 10
8.1072 -6.06497 -2.71292 0.000518196 1
9.01755 -6.74599 -2.59996 0.00193525 10
8.99783 -6.73124 -2.18425 0.00198783 10
9.00302 -6.73512 -1.7808 0.0020325 10
8.99529 -6.72934 -1.37934 0.00206881 10
9.01767 -6.74608 -0.98528 0.0020964 10
9.00733 -6.73834 -0.589529 0.00211499 10
9.00349 -6.73547 -0.196266 0.0021244 10
9.01264 -6.74232 0.196466 0.00212453 10
9.01592 -6.74477 0.590091 0.00211537 10
8.99558 -6.72956 0.982865 0.00209703 10
9.01166 -6.74158 1.38185 0.00161375 10
9.01068 -6.74085 1.78231 0.00158562 10
9.01364 -6.74306 2.18809 0.00155097 10
9.01308 -6.74265 2.59867 0.00151013 10
9.01602 -6.74485 3.01704 0.00146352 10
8.12346 -6.03301 -2.71129 0.000518211 1
9.07968 -6.74317 -2.61107 0.00189801 10
9.07458 -6.73938 -2.19716 0.00194963 10
9.07789 -6.74184 -1.79094 0.00199348 10
9.07712 -6.74127 -1.38827 0.00202913 10
9.07699 -6.74117 -0.989183 0.00205621 10
9.06949 -6.7356 -0.592055 0.00207446 10
9.09012 -6.75092 -0.19764 0.0020837 10
9.06664 -6.73348 0.197129 0.00208382 10
9.07461 -6.7394 0.592389 0.00207484 10
9.08437 -6.74665 0.989987 0.00205683 10
9.06681 -6.73361 1.3867 0.0015828 10
9.08123 -6.74432 1.7916 0.00155519 10
9.0734 -6.7385 2.19688 0.00152117 10
9.06918 -6.73537 2.60805 0.00148108 10
9.08912 -6.75017 3.03359 0.00143533 10
8.14435 -6.00454 -2.71126 0.000518225 1
9.1413 -6.73955 -2.622 0.00186118 10
9.15388 -6.74882 -2.21064 0.00191184 10
9.1451 -6.74235 -1.79954 0.00195488 10
9.15378 -6.74875 -1.39639 0.00198987 10
9.1579 -6.75179 -0.995427 0.00201646 10
9.14147 -6.73968 -0.595214 0.00203437 10
9.148 -6.74449 -0.198385 0.00204344 10
9.14393 -6.74149 0.198297 0.00204356 10
9.1409 -6.73925 0.595177 0.00203474 10
9.16287 -6.75545 0.995966 0.00201707 10
9.14163 -6.7398 1.39453 0.00155218 10
9.15668 -6.75088 1.80182 0.00152508 10
9.14143 -6.73964 2.20764 0.00149169 10
9.15111 -6.74678 2.62482 0.00145234 10
9.15438 -6.74919 3.04749 0.00140744 10
7.6079 -5.56814 -2.52618 0.000362365 4
9.23567 -6.75949 -2.64229 0.00182475 10
9.23106 -6.75612 -2.22358 0.00187446 10
9.21826 -6.74675 -1.8093 0.0019167 10
9.33995 -6.83581 -1.42114 0.00195653 10
9.35091 -6.84383 -1.0138 0.00198308 10
9.35592 -6.8475 -0.607617 0.00200108 10
9.34973 -6.84297 -0.202241 0.00201035 10
9.33839 -6.83467 0.201995 0.0020108 10
9.34399 -6.83877 0.606843 0.00200242 10
9.35899 -6.84975 1.01468 0.00198529 10
9.22189 -6.7494 1.40317 0.0015219 10
9.22019 -6.74816 1.80967 0.0014953 10
9.21393 -6.74358 2.21945 0.00146253 10
9.23484 -6.75888 2.64205 0.00142392 10
9.21811 -6.74664 3.06085 0.00137986 10
7.63525 -5.54734 -2.52882 0.00049449 4
9.31129 -6.76505 -2.65715 0.00178872 10
9.30137 -6.75784 -2.23481 0.00183751 10
9.29362 -6.75221 -1.81945 0.00187895 10
9.36104 -6.80119 -1.42073 0.00197223 10
9.35822 -6.79914 -1.01202 0.00199898 10
9.35399 -6.79607 -0.605948 0.00201712 10
9.3519 -6.79455 -0.201773 0.00202646 10
9.36067 -6.80092 0.201962 0.00202691 10
9.35697 -6.79823 0.60614 0.00201846 10
9.35701 -6.79826 1.01188 0.0020012 10
9.30513 -6.76058 1.41224 0.00149196 10
9.31021 -6.76426 1.8227 0.00146586 10
9.28931 -6.74908 2.23192 0.0014337 10
9.29365 -6.75223 2.65212 0.00139582 10
9.30656 -6.76161 3.08237 0.00135259 10
7.63926 -5.50961 -2.52376 0.000498278 4
9.37817 -6.76375 -2.66948 0.00175311 10
9.38555 -6.76907 -2.24935 0.00180096 10
9.37273 -6.75982 -1.8303 0.00184163 10
9.37911 -6.76443 -1.41988 0.00123828 10
9.36696 -6.75566 -1.0104 0.00125487 10
9.36384 -6.75341 -0.605055 0.00126605 10
9.382 -6.76651 -0.201912 0.00127171 10
9.38195 -6.76648 0.201911 0.00127179 10
9.37423 -6.76091 0.605726 0.00126629 10
9.36546 -6.75458 1.01024 0.00125526 10
9.36742 -6.756 1.41811 0.00146235 10
9.36875 -6.75696 1.82953 0.00143674 10
9.3639 -6.75346 2.24416 0.0014052 10
9.37382 -6.76061 2.66824 0.00136803 10
9.37076 -6.75841 3.0958 0.00132562 10
7.67324 -5.4935 -2.52864 0.000441667 4
9.45868 -6.77175 -2.68566 0.0017179 10
9.46251 -6.7745 -2.26211 0.00176484 10
9.44952 -6.76519 -1.84068 0.00180473 10
9.62062 -6.88769 -1.45279 0.00186569 10
9.62516 -6.89094 -1.03566 0.0018911 10
9.60957 -6.87978 -0.619378 0.00190832 10
9.60502 -6.87652 -0.206194 0.00191719 10
9.6093 -6.87959 0.206285 0.00191761 10
9.61638 -6.88465 0.619816 0.00190959 10
9.62108 -6.88802 1.03522 0.0018932 10
9.44046 -6.75871 1.42558 0.00143308 10
9.44473 -6.76176 1.83974 0.00140796 10
9.44728 -6.76359 2.25847 0.00137702 10
9.4571 -6.77062 2.68521 0.00134057 10
9.45498 -6.7691 3.11579 0.00129897 10
7.67488 -5.45425 -2.52289 0.000449229 4
9.53735 -6.77784 -2.70126 0.00168309 10
9.53567 -6.77665 -2.27393 0.00172913 10
9.5361 -6.77696 -1.85292 0.00176825 10
9.62049 -6.83693 -1.44916 0.00188037 10
9.63258 -6.84552 -1.03388 0.00190596 10
9.62511 -6.84022 -0.618837 0.00192331 10
9.60873 -6.82858 -0.205761 0.00193225 10
9.61407 -6.83237 0.205875 0.00193267 10
9.62272 -6.83852 0.618683 0.00192459 10
9.6262 -6.84098 1.03319 0.00190807 10
9.52087 -6.76613 1.43415 0.00140414 10
9.51645 -6.76299 1.84911 0.00137951 10
9.53141 -6.77363 2.27292 0.00134916 10
9.53793 -6.77826 2.70142 0.00131342 10
9.52321 -6.7678 3.13047 0.00127262 10
7.69086 -5.42531 -2.5219 0.000434139 4
9.60098 -6.77275 -2.71257 0.000314169 1
9.61537 -6.7829 -2.28728 0.00169384 10
9.59822 -6.7708 -1.86039 0.0017322 10
9.63488 -6.79666 -1.44774 0.00189503 10
9.62826 -6.79199 -1.03086 0.00192082 10
9.62321 -6.78843 -0.617187 0.0019383 10
9.63461 -6.79647 -0.205805 0.0019473 10
9.62549 -6.79004 0.20561 0.00194772 10
9.60964 -6.77886 0.616317 0.00193958 10
9.62508 -6.78975 1.03052 0.00192294 10
9.59525 -6.76871 1.44179 0.00137554 10
9.61762 -6.78449 1.86415 0.00135139 10
9.60778 -6.77755 2.28548 0.00132163 10
9.60201 -6.77347 2.71286 0.00128658 10
9.60562 -6.77602 3.14977 0.00124658 10
7.71301 -5.40071 -2.52297 0.000449251 4
9.62507 -6.73955 -2.71271 0.000314179 1
9.68664 -6.78266 -2.29859 0.00165897 10
9.68047 -6.77834 -1.87174 0.00169657 10
9.67547 -6.77484 -1.45028 0.00114083 10
9.68684 -6.7828 -1.03459 0.00115617 10
9.68189 -6.77933 -0.619429 0.00116652 10
9.67531 -6.77472 -0.206168 0.00117175 10
9.67467 -6.77428 0.206154 0.00117183 10
9.68211 -6.77949 0.619443 0.00116674 10
9.69593 -6.78916 1.03556 0.00115654 10
9.69133 -6.78595 1.45266 0.00134728 10
9.68085 -6.77861 1.87181 0.0013236 10
9.67421 -6.77395 2.29564 0.00129443 10
9.68462 -6.78125 2.72949 0.00126006 10
9.68515 -6.78162 3.16807 0.00122085 10
7.72996 -5.37247 -2.52236 0.000468139 4
9.6544 -6.70998 -2.71436 0.000314188 1
9.77669 -6.79498 -2.31431 0.00162451 10
9.7729 -6.79234 -1.88501 0.00166137 10
9.87819 -6.86552 -1.47706 0.00179474 10
9.87778 -6.86524 -1.05242 0.00181925 10
9.87872 -6.86589 -0.630485 0.00183586 10
9.88888 -6.87295 -0.210207 0.00184442 10
9.87724 -6.86486 0.209959 0.00184483 10
9.8839 -6.86949 0.630815 0.00183708 10
9.87788 -6.86531 1.05243 0.00182126 10
9.76445 -6.78647 1.46006 0.00131935 10
9.77525 -6.79397 1.88546 0.00129614 10
9.75312 -6.7786 2.30873 0.00126755 10
9.77269 -6.7922 2.74762 0.00123386 10
9.75515 -6.78001 3.1832 0.00119542 10
7.75168 -5.34753 -2.52334 0.000539883 4
9.67988 -6.6777 -2.71495 0.000314197 1
9.8388 -6.78733 -2.32339 0.00159047 10
9.85528 -6.7987 -1.89631 0.0016266 10
9.90044 -6.82986 -1.47682 0.00180846 10
9.88817 -6.82139 -1.05098 0.00183314 10
9.88313 -6.81792 -0.629243 0.00184988 10
9.88164 -6.81689 -0.209546 0.0018585 10
9.88376 -6.81835 0.20959 0.00185891 10
9.90188 -6.83085 0.630437 0.0018511 10
9.88522 -6.81936 1.05067 0.00183516 10
9.83526 -6.78489 1.46709 0.00129176 10
9.85093 -6.7957 1.89547 0.00126901 10
9.84276 -6.79006 2.32433 0.00124099 10
9.85133 -6.79598 2.76304 0.00120798 10
9.85445 -6.79813 3.20784 0.00117031 10
7.77146 -5.32123 -2.52372 0.000464386 4
9.68306 -6.63013 -2.70934 0.000314206 1
9.9278 -6.7977 -2.33879 0.00155684 10
9.93611 -6.8034 -1.90728 0.00159224 10
9.93718 -6.80413 -1.47874 0.00107073 10
9.92847 -6.79816 -1.05274 0.00108518 10
9.93689 -6.80393 -0.63115 0.00109492 10
9.94057 -6.80645 -0.21029 0.00109985 10
9.91894 -6.79164 0.209833 0.00109992 10
9.92119 -6.79318 0.630153 0.00109513 10
9.93167 -6.80036 1.05308 0.00108553 10
9.92423 -6.79526 1.47682 0.00126451 10
9.93457 -6.80234 1.90699 0.00124222 10
9.93153 -6.80026 2.33967 0.00121476 10
9.92558 -6.79619 2.77719 0.00118242 10
9.92971 -6.79902 3.2246 0.0011455 10
7.7969 -5.29876 -2.52596 0.000411539 4
9.70278 -6.59401 -2.7084 0.000314216 1
10.0188 -6.80878 -2.35462 0.00152363 10
10.009 -6.80213 -1.91671 0.00155832 10
10.1585 -6.9037 -1.50808 0.00171474 10
10.1574 -6.90294 -1.07445 0.00173824 10
10.1675 -6.90981 -0.64426 0.00175417 10
10.149 -6.89726 -0.214189 0.00176237 10
10.1673 -6.90967 0.214574 0.00176275 10
10.1464 -6.89552 0.642927 0.00175532 10
10.1086 -6.86979 1.06929 0.000207957 10
9.95513 -6.7655 1.47789 0.00213755 10
9.95341 -6.76433 1.90606 0.0021002 10
9.94393 -6.75789 2.33702 0.0020541 10
9.95129 -6.76289 2.77777 0.00199973 10
9.93954 -6.7549 3.22011 0.00193763 10
7.80707 -5.26594 -2.52329 0.00044553 4
9.73147 -6.56396 -2.70999 0.000314225 1
10.1023 -6.81411 -2.36864 0.00149084 10
10.0876 -6.80416 -1.92719 0.00152482 10
10.151 -6.84697 -1.50342 0.00172758 10
10.1562 -6.85047 -1.07179 0.00175125 10
10.1595 -6.85266 -0.642234 0.00176729 10
10.1515 -6.84726 -0.213735 0.00177555 10
10.1612 -6.8538 0.213939 0.00177593 10
10.1517 -6.84738 0.641739 0.00176845 10
10.1187 -6.82515 1.06783 0.000207941 10
9.94623 -6.70882 1.47309 0.00215349 10
9.94509 -6.70805 1.89997 0.00211588 10
9.95319 -6.71351 2.33367 0.00206945 10
9.96442 -6.72109 2.77487 0.00201469 10
9.96421 -6.72095 3.22048 0.00195214 10
7.84161 -5.24951 -2.52851 0.000505953 4
9.75173 -6.52822 -2.70927 0.000314234 1
10.1893 -6.82114 -2.38344 0.00145847 10
10.1714 -6.80917 -1.93866 0.00149174 10
10.1706 -6.80865 -1.50279 0.0010032 10
10.1843 -6.8178 -1.07224 0.00101679 10
10.1915 -6.82264 -0.642751 0.00102594 10
10.1681 -6.80697 -0.213585 0.00103058 10
10.1816 -6.81597 0.213867 0.00103065 10
10.1913 -6.82245 0.642733 0.00102615 10
10.1808 -6.81543 1.07186 0.00120065 10
9.95804 -6.66633 1.47138 0.00216942 10
9.95572 -6.66477 1.89755 0.00213154 10
9.96971 -6.67414 2.33207 0.00208479 10
9.95206 -6.66232 2.76493 0.00202964 10
9.96141 -6.66859 3.21204 0.00196665 10
7.85116 -5.2163 -2.5257 0.00048331 4
9.773 -6.49317 -2.70887 0.000314243 1
10.2693 -6.82289 -2.39656 0.00142651 10
10.2705 -6.82372 -1.953 0.00145909 10
10.4309 -6.93026 -1.53766 0.00163985 10
10.4367 -6.9341 -1.09625 0.0016624 10
10.416 -6.92035 -0.655377 0.00167768 10
10.4341 -6.93242 -0.218662 0.00168555 10
10.4294 -6.92929 0.218563 0.00168592 10
10.4317 -6.9308 0.656367 0.00167879 10
10.2658 -6.82061 1.07831 0.00117442 10
9.96653 -6.62175 1.46921 0.00218534 10
9.95292 -6.61271 1.8926 0.00214719 10
9.95968 -6.6172 2.32431 0.00210011 10
9.95639 -6.61501 2.7597 0.00204457 10
9.95083 -6.61132 3.20116 0.00198114 10
7.87141 -5.19024 -2.52638 0.000434234 4
9.80555 -6.46557 -2.71162 0.000314251 1
10.3406 -6.81838 -2.40764 0.00139496 10
10.3521 -6.82597 -1.96397 0.00142686 10
10.4322 -6.87876 -1.53431 0.00165188 10
10.4244 -6.87361 -1.09243 0.00167458 10
10.4303 -6.87754 -0.654767 0.00168997 10
10.4232 -6.87285 -0.21793 0.0016979 10
10.4346 -6.88032 0.218166 0.00169827 10
10.4171 -6.86882 0.653937 0.00169108 10
10.3596 -6.83089 1.08564 0.00114852 10
9.97327 -6.57616 1.46681 0.00220123 10
9.9755 -6.57763 1.89252 0.00216282 10
9.96045 -6.56771 2.31912 0.00211541 10
9.95816 -6.5662 2.75382 0.00205949 10
9.95859 -6.56648 3.19627 0.00199561 10
7.8811 -5.15725 -2.52369 0.000517317 4
9.83157 -6.4336 -2.71259 0.00031426 1
10.4366 -6.8295 -2.42441 0.00136383 10
10.4411 -6.83248 -1.97632 0.00139505 10
10.4385 -6.83078 -1.53172 0.000938237 10
10.451 -6.83897 -1.09272 0.000950983 10
10.4316 -6.82626 -0.653347 0.000959576 10
10.4472 -6.83646 -0.217931 0.000963927 10
10.4402 -6.83188 0.217785 0.000963992 10
10.4446 -6.83473 0.654159 0.00095977 10
10.4381 -6.83053 1.09137 0.00112296 10
9.97462 -6.52721 1.46365 0.0022171 10
9.97563 -6.52787 1.88821 0.00217843 10
9.97585 -6.52802 2.31739 0.00213069 10
9.96294 -6.51957 2.74883 0.00207438 10
9.95602 -6.51504 3.18812 0.00201007 10
7.8929 -5.12571 -2.52173 0.000543761 4
9.83912 -6.3896 -2.7085 0.000314269 1
10.5361 -6.84225 -2.44198 0.00133311 10
10.5267 -6.83611 -1.98798 0.00136367 10
10.6961 -6.94612 -1.56595 0.00156961 10
10.6885 -6.94116 -1.115 0.00159127 10
10.7081 -6.9539 -0.669138 0.00160594 10
10.6857 -6.93939 -0.2224 0.0016135 10
10.7016 -6.94968 0.222729 0.00161385 10
10.6878 -6.94077 0.667874 0.001607 10
10.532 -6.83956 1.09868 0.00109774 10
9.97723 -6.47929 1.4607 0.00223296 10
9.98091 -6.48168 1.88491 0.00219401 10
9.96867 -6.47373 2.31046 0.00214595 10
9.97409 -6.47725 2.74565 0.00208926 10
9.97455 -6.47755 3.1868 0.00202451 10
7.92842 -5.10952 -2.52736 0.000536221 4
9.86021 -6.35448 -2.70818 0.000314277 1
10.631 -6.85121 -2.45841 0.00130281 10
10.6198 -6.84401 -2.00105 0.0013327 10
10.7008 -6.89617 -1.5631 0.00158089 10
10.7057 -6.89935 -1.11428 0.00160269 10
10.688 -6.88796 -0.666379 0.00161746 10
10.6874 -6.88758 -0.221934 0.00162507 10
10.6918 -6.89037 0.222023 0.00162542 10
10.6956 -6.89283 0.666849 0.00161852 10
10.6188 -6.84333 1.10523 0.00107286 10
9.99434 -6.44091 1.45991 0.00124249 10
9.9978 -6.44314 1.88384 0.00122063 10
10.0048 -6.44763 2.31359 0.00119371 10
9.98992 -6.43806 2.74381 0.001162 10
10.0043 -6.44731 3.18908 0.0011258 10
7.95151 -5.0852 -2.52905 0.000370077 4
9.89207 -6.32624 -2.71085 0.000314286 1
10.7196 -6.85547 -2.47335 0.00127292 10
10.7025 -6.84456 -2.01212 0.00130216 10
10.7064 -6.84701 -1.56042 0.000875822 10
10.6984 -6.84194 -1.11103 0.000887762 10
10.7011 -6.84365 -0.665702 0.000895812 10
10.7178 -6.85433 -0.222066 0.000899889 10
10.7067 -6.84721 0.221835 0.000899951 10
10.7077 -6.84789 0.666114 0.000895997 10
10.7037 -6.84528 1.11157 0.00104831 10
10.0739 -6.44256 1.46824 0.00121435 10
10.0855 -6.44992 1.89611 0.00119296 10
10.0862 -6.45038 2.3272 0.00116663 10
10.0719 -6.44122 2.76012 0.00113559 10
10.0821 -6.4478 3.20671 0.00110018 10
7.9474 -5.04357 -2.52212 0.000487153 4
9.90954 -6.28878 -2.70961 0.000314294 1
10.7962 -6.85149 -2.4855 0.00124344 10
10.8006 -6.85425 -2.02604 0.00127204 10
10.9661 -6.9593 -1.59472 0.00150361 10
10.9765 -6.96591 -1.13738 0.00152442 10
10.976 -6.96558 -0.681284 0.00153853 10
10.9551 -6.95233 -0.226479 0.00154579 10
10.9733 -6.96389 0.226855 0.00154613 10
10.9682 -6.96063 0.6808 0.00153954 10
10.8102 -6.86038 1.12015 0.00102411 10
10.9301 -6.93644 1.58948 0.00114305 10
10.9245 -6.9329 2.04929 0.00112281 10
10.926 -6.93385 2.51537 0.00109783 10
10.9426 -6.9444 2.99209 0.00106838 10
10.9297 -6.93623 3.46858 0.00103475 10
7.968 -5.01772 -2.52309 0.000468281 4
9.945 -6.2627 -2.71331 0.000314302 1
10.8906 -6.85815 -2.50169 0.00121438 10
10.9012 -6.86483 -2.0404 0.00124235 10
10.959 -6.90123 -1.59017 0.00151418 10
10.975 -6.91131 -1.13471 0.00153513 10
10.973 -6.91006 -0.679596 0.00154933 10
10.9743 -6.9109 -0.226376 0.00155664 10
10.9653 -6.90523 0.22619 0.00155698 10
10.9648 -6.9049 0.679089 0.00155034 10
10.9034 -6.86622 1.12731 0.00100024 10
7.99681 -4.99696 -2.52667 0.000540045 4
9.95843 -6.22272 -2.71103 0.000314311 1
10.9872 -6.86555 -2.51836 0.00118572 10
10.9822 -6.86241 -2.05107 0.00121306 10
10.9981 -6.87241 -1.59237 0.000815948 10
10.9914 -6.86816 -1.13392 0.000827113 10
10.9819 -6.86228 -0.678663 0.000834641 10
10.988 -6.86605 -0.226161 0.000838454 10
10.9989 -6.87287 0.226386 0.000838513 10
10.9821 -6.86235 0.67867 0.000834817 10
10.9422 -6.83743 1.12885 0.000179243 10
8.02125 -4.97339 -2.52889 0.000517397 4
9.98752 -6.19252 -2.71305 0.000314319 1
11.0759 -6.86733 -2.53318 0.00115748 10
11.0923 -6.87754 -2.06715 0.0011842 10
11.27 -6.98772 -1.62819 0.000304029 10
17.7431 -11.0012 0.364406 0.000602546 10
17.5188 -10.8621 1.08028 3.62216e-05 10
10.9849 -6.81092 1.13079 0.00017923 10
11.2213 -6.95752 2.09119 0.000190701 10
8.01508 -4.93091 -2.52151 0.00037767 4
9.99949 -6.15173 -2.71045 0.000314327 1
11.1746 -6.87463 -2.55025 0.00112964 10
11.1948 -6.88707 -2.08174 0.00115575 10
11.3087 -6.95717 -1.63026 0.000304044 10
17.8057 -10.9542 -1.82899 0.000590929 10
17.8152 -10.96 -1.09619 0.000597019 10
17.8091 -10.9562 -0.364974 0.000600154 10
17.7368 -10.9118 0.363494 0.000607134 10
17.5693 -10.8087 1.08106 3.62168e-05 10
11.0016 -6.7682 1.13007 0.000179218 10
11.3064 -6.95572 2.1025 0.000558891 10
8.03612 -4.90527 -2.52272 0.000483428 4
10.0248 -6.11918 -2.71151 0.000314335 1
11.2751 -6.88236 -2.5677 0.00110221 10
11.2863 -6.88919 -2.09428 0.00112773 10
11.3217 -6.91078 -1.62864 0.000304059 10
17.7513 -10.8354 0.363012 0.000611716 10
17.5924 -10.7385 1.08017 3.62121e-05 10
11.0285 -6.73183 1.13042 0.000179205 10
11.4032 -6.96052 2.11596 0.000545311 10
8.05423 -4.87782 -2.52305 0.000415455 4
9.35989 -5.66855 -2.52629 0.000250991 4
11.3709 -6.88645 -2.58402 0.00107519 10
11.378 -6.89077 -2.10682 0.00110011 10
11.3758 -6.88942 -1.63295 0.00112038 10
17.7554 -10.7531 0.362327 0.000616292 10
17.6415 -10.6841 1.08089 3.62075e-05 10
11.0382 -6.68497 1.12901 0.000179193 10
11.5127 -6.97233 2.13176 0.000531933 10
8.08495 -4.85793 -2.52734 0.000404132 4
9.37802 -5.63488 -2.52586 0.000230272 4
11.476 -6.89549 -2.60243 0.00104857 10
11.4771 -6.89615 -2.1207 0.00107291 10
11.4897 -6.90374 -1.64584 0.0010927 10
17.7541 -10.6677 0.361537 0.00062086 10
17.6687 -10.6164 1.08027 3.62029e-05 10
11.0711 -6.65219 1.13 0.000179181 10
11.5985 -6.96906 2.14312 0.000518756 10
8.10215 -4.82985 -2.52743 0.000540113 4
9.37992 -5.59156 -2.5211 0.0003316 4
11.5928 -6.91071 -2.62342 0.00102236 10
11.5945 -6.91168 -2.13791 0.00104612 10
11.5766 -6.90105 -1.65483 0.00106545 10
17.7712 -10.5938 0.361131 0.000625419 10
17.7259 -10.5668 1.08151 3.61984e-05 10
11.0891 -6.61043 1.12947 0.000179169 10
8.1076 -4.79482 -2.5239 0.00055901 4
9.40891 -5.56442 -2.52366 0.000327002 4
11.6843 -6.91011 -2.63866 0.000996554 10
11.7009 -6.91989 -2.15307 0.00101974 10
11.6937 -6.91561 -1.6681 0.00103861 10
17.7576 -10.5018 0.360109 0.000629971 10
17.7497 -10.4971 1.08072 3.61939e-05 10
11.1144 -6.57302 1.1297 0.000179157 10
11.8296 -6.996 1.68749 0.000502066 10
11.8101 -6.9845 2.17317 0.000493003 10
11.8231 -6.99214 2.66999 0.000481842 10
11.8085 -6.98355 3.16728 0.000468699 10
11.8191 -6.9898 3.67929 0.00045371 10
8.12855 -4.769 -2.52522 0.000472146 4
9.42037 -5.5269 -2.52154 0.000234894 4
11.7873 -6.91558 -2.65645 0.000971147 10
11.7926 -6.91868 -2.16549 0.000993777 10
11.7974 -6.92151 -1.67944 0.00101219 10
17.7797 -10.4313 0.359815 0.000634514 10
17.7667 -10.4237 1.07954 0.000631513 10
11.1362 -6.53357 1.12959 0.000179146 10
11.823 -6.93653 1.68309 0.00099515 10
11.8367 -6.94458 2.1736 0.00097733 10
11.8239 -6.93704 2.66469 0.000955347 10
11.8226 -6.93627 3.16454 0.000929431 10
11.8229 -6.93648 3.67293 0.000899847 10
8.14103 -4.7382 -2.52395 0.00050615 4
9.43939 -5.49386 -2.52148 0.0003132 4
11.8933 -6.92208 -2.67488 0.000946139 10
11.9099 -6.93176 -2.18258 0.000968218 10
11.8914 -6.92094 -1.68936 0.00098618 10
17.7704 -10.3426 0.358895 0.000639048 10
17.787 -10.3523 1.07857 0.000636027 10
11.2054 -6.5217 1.1343 0.000918461 10
11.8766 -6.91234 1.68727 0.00155862 10
11.8701 -6.90858 2.17528 0.0015307 10
11.8659 -6.90613 2.66871 0.00149627 10
11.8679 -6.9073 3.1702 0.00145567 10
11.8543 -6.89938 3.67517 0.00140933 10
8.15251 -4.70686 -2.5224 0.000528824 4
9.46684 -5.46569 -2.52371 0.000329328 4
12.0137 -6.93612 -2.69649 0.000921531 10
12.0163 -6.93764 -2.19763 0.000943066 10
12.0233 -6.94164 -1.70465 0.000960586 10
17.7835 -10.2673 0.358433 0.000643572 10
17.7898 -10.2709 1.07655 0.000640531 10
11.315 -6.53272 1.14308 0.000894915 10
11.8791 -6.85842 1.68422 0.00156869 10
11.8812 -6.85962 2.17291 0.0015406 10
11.8695 -6.85287 2.66413 0.00150596 10
11.8588 -6.84668 3.16136 0.00146511 10
11.8585 -6.8465 3.66903 0.00141848 10
8.18431 -4.6872 -2.52716 0.000472174 4
9.48717 -5.43335 -2.52405 0.000214183 4
12.0878 -6.92273 -2.70767 0.000172073 1
12.115 -6.93832 -2.21123 0.00091832 10
12.1195 -6.94092 -1.71485 0.000935405 10
17.7841 -10.185 0.357726 0.000648086 10
17.7751 -10.1799 1.07351 0.000645025 10
11.4089 -6.53394 1.15025 0.000871742 10
11.8825 -6.80517 1.68132 0.00157873 10
11.8765 -6.80176 2.16771 0.00155048 10
11.8818 -6.80476 2.66153 0.00151562 10
11.8769 -6.80196 3.15984 0.00147452 10
11.875 -6.80086 3.66676 0.00142761 10
8.19412 -4.65491 -2.52515 0.00052129 4
9.50765 -5.4011 -2.52447 0.000306312 4
12.1012 -6.87446 -2.7053 0.000172077 1
12.2289 -6.94696 -2.22757 0.000893978 10
12.2407 -6.95369 -1.72855 0.000910634 10
17.7987 -10.1111 0.357308 0.00065259 10
17.7924 -10.1075 1.07242 0.000649509 10
11.5078 -6.53731 1.15791 0.000848941 10
11.8898 -6.75437 1.67901 0.00158875 10
11.8825 -6.75021 2.16448 0.00156032 10
11.8818 -6.7498 2.65624 0.00152526 10
11.8713 -6.74386 3.15207 0.00148391 10
11.8799 -6.7487 3.66097 0.00143672 10
8.20029 -4.62063 -2.52207 0.000253095 4
9.52037 -5.36446 -2.52286 0.000285591 4
12.1287 -6.83415 -2.70608 0.000172082 1
12.3557 -6.9621 -2.24624 0.000870038 10
12.3431 -6.95497 -1.73957 0.000886273 10
17.807 -10.0338 0.35677 0.000657083 10
17.7923 -10.0254 1.07029 0.000653981 10
11.6314 -6.55393 1.16804 0.000826511 10
11.8792 -6.69359 1.6742 0.00159874 10
11.8877 -6.6984 2.16116 0.00157014 10
11.8804 -6.69425 2.65068 0.00153486 10
11.8728 -6.68998 3.14625 0.00149327 10
11.8801 -6.69412 3.65384 0.0014458 10
8.21958 -4.59377 -2.52306 0.000464645 4
9.5268 -5.32435 -2.51962 0.000327055 4
12.1492 -6.78994 -2.70535 0.000172087 1
12.4694 -6.9689 -2.26246 0.000846499 10
12.4594 -6.96335 -1.75254 0.000862318 10
17.8006 -9.94842 0.355943 0.000661564 10
17.8101 -9.95372 1.06927 0.000658442 10
11.7295 -6.55541 1.17559 0.00080445 10
11.886 -6.64286 1.67188 0.0016087 10
11.892 -6.64623 2.15771 0.00157993 10
11.8937 -6.64717 2.64846 0.00154444 10
11.8897 -6.64494 3.14456 0.00150261 10
11.8926 -6.64654 3.65051 0.00145485 10
8.23002 -4.56198 -2.52136 0.000487319 4
9.55077 -5.29408 -2.52106 0.00029021 4
12.1763 -6.74942 -2.70612 0.000172092 1
12.5763 -6.97115 -2.27744 0.000823359 10
12.5673 -6.96614 -1.76427 0.00083877 10
13.272 -7.3568 -1.32761 0.00154851 10
13.2821 -7.36238 -0.795871 0.00156329 10
13.2708 -7.35613 -0.26485 0.00157089 10
13.2765 -7.35927 0.264963 0.00157123 10
13.2726 -7.3571 0.795301 0.00156431 10
11.8304 -6.55769 1.1834 0.000782756 10
11.8806 -6.58555 1.66788 0.00161863 10
11.892 -6.59186 2.15352 0.00158969 10
11.8824 -6.5865 2.6408 0.00155399 10
11.8825 -6.5866 3.13656 0.00151191 10
11.8932 -6.59252 3.64362 0.00146387 10
8.25868 -4.54025 -2.52526 0.000521328 4
9.57073 -5.26156 -2.52147 0.000232633 4
12.2164 -6.71602 -2.70981 0.000172096 1
12.6898 -6.97627 -2.29356 0.000800618 10
12.6923 -6.97764 -1.77839 0.000815627 10
13.2822 -7.30194 -1.32606 0.00155819 10
13.2791 -7.30023 -0.794158 0.00157305 10
13.2901 -7.30629 -0.264724 0.00158069 10
13.2984 -7.31085 0.264889 0.00158104 10
13.2873 -7.30476 0.794651 0.00157408 10
11.9603 -6.57525 1.19409 0.00076143 10
11.942 -6.56518 1.67327 0.000751167 10
11.9502 -6.56966 2.15988 0.000737629 10
11.9509 -6.57005 2.65091 0.000720956 10
11.9481 -6.56852 3.14779 0.000701321 10
11.9493 -6.56918 3.65375 0.000678925 10
8.2719 -4.50999 -2.52448 0.000510004 4
9.6064 -5.23758 -2.52603 0.000380053 4
12.2308 -6.66846 -2.70783 0.000172101 1
12.8088 -6.98359 -2.31066 0.000778271 10
12.8249 -6.99238 -1.79355 0.000792883 10
13.2949 -7.24861 -1.3248 0.00156784 10
13.2788 -7.23987 -0.792629 0.00158278 10
13.3031 -7.2531 -0.264478 0.00159047 10
13.2888 -7.24527 0.264192 0.00159082 10
13.2766 -7.23865 0.792496 0.00158381 10
12.8122 -6.98545 1.2767 0.000627141 10
12.8107 -6.98463 1.79156 0.000618573 10
12.6008 -6.87019 3.84561 0.00126659 10
8.27713 -4.47543 -2.52129 0.000593126 4
9.60157 -5.19155 -2.51998 0.000338599 4
12.2491 -6.62307 -2.70675 0.000172105 1
12.9339 -6.99335 -2.32881 0.000756316 10
12.9409 -6.99713 -1.80634 0.00077054 10
13.3061 -7.19457 -1.3234 0.00157745 10
13.2953 -7.18877 -0.792111 0.00159248 10
13.3016 -7.19215 -0.263947 0.00160021 10
13.3001 -7.19132 0.263916 0.00160056 10
13.3001 -7.19134 0.792395 0.00159352 10
12.9467 -7.00026 1.28766 0.000609483 10
12.9331 -6.99288 1.80524 0.000601145 10
12.5907 -6.80778 3.83525 0.00127431 10
8.30411 -4.45263 -2.52476 0.000483576 4
9.6248 -5.16077 -2.52133 0.000329393 4
12.2711 -6.5797 -2.70651 0.000172109 1
13.0582 -7.00176 -2.34677 0.000734754 10
13.0561 -7.00064 -1.819 0.000748594 10
13.3041 -7.1336 -1.32072 0.00158703 10
13.3082 -7.13578 -0.791387 0.00160215 10
13.3053 -7.13426 -0.263525 0.00160992 10
13.3006 -7.1317 0.26343 0.00161027 10
13.2938 -7.1281 0.790535 0.00160319 10
13.0562 -7.00065 1.29611 0.000592141 10
13.0484 -6.99649 1.81792 0.000584027 10
13.2053 -7.08062 2.37321 0.000780021 10
13.1998 -7.07767 2.91135 0.00076216 10
13.2013 -7.07845 3.45823 0.00074111 10
12.5915 -6.75148 3.82827 0.00128201 10
8.32695 -4.42752 -2.52699 0.000483584 4
9.64093 -5.12617 -2.52086 0.00029024 4
12.3016 -6.54087 -2.70819 0.000172114 1
13.1803 -7.00807 -2.36429 0.00071358 10
13.1753 -7.00544 -1.83219 0.000727044 10
13.3072 -7.07554 -1.31857 0.00159658 10
13.293 -7.06801 -0.789012 0.00161178 10
13.309 -7.07654 -0.263108 0.0016196 10
13.2926 -7.06781 0.262783 0.00161995 10
13.3048 -7.07428 0.789711 0.00161283 10
13.1779 -7.00683 1.30576 0.00057511 10
13.1821 -7.00905 1.83313 0.000567218 10
13.2649 -7.05307 2.37947 0.000775141 10
13.2733 -7.05753 2.9221 0.00075738 10
13.2663 -7.05382 3.4688 0.00073645 10
12.6033 -6.70132 3.82475 0.00128968 10
8.34246 -4.39848 -2.52702 0.000521373 4
9.6587 -5.09246 -2.52084 0.00033862 4
12.3271 -6.49936 -2.7088 0.000172118 1
13.315 -7.02023 -2.38406 0.000692793 10
13.3153 -7.02038 -1.84824 0.000705886 10
13.3127 -7.019 -1.31668 0.000715846 10
13.3252 -7.0256 -0.789465 0.000722565 10
13.3161 -7.02076 -0.26276 0.000725974 10
13.3037 -7.01426 0.262517 0.000726035 10
13.3057 -7.01528 0.788306 0.000722748 10
13.3055 -7.01517 1.31596 0.00055839 10
13.3066 -7.0158 1.84703 0.000550715 10
13.3212 -7.02346 2.38516 0.000540593 10
13.3069 -7.01591 2.92409 0.000528131 10
13.3045 -7.01465 3.47235 0.000513461 10
12.6089 -6.6479 3.81936 0.00129732 10
8.34529 -4.36281 -2.52325 0.000555385 4
9.6902 -5.06592 -2.52443 0.000310984 4
12.3354 -6.44878 -2.70565 0.000172122 1
13.4467 -7.02978 -2.40323 0.000672391 10
13.4456 -7.02918 -1.8629 0.000685121 10
13.4379 -7.02517 -1.32663 0.000694804 10
13.4551 -7.03418 -0.795702 0.000701337 10
13.4426 -7.0276 -0.264771 0.000704651 10
13.4354 -7.02384 0.264629 0.000704711 10
13.4476 -7.03024 0.795256 0.000701516 10
13.4382 -7.02532 1.32666 0.000541979 10
13.4554 -7.0343 1.86426 0.000534517 10
13.4447 -7.02869 2.40286 0.000524678 10
13.4339 -7.02309 2.9466 0.000512563 10
13.4363 -7.02434 3.50035 0.000498302 10
12.6605 -6.61874 3.82798 0.000570998 10
8.36609 -4.33657 -2.52495 0.00043827 4
9.70121 -5.02863 -2.52271 0.000248792 4
12.3569 -6.40519 -2.70544 0.000172126 1
13.5691 -7.03354 -2.4207 0.000652373 10
13.5832 -7.04085 -1.87855 0.000664745 10
13.5778 -7.03806 -1.33801 0.000674156 10
13.5659 -7.03191 -0.800798 0.000680507 10
13.5677 -7.03284 -0.266751 0.000683728 10
13.5761 -7.03718 0.266915 0.000683787 10
13.5717 -7.03489 0.801137 0.000680682 10
13.5809 -7.03966 1.33831 0.000525875 10
13.5654 -7.03163 1.87609 0.000518624 10
13.5819 -7.04019 2.42298 0.000509061 10
13.5803 -7.03937 2.97331 0.000497287 10
13.5823 -7.04042 3.53196 0.000483428 10
12.7678 -6.61819 3.85341 0.000554138 10
8.3939 -4.31388 -2.52878 0.000419386 4
9.70943 -4.98997 -2.5203 0.000334033 4
12.377 -6.36092 -2.70497 0.00017213 1
13.7051 -7.04344 -2.44055 0.000632736 10
13.7022 -7.04195 -1.89159 0.000644757 10
13.7195 -7.05087 -1.34954 0.000653902 10
13.7016 -7.04169 -0.807352 0.000660072 10
13.7062 -7.04401 -0.268987 0.000663203 10
13.6992 -7.04041 0.26885 0.00066326 10
13.7162 -7.04915 0.808208 0.000660244 10
13.6968 -7.03918 1.3473 0.000510077 10
13.7126 -7.04734 1.89304 0.000503032 10
13.7018 -7.04178 2.43998 0.000493742 10
13.7057 -7.04377 2.99535 0.000482304 10
13.7087 -7.04532 3.55841 0.00046884 10
12.9035 -6.63151 3.88736 0.000537595 10
8.3877 -4.27375 -2.5224 0.000559191 4
9.73771 -4.96161 -2.52313 0.000244194 4
12.4152 -6.32588 -2.70848 0.000172135 1
13.8541 -7.059 -2.46269 0.000613476 10
13.8422 -7.05296 -1.90752 0.000625153 10
13.8395 -7.05159 -1.35891 0.000634035 10
17.8635 -9.10191 0.349951 0.000709967 10
17.8576 -9.0989 1.05036 0.000706629 10
13.8358 -7.0497 1.35855 0.000494582 10
13.8573 -7.06065 1.9096 0.00048774 10
13.8331 -7.04834 2.45897 0.000478717 10
13.8513 -7.05759 3.02177 0.000467608 10
13.8395 -7.05156 3.58593 0.000454532 10
13.8356 -7.04959 4.16073 0.000439627 10
8.40345 -4.24489 -2.52267 0.000502523 4
9.76301 -4.93165 -2.52521 0.000297185 4
12.4367 -6.28221 -2.70836 0.000172139 1
13.973 -7.05829 -2.47944 0.000594594 10
13.9823 -7.06298 -1.92341 0.000605931 10
17.8595 -9.02148 0.349253 0.000714275 10
17.8701 -9.02686 1.04924 0.000710918 10
13.988 -7.06587 1.37107 0.000479389 10
13.9787 -7.06116 1.92292 0.000472746 10
13.9014 -7.02211 2.46673 0.00110808 10
13.9146 -7.02878 3.03022 0.0010825 10
13.8884 -7.01555 3.59226 0.00105236 10
13.9687 -7.05609 4.19332 0.000426034 10
8.42027 -4.21656 -2.52328 0.000513867 4
9.7622 -4.88855 -2.52057 0.00027876 4
11.5978 -5.80775 -2.52125 0.00018809 4
14.1175 -7.06951 -2.50067 0.000576084 10
14.135 -7.07829 -1.94101 0.000587088 10
17.8698 -8.94851 0.348841 0.000718565 10
17.8644 -8.94581 1.04706 0.000715189 10
14.1264 -7.07397 1.3822 0.000464495 10
14.1262 -7.07385 1.93979 0.000458047 10
13.9158 -6.96852 2.46495 0.00111437 10
13.8969 -6.95905 3.02105 0.00108865 10
13.8969 -6.95905 3.58814 0.00105834 10
14.1126 -7.06704 4.22908 0.000412712 10
8.45001 -4.19462 -2.52779 0.000517653 4
9.7881 -4.85886 -2.52287 0.000267246 4
11.6226 -5.76953 -2.52225 0.00015505 4
14.2603 -7.0789 -2.52159 0.000557944 10
14.2789 -7.08812 -1.95736 0.000568622 10
17.8733 -8.87238 0.348303 0.000722837 10
17.8634 -8.86746 1.04518 0.000719442 10
14.2642 -7.08084 1.39326 0.0004499 10
14.2659 -7.08167 1.95558 0.000443643 10
13.9021 -6.90104 2.45823 0.00112063 10
13.9116 -6.90577 3.01898 0.00109477 10
13.9167 -6.90832 3.58701 0.0010643 10
14.2759 -7.08661 4.27058 0.000399657 10
8.45931 -4.1625 -2.52621 0.000464761 4
9.81633 -4.83024 -2.52578 0.000301809 4
11.6399 -5.72753 -2.52164 0.000175389 4
14.4048 -7.08804 -2.54274 0.000540173 10
14.4089 -7.09008 -1.97178 0.000550531 10
17.9452 -8.83012 -1.74977 0.000707958 10
17.9486 -8.83182 -1.04836 0.000715161 10
17.9497 -8.83235 -0.34919 0.000718866 10
17.8737 -8.79498 0.347712 0.000727092 10
17.8803 -8.79822 1.04437 0.000723677 10
14.4092 -7.09021 1.40499 0.000435599 10
14.3988 -7.0851 1.97039 0.000429531 10
13.9172 -6.84812 2.45667 0.00112686 10
13.908 -6.84356 3.01299 0.00110087 10
13.9195 -6.84923 3.58153 0.00107024 10
14.4012 -7.08627 4.30064 0.00038687 10
8.45925 -4.12585 -2.52188 0.000472325 4
9.81781 -4.78847 -2.52185 0.000281079 4
11.6521 -5.68311 -2.51997 0.000160141 4
14.5656 -7.10412 -2.56673 0.000522768 10
14.558 -7.10039 -1.98877 0.000532811 10
17.8961 -8.72854 0.347553 0.000731327 10
17.8714 -8.71648 1.04207 0.000727893 10
14.5648 -7.10372 1.41774 0.000421593 10
14.553 -7.09795 1.98808 0.000415709 10
13.9104 -6.78458 2.45128 0.00113306 10
13.9273 -6.79279 3.01202 0.00110693 10
13.9183 -6.78842 3.57512 0.00107614 10
14.55 -7.09649 4.33765 0.000374347 10
8.5304 -4.12376 -2.53878 0.00178335 4
9.83622 -4.75501 -2.5223 0.000315643 4
11.6571 -5.63525 -2.51678 0.000143621 4
14.7159 -7.11395 -2.58883 0.000505726 10
14.724 -7.11788 -2.00805 0.000515461 10
15.0015 -7.252 -1.45777 0.000805247 10
15.003 -7.25272 -0.873327 0.000813083 10
14.9952 -7.24895 -0.290721 0.000817112 10
14.9961 -7.24938 0.290738 0.000817289 10
15.0093 -7.25578 0.873695 0.000813612 10
14.7212 -7.11649 1.43053 0.000407877 10
14.7155 -7.11376 2.00689 0.000402174 10
13.9269 -6.73255 2.45003 0.00113923 10
13.9278 -6.73297 3.00704 0.00111297 10
13.908 -6.72341 3.56643 0.00108202 10
14.7074 -7.10982 4.37715 0.000362088 10
8.60376 -4.12223 -2.55632 0.00163369 4
9.84354 -4.71624 -2.51994 0.000274177 4
11.6914 -5.6016 -2.51996 0.000185568 4
14.8672 -7.12317 -2.61105 0.000489044 10
14.8658 -7.12251 -2.02398 0.000498477 10
14.998 -7.18585 -1.45499 0.000809653 10
15.0202 -7.19647 -0.872862 0.000817529 10
15.0062 -7.18979 -0.290448 0.000821579 10
15.0091 -7.19116 0.290503 0.000821757 10
15.0068 -7.19004 0.872082 0.000818061 10
14.8616 -7.12049 1.44176 0.000394451 10
14.8676 -7.12338 2.02423 0.000388926 10
13.9897 -6.70274 2.45694 0.000453436 10
14.0007 -6.70802 3.0177 0.00044292 10
13.9903 -6.70305 3.58151 0.000430541 10
14.8707 -7.12485 4.41833 0.000350089 10
8.65595 -4.11015 -2.56755 0.00156192 4
9.8803 -4.69151 -2.52514 0.000359431 4
11.7046 -5.55778 -2.51861 0.00017159 4
15.0296 -7.13659 -2.63519 0.000472721 10
15.0217 -7.13285 -2.04181 0.000481858 10
15.0255 -7.13464 -1.45523 0.000322872 10
15.0259 -7.13484 -0.871742 0.000325972 10
15.0267 -7.1352 -0.290359 0.000327547 10
15.0239 -7.13389 0.290306 0.000327578 10
15.0088 -7.1267 0.870748 0.000326065 10
15.0221 -7.13304 1.45491 0.000381313 10
14.9823 -7.1141 2.03644 0.000124538 10
15.077 -7.1591 2.6435 0.000587656 10
15.0559 -7.14909 3.23975 0.00057388 10
14.7731 -7.0148 3.77561 0.000228073 10
15.0202 -7.13211 4.45532 0.000338349 10
8.72907 -4.10759 -2.58497 0.00157717 4
9.87654 -4.64755 -2.52002 0.000315659 4
11.7306 -5.52003 -2.52005 0.000147443 4
15.1845 -7.14528 -2.65795 0.000456752 10
15.1897 -7.14772 -2.06123 0.000465598 10
15.2761 -7.1884 -1.47706 0.000778519 10
15.2787 -7.1896 -0.884943 0.000786117 10
15.2815 -7.19091 -0.294796 0.000790023 10
15.2837 -7.19195 0.294838 0.000790194 10
15.2667 -7.18398 0.884253 0.000786628 10
15.1814 -7.14383 1.4679 0.000368459 10
15.0098 -7.06308 2.03682 0.000124534 10
15.0901 -7.10089 2.64144 0.000920336 10
15.1015 -7.10624 3.2442 0.00089876 10
14.7943 -6.96167 3.77479 0.00022807 10
15.1846 -7.14534 4.49667 0.000326865 10
8.78693 -4.09741 -2.59785 0.00138652 4
9.90106 -4.61694 -2.52214 0.000347922 4
11.7442 -5.47641 -2.51884 0.000184308 4
15.3292 -7.14813 -2.6789 0.000441134 10
15.3495 -7.15757 -2.07951 0.000449696 10
15.3498 -7.15774 -1.48177 0.00030134 10
15.3442 -7.15513 -0.887289 0.000304246 10
15.3411 -7.15366 -0.295462 0.000305722 10
15.3263 -7.14679 0.295178 0.000305751 10
15.3248 -7.14607 0.886166 0.000304335 10
15.3455 -7.15571 1.48134 0.000355888 10
15.0387 -7.01268 2.03741 0.00012453 10
15.1143 -7.04791 2.64134 0.00092523 10
15.1071 -7.04457 3.2401 0.000903545 10
14.8225 -6.91183 3.7758 0.000228065 10
15.3255 -7.1464 4.53097 0.000315636 10
8.84817 -4.08843 -2.61172 0.00145032 4
9.93192 -4.58919 -2.52591 0.000329494 4
11.7702 -5.4386 -2.52033 0.000166516 4
15.4989 -7.16149 -2.70417 8.10863e-05 1
15.4938 -7.15916 -2.09567 0.000434149 10
15.548 -7.18418 -1.49846 0.000748917 10
15.5576 -7.18863 -0.898172 0.00075625 10
15.5473 -7.18387 -0.298949 0.00076002 10
15.5377 -7.17944 0.298765 0.000760185 10
15.535 -7.1782 0.896869 0.000756743 10
15.4942 -7.15932 1.49328 0.000343596 10
15.0456 -6.95202 2.03504 0.000124526 10
15.099 -6.97671 2.63439 0.000930097 10
15.1068 -6.9803 3.23478 0.000908305 10
14.8561 -6.86446 3.77823 0.000228061 10
15.5109 -7.16704 4.57836 0.00030466 10
8.93134 -4.08909 -2.63204 0.00166421 4
9.93168 -4.54708 -2.5218 0.000324891 4
11.7793 -5.39301 -2.51824 0.000175417 4
15.5266 -7.10863 -2.70466 8.10883e-05 1
15.6713 -7.17489 -2.11628 0.000418954 10
15.8297 -7.24742 -1.52317 0.000717025 10
15.8183 -7.24218 -0.911756 0.00072407 10
15.8276 -7.24646 -0.303851 0.000727693 10
15.8255 -7.24549 0.30381 0.000727851 10
15.8027 -7.23505 0.910858 0.000724543 10
15.6552 -7.1675 1.50637 0.000331583 10
15.0725 -6.90073 2.03541 0.000124522 10
15.1249 -6.92471 2.63468 0.000934939 10
15.1001 -6.91337 3.22816 0.000913039 10
14.8661 -6.80621 3.77471 0.000228058 10
15.6664 -7.17262 4.61683 0.000293933 10
8.96958 -4.06878 -2.63911 0.000359056 4
9.94837 -4.51278 -2.52202 0.00031107 4
11.792 -5.34908 -2.51693 0.00017542 4
15.5332 -7.04616 -2.7015 8.10903e-05 1
15.8303 -7.18092 -2.13434 0.000404108 10
15.8407 -7.18568 -1.52181 0.000270817 10
15.8494 -7.18959 -0.912095 0.000273446 10
15.8453 -7.18774 -0.303706 0.000274782 10
15.8435 -7.18694 0.303672 0.000274809 10
15.837 -7.18397 0.911382 0.000273528 10
15.8368 -7.18388 1.52143 0.000319845 10
15.0965 -6.8481 2.03542 0.000124518 10
15.1095 -6.85398 2.62782 0.000939752 10
15.123 -6.86009 3.22792 0.000917746 10
14.9036 -6.76056 3.77822 0.000349749 10
15.8487 -7.18928 4.66313 0.000283455 10
8.97197 -4.03216 -2.63565 0.000521654 4
9.95967 -4.47605 -2.52091 0.000262686 4
11.814 -5.30942 -2.51766 0.000184322 4
15.5586 -6.99231 -2.70166 8.10922e-05 1
16.0042 -7.19258 -2.1544 0.000389607 10
16.0899 -7.23111 -1.54331 0.000690402 10
16.0842 -7.22854 -0.924154 0.000697208 10
16.0822 -7.22764 -0.307763 0.000700706 10
16.0966 -7.23408 0.308036 0.000700859 10
16.097 -7.23427 0.924886 0.000697663 10
16.0208 -7.20002 1.53668 0.00030838 10
15.1187 -6.79462 2.0352 0.000124514 10
15.1068 -6.78926 2.62321 0.000944538 10
15.1224 -6.79629 3.22272 0.000922427 10
15.071 -6.77318 3.81465 0.000337322 10
16.0098 -7.19507 4.70311 0.000273222 10
8.99483 -4.00476 -2.63825 0.000525048 4
9.97689 -4.442 -2.52133 0.00034334 4
11.8277 -5.26601 -2.51664 0.000170342 4
15.5817 -6.93744 -2.70146 8.10941e-05 1
16.1998 -7.2126 -2.17732 0.000375449 10
16.3503 -7.27961 -1.56584 0.000661673 10
16.3459 -7.27768 -0.937724 0.00066822 10
16.3548 -7.28165 -0.312491 0.000671584 10
16.3538 -7.28116 0.31247 0.000671731 10
16.3638 -7.28562 0.938749 0.000668657 10
16.1787 -7.2032 1.5494 0.000297185 10
15.2472 -6.78851 2.0493 0.000349322 10
15.2497 -6.7896 2.64389 0.000342762 10
15.244 -6.78706 3.24355 0.000334688 10
15.2251 -6.77865 3.84764 0.000325185 10
16.1755 -7.20179 4.74438 0.000263233 10
9.01311 -3.97526 -2.63952 0.000548766 4
9.9889 -4.40563 -2.52046 0.000244259 4
11.8679 -5.23439 -2.52131 0.000133479 4
15.6067 -6.88336 -2.7016 8.1096e-05 1
16.3666 -7.21854 -2.19634 0.000361631 10
16.3683 -7.21927 -1.56514 0.000242375 10
16.3634 -7.21713 -0.937276 0.000244744 10
16.3672 -7.21881 -0.312244 0.000245948 10
16.3742 -7.22188 0.312377 0.000245974 10
16.3793 -7.22415 0.938188 0.000244821 10
16.3557 -7.21374 1.56394 0.000286259 10
15.7253 -6.93567 2.11028 0.000871232 10
15.7186 -6.93272 2.72097 0.000854862 10
15.7126 -6.93007 3.33808 0.000834687 10
16.3566 -7.21413 4.1272 0.000262366 10
16.3787 -7.22387 4.79656 0.000253486 10
9.00805 -3.93552 -2.634 0.000582648 4
10.0063 -4.37165 -2.52099 0.000299567 4
11.8697 -5.18575 -2.51782 0.000146194 4
15.645 -6.83513 -2.70408 8.10978e-05 1
16.5453 -7.22848 -2.21693 0.000348148 10
16.635 -7.26764 -1.5882 0.000637648 10
16.6346 -7.26748 -0.951351 0.000643976 10
16.633 -7.26676 -0.316828 0.00064723 10
16.6178 -7.26014 0.316539 0.000647371 10
16.6299 -7.26544 0.951083 0.000644398 10
16.5389 -7.22567 1.57903 0.000275597 10
15.7301 -6.87233 2.1077 0.000875557 10
15.7149 -6.86569 2.71618 0.00085911 10
15.7047 -6.86124 3.33132 0.000838841 10
16.5616 -7.23557 4.17252 0.000252544 10
16.5609 -7.2353 4.84251 0.000243977 10
9.02816 -3.90684 -2.63588 0.000504742 4
10.0225 -4.33711 -2.52123 0.000322615 4
11.8862 -5.14362 -2.5175 0.000156367 4
15.6673 -6.77986 -2.70384 8.10996e-05 1
16.752 -7.24925 -2.24122 0.000334998 10
17.004 -7.3583 -1.62098 8.58366e-05 10
17.9336 -7.76055 0.341084 0.000784473 10
17.936 -7.76162 1.02423 0.000780803 10
16.7258 -7.23792 1.59446 0.000265198 10
15.7575 -6.81889 2.10817 0.000312196 10
15.7441 -6.81306 2.71708 0.000306296 10
15.7573 -6.81879 3.33739 0.000299034 10
16.7359 -7.24227 4.21004 0.000242966 10
16.7254 -7.23773 4.88317 0.000234705 10
9.04087 -3.87492 -2.63562 0.000491197 4
10.035 -4.301 -2.52058 0.000269618 4
11.9189 -5.10843 -2.52062 0.000144928 4
15.6757 -6.71863 -2.70122 8.11014e-05 1
16.9311 -7.25667 -2.26177 0.000322177 10
17.0257 -7.29723 -1.62061 8.584e-05 10
17.9475 -7.69231 -1.02334 0.00078419 10
17.9396 -7.68894 -0.340687 0.000788225 10
17.9638 -7.69929 0.341145 0.000788399 10
17.9597 -7.69753 1.02403 0.000784712 10
16.9404 -7.26067 1.61249 0.00025506 10
15.9349 -6.82972 2.1287 0.000300419 10
16.9011 -7.2438 2.91237 0.000702403 10
16.9017 -7.24407 3.5744 0.000685556 10
16.9355 -7.25858 4.25386 0.000233629 10
16.9384 -7.25981 4.93793 0.000225666 10
9.06762 -3.84898 -2.63949 0.000399737 4
10.0494 -4.26571 -2.52044 0.000306493 4
11.9373 -5.0671 -2.52077 0.000185612 4
15.695 -6.66214 -2.70053 8.11031e-05 1
17.1339 -7.27291 -2.28546 0.000309682 10
17.138 -7.27466 -1.62887 0.000314275 10
17.9542 -7.62109 -1.0222 0.000788072 10
17.9606 -7.62384 -0.340579 0.000792124 10
17.9473 -7.61818 0.340325 0.0007923 10
17.9427 -7.61622 1.02154 0.000788596 10
17.1165 -7.26552 1.62682 0.000245178 10
16.1101 -6.83832 2.14889 0.000288935 10
16.8945 -7.17128 2.90691 0.000705836 10
16.9016 -7.17429 3.56905 0.000688911 10
17.135 -7.27336 4.29755 0.00022453 10
17.1124 -7.26378 4.98124 0.000216859 10
9.06734 -3.81156 -2.63552 0.000623326 4
10.0809 -4.23763 -2.52463 0.00026732 4
8.32601 -3.49993 -1.75559 0.00235456 6
15.7364 -6.61497 -2.70366 8.11048e-05 1
17.3211 -7.28112 -2.30703 0.000297509 10
17.3182 -7.27991 -1.64357 0.000301933 10
17.9569 -7.54838 -1.02085 0.000791929 10
17.9739 -7.55555 -0.340329 0.000795999 10
17.9531 -7.54677 0.339933 0.000796175 10
17.9667 -7.55251 1.0214 0.000792454 10
17.3111 -7.27693 1.6429 0.000235552 10
16.9175 -7.11148 2.25328 0.000723044 10
16.8989 -7.10362 2.90338 0.000709246 10
16.8888 -7.0994 3.56111 0.000692244 10
17.3285 -7.28425 4.3397 0.000215668 10
17.3092 -7.27611 5.0311 0.000208281 10
9.08364 -3.78116 -2.6364 0.000409909 4
10.1541 -4.22673 -2.53924 0.00116092 4
8.28935 -3.45053 -1.74531 0.00223026 6
15.7478 -6.55516 -2.70166 8.11064e-05 1
17.5409 -7.30156 -2.33289 0.000285655 10
17.5188 -7.29237 -1.66018 0.000289915 10
17.9624 -7.47703 -1.01967 0.000795758 10
17.9759 -7.48265 -0.339869 0.000799847 10
17.9512 -7.47237 0.339402 0.000800024 10
17.9666 -7.47878 1.01991 0.000796285 10
17.5119 -7.2895 1.65953 0.000226177 10
16.8996 -7.03463 2.2476 0.000726493 10
16.9103 -7.03908 2.9011 0.000712632 10
16.9147 -7.04093 3.56137 0.000695554 10
17.5342 -7.29878 4.38479 0.000207038 10
17.525 -7.29496 5.08639 0.00019993 10
9.09341 -3.74803 -2.63543 0.000470893 4
8.29598 -3.41935 -2.07159 0.000415968 6
8.28761 -3.41591 -1.74242 0.00227891 6
15.7864 -6.50668 -2.70437 8.1108e-05 1
17.7268 -7.30645 -2.35421 0.000274117 10
17.7406 -7.31216 -1.67878 0.000278215 10
17.9627 -7.40371 -1.01822 0.000799562 10
17.9812 -7.41133 -0.339479 0.000803669 10
17.9626 -7.40365 0.339127 0.000803846 10
17.9582 -7.40184 1.01796 0.000800091 10
17.728 -7.30694 1.67758 0.000217051 10
16.9262 -6.97646 2.24788 0.000729918 10
16.9166 -6.97252 2.89799 0.000715995 10
16.914 -6.97143 3.55606 0.000698841 10
17.7342 -7.3095 4.4284 0.00019864 10
17.7364 -7.31042 5.14031 0.000191802 10
9.10281 -3.71479 -2.63437 0.000186326 4
8.29173 -3.38379 -2.06756 0.000398655 6
8.27653 -3.37759 -1.7376 0.000275451 6
14.6928 -5.99604 -2.51344 8.05434e-05 4
17.9371 -7.31997 -2.37873 0.00026289 10
17.9412 -7.32167 -1.69533 0.000266831 10
17.9844 -7.33929 -1.01798 0.000803339 10
17.9834 -7.33889 -0.339034 0.000807464 10
17.9748 -7.33538 0.338872 0.000807642 10
17.9608 -7.32968 1.01665 0.000803869 10
17.9293 -7.3168 1.6942 0.000208171 10
16.9265 -6.90758 2.24471 0.000733318 10
16.929 -6.90861 2.89597 0.000719334 10
16.9249 -6.90694 3.55328 0.000702106 10
17.9455 -7.32342 4.47475 0.000190469 10
17.9307 -7.31739 5.1892 0.000183896 10
9.13517 -3.69085 -2.64 0.00035233 4
8.28394 -3.34693 -2.0627 0.000402142 6
8.25252 -3.33424 -1.73011 0.000489284 6
14.7212 -5.94776 -2.51472 8.29673e-05 4
18.1621 -7.33795 -2.40515 0.000251972 10
18.1584 -7.33646 -1.71341 0.00025576 10
18.1519 -7.33386 -1.02601 0.000258319 10
18.155 -7.33509 -0.341784 0.000259622 10
18.172 -7.34199 0.342105 0.000259652 10
18.1709 -7.34154 1.02709 0.00025841 10
18.154 -7.33471 1.71301 0.000199536 10
18.161 -7.33753 2.40502 0.000196627 10
18.1638 -7.33867 3.1028 0.000192792 10
18.147 -7.33189 3.80445 0.000188073 10
18.1476 -7.33212 4.51875 0.000182525 10
18.1512 -7.33358 5.24557 0.000176209 10
9.13316 -3.65301 -2.63571 0.00049801 4
8.27425 -3.30947 -2.05739 0.000430881 6
8.24663 -3.29842 -1.72645 0.000493161 6
8.47125 -3.38826 -1.44506 0.000121117 6
18.3834 -7.35284 -2.43105 0.000241357 10
18.3885 -7.35488 -1.7327 0.000244996 10
18.3678 -7.34661 -1.03676 0.000247455 10
18.3859 -7.35383 -0.345645 0.000248707 10
18.3739 -7.34903 0.345419 0.000248736 10
18.3703 -7.34758 1.0369 0.000247543 10
18.2172 -7.28636 1.71655 0.000602486 10
18.2184 -7.28684 2.40923 0.000593761 10
18.2025 -7.2805 3.10506 0.000582236 10
18.2127 -7.28457 3.81287 0.000568042 10
18.3806 -7.35172 4.57034 0.000174803 10
18.21 -7.28349 5.25518 0.00053231 10
9.14701 -3.62156 -2.63605 0.00045736 4
8.25312 -3.26764 -2.04929 0.000455201 6
8.24008 -3.26248 -1.72268 0.000497038 6
8.52213 -3.37415 -1.45172 0.000235432 6
18.5999 -7.36424 -2.45627 0.000231044 10
18.5933 -7.36161 -1.74956 0.000234538 10
18.5999 -7.36421 -1.0484 0.000236899 10
18.5943 -7.362 -0.349078 0.000238101 10
18.6061 -7.36669 0.3493 0.000238129 10
18.6031 -7.36548 1.04858 0.000236984 10
18.2295 -7.21755 1.71533 0.000605241 10
18.2111 -7.21029 2.40493 0.000596478 10
18.2148 -7.21174 3.10283 0.000584904 10
18.2242 -7.21549 3.80998 0.000570648 10
18.5961 -7.36273 4.61751 0.000167301 10
18.2027 -7.20696 5.24578 0.000534762 10
9.15116 -3.5863 -2.63362 0.000145679 4
8.24884 -3.23268 -2.04541 0.000448438 6
8.236 -3.22765 -1.71946 0.000524096 6
8.58271 -3.36353 -1.46003 0.000237351 6
18.8282 -7.37868 -2.483 0.000221028 10
18.8399 -7.38329 -1.77033 0.00022438 10
18.8402 -7.3834 -1.06049 0.000226645 10
18.836 -7.38175 -0.35313 0.000227798 10
18.8366 -7.382 0.353141 0.000227826 10
18.8473 -7.38616 1.06088 0.000226728 10
18.2257 -7.14256 1.71261 0.000607975 10
18.2184 -7.13972 2.40258 0.000599175 10
18.2188 -7.13988 3.09926 0.000587551 10
18.212 -7.13719 3.80218 0.000573235 10
18.835 -7.38137 4.67041 0.000160015 10
18.2244 -7.14207 5.24482 0.000537196 10
9.16194 -3.55368 -2.63314 0.000335404 4
8.2508 -3.20028 -2.04312 0.000451772 6
8.23797 -3.1953 -1.71754 0.000527459 6
8.64712 -3.354 -1.46898 0.000310723 6
19.0641 -7.39447 -2.51069 0.000211304 10
19.0819 -7.4014 -1.79064 0.000214518 10
19.0623 -7.3938 -1.07153 0.000216691 10
19.0639 -7.39442 -0.356917 0.000217797 10
19.0766 -7.39931 0.357153 0.000217824 10
19.056 -7.39134 1.07118 0.000216771 10
18.236 -7.07328 1.71125 0.000610687 10
