VERSION 0.7
FIELDS x y z intensity label
SIZE 4 4 4 4 4
TYPE F F F F F
COUNT 1 1 1 1 1
WIDTH 1170
HEIGHT 1
VIEWPOINT 5.06593 3.93127 2.72898 0.72902 0.000396108 0.000455808 -0.684492
POINTS 1170
DATA ascii
-16.5226 22.9092 5.49044 0.000140255 10
-16.5306 22.9203 6.52422 0.000135635 10
-16.5283 22.917 7.57104 0.000130395 10
-5.91758 8.14486 -2.6976 5.06993e-05 4
-6.86578 9.44994 -2.69672 0.000197038 4
-7.95997 10.956 -2.63236 0.000537113 4
-9.46688 13.03 -2.55094 7.41076e-05 4
-16.6521 22.9197 -2.47858 0.000189703 10
-16.6424 22.9063 -1.48386 0.0001918 10
-16.6582 22.9281 -0.494688 0.000192857 10
-16.6482 22.9143 0.49439 0.000192862 10
-16.645 22.9099 1.4841 0.00014956 10
-16.647 22.9127 2.47782 0.000147932 10
-16.6493 22.9157 3.47792 0.000145515 10
-16.6419 22.9057 4.48433 0.00014234 10
-16.6425 22.9065 5.50368 0.000138445 10
-16.6492 22.9157 6.53942 0.00013388 10
-16.6517 22.9191 7.5909 0.000128703 10
-5.95 8.12965 -2.69943 0.000110899 4
-6.90213 9.43057 -2.69805 0.000109034 4
-7.96507 10.8829 -2.62147 0.000466969 4
-9.50667 12.9892 -2.54943 5.97405e-05 4
-16.7847 22.9333 -2.48638 0.000187247 10
-16.7747 22.9197 -1.48851 0.000189318 10
-16.7703 22.9137 -0.495637 0.000190363 10
-16.7749 22.92 0.495775 0.000190368 10
-16.7851 22.9339 1.48943 0.000147625 10
-16.7724 22.9166 2.48456 0.000146017 10
-16.7821 22.9298 3.48893 0.000143629 10
-16.7766 22.9223 4.49903 0.000140491 10
-16.7709 22.9145 5.51964 0.000136643 10
-16.7783 22.9247 6.55866 0.000132134 10
-16.7712 22.9149 7.60883 0.000127019 10
-5.97707 8.10711 -2.69886 0.000110894 4
-6.93482 9.40616 -2.69798 0.000340474 4
-7.9795 10.8231 -2.61377 0.000520959 4
-9.54657 12.9487 -2.54799 7.5818e-05 4
-16.9076 22.933 -2.49272 0.000184803 10
-16.9024 22.9259 -1.49274 0.000186849 10
-16.9081 22.9336 -0.497343 0.000187881 10
-16.9085 22.9341 0.497352 0.000187886 10
-14.5862 19.7843 1.28818 0.000201531 10
-14.6005 19.8036 2.15257 0.000199373 10
-14.5874 19.7858 3.01828 0.000196197 10
-16.9072 22.9323 4.51255 0.000138652 10
-14.5993 19.802 4.78216 0.000186956 10
-14.592 19.7921 5.67698 0.000181003 10
-14.6018 19.8054 6.59323 0.000174253 10
-6.01093 8.09372 -2.70137 9.82161e-05 4
-6.97791 9.39576 -2.70196 0.000112848 4
-7.98269 10.7487 -2.6025 0.000384219 4
-9.59767 12.9233 -2.54958 8.61495e-05 4
-17.0437 22.9493 -2.50095 0.000182371 10
-17.0401 22.9446 -1.49782 0.000184392 10
-17.0401 22.9445 -0.498864 0.000185412 10
-17.0347 22.9372 0.498707 0.000185417 10
-14.6427 19.7164 1.28708 0.000240143 10
-14.6529 19.7301 2.15013 0.000237645 10
-14.6575 19.7364 3.01852 0.000233932 10
-17.0426 22.9478 4.52728 0.000136823 10
-14.5977 19.6558 4.75912 0.00019033 10
-14.6561 19.7345 5.6751 0.000216025 10
-14.6429 19.7167 6.58068 0.00020804 10
-6.02605 8.05519 -2.69551 0.000148902 4
-7.01232 9.37357 -2.7026 5.7377e-05 4
-8.00059 10.6946 -2.59615 0.000555981 4
-9.64822 12.897 -2.55103 8.49937e-05 4
-17.1733 22.9561 -2.5082 0.000179952 10
-17.1664 22.9468 -1.50186 0.000181949 10
-17.168 22.949 -0.500263 0.000182956 10
-17.1713 22.9534 0.500358 0.00018296 10
-14.757 19.7261 1.29107 0.000237109 10
-14.7544 19.7227 2.15492 0.00023464 10
-14.768 19.7408 3.02706 0.000230971 10
-17.1689 22.9502 4.53953 0.000135003 10
-14.6065 19.525 4.73975 0.000193735 10
-14.7648 19.7365 5.69045 0.000213276 10
-14.7597 19.7296 6.60214 0.000205385 10
-6.06113 8.04339 -2.69863 6.33594e-05 4
-7.03289 9.33295 -2.69795 4.58991e-05 4
-7.9997 10.616 -2.58382 0.000559586 4
-9.69501 12.8657 -2.55151 6.77595e-05 4
-17.3095 22.9704 -2.51636 0.000177546 10
-17.3038 22.9629 -1.50686 0.000179518 10
-17.3031 22.962 -0.501861 0.000180512 10
-17.3 22.9578 0.501768 0.000180517 10
-14.8789 19.745 1.2957 0.000234089 10
-14.8699 19.7331 2.16171 0.000231649 10
-14.8704 19.7337 3.03392 0.000228024 10
-14.6165 19.3967 3.84673 0.000202514 10
-14.6278 19.4118 4.72465 0.000197173 10
-14.881 19.7478 5.70866 0.000210539 10
-14.8686 19.7313 6.62001 0.000202743 10
-6.08527 8.01705 -2.6969 0.000240755 4
-7.06663 9.30994 -2.69842 0.000315539 4
-8.0103 10.5532 -2.57533 0.000563125 4
-9.73225 12.8218 -2.54952 8.096e-05 4
-17.4317 22.9654 -2.52245 0.000175153 10
-17.4411 22.9778 -1.51183 0.0001771 10
-17.4262 22.9581 -0.503102 0.000178083 10
-17.4396 22.9758 0.503488 0.000178087 10
-14.966 19.7169 1.29728 0.000148298 10
-14.966 19.717 2.16566 0.000146752 10
-14.9678 19.7194 3.03973 0.000144454 10
-14.6362 19.2825 3.83419 0.00020607 10
-14.6266 19.2698 4.70249 0.000200642 10
-14.9608 19.7101 5.71284 0.000115095 10
-14.9605 19.7097 6.63025 0.000110796 10
-6.11244 7.99474 -2.69656 0.00012354 4
-7.1067 9.29519 -2.70131 0.000355679 4
-8.01762 10.4866 -2.5659 0.000405921 4
-9.77883 12.7902 -2.55001 7.75083e-05 4
-17.563 22.9714 -2.52983 0.000172774 10
-17.5711 22.9821 -1.51613 0.000174696 10
-17.5726 22.984 -0.505009 0.000175666 10
-17.5618 22.9699 0.504701 0.000175671 10
-15.0375 19.6682 1.29752 0.000128629 10
-15.0381 19.669 2.16614 0.00012725 10
-15.0355 19.6656 3.03951 0.00012522 10
-14.6364 19.1436 3.81671 0.000209659 10
-14.6685 19.1856 4.69439 6.031e-05 10
-15.0357 19.6658 5.71517 0.000115507 10
-15.0288 19.6569 6.63009 0.000111192 10
-6.1471 7.98217 -2.69954 0.00018055 4
-7.14282 9.27514 -2.70272 0.00032889 4
-8.05505 10.4597 -2.56618 0.000162518 4
-9.82158 12.7536 -2.54953 6.14274e-05 4
-17.6979 22.9811 -2.5377 0.000170407 10
-17.7033 22.9882 -1.52061 0.000172305 10
-17.6958 22.9785 -0.506244 0.000173263 10
-17.7034 22.9884 0.50646 0.000173268 10
-15.0369 19.5258 1.29158 0.000130861 10
-14.6372 19.0068 3.79959 0.00021328 10
-14.7397 19.1399 4.69579 6.03145e-05 10
-15.0477 19.5399 5.69379 0.000117527 10
-6.17619 7.9623 -2.70009 3.80087e-05 4
-7.17074 9.24446 -2.70106 0.000386234 4
-8.11104 10.4567 -2.57238 0.000142317 4
-9.86762 12.7213 -2.54994 7.69212e-05 4
-17.8405 22.9999 -2.54662 0.000168054 10
-17.8286 22.9844 -1.52447 0.000169929 10
-17.8429 23.003 -0.508152 0.000170874 10
-17.8321 22.989 0.507842 0.000170878 10
-15.0512 19.4039 1.28698 0.000133112 10
-14.6496 18.8861 3.78567 0.000216932 10
-14.8031 19.084 4.69472 6.03191e-05 10
-15.056 19.4101 5.67126 0.000119565 10
-6.19261 7.92618 -2.69516 8.8683e-05 4
-7.2068 9.22428 -2.70249 0.000384301 4
-8.18148 10.4718 -2.58311 0.000295006 4
-9.90651 12.6798 -2.54854 6.4861e-05 4
-17.9648 22.9939 -2.55289 0.000165715 10
-17.976 23.0082 -1.53019 0.000167565 10
-17.9755 23.0076 -0.509636 0.000168499 10
-17.963 22.9917 0.509283 0.000168503 10
-15.0506 19.2639 1.28117 0.000135383 10
-14.6639 18.769 3.77242 0.000220618 10
-14.8665 19.0283 4.69375 6.03236e-05 10
-6.23486 7.9231 -2.7015 0.000354716 4
-7.23662 9.19611 -2.70162 0.000380456 4
-8.46193 10.7532 -2.65979 0.00012461 4
-9.9489 12.6428 -2.54808 8.20739e-05 4
-18.0999 23.0009 -2.56067 0.00016339 10
-18.1062 23.0089 -1.53444 0.000165217 10
-18.1054 23.0078 -0.511038 0.000166138 10
-18.1009 23.0021 0.510911 0.000166142 10
-15.054 19.1302 1.27577 0.000137674 10
-14.6715 18.6442 3.75762 0.000224334 10
-14.9309 18.9738 4.69314 6.03282e-05 10
-6.25232 7.88846 -2.69711 0.000133012 4
-7.25726 9.15639 -2.69738 0.000110881 4
-8.51244 10.74 -2.66386 0.000222117 4
-10.0064 12.625 -2.55151 5.50939e-05 4
-18.2424 23.0162 -2.56945 0.00016108 10
-18.2384 23.0111 -1.53882 0.000162882 10
-18.2408 23.0142 -0.512592 0.000163791 10
-18.2432 23.0172 0.512658 0.000163795 10
-15.0628 19.0045 1.27089 0.000139984 10
-15.067 19.0099 2.12219 0.000138493 10
-15.0787 19.0246 2.98066 0.000136297 10
-14.6851 18.5279 3.7445 0.000228082 10
-15.008 18.9354 4.69657 6.03327e-05 10
-15.0671 19.0099 5.60013 0.000125788 10
-15.0733 19.0178 6.50228 0.000121117 10
-6.27656 7.86251 -2.69571 0.000601695 4
-7.32102 9.17088 -2.70916 0.000123295 4
-8.54273 10.7013 -2.66163 0.000252438 4
-10.0475 12.5863 -2.55076 8.26341e-05 4
-18.3893 23.0359 -1.54476 0.000160562 10
-18.3821 23.0269 -0.5143 0.000161459 10
-18.3762 23.0195 0.514134 0.000161463 10
-15.0878 18.9002 1.26742 0.000142314 10
-14.7126 18.4301 3.73508 5.463e-05 10
-15.0235 18.8197 4.68084 0.000209757 10
-6.30559 7.84257 -2.69641 0.000604835 4
-7.3788 9.17738 -2.71867 0.000107928 4
-8.58108 10.6727 -2.66196 9.31685e-05 4
-10.0818 12.5392 -2.54834 6.13966e-05 4
-18.513 23.0256 -1.54839 0.000158256 10
-18.5244 23.0397 -0.516026 0.000159141 10
-18.5201 23.0344 0.515907 0.000159145 10
-14.6893 18.2698 1.22858 0.00024714 10
-14.6823 18.2611 2.05 0.000244534 10
-14.6839 18.2631 2.87734 0.000240696 10
-14.6855 18.265 3.71199 0.000235672 10
-15.0365 18.7017 4.66451 0.000213235 10
-14.697 18.2794 5.41502 0.00022232 10
-14.6864 18.2662 6.28023 0.000214149 10
-6.34685 7.83771 -2.70234 0.000642806 4
-7.44619 9.19528 -2.73166 0.000118342 4
-8.62014 10.645 -2.66253 0.00015166 4
-10.1306 12.5103 -2.54963 4.24577e-05 4
-18.6584 23.0412 -1.55381 0.000155965 10
-18.6524 23.0338 -0.517349 0.000156838 10
-18.6635 23.0475 0.517657 0.000156843 10
-14.7019 18.1553 1.22432 0.000272274 10
-14.7016 18.1549 2.04382 0.000269483 10
-14.7014 18.1547 2.86833 0.000265334 10
-14.7059 18.1603 3.70112 0.000259878 10
-15.0292 18.5595 4.64211 0.000216741 10
-14.7174 18.1745 5.39912 0.000245315 10
-14.7038 18.1577 6.26053 0.00023638 10
-6.36954 7.80984 -2.70037 0.000592115 4
-7.49904 9.19474 -2.73926 0.000303747 1
-8.66275 10.6216 -2.66423 0.000112654 4
-10.1822 12.4847 -2.55164 3.55697e-05 4
-18.7161 22.9482 -1.55194 0.000144621 10
-18.7149 22.9468 -0.51686 0.000145386 10
-18.7181 22.9507 0.516948 0.000145345 10
-14.8143 18.1642 1.2284 0.000268587 10
-14.8253 18.1776 2.05219 0.000265831 10
-14.8228 18.1745 2.87963 0.000261735 10
-14.8185 18.1693 3.71346 0.000256348 10
-15.0385 18.4391 4.6251 0.000220275 10
-14.8212 18.1726 5.41389 0.00024197 10
-14.8121 18.1615 6.2796 0.000233148 10
-6.4022 7.79417 -2.70267 0.00063325 4
-7.53326 9.17114 -2.74004 0.000303731 1
-8.69416 10.5844 -2.66251 0.000191716 4
-10.2231 12.4458 -2.55097 7.97385e-05 4
-18.779 22.8619 -1.55052 0.000155964 10
-18.7945 22.8808 -0.516848 0.000156837 10
-18.7919 22.8776 0.516776 0.000156841 10
-14.928 18.1736 1.23256 0.000264921 10
-14.9345 18.1816 2.05851 0.0002622 10
-14.9379 18.1857 2.88965 0.000258156 10
-14.9378 18.1855 3.72743 0.000252837 10
-15.0539 18.327 4.61013 0.000223838 10
-14.9379 18.1856 5.43329 0.000238643 10
-14.938 18.1859 6.30604 0.000229935 10
-6.42835 7.77055 -2.70224 0.000687046 4
-7.56037 9.13892 -2.73829 0.000303715 1
-8.73227 10.5555 -2.66288 9.63936e-05 4
-10.2749 12.4203 -2.55307 8.14528e-05 4
-18.9284 22.8805 -1.55626 0.000153658 10
-18.9359 22.8895 -0.518535 0.000154518 10
-18.9378 22.8919 0.518589 0.000154523 10
-15.0481 18.19 1.23722 0.000261276 10
-15.055 18.1983 2.06635 0.000258591 10
-15.0493 18.1915 2.8989 0.000254598 10
-15.044 18.1851 3.73808 0.000249348 10
-15.06 18.2045 4.59251 0.000227429 10
-15.0485 18.1906 5.45042 0.000235337 10
-15.0362 18.1756 6.32064 0.000226741 10
-6.44317 7.73333 -2.6971 0.000607866 4
-7.58544 9.10433 -2.73584 0.000303699 1
-8.75652 10.5099 -2.65907 0.000103968 4
-11.0871 13.3072 -2.74332 7.67529e-05 1
-19.0741 22.8935 -1.56166 0.000151367 10
-19.0741 22.8935 -0.52013 0.000152216 10
-19.0778 22.8979 0.520231 0.00015222 10
-15.0548 18.0694 1.23259 0.000248798 10
-15.0546 18.0691 2.05763 0.000246172 10
-15.0664 18.0832 2.89 0.000242306 10
-15.0655 18.0822 3.72771 0.000237244 10
-15.0591 18.0745 4.57296 0.000231048 10
-15.0742 18.0926 5.43679 0.000223791 10
-15.0755 18.0941 6.31057 0.000215558 10
-6.47634 7.71821 -2.6997 0.000598341 4
-7.6139 9.07389 -2.73466 0.000303683 1
-8.81548 10.5059 -2.66582 0.000149005 4
-11.1211 13.2536 -2.74026 7.67466e-05 1
-19.2078 22.8909 -1.56605 0.000149092 10
-19.2049 22.8875 -0.521513 0.000149929 10
-19.21 22.8936 0.521653 0.000149933 10
-15.0617 17.9498 1.22801 0.000252703 10
-15.0623 17.9506 2.0501 0.00025004 10
-15.0629 17.9512 2.87729 0.000246117 10
-15.0768 17.9678 3.71496 0.000240982 10
-15.0751 17.9658 4.55875 0.000234695 10
-15.0705 17.9603 5.41283 0.000227331 10
-15.0769 17.968 6.2849 0.000218977 10
-6.50432 7.69683 -2.70014 0.000167782 4
-7.65939 9.06366 -2.73962 0.000303667 1
-8.87372 10.5006 -2.67233 0.000450747 4
-11.1627 13.2092 -2.73913 7.67402e-05 1
-19.5169 23.0951 -1.58467 0.000142538 10
-19.5197 23.0984 -0.52787 0.000143342 10
-19.517 23.0953 0.527797 0.000143346 10
-15.0865 17.8525 1.22495 0.000256638 10
-15.0831 17.8484 2.04444 0.000253937 10
-15.08 17.8447 2.86864 0.000249957 10
-15.0759 17.8399 3.69938 0.000244747 10
-15.0815 17.8465 4.54181 0.00023837 10
-15.0904 17.8571 5.39755 0.000230898 10
-15.0775 17.8418 6.25913 0.000222422 10
-6.52649 7.6686 -2.69822 8.23043e-05 4
-7.68538 9.03029 -2.73762 0.000303651 1
-8.87765 10.4312 -2.66253 0.000360135 4
-11.2261 13.1907 -2.74339 7.67339e-05 1
-19.6631 23.1041 -1.58998 0.000140355 10
-19.6751 23.1182 -0.529888 0.000141148 10
-19.668 23.1099 0.529697 0.000141152 10
-15.0802 17.7192 1.21941 0.000260602 10
-15.0876 17.7279 2.03665 0.000257862 10
-15.0784 17.717 2.85655 0.000253825 10
-15.0864 17.7265 3.68674 0.000248541 10
-15.0854 17.7252 4.52431 0.000242071 10
-15.0927 17.7339 5.37621 0.000234492 10
-15.0822 17.7215 6.23537 0.000225893 10
-6.56378 7.6581 -2.70257 7.59699e-05 4
-7.71323 8.99918 -2.73634 0.000303635 1
-8.89331 10.376 -2.65635 0.00053473 4
-11.2705 13.1495 -2.743 7.67276e-05 1
-19.8144 23.1179 -1.59568 0.000138188 10
-19.8124 23.1155 -0.531409 0.000138969 10
-19.8088 23.1113 0.531312 0.000138973 10
-15.0834 17.5981 1.21469 0.000264595 10
-15.0977 17.6148 2.0297 0.000261816 10
-15.09 17.6059 2.84711 0.000257722 10
-15.0961 17.6129 3.67407 0.000252362 10
-15.1018 17.6195 4.51076 0.0002458 10
-15.1042 17.6224 5.35836 0.000238113 10
-15.0959 17.6127 6.21557 0.000229391 10
-6.57304 7.61494 -2.69542 0.000237395 4
-7.74914 8.97747 -2.73795 0.000303619 1
-8.89738 10.3077 -2.6468 0.000399704 4
-11.3048 13.0967 -2.74019 7.67213e-05 1
-19.9678 23.1329 -1.60152 0.000136037 10
-19.9525 23.1152 -0.533 0.000136807 10
-19.9689 23.1342 0.533437 0.000136811 10
-15.0979 17.4911 1.21093 0.000268616 10
-15.0919 17.4841 2.0207 0.000265798 10
-15.1058 17.5002 2.83853 0.000261646 10
-15.0938 17.4863 3.65863 0.000256211 10
-15.0987 17.492 4.49158 0.000249555 10
-15.0997 17.4932 5.33508 0.000241759 10
-15.0993 17.4927 6.1918 0.000232913 10
-6.60154 7.59421 -2.69622 0.000186743 4
-7.78816 8.95926 -2.74067 0.000303603 1
-8.89803 10.236 -2.63635 0.00049137 4
-11.3558 13.0634 -2.7415 7.6715e-05 1
-20.106 23.1294 -1.60613 0.000133902 10
-20.1068 23.1303 -0.534961 0.000134661 10
-20.1103 23.1342 0.535053 0.000134665 10
-15.1071 17.3788 1.2068 0.000272666 10
-15.1022 17.3731 2.01395 0.000269808 10
-15.0988 17.3692 2.82582 0.000265598 10
-15.1135 17.3862 3.64868 0.000260086 10
-15.1013 17.3721 4.47428 0.000253337 10
-15.1179 17.3912 5.32003 0.000245431 10
-15.107 17.3786 6.17002 0.00023646 10
-6.63091 7.57443 -2.6974 0.00020889 4
-7.80311 8.91342 -2.73496 0.000303587 1
-8.91163 10.1797 -2.62984 0.000645102 4
-11.3941 13.0153 -2.73975 7.67087e-05 1
-20.2651 23.1486 -1.61237 0.000131784 10
-20.2684 23.1525 -0.537108 0.000132531 10
-20.2637 23.1471 0.536982 0.000132535 10
-15.1037 17.2528 1.20171 0.000276744 10
-15.1118 17.2621 2.00719 0.000273846 10
-15.114 17.2646 2.81736 0.000269578 10
-15.1238 17.2757 3.63657 0.00026399 10
-15.1194 17.2707 4.46176 0.000257147 10
-15.1085 17.2584 5.29549 0.00024913 10
-15.1255 17.2777 6.15293 0.000240033 10
-6.66647 7.56163 -2.70111 0.000174067 4
-7.84936 8.90335 -2.74026 0.000303572 1
-8.93106 10.1303 -2.62512 0.000502349 4
-11.455 12.9932 -2.74348 7.67025e-05 1
-20.4117 23.1525 -1.61759 0.000129682 10
-20.4164 23.1579 -0.538884 0.000130418 10
-20.4205 23.1626 0.538992 0.000130422 10
-15.122 17.1525 1.19839 0.000280849 10
-15.117 17.1469 1.99991 0.000277912 10
-15.1315 17.1634 2.80944 0.000273585 10
-15.1304 17.1621 3.62373 0.000267919 10
-15.1174 17.1473 4.44348 0.000260981 10
-15.1208 17.1512 5.27877 0.000252853 10
-15.1184 17.1484 6.12564 0.00024363 10
-6.69772 7.54382 -2.70308 0.000234189 4
-7.87781 8.87299 -2.73936 0.000303556 1
-8.92558 10.0531 -2.61318 0.000544733 4
-11.4875 12.9387 -2.74042 7.66963e-05 1
-20.5742 23.1733 -1.62405 0.000127596 10
-20.5586 23.1557 -0.5405 0.000128322 10
-20.575 23.1742 0.540931 0.000128325 10
-15.1187 17.0286 1.19341 0.000284982 10
-15.1321 17.0437 1.99403 0.000282005 10
-15.1347 17.0466 2.79896 0.000277619 10
-15.1265 17.0373 3.60853 0.000271875 10
-15.1374 17.0497 4.43184 0.000264843 10
-15.1389 17.0514 5.26428 0.000256603 10
-15.1352 17.0471 6.10829 0.000247252 10
-6.72266 7.51889 -2.70254 0.000215192 4
-7.89997 8.83564 -2.73633 0.000303541 1
-8.94171 10.0008 -2.60766 0.000558959 4
-11.5292 12.8947 -2.73963 7.669e-05 1
-20.7181 23.172 -1.62901 0.000125528 10
-20.7146 23.1681 -0.542472 0.000126242 10
-20.7139 23.1672 0.542453 0.000126246 10
-15.1404 16.9336 1.19045 0.000289142 10
-15.1333 16.9257 1.98639 0.000286125 10
-15.1314 16.9236 2.78742 0.000281679 10
-15.1456 16.9394 3.59896 0.000275858 10
-15.1293 16.9212 4.41214 0.000268729 10
-15.142 16.9354 5.24476 0.000260377 10
-15.1399 16.9331 6.08631 0.000250898 10
-6.74303 7.4889 -2.70021 0.000186703 4
-7.94038 8.81869 -2.73965 0.000303525 1
-8.9438 9.93309 -2.59814 0.000648725 4
-11.5841 12.8654 -2.74198 7.66839e-05 1
-20.879 23.1885 -1.63529 0.000123476 10
-20.8793 23.1888 -0.544661 0.00012418 10
-20.8759 23.185 0.544571 0.000124183 10
-15.1342 16.8082 1.18534 0.00029333 10
-15.1402 16.8149 1.97958 0.000290272 10
-15.1454 16.8207 2.77916 0.000285766 10
-15.1413 16.8162 3.58399 0.000279867 10
-15.1393 16.8139 4.39792 0.000272642 10
-15.1419 16.8168 5.22437 0.000264176 10
-15.1557 16.8321 6.069 0.000254569 10
-6.76962 7.46585 -2.7004 0.000306938 4
-7.96651 8.78584 -2.73806 0.000303509 1
-8.94924 9.86964 -2.5897 0.00022844 4
-11.6255 12.8211 -2.74116 7.66777e-05 1
-16.9662 18.7111 -2.20977 3.16349e-05 10
-21.0374 23.201 -1.64134 0.000121441 10
-21.0374 23.2011 -0.546671 0.000122134 10
-21.034 23.1972 0.54658 0.000122138 10
-15.1453 16.703 1.18164 0.000297544 10
-15.1565 16.7153 1.97406 0.000294445 10
-15.148 16.706 2.76893 0.000289879 10
-15.148 16.7059 3.57174 0.000283901 10
-15.1577 16.7166 4.38628 0.000276579 10
-15.1496 16.7076 5.20686 0.000268 10
-15.1607 16.72 6.04762 0.000258263 10
-6.79301 7.4393 -2.69936 0.000259462 4
-7.98672 8.74658 -2.7345 0.000303494 1
-8.98481 9.83962 -2.59004 0.000168042 4
-11.6745 12.7852 -2.74217 7.66715e-05 1
-17.0162 18.6351 -2.2078 3.16298e-05 10
-21.1788 23.1938 -1.64605 0.000119424 10
-21.187 23.2027 -0.548449 0.000120106 10
-21.1946 23.211 0.548645 0.00012011 10
-15.2386 16.6884 1.18437 0.000285893 10
-15.253 16.7042 1.97903 0.000282991 10
-15.2461 16.6967 2.77619 0.000278676 10
-15.24 16.6899 3.57966 0.000273 10
-15.245 16.6954 4.39466 0.00026603 10
-15.2382 16.688 5.21728 0.000257846 10
-15.2491 16.6999 6.05958 0.000248544 10
-6.81069 7.40657 -2.69609 0.000136054 4
-8.02054 8.72227 -2.73564 0.000303478 1
-9.01549 9.80427 -2.589 0.0001727 4
-11.7105 12.7351 -2.74019 7.66654e-05 1
-17.0959 18.5916 -2.2097 3.16248e-05 10
-21.3482 23.216 -1.6529 0.000117423 10
-21.355 23.2234 -0.550696 0.000118095 10
-21.3503 23.2182 0.550574 0.000118098 10
-15.3627 16.7068 1.18947 0.000281578 10
-15.3526 16.6958 1.98437 0.000278716 10
-15.3674 16.7119 2.78763 0.000274462 10
-15.3632 16.7074 3.59489 0.000268867 10
-15.3653 16.7096 4.41248 0.000261995 10
-15.3597 16.7035 5.23886 0.000253927 10
-15.368 16.7125 6.08359 0.000244757 10
-6.84081 7.38741 -2.69779 0.000189834 4
-8.06473 8.70912 -2.74033 0.000303463 1
-9.04325 9.76583 -2.58717 0.000172689 4
-11.7576 12.6971 -2.74082 7.66593e-05 1
-17.1833 18.5563 -2.21262 0.000249716 10
-21.5122 23.2311 -1.65932 0.00011544 10
-21.5004 23.2183 -0.552353 0.000116101 10
-21.5105 23.2293 0.552612 0.000116105 10
-15.4706 16.7067 1.1933 0.000277294 10
-15.4693 16.7053 1.99191 0.000274473 10
-15.4645 16.7001 2.79465 0.00027028 10
-15.4704 16.7065 3.60631 0.000264764 10
-15.4842 16.7214 4.42984 0.000257989 10
-15.4701 16.7062 5.25661 0.000250036 10
-15.4785 16.7153 6.10422 0.000240998 10
-6.87671 7.37437 -2.70178 0.000300559 4
-8.09217 8.6778 -2.73934 0.000885572 4
-9.08221 9.73948 -2.58857 0.000155177 4
-11.812 12.6668 -2.74316 7.66532e-05 1
-17.3126 18.5655 -2.22091 0.000245762 10
-21.6725 23.241 -1.66541 0.000113473 10
-21.6713 23.2397 -0.554656 0.000114125 10
-21.6748 23.2434 0.554744 0.000114128 10
-15.5958 16.7244 1.19845 0.000273041 10
-15.5927 16.7211 2.00027 0.000270261 10
-15.5978 16.7266 2.80817 0.000266127 10
-15.5965 16.7252 3.62207 0.00026069 10
-15.5987 16.7275 4.44587 0.000254013 10
-15.59 16.7182 5.27747 0.000246175 10
-15.5915 16.7199 6.12574 0.000237266 10
-6.90406 7.35208 -2.70243 0.000142364 4
-8.09331 8.61851 -2.72953 0.000740856 4
-9.11211 9.70342 -2.58743 0.000151668 4
-11.8501 12.6191 -2.74177 7.66471e-05 1
-17.4398 18.5715 -2.2289 0.00024184 10
-21.834 23.2509 -1.67158 0.000111525 10
-21.8335 23.2504 -0.556727 0.000112166 10
-21.8218 23.2379 0.556428 0.000112169 10
-15.7155 16.7353 1.20315 0.000268821 10
-15.6972 16.7159 2.00619 0.00026608 10
-15.6981 16.7168 2.81571 0.000262007 10
-15.7032 16.7222 3.63326 0.000256648 10
-15.7067 16.726 4.46 0.000250068 10
-15.7126 16.7322 5.29918 0.000242343 10
-15.6976 16.7162 6.14443 0.000233564 10
-6.91578 7.31323 -2.697 0.00012654 4
-8.09274 8.55783 -2.71924 0.000886145 4
-9.16337 9.68999 -2.59236 0.000155158 4
-11.8937 12.5772 -2.74168 7.66411e-05 1
-16.5456 17.4964 -2.10679 0.000312313 10
-16.5367 17.4871 -1.26134 0.000315506 10
-16.5319 17.482 -0.419985 0.000317073 10
-16.534 17.4842 0.420037 0.000316996 10
-15.8203 16.7295 1.2067 0.000264631 10
-15.8172 16.7263 2.01405 0.000261931 10
-15.8211 16.7304 2.82728 0.000257916 10
-15.8282 16.7378 3.64864 0.000252636 10
-15.8173 16.7263 4.47477 0.000246151 10
-15.8257 16.7352 5.31758 0.000238539 10
-15.8296 16.7393 6.17319 0.000229889 10
-6.94923 7.29741 -2.7001 0.000183476 4
-8.10844 8.5147 -2.71451 0.000895642 4
-9.18873 9.64912 -2.58999 0.000102655 4
-11.9366 12.5346 -2.74146 7.6635e-05 1
-16.5378 17.3664 -2.09807 0.000316663 10
-16.5502 17.3795 -1.25774 0.000319898 10
-16.5473 17.3764 -0.418831 0.000321486 10
-16.5449 17.3738 0.41877 0.000321408 10
-15.9478 16.7468 1.21195 0.000260475 10
-15.933 16.7313 2.02134 0.000257814 10
-15.9515 16.7507 2.84011 0.000253858 10
-15.9325 16.7308 3.65921 0.000248655 10
-15.949 16.7482 4.49549 0.000242266 10
-15.939 16.7376 5.33601 0.000234766 10
-15.9371 16.7357 6.19232 0.000226243 10
-6.97493 7.27339 -2.7002 0.000154999 4
-8.11968 8.46712 -2.70836 0.000937045 4
-9.21589 9.61024 -2.58818 0.000209963 4
-11.9811 12.4937 -2.74165 7.6629e-05 1
-16.5578 17.2663 -2.09295 0.00032104 10
-16.5502 17.2583 -1.25315 0.000324317 10
-16.5507 17.2589 -0.41739 0.000325925 10
-16.5503 17.2585 0.41738 0.000325846 10
-16.0524 16.7393 1.21546 0.00025635 10
-16.0591 16.7463 2.02991 0.000253728 10
-16.0653 16.7528 2.84995 0.000249831 10
-16.0648 16.7522 3.67614 0.000244705 10
-16.0556 16.7426 4.50903 0.00023841 10
-16.0692 16.7568 5.35997 0.000231022 10
-16.0673 16.7548 6.22012 0.000222626 10
-7.00583 7.25475 -2.70234 0.000101219 4
-8.12123 8.40978 -2.69907 0.000934059 4
-9.25952 9.58852 -2.59101 0.000139967 4
-12.0274 12.4547 -2.74228 7.6623e-05 1
-16.55 17.138 -2.08439 0.000325441 10
-7.41407 7.67749 -0.559347 0.00206133 8
-16.5526 17.1407 -0.415927 0.000330389 10
-16.5528 17.141 0.415932 0.000330309 10
-16.1815 16.7565 1.2208 0.000252258 10
-16.1717 16.7463 2.03675 0.000249675 10
-16.1827 16.7577 2.86038 0.000245836 10
-16.1719 16.7465 3.68726 0.000240787 10
-16.1813 16.7563 4.52788 0.000234586 10
-16.1829 16.7579 5.37835 0.000227308 10
-16.1877 16.7629 6.24407 0.000219038 10
-7.02711 7.22614 -2.70081 9.17263e-05 4
-8.11692 8.34682 -2.68794 0.00078112 4
-9.28516 9.54815 -2.58885 0.000174948 4
-12.0697 12.4115 -2.74203 7.66171e-05 1
-16.5696 17.0389 -2.07935 0.000329868 10
-7.45818 7.66942 -0.560652 0.00230699 8
-16.5752 17.0447 -0.414997 0.000334878 10
-16.5602 17.0292 0.41462 0.000334798 10
-16.3009 16.7626 1.22538 0.000248199 10
-16.2998 16.7614 2.04549 0.000245655 10
-16.2939 16.7554 2.86968 0.000241874 10
-16.2935 16.755 3.70162 0.0002369 10
-16.3056 16.7674 4.54625 0.000230793 10
-16.2987 16.7603 5.39735 0.000223624 10
-16.3108 16.7728 6.26893 0.000215479 10
-7.0401 7.18912 -2.69614 5.69312e-05 4
-8.12054 8.29242 -2.67954 0.000644557 4
-9.32745 9.52488 -2.59135 0.000109628 4
-12.117 12.3735 -2.74296 7.66111e-05 1
-16.5773 16.9282 -2.07289 0.000334318 10
-7.51989 7.67906 -0.563272 0.00234154 8
-16.5825 16.9335 -0.413698 0.000339393 10
-16.5828 16.9338 0.413704 0.000339311 10
-16.4322 16.78 1.23084 0.000244172 10
-16.4231 16.7707 2.05361 0.000241667 10
-16.4209 16.7684 2.88171 0.000237943 10
-16.418 16.7655 3.71658 0.000233044 10
-16.4275 16.7753 4.5639 0.00022703 10
-16.4305 16.7783 5.42159 0.00021997 10
-16.4177 16.7652 6.28747 0.000211949 10
-7.07228 7.17172 -2.69886 0.000192926 4
-8.12817 8.24246 -2.67255 0.00070438 4
-9.35375 9.48528 -2.58944 0.000180758 4
-12.1492 12.3201 -2.7405 7.66051e-05 1
-7.60256 7.70947 -0.947284 0.0017131 8
-7.57588 7.68241 -0.565454 0.00237529 8
-16.5927 16.826 -0.412484 0.000343931 10
-16.5755 16.8086 0.412057 0.000343849 10
-16.54 16.7726 1.23453 0.000240179 10
-16.5519 16.7846 2.06237 0.000237712 10
-16.5391 16.7717 2.89217 0.000234045 10
-16.5453 16.778 3.73212 0.000229221 10
-16.5556 16.7884 4.58316 0.000223299 10
-16.5507 16.7834 5.44187 0.000216347 10
-16.5351 16.7676 6.30998 0.00020845 10
-7.09429 7.14399 -2.69773 0.000309933 4
-8.14917 8.20626 -2.67001 0.000852587 4
-9.38413 9.44987 -2.5887 0.000170252 4
-12.2078 12.2934 -2.74402 7.65992e-05 1
-15.7332 15.8434 -2.74155 0.000400156 10
-7.6273 7.68073 -0.947019 0.00216704 8
-7.6328 7.68627 -0.567696 0.00240822 8
-7.6345 7.68799 -0.18912 0.00253026 8
-16.6637 16.7805 0.41279 0.00030452 10
-16.675 16.7918 1.24021 0.000236219 10
-16.6756 16.7924 2.07047 0.00023379 10
-16.6632 16.7799 2.9036 0.000230179 10
-16.668 16.7848 3.74657 0.00022543 10
-16.6697 16.7865 4.5985 0.000219599 10
-16.6725 16.7893 5.46261 0.000212755 10
-16.6716 16.7884 6.33967 0.000204979 10
-7.13103 7.13104 -2.70222 0.000135985 4
-8.13711 8.13711 -2.65674 0.000969779 4
-9.41407 9.41408 -2.58789 0.000153918 4
-12.2534 12.2534 -2.74464 7.65933e-05 1
-15.7371 15.7371 -2.73264 0.000405352 10
-7.67979 7.6798 -0.950203 0.00220042 8
-7.68889 7.6889 -0.569869 0.00244034 8
-7.68418 7.68418 -0.189686 0.0024632 8
-16.8004 16.8004 0.414722 0.000299461 10
-16.7979 16.7979 1.24499 0.000190785 10
-16.7868 16.7868 2.07699 0.00018877 10
-16.7937 16.7937 2.91611 0.000226347 10
-16.7725 16.7725 3.75686 0.000236884 10
-16.7789 16.7789 4.61244 0.000230688 10
-16.785 16.7851 5.48027 0.000209193 10
-16.7846 16.7846 6.3603 0.000201539 10
-7.14568 7.09596 -2.69836 0.000215038 4
-8.1457 8.08903 -2.65031 0.00103439 4
-9.45638 9.39059 -2.59049 0.000151577 4
-12.2898 12.2043 -2.74323 7.65874e-05 1
-15.7481 15.6385 -2.72506 0.000410576 10
-7.73616 7.68234 -0.953853 0.00223299 8
-7.7447 7.69082 -0.572011 0.00249598 8
-7.74265 7.68878 -0.190465 0.00237227 8
-16.924 16.8063 0.416322 0.000294444 10
-16.8016 16.6847 1.24094 0.000193286 10
-16.8054 16.6885 2.07207 0.000191247 10
-16.9213 16.8035 2.92806 0.000222547 10
-16.7732 16.6565 3.74397 0.000239998 10
-16.7698 16.6531 4.59392 0.000233727 10
-16.8004 16.6835 5.46623 0.000173846 10
-16.9198 16.8021 6.38929 0.000198128 10
-7.17387 7.0744 -2.69967 5.05951e-05 4
-8.15575 8.04266 -2.64443 0.000846728 4
-9.49117 9.35957 -2.59105 0.000104931 4
-12.327 12.156 -2.74203 7.65815e-05 1
-15.7516 15.5332 -2.71626 0.000415823 10
-7.80213 7.69395 -0.958671 0.00227673 8
-7.79143 7.6834 -0.573479 0.00252627 8
-7.79777 7.68965 -0.19116 0.00230655 8
-18.9963 18.7329 0.465688 0.000232615 10
-16.7987 16.5657 1.23644 0.000195799 10
-16.8138 16.5806 2.06595 0.000193735 10
-16.7952 16.5623 3.73595 0.000243128 10
-16.7795 16.5469 4.58075 0.000236781 10
-16.8033 16.5703 5.44831 0.000176124 10
-7.19617 7.04701 -2.69879 5.69172e-05 4
-7.81398 7.65201 -2.52494 0.00156187 8
-7.83147 7.66914 -2.13064 0.00160379 8
-7.82055 7.65845 -1.73366 0.00163933 8
-7.83399 7.67161 -1.3463 0.00166816 8
-7.82579 7.66358 -0.958284 0.00168997 8
-7.82604 7.66382 -0.574053 0.00170456 8
-7.86655 7.70349 -0.192185 0.00224142 8
-18.9979 18.6041 0.464131 0.000235729 10
-16.8101 16.4616 1.23305 0.000198324 10
-16.815 16.4664 2.05903 0.000196236 10
-16.8288 16.48 3.73061 5.13929e-05 10
-16.7972 16.449 4.56986 0.000239851 10
-16.8251 16.4763 5.4367 0.000178413 10
-7.2135 7.01483 -2.69609 8.22103e-05 4
-8.26382 8.03621 -2.66121 0.000795144 4
-9.55272 9.28962 -2.59009 0.0001294 4
-12.4243 12.0821 -2.74486 7.65699e-05 1
-15.781 15.3463 -2.70279 0.000426394 10
-7.92598 7.70768 -0.967253 0.00234943 8
-7.924 7.70576 -0.579263 0.00238188 8
-7.90941 7.69156 -0.192575 0.00216495 8
-19.0142 18.4905 0.462951 0.000204014 10
-16.815 16.3519 1.22921 0.000200862 10
-16.8161 16.3529 2.05216 0.000198749 10
-18.9719 18.4494 3.24931 0.000188181 10
-16.884 16.419 3.73012 5.13971e-05 10
-16.7893 16.3269 4.55218 0.000242935 10
-16.8183 16.3551 5.41602 0.000180713 10
-18.9581 18.436 7.0857 0.000166898 10
-7.24186 6.99339 -2.69755 0.000135958 4
-8.33586 8.04985 -2.67535 0.00081981 4
-9.59278 9.26365 -2.59217 0.000180683 4
-12.4518 12.0246 -2.74165 7.6564e-05 1
-15.7739 15.2327 -2.69245 0.000431715 10
-7.98314 7.70923 -0.970938 0.00237855 8
-7.97921 7.70544 -0.581329 0.00231662 8
-7.96815 7.69476 -0.19335 0.00208926 8
-19.1733 18.5155 0.465249 0.00020038 10
-16.8216 16.2444 1.22554 0.000203411 10
-16.8176 16.2406 2.04542 0.000201274 10
-19.0103 18.3581 3.24489 0.000220749 10
-16.9446 16.3632 3.73087 5.14013e-05 10
-16.8052 16.2286 4.5411 0.000246034 10
-16.8279 16.2506 5.40084 0.000183025 10
-19.0157 18.3633 7.08323 0.000195566 10
-7.26648 6.96831 -2.69764 0.000110659 4
-8.38608 8.04196 -2.68244 0.00058359 4
-9.61328 9.2188 -2.58899 0.00016552 4
-12.5004 11.9874 -2.74311 7.65583e-05 1
-15.7814 15.1338 -2.6847 0.000437062 10
-8.03838 7.70853 -0.974378 0.00241847 8
-8.04265 7.71262 -0.583985 0.00225198 8
-8.0298 7.7003 -0.194193 0.00202616 8
-19.0485 18.2669 0.46067 0.000136306 10
-16.8269 16.1364 1.22182 0.000205973 10
-16.8331 16.1423 2.04043 0.000203811 10
-19.0949 18.3113 3.24839 0.000221111 10
-19.0146 18.2344 4.17261 0.00018098 10
-16.8158 16.1258 4.52873 0.000249148 10
-16.8368 16.1459 5.38554 0.000185348 10
-19.1006 18.3168 7.09097 0.000195883 10
-7.30051 6.95219 -2.70125 0.000186532 4
-8.45548 8.05205 -2.69563 0.000655607 4
-9.65073 9.19027 -2.59042 0.00015502 4
-12.5314 11.9335 -2.74075 7.65525e-05 1
-15.7907 15.0373 -2.67734 0.00044243 10
-19.0127 18.1056 -2.29697 0.000244569 10
-8.09241 7.7063 -0.585642 0.00216468 8
-8.08544 7.69967 -0.194887 0.001952 8
-19.1789 18.2638 0.462277 0.000133848 10
-16.8388 16.0354 1.21861 0.000208546 10
-16.8336 16.0305 2.03371 0.000206359 10
-19.0357 18.1275 4.16332 0.000183335 10
-16.8109 16.0088 4.51233 0.000252277 10
-16.8377 16.0344 5.36793 0.000187681 10
-7.31768 6.91998 -2.69864 0.000385694 4
-8.50076 8.03877 -2.70111 0.000719901 4
-9.68739 9.16091 -2.59166 0.000136363 4
-12.5867 11.9027 -2.74376 7.65467e-05 1
-15.7861 14.9282 -2.66771 0.000447822 10
-19.0268 17.9927 -2.29106 0.000247717 10
-8.16153 7.71797 -0.58869 0.00210147 8
-19.043 18.0081 -0.457485 0.000166187 10
-19.0432 18.0083 0.457489 0.000166147 10
-16.8456 15.9301 1.21507 0.000211131 10
-16.8462 15.9306 2.02849 0.000208918 10
-19.0397 18.0049 4.15041 0.000185702 10
-16.8317 15.9169 4.50297 0.000255419 10
-16.8564 15.9403 5.35609 0.000190025 10
-7.35553 6.90731 -2.7037 0.000116968 4
-8.5663 8.0443 -2.71299 0.000732336 4
-9.72016 9.12784 -2.59189 0.000143348 4
-12.6198 11.8508 -2.74192 7.6541e-05 1
-15.799 14.8363 -2.66113 0.000453236 10
-19.0412 17.8809 -2.28527 0.000250879 10
-8.20878 7.70856 -0.590154 0.00201599 8
-19.1554 17.9881 -0.458674 0.00013619 10
-19.1539 17.9867 0.458637 0.000136194 10
-16.8221 15.797 1.20939 0.000278292 10
-16.8523 15.8253 2.02256 0.000211489 10
-19.0368 17.8767 4.13616 0.000188081 10
-16.8377 15.8116 4.48978 0.000258575 10
-16.8443 15.8178 5.33467 0.000192379 10
-7.3691 6.8718 -2.69985 0.000142253 4
-8.63813 8.05519 -2.72682 0.000601947 4
-9.74885 9.09095 -2.59106 0.000114205 4
-12.6672 11.8124 -2.74326 7.65353e-05 1
-15.7999 14.7337 -2.6526 0.000458673 10
-19.0434 17.7583 -2.27808 0.000254057 10
-8.26983 7.71174 -0.592604 0.00195425 8
-19.0403 17.7554 -0.454432 0.000170436 10
-19.0405 17.7555 0.454435 0.000170395 10
-16.8349 15.6988 1.20637 0.000281686 10
-16.8473 15.7104 2.01537 0.000214071 10
-19.0511 17.7655 4.12578 0.00019047 10
-16.8376 15.7013 4.47512 0.000261744 10
-16.8524 15.7151 5.31984 0.000194743 10
-7.39336 6.84633 -2.69996 0.000173858 4
-8.68103 8.03872 -2.73149 0.000690816 4
-9.79462 9.06993 -2.5948 0.000581224 4
-12.7089 11.7686 -2.74337 7.65296e-05 1
-15.8244 14.6536 -2.6481 0.000464131 10
-19.0474 17.6381 -2.27118 0.000257248 10
-19.1406 17.7244 -1.36715 0.000137873 10
-19.1455 17.7289 -0.455462 0.000138614 10
-19.1343 17.7186 0.455196 0.000138618 10
-16.8487 15.6021 1.20345 0.000285093 10
-16.8642 15.6165 2.01086 0.000216663 10
-19.0688 17.6579 4.11622 0.00019287 10
-16.8386 15.5927 4.46089 0.000264927 10
-16.8785 15.6296 5.31081 0.000197117 10
-7.41735 6.8206 -2.70002 0.000158046 4
-8.74228 8.03893 -2.74191 0.000303122 1
-9.86595 9.07221 -2.60529 0.000618551 4
-12.7502 11.7244 -2.74343 7.6524e-05 1
-15.8226 14.5496 -2.63929 0.00046961 10
-19.05 17.5174 -2.26419 0.000260453 10
-19.0635 17.5298 -1.35726 0.000173837 10
-19.0688 17.5346 -0.452178 0.000174723 10
-19.0725 17.538 0.452265 0.000174682 10
-16.848 15.4925 1.19952 0.000288514 10
-16.8718 15.5144 2.0053 0.000219266 10
-19.0618 17.5282 4.10148 0.000195282 10
-16.856 15.4999 4.45115 0.000268123 10
-16.8785 15.5206 5.29375 0.000199501 10
-7.4353 6.78936 -2.69791 0.000161201 4
-8.754 7.9935 -2.73682 0.000303108 1
-9.93197 9.06914 -2.61435 0.000514169 4
-12.7904 11.6793 -2.7433 7.65183e-05 1
-15.8322 14.4568 -2.63245 0.00047511 10
-19.0726 17.4156 -2.25963 0.000263673 10
-19.1205 17.4594 -1.35697 0.000140369 10
-19.1112 17.4509 -0.451736 0.000141122 10
-19.1113 17.451 0.451738 0.000141126 10
-16.8547 15.3905 1.19617 0.000291948 10
-16.8843 15.4175 2.00037 0.000221879 10
-19.0849 17.4269 4.09334 0.000197703 10
-16.8542 15.39 4.43646 0.000271331 10
-16.8916 15.4242 5.28093 0.000201895 10
-7.46753 6.77115 -2.70101 0.000385602 4
-8.79042 7.97067 -2.73949 0.000303094 1
-9.99491 9.06283 -2.62257 0.000489052 4
-12.8268 11.6307 -2.74239 7.65127e-05 1
-15.8417 14.3644 -2.62568 0.00048063 10
-19.0748 17.296 -2.25273 0.000266905 10
-31.6956 28.7398 -2.24228 3.18375e-05 10
-16.8707 15.2974 1.19351 0.000295396 10
-16.8841 15.3096 1.99401 0.000224502 10
-19.0904 17.3101 3.16414 0.000247271 10
-19.0923 17.3118 4.08195 0.000200135 10
-16.8669 15.294 4.42571 0.000274552 10
-16.8872 15.3124 5.26282 0.000204298 10
-19.0925 17.312 6.90575 0.000219286 10
-7.48 6.73502 -2.697 9.79771e-05 4
-8.82104 7.9425 -2.74038 0.00030308 1
-10.0711 9.06802 -2.63423 0.000396058 4
-12.8717 11.5897 -2.74331 7.65071e-05 1
-15.8358 14.2586 -2.61643 0.00048617 10
-19.0867 17.1857 -2.24703 0.000270152 10
-19.0916 17.1902 -1.34637 0.000180306 10
-19.0898 17.1885 -0.448383 0.000181222 10
-19.0862 17.1853 0.448298 0.00018118 10
-16.8653 15.1856 1.18937 0.000298856 10
-16.8828 15.2013 1.98757 0.000227135 10
-19.0838 17.1831 3.15308 0.000207009 10
-19.0924 17.1909 4.06912 0.000202577 10
-16.8609 15.1817 4.41022 0.000277785 10
-16.9002 15.217 5.25029 0.00020671 10
-19.0913 17.1899 6.8836 0.0001836 10
-7.50691 6.71196 -2.69824 0.000319203 4
-8.84117 7.90493 -2.73804 0.000303066 1
-10.1181 9.04664 -2.63826 0.00040845 4
-12.9033 11.5369 -2.74145 7.65015e-05 1
-15.8466 14.1685 -2.61003 0.00049173 10
-19.0938 17.0718 -2.24084 0.000273411 10
-19.213 17.1784 -1.35069 0.000140229 10
-19.2211 17.1856 -0.450055 0.00014098 10
-19.2132 17.1786 0.44987 0.000140984 10
-16.8812 15.0936 1.18677 0.000302329 10
-16.9037 15.1136 1.98381 0.000229777 10
-19.0892 17.0677 3.14412 0.00020951 10
-19.0919 17.0701 4.05627 0.000205029 10
-16.8714 15.0847 4.39915 0.00028103 10
-16.9008 15.1111 5.23406 0.000209131 10
-19.1035 17.0805 6.86644 0.000185838 10
-7.52655 6.68238 -2.69689 9.48092e-05 4
-8.8803 7.8843 -2.74162 0.000303052 1
-10.2062 9.0615 -2.65297 0.000427397 4
-12.0602 10.7076 -2.55437 5.83108e-05 4
-15.8543 14.0761 -2.6032 0.000497308 10
-19.1051 16.9623 -2.2352 0.000276683 10
-19.0989 16.9568 -1.3385 0.000184662 10
-19.0884 16.9475 -0.445561 0.000185599 10
-19.1017 16.9593 0.44587 0.000185556 10
-16.8875 14.9934 1.18352 0.000305815 10
-16.9025 15.0068 1.97751 0.00023243 10
-19.1027 16.9602 3.13657 0.000212022 10
-19.093 16.9515 4.04391 0.00020749 10
-16.8871 14.9931 4.38959 0.000284288 10
-16.8974 15.0022 5.21673 0.000211561 10
-19.1016 16.9592 6.84443 0.000188086 10
-7.56078 6.66573 -2.70081 0.000249655 4
-8.9094 7.8547 -2.74212 0.000303038 1
-10.2691 9.0534 -2.66108 0.000428433 4
-12.0954 10.6635 -2.55391 8.80316e-05 4
-15.9257 14.0404 -2.60686 0.000385213 10
-19.1115 16.8491 -2.22906 0.000279968 10
-19.1771 16.9069 -1.33984 0.000142825 10
-19.185 16.9139 -0.446435 0.000143588 10
-19.1973 16.9247 0.44672 0.000143592 10
-16.8918 14.8921 1.18017 0.000309312 10
-16.8993 14.8987 1.97104 0.000235091 10
-19.1075 16.8455 3.12768 0.000214543 10
-19.1183 16.8551 4.0368 0.000209961 10
-16.8898 14.8904 4.37675 0.000287556 10
-16.9194 14.9165 5.20743 0.000214 10
-19.1098 16.8476 6.82627 0.000190342 10
-7.57594 6.63223 -2.69793 6.63613e-05 4
-8.92832 7.81615 -2.73953 0.000303024 1
-10.3483 9.05924 -2.6734 0.000425909 4
-12.1298 10.6189 -2.55335 9.37413e-05 4
-16.0407 14.0426 -2.61764 0.000378099 10
-19.1063 16.7263 -2.22163 0.000283264 10
-16.8995 14.7944 1.1771 0.000312822 10
-16.9225 14.8145 1.9677 0.000237761 10
-19.1269 16.7443 3.12127 0.000217073 10
-19.1242 16.742 4.02568 0.000212442 10
-16.8876 14.784 4.36278 0.000290835 10
-16.9207 14.8129 5.19188 0.000216447 10
-19.125 16.7427 6.81078 0.000192607 10
-7.59931 6.60598 -2.69803 9.16383e-05 4
-8.94987 7.78 -2.73779 0.00030301 1
-10.4003 9.04088 -2.67867 0.000453569 4
-12.1551 10.5663 -2.55089 7.77312e-05 4
-16.1703 14.0567 -2.63077 0.000371058 10
-19.1088 16.611 -2.21516 0.000286573 10
-19.1517 16.6484 -1.32992 0.000145517 10
-19.1488 16.6458 -0.442876 0.000146293 10
-19.1534 16.6498 0.442984 0.000146297 10
-16.8972 14.6886 1.17336 0.000316343 10
-16.9294 14.7165 1.96252 0.00024044 10
-19.1151 16.6165 3.10986 0.000219612 10
-19.1344 16.6333 4.01557 0.000214931 10
-16.8938 14.6855 4.3511 0.000294126 10
-16.9244 14.7121 5.17722 0.000218901 10
-19.133 16.6321 6.79292 0.00019488 10
-7.63985 6.59454 -2.70423 0.000192749 4
-8.97566 7.74759 -2.7374 0.000302996 1
-10.48 9.04609 -2.69104 0.000377636 4
-12.1919 10.5238 -2.55089 4.4578e-05 4
-16.2843 14.0562 -2.64131 0.00036409 10
-19.1333 16.5155 -2.21131 0.000289893 10
-19.2863 16.6475 -1.33521 0.000142653 10
-19.2946 16.6547 -0.444902 0.000143414 10
-19.289 16.6498 0.444772 0.000143419 10
-16.9122 14.5982 1.17086 0.000319874 10
-16.9349 14.6179 1.95723 0.000243127 10
-19.1391 16.5204 3.10436 0.000222161 10
-19.1361 16.5179 4.00382 0.000217429 10
-16.9038 14.591 4.34055 0.000297426 10
-16.9368 14.6194 5.16537 0.000221364 10
-19.1254 16.5086 6.76972 0.000197161 10
-7.65771 6.56345 -2.70243 0.000151666 4
-9.00348 7.71691 -2.73765 0.000302982 1
-10.5085 9.00688 -2.69027 0.00021507 4
-12.2432 10.4937 -2.55394 4.74322e-05 4
-16.3997 14.0562 -2.65205 0.000357194 10
-19.1317 16.3978 -2.20449 0.000293225 10
-19.1433 16.4078 -1.32134 0.000195695 10
-19.1345 16.4003 -0.439888 0.000196684 10
-19.1325 16.3986 0.439842 0.00019664 10
-16.9048 14.4892 1.16683 0.000323417 10
-16.9314 14.5119 1.95095 0.000245823 10
-19.1273 16.3941 3.09315 0.000224718 10
-19.1496 16.4132 3.99463 0.000219936 10
-16.9143 14.4973 4.33022 0.000300738 10
-16.9361 14.516 5.14967 0.000223835 10
-19.1427 16.4073 6.75551 0.000199451 10
-7.68457 6.54009 -2.70384 7.58299e-05 4
-9.03285 7.68756 -2.7384 0.000302969 1
-10.5202 8.95342 -2.68526 0.00019928 4
-16.5457 14.0815 -2.66771 0.000350372 10
-19.1288 16.2799 -2.1976 0.000296568 10
-19.2397 16.3742 -1.32404 0.00014536 10
-19.2424 16.3766 -0.441052 0.000146134 10
-19.2548 16.3871 0.441335 0.000146138 10
-16.9112 14.3925 1.1638 0.00032697 10
-16.95 14.4256 1.94729 0.000248527 10
-19.1515 16.2992 3.08784 0.000227284 10
-19.1399 16.2893 3.98071 0.000222451 10
-16.9167 14.3973 4.31794 0.000304059 10
-16.9461 14.4223 5.13738 0.000226313 10
-19.1427 16.2917 6.7354 0.000201748 10
-7.70634 6.51236 -2.70348 0.000189568 4
-9.05903 7.65548 -2.73822 0.000302955 1
-10.5319 8.90016 -2.68029 0.000199766 4
-16.665 14.083 -2.67899 0.000343623 10
-19.1541 16.1864 -2.19399 0.000299921 10
-19.1396 16.1742 -1.31326 0.000200161 10
-19.1417 16.176 -0.437445 0.000201172 10
-19.1488 16.182 0.437609 0.000201126 10
-16.9215 14.2997 1.16106 0.000330534 10
-16.9425 14.3176 1.94068 0.000251239 10
-19.1576 16.1894 3.07969 0.000229858 10
-19.1582 16.1899 3.97274 0.000224974 10
-16.9181 14.2969 4.30553 0.00030739 10
-16.9461 14.3206 5.1222 0.000228799 10
-19.1612 16.1925 6.72199 0.000204053 10
-7.70954 6.46907 -2.69666 6.00275e-05 4
-9.09653 7.6329 -2.74149 0.000302941 1
-10.5308 8.83637 -2.67214 0.000111606 4
-12.3561 10.368 -2.5547 6.62769e-05 4
-16.7907 14.0891 -2.69128 0.000336948 10
-19.1503 16.069 -2.18713 0.000303285 10
-19.1905 16.1028 -1.31289 0.000148174 10
-19.188 16.1006 -0.437216 0.00014896 10
-19.2002 16.1109 0.437495 0.000148965 10
-16.9322 14.2078 1.15839 0.000334107 10
-16.9629 14.2335 1.9373 0.000253958 10
-19.1596 16.0768 3.07098 0.00023244 10
-19.169 16.0847 3.9633 0.000227505 10
-16.9311 14.2069 4.29619 0.000310729 10
-16.9617 14.2326 5.11187 0.000231291 10
-19.1573 16.0749 6.70088 0.000206365 10
-7.74539 6.45322 -2.70131 0.000375947 4
-9.11276 7.59247 -2.73837 0.000302928 1
-10.5371 8.77918 -2.66595 0.000243456 4
-12.3891 10.3222 -2.55407 8.68396e-05 4
-16.9291 14.1048 -2.70556 0.000330345 10
-19.1667 15.9691 -2.18262 0.000306659 10
-34.067 28.3836 -2.32385 3.53199e-05 10
-16.9245 14.101 1.15449 0.00033769 10
-16.9534 14.1251 1.93058 0.000256684 10
-19.1548 15.9592 3.06127 0.00023503 10
-19.1744 15.9755 3.95286 0.000230044 10
-16.9292 14.1049 4.2832 0.000314079 10
-16.953 14.1247 5.09436 0.000233791 10
-19.1791 15.9794 6.68898 0.000208685 10
-7.76882 6.42693 -2.70164 0.000183228 4
-9.14919 7.56887 -2.74136 0.000302914 1
-10.5551 8.73195 -2.66278 2.91491e-05 4
-12.4329 10.2854 -2.55566 9.36889e-05 4
-17.0562 14.1101 -2.71797 0.000323817 10
-19.1683 15.8574 -2.17648 0.000310043 10
-19.1623 15.8524 -1.30335 0.000206911 10
-19.158 15.8489 -0.434002 0.000207954 10
-19.1725 15.8609 0.43433 0.000207908 10
-17.0409 14.0975 1.15907 0.000242951 10
-17.076 14.1265 1.93891 0.000184442 10
-19.1662 15.8557 3.05422 0.000237627 10
-19.1618 15.852 3.93885 0.000232591 10
-17.048 14.1033 4.30076 0.000226174 10
-17.0741 14.1249 5.11589 0.000168145 10
-19.1751 15.863 6.66822 0.000211012 10
-7.78548 6.39507 -2.69965 4.42258e-05 4
-9.17761 7.53857 -2.74198 0.000302901 1
-12.4611 10.2357 -2.55411 8.45427e-05 4
-17.1908 14.1207 -2.73155 0.000317362 10
-19.1694 15.746 -2.17036 0.000313437 10
-19.2932 15.8476 -1.30849 0.000147993 10
-19.2759 15.8334 -0.435419 0.000148778 10
-19.2886 15.8438 0.435704 0.000148783 10
-17.1922 14.1218 1.166 0.000238116 10
-17.2162 14.1415 1.94921 0.000180767 10
-19.1794 15.7541 3.04753 0.000240232 10
-19.1884 15.7615 3.93298 0.000235144 10
-17.1866 14.1172 4.32326 0.000221652 10
-17.2008 14.1289 5.13904 0.000164774 10
-19.1942 15.7663 6.65567 0.000213345 10
-7.81848 6.3766 -2.70336 0.000107402 4
-9.19329 7.49787 -2.73883 0.000147247 4
-10.624 8.66472 -2.66483 0.000160842 4
-12.4926 10.1887 -2.55325 4.79804e-05 4
-17.3155 14.1222 -2.74353 0.000310981 10
-19.1765 15.64 -2.16497 0.00031684 10
-19.1771 15.6405 -1.29691 0.000211444 10
-19.1872 15.6487 -0.432178 0.000212508 10
-19.1772 15.6405 0.431952 0.000212461 10
-17.316 14.1226 1.17104 0.000233337 10
-17.339 14.1414 1.95752 0.000177135 10
-19.1766 15.6401 3.0384 0.000242844 10
-19.1771 15.6405 3.91945 0.000237705 10
-17.3064 14.1148 4.341 0.000217182 10
-17.3407 14.1427 5.16606 0.000161443 10
-19.185 15.6469 6.63351 0.000215685 10
-7.8393 6.34814 -2.70288 0.000246383 4
-9.18938 7.44142 -2.72991 0.000120654 4
-10.6446 8.61979 -2.66242 0.00015004 4
-12.5347 10.1504 -2.55461 7.25369e-05 4
-19.1847 15.5354 -2.15975 0.000320251 10
-19.2252 15.5683 -1.29647 0.000150944 10
-19.2129 15.5583 -0.431531 0.000151742 10
-19.2159 15.5608 0.431599 0.000151747 10
-17.4473 14.1286 1.17658 0.000228613 10
-17.4786 14.1539 1.96769 0.000173545 10
-19.199 15.5471 3.03333 0.000245463 10
-19.1835 15.5345 3.90965 0.000240272 10
-17.442 14.1243 4.36261 0.000212764 10
-17.473 14.1494 5.19074 0.00015815 10
-19.1941 15.5431 6.61787 0.000218031 10
-7.86128 6.32063 -2.70284 0.000233739 4
-9.16474 7.36864 -2.71493 0.000137296 4
-10.3804 8.34605 -2.58905 0.000129205 4
-12.5713 10.1076 -2.55485 7.59587e-05 4
-19.1894 15.4287 -2.15421 0.000323672 10
-29.322 23.5755 -1.97181 7.07443e-05 10
-29.3199 23.5738 -0.656687 7.11567e-05 10
-29.3304 23.5822 0.656921 7.11385e-05 10
-17.5762 14.1317 1.18194 0.000223944 10
-17.6228 14.1691 1.97833 0.000169996 10
-19.2558 15.482 3.03374 0.000110768 10
-19.1929 15.4315 3.90057 0.000242847 10
-17.5881 14.1412 4.38677 0.000208398 10
-17.6169 14.1644 5.21878 0.000154896 10
-19.2513 15.4785 6.61892 9.84929e-05 10
-7.88025 6.29073 -2.70179 0.000221096 4
-9.1593 7.31178 -2.70574 0.000153437 4
-10.4272 8.32391 -2.59345 0.000155969 4
-12.6109 10.0671 -2.55574 5.25393e-05 4
-19.21 15.3352 -2.1505 0.0003271 10
-19.1985 15.3259 -1.28743 0.000218286 10
-19.2104 15.3355 -0.42906 0.000219383 10
-19.1961 15.324 0.42874 0.000219335 10
-17.7152 14.1419 1.18796 0.000219331 10
-17.7511 14.1705 1.98717 0.00016649 10
-19.205 15.3312 3.89212 0.000245427 10
-17.7294 14.1532 4.40967 0.000204084 10
-17.7445 14.1652 5.24188 0.000151682 10
-7.90461 6.26511 -2.70263 0.000262148 4
-9.16921 7.26743 -2.70116 0.000205805 4
-10.4435 8.27742 -2.59031 0.000130355 4
-12.6372 10.0161 -2.55398 7.30932e-05 4
-19.2165 15.2308 -2.14526 0.000330537 10
-19.3114 15.3061 -1.29141 0.000150747 10
-19.3005 15.2974 -0.429876 0.000151543 10
-19.2941 15.2923 0.429735 0.000151548 10
-17.8675 14.1616 1.19485 0.000214772 10
-17.881 14.1723 1.99617 0.000304801 10
-19.2103 15.2259 3.88241 0.000248013 10
-17.8661 14.1605 4.43134 0.000199822 10
-17.8953 14.1836 5.27177 0.000277374 10
-7.92801 6.23873 -2.70317 0.00024003 4
-9.20046 7.24005 -2.7029 0.000325844 4
-10.4727 8.24119 -2.5904 0.000141987 4
-12.679 9.9774 -2.55537 7.36593e-05 4
-19.2107 15.1173 -2.1387 0.000333981 10
-34.1531 26.8758 -2.27763 3.92435e-05 10
-18.0029 14.1669 1.20059 0.00021027 10
-18.0249 14.1842 2.0067 0.000159604 10
-19.2135 15.1195 3.87236 0.000250605 10
-17.9925 14.1587 4.45041 0.000195612 10
-18.0268 14.1857 5.2959 0.000145369 10
-7.95044 6.21157 -2.70341 0.000268445 4
-9.21696 7.20108 -2.70035 0.000394426 4
-10.5137 8.21422 -2.59344 0.000487753 4
-12.6987 9.92134 -2.55235 6.3377e-05 4
-19.2108 15.0091 -2.13287 0.000337433 10
-19.2288 15.0232 -1.27884 0.000153852 10
-19.2251 15.0203 -0.425851 0.000154662 10
-19.2372 15.0297 0.426119 0.000154667 10
