VERSION 0.7
FIELDS x y z intensity label
SIZE 4 4 4 4 4
TYPE F F F F F
COUNT 1 1 1 1 1
WIDTH 1168
HEIGHT 1
VIEWPOINT 10.0691 3.97374 2.73056 0.731042 0.000234274 0.00028165 -0.682333
POINTS 1168
DATA ascii
7.68116 -20.4354 -2.68055 0.000238409 10
7.68076 -20.4343 -1.90989 0.000242133 10
7.88463 -20.9767 -1.17444 0.000494415 10
7.88033 -20.9653 -0.390948 0.000496932 10
7.88761 -20.9847 0.391309 0.000496925 10
7.37527 -19.6216 1.09857 0.000216663 10
7.37872 -19.6308 1.83479 0.000214557 10
7.3787 -19.6307 2.575 0.000211401 10
7.38055 -19.6357 3.32242 0.000207232 10
7.37734 -19.6271 4.07573 0.000202096 10
7.38051 -19.6355 4.84287 0.000196054 10
7.37558 -19.6224 5.61697 0.000189173 10
3.37393 -8.88193 -2.54583 0.000836769 4
3.90484 -10.2796 -2.53868 0.000227795 4
4.98023 -13.1106 -2.72611 0.000167752 1
6.11584 -16.1001 -2.72778 7.84626e-05 1
7.70337 -20.2793 -2.66358 0.000246061 10
7.70121 -20.2736 -1.89737 0.000249896 10
7.96847 -20.9772 -1.17601 0.000491116 10
7.97302 -20.9891 -0.391909 0.000493618 10
7.97309 -20.9893 0.391912 0.00049361 10
7.39019 -19.4548 1.09067 0.000223526 10
7.38871 -19.4509 1.82038 0.000221357 10
7.39404 -19.465 2.55662 0.000218107 10
7.39384 -19.4644 3.2978 0.000213813 10
7.38568 -19.4429 4.04281 0.000208525 10
7.39355 -19.4637 4.80682 0.000202303 10
7.39141 -19.458 5.57726 0.000195217 10
3.3904 -8.8323 -2.53498 0.000166976 4
3.93749 -10.2575 -2.53662 0.000331556 4
5.03172 -13.1081 -2.72923 0.00016776 1
6.16576 -16.0623 -2.72502 7.84673e-05 1
7.71048 -20.0865 -2.64178 0.000253869 10
7.70631 -20.0756 -1.88135 0.000257816 10
8.05164 -20.9752 -1.17747 0.000487808 10
8.04988 -20.9707 -0.392086 0.000490294 10
8.05135 -20.9745 0.392158 0.000490286 10
7.404 -19.2881 1.08276 0.000230525 10
7.40126 -19.281 1.80688 0.000228293 10
7.40671 -19.2951 2.5377 0.000224947 10
7.39638 -19.2682 3.26891 0.000220527 10
7.40284 -19.2851 4.01533 0.000215084 10
7.40131 -19.2811 4.76808 0.000208678 10
7.40009 -19.2779 5.533 0.000201383 10
3.42299 -8.82499 -2.5363 0.000560317 4
3.97858 -10.2574 -2.54001 0.000311268 4
5.07744 -13.0904 -2.72922 0.000167768 1
6.22112 -16.039 -2.72473 7.84721e-05 1
7.72192 -19.9083 -2.62187 0.000261833 10
7.72343 -19.9122 -1.86855 0.000265895 10
8.13852 -20.9824 -1.17946 0.000484491 10
8.14187 -20.991 -0.392996 0.000486961 10
8.14345 -20.9951 0.393072 0.000486954 10
7.41374 -19.1138 1.07442 0.000237663 10
7.41696 -19.1221 1.7944 0.000235365 10
7.41267 -19.111 2.51687 0.000231922 10
7.41477 -19.1164 3.24753 0.000227374 10
7.41564 -19.1187 3.98605 0.000221772 10
7.41666 -19.1213 4.73494 0.00021518 10
7.41502 -19.1171 5.49423 0.000207673 10
3.45505 -8.81626 -2.53724 0.00071117 4
4.00864 -10.2288 -2.53638 0.000315791 4
5.11767 -13.0588 -2.72633 0.000167776 1
6.27698 -16.017 -2.72469 7.84767e-05 1
7.73629 -19.7407 -2.60334 0.000269955 10
7.73139 -19.7282 -1.8538 0.000274134 10
12.168 -31.0492 -1.74771 0.000124648 10
12.1641 -31.0391 -0.58191 0.00012537 10
12.1734 -31.0629 0.582355 0.000125368 10
7.42682 -18.951 1.06672 0.000244939 10
7.42177 -18.9381 1.77956 0.000242575 10
7.42195 -18.9386 2.49756 0.000239033 10
7.42815 -18.9544 3.22439 0.000234354 10
7.42788 -18.9537 3.95705 0.000228591 10
7.42274 -18.9406 4.69659 0.000221809 10
7.4228 -18.9408 5.45097 0.000214085 10
3.49875 -8.83683 -2.54666 0.00100571 4
4.04474 -10.2159 -2.53665 0.000372197 4
5.16505 -13.0454 -2.72729 0.000167784 1
6.33351 -15.9966 -2.72497 7.84815e-05 1
7.74369 -19.5583 -2.58284 0.000278236 10
7.7411 -19.5518 -1.83975 0.000282534 10
12.2932 -31.049 -1.75011 0.000123667 10
16.0639 -40.5728 -0.76169 4.25418e-05 10
16.0666 -40.5795 0.761814 4.2541e-05 10
7.4404 -18.7923 1.05925 0.000252355 10
7.43634 -18.7821 1.76733 0.000249924 10
7.43923 -18.7894 2.48129 0.000246282 10
7.43293 -18.7734 3.198 0.00024147 10
7.43626 -18.7819 3.92656 0.000235542 10
7.43425 -18.7768 4.66237 0.000228567 10
7.43609 -18.7814 5.41256 0.000220623 10
3.53011 -8.8259 -2.54704 0.00102834 4
4.08073 -10.2026 -2.53687 0.000288745 4
5.20453 -13.0122 -2.72414 0.000167791 1
6.39539 -15.9896 -2.72757 7.84862e-05 1
7.76076 -19.4033 -2.56592 0.000286676 10
7.75871 -19.3982 -1.82784 0.000291096 10
12.4259 -31.067 -1.75356 0.000122685 10
7.46829 -18.6721 1.05393 3.09462e-05 10
7.44664 -18.6179 1.75432 0.000257413 10
7.45059 -18.6278 2.46337 0.000253668 10
7.44313 -18.6092 3.17442 0.00024872 10
7.44949 -18.6251 3.89919 0.000242626 10
7.44252 -18.6076 4.62679 0.000235454 10
7.44287 -18.6085 5.37018 0.000227286 10
3.56454 -8.82254 -2.54965 0.000903839 4
4.12018 -10.1978 -2.53925 0.000369969 4
5.2584 -13.015 -2.72854 0.000167799 1
6.44767 -15.9585 -2.72609 7.84908e-05 1
7.76761 -19.2255 -2.54599 0.000295277 10
7.7656 -19.2205 -1.81364 0.00029982 10
12.5586 -31.0835 -1.75695 0.000121701 10
7.53123 -18.6404 1.05363 3.09404e-05 10
7.46287 -18.4712 1.74294 0.000265041 10
7.45315 -18.4472 2.44292 0.000261192 10
7.45973 -18.4635 3.15399 0.000256107 10
7.45367 -18.4485 3.86765 0.000249843 10
7.45707 -18.4569 4.59576 0.000242471 10
7.45527 -18.4525 5.33262 0.000234075 10
3.60663 -8.83779 -2.55768 0.000912213 4
4.1517 -10.1734 -2.53677 0.000311327 4
5.30521 -13 -2.72927 0.000167807 1
6.5069 -15.9447 -2.72758 7.84955e-05 1
7.78281 -19.0712 -2.52913 0.000304039 10
7.78441 -19.0751 -1.80247 0.000308708 10
12.6909 -31.0981 -1.76027 0.000120715 10
7.59803 -18.6184 1.05387 3.09345e-05 10
7.47033 -18.3055 1.72975 0.000272811 10
7.46898 -18.3022 2.42715 0.000268856 10
7.47435 -18.3153 3.13312 0.000263631 10
7.46385 -18.2896 3.83978 0.000257194 10
7.46682 -18.2969 4.56238 0.000249619 10
7.4718 -18.3091 5.29869 0.00024099 10
3.63495 -8.81905 -2.55591 0.000906495 4
4.19355 -10.1743 -2.54063 0.00017823 4
5.34653 -12.9717 -2.72722 0.000167815 1
6.56138 -15.9191 -2.72711 7.85002e-05 1
7.79057 -18.9013 -2.5102 0.000312964 10
7.7946 -18.9111 -1.78954 0.00031776 10
12.8125 -31.0855 -1.76208 0.000119729 10
7.66814 -18.6043 1.05458 4.00144e-05 10
7.48533 -18.1608 1.71853 0.000280722 10
7.47631 -18.1389 2.40894 0.000276659 10
7.47756 -18.1419 3.1079 0.000271292 10
7.48445 -18.1586 3.81775 0.000264679 10
7.48091 -18.1501 4.53225 0.000256898 10
7.47718 -18.141 5.25757 0.000248033 10
3.67754 -8.83473 -2.56416 0.000851443 4
4.22448 -10.1487 -2.53789 0.000333912 4
5.39383 -12.9578 -2.72825 0.000167823 1
6.61847 -15.8999 -2.72776 7.85049e-05 1
7.79997 -18.7382 -2.49214 0.000322053 10
7.80754 -18.7564 -1.77746 0.000326978 10
12.9499 -31.11 -1.76602 0.000118741 10
7.73461 -18.5812 1.0548 4.00069e-05 10
7.49444 -18.0042 1.70618 0.000288777 10
7.48939 -17.9921 2.3929 0.000284604 10
7.49482 -18.0051 3.08893 0.000279091 10
7.49491 -18.0054 3.791 0.000272301 10
7.49008 -17.9938 4.49972 0.000264309 10
7.48722 -17.9869 5.22045 0.000255205 10
3.70551 -8.81505 -2.56219 0.000951195 4
4.26079 -10.136 -2.53843 0.000293312 4
5.4406 -12.9427 -2.72904 0.000167831 1
6.66472 -15.8548 -2.72399 7.85096e-05 1
7.8094 -18.5778 -2.47441 0.000331305 10
7.8167 -18.5952 -1.76476 0.000336362 10
7.84238 -18.6563 -1.06061 0.00044058 10
7.84228 -18.656 -0.353244 0.000442761 10
7.84368 -18.6594 0.353307 0.000442755 10
7.79656 -18.5473 1.05441 3.99994e-05 10
7.50345 -17.85 1.69404 0.000296974 10
7.50696 -17.8584 2.37859 0.00029269 10
7.50453 -17.8526 3.06723 0.00028703 10
7.50348 -17.8501 3.76379 0.000280058 10
7.49518 -17.8303 4.46537 0.000271853 10
7.4989 -17.8392 5.18515 0.000262505 10
3.7491 -8.83233 -2.571 0.000776008 4
4.29381 -10.1156 -2.53705 0.000297836 4
5.47628 -12.9013 -2.72433 0.000167838 1
6.7239 -15.8405 -2.72556 7.85142e-05 1
7.82248 -18.4286 -2.45816 0.000340722 10
7.82177 -18.4269 -1.75138 0.000345913 10
7.82154 -18.4264 -1.04908 0.000230809 10
7.82087 -18.4248 -0.34938 0.000232005 10
7.82031 -18.4235 0.349355 0.000232058 10
7.82471 -18.4339 1.04951 0.000230967 10
7.51249 -17.6983 1.68212 0.000305315 10
7.51716 -17.7093 2.36221 0.000300918 10
7.509 -17.6901 3.0438 0.000295109 10
7.5051 -17.6809 3.73362 0.000287953 10
7.5064 -17.684 4.43525 0.00027953 10
7.50696 -17.6853 5.148 0.000269934 10
3.78175 -8.8235 -2.57225 0.000939364 4
4.32861 -10.0994 -2.53677 0.000178257 4
5.52457 -12.8898 -2.72596 0.000167846 1
6.77561 -15.8087 -2.72414 7.85189e-05 1
7.84007 -18.2923 -2.44361 0.000350305 10
7.83116 -18.2715 -1.73919 0.000355631 10
7.87857 -18.3821 -1.04812 0.000454742 10
7.88266 -18.3916 -0.349271 0.000456987 10
7.88221 -18.3906 0.34925 0.000456981 10
7.8827 -18.3917 1.04867 0.000454722 10
7.55893 -17.6363 1.67873 0.000602398 10
7.56678 -17.6546 2.35843 0.000593582 10
7.55628 -17.6301 3.03801 0.000581986 10
7.5625 -17.6446 3.73152 0.000567738 10
7.55895 -17.6364 4.42989 0.000551 10
7.5641 -17.6484 5.14491 0.000531955 10
3.81596 -8.81817 -2.57457 0.000841415 4
4.36498 -10.0869 -2.53743 0.000284319 4
5.56792 -12.8667 -2.72517 0.000167854 1
6.83654 -15.7983 -2.72644 7.85236e-05 1
7.84801 -18.1357 -2.42634 0.000360055 10
7.85038 -18.1412 -1.72938 0.000365519 10
7.8479 -18.1354 -1.03561 0.000243882 10
7.84941 -18.1389 -0.34499 0.000245141 10
7.84944 -18.139 0.344991 0.000245195 10
7.84222 -18.1223 1.03486 0.000244046 10
7.63146 -17.6353 1.68115 0.000598068 10
7.63951 -17.6539 2.36188 0.000589311 10
7.64197 -17.6596 3.04766 0.000577793 10
7.63792 -17.6502 3.73831 0.000563642 10
7.63935 -17.6535 4.44087 0.000547016 10
7.63417 -17.6415 5.15065 0.000528101 10
3.862 -8.83977 -2.58479 0.000969698 4
4.39949 -10.07 -2.53704 0.000347514 4
5.61965 -12.8629 -2.72849 0.000167862 1
6.88751 -15.7649 -2.72481 7.85282e-05 1
7.86101 -17.9931 -2.41092 0.000369972 10
7.8536 -17.9762 -1.71626 0.000375576 10
7.9176 -18.1227 -1.03646 0.000469506 10
7.91148 -18.1087 -0.344938 0.000471817 10
7.91656 -18.1203 0.345159 0.000471811 10
7.91951 -18.1271 1.03671 0.000469486 10
7.71394 -17.6565 1.68573 0.00059373 10
7.71641 -17.6622 2.36658 0.000585033 10
7.71465 -17.6581 3.05204 0.000573593 10
7.71003 -17.6476 3.74343 0.000559539 10
7.71133 -17.6505 4.44687 0.000543026 10
7.71351 -17.6555 5.16257 0.000524241 10
3.88777 -8.81476 -2.58143 0.00094939 4
4.43648 -10.0588 -2.53811 0.000232437 4
5.66089 -12.835 -2.72675 0.000167869 1
6.9404 -15.736 -2.72398 7.85329e-05 1
7.86174 -17.825 -2.39205 0.000380056 10
7.86633 -17.8354 -1.70542 0.000385803 10
7.8707 -17.8453 -1.02216 0.000488523 10
7.87129 -17.8466 -0.340467 0.000490919 10
7.86756 -17.8382 0.340306 0.000490912 10
7.86811 -17.8394 1.02182 0.000488502 10
7.79155 -17.6658 1.68921 0.000589385 10
7.78596 -17.6531 2.36899 0.000580748 10
7.78692 -17.6553 3.05623 0.000569386 10
7.7928 -17.6686 3.75365 0.000555428 10
7.78828 -17.6584 4.45567 0.00053903 10
7.7826 -17.6455 5.16755 0.000520374 10
3.92604 -8.81804 -2.58639 0.000829703 4
4.4748 -10.0506 -2.53995 0.000288864 4
5.70028 -12.803 -2.72418 0.000167877 1
7.0041 -15.7315 -2.72742 7.85375e-05 1
7.88087 -17.7007 -2.37906 0.000390309 10
7.87073 -17.6779 -1.69299 0.000396201 10
7.94338 -17.8411 -1.0235 0.000484909 10
7.94175 -17.8375 -0.34082 0.000487288 10
7.95104 -17.8583 0.341218 0.000487281 10
7.94241 -17.839 1.02338 0.000484888 10
7.86067 -17.6554 1.69082 0.000585034 10
7.86374 -17.6623 2.37389 0.000576456 10
7.86915 -17.6744 3.06427 0.000565173 10
7.85783 -17.649 3.75527 0.000121522 10
7.86515 -17.6654 4.46435 0.000535027 10
7.85922 -17.6521 5.17748 0.000516501 10
3.96484 -8.82217 -2.59165 0.00101494 4
4.50937 -10.0338 -2.53967 0.000320471 4
5.74689 -12.7874 -2.7251 0.000167885 1
7.04872 -15.6841 -2.72346 7.85421e-05 1
7.88333 -17.5412 -2.3613 0.000400732 10
7.88449 -17.5438 -1.68276 0.00040677 10
7.89727 -17.5722 -1.00965 0.000504775 10
7.90015 -17.5786 -0.336399 0.000507243 10
7.90431 -17.5879 0.336576 0.000507235 10
7.89273 -17.5621 1.00907 0.000504752 10
7.88562 -17.5463 1.683 0.000317507 10
7.56582 -16.8347 2.2662 0.000353304 10
7.56509 -16.8331 2.92297 0.000346549 10
7.57463 -16.8543 3.59179 0.000338225 10
7.88632 -17.5479 4.44156 0.00029068 10
7.876 -17.5249 5.14821 0.000280698 10
4.00444 -8.82774 -2.59737 0.00100863 4
4.5457 -10.0209 -2.54042 0.000259546 4
5.79757 -12.7807 -2.72796 0.000167893 1
7.10535 -15.6637 -2.72419 7.85468e-05 1
7.89962 -17.4146 -2.34796 0.000411325 10
7.89872 -17.4126 -1.67282 0.000417512 10
7.97391 -17.5784 -1.0116 0.000500989 10
7.97079 -17.5715 -0.336793 0.000503439 10
7.97971 -17.5912 0.33717 0.000503432 10
7.97983 -17.5914 1.01235 0.000500966 10
7.89021 -17.3939 1.67102 0.000325889 10
7.62843 -16.8168 2.26735 0.000660664 10
7.61993 -16.798 2.92149 0.000647883 10
7.62073 -16.7998 3.58582 0.000632176 10
7.89277 -17.3995 4.41097 0.000298395 10
7.89634 -17.4074 5.12175 0.000288164 10
4.03592 -8.81522 -2.59782 0.000938279 4
4.56996 -9.98166 -2.53449 0.000273097 4
5.83734 -12.7499 -2.72572 0.0001679 1
7.16673 -15.6535 -2.72676 7.85514e-05 1
7.90562 -17.2674 -2.33181 0.000422088 10
7.90405 -17.2639 -1.66117 0.000428426 10
7.92406 -17.3076 -0.997602 0.000521754 10
7.9262 -17.3123 -0.332354 0.000524297 10
7.92172 -17.3025 0.332165 0.000524289 10
7.92264 -17.3046 0.997424 0.000521731 10
7.90101 -17.2573 1.66053 0.000334405 10
7.697 -16.8117 2.27028 0.000655714 10
7.69002 -16.7965 2.92586 0.000643021 10
7.70092 -16.8203 3.59591 0.000627426 10
7.9001 -17.2553 4.38137 0.000306235 10
7.90088 -17.257 5.08559 0.000295752 10
4.0777 -8.82495 -2.60487 0.000839316 4
4.60693 -9.9703 -2.53567 0.000352105 4
5.88417 -12.7345 -2.72681 0.000167908 1
7.21415 -15.6129 -2.72405 7.8556e-05 1
7.91536 -17.1304 -2.31703 0.000433023 10
7.91584 -17.1314 -1.65107 0.000439514 10
8.00237 -17.3187 -0.999844 0.000517787 10
7.99414 -17.3009 -0.332668 0.000520312 10
8.00065 -17.315 0.332939 0.000520304 10
8.00281 -17.3197 0.999899 0.000517764 10
7.91321 -17.1258 1.65052 0.000343056 10
7.77098 -16.818 2.27477 0.000650756 10
7.76938 -16.8145 2.9337 0.000638154 10
7.77014 -16.8161 3.6008 0.000622669 10
7.90912 -17.1169 4.35321 0.0003142 10
7.91303 -17.1254 5.0549 0.000303461 10
4.11962 -8.83456 -2.61193 0.000839814 4
4.6449 -9.96102 -2.53742 0.000316004 4
5.92917 -12.7151 -2.72708 0.000167916 1
7.26973 -15.59 -2.72447 7.85606e-05 1
7.92357 -16.9921 -2.30206 0.000444129 10
7.95026 -17.0494 -1.64583 8.09896e-05 10
8.07199 -17.3104 -1.00099 0.000513816 10
8.07004 -17.3063 -0.33331 0.000516323 10
8.07109 -17.3085 0.333354 0.000516315 10
8.07082 -17.3079 1.00084 0.000513793 10
7.91935 -16.9831 1.63943 0.000351843 10
7.84507 -16.8238 2.27925 0.000645794 10
7.84865 -16.8315 2.94143 0.000633282 10
7.8386 -16.8099 3.60531 0.000617908 10
7.91642 -16.9768 4.32459 0.000322291 10
7.91917 -16.9827 5.02093 0.000311293 10
4.15165 -8.82272 -2.6127 0.00101828 4
4.67891 -9.9432 -2.53702 0.000266356 4
5.96817 -12.683 -2.72464 0.000167923 1
7.32714 -15.571 -2.7256 7.85652e-05 1
7.93727 -16.8676 -2.28892 0.000455406 10
7.93627 -16.8654 -1.63074 0.00046221 10
7.93128 -16.8548 -0.976236 0.000466821 10
7.93056 -16.8533 -0.325118 0.000469189 10
7.92783 -16.8475 0.325006 0.000469286 10
7.92637 -16.8444 0.975631 0.000467112 10
7.93712 -16.8672 1.63091 0.000360766 10
7.91669 -16.8238 2.28299 0.000640826 10
7.91857 -16.8278 2.94561 0.000628405 10
7.91787 -16.8263 3.61473 0.000613142 10
7.92585 -16.8433 4.2976 0.000330508 10
7.93021 -16.8526 4.9906 0.000319246 10
4.19276 -8.82993 -2.61915 0.00114699 4
4.71621 -9.93231 -2.53843 0.000284424 4
6.02205 -12.6824 -2.72901 0.000167931 1
7.38368 -15.55 -2.72643 7.85698e-05 1
7.94133 -16.7244 -2.27324 0.000466857 10
7.93946 -16.7205 -1.61939 0.000473821 10
7.93718 -16.7157 -0.969775 0.00047854 10
7.93807 -16.7176 -0.323032 0.000480963 10
7.93845 -16.7183 0.323047 0.000481062 10
7.94223 -16.7263 0.970391 0.000478835 10
7.94384 -16.7297 1.62028 0.000369825 10
7.94018 -16.722 2.27291 0.000364543 10
7.93495 -16.711 2.92998 0.000357564 10
7.94265 -16.7272 3.59937 0.000348969 10
7.93291 -16.7067 4.26978 0.000338852 10
7.94271 -16.7273 4.96169 0.000327323 10
4.22576 -8.81985 -2.62052 0.000898003 4
4.75333 -9.92097 -2.53976 0.000246059 4
6.06035 -12.6489 -2.72634 0.000167939 1
7.42854 -15.5046 -2.72299 7.85744e-05 1
7.9535 -16.6002 -2.26012 0.000478482 10
7.95644 -16.6064 -1.61102 0.000485607 10
7.95206 -16.5972 -0.964507 0.000490435 10
7.94719 -16.5871 -0.321045 0.000492914 10
7.95544 -16.6043 0.321378 0.000493015 10
7.94455 -16.5816 0.963596 0.000490736 10
7.95383 -16.6009 1.61049 0.000379022 10
7.95343 -16.6001 2.2601 0.000373615 10
7.9466 -16.5858 2.91289 0.000366474 10
7.9483 -16.5894 3.57566 0.000357677 10
7.94445 -16.5813 4.24481 0.000347322 10
7.94283 -16.578 4.92559 0.000335523 10
4.26203 -8.81643 -2.62391 0.000983861 4
4.78311 -9.89433 -2.5372 0.000302505 4
6.09999 -12.6184 -2.72434 0.000167946 1
7.49322 -15.5005 -2.72685 7.8579e-05 1
7.96298 -16.4722 -2.24647 0.000490279 10
8.02309 -16.5966 -1.61277 0.00085158 10
8.02111 -16.5925 -0.965852 0.000859862 10
8.0197 -16.5896 -0.321632 0.000864019 10
8.02245 -16.5952 0.321742 0.000864007 10
8.0255 -16.6016 0.966381 0.000859823 10
7.95388 -16.4534 1.59886 0.000388355 10
7.95538 -16.4565 2.24432 0.000382823 10
7.95276 -16.4511 2.89408 0.000375516 10
7.95619 -16.4582 3.55334 0.000366515 10
7.95041 -16.4462 4.21729 0.00035592 10
7.95119 -16.4478 4.89514 0.000343846 10
4.30786 -8.83243 -2.63313 0.000877161 4
4.81516 -9.87254 -2.5359 0.000234789 4
6.14599 -12.6012 -2.72523 0.000167954 1
7.5446 -15.4687 -2.72588 7.85836e-05 1
7.96443 -16.3295 -2.23078 0.000502252 10
8.09419 -16.5956 -1.61541 0.000844831 10
8.09636 -16.6 -0.967929 0.000853051 10
8.08898 -16.5849 -0.322087 0.000857178 10
8.09037 -16.5877 0.322142 0.000857165 10
8.09762 -16.6026 0.968081 0.000853013 10
7.97155 -16.3441 1.59094 0.000397826 10
7.96393 -16.3285 2.23064 0.000392167 10
7.97175 -16.3445 2.88021 0.000384692 10
7.96781 -16.3364 3.53305 0.000375485 10
7.95924 -16.3189 4.19174 0.000364645 10
7.96706 -16.3349 4.86977 0.000352293 10
4.3405 -8.82106 -2.63424 0.000962943 4
4.85248 -9.86153 -2.53741 0.000277693 4
6.19374 -12.5873 -2.7269 0.000167962 1
7.5978 -15.4408 -2.72561 7.85881e-05 1
7.98027 -16.2181 -2.21935 0.000514398 10
8.17301 -16.6097 -1.61956 0.000838078 10
8.16856 -16.6007 -0.969627 0.000846236 10
8.16902 -16.6017 -0.322965 0.000850332 10
8.164 -16.5914 0.322766 0.000850319 10
8.16939 -16.6024 0.969726 0.000846198 10
7.98008 -16.2177 1.58133 0.000407435 10
7.97009 -16.1974 2.21651 0.000401647 10
7.98057 -16.2187 2.86293 0.000394002 10
7.96926 -16.1957 3.5086 0.000384585 10
7.97 -16.1972 4.1676 0.000373499 10
7.96841 -16.1939 4.83601 0.000360865 10
4.38556 -8.83466 -2.64286 0.00103443 4
4.88563 -9.84205 -2.53677 0.000329631 4
6.24054 -12.5715 -2.72817 0.000167969 1
7.64773 -15.4062 -2.72421 7.85927e-05 1
7.98296 -16.0816 -2.20447 0.000526719 10
8.24542 -16.6103 -1.62241 0.000831322 10
8.23712 -16.5936 -0.970884 0.000839418 10
8.24345 -16.6063 -0.323614 0.000843482 10
8.24247 -16.6044 0.323575 0.00084347 10
8.24666 -16.6128 0.972009 0.00083938 10
7.98346 -16.0826 1.57087 0.000417182 10
7.97923 -16.0741 2.20344 0.000411263 10
7.98974 -16.0952 2.84604 0.000403446 10
7.98215 -16.0799 3.48954 0.000393816 10
7.97821 -16.072 4.14253 0.00038248 10
7.9806 -16.0768 4.80933 0.000369561 10
4.42263 -8.83178 -2.6466 0.000734864 4
4.9174 -9.81983 -2.53545 0.000273198 4
6.27331 -12.5275 -2.72336 0.000167977 1
7.70548 -15.3875 -2.72564 7.85973e-05 1
7.99919 -15.974 -2.19354 0.000539216 10
8.31557 -16.6058 -1.6248 0.000824563 10
8.3128 -16.6003 -0.972968 0.000832597 10
8.32006 -16.6148 -0.324343 0.000836631 10
8.31493 -16.6045 0.324142 0.000836618 10
8.31474 -16.6042 0.973196 0.00083256 10
7.98998 -15.9556 1.56118 0.000427067 10
7.98703 -15.9497 2.19021 0.000421016 10
7.98873 -15.9531 2.82583 0.000413025 10
7.98799 -15.9516 3.46773 0.00040318 10
7.98832 -15.9523 4.11884 0.00039159 10
7.98574 -15.9472 4.77885 0.000378381 10
4.46206 -8.83338 -2.65173 0.000977463 4
4.95008 -9.79949 -2.53465 0.000264176 4
6.31877 -12.509 -2.72412 0.000167984 1
7.76353 -15.3692 -2.72718 7.86018e-05 1
8.00483 -15.8469 -2.1799 0.000551888 10
8.3907 -16.6108 -1.62814 0.000817802 10
8.39433 -16.618 -0.975716 0.000825774 10
8.39635 -16.6219 -0.325052 0.000829777 10
8.39663 -16.6225 0.325063 0.000829765 10
8.39548 -16.6202 0.975849 0.000825738 10
8.00762 -15.8524 1.55381 0.00043709 10
8.00404 -15.8453 2.17969 0.000430906 10
7.99423 -15.8259 2.80821 0.000422738 10
8.00155 -15.8404 3.44959 0.000412675 10
7.99972 -15.8368 4.09619 0.000400828 10
8.00221 -15.8417 4.75559 0.000387326 10
4.48411 -8.80056 -2.64656 0.000589229 4
4.98825 -9.78999 -2.53668 0.000205478 4
6.36081 -12.4838 -2.72344 0.000167992 1
7.80612 -15.3204 -2.72333 7.86063e-05 1
8.01694 -15.7341 -2.16823 0.000564735 10
8.46511 -16.6137 -1.63131 0.00081104 10
8.4718 -16.6268 -0.977968 0.000818951 10
8.47538 -16.6339 -0.325862 0.000822923 10
8.47494 -16.633 0.325845 0.00082291 10
8.46595 -16.6154 0.977293 0.000818914 10
8.00819 -15.717 1.54326 0.000447252 10
8.00888 -15.7183 2.16605 0.000440933 10
8.00255 -15.7059 2.79187 0.000432585 10
8.01484 -15.73 3.43163 0.000422301 10
8.00277 -15.7063 4.06966 0.000410194 10
8.00418 -15.7091 4.72414 0.000396396 10
4.52305 -8.80091 -2.6514 0.000602564 4
5.02193 -9.77162 -2.53644 0.000228066 4
6.41201 -12.4764 -2.7267 0.000168 1
7.86103 -15.2959 -2.72385 7.86109e-05 1
8.01819 -15.6017 -2.15383 0.000577758 10
13.2608 -25.8026 -2.53811 0.000194097 10
16.0984 -31.3242 -1.84574 9.59656e-05 10
16.2872 -31.6915 -0.621956 5.57097e-05 10
16.2894 -31.6958 0.622039 5.5723e-05 10
9.20148 -17.9042 1.05498 3.9837e-05 10
8.01364 -15.5929 1.53381 0.000457554 10
8.01819 -15.6017 2.15383 0.000451097 10
8.01523 -15.596 2.77728 0.000442568 10
8.01254 -15.5907 3.40732 0.000432061 10
8.01239 -15.5904 4.04685 0.000419691 10
8.01967 -15.6046 4.70111 0.000405591 10
4.54668 -8.77143 -2.64728 0.000226385 4
5.05721 -9.75636 -2.53705 0.00025743 4
6.45748 -12.4577 -2.72753 0.000168007 1
7.91717 -15.2738 -2.72481 7.86154e-05 1
8.03135 -15.494 -2.14282 0.000590959 10
16.2344 -31.3193 -1.84878 9.4984e-05 10
16.3077 -31.4607 -0.618539 5.72916e-05 10
16.3023 -31.4504 0.618336 5.73052e-05 10
9.26667 -17.8772 1.05529 3.98298e-05 10
8.02158 -15.4752 1.52498 0.000467995 10
8.02453 -15.4809 2.141 0.000461398 10
8.02408 -15.48 2.7616 0.000452686 10
8.02862 -15.4888 3.39115 0.000441953 10
8.02518 -15.4822 4.02599 0.000429316 10
8.01854 -15.4693 4.66876 0.000414912 10
4.58502 -8.77034 -2.65177 0.000289648 4
5.086 -9.72863 -2.53444 0.000325187 4
6.49073 -12.4156 -2.72325 0.000168015 1
7.97422 -15.2533 -2.7261 7.86199e-05 1
8.03101 -15.3619 -2.12841 0.000604335 10
16.3812 -31.3343 -1.85303 9.40039e-05 10
16.3786 -31.3294 -0.617078 9.45608e-05 10
16.3824 -31.3366 0.61722 9.4559e-05 10
9.33238 -17.8512 1.05567 3.98225e-05 10
8.03253 -15.3648 1.51686 0.000478575 10
8.02743 -15.3551 2.12746 0.000471838 10
8.0262 -15.3527 2.74387 0.00046294 10
8.02805 -15.3562 3.36824 0.000451978 10
8.02723 -15.3547 4.0001 0.000439071 10
8.03535 -15.3702 4.64728 0.000424359 10
4.61481 -8.75277 -2.65131 0.00027301 4
5.12808 -9.72628 -2.53848 0.000140016 4
6.54332 -12.4105 -2.72712 0.000168022 1
8.02865 -15.2277 -2.72652 7.86244e-05 1
8.0413 -15.2517 -2.11702 0.000617888 10
13.7125 -26.0081 -1.54087 7.60029e-05 10
13.7081 -25.9996 -0.51304 7.6442e-05 10
13.7077 -25.9989 0.513025 7.64588e-05 10
9.39379 -17.8169 1.05558 3.98153e-05 10
8.04106 -15.2512 1.50841 0.000489294 10
7.72479 -14.6514 2.03369 0.000542385 10
7.71699 -14.6366 2.62068 0.000532263 10
7.72039 -14.643 3.2177 0.000519791 10
7.71879 -14.64 3.82092 0.000505103 10
8.0401 -15.2494 4.61921 0.000433931 10
4.64403 -8.73415 -2.65056 0.000213087 4
5.16621 -9.71623 -2.54054 0.000135504 4
6.58383 -12.3824 -2.72598 0.00016803 1
8.05816 -15.1552 -2.71856 0.000619499 10
8.05445 -15.1482 -2.10654 0.000631618 10
13.7308 -25.824 -1.53279 0.000124689 10
13.7363 -25.8342 -0.510718 0.000125378 10
13.7255 -25.814 0.510318 0.000125376 10
9.4518 -17.7763 1.05512 3.98081e-05 10
8.05547 -15.1501 1.50118 0.000500154 10
7.72533 -14.5292 2.02047 0.000554319 10
7.7521 -14.5796 2.61531 0.00086337 10
7.75428 -14.5837 3.21059 0.000842974 10
7.72577 -14.5301 3.79924 0.000516263 10
8.0438 -15.1282 4.59097 0.00044363 10
4.67667 -8.72196 -2.6518 0.000512757 4
5.19826 -9.69472 -2.53965 0.00014906 4
6.62265 -12.3512 -2.72418 0.000168037 1
8.0558 -15.024 -2.70005 0.000633155 10
8.0611 -15.0339 -2.09455 0.000645525 10
16.8261 -31.3805 -1.86608 9.10747e-05 10
16.8281 -31.3842 -0.621595 9.16155e-05 10
16.8182 -31.3658 0.621229 9.16138e-05 10
9.51946 -17.7537 1.05575 3.98009e-05 10
8.06305 -15.0375 1.4928 0.000511152 10
7.75825 -14.4691 2.01585 0.000129588 10
7.81914 -14.5826 2.62073 0.000856081 10
7.82657 -14.5965 3.2194 0.000835847 10
7.73383 -14.4235 3.77842 0.000527565 10
8.05644 -15.0252 4.56822 0.000453454 10
4.70571 -8.70304 -2.65103 0.000506114 4
5.23186 -9.67612 -2.53955 5.87228e-05 4
6.66307 -12.3231 -2.72309 0.000168045 1
8.07371 -14.932 -2.68857 0.000646986 10
8.0709 -14.9268 -2.08354 0.000659609 10
13.982 -25.8592 -1.54064 7.71263e-05 10
13.9851 -25.8648 -0.513242 7.75716e-05 10
13.9911 -25.8761 0.513465 7.75884e-05 10
9.58139 -17.7204 1.05575 3.97937e-05 10
8.06226 -14.9108 1.48301 0.000522291 10
7.8098 -14.4439 2.01614 0.000129578 10
7.89191 -14.5958 2.62803 0.000848794 10
7.89302 -14.5978 3.22575 0.000828722 10
7.74742 -14.3286 3.7606 0.00053901 10
8.06178 -14.9099 4.54171 0.000463404 10
4.73786 -8.68985 -2.65203 0.000296352 4
5.26023 -9.64794 -2.53695 0.000164881 4
6.71832 -12.3223 -2.72808 0.000168052 1
8.07612 -14.8127 -2.67214 0.00066099 10
8.07251 -14.806 -2.0706 0.00067387 10
17.1106 -31.3831 -1.87329 8.91321e-05 10
17.1173 -31.3953 -0.624165 8.96621e-05 10
17.11 -31.382 0.623901 8.96605e-05 10
9.63682 -17.6752 1.05505 3.97865e-05 10
8.07689 -14.8141 1.47618 0.000533569 10
7.85477 -14.4067 2.01475 0.000129569 10
7.95613 -14.5926 2.63244 0.00084151 10
7.95507 -14.5906 3.23028 0.0008216 10
7.77993 -14.2694 3.75218 0.000232923 10
8.07184 -14.8048 4.51823 0.000473481 10
4.76113 -8.66047 -2.64812 0.00033965 4
5.28989 -9.62228 -2.53505 0.000223614 4
6.75208 -12.282 -2.72436 0.00016806 1
8.07866 -14.695 -2.65599 0.000675168 10
8.08117 -14.6996 -2.05965 0.000688307 10
14.26 -25.9388 -1.55128 7.631e-05 10
14.2584 -25.9359 -0.516615 7.67514e-05 10
14.2559 -25.9315 0.516526 7.67678e-05 10
9.70138 -17.6468 1.05537 3.97794e-05 10
8.087 -14.7102 1.46864 0.000544987 10
7.89791 -14.3662 2.01294 0.000129559 10
8.03448 -14.6147 2.64147 0.000834229 10
8.03199 -14.6102 3.24079 0.000814482 10
7.83806 -14.2574 3.75619 0.000232914 10
8.07992 -14.6973 4.49402 0.000483682 10
4.79502 -8.65045 -2.65016 0.0002664 4
5.32864 -9.61312 -2.53752 0.000350116 4
6.80393 -12.2746 -2.72798 0.000168067 1
8.08648 -14.5884 -2.64181 0.000689521 10
8.09291 -14.6 -2.04964 0.000702922 10
14.3453 -25.8796 -1.55072 0.000118553 10
14.3326 -25.8567 -0.51603 0.000119211 10
14.3326 -25.8567 0.51603 0.000119209 10
9.77015 -17.6258 1.05615 3.97722e-05 10
8.08791 -14.591 1.45954 0.000556545 10
7.94954 -14.3413 2.01333 0.00012955 10
8.09078 -14.5962 2.64321 0.000343777 10
8.08872 -14.5924 3.2431 0.000335706 10
7.88659 -14.2278 3.75562 0.000232905 10
8.08007 -14.5768 4.46577 0.000494011 10
4.82231 -8.62851 -2.64858 0.000293049 4
5.36706 -9.60323 -2.53984 0.000219113 4
6.84124 -12.241 -2.72579 0.000168075 1
8.09382 -14.4822 -2.62767 0.000704049 10
8.09324 -14.4812 -2.03691 0.000717714 10
14.5162 -25.9736 -1.55938 7.55173e-05 10
14.5236 -25.9869 -0.519638 7.59548e-05 10
14.5176 -25.9761 0.519422 7.5971e-05 10
9.8225 -17.5753 1.05517 3.97651e-05 10
8.09951 -14.4924 1.4525 0.000568243 10
8.00291 -14.3195 2.01417 0.00012954 10
8.14493 -14.5736 2.64427 0.000526517 10
8.15052 -14.5836 3.24745 0.000514047 10
7.94056 -14.208 3.75769 0.000232896 10
8.09539 -14.485 4.44626 0.000504466 10
4.85165 -8.6103 -2.64817 0.000466228 4
5.39164 -9.56863 -2.53565 0.000318515 4
6.88029 -12.2105 -2.72435 0.000168082 1
8.10011 -14.3754 -2.61341 0.00071875 10
8.10365 -14.3817 -2.02688 0.000732683 10
14.5794 -25.8743 -1.55646 0.000116114 10
14.59 -25.893 -0.518775 0.00011676 10
14.5866 -25.887 0.518654 0.000116758 10
9.88572 -17.5443 1.05538 3.9758e-05 10
8.09801 -14.3717 1.44322 0.000580081 10
8.06073 -14.3055 2.01615 0.000129531 10
7.97884 -14.1602 3.75239 0.000232887 10
8.10346 -14.3813 4.4231 0.000515046 10
4.88712 -8.60289 -2.65112 0.000586133 4
5.42704 -9.55332 -2.5366 0.000345635 4
6.92588 -12.1918 -2.72553 0.00016809 1
8.11189 -14.2795 -2.60111 0.000733626 10
8.10441 -14.2664 -2.0146 0.000747829 10
14.7903 -26.0357 -1.56927 7.47465e-05 10
14.789 -26.0334 -0.522618 7.51803e-05 10
14.7886 -26.0326 0.522604 7.5196e-05 10
9.94528 -17.5069 1.05521 3.97508e-05 10
8.11059 -14.2772 1.43658 0.000592058 10
8.10431 -14.2662 2.01458 0.000129522 10
8.03423 -14.1428 3.7552 0.000232878 10
8.10974 -14.2757 4.3993 0.000525753 10
4.9154 -8.58276 -2.65019 0.000369675 4
5.4553 -9.5255 -2.53425 0.00031402 4
6.96158 -12.1556 -2.72287 0.000168097 1
8.11247 -14.1652 -2.58543 0.000748676 10
8.11572 -14.1708 -2.0051 0.000763152 10
12.3088 -21.4924 -2.16688 0.000216087 10
12.3063 -21.4881 -1.29775 0.000218413 10
12.3086 -21.4921 -0.432313 0.000219604 10
12.3101 -21.4947 0.432364 0.000219647 10
10.0145 -17.4863 1.05606 3.97438e-05 10
8.11831 -14.1754 1.42917 0.000604175 10
8.1123 -14.1649 2.00426 0.000595778 10
8.07538 -14.1004 3.7514 0.000232869 10
8.11306 -14.1662 4.37425 0.000536586 10
4.94351 -8.5624 -2.64922 0.000306406 4
5.4988 -9.5242 -2.539 0.000298216 4
7.00752 -12.1374 -2.72425 0.000168104 1
8.12302 -14.0695 -2.57312 0.000763899 10
8.12672 -14.0759 -1.99567 0.000778652 10
12.3088 -21.3194 -2.15376 0.000220981 10
12.3164 -21.3327 -1.29095 0.000223355 10
12.3173 -21.3341 -0.429997 0.000224572 10
12.3213 -21.3411 0.430138 0.000224616 10
10.0719 -17.445 1.05569 3.97366e-05 10
8.11624 -14.0577 1.42016 0.000616431 10
8.12464 -14.0723 1.99516 0.000607874 10
8.11558 -14.0566 3.74726 0.00036148 10
8.11848 -14.0616 4.35068 0.000547546 10
4.97389 -8.546 -2.6495 0.000549549 4
5.53271 -9.50615 -2.53932 0.000298227 4
7.05398 -12.12 -2.72585 0.000168112 1
8.12679 -13.9632 -2.55886 0.000779296 10
8.12643 -13.9626 -1.98362 0.000794328 10
12.393 -21.2933 -2.15547 0.000327865 10
12.3922 -21.292 -1.2911 0.000331317 10
12.3802 -21.2713 -0.429599 0.00033305 10
12.3913 -21.2904 0.429985 0.000333045 10
10.1314 -17.4075 1.05555 3.97296e-05 10
8.13719 -13.9811 1.41527 0.000628827 10
8.12511 -13.9603 1.9833 0.000620107 10
7.81256 -13.4233 2.45992 0.000682808 10
7.80009 -13.4019 3.01416 0.000667026 10
7.80404 -13.4087 3.58177 0.000648436 10
8.13507 -13.9774 4.3334 0.00055863 10
4.78764 -8.16035 -2.5351 0.000535102 4
5.55697 -9.47162 -2.53526 0.000230456 4
7.0973 -12.0971 -2.72625 0.000168119 1
8.13858 -13.8719 -2.54731 0.000794866 10
8.13446 -13.8649 -1.97375 0.000810179 10
12.484 -21.2785 -2.15837 0.000324532 10
12.4904 -21.2894 -1.29358 0.000327951 10
12.4948 -21.2969 -0.430994 0.000329668 10
12.4899 -21.2886 0.430826 0.000329663 10
10.1947 -17.3764 1.05582 3.97225e-05 10
8.1425 -13.8786 1.40776 0.000641362 10
8.13675 -13.8688 1.97431 0.000632477 10
7.8598 -13.3967 2.46005 0.0010029 10
7.86055 -13.398 3.01943 0.000979529 10
7.85655 -13.3912 3.5844 0.000952039 10
8.13152 -13.8598 4.30571 0.00056984 10
4.82227 -8.15402 -2.53835 0.000509106 4
5.59103 -9.45391 -2.53573 0.000286951 4
7.13903 -12.0714 -2.72608 0.000168126 1
8.13952 -13.7632 -2.53255 0.00081061 10
8.15097 -13.7825 -1.96607 0.000826208 10
12.5979 -21.3019 -2.16519 0.000321205 10
12.5892 -21.2871 -1.2961 0.000324592 10
12.5884 -21.2858 -0.431657 0.000326293 10
12.5993 -21.3043 0.432032 0.000326287 10
10.2644 -17.3562 1.05676 3.97155e-05 10
8.13897 -13.7623 1.39884 0.000654036 10
8.14161 -13.7667 1.96382 0.000644986 10
7.92267 -13.3965 2.46508 0.000993754 10
7.92102 -13.3937 3.02468 0.000970582 10
7.91889 -13.3901 3.5915 0.00094333 10
8.14583 -13.7739 4.2878 0.000581176 10
4.85338 -8.14163 -2.53975 0.000471959 4
5.63316 -9.44972 -2.53986 0.00029148 4
7.18468 -12.0524 -2.72743 0.000168134 1
8.15357 -13.6777 -2.52205 0.000826526 10
8.15515 -13.6804 -1.95555 0.000842412 10
8.14863 -13.6695 -1.39229 0.000564431 10
8.1564 -13.6825 -0.834811 0.000569843 10
8.15658 -13.6828 -0.27805 0.000572612 10
8.15522 -13.6805 0.278004 0.00057271 10
8.15485 -13.6799 0.834652 0.000570135 10
8.15149 -13.6743 1.39278 0.000666849 10
8.14834 -13.669 1.95392 0.00065763 10
7.99352 -13.4093 2.47254 0.000984618 10
7.99587 -13.4132 3.03537 0.000961647 10
7.99567 -13.4129 3.60506 0.000934631 10
8.14154 -13.6576 4.26043 0.000592637 10
4.87071 -8.10622 -2.53399 0.000531434 4
5.65532 -9.41203 -2.53502 0.000271154 4
7.22698 -12.0277 -2.72753 0.000168141 1
8.16319 -13.5858 -2.51034 0.000842616 10
8.16299 -13.5855 -1.94605 0.000858793 10
8.18916 -13.6291 -1.39108 0.000815647 10
8.19214 -13.634 -0.833592 0.00082331 10
8.18477 -13.6217 -0.277389 0.000827157 10
8.19439 -13.6378 0.277715 0.000827144 10
8.18155 -13.6164 0.832515 0.000823273 10
8.14985 -13.5636 1.3844 0.000679801 10
8.1551 -13.5724 1.94417 0.000670413 10
8.05204 -13.4008 2.47616 0.000975493 10
8.04908 -13.3959 3.0378 0.000952723 10
8.05437 -13.4047 3.61041 0.000925944 10
8.16204 -13.5839 4.24631 0.000604224 10
4.90321 -8.09616 -2.53618 0.000471987 4
5.68556 -9.38797 -2.53387 0.000286981 4
7.26802 -12.0009 -2.72719 0.000168148 1
8.16819 -13.4873 -2.49739 0.000858879 10
8.16927 -13.4891 -1.93631 0.00087535 10
8.25211 -13.6259 -1.39368 0.000808015 10
8.25089 -13.6238 -0.834726 0.000815611 10
8.2553 -13.6311 -0.278165 0.000819424 10
8.24962 -13.6218 0.277973 0.000819411 10
8.25177 -13.6253 0.834815 0.000815574 10
8.1647 -13.4815 1.37892 0.000692892 10
8.16785 -13.4867 1.93597 0.000683333 10
8.11854 -13.4053 2.48221 0.000966381 10
8.1242 -13.4147 3.04846 0.000943812 10
8.11767 -13.4039 3.61779 0.000917269 10
8.16536 -13.4826 4.22353 0.000615936 10
4.93421 -8.08354 -2.53761 0.000464567 4
5.71814 -9.36782 -2.5338 0.000305069 4
7.29885 -11.9574 -2.72308 0.000168156 1
8.17568 -13.3939 -2.48537 0.000875313 10
8.17012 -13.3848 -1.92543 0.00089208 10
8.16771 -13.3809 -1.37153 0.000597679 10
8.17198 -13.3879 -0.822011 0.00060339 10
8.17008 -13.3847 -0.273717 0.000606311 10
8.16685 -13.3794 0.273609 0.000606413 10
8.171 -13.3863 0.821912 0.000603694 10
8.17535 -13.3934 1.37282 0.00070612 10
8.16512 -13.3766 1.92425 0.000696388 10
8.1635 -13.374 2.48167 0.000683535 10
8.17336 -13.3901 3.04935 0.000667697 10
8.17257 -13.3888 3.62141 0.000649044 10
8.17509 -13.393 4.20435 0.000627772 10
4.96662 -8.07313 -2.53977 0.000501748 4
5.76243 -9.3667 -2.53893 0.0002983 4
7.34439 -11.9381 -2.72451 0.000168163 1
8.17966 -13.2959 -2.47246 0.00089192 10
8.17467 -13.2877 -1.91555 0.000908985 10
8.21061 -13.3462 -1.37091 0.000841288 10
8.22328 -13.3668 -0.822472 0.000849169 10
8.21804 -13.3582 -0.27376 0.000853124 10
8.22128 -13.3635 0.273868 0.000853111 10
8.21524 -13.3537 0.821668 0.00084913 10
8.17072 -13.2813 1.36424 0.000719486 10
8.17558 -13.2892 1.91577 0.00070958 10
8.18025 -13.2968 2.47263 0.000696497 10
8.17158 -13.2827 3.03137 0.000680375 10
8.17209 -13.2835 3.60062 0.000661387 10
8.17473 -13.2878 4.18029 0.000639733 10
4.9936 -8.05386 -2.53917 0.000505479 4
5.79318 -9.34344 -2.53809 0.000282491 4
7.38065 -11.9038 -2.72253 0.00016817 1
8.19228 -13.2128 -2.46231 0.000908698 10
8.18642 -13.2033 -1.9075 0.000926066 10
8.28771 -13.3667 -1.37598 0.000833264 10
8.2898 -13.3701 -0.824453 0.000841074 10
8.28819 -13.3675 -0.274541 0.000844994 10
8.28409 -13.3609 0.274405 0.000844982 10
8.29167 -13.3731 0.824639 0.000841036 10
8.18501 -13.2011 1.35893 0.00073299 10
8.18473 -13.2006 1.9071 0.000722909 10
8.18505 -13.2011 2.46014 0.000709593 10
8.17933 -13.1919 3.01714 0.000693184 10
8.18633 -13.2032 3.58657 0.000673858 10
8.1882 -13.2062 4.16358 0.000651819 10
5.02649 -8.04407 -2.5416 0.000701489 4
5.82807 -9.32687 -2.5391 0.000266681 4
7.43698 -11.9016 -2.72797 0.000168178 1
8.19354 -13.1124 -2.44892 0.000925647 10
8.19828 -13.12 -1.89958 0.000943319 10
8.18469 -13.0982 -1.35128 0.000631979 10
8.18478 -13.0984 -0.809456 0.000637997 10
8.18399 -13.0971 -0.269573 0.000641075 10
8.19409 -13.1133 0.269906 0.00064118 10
8.19223 -13.1103 0.810192 0.000638312 10
8.18515 -13.099 1.35135 0.000746632 10
8.1852 -13.0991 1.89655 0.000736372 10
8.189 -13.1051 2.44756 0.000722822 10
8.18882 -13.1048 3.00375 0.000706124 10
8.18505 -13.0988 3.56596 0.000686457 10
8.18245 -13.0947 4.13739 0.000664028 10
5.05267 -8.02351 -2.54066 0.00109933 4
5.85183 -9.29255 -2.5353 0.000307372 4
7.47369 -11.868 -2.72622 0.000168185 1
8.20625 -13.0313 -2.43911 0.000942767 10
8.19351 -13.0111 -1.88794 0.000960745 10
8.24597 -13.0944 -1.35384 0.00086815 10
8.24836 -13.0982 -0.811218 0.000876258 10
8.24822 -13.0979 -0.270181 0.000880328 10
8.23954 -13.0842 0.269897 0.000880314 10
8.23715 -13.0804 0.810115 0.000876218 10
8.19726 -13.017 1.34584 0.000760409 10
8.20259 -13.0255 1.89003 0.00074997 10
8.18812 -13.0025 2.43372 0.000736183 10
8.19748 -13.0174 2.99024 0.000719194 10
8.19586 -13.0148 3.55085 0.000699183 10
8.19766 -13.0177 4.12208 0.000676361 10
5.09895 -8.03467 -2.54982 0.00111521 4
5.89374 -9.28705 -2.5394 0.000314163 4
7.51325 -11.839 -2.72556 0.000168192 1
8.20017 -12.9214 -2.42388 0.000960056 10
8.21162 -12.9394 -1.88169 0.000978345 10
8.31182 -13.0973 -1.35714 0.000859712 10
8.30661 -13.0891 -0.812447 0.000867746 10
8.31094 -13.096 -0.270737 0.000871778 10
8.30497 -13.0865 0.270542 0.000871765 10
8.30135 -13.0808 0.811933 0.000867706 10
8.20998 -12.9369 1.34051 0.000774324 10
8.20249 -12.9251 1.8796 0.000763704 10
8.20484 -12.9288 2.42526 0.000749678 10
8.20365 -12.9269 2.97601 0.000732394 10
8.19588 -12.9146 3.53131 0.000712036 10
8.19475 -12.9129 4.09792 0.000688817 10
5.13839 -8.03468 -2.5555 0.0014667 4
5.92524 -9.26504 -2.53902 0.000237326 4
7.55663 -11.816 -2.72632 0.000168199 1
8.20726 -12.8333 -2.41272 0.000977516 10
8.20774 -12.8341 -1.87052 0.000996119 10
8.21644 -12.8477 -1.33423 0.000667322 10
8.20635 -12.8319 -0.798256 0.000673655 10
8.20403 -12.8283 -0.265794 0.000676893 10
8.21565 -12.8465 0.26617 0.000677003 10
8.20801 -12.8345 0.798417 0.000673982 10
8.21396 -12.8438 1.33383 0.000788375 10
8.20748 -12.8337 1.87047 0.000777573 10
8.19996 -12.8219 2.41057 0.000763305 10
8.20559 -12.8307 2.96045 0.000745724 10
8.20012 -12.8222 3.51383 0.000725015 10
8.2091 -12.8362 4.08267 0.000701397 10
5.18295 -8.04237 -2.56368 0.000970161 4
5.95785 -9.24478 -2.53915 0.000275759 4
7.5973 -11.7887 -2.72613 0.000168207 1
8.22017 -12.7552 -2.40341 0.000995145 10
8.20966 -12.7389 -1.86082 0.00101406 10
8.25286 -12.8059 -1.33288 0.000896332 10
8.25952 -12.8163 -0.799071 0.000904678 10
8.26602 -12.8264 -0.26635 0.000908867 10
8.26623 -12.8267 0.266357 0.000908853 10
8.26623 -12.8267 0.79972 0.000904637 10
8.21503 -12.7472 1.32677 0.000802562 10
8.20836 -12.7369 1.86052 0.000791575 10
8.21382 -12.7454 2.40156 0.000777065 10
8.21557 -12.7481 2.94798 0.000759183 10
8.21557 -12.7481 3.50136 0.000738122 10
8.22036 -12.7555 4.0661 0.0007141 10
5.21743 -8.03414 -2.56685 0.00109159 4
5.9786 -9.20624 -2.53428 0.000275769 4
7.64045 -11.7653 -2.72686 0.000168214 1
8.22594 -12.6668 -2.39216 0.00101294 10
8.22615 -12.6672 -1.85452 0.00103218 10
8.3222 -12.8151 -1.33684 0.000887454 10
8.3245 -12.8186 -0.801023 0.000895722 10
8.31995 -12.8116 -0.266645 0.000899871 10
8.32932 -12.826 0.266945 0.000899858 10
8.32059 -12.8126 0.800647 0.00089568 10
8.2141 -12.6486 1.31948 0.000816885 10
8.22187 -12.6606 1.85356 0.000805712 10
8.21726 -12.6535 2.38963 0.000790956 10
8.21745 -12.6538 2.93279 0.000772772 10
8.21888 -12.656 3.48392 0.000751354 10
8.21296 -12.6469 4.04058 0.000726924 10
5.26306 -8.04279 -2.57547 0.000984037 4
6.0142 -9.19066 -2.53576 0.000239611 4
7.68204 -11.7394 -2.72706 0.000168221 1
8.22941 -12.5759 -2.38038 0.00103091 10
8.23331 -12.5818 -1.84622 0.00105047 10
8.22995 -12.5767 -1.31497 0.0007037 10
8.23481 -12.5841 -0.788161 0.000710358 10
8.22494 -12.569 -0.262192 0.000713761 10
8.22395 -12.5675 0.262161 0.000713875 10
8.21938 -12.5605 0.786685 0.000710697 10
8.23298 -12.5813 1.31545 0.000831342 10
8.22598 -12.5706 1.84458 0.000819981 10
8.2326 -12.5807 2.38131 0.000804978 10
8.22623 -12.571 2.92024 0.00078649 10
8.22476 -12.5688 3.46779 0.000764711 10
8.22826 -12.5741 4.02649 0.000739871 10
5.30189 -8.04073 -2.58072 0.000622553 4
6.0445 -9.16696 -2.53502 0.000379773 4
7.7133 -11.6978 -2.72364 0.000168228 1
8.23589 -12.4904 -2.36963 0.00104904 10
8.22696 -12.4768 -1.83502 0.00106893 10
8.27282 -12.5464 -1.31481 0.000925942 10
8.26855 -12.5399 -0.787196 0.000934537 10
8.26991 -12.542 -0.262229 0.000938852 10
8.27897 -12.5557 0.262516 0.000938837 10
8.28041 -12.5579 0.788326 0.000934494 10
8.22646 -12.4761 1.30744 0.000845933 10
8.23886 -12.4949 1.83768 0.000834384 10
8.22719 -12.4772 2.36713 0.000819131 10
8.23445 -12.4882 2.90767 0.000800335 10
8.23614 -12.4908 3.45419 0.000778193 10
8.23271 -12.4856 4.00731 0.00075294 10
5.34435 -8.04389 -2.5877 0.000192501 4
6.08572 -9.15975 -2.53889 0.000219282 4
7.75966 -11.6792 -2.7256 0.000168235 1
8.23411 -12.3933 -2.35666 0.00106734 10
8.23983 -12.4019 -1.82822 0.00108755 10
8.33755 -12.549 -1.31813 0.000916599 10
8.34241 -12.5563 -0.790051 0.000925112 10
8.33235 -12.5412 -0.262819 0.000929385 10
8.33766 -12.5492 0.262986 0.000929371 10
8.33679 -12.5479 0.789518 0.00092507 10
8.23737 -12.3982 1.30229 0.000860659 10
8.24161 -12.4046 1.82862 0.00084892 10
8.24521 -12.41 2.35984 0.000833414 10
8.24206 -12.4053 2.89505 0.000814308 10
8.23702 -12.3977 3.43638 0.000791801 10
8.23645 -12.3969 3.98804 0.000766129 10
5.37929 -8.03549 -2.59103 0.00119617 4
6.11478 -9.13415 -2.53769 0.00031876 4
7.79475 -11.6437 -2.72364 0.000168242 1
8.24876 -12.3219 -2.34853 0.00108581 10
8.2458 -12.3174 -1.82 0.00110635 10
8.25308 -12.3283 -1.29796 0.000741103 10
8.25316 -12.3284 -0.777518 0.000748092 10
8.24735 -12.3197 -0.25878 0.000751665 10
8.24021 -12.3091 0.258556 0.000751782 10
8.24439 -12.3153 0.776692 0.000748444 10
7.92312 -11.8354 1.24607 0.000979251 10
7.92496 -11.8382 1.74918 0.000966014 10
7.92442 -11.8374 2.25618 0.00094853 10
7.91202 -11.8188 2.76461 0.000926982 10
7.91869 -11.8288 3.28633 0.000901594 10
7.92197 -11.8337 3.81575 0.000872629 10
5.42606 -8.04447 -2.60001 0.00125449 4
6.14298 -9.10735 -2.53619 0.000255469 4
7.83138 -11.6105 -2.72226 0.00016825 1
8.24954 -12.2304 -2.33658 0.00110444 10
8.25712 -12.2417 -1.81306 0.00112531 10
8.28684 -12.2857 -1.29652 0.000957104 10
8.2893 -12.2894 -0.776877 0.000965962 10
8.28958 -12.2898 -0.258757 0.000970407 10
8.28578 -12.2842 0.258638 0.000970392 10
8.28588 -12.2843 0.776556 0.000965917 10
7.92091 -11.7432 1.23927 0.00099588 10
7.92703 -11.7523 1.74057 0.00098243 10
7.92151 -11.7441 2.24367 0.000964665 10
7.91729 -11.7379 2.75212 0.000942769 10
7.91633 -11.7365 3.26833 0.000916971 10
7.92313 -11.7465 3.79654 0.000887538 10
5.46385 -8.03982 -2.60466 0.00118207 4
6.17146 -9.08103 -2.53484 0.000278087 4
7.8759 -11.589 -2.72365 0.000168257 1
8.25228 -12.1429 -2.32534 0.00112324 10
8.26516 -12.1618 -1.80549 0.00114445 10
8.35064 -12.2876 -1.29978 0.000947267 10
8.34894 -12.2851 -0.778443 0.000956038 10
8.35562 -12.2949 -0.259477 0.00096044 10
8.34473 -12.2789 0.259139 0.000960425 10
8.35508 -12.2941 0.779015 0.000955993 10
7.96291 -11.7171 1.23943 0.00127446 10
7.95973 -11.7124 1.73877 0.00125703 10
7.96546 -11.7208 2.24452 0.00123409 10
7.95921 -11.7116 2.75246 0.00120587 10
7.95962 -11.7122 3.26931 0.00117266 10
7.96008 -11.7129 3.79463 0.00113482 10
5.50713 -8.04296 -2.61189 0.00109256 4
6.21373 -9.07492 -2.53918 0.000366273 4
7.92324 -11.5716 -2.72604 0.000168264 1
8.27239 -12.0815 -2.31911 0.0011422 10
8.26603 -12.0722 -1.79646 0.00116375 10
8.25545 -12.0568 -1.27841 0.00118015 10
8.25872 -12.0616 -0.7661 0.00119125 10
8.26748 -12.0744 -0.25543 0.00119692 10
8.26689 -12.0735 0.255411 0.0011971 10
8.26008 -12.0635 0.766226 0.0011918 10
8.01884 -11.7112 1.24177 0.00126139 10
8.02133 -11.7149 1.74328 0.00124413 10
8.0278 -11.7243 2.25054 0.00122141 10
8.02348 -11.718 2.76053 0.00119346 10
8.0283 -11.725 3.28068 0.00116058 10
8.03111 -11.7291 3.80895 0.0011231 10
5.5524 -8.04867 -2.62002 0.00115909 4
6.23398 -9.03667 -2.53455 0.000241929 4
7.95921 -11.5375 -2.72454 0.000168271 1
8.26959 -11.9875 -2.30658 0.00116133 10
8.26926 -11.987 -1.78806 0.00118321 10
8.26597 -11.9822 -1.27355 0.00119988 10
8.27066 -11.989 -0.763321 0.00121115 10
8.26673 -11.9833 -0.254113 0.0012169 10
8.27217 -11.9912 0.25428 0.00121709 10
8.25928 -11.9725 0.76227 0.0012117 10
8.09057 -11.7279 1.24653 0.00124834 10
8.09313 -11.7317 1.74997 0.00123125 10
8.08855 -11.725 2.25608 0.00120876 10
8.08581 -11.7211 2.76788 0.00118108 10
8.08955 -11.7265 3.28897 0.00114852 10
8.08812 -11.7244 3.81656 0.00111142 10
5.58539 -8.03633 -2.62233 0.00120794 4
6.26439 -9.01327 -2.5341 0.000748557 4
8.00184 -11.5131 -2.72536 0.000168278 1
8.27712 -11.9092 -2.29707 0.00118062 10
8.27775 -11.9101 -1.78089 0.00120284 10
8.27285 -11.9031 -1.2682 0.00121977 10
8.27414 -11.9049 -0.759802 0.00123121 10
8.27581 -11.9073 -0.253113 0.00123706 10
8.27732 -11.9095 0.253159 0.00123725 10
8.26561 -11.8927 0.759019 0.00123178 10
8.15064 -11.7272 1.24947 0.00123534 10
8.15506 -11.7336 1.7545 0.00121842 10
8.1537 -11.7316 2.26281 0.00119614 10
8.1592 -11.7396 2.77896 0.00116874 10
8.15407 -11.7322 3.29853 0.0011365 10
8.14937 -11.7254 3.82612 0.00109976 10
5.63535 -8.04811 -2.63258 0.00102409 4
6.32234 -9.02923 -2.54478 0.000771922 4
8.0394 -11.4815 -2.72449 0.000168285 1
8.27934 -11.8241 -2.28621 0.00120007 10
8.27907 -11.8237 -1.77229 0.00122264 10
8.28739 -11.8356 -1.26409 0.00123982 10
8.2744 -11.8171 -0.756034 0.00125145 10
8.28484 -11.832 -0.252124 0.00125739 10
8.27497 -11.8179 0.251824 0.00125758 10
8.27339 -11.8156 0.755942 0.00125202 10
8.21417 -11.7311 1.25292 0.00122237 10
8.21106 -11.7266 1.75773 0.00120562 10
8.20774 -11.7219 2.26644 0.00118356 10
8.22257 -11.743 2.78656 0.00115643 10
8.2093 -11.7241 3.30429 0.00112452 10
8.20911 -11.7238 3.83493 0.00108815 10
5.6688 -8.03603 -2.63509 0.00113295 4
6.36129 -9.01771 -2.54778 0.000656281 4
8.08619 -11.4629 -2.72677 0.000168292 1
8.29472 -11.7585 -2.27911 0.00121968 10
8.27832 -11.7353 -1.76335 0.0012426 10
8.28236 -11.741 -1.25706 0.00126005 10
8.28911 -11.7506 -0.753625 0.00127185 10
8.27902 -11.7363 -0.250699 0.00127788 10
8.29283 -11.7558 0.251117 0.00127807 10
8.28774 -11.7486 0.753501 0.00127243 10
8.28698 -11.7475 1.25777 0.00120944 10
8.27134 -11.7254 1.76186 0.00119285 10
8.28093 -11.739 2.27533 0.00117102 10
8.28318 -11.7422 2.79319 0.00114416 10
8.28665 -11.7471 3.31891 0.00111257 10
8.28629 -11.7466 3.8518 0.00107656 10
5.71365 -8.03989 -2.64288 0.00107849 4
6.41485 -9.02658 -2.55659 0.000692249 4
8.1217 -11.4283 -2.72527 0.000168299 1
8.35019 -11.7499 -2.28307 0.00148603 10
8.35194 -11.7523 -1.77028 0.0015137 10
8.35143 -11.7516 -1.26131 0.00153471 10
8.34784 -11.7466 -0.755233 0.00154883 10
8.33641 -11.7305 -0.251195 0.00155592 10
8.34167 -11.7379 0.251353 0.0015559 10
8.34753 -11.7461 0.755204 0.00154876 10
8.34049 -11.7362 1.25966 0.00119654 10
8.3382 -11.733 1.76737 0.00118012 10
8.33596 -11.7298 2.27918 0.00115851 10
8.33826 -11.7331 2.79794 0.00113193 10
8.35174 -11.752 3.32852 0.00110065 10
8.33867 -11.7337 3.85709 0.00106501 10
5.76868 -8.05762 -2.65531 0.00122911 4
6.45369 -9.01442 -2.55951 0.000753072 4
