VERSION 0.7
FIELDS x y z intensity label
SIZE 4 4 4 4 4
TYPE F F F F F
COUNT 1 1 1 1 1
WIDTH 1180
HEIGHT 1
VIEWPOINT 0.0579901 3.90339 2.72859 0.728423 0.000575467 0.000547167 -0.685127
POINTS 1180
DATA ascii
8.51641 -10.9005 0.241455 0.00167952 10
8.53118 -10.9194 0.726211 0.0016719 10
8.03613 -10.2858 1.14198 0.00134513 10
8.0336 -10.2825 1.60218 0.00132746 10
8.03399 -10.283 2.06682 0.00130404 10
8.02646 -10.2734 2.53416 0.00127512 10
8.0163 -10.2604 3.00605 0.00124099 10
8.02491 -10.2714 3.49261 0.00120199 10
6.27274 -7.97124 -2.71791 0.000515962 1
7.28046 -9.25181 -2.71799 0.000312478 1
8.36434 -10.6292 -2.62911 0.00148051 10
8.37048 -10.637 -2.14382 0.0015153 10
8.36947 -10.6357 -1.66175 0.00154369 10
8.5817 -10.9054 -1.21409 0.00163771 10
8.59454 -10.9217 -0.728355 0.00165269 10
8.59608 -10.9237 -0.242631 0.00166022 10
8.59168 -10.9181 0.242507 0.00166022 10
8.59609 -10.9237 0.728486 0.00165269 10
8.03846 -10.2151 1.13723 0.00136476 10
8.02742 -10.201 1.59384 0.00134684 10
8.02786 -10.2016 2.05607 0.0013231 10
8.02934 -10.2035 2.52381 0.00129377 10
8.02795 -10.2017 2.99705 0.00125916 10
8.03302 -10.2081 3.48061 0.00121963 10
6.29196 -7.93848 -2.71421 0.000515991 1
7.3053 -9.21699 -2.71523 0.000312499 1
8.37608 -10.568 -2.62119 0.00150219 10
8.38023 -10.5732 -2.13685 0.00153747 10
8.37718 -10.5694 -1.65595 0.00156624 10
8.66012 -10.9264 -1.21978 0.00161873 10
8.64591 -10.9084 -0.729477 0.00163355 10
8.65213 -10.9163 -0.243136 0.001641 10
8.66062 -10.927 0.243375 0.001641 10
8.65531 -10.9203 0.73027 0.00163354 10
8.03886 -10.1425 1.13227 0.00138452 10
8.03189 -10.1337 1.58769 0.00136635 10
8.02862 -10.1296 2.04719 0.00134228 10
8.03523 -10.1379 2.51452 0.00131255 10
8.02829 -10.1292 2.98395 0.00127746 10
8.02656 -10.127 3.46248 0.00123738 10
6.32007 -7.91702 -2.7144 0.000516019 1
7.34605 -9.20224 -2.71842 0.000312519 1
8.37263 -10.4882 -2.60864 0.00152401 10
8.38183 -10.4997 -2.1279 0.00155978 10
8.37521 -10.4914 -1.64831 0.00158894 10
8.71209 -10.9134 -1.22172 0.00159983 10
8.72086 -10.9244 -0.732579 0.00161449 10
8.72485 -10.9294 -0.244106 0.00162185 10
8.71745 -10.9202 0.243899 0.00162185 10
8.72813 -10.9335 0.733189 0.00161448 10
8.0482 -10.0818 1.12863 0.0014044 10
8.03036 -10.0595 1.58044 0.00138599 10
8.04289 -10.0752 2.04185 0.00136159 10
8.03123 -10.0605 2.50227 0.00133145 10
8.02952 -10.0584 2.97134 0.00129588 10
8.03904 -10.0703 3.45268 0.00125525 10
6.35051 -7.89844 -2.71562 0.000516047 1
7.36239 -9.15696 -2.71262 0.000312539 1
8.38179 -10.4248 -2.60014 0.00154598 10
8.37689 -10.4188 -2.1174 0.00158223 10
8.37434 -10.4156 -1.64097 0.0016118 10
8.78281 -10.9236 -1.22629 0.00158101 10
8.7762 -10.9154 -0.734022 0.0015955 10
8.7879 -10.9299 -0.244801 0.00160278 10
8.77746 -10.917 0.24451 0.00160278 10
8.79101 -10.9338 0.735261 0.00159549 10
8.03576 -9.99447 1.12198 0.00142442 10
8.04238 -10.0027 1.57592 0.00140576 10
8.04044 -10.0003 2.03235 0.00138102 10
8.03541 -9.99403 2.49268 0.00135047 10
8.03931 -9.99888 2.96203 0.00131442 10
8.04607 -10.0073 3.44067 0.00127323 10
6.38408 -7.88368 -2.71818 0.000516075 1
7.39668 -9.13414 -2.7135 0.000312559 1
8.38599 -10.3558 -2.59021 0.00156809 10
8.39241 -10.3638 -2.11216 0.00160483 10
8.38385 -10.3532 -1.63574 0.0016348 10
8.849 -10.9276 -1.2302 0.00156227 10
8.8567 -10.9371 -0.737558 0.00157659 10
8.8534 -10.933 -0.245561 0.0015838 10
8.84312 -10.9203 0.245276 0.00158379 10
8.8583 -10.9391 0.737691 0.00157659 10
8.05554 -9.94776 1.11989 0.00144457 10
8.05711 -9.94971 1.572 0.00142565 10
8.04784 -9.93826 2.02544 0.00140058 10
8.04518 -9.93498 2.48494 0.00136962 10
8.05174 -9.94308 2.95381 0.00133308 10
8.04299 -9.93227 3.42451 0.00129133 10
6.41447 -7.86492 -2.71942 0.000516103 1
7.44084 -9.12338 -2.718 0.000312579 1
8.39444 -10.2926 -2.58171 0.00159035 10
8.39334 -10.2913 -2.10334 0.00162758 10
8.41365 -10.3162 -1.63452 0.000300821 10
12.7458 -15.6279 -1.76434 0.000550246 10
12.7445 -15.6264 -1.05678 0.000511013 10
12.7525 -15.6361 -0.352191 0.00051372 10
12.7457 -15.6277 0.352003 0.00051389 10
12.7488 -15.6316 1.05713 0.000511522 10
8.04397 -9.86289 1.11349 0.00146484 10
8.04471 -9.86379 1.56285 0.00144567 10
8.05025 -9.87059 2.01737 0.00142027 10
8.05809 -9.88019 2.47826 0.00138889 10
8.04766 -9.8674 2.93965 0.00135186 10
8.05792 -9.87999 3.41616 0.00130955 10
6.43172 -7.83011 -2.71513 0.000516131 1
7.45802 -9.07955 -2.71268 0.000312599 1
8.40673 -10.2345 -2.57448 0.00161275 10
8.39928 -10.2255 -2.09587 0.00165047 10
8.45637 -10.295 -1.63583 0.000300857 10
12.7511 -15.5234 -1.75755 0.000513605 10
12.7609 -15.5354 -1.05363 0.000518891 10
12.7515 -15.5239 -0.350665 0.000521636 10
12.7601 -15.5344 0.350903 0.000521809 10
12.753 -15.5257 1.05297 0.000519406 10
8.05128 -9.80179 1.10976 0.00148524 10
8.04844 -9.79834 1.55692 0.00146581 10
8.06043 -9.81293 2.01132 0.00144007 10
8.06099 -9.81361 2.4686 0.00140828 10
8.04619 -9.7956 2.92661 0.00137075 10
8.05461 -9.80584 3.40022 0.00132788 10
6.45523 -7.80304 -2.71354 0.000516158 1
7.49155 -9.05573 -2.71336 0.000312619 1
8.41047 -10.1665 -2.56474 0.00163528 10
8.40058 -10.1546 -2.08734 0.00167351 10
8.49037 -10.2631 -1.63547 0.000300894 10
12.7721 -15.4388 -1.75301 0.000556374 10
12.781 -15.4496 -1.05083 0.000561908 10
12.7775 -15.4453 -0.349896 0.00056469 10
12.7799 -15.4483 0.349962 0.000564689 10
12.7755 -15.4429 1.05037 0.000561905 10
8.06106 -9.74415 1.10641 0.00150576 10
8.06677 -9.75105 1.55387 0.00148608 10
8.06666 -9.75092 2.00437 0.00146 10
8.05731 -9.73962 2.45705 0.00142778 10
8.05234 -9.73361 2.91647 0.00138977 10
8.05728 -9.73958 3.38698 0.00134633 10
6.48444 -7.78286 -2.71438 0.000516186 1
7.53416 -9.04278 -2.71734 0.000312639 1
8.41106 -10.0953 -2.55416 0.00165796 10
8.40372 -10.0865 -2.07936 0.00169668 10
8.51289 -10.2175 -1.63293 0.000300931 10
12.8753 -15.4534 -1.75976 0.000549019 10
12.8678 -15.4444 -1.05353 0.000554485 10
12.8735 -15.4513 -0.351047 0.000557233 10
12.8635 -15.4393 0.350773 0.000557232 10
12.8583 -15.433 1.05275 0.000554482 10
8.06889 -9.68459 1.10284 0.00152641 10
8.06678 -9.68205 1.54735 0.00150647 10
8.0569 -9.67019 1.99354 0.00148004 10
8.06106 -9.67519 2.44788 0.00144741 10
8.05436 -9.66715 2.90497 0.00140889 10
8.06518 -9.68013 3.37607 0.00136489 10
6.51183 -7.7605 -2.71449 0.000516214 1
7.5646 -9.01514 -2.71696 0.000312659 1
8.41279 -10.026 -2.54405 0.00168077 10
8.40276 -10.014 -2.07046 0.00172 10
8.55044 -10.19 -1.63329 0.000300967 10
12.9712 -15.4585 -1.76549 0.000541705 10
12.9575 -15.4421 -1.05645 0.000547102 10
12.9586 -15.4435 -0.351895 0.000549816 10
12.9606 -15.4458 0.351948 0.000549815 10
12.9632 -15.449 1.05692 0.000547099 10
8.06443 -9.61081 1.09763 0.00154718 10
8.0715 -9.61924 1.54181 0.00152698 10
8.06465 -9.61108 1.98715 0.00150021 10
8.07016 -9.61765 2.44043 0.00146715 10
8.06388 -9.61016 2.89628 0.00142813 10
8.06404 -9.61035 3.36153 0.00138356 10
6.54233 -7.7418 -2.71592 0.000516241 1
7.59022 -8.98181 -2.71488 0.000312679 1
8.4108 -9.95283 -2.53292 0.00170372 10
8.42086 -9.96474 -2.06634 0.00174345 10
13.0593 -15.4536 -2.48425 0.000526512 10
13.0689 -15.4649 -1.77142 0.000534432 10
13.0563 -15.45 -1.0601 0.000539761 10
13.0557 -15.4493 -0.353063 0.000542441 10
13.0592 -15.4534 0.353158 0.00054244 10
13.0631 -15.4581 1.06066 0.000539758 10
8.0728 -9.55287 1.09423 0.00156807 10
8.07254 -9.55257 1.53563 0.00154761 10
8.0689 -9.54825 1.97997 0.00152049 10
8.07246 -9.55246 2.43103 0.00148701 10
8.07209 -9.55202 2.88723 0.00144749 10
8.06387 -9.5423 3.34756 0.00140233 10
6.56256 -7.71098 -2.71313 0.000516269 1
7.61909 -8.9524 -2.71401 0.000312699 1
8.41349 -9.88582 -2.52333 0.0017268 10
8.41225 -9.88436 -2.05575 0.00176704 10
13.1581 -15.4607 -2.49277 0.000519381 10
13.158 -15.4606 -1.77618 0.000527199 10
13.1531 -15.4549 -1.06358 0.000532462 10
13.1565 -15.4588 -0.354328 0.000535108 10
13.1684 -15.4729 0.35465 0.000535107 10
13.1666 -15.4707 1.06467 0.000532459 10
8.07591 -9.48916 1.09015 0.00158908 10
8.07602 -9.4893 1.52998 0.00156835 10
8.07152 -9.48401 1.97248 0.00154089 10
8.06994 -9.48215 2.42029 0.00150698 10
8.07691 -9.49033 2.87709 0.00146695 10
8.07203 -9.4846 3.33718 0.00142122 10
6.59168 -7.69065 -2.71405 0.000516296 1
7.64854 -8.92371 -2.71339 0.000312718 1
8.42798 -9.8331 -2.51736 0.00175001 10
8.41277 -9.81535 -2.04749 0.00179076 10
13.264 -15.4753 -2.50257 0.000512291 10
13.262 -15.473 -1.78291 0.00052001 10
13.2526 -15.4621 -1.06725 0.000525205 10
13.2658 -15.4775 -0.355815 0.000527817 10
13.2493 -15.4582 0.355372 0.000527816 10
13.2508 -15.46 1.06711 0.000525202 10
8.07511 -9.42139 1.0856 0.0016102 10
8.07015 -9.41561 1.52263 0.00158922 10
8.07196 -9.41772 1.96454 0.00156141 10
8.07495 -9.42121 2.41191 0.00152706 10
8.07674 -9.4233 2.8653 0.00148653 10
8.0732 -9.41916 3.32405 0.00144021 10
6.62546 -7.67567 -2.71691 0.000516323 1
7.68604 -8.90436 -2.71565 0.000312738 1
8.43515 -9.77222 -2.5093 0.00177336 10
8.4305 -9.76683 -2.04349 0.00181462 10
13.4376 -15.5676 -2.52506 8.5778e-05 10
13.5175 -15.6602 -1.8099 0.000493875 10
18.3778 -21.2909 -1.47399 0.000182601 10
18.3891 -21.304 -0.491235 0.000183601 10
18.3765 -21.2894 0.490899 0.0001836 10
8.09178 -9.37442 1.08344 0.00163145 10
8.08696 -9.36884 1.51963 0.0016102 10
8.08623 -9.368 1.96005 0.00158204 10
8.08033 -9.36116 2.40375 0.00154726 10
8.08478 -9.36631 2.85654 0.00150621 10
8.08106 -9.362 3.31381 0.00145931 10
6.65353 -7.65402 -2.71745 0.00051635 1
7.71024 -8.86962 -2.71325 0.000312757 1
8.42712 -9.69429 -2.49683 0.00179683 10
8.42564 -9.6926 -2.0341 0.00183862 10
13.4892 -15.5175 -2.52456 8.57893e-05 10
13.6135 -15.6605 -1.81542 0.000487011 10
18.5181 -21.3027 -1.47928 0.000179824 10
18.508 -21.2911 -0.492424 0.000180809 10
18.5255 -21.3111 0.492887 0.000180809 10
8.09254 -9.30941 1.07918 0.00165281 10
8.09574 -9.31309 1.51516 0.00163129 10
8.08509 -9.30083 1.95189 0.00160278 10
8.09386 -9.31092 2.39809 0.00156756 10
8.09278 -9.30968 2.84786 0.001526 10
8.08592 -9.30179 3.30247 0.00147852 10
6.67193 -7.62128 -2.71408 0.000516377 1
7.7481 -8.85058 -2.71568 0.000312777 1
8.43344 -9.63344 -2.48872 0.00182044 10
8.42925 -9.62865 -2.02685 0.00186274 10
13.5503 -15.4784 -2.52587 8.58005e-05 10
13.734 -15.6883 -1.82419 0.000480189 10
18.664 -21.3197 -1.48498 0.000177067 10
18.6615 -21.3168 -0.494523 0.000178038 10
18.6588 -21.3137 0.494451 0.000178038 10
8.08832 -9.23922 1.07431 0.00167429 10
8.09841 -9.25074 1.5096 0.0016525 10
8.08393 -9.2342 1.94381 0.00162363 10
8.08978 -9.24088 2.38731 0.00158798 10
8.08857 -9.2395 2.83501 0.0015459 10
8.08241 -9.23246 3.28785 0.00149783 10
6.70475 -7.60505 -2.71662 0.000516404 1
7.78209 -8.82705 -2.71678 0.000312796 1
8.44583 -9.57992 -2.4825 0.00184417 10
8.42839 -9.56013 -2.0186 0.00188699 10
13.5954 -15.4209 -2.52423 8.58117e-05 10
13.8336 -15.6911 -1.83013 0.00047341 10
18.7883 -21.3112 -1.48894 0.00017433 10
18.7944 -21.318 -0.49607 0.000175288 10
18.7851 -21.3075 0.495824 0.000175287 10
8.08947 -9.1757 1.0702 0.00169588 10
8.10212 -9.19005 1.50431 0.00167382 10
8.10077 -9.18853 1.94014 0.0016446 10
8.09396 -9.1808 2.37907 0.00160851 10
8.08507 -9.17072 2.82255 0.00156591 10
8.08692 -9.17281 3.27664 0.00151724 10
6.7283 -7.57826 -2.71542 0.000516431 1
7.81073 -8.79744 -2.71604 0.000312815 1
8.44056 -9.50683 -2.47118 0.00186802 10
8.45002 -9.51749 -2.01582 0.00191137 10
13.6605 -15.3862 -2.52633 8.58228e-05 10
13.9282 -15.6877 -1.83539 0.000466673 10
18.93 -21.3214 -1.49426 0.000171614 10
18.9283 -21.3195 -0.497639 0.000172557 10
18.9269 -21.3179 0.497601 0.000172557 10
8.10168 -9.12515 1.0676 0.00171758 10
8.09334 -9.11575 1.49676 0.00169525 10
8.1055 -9.12945 1.93363 0.00166567 10
8.09678 -9.11962 2.37053 0.00162914 10
8.09784 -9.12082 2.81588 0.00158602 10
8.09435 -9.11689 3.26674 0.00153675 10
6.75186 -7.55155 -2.71428 0.000516458 1
7.83831 -8.76667 -2.71497 0.000312835 1
8.43803 -9.43742 -2.46077 0.001892 10
8.45033 -9.45117 -2.008 0.00193587 10
13.7104 -15.3342 -2.52564 8.58339e-05 10
14.0264 -15.6877 -1.8411 0.00045998 10
19.0779 -21.3375 -1.50005 0.000168918 10
19.0748 -21.334 -0.499529 0.000169848 10
19.0808 -21.3407 0.499684 0.000169847 10
8.1054 -9.0654 1.06391 0.000210447 10
8.11111 -9.07178 1.49418 0.00171679 10
8.10002 -9.05938 1.92476 0.00168685 10
8.10412 -9.06397 2.3634 0.00164987 10
8.09242 -9.05088 2.80299 0.00160623 10
8.10762 -9.06788 3.2593 0.00155637 10
6.77699 -7.52662 -2.71381 0.000516485 1
7.86487 -8.73482 -2.71359 0.000312854 1
8.45481 -9.39002 -2.4561 0.0019161 10
8.45074 -9.3855 -2.00031 0.0019605 10
13.7685 -15.2915 -2.5265 8.58451e-05 10
14.1469 -15.7117 -1.84971 0.000453332 10
19.2139 -21.3392 -1.50487 0.000166243 10
19.2225 -21.3487 -0.501441 0.000167159 10
19.2105 -21.3354 0.501128 0.000167159 10
8.15561 -9.05772 1.06634 0.000210412 10
8.09994 -8.99589 1.48633 0.00173844 10
8.10064 -8.99668 1.91744 0.00170814 10
8.11247 -9.00981 2.35665 0.00167071 10
8.09882 -8.99465 2.79431 0.00162655 10
8.09468 -8.99005 3.24146 0.00157608 10
6.81539 -7.51633 -2.71866 0.000516511 1
7.90363 -8.71649 -2.71645 0.000312873 1
8.44551 -9.3141 -2.44393 0.00194033 10
8.45747 -9.32729 -1.99418 0.00198526 10
13.8249 -15.2468 -2.52708 8.58561e-05 10
14.253 -15.7188 -1.85639 0.000446726 10
19.3625 -21.3538 -1.51066 0.000163589 10
19.3666 -21.3584 -0.503252 0.000164492 10
19.3604 -21.3515 0.503091 0.000164491 10
8.17387 -9.01452 1.06461 0.000210378 10
8.11377 -8.94824 1.48312 0.00176019 10
8.09941 -8.93241 1.90975 0.00172953 10
8.10153 -8.93475 2.34439 0.00169166 10
8.11377 -8.94824 2.78868 0.00164696 10
8.11159 -8.94584 3.23571 0.00159589 10
6.84452 -7.49571 -2.71983 0.000516538 1
7.92352 -8.67736 -2.71286 0.000312892 1
8.46535 -9.27075 -2.4403 0.00196467 10
8.46385 -9.2691 -1.98804 0.00201013 10
13.8619 -15.1807 -2.52412 8.58671e-05 10
14.3429 -15.7075 -1.86095 0.000440167 10
14.4556 -15.831 -1.12351 0.000296404 10
14.4451 -15.8194 -0.373928 0.000297994 10
14.4556 -15.8309 0.374198 0.000298089 10
8.21993 -9.00198 1.06651 0.000210343 10
8.11814 -8.8905 1.47824 0.00178205 10
8.11658 -8.88879 1.90647 0.00175102 10
8.11061 -8.88225 2.33804 0.0017127 10
8.10598 -8.87719 2.77533 0.00166747 10
8.11869 -8.89111 3.22615 0.0016158 10
6.87018 -7.47127 -2.71964 0.000516564 1
7.96847 -8.66565 -2.71788 0.000312911 1
8.46886 -9.20982 -2.43203 0.00198913 10
8.46115 -9.20143 -1.97985 0.00203513 10
13.9217 -15.1397 -2.52538 8.58781e-05 10
14.4643 -15.7298 -1.86956 0.000433651 10
14.4523 -15.7167 -1.11898 0.000300554 10
14.4533 -15.7178 -0.372717 0.000302165 10
14.4481 -15.7122 0.372583 0.000302261 10
8.23888 -8.95972 1.06491 0.000210309 10
8.12036 -8.83082 1.47302 0.00180401 10
8.11201 -8.82175 1.89816 0.00177262 10
8.12222 -8.83285 2.33248 0.00173384 10
8.12304 -8.83375 2.7706 0.00168809 10
8.11552 -8.82557 3.21262 0.0016358 10
6.89774 -7.44888 -2.72024 0.00051659 1
7.98758 -8.62581 -2.71411 0.00031293 1
8.45492 -9.13048 -2.41885 0.0020137 10
8.45683 -9.13255 -1.97137 0.00206024 10
13.9699 -15.0861 -2.52456 8.5889e-05 10
14.5584 -15.7216 -1.87462 0.000427181 10
14.7136 -15.8892 -1.13491 0.000288589 10
14.7261 -15.9028 -0.378319 0.000290141 10
14.7086 -15.8839 0.377869 0.000290233 10
8.26555 -8.92598 1.06432 0.000210275 10
8.12708 -8.77645 1.46868 0.00182607 10
8.1169 -8.76546 1.89213 0.00179431 10
8.12608 -8.77537 2.32478 0.00175509 10
8.11265 -8.76087 2.75661 0.00170879 10
8.11692 -8.76548 3.20105 0.00165589 10
6.90869 -7.40866 -2.71434 0.000516617 1
8.01813 -8.5984 -2.71428 0.000312949 1
8.46786 -9.08067 -2.41347 0.00203839 10
8.47518 -9.08852 -1.96824 0.00208547 10
14.0327 -15.0483 -2.52641 8.58999e-05 10
14.6813 -15.7437 -1.88335 0.000420757 10
14.7268 -15.7926 -1.13168 0.000292585 10
14.7184 -15.7836 -0.376703 0.000294157 10
14.7162 -15.7812 0.376646 0.00029425 10
8.29534 -8.89566 1.06415 0.000272001 10
8.12209 -8.70988 1.46227 0.00184824 10
8.12685 -8.71498 1.88734 0.00181611 10
8.12998 -8.71834 2.31717 0.00177643 10
8.11598 -8.70333 2.7474 0.00172959 10
8.11424 -8.70146 3.18799 0.00167608 10
6.94711 -7.39793 -2.71928 0.000516643 1
8.04902 -8.57134 -2.71459 0.000312967 1
8.46507 -9.01438 -2.4037 0.00206319 10
8.47155 -9.02128 -1.96007 0.00211081 10
14.0712 -14.9843 -2.5239 8.59108e-05 10
14.7927 -15.7526 -1.89058 0.000414379 10
14.777 -15.736 -1.13131 0.000276486 10
14.7785 -15.7375 -0.376833 0.000277883 10
14.7863 -15.7458 0.377032 0.000277882 10
8.34375 -8.88519 1.06637 0.000271957 10
8.1199 -8.64682 1.45644 0.0018705 10
8.12397 -8.65115 1.87965 0.001838 10
8.13037 -8.65797 2.30866 0.00179786 10
8.12145 -8.64846 2.73901 0.00175049 10
8.121 -8.64799 3.17877 0.00169636 10
6.96457 -7.36482 -2.71603 0.000516669 1
8.08649 -8.55122 -2.71714 0.000312986 1
8.47543 -8.96252 -2.39774 0.00208811 10
8.48093 -8.96834 -1.95499 0.00213627 10
14.1311 -14.9432 -2.52527 8.59216e-05 10
14.8975 -15.7536 -1.89693 0.000408048 10
14.9907 -15.8522 -1.14342 0.000284947 10
14.9966 -15.8585 -0.38098 0.000286481 10
14.9962 -15.858 0.380969 0.000286572 10
8.36132 -8.84185 1.06467 0.000271914 10
8.13563 -8.60319 1.45386 0.00189286 10
8.13474 -8.60224 1.87518 0.00185999 10
8.11927 -8.58589 2.29698 0.00181939 10
8.12137 -8.58811 2.72886 0.00177148 10
8.11949 -8.58612 3.16643 0.00171673 10
6.9857 -7.33571 -2.71427 0.000516695 1
8.10668 -8.51285 -2.71392 0.000313005 1
8.47233 -8.89682 -2.38806 0.00211313 10
8.4745 -8.8991 -1.94633 0.00216184 10
14.1846 -14.8953 -2.52552 8.59324e-05 10
14.9976 -15.749 -1.90267 0.000401763 10
15.01 -15.762 -1.14069 0.000268074 10
15.0031 -15.7548 -0.379746 0.000269431 10
15.008 -15.76 0.37987 0.000269431 10
8.39232 -8.81281 1.06469 0.00027187 10
8.13724 -8.54495 1.44881 0.00191532 10
8.13142 -8.53883 1.86754 0.00188207 10
8.14157 -8.54949 2.29483 0.00184101 10
8.12646 -8.53362 2.72054 0.00179256 10
8.1231 -8.5301 3.1562 0.00173718 10
7.02579 -7.32643 -2.71989 0.00051672 1
8.14396 -8.49245 -2.71646 0.000313023 1
8.47327 -8.83585 -2.37962 0.00213826 10
8.4865 -8.84964 -1.94198 0.00218751 10
14.2368 -14.846 -2.52557 8.59431e-05 10
15.1084 -15.7549 -1.90974 0.000395526 10
15.2642 -15.9174 -1.15578 0.000277619 10
15.2685 -15.9219 -0.385055 0.000279118 10
15.2602 -15.9132 0.384846 0.000279206 10
8.42501 -8.78552 1.06494 0.000271827 10
8.12813 -8.47594 1.44191 0.00193787 10
8.1387 -8.48696 1.86239 0.00190425 10
8.12777 -8.47556 2.28259 0.00186273 10
8.13577 -8.4839 2.71373 0.00181372 10
8.12867 -8.4765 3.14685 0.00175773 10
7.0341 -7.28403 -2.71325 0.000516746 1
8.17323 -8.46363 -2.71636 0.000313042 1
8.4785 -8.77975 -2.37247 0.00216349 10
8.48029 -8.7816 -1.93354 0.0022133 10
14.2918 -14.7996 -2.52616 8.59538e-05 10
15.2287 -15.7698 -1.91798 0.000389337 10
15.2721 -15.8148 -1.15219 0.000281348 10
15.2673 -15.8098 -0.38363 0.000282866 10
15.2538 -15.7958 0.383292 0.000282954 10
8.46613 -8.76694 1.06627 0.000271783 10
8.1433 -8.43264 1.43937 0.00196051 10
8.14961 -8.43918 1.85814 0.00192651 10
8.14082 -8.43007 2.27798 0.00188453 10
8.13496 -8.424 2.70364 0.00183498 10
8.13195 -8.42088 3.13672 0.00177835 10
7.05758 -7.25747 -2.71252 0.000516772 1
8.20315 -8.43549 -2.7165 0.00031306 1
8.48348 -8.72375 -2.36532 0.00218883 10
8.48408 -8.72437 -1.92744 0.00223919 10
14.3394 -14.7455 -2.52545 8.59644e-05 10
15.3472 -15.7819 -1.92596 0.000383195 10
15.3413 -15.7758 -1.15325 0.000255692 10
15.3361 -15.7705 -0.383974 0.000256991 10
15.3447 -15.7793 0.384189 0.000256991 10
8.49948 -8.74021 1.06662 0.00027174 10
8.1352 -8.36561 1.43277 0.00198324 10
8.15082 -8.38168 1.85173 0.00194887 10
8.1378 -8.36829 2.26894 0.00190642 10
8.14112 -8.3717 2.69596 0.00185632 10
8.14946 -8.38027 3.13217 0.00179907 10
7.10221 -7.25254 -2.71993 0.000516797 1
8.21783 -8.39178 -2.71164 0.000313079 1
8.49438 -8.67418 -2.35991 0.00221427 10
8.49139 -8.67113 -1.92222 0.00226518 10
8.4865 -8.66613 -1.4893 0.00152362 10
8.48517 -8.66477 -1.06102 0.00154454 10
8.48769 -8.66735 -0.635765 0.00155875 10
8.49708 -8.67694 -0.211984 0.0015661 10
8.49181 -8.67155 0.211852 0.00156653 10
8.48983 -8.66953 0.635925 0.00156002 10
8.48553 -8.66514 1.06106 0.00154665 10
8.15332 -8.3259 1.43083 0.00200607 10
8.15491 -8.32752 1.84605 0.00197132 10
8.14516 -8.31757 2.26289 0.0019284 10
8.15399 -8.32658 2.69058 0.00187775 10
8.15145 -8.32399 3.12175 0.00181986 10
7.11657 -7.21664 -2.71576 0.000516823 1
8.25501 -8.37108 -2.71425 0.000313097 1
8.49615 -8.61561 -2.35203 0.00223981 10
8.49184 -8.61124 -1.9155 0.00229128 10
8.50314 -8.6227 -1.48693 0.00154116 10
8.48495 -8.60426 -1.05723 0.0015623 10
8.49406 -8.61349 -0.633985 0.00157667 10
8.49847 -8.61797 -0.211267 0.0015841 10
8.49416 -8.6136 0.211159 0.00158453 10
8.48675 -8.60608 0.63344 0.00157795 10
8.48193 -8.6012 1.05685 0.00156443 10
8.14211 -8.2566 1.4238 0.00202898 10
8.14413 -8.25865 1.83707 0.00199385 10
8.15579 -8.27047 2.25781 0.00195046 10
8.14482 -8.25935 2.67802 0.00189925 10
8.14874 -8.26332 3.10965 0.00184074 10
7.14689 -7.19697 -2.71773 0.000516848 1
8.27555 -8.33353 -2.71142 0.000313115 1
8.50566 -8.56526 -2.34637 0.00226545 10
8.50432 -8.5639 -1.91156 0.00231748 10
8.54023 -8.60006 -1.48816 0.00137216 10
8.53252 -8.5923 -1.05941 0.00139061 10
8.5293 -8.58906 -0.634375 0.00140301 10
8.54317 -8.60302 -0.21163 0.00140924 10
8.5442 -8.60406 0.211655 0.00140924 10
8.54359 -8.60345 0.635437 0.001403 10
8.53783 -8.59765 1.06007 0.0013906 10
8.15703 -8.21418 1.42139 0.00205198 10
8.14378 -8.20084 1.83052 0.00201647 10
8.14847 -8.20556 2.24784 0.00197261 10
8.15813 -8.21529 2.67295 0.00192084 10
8.15242 -8.20954 3.1001 0.00186169 10
7.1601 -7.1601 -2.71323 0.000516873 1
8.31682 -8.31683 -2.71542 0.000313133 1
8.49561 -8.49562 -2.3354 0.00229119 10
8.49429 -8.49429 -1.90263 0.00234378 10
8.60839 -8.60839 -1.49479 0.00135264 10
8.60172 -8.60172 -1.06427 0.00137084 10
8.59411 -8.59412 -0.63696 0.00138308 10
8.61072 -8.61072 -0.212557 0.00138922 10
8.60875 -8.60875 0.212508 0.00138922 10
8.59605 -8.59605 0.637103 0.00138307 10
8.59492 -8.59492 1.06343 0.00137083 10
8.16112 -8.16112 1.41713 0.00207506 10
8.15739 -8.1574 1.82717 0.00203917 10
8.15318 -8.15318 2.24127 0.00199484 10
8.16202 -8.16203 2.66488 0.00194252 10
8.15236 -8.15236 3.08923 0.00188273 10
7.20195 -7.15185 -2.71961 0.000516899 1
8.34784 -8.28976 -2.71608 0.000313151 1
8.49888 -8.43976 -2.32819 0.00231702 10
8.50136 -8.44222 -1.8976 0.00237017 10
8.66996 -8.60964 -1.50025 0.00133326 10
8.66187 -8.60161 -1.06799 0.00135121 10
8.66098 -8.60073 -0.639687 0.00136327 10
8.66685 -8.60655 -0.2132 0.00136934 10
8.6733 -8.61296 0.213358 0.00136933 10
8.66165 -8.60139 0.639736 0.00136327 10
8.63997 -8.57986 1.06529 0.000271527 10
8.15434 -8.09761 1.41103 0.00209823 10
8.15771 -8.10095 1.82089 0.00206195 10
8.15154 -8.09484 2.23304 0.00201714 10
8.16812 -8.1113 2.65761 0.00196426 10
8.15757 -8.10082 3.08047 0.00190383 10
7.20872 -7.10877 -2.71278 0.000516924 1
8.3604 -8.24447 -2.71079 0.000313169 1
8.51286 -8.39482 -2.32398 0.00234294 10
8.49862 -8.38078 -1.89045 0.00239665 10
8.51641 -8.39832 -1.4686 0.00161197 10
8.51376 -8.39571 -1.04611 0.00163403 10
8.50028 -8.38242 -0.625652 0.00164901 10
8.50513 -8.3872 -0.2085 0.00165677 10
8.51115 -8.39314 0.208648 0.00165721 10
8.49998 -8.38212 0.625631 0.00165033 10
8.5034 -8.38549 1.04484 0.00163622 10
8.1549 -8.04182 1.40626 0.00212147 10
8.16041 -8.04726 1.81522 0.00208481 10
8.16177 -8.0486 2.22813 0.00203953 10
8.15232 -8.03928 2.64332 0.00198609 10
8.17078 -8.05748 3.07482 0.00192502 10
7.23338 -7.08345 -2.71274 0.000516949 1
8.4043 -8.2301 -2.71569 0.000313187 1
8.52165 -8.34501 -2.31841 0.00236895 10
8.50357 -8.32731 -1.88507 0.00242323 10
8.52085 -8.34424 -1.46434 0.00162983 10
8.51224 -8.3358 -1.04234 0.00165212 10
8.51841 -8.34184 -0.62484 0.00166726 10
8.50166 -8.32544 -0.207701 0.00167509 10
8.51678 -8.34025 0.208071 0.00167554 10
8.50142 -8.32521 0.623594 0.00166859 10
8.51547 -8.33896 1.04274 0.00165433 10
8.16392 -7.9947 1.403 0.0021448 10
8.15995 -7.99082 1.8089 0.00210775 10
8.16538 -7.99613 2.22148 0.00206199 10
8.15595 -7.98689 2.63544 0.00200799 10
8.15917 -7.99005 3.05994 0.00194628 10
7.26999 -7.06976 -2.7172 0.000516973 1
8.4246 -8.19257 -2.71299 0.000313205 1
8.52448 -8.2897 -2.3113 0.00239506 10
8.51819 -8.28358 -1.88189 0.0024499 10
8.55549 -8.31985 -1.46529 0.00139615 10
8.57171 -8.33563 -1.04605 0.00141487 10
8.56817 -8.33219 -0.626353 0.00142746 10
8.55887 -8.32314 -0.208388 0.00143379 10
8.57117 -8.3351 0.208688 0.00143378 10
8.56298 -8.32713 0.625973 0.00142745 10
8.57138 -8.33531 1.04601 0.00141486 10
8.16042 -7.93566 1.39763 0.0021682 10
8.17989 -7.9546 1.80715 0.00213077 10
8.16105 -7.93627 2.21275 0.00208453 10
8.17588 -7.9507 2.6329 0.00202997 10
8.17723 -7.95201 3.05628 0.0019676 10
7.29008 -7.03996 -2.71551 0.000516998 1
8.44613 -8.15634 -2.71074 0.000313223 1
8.51505 -8.22289 -2.30094 0.00242124 10
8.5266 -8.23405 -1.87739 0.00247666 10
8.6312 -8.33505 -1.47326 0.00137564 10
8.63228 -8.3361 -1.04989 0.0013941 10
8.63275 -8.33655 -0.628942 0.00140651 10
8.62569 -8.32974 -0.209306 0.00141274 10
8.62483 -8.3289 0.209285 0.00141274 10
8.61734 -8.32167 0.627819 0.0014065 10
8.62525 -8.32932 1.04903 0.00139408 10
8.16963 -7.88932 1.39448 0.00219168 10
8.17569 -7.89517 1.80013 0.00215386 10
8.16893 -7.88865 2.20741 0.00210715 10
8.17001 -7.88969 2.62212 0.00205201 10
8.17631 -7.89577 3.04562 0.001989 10
7.30555 -7.00577 -2.71214 0.000517023 1
8.48292 -8.13483 -2.71342 0.000313241 1
8.53167 -8.18158 -2.2977 0.00244752 10
8.52672 -8.17684 -1.87112 0.00250351 10
14.8336 -14.2249 -2.52346 8.60689e-05 10
16.5315 -15.8531 -2.00388 0.000324478 10
22.4695 -21.5475 -1.63154 0.000115105 10
22.4676 -21.5457 -0.543357 0.000115758 10
22.456 -21.5345 0.543075 0.000115757 10
8.78901 -8.42836 1.06537 0.000271318 10
8.18685 -7.85091 1.39273 0.00221524 10
8.17465 -7.83921 1.79386 0.00217703 10
8.18466 -7.84881 2.20425 0.00212983 10
8.17242 -7.83707 2.6141 0.00207413 10
8.17506 -7.8396 3.03494 0.00201047 10
7.34797 -6.99738 -2.7188 0.000517047 1
8.51505 -8.10877 -2.71462 0.000313258 1
8.53647 -8.12918 -2.29134 0.00247388 10
8.53205 -8.12497 -1.86606 0.00253044 10
8.52844 -8.12152 -1.44601 0.00170186 10
8.53252 -8.12541 -1.03083 0.00172509 10
8.52286 -8.11621 -0.616793 0.00174086 10
8.5135 -8.1073 -0.205205 0.00174901 10
8.51769 -8.11129 0.205306 0.00174947 10
8.52 -8.11349 0.616586 0.00174223 10
8.51117 -8.10508 1.02825 0.00172736 10
8.1702 -7.78038 1.38527 0.00223887 10
8.17225 -7.78233 1.78736 0.00220026 10
8.16967 -7.77988 2.19288 0.00215259 10
8.1691 -7.77933 2.60433 0.00209631 10
8.17049 -7.78066 3.02315 0.00203201 10
7.37428 -6.97351 -2.71952 0.000517072 1
8.52864 -8.06514 -2.70997 0.00243319 10
8.52377 -8.06053 -2.28036 0.00250032 10
8.52704 -8.06363 -1.85879 0.00255745 10
8.52539 -8.06206 -1.44071 0.00172001 10
8.5214 -8.05829 -1.02608 0.00174347 10
8.52688 -8.06347 -0.615044 0.0017594 10
8.53646 -8.07253 -0.205078 0.00176764 10
8.53256 -8.06884 0.204984 0.0017681 10
8.52004 -8.057 0.61455 0.00176078 10
8.53457 -8.07075 1.02767 0.00174576 10
8.18075 -7.73615 1.38247 0.00226257 10
8.18497 -7.74014 1.78422 0.00222357 10
8.18327 -7.73854 2.18927 0.00217541 10
8.18648 -7.74157 2.60124 0.00211857 10
8.17224 -7.72811 3.01379 0.00205361 10
7.38389 -6.93393 -2.71412 0.000517096 1
8.53885 -8.01852 -2.7043 0.00245903 10
8.53611 -8.01595 -2.27617 0.00252684 10
8.53141 -8.01153 -1.85364 0.00258454 10
8.57488 -8.05235 -1.44432 0.00142117 10
8.57328 -8.05085 -1.02894 0.00144018 10
8.59136 -8.06783 -0.617659 0.00145296 10
8.58335 -8.06031 -0.205527 0.00145938 10
8.58019 -8.05734 0.205452 0.00145938 10
8.5805 -8.05763 0.616879 0.00145295 10
8.58056 -8.05768 1.02981 0.00144017 10
8.18526 -7.68647 1.37869 0.00228633 10
8.17968 -7.68124 1.77722 0.00224695 10
8.17437 -7.67625 2.17971 0.0021983 10
8.19385 -7.69454 2.59504 0.00214089 10
8.17877 -7.68038 3.0063 0.00207527 10
7.40626 -6.90645 -2.71346 0.00051712 1
8.54658 -7.96982 -2.69792 0.00248495 10
8.54065 -7.96429 -2.26995 0.00255343 10
8.53079 -7.95509 -1.84746 0.00261171 10
8.64535 -8.06192 -1.45144 0.00139959 10
8.65087 -8.06706 -1.03487 0.00141833 10
8.64929 -8.06559 -0.619796 0.00143093 10
8.64226 -8.05904 -0.206263 0.00143725 10
8.65214 -8.06825 0.206499 0.00143725 10
8.64749 -8.06392 0.619667 0.00143092 10
8.6417 -8.05851 1.03377 0.00141832 10
8.18409 -7.63179 1.374 0.00231017 10
8.18662 -7.63415 1.77292 0.00227039 10
8.17882 -7.62688 2.17378 0.00222126 10
8.18524 -7.63286 2.58385 0.00216327 10
8.18007 -7.62803 2.99697 0.002097 10
7.42656 -6.87707 -2.71209 0.000517145 1
8.54305 -7.91095 -2.68807 0.00251094 10
8.53689 -7.90525 -2.2616 0.0025801 10
8.53638 -7.90478 -1.84268 0.00263896 10
15.0854 -13.9692 -2.52444 8.61195e-05 10
17.1513 -15.8823 -2.0451 0.000297014 10
23.3172 -21.592 -1.66547 0.000104408 10
23.3178 -21.5925 -0.554719 0.000105004 10
23.3172 -21.592 0.554705 0.000105004 10
8.93807 -8.27674 1.06576 0.000271114 10
8.18814 -7.5823 1.37023 0.00233407 10
8.20075 -7.59398 1.77023 0.00229389 10
8.19733 -7.59081 2.17164 0.00224428 10
8.1938 -7.58754 2.57818 0.00218571 10
8.18329 -7.57781 2.98844 0.00211879 10
7.45463 -6.85489 -2.71359 0.000517169 1
8.55015 -7.86227 -2.68165 0.002537 10
8.55181 -7.86379 -2.25827 0.00260685 10
8.54015 -7.85308 -1.83757 0.00266628 10
8.53863 -7.85168 -1.42429 0.00179314 10
8.5355 -7.8488 -1.01449 0.00181754 10
8.55016 -7.86228 -0.608744 0.00183411 10
8.54959 -7.86176 -0.202736 0.00184268 10
8.53104 -7.8447 0.202296 0.00184315 10
8.53641 -7.84964 0.607766 0.00183553 10
8.5271 -7.84107 1.01349 0.0018199 10
8.2578 -7.59344 1.37744 0.00188197 10
8.24199 -7.5789 1.77341 0.00184906 10
8.24765 -7.58411 2.17795 0.00180856 10
8.25335 -7.58935 2.58857 0.00176086 10
8.25476 -7.59064 3.00484 0.00170643 10
7.47397 -6.82467 -2.71194 0.000517193 1
8.55129 -7.80841 -2.67345 0.00256314 10
8.53464 -7.7932 -2.24654 0.00263366 10
8.54895 -7.80627 -1.83359 0.00269368 10
8.5348 -7.79335 -1.4191 0.00181155 10
8.53602 -7.79446 -1.01131 0.00183619 10
8.54833 -7.8057 -0.606671 0.00185292 10
8.53983 -7.79794 -0.201858 0.00186156 10
8.53269 -7.79142 0.201689 0.00186204 10
8.53351 -7.79217 0.605619 0.00185435 10
8.5379 -7.79618 1.01153 0.00183856 10
8.30608 -7.5845 1.38107 0.00185302 10
8.32199 -7.59903 1.78491 0.0018206 10
8.30536 -7.58383 2.18618 0.00178069 10
8.30819 -7.58643 2.59745 0.00173369 10
8.3133 -7.59109 3.01649 0.00168006 10
7.51516 -6.81433 -2.71823 0.000517217 1
8.55316 -7.75553 -2.66555 0.00258934 10
8.55042 -7.75305 -2.24355 0.00266055 10
8.55766 -7.75962 -1.82963 0.00272114 10
8.57867 -7.77867 -1.42187 0.00144742 10
8.58155 -7.78128 -1.01348 0.00146673 10
8.57909 -7.77905 -0.606923 0.00147972 10
8.59097 -7.78982 -0.202423 0.00148624 10
8.58153 -7.78126 0.2022 0.00148624 10
8.58055 -7.78037 0.607026 0.00147971 10
8.59837 -7.79653 1.01546 0.00146672 10
8.3823 -7.60061 1.38932 0.0018243 10
8.36906 -7.5886 1.78931 0.00179236 10
8.37051 -7.58992 2.19635 0.00175304 10
8.37356 -7.59269 2.60958 0.00170673 10
8.37092 -7.59029 3.02776 0.0016539 10
7.52808 -6.77831 -2.71433 0.00051724 1
8.56069 -7.70808 -2.6595 0.0026156 10
8.54928 -7.69781 -2.23619 0.0026875 10
8.55117 -7.69951 -1.82249 0.00274868 10
8.65753 -7.79528 -1.43042 0.00142472 10
8.65308 -7.79127 -1.01871 0.00144374 10
8.65183 -7.79014 -0.610141 0.00145653 10
8.65609 -7.79398 -0.203315 0.00146295 10
8.65467 -7.7927 0.203282 0.00146295 10
8.644 -7.78309 0.609589 0.00145652 10
8.65209 -7.79038 1.01859 0.00144372 10
8.43746 -7.59712 1.39406 0.0017958 10
8.43773 -7.59736 1.79831 0.00176434 10
8.44804 -7.60665 2.20971 0.0017256 10
8.42865 -7.58919 2.61848 0.00167999 10
8.44779 -7.60643 3.04595 0.00162795 10
7.56483 -6.76374 -2.71905 0.000517264 1
8.55894 -7.65258 -2.65064 0.00264193 10
8.55761 -7.65139 -2.23137 0.00271451 10
8.56188 -7.65521 -1.81907 0.00277628 10
8.72127 -7.79772 -1.43645 0.00140219 10
8.71113 -7.78865 -1.02233 0.00142092 10
8.71087 -7.78842 -0.612384 0.00143352 10
8.72021 -7.79677 -0.204181 0.00143985 10
8.72685 -7.8027 0.204336 0.00143985 10
8.70868 -7.78646 0.61223 0.00143351 10
8.72754 -7.80332 1.02426 0.00142091 10
8.4999 -7.59979 1.39999 0.00176753 10
8.49637 -7.59663 1.80515 0.00173653 10
8.20579 -7.33682 2.13963 0.00236026 10
8.49996 -7.59984 2.63237 0.00165346 10
8.50031 -7.60015 3.0553 0.0016022 10
7.57913 -6.72907 -2.71574 0.000517288 1
8.56115 -7.60095 -2.64309 0.00266832 10
8.5516 -7.59247 -2.22288 0.00274159 10
8.55935 -7.59935 -1.81288 0.00280394 10
8.5642 -7.60365 -1.4062 0.00188563 10
8.54643 -7.58788 -0.99989 0.00191123 10
8.56213 -7.60182 -0.600058 0.0019286 10
8.56507 -7.60443 -0.199925 0.00193758 10
8.55455 -7.59509 0.19968 0.00193807 10
8.5581 -7.59824 0.599776 0.00193007 10
8.55206 -7.59287 1.00055 0.00191366 10
8.56073 -7.60057 1.40563 0.00222986 10
8.5441 -7.58581 1.80965 0.00219131 10
8.21723 -7.2956 2.13596 0.00238363 10
8.54723 -7.58859 2.63879 0.00133265 10
8.5595 -7.59948 3.06702 0.00129167 10
7.60539 -6.70505 -2.71674 0.000517311 1
8.55839 -7.54523 -2.63409 0.00269477 10
8.55383 -7.54121 -2.2166 0.00276873 10
8.55945 -7.54617 -1.80731 0.00283167 10
8.55541 -7.54261 -1.40042 0.00190426 10
8.56361 -7.54984 -0.998811 0.00193009 10
8.56521 -7.55124 -0.598423 0.00194763 10
8.54789 -7.53598 -0.198909 0.00195669 10
8.5619 -7.54834 0.199235 0.00195719 10
8.56386 -7.55006 0.598329 0.00194911 10
8.55434 -7.54167 0.997729 0.00193254 10
8.55306 -7.54053 1.40004 0.00225188 10
8.54969 -7.53757 1.80525 0.00221297 10
8.20229 -7.23129 2.1255 0.00240704 10
8.60258 -7.58419 2.64769 0.00103352 10
8.59384 -7.57649 3.06983 0.00100145 10
7.63065 -6.68013 -2.71742 0.000517334 1
8.56109 -7.49467 -2.62685 0.00272128 10
8.56027 -7.49395 -2.21148 0.00279593 10
8.57158 -7.50385 -1.80433 0.00285945 10
8.5762 -7.5079 -1.39953 0.00147514 10
8.58544 -7.51598 -0.99829 0.00149477 10
8.58275 -7.51363 -0.597812 0.00150796 10
8.59738 -7.52644 -0.199448 0.00151459 10
8.58598 -7.51646 0.199184 0.00151459 10
8.59025 -7.5202 0.598335 0.00150795 10
8.58849 -7.51866 0.998645 0.00149475 10
8.55388 -7.48836 1.39588 0.00227394 10
8.54899 -7.48408 1.79958 0.00223466 10
8.21221 -7.18925 2.12156 0.0024305 10
8.63047 -7.5554 2.64814 0.00133279 10
8.61424 -7.54119 3.06769 0.00129179 10
7.63912 -6.64058 -2.71216 0.000517357 1
8.57227 -7.45176 -2.62229 0.00274784 10
8.57243 -7.4519 -2.20788 0.00282318 10
8.57016 -7.44993 -1.79855 0.00288729 10
8.65242 -7.52143 -1.40767 0.00145122 10
8.65657 -7.52504 -1.0035 0.00147054 10
8.65487 -7.52356 -0.601003 0.00148354 10
8.65233 -7.52135 -0.200113 0.00149006 10
8.65279 -7.52175 0.200123 0.00149006 10
8.64775 -7.51737 0.600508 0.00148353 10
8.66004 -7.52806 1.0039 0.00147053 10
8.5704 -7.45014 1.39433 0.00229605 10
8.55137 -7.43359 1.7946 0.00225641 10
8.2293 -7.15362 2.11951 0.00245401 10
7.66309 -6.61461 -2.71246 0.000517381 1
8.56804 -7.39574 -2.61308 0.00277445 10
8.57326 -7.40024 -2.20143 0.00285049 10
8.57915 -7.40532 -1.795 0.00291519 10
8.72731 -7.53321 -1.41557 0.0014275 10
8.70936 -7.51772 -1.00657 0.00144653 10
8.72378 -7.53017 -0.603959 0.00145932 10
8.70918 -7.51756 -0.200819 0.00146574 10
8.72619 -7.53225 0.201212 0.00146574 10
8.7155 -7.52302 0.603386 0.00145931 10
8.72415 -7.53048 1.00828 0.00144651 10
8.56401 -7.39226 1.38908 0.0023182 10
8.57246 -7.39955 1.7936 0.00227819 10
8.21046 -7.08708 2.10827 0.00247756 10
7.69912 -6.59895 -2.71704 0.000517403 1
8.56887 -7.34441 -2.6055 0.00280112 10
8.58085 -7.35468 -2.19678 0.00287785 10
8.57712 -7.35149 -1.78919 0.00294314 10
13.0463 -11.1821 -2.10977 0.000715062 10
13.0559 -11.1902 -1.50439 0.000725388 10
13.0541 -11.1887 -0.901041 0.000732336 10
13.046 -11.1818 -0.299918 0.000735828 10
13.0429 -11.1791 0.299847 0.000735826 10
13.0488 -11.1842 0.900681 0.000732331 10
9.26604 -7.94196 1.0677 0.00027068 10
8.57865 -7.3528 1.38729 0.00234039 10
8.56737 -7.34313 1.78716 0.00230002 10
8.21524 -7.04132 2.10318 0.00250116 10
7.7199 -6.57016 -2.71627 0.000517427 1
8.56853 -7.2924 -2.59764 0.00282783 10
8.56513 -7.2895 -2.18622 0.00290526 10
8.57682 -7.29945 -1.7838 0.00297114 10
8.58627 -7.30749 -1.38438 0.00199797 10
8.58309 -7.30479 -0.986061 0.002025 10
8.57479 -7.29772 -0.590102 0.00204335 10
8.56459 -7.28904 -0.196307 0.00205283 10
8.57381 -7.29689 0.196519 0.00205334 10
8.56529 -7.28964 0.589449 0.00204488 10
8.58185 -7.30373 0.985919 0.00202753 10
8.57277 -7.29601 1.38221 0.00236262 10
8.57606 -7.2988 1.78364 0.00232188 10
8.22418 -6.99933 2.0992 0.0025248 10
7.74732 -6.547 -2.71786 0.000517449 1
8.57247 -7.2443 -2.59115 0.00285459 10
8.57035 -7.24251 -2.18109 0.00293271 10
8.58166 -7.25207 -1.77954 0.00299919 10
8.57949 -7.25024 -1.3792 0.00201681 10
8.57591 -7.24721 -0.982324 0.00204409 10
8.57652 -7.24772 -0.588477 0.0020626 10
8.5823 -7.25261 -0.196132 0.00207217 10
8.56491 -7.23791 0.195734 0.00207268 10
8.58074 -7.25129 0.588767 0.00206414 10
8.56619 -7.239 0.981211 0.00152455 10
8.57465 -7.24614 1.37842 0.00238489 10
8.56595 -7.23879 1.77628 0.00234378 10
8.22689 -6.95226 2.09368 0.00254849 10
7.7715 -6.52107 -2.71834 0.000517472 1
8.5743 -7.19469 -2.5841 0.0028814 10
8.58854 -7.20664 -2.1793 0.00296022 10
8.58204 -7.20119 -1.77439 0.00302728 10
8.64541 -7.25436 -1.38572 0.00147938 10
8.64817 -7.25668 -0.987694 0.00149902 10
8.63338 -7.24427 -0.59064 0.00151223 10
8.63785 -7.24802 -0.196822 0.00151887 10
8.64922 -7.25756 0.197081 0.00151886 10
8.6514 -7.25938 0.591872 0.00151222 10
8.64739 -7.25602 0.987604 0.00149901 10
8.57821 -7.19797 1.37495 0.0024072 10
8.583 -7.20199 1.77459 0.00236572 10
8.24399 -6.91753 2.09187 0.0025722 10
7.79223 -6.49225 -2.71765 0.000517495 1
8.58515 -7.15288 -2.57983 0.00290825 10
8.58658 -7.15407 -2.17246 0.00298776 10
8.57374 -7.14337 -1.76751 0.00305542 10
8.71801 -7.26357 -1.39328 0.00145438 10
8.71678 -7.26255 -0.992628 0.00147371 10
8.71268 -7.25913 -0.594328 0.0014867 10
8.69904 -7.24777 -0.197638 0.00149323 10
8.70436 -7.2522 0.197759 0.00149323 10
8.70108 -7.24947 0.593537 0.0014867 10
8.69893 -7.24768 0.990595 0.0014737 10
8.57937 -7.14806 1.37113 0.00242954 10
8.57377 -7.14339 1.76751 0.0023877 10
8.23562 -6.86166 2.08366 0.00259596 10
8.22468 -6.85255 2.47151 0.00252863 10
8.23985 -6.86519 2.87376 0.00245169 10
7.80684 -6.45838 -2.71486 0.000517517 1
8.58257 -7.10012 -2.57159 0.00293514 10
8.59454 -7.11003 -2.16818 0.00301535 10
8.58323 -7.10067 -1.76434 0.0030836 10
13.5721 -11.2278 -2.16277 0.000652098 10
13.5668 -11.2234 -1.54046 0.000661567 10
13.557 -11.2153 -0.922103 0.000667938 10
13.557 -11.2153 -0.307118 0.000671141 10
13.5511 -11.2105 0.306984 0.000671139 10
15.8408 -13.1046 1.07744 3.66595e-05 10
9.40449 -7.78007 1.06784 0.000270489 10
8.59393 -7.10952 1.36948 0.00245192 10
8.58578 -7.10278 1.76487 0.0024097 10
8.24786 -6.82322 2.08072 0.00261974 10
8.2423 -6.81862 2.46963 0.00255183 10
8.23284 -6.8108 2.86301 0.00247421 10
7.8228 -6.42572 -2.7126 0.00051754 1
8.5855 -7.05221 -2.56508 0.00296206 10
8.58604 -7.05265 -2.15981 0.00304297 10
8.5941 -7.05928 -1.7615 0.00311182 10
15.875 -13.0398 -2.52248 8.62839e-05 10
19.5156 -16.0303 -2.20955 0.000213465 10
19.5139 -16.0289 -1.32346 0.000142497 10
19.5099 -16.0256 -0.440703 0.000143251 10
19.5248 -16.0379 0.44104 0.00014325 10
15.8994 -13.0599 1.07832 3.66498e-05 10
9.41382 -7.7326 1.06583 0.000270452 10
8.57848 -7.04644 1.36309 0.00247432 10
8.58456 -7.05143 1.75955 0.00243174 10
8.23548 -6.7647 2.07163 0.00264356 10
8.24936 -6.77611 2.46465 0.00257506 10
8.25028 -6.77686 2.86083 0.00249676 10
7.86117 -6.41141 -2.71812 0.000517562 1
8.59355 -7.00873 -2.56015 0.00298902 10
8.59668 -7.01128 -2.15632 0.00307063 10
8.59722 -7.01172 -1.75711 0.00314007 10
15.9241 -12.9874 -2.52307 8.62933e-05 10
19.6601 -16.0344 -2.21956 0.000209031 10
19.7577 -16.114 -1.33617 0.000191384 10
19.7487 -16.1066 -0.444825 0.000192456 10
19.7481 -16.1062 0.444811 0.000192513 10
15.9402 -13.0005 1.078 3.66403e-05 10
9.45822 -7.71394 1.0678 0.000270415 10
8.59921 -7.01334 1.36248 0.00249676 10
8.58639 -7.00289 1.7549 0.0024538 10
8.27058 -6.74532 2.07452 0.00189847 10
8.27315 -6.74742 2.4647 0.00184879 10
8.27908 -6.75225 2.86262 0.0017921 10
7.88435 -6.38463 -2.71842 0.000517584 1
8.59243 -6.95802 -2.55257 0.00301602 10
8.6008 -6.9648 -2.15124 0.00309833 10
8.58636 -6.9531 -1.74992 0.00316836 10
15.9704 -12.9326 -2.52323 8.63025e-05 10
19.8184 -16.0486 -2.23109 0.000204652 10
19.8298 -16.0579 -1.33725 0.000136618 10
19.8173 -16.0477 -0.445105 0.000137343 10
19.825 -16.054 0.445278 0.000137342 10
15.9953 -12.9527 1.07866 3.66308e-05 10
9.48751 -7.68284 1.06807 0.000270377 10
8.59637 -6.9612 1.35818 0.00251922 10
8.58348 -6.95077 1.74934 0.00247589 10
8.33197 -6.7471 2.084 0.00186568 10
8.34149 -6.75481 2.47802 0.00181682 10
8.33906 -6.75284 2.87519 0.00176106 10
7.89623 -6.34873 -2.71485 0.000517606 1
8.58957 -6.90619 -2.54454 0.00304304 10
8.61077 -6.92324 -2.14767 0.00312606 10
8.60435 -6.91807 -1.74866 0.00319669 10
16.0118 -12.8738 -2.52266 8.63116e-05 10
19.9643 -16.0517 -2.2412 0.000200326 10
20.0356 -16.109 -1.34732 0.000187272 10
20.0332 -16.1071 -0.448691 0.000188324 10
20.0265 -16.1018 0.44854 0.000188379 10
16.0199 -12.8803 1.07728 3.66213e-05 10
9.51764 -7.65238 1.06845 0.00027034 10
8.59403 -6.90978 1.35399 0.00254171 10
8.59079 -6.90717 1.7459 0.00249801 10
8.4001 -6.75386 2.09513 0.00183319 10
8.40083 -6.75444 2.48863 0.00178514 10
8.40427 -6.75721 2.88953 0.00173032 10
7.91882 -6.32151 -2.71502 0.000517628 1
8.614 -6.87647 -2.54465 0.0030701 10
8.60556 -6.86973 -2.14038 0.00315381 10
8.60052 -6.86571 -1.743 0.00322504 10
8.61239 -6.87519 -1.35309 0.00328306 10
8.60474 -6.86908 -0.963273 0.0033273 10
8.61192 -6.87481 -0.577505 0.00335732 10
8.60586 -6.86997 -0.19221 0.00337282 10
8.60442 -6.86882 0.192177 0.00337364 10
8.60227 -6.8671 0.576857 0.00335977 10
8.59009 -6.85738 0.961632 0.00333135 10
8.59484 -6.86117 1.35033 0.00256422 10
8.59653 -6.86252 1.74219 0.00252015 10
8.45786 -6.75182 2.10364 0.00180101 10
8.45586 -6.75023 2.49794 0.00175377 10
8.46312 -6.75602 2.90163 0.00169986 10
7.94633 -6.29819 -2.7169 0.00051765 1
8.61351 -6.82698 -2.53745 0.00309718 10
8.61287 -6.82648 -2.13626 0.00318159 10
8.59529 -6.81255 -1.73711 0.00325342 10
8.61081 -6.82484 -1.34909 0.00331193 10
8.60233 -6.81813 -0.960333 0.00335654 10
8.60793 -6.82256 -0.575637 0.00338681 10
8.59181 -6.80978 -0.191364 0.00340243 10
8.61115 -6.82512 0.191795 0.00340326 10
8.5971 -6.81398 0.574912 0.00338927 10
8.60909 -6.82348 0.961087 0.00336061 10
8.59153 -6.80956 1.34607 0.00258675 10
8.60496 -6.82021 1.73906 0.00254231 10
8.53491 -6.76469 2.11692 0.00176913 10
8.52953 -6.76043 2.51272 0.00172269 10
8.52532 -6.75709 2.91486 0.00166969 10
7.96042 -6.26423 -2.71422 0.000517672 1
8.6114 -6.7765 -2.52985 0.00312428 10
8.60129 -6.76855 -2.12751 0.0032094 10
8.61013 -6.77551 -1.73532 0.00328182 10
8.59709 -6.76524 -1.34323 0.00334082 10
8.61704 -6.78095 -0.959327 0.0033858 10
8.60718 -6.77319 -0.574002 0.00341632 10
8.60061 -6.76801 -0.191032 0.00343207 10
8.59531 -6.76385 0.190915 0.0034329 10
8.5951 -6.76368 0.573196 0.00341879 10
8.59725 -6.76537 0.957123 0.00338989 10
8.607 -6.77304 1.34478 0.0026093 10
8.61403 -6.77858 1.7361 0.00256449 10
8.60719 -6.77319 2.12897 0.00173756 10
8.59503 -6.76363 2.52504 0.00169191 10
8.59047 -6.76003 2.92904 0.00163982 10
7.98115 -6.23556 -2.71385 0.000517694 1
8.6074 -6.72484 -2.52176 0.00315141 10
8.6086 -6.72577 -2.1235 0.00323724 10
8.61658 -6.73201 -1.73187 0.00331025 10
8.60551 -6.72336 -1.34087 0.00336973 10
8.60088 -6.71974 -0.95491 0.00341508 10
8.61639 -6.73186 -0.573045 0.00344585 10
8.60644 -6.72409 -0.190639 0.00346173 10
8.61282 -6.72907 0.190781 0.00346257 10
8.61756 -6.73277 0.573123 0.00344834 10
8.60009 -6.71913 0.954823 0.0034192 10
8.61165 -6.72816 1.34183 0.00263187 10
8.59492 -6.71509 1.72752 0.00258669 10
8.60497 -6.72294 2.12261 0.0025309 10
8.60266 -6.72114 2.52037 0.00246506 10
8.59438 -6.71467 2.92237 0.0023898 10
8.01518 -6.21721 -2.71803 0.000517715 1
8.61079 -6.67922 -2.51591 0.00317856 10
8.61749 -6.68441 -2.11993 0.00326509 10
8.61906 -6.68563 -1.72767 0.0033387 10
8.60884 -6.6777 -1.33775 0.00339867 10
8.60563 -6.67521 -0.952845 0.00344439 10
8.60454 -6.67437 -0.570705 0.00347541 10
8.60562 -6.6752 -0.190104 0.00349142 10
8.60572 -6.67528 0.190106 0.00349225 10
8.60024 -6.67103 0.570419 0.00347791 10
8.61636 -6.68354 0.954033 0.00344853 10
8.61997 -6.68633 1.33948 0.00265446 10
8.61856 -6.68524 1.72757 0.00260891 10
8.60081 -6.67147 2.11582 0.00255266 10
8.60442 -6.67427 2.51405 0.00248627 10
8.60896 -6.67779 2.91938 0.0024104 10
8.03285 -6.18612 -2.71668 0.000517737 1
8.628 -6.64445 -2.51414 0.00320573 10
8.62116 -6.63918 -2.11511 0.00329296 10
8.62136 -6.63934 -1.72347 0.00336717 10
8.60673 -6.62808 -1.33382 0.00342762 10
8.62445 -6.64172 -0.952355 0.00347371 10
8.61019 -6.63074 -0.56954 0.00350498 10
8.60422 -6.62614 -0.189561 0.00352112 10
8.62257 -6.64027 0.189965 0.00352196 10
8.60532 -6.62699 0.569218 0.0035075 10
8.62127 -6.63927 0.952004 0.00347788 10
8.61114 -6.63147 1.33451 0.00267706 10
8.60229 -6.62465 1.71966 0.00263114 10
8.61067 -6.63111 2.11254 0.00257443 10
8.60649 -6.62789 2.50788 0.0025075 10
8.62023 -6.63847 2.91533 0.00243101 10
8.06008 -6.1624 -2.7186 0.000517758 1
8.62479 -6.59416 -2.50649 0.00323291 10
8.62303 -6.5928 -2.10991 0.00332084 10
8.6183 -6.58919 -1.71825 0.00339565 10
8.61178 -6.58421 -1.33104 0.00345659 10
8.61646 -6.58779 -0.948929 0.00350305 10
8.60536 -6.5793 -0.567698 0.00353457 10
8.61126 -6.58381 -0.189209 0.00355083 10
8.61906 -6.58977 0.18938 0.00355168 10
8.6228 -6.59263 0.568849 0.0035371 10
8.62502 -6.59433 0.949871 0.00350724 10
8.61218 -6.58451 1.3311 0.00269967 10
8.61712 -6.58829 1.71802 0.00265338 10
8.62366 -6.59329 2.11007 0.00259621 10
8.60614 -6.5799 2.50107 0.00252874 10
8.60254 -6.57714 2.90156 0.00245163 10
8.07841 -6.13185 -2.71754 0.000517779 1
8.62352 -6.54561 -2.49946 0.0032601 10
8.61899 -6.54217 -2.10333 0.00334874 10
8.61081 -6.53597 -1.7122 0.00342415 10
8.61613 -6.54 -1.32817 0.00348557 10
8.6271 -6.54833 -0.947577 0.0035324 10
8.62988 -6.55043 -0.567804 0.00356417 10
8.61918 -6.54232 -0.18888 0.00358056 10
8.61735 -6.54093 0.18884 0.00358141 10
8.62522 -6.5469 0.567498 0.00356672 10
8.62781 -6.54887 0.947655 0.00353661 10
8.62889 -6.54969 1.33014 0.0027223 10
8.60931 -6.53483 1.7119 0.00267563 10
8.60995 -6.53531 2.10112 0.002618 10
8.60463 -6.53127 2.49399 0.00254998 10
8.62064 -6.54342 2.89994 0.00247226 10
8.08408 -6.09179 -2.71228 0.0005178 1
8.6299 -6.50309 -2.49472 0.00328731 10
8.62929 -6.50264 -2.10029 0.00337665 10
8.62325 -6.49808 -1.71015 0.00345265 10
8.66747 -6.53141 -1.33256 0.00229682 10
8.66604 -6.53033 -0.949345 0.00232712 10
8.67445 -6.53667 -0.569232 0.0023475 10
8.66862 -6.53228 -0.189462 0.00235773 10
8.6694 -6.53286 0.189479 0.00235773 10
8.65862 -6.52474 0.568193 0.00234748 10
8.65565 -6.5225 0.948206 0.0023271 10
8.61929 -6.4951 1.32515 0.00274493 10
8.61728 -6.49359 1.70897 0.00269789 10
8.62814 -6.50177 2.10001 0.0026398 10
8.61978 -6.49547 2.49179 0.00257124 10
8.61593 -6.49257 2.89072 0.00249289 10
8.11599 -6.07154 -2.71586 0.000517821 1
8.6232 -6.45098 -2.48626 0.00331452 10
8.63492 -6.45974 -2.09616 0.00340457 10
8.63238 -6.45784 -1.70748 0.00348117 10
