VERSION 0.7
FIELDS x y z intensity label
SIZE 4 4 4 4 4
TYPE F F F F F
COUNT 1 1 1 1 1
WIDTH 1175
HEIGHT 1
VIEWPOINT 0.552093 4.1201 2.72897 0.876743 0.000159836 0.000766923 -0.480958
POINTS 1175
DATA ascii
6.1014 -7.58861 1.54223 0.00398666 10
6.09499 -7.58064 1.89074 0.00390176 10
6.10047 -7.58745 2.24768 0.00380162 10
6.1053 -7.59347 2.61076 0.0036872 10
6.12257 -7.56075 -2.60684 0.00473893 10
6.11712 -7.55401 -2.24408 0.00488734 10
6.12821 -7.56772 -1.89284 0.00501745 10
10.0839 -12.4526 -2.53787 0.000226057 10
12.3268 -15.2224 0.341901 0.000785394 10
12.3381 -15.2362 1.02747 0.000781663 10
7.61427 -9.40285 1.05854 0.000278728 10
6.11251 -7.54832 1.19259 0.00407227 10
6.1139 -7.55005 1.53872 0.00400316 10
6.12037 -7.55803 1.89042 0.00391792 10
6.10986 -7.54505 2.24142 0.00381738 10
6.11948 -7.55694 2.60553 0.00370251 10
6.13374 -7.52071 -2.6004 0.00475839 10
6.14058 -7.5291 -2.24304 0.00490738 10
6.13886 -7.52698 -1.888 0.005038 10
6.14302 -7.53209 -1.53942 0.00340105 10
6.14301 -7.53208 -1.19341 0.00346068 10
6.13708 -7.52481 -0.849526 0.00350604 10
6.13013 -7.51628 -0.508309 0.00353669 10
6.12836 -7.51411 -0.16925 0.00355233 10
6.13429 -7.52139 0.169414 0.00355279 10
6.13475 -7.52195 0.508693 0.00353809 10
6.14342 -7.53257 0.850402 0.00350835 10
6.14329 -7.53242 1.19346 0.00408891 10
6.13555 -7.52293 1.53755 0.00401954 10
6.13988 -7.52824 1.88832 0.00393396 10
6.13876 -7.52687 2.24237 0.00383303 10
6.13131 -7.51774 2.59937 0.0037177 10
6.15808 -7.49698 -2.59961 0.00477769 10
6.16401 -7.50419 -2.24201 0.00492726 10
6.15267 -7.49038 -1.8842 0.0050584 10
6.1661 -7.50674 -1.53863 0.0034148 10
6.15536 -7.49366 -1.19072 0.00347466 10
6.14874 -7.48559 -0.847517 0.0035202 10
6.15661 -7.49518 -0.508333 0.00355097 10
6.16376 -7.50388 -0.169503 0.00356666 10
6.16516 -7.50559 0.169542 0.00356713 10
6.16459 -7.5049 0.508992 0.00355237 10
6.15128 -7.48869 0.847867 0.00352252 10
6.16011 -7.49944 1.19163 0.00410543 10
6.15125 -7.48865 1.53492 0.00403578 10
6.16236 -7.50218 1.88716 0.00394988 10
6.14711 -7.48362 2.23587 0.00384855 10
6.16327 -7.50329 2.6018 0.00373278 10
6.18126 -7.47186 -2.59837 0.00479685 10
6.16818 -7.45605 -2.23405 0.00494699 10
6.1846 -7.4759 -1.88597 0.00507862 10
6.17696 -7.46666 -1.53482 0.00342844 10
6.18426 -7.47549 -1.19125 0.00348853 10
6.17472 -7.46396 -0.847502 0.00353424 10
6.1708 -7.45922 -0.507352 0.00356513 10
6.16671 -7.45428 -0.168868 0.00358089 10
6.18347 -7.47454 0.169327 0.00358135 10
6.17808 -7.46801 0.50795 0.00356653 10
6.16813 -7.45599 0.846597 0.00353657 10
6.17567 -7.46511 1.1896 0.00412181 10
6.16716 -7.45482 1.53239 0.0040519 10
6.17059 -7.45896 1.8817 0.00396567 10
6.17261 -7.4614 2.23565 0.00386394 10
6.16949 -7.45764 2.59342 0.00374773 10
6.19546 -7.43602 -2.59341 0.00481585 10
6.19676 -7.43758 -2.23498 0.00496656 10
6.19848 -7.43965 -1.88228 0.00509869 10
6.24855 -7.49975 -1.5461 0.00107324 10
6.25304 -7.50513 -1.19944 0.0010914 10
6.25116 -7.50288 -0.854394 0.00110503 10
6.26522 -7.51975 -0.512953 0.00111402 10
6.2629 -7.51696 -0.170782 0.00111826 10
6.26592 -7.52059 0.170864 0.00111772 10
6.2616 -7.51541 0.512657 0.00111241 10
6.25828 -7.51142 0.855367 0.00110237 10
6.20064 -7.44224 1.18939 0.00413806 10
6.20279 -7.44482 1.53478 0.00406789 10
6.19479 -7.43522 1.88115 0.00398132 10
6.19266 -7.43266 2.23351 0.00387922 10
6.18715 -7.42604 2.58993 0.00376257 10
6.21591 -7.40783 -2.59113 0.00483469 10
6.22245 -7.41563 -2.2349 0.00498596 10
6.21404 -7.4056 -1.87914 0.00511859 10
10.3068 -12.2832 -2.53963 0.000226195 10
12.5281 -14.9304 0.340204 0.00080353 10
12.5306 -14.9334 1.02165 0.000799718 10
7.77474 -9.26558 1.05821 0.000278433 10
6.22012 -7.41285 1.18816 0.00415418 10
6.21659 -7.40865 1.53178 0.00408374 10
6.21603 -7.40798 1.87974 0.00399686 10
6.214 -7.40555 2.23186 0.00389437 10
6.21568 -7.40756 2.59104 0.00377728 10
6.2385 -7.38227 -2.58979 0.00485337 10
6.23784 -7.38148 -2.23116 0.0050052 10
6.23522 -7.37838 -1.87774 0.00513832 10
10.354 -12.2524 -2.54071 0.000226223 10
12.5594 -14.8621 0.339643 0.000807073 10
12.5545 -14.8562 1.01936 0.000803245 10
7.81376 -9.24634 1.05912 0.000278375 10
6.23999 -7.38403 1.18703 0.00417016 10
6.23354 -7.3764 1.52961 0.00409946 10
6.2315 -7.37399 1.87662 0.00401225 10
6.22787 -7.36969 2.22759 0.00390939 10
6.23156 -7.37406 2.58691 0.00379186 10
6.2493 -7.34291 -2.58362 0.00487189 10
6.24519 -7.33807 -2.22461 0.00502428 10
6.25355 -7.34789 -1.87553 0.00515788 10
10.3811 -12.1977 -2.53688 0.00022625 10
12.6058 -14.8118 0.339497 0.000810587 10
12.5952 -14.7993 1.01846 0.000806743 10
7.8355 -9.20668 1.0577 0.000278316 10
6.26038 -7.35592 1.18601 0.00418601 10
6.25341 -7.34773 1.52818 0.00411505 10
6.25365 -7.34801 1.87556 0.00402752 10
6.24405 -7.33674 2.22421 0.00392428 10
6.24218 -7.33454 2.58068 0.00380632 10
6.27939 -7.32629 -2.58547 0.00489025 10
6.28072 -7.32784 -2.22814 0.00504319 10
6.26898 -7.31414 -1.87249 0.00517727 10
10.4329 -12.1723 -2.53915 0.000226278 10
12.6294 -14.735 0.338746 0.000814072 10
12.6409 -14.7484 1.01799 0.000810212 10
7.87501 -9.18794 1.0587 0.000278258 10
6.26479 -7.30926 1.18201 0.00420171 10
6.2702 -7.31558 1.52603 0.0041305 10
6.27094 -7.31644 1.87307 0.00404265 10
6.25992 -7.30358 2.22077 0.00393904 10
6.26392 -7.30824 2.5791 0.00382066 10
6.287 -7.28357 -2.57812 0.00490845 10
6.29668 -7.29477 -2.22476 0.00506193 10
6.29561 -7.29354 -1.87283 0.00519648 10
6.29845 -7.29683 -1.5267 0.00350793 10
6.28289 -7.2788 -1.18062 0.00356935 10
6.28741 -7.28404 -0.841843 0.00361607 10
6.29394 -7.29161 -0.504808 0.00364764 10
6.28765 -7.28432 -0.167964 0.00366375 10
6.2852 -7.28148 0.167899 0.00366422 10
6.2811 -7.27672 0.503777 0.00364907 10
6.28166 -7.27738 0.841073 0.00361844 10
6.29421 -7.29192 1.18275 0.00421727 10
6.28909 -7.28598 1.52443 0.00414581 10
6.29056 -7.28768 1.87132 0.00405765 10
6.28807 -7.2848 2.22172 0.00395367 10
6.27998 -7.27543 2.57524 0.00383487 10
6.30331 -7.25113 -2.57441 0.00492648 10
6.31002 -7.25885 -2.22051 0.0050805 10
6.30873 -7.25737 -1.86918 0.00521552 10
6.30473 -7.25276 -1.52208 0.00352077 10
6.31708 -7.26697 -1.18227 0.00358241 10
6.30773 -7.25621 -0.841166 0.0036293 10
6.30578 -7.25397 -0.503723 0.00366097 10
6.3128 -7.26205 -0.167958 0.00367713 10
6.30946 -7.2582 0.167869 0.00367761 10
6.30467 -7.2527 0.503635 0.0036624 10
6.314 -7.26343 0.842003 0.00363166 10
6.30328 -7.25109 1.17969 0.0042327 10
6.30906 -7.25775 1.52312 0.00416098 10
6.30403 -7.25196 1.86779 0.00407251 10
6.30169 -7.24927 2.21758 0.00396816 10
6.30748 -7.25593 2.57612 0.00384894 10
6.33321 -7.23437 -2.5763 0.00494434 10
6.32781 -7.2282 -2.21787 0.00509889 10
6.32684 -7.22709 -1.86706 0.00523439 10
6.33463 -7.23599 -1.52319 0.00102968 10
6.33209 -7.23309 -1.18035 0.00104701 10
6.34701 -7.25013 -0.843025 0.00106002 10
6.33354 -7.23474 -0.50392 0.00106858 10
6.34507 -7.24792 -0.168142 0.0010726 10
6.34724 -7.2504 0.1682 0.00107204 10
6.35158 -7.25535 0.505355 0.00106691 10
6.35363 -7.25769 0.843903 0.00105726 10
6.3168 -7.21563 1.1775 0.00424798 10
6.32289 -7.22258 1.52036 0.00417601 10
6.32762 -7.22798 1.86729 0.00408724 10
6.3287 -7.22922 2.21819 0.00398253 10
6.3347 -7.23608 2.5769 0.00386289 10
6.34004 -7.19137 -2.56885 0.00496204 10
6.3516 -7.20448 -2.21739 0.00511712 10
6.34328 -7.19504 -1.86449 0.00525307 10
6.44593 -7.31147 -1.5438 0.000987118 10
6.44342 -7.30863 -1.19634 0.00100376 10
6.44944 -7.31545 -0.853233 0.00101624 10
6.43848 -7.30302 -0.510238 0.00102446 10
6.45445 -7.32114 -0.170363 0.00102831 10
6.44534 -7.31081 0.170122 0.00102777 10
6.45016 -7.31627 0.511163 0.00102284 10
6.456 -7.3229 0.8541 0.00101356 10
6.35091 -7.2037 1.17916 0.00426311 10
6.34704 -7.19931 1.52012 0.0041909 10
6.33973 -7.19101 1.86345 0.00410182 10
6.35141 -7.20426 2.21732 0.00399675 10
6.34072 -7.19213 2.56912 0.00387671 10
6.37048 -7.17524 -2.57102 0.00497956 10
6.36878 -7.17333 -2.21463 0.00513516 10
6.37113 -7.17598 -1.8653 0.00527158 10
10.6494 -11.9947 -2.54049 0.000226415 10
12.868 -14.4936 -1.01575 0.000817743 10
12.8637 -14.4888 -0.338197 0.000821883 10
12.824 -14.444 0.337151 0.000831043 10
12.8253 -14.4455 1.01238 0.000827107 10
8.03222 -9.04691 1.05844 0.000277967 10
6.3735 -7.17865 1.1787 0.0042781 10
6.35461 -7.15737 1.51594 0.00420564 10
6.36076 -7.1643 1.86226 0.00411626 10
6.37176 -7.17669 2.21566 0.00401084 10
6.37102 -7.17586 2.57124 0.00389039 10
6.38811 -7.14472 -2.56805 0.00499691 10
6.38461 -7.1408 -2.21145 0.00515303 10
6.37888 -7.13439 -1.86027 0.0052899 10
10.6923 -11.9587 -2.54075 0.000226442 10
12.8704 -14.3947 0.337048 0.000834343 10
12.8603 -14.3834 1.01117 0.000830393 10
8.07068 -9.02656 1.05935 0.000277909 10
6.37585 -7.131 1.17452 0.00429294 10
6.38929 -7.14603 1.51825 0.00422024 10
6.38839 -7.14503 1.86304 0.00413056 10
6.38262 -7.13857 2.21076 0.00402479 10
6.38255 -7.1385 2.56582 0.00390393 10
6.41115 -7.1203 -2.5673 0.00501408 10
6.40487 -7.11333 -2.20985 0.00517072 10
6.41037 -7.11944 -1.86219 0.00530804 10
10.7165 -11.9018 -2.53661 0.000226469 10
12.8976 -14.3242 0.336449 0.000837612 10
12.9106 -14.3387 1.01119 0.000833648 10
8.10076 -8.9968 1.05917 0.000277851 10
6.3987 -7.10648 1.17415 0.00430763 10
6.40235 -7.11053 1.51545 0.00423469 10
6.40363 -7.11196 1.86023 0.00414472 10
6.39935 -7.1072 2.20795 0.00403859 10
6.39648 -7.10401 2.56143 0.00391734 10
6.41365 -7.07327 -2.5584 0.00503108 10
6.41733 -7.07733 -2.20562 0.00518823 10
6.41924 -7.07944 -1.85758 0.00532599 10
10.7608 -11.8675 -2.53729 0.000226496 10
6.42877 -7.08995 -0.167056 0.00375479 10
6.41526 -7.07504 0.166704 0.00375527 10
6.41278 -7.07231 0.500326 0.00373976 10
6.42064 -7.08098 0.83626 0.00370839 10
6.42643 -7.08737 1.17469 0.00432217 10
6.41518 -7.07495 1.51263 0.00424899 10
6.4289 -7.09009 1.86037 0.00415873 10
6.41878 -7.07893 2.20611 0.00405226 10
6.41768 -7.07771 2.56001 0.00393062 10
6.4475 -7.06092 -2.56206 0.00504791 10
6.44804 -7.06151 -2.20769 0.00520555 10
6.44862 -7.06214 -1.85893 0.00534376 10
6.44027 -7.053 -1.51273 0.00360725 10
6.44935 -7.06295 -1.17437 0.00367034 10
6.43032 -7.04211 -0.834315 0.00371832 10
6.43029 -7.04207 -0.499772 0.00375074 10
6.43782 -7.05032 -0.16665 0.00376728 10
6.43623 -7.04857 0.166609 0.00376776 10
6.43732 -7.04977 0.500319 0.00375219 10
6.44479 -7.05795 0.836192 0.00372073 10
6.44537 -7.05858 1.17365 0.00433655 10
6.43904 -7.05165 1.51244 0.00426315 10
6.44757 -7.06099 1.85863 0.00417259 10
6.43533 -7.04759 2.20333 0.00406579 10
6.43216 -7.04412 2.55596 0.00394375 10
6.45135 -7.01579 -2.55384 0.00506455 10
6.45372 -7.01837 -2.20123 0.00522269 10
6.44945 -7.01373 -1.85211 0.00536133 10
6.46575 -7.03146 -1.51294 0.00361911 10
6.45002 -7.01434 -1.17003 0.00368239 10
6.46296 -7.02841 -0.835361 0.00373053 10
6.45923 -7.02437 -0.500112 0.00376304 10
6.45606 -7.02091 -0.166487 0.00377963 10
6.45946 -7.02461 0.166574 0.00378012 10
6.45262 -7.01718 0.499601 0.0037645 10
6.44903 -7.01327 0.83356 0.00373293 10
6.45107 -7.01549 1.17022 0.00435079 10
6.44777 -7.0119 1.50874 0.00427715 10
6.45734 -7.0223 1.85437 0.00418631 10
6.44966 -7.01395 2.19984 0.00407916 10
6.45572 -7.02055 2.55557 0.00395674 10
6.47041 -6.98741 -2.55172 0.00508101 10
6.48436 -7.00247 -2.20333 0.00523965 10
6.47732 -6.99487 -1.85309 0.00537872 10
6.50673 -7.02663 -1.51678 0.000941655 10
6.51745 -7.03821 -1.17779 0.000957443 10
6.5015 -7.02098 -0.837169 0.000969276 10
6.50289 -7.02248 -0.501591 0.00097704 10
6.51734 -7.03809 -0.167433 0.000980659 10
6.52358 -7.04483 0.167593 0.000980096 10
6.52543 -7.04682 0.50333 0.000975356 10
6.5094 -7.02952 0.838187 0.000966489 10
6.47747 -6.99503 1.17057 0.00436487 10
6.46588 -6.98252 1.50726 0.004291 10
6.47481 -6.99216 1.85237 0.00419988 10
6.47519 -6.99257 2.20021 0.0040924 10
6.47827 -6.99589 2.55481 0.0039696 10
6.50607 -6.97691 -2.55616 0.00509729 10
6.49349 -6.96341 -2.19816 0.00525641 10
6.50288 -6.97349 -1.85343 0.00539591 10
6.61341 -7.09202 -1.53587 0.000898371 10
13.0799 -14.0265 0.334768 0.000853466 10
13.0863 -14.0333 1.00561 0.000849431 10
8.25254 -8.84977 1.05866 0.000277564 10
6.4936 -6.96353 1.16908 0.00437879 10
6.4979 -6.96814 1.50904 0.0043047 10
6.49669 -6.96685 1.85166 0.0042133 10
6.49943 -6.96979 2.20017 0.00410549 10
6.48974 -6.95939 2.54974 0.00398231 10
6.51367 -6.93636 -2.54962 0.00511339 10
6.50881 -6.93118 -2.19514 0.00527299 10
6.52224 -6.94548 -1.85202 0.00541291 10
10.9775 -11.6899 -2.53988 0.000226632 10
13.12 -13.9714 0.334542 0.000856537 10
13.1222 -13.9738 1.00462 0.000852487 10
8.28999 -8.82795 1.0595 0.000277507 10
6.51764 -6.94059 1.16904 0.00439256 10
6.51059 -6.93308 1.50636 0.00431824 10
6.52018 -6.94329 1.85143 0.00422656 10
6.51999 -6.94309 2.19891 0.00411843 10
6.51231 -6.9349 2.54908 0.00399488 10
6.53492 -6.91049 -2.54848 0.0051293 10
6.54012 -6.91598 -2.19755 0.00528938 10
6.52301 -6.89789 -1.84539 0.00542971 10
10.9996 -11.6318 -2.53558 0.000226659 10
13.1561 -13.9121 0.334222 0.000859573 10
13.1573 -13.9135 1.00358 0.000855509 10
8.3135 -8.79128 1.05858 0.00027745 10
6.52918 -6.90442 1.16678 0.00440617 10
6.53887 -6.91466 1.50731 0.00433163 10
6.52524 -6.90025 1.84602 0.00423968 10
6.52649 -6.90158 2.19297 0.00413122 10
6.53347 -6.90895 2.54791 0.0040073 10
6.54749 -6.87554 -2.544 0.00514502 10
6.54433 -6.87222 -2.19089 0.00530557 10
6.55041 -6.87861 -1.84634 0.00544631 10
11.0581 -11.6122 -2.53972 0.000226685 10
13.1985 -13.8598 0.33407 0.000862574 10
13.1904 -13.8513 1.00241 0.000858498 10
8.36053 -8.77942 1.06066 0.000277393 10
6.55799 -6.88657 1.16763 0.00441961 10
6.54651 -6.87451 1.50353 0.00434485 10
6.55496 -6.88338 1.84762 0.00425263 10
6.54974 -6.8779 2.1927 0.00414386 10
6.55765 -6.88621 2.54795 0.00401957 10
6.5705 -6.85166 -2.54364 0.00516056 10
6.56019 -6.8409 -2.18819 0.00532157 10
6.57427 -6.85558 -1.84631 0.00546272 10
6.56918 -6.85027 -1.50324 0.00368748 10
6.57432 -6.85564 -1.16627 0.0037519 10
6.57532 -6.85668 -0.831137 0.00380091 10
6.57903 -6.86055 -0.498152 0.00383401 10
6.55918 -6.83985 -0.165415 0.0038509 10
6.57488 -6.85623 0.165811 0.00385139 10
6.56972 -6.85084 0.497447 0.00383549 10
6.56949 -6.8506 0.8304 0.00380335 10
6.5722 -6.85342 1.16589 0.0044329 10
6.55988 -6.84058 1.50111 0.00435792 10
6.56914 -6.85024 1.84487 0.00426544 10
6.57439 -6.85571 2.19292 0.00415635 10
6.56337 -6.84422 2.54088 0.0040317 10
6.59061 -6.82478 -2.54218 0.0051759 10
6.59313 -6.82739 -2.19121 0.00533737 10
6.58611 -6.82012 -1.84294 0.00547892 10
6.58013 -6.81393 -1.50029 0.00369841 10
6.58026 -6.81406 -1.1631 0.00376302 10
6.58947 -6.8236 -0.82991 0.00381216 10
6.58863 -6.82273 -0.497072 0.00384536 10
6.59201 -6.82623 -0.165641 0.00386229 10
6.59194 -6.82616 0.165639 0.00386278 10
6.59057 -6.82473 0.497219 0.00384683 10
6.59241 -6.82665 0.83028 0.00381461 10
6.59355 -6.82783 1.16545 0.00444602 10
6.57824 -6.81197 1.49986 0.00437083 10
6.58702 -6.82107 1.84319 0.00427809 10
6.57926 -6.81302 2.1866 0.00416868 10
6.58658 -6.82061 2.54063 0.00404368 10
6.60641 -6.79353 -2.53912 0.00519106 10
6.6122 -6.79947 -2.18965 0.00535298 10
6.59711 -6.78396 -1.83938 0.00549492 10
6.59863 -6.78552 -1.4991 0.0037092 10
6.61399 -6.80132 -1.16485 0.00377399 10
6.60893 -6.79611 -0.829368 0.00382327 10
6.5984 -6.78528 -0.496019 0.00385656 10
6.59906 -6.78596 -0.165222 0.00387354 10
6.60512 -6.7922 0.165374 0.00387403 10
6.60455 -6.79161 0.496482 0.00385804 10
6.60474 -6.79181 0.828842 0.00382572 10
6.60721 -6.79435 1.16366 0.00445898 10
6.61414 -6.80147 1.50262 0.00438358 10
6.61121 -6.79846 1.84331 0.00429058 10
6.61261 -6.7999 2.18979 0.00418086 10
6.61172 -6.79898 2.54115 0.00405552 10
6.62138 -6.76153 -2.53578 0.00520602 10
6.61631 -6.75635 -2.18319 0.00536838 10
6.62844 -6.76874 -1.84151 0.00551072 10
6.674 -6.81527 -1.51081 0.000851223 10
6.6795 -6.82088 -1.17219 0.000865424 10
6.67038 -6.81157 -0.834091 0.000876053 10
6.67169 -6.81291 -0.499739 0.000883004 10
6.67456 -6.81584 -0.166516 0.000886212 10
6.68524 -6.82675 0.166782 0.000885643 10
6.67997 -6.82137 0.500359 0.000881302 10
6.68578 -6.8273 0.836017 0.000873234 10
6.62797 -6.76827 1.16315 0.00447178 10
6.62371 -6.76392 1.49943 0.00439617 10
6.61607 -6.75611 1.83808 0.0043029 10
6.6234 -6.7636 2.18553 0.00419289 10
6.62696 -6.76723 2.53792 0.0040672 10
6.64059 -6.73397 -2.53412 0.00522079 10
6.64134 -6.73473 -2.18368 0.00538359 10
6.64347 -6.73688 -1.83914 0.00552631 10
11.2583 -11.4166 -2.53954 0.000226819 10
13.3902 -13.5785 0.332871 0.000877048 10
13.3908 -13.5791 0.999475 0.000872907 10
8.50717 -8.62679 1.06 0.00027711 10
6.65007 -6.74358 1.16289 0.0044844 10
6.63002 -6.72325 1.49553 0.00440859 10
6.63794 -6.73128 1.83761 0.00431507 10
6.64476 -6.7382 2.1848 0.00420476 10
6.6363 -6.72962 2.53249 0.00407872 10
6.65917 -6.70583 -2.53226 0.00523536 10
6.66972 -6.71644 -2.18528 0.00539859 10
6.65365 -6.70027 -1.83548 0.0055417 10
11.2914 -11.3705 -2.53802 0.000226846 10
13.4701 -13.5645 -2.3472 0.000844621 10
13.4682 -13.5625 -1.67223 0.000857267 10
13.474 -13.5684 -1.00214 0.000865819 10
13.4669 -13.5613 -0.333601 0.000870185 10
13.4146 -13.5086 0.332304 0.000879835 10
13.4203 -13.5143 0.998147 0.000875681 10
8.53587 -8.59567 1.05983 0.000277054 10
6.6634 -6.71009 1.16112 0.00449686 10
6.66076 -6.70742 1.49718 0.00442085 10
6.66552 -6.71222 1.83875 0.00432708 10
6.66515 -6.71184 2.18379 0.00421648 10
6.66279 -6.70947 2.53364 0.0040901 10
6.67894 -6.67894 -2.5309 0.00524973 10
6.67974 -6.67974 -2.18092 0.0054134 10
6.68414 -6.68414 -1.83744 0.00555688 10
11.3377 -11.3377 -2.53952 0.000226872 10
13.4635 -13.4635 0.332348 0.000882584 10
13.4654 -13.4654 0.997998 0.000878418 10
8.57433 -8.57433 1.06088 0.000276998 10
6.68 -6.68 1.15994 0.00450916 10
6.68548 -6.68548 1.49748 0.00443294 10
6.67659 -6.67659 1.83536 0.00433893 10
6.67401 -6.67401 2.17904 0.00422803 10
6.68573 -6.68573 2.53347 0.00410132 10
6.69066 -6.64412 -2.52654 0.00526391 10
6.69791 -6.65131 -2.17925 0.00542799 10
6.70381 -6.65718 -1.83645 0.00557184 10
11.3636 -11.2845 -2.53648 0.000226899 10
13.5026 -13.4086 0.332156 0.000885296 10
13.4843 -13.3905 0.99593 0.000881118 10
8.59885 -8.53902 1.06022 0.000276942 10
6.70029 -6.65368 1.15942 0.00452128 10
6.6978 -6.65121 1.49503 0.00444487 10
6.7035 -6.65687 1.83636 0.00435061 10
6.70163 -6.65501 2.18046 0.00423942 10
6.70203 -6.6554 2.53083 0.00411239 10
6.72006 -6.62688 -2.52889 0.00527788 10
6.71382 -6.62073 -2.1769 0.00544239 10
6.72401 -6.63077 -1.83563 0.0055866 10
6.71623 -6.62311 -1.49397 0.00570913 10
6.71939 -6.62622 -1.15872 0.00580878 10
6.71724 -6.6241 -0.825366 0.00588457 10
6.70627 -6.61328 -0.493607 0.00593577 10
6.71486 -6.62175 -0.164612 0.00596188 10
6.70602 -6.61303 0.164396 0.00596264 10
6.71578 -6.62266 0.494306 0.00593804 10
6.70693 -6.61393 0.824099 0.00588832 10
6.72295 -6.62973 1.15933 0.00453323 10
6.71183 -6.61877 1.49299 0.00445662 10
6.723 -6.62978 1.83535 0.00436212 10
6.70413 -6.61117 2.17375 0.00425066 10
6.71736 -6.62422 2.52787 0.0041233 10
6.74313 -6.60336 -2.52888 0.00529165 10
6.73237 -6.59282 -2.17544 0.00545657 10
6.7401 -6.6004 -1.83372 0.00560114 10
6.72317 -6.58381 -1.49039 0.00572398 10
6.7394 -6.59971 -1.15819 0.00582387 10
6.7384 -6.59873 -0.825131 0.00589986 10
6.74123 -6.6015 -0.494481 0.00595119 10
6.72342 -6.58406 -0.164258 0.00597736 10
6.72785 -6.5884 0.164366 0.00597812 10
6.73472 -6.59512 0.494003 0.00595346 10
6.72615 -6.58673 0.823631 0.00590362 10
6.73335 -6.59379 1.15715 0.00454501 10
6.73268 -6.59313 1.4925 0.00446821 10
6.73409 -6.59451 1.83208 0.00437347 10
6.73076 -6.59124 2.17492 0.00426173 10
6.72763 -6.58818 2.52307 0.00413405 10
6.76224 -6.576 -2.52742 0.00530522 10
6.75187 -6.56591 -2.17432 0.00547054 10
6.7452 -6.55942 -1.82887 0.00561547 10
6.75364 -6.56763 -1.49206 0.00573861 10
6.74731 -6.56148 -1.15561 0.00583875 10
6.74361 -6.55788 -0.822962 0.00591491 10
6.74544 -6.55966 -0.493107 0.00596637 10
6.76078 -6.57457 -0.164609 0.00599261 10
6.74915 -6.56327 0.164326 0.00599337 10
6.75241 -6.56643 0.493616 0.00596864 10
6.7434 -6.55767 0.822935 0.00591868 10
6.74669 -6.56087 1.1555 0.00455661 10
6.74728 -6.56144 1.49065 0.00447963 10
6.74956 -6.56366 1.83005 0.00438466 10
6.74514 -6.55937 2.17215 0.00427264 10
6.7549 -6.56886 2.52468 0.00414465 10
6.77976 -6.54714 -2.52541 0.00531859 10
6.75999 -6.52805 -2.16958 0.00548431 10
6.77148 -6.53915 -1.82979 0.00562958 10
6.76991 -6.53763 -1.4906 0.00575301 10
6.7707 -6.53839 -1.15569 0.0058534 10
6.76766 -6.53546 -0.823107 0.00592975 10
6.7756 -6.54312 -0.493639 0.00598133 10
6.77418 -6.54176 -0.164378 0.00600763 10
6.76428 -6.53219 0.164138 0.00600839 10
6.77195 -6.5396 0.493373 0.00598361 10
6.77819 -6.54563 0.824388 0.00593352 10
6.50204 -6.27895 1.10984 0.0050439 10
6.5097 -6.28634 1.43331 0.00495917 10
6.51106 -6.28766 1.75942 0.00485462 10
6.49686 -6.27394 2.08513 0.0047313 10
6.50076 -6.27771 2.42149 0.00459037 10
6.78129 -6.50303 -2.51752 0.00533175 10
6.79517 -6.51634 -2.17356 0.00549786 10
6.77736 -6.49925 -1.82524 0.00564348 10
6.78786 -6.50932 -1.48954 0.0057672 10
6.77891 -6.50074 -1.15322 0.00586782 10
6.78041 -6.50218 -0.821892 0.00594435 10
6.78043 -6.5022 -0.492334 0.00599605 10
6.78613 -6.50767 -0.164116 0.00602241 10
6.77997 -6.50176 0.163967 0.00602318 10
6.78478 -6.50637 0.49265 0.00599833 10
6.78705 -6.50855 0.822697 0.00594813 10
6.51493 -6.2476 1.10831 0.00505626 10
6.52906 -6.26114 1.43275 0.00497132 10
6.51783 -6.25038 1.75534 0.00486653 10
6.51762 -6.25018 2.08478 0.00474292 10
6.5293 -6.26137 2.42396 0.00460166 10
6.80128 -6.47677 -2.51653 0.0053447 10
6.80014 -6.47569 -2.16791 0.0055112 10
6.79492 -6.47071 -1.82387 0.00565716 10
6.80979 -6.48488 -1.48938 0.00578117 10
6.79664 -6.47236 -1.15238 0.00588202 10
6.8063 -6.48156 -0.822283 0.00595873 10
6.80122 -6.47671 -0.492199 0.00601055 10
6.80537 -6.48067 -0.164033 0.00603697 10
6.80356 -6.47895 0.16399 0.00603773 10
6.8014 -6.47688 0.492212 0.00601283 10
6.79502 -6.47082 0.82092 0.00596251 10
6.54686 -6.23449 1.11003 0.00506842 10
6.53982 -6.22779 1.43033 0.00498329 10
6.54487 -6.2326 1.75676 0.00487826 10
6.53082 -6.21921 2.08204 0.00475436 10
6.54482 -6.23255 2.42163 0.00461277 10
6.83167 -6.46039 -2.51941 0.00535745 10
6.82899 -6.45786 -2.1699 0.00552433 10
6.83131 -6.46005 -1.82758 0.00567062 10
6.83161 -6.46033 -1.48921 0.00579491 10
6.8148 -6.44444 -1.15164 0.00589599 10
6.83294 -6.4616 -0.822772 0.00597287 10
6.82062 -6.44994 -0.491971 0.00602481 10
6.82968 -6.45851 -0.164075 0.00605129 10
6.82537 -6.45443 0.163971 0.00605205 10
6.8202 -6.44955 0.491941 0.0060271 10
6.82833 -6.45723 0.822216 0.00597666 10
6.55763 -6.20125 1.10818 0.00508039 10
6.55344 -6.19729 1.42857 0.00499506 10
6.55951 -6.20302 1.75486 0.00488979 10
6.5643 -6.20755 2.0858 0.00476561 10
6.54949 -6.19355 2.41535 0.0046237 10
6.83439 -6.41792 -2.51214 0.00536999 10
6.83946 -6.42268 -2.16609 0.00553724 10
6.83137 -6.41509 -1.82159 0.00568386 10
6.83977 -6.42297 -1.48609 0.00580843 10
6.85143 -6.43393 -1.15403 0.00590973 10
6.8513 -6.4338 -0.822273 0.00598679 10
6.83553 -6.41899 -0.491427 0.00603884 10
6.83674 -6.42013 -0.163705 0.00606538 10
6.84049 -6.42365 0.163795 0.00606614 10
6.84469 -6.4276 0.492086 0.00604113 10
6.82861 -6.41249 0.819549 0.00599058 10
6.57872 -6.17783 1.10809 0.00509216 10
6.57806 -6.17721 1.42923 0.00500664 10
6.58187 -6.18079 1.75506 0.00490114 10
6.57938 -6.17845 2.08373 0.00477668 10
6.57365 -6.17307 2.4163 0.00463445 10
6.85219 -6.38977 -2.51047 0.00538231 10
6.85095 -6.38861 -2.16266 0.00554993 10
6.86724 -6.4038 -1.82518 0.00569687 10
6.85315 -6.39066 -1.48414 0.00582172 10
6.85142 -6.38905 -1.15026 0.00592324 10
6.86781 -6.40434 -0.821566 0.00600047 10
6.84897 -6.38677 -0.490788 0.00605263 10
6.85146 -6.38909 -0.163522 0.00607923 10
6.86221 -6.39911 0.163779 0.00608 10
6.84753 -6.38542 0.490684 0.00605493 10
6.85847 -6.39563 0.820449 0.00600427 10
6.59226 -6.14738 1.10675 0.00510374 10
6.5898 -6.14509 1.42711 0.00501803 10
6.59913 -6.15378 1.75393 0.00491229 10
6.59687 -6.15168 2.08245 0.00478756 10
6.59276 -6.14785 2.41542 0.00464502 10
6.88625 -6.37674 -2.51477 0.00539443 10
6.8871 -6.37753 -2.16703 0.00556241 10
6.87552 -6.3668 -1.82147 0.00570966 10
6.87233 -6.36384 -1.48347 0.00583478 10
6.867 -6.35891 -1.14914 0.00593652 10
6.8826 -6.37336 -0.82067 0.00601391 10
6.87242 -6.36393 -0.490873 0.00606619 10
6.87903 -6.37005 -0.163649 0.00609284 10
6.8758 -6.36706 0.163572 0.00609361 10
6.86587 -6.35786 0.490405 0.00606849 10
6.88261 -6.37337 0.820671 0.00601771 10
6.67243 -6.17874 1.11658 0.000908477 10
6.65906 -6.16636 1.43744 0.000892351 10
6.6628 -6.16982 1.76511 0.000872683 10
6.67025 -6.17672 2.0988 0.000849662 10
6.66476 -6.17164 2.43389 0.000823512 10
6.89257 -6.33805 -2.50899 0.00540633 10
6.90196 -6.34668 -2.16472 0.00557467 10
6.88582 -6.33184 -1.81833 0.00572223 10
6.89497 -6.34025 -1.48358 0.00584761 10
6.9024 -6.34709 -1.15135 0.00594957 10
6.88827 -6.33409 -0.818704 0.00602712 10
6.89988 -6.34477 -0.49125 0.0060795 10
6.88915 -6.3349 -0.163362 0.00610621 10
6.8832 -6.32943 0.163221 0.00610699 10
6.90324 -6.34786 0.491489 0.0060818 10
6.88214 -6.32845 0.817975 0.00603093 10
6.82231 -6.27343 1.13799 0.000849011 10
6.80988 -6.26201 1.46527 0.000833886 10
6.82314 -6.2742 1.80178 0.000815442 10
6.83242 -6.28273 2.14291 0.000793861 10
6.82184 -6.273 2.48324 0.000769348 10
6.96657 -6.36135 -2.52783 0.000932428 10
6.94824 -6.34462 -2.17227 0.000960492 10
6.95227 -6.3483 -1.83002 0.000984938 10
6.95401 -6.34989 -1.4915 0.00100553 10
6.97113 -6.36552 -1.15911 0.00102206 10
6.95804 -6.35356 -0.824355 0.00103438 10
6.96762 -6.36232 -0.494489 0.00104236 10
6.95916 -6.35459 -0.164496 0.00104593 10
6.96796 -6.36262 0.164703 0.00104505 10
6.97258 -6.36684 0.49484 0.00103972 10
6.98128 -6.37479 0.827109 0.00103 10
6.98638 -6.37944 1.16164 0.000792183 10
6.98656 -6.37961 1.49848 0.000778017 10
6.98132 -6.37482 1.83766 0.00076075 10
6.98652 -6.37957 2.18424 0.000740546 10
6.99281 -6.38532 2.53735 0.000717601 10
7.12482 -6.46039 -2.57705 0.000868536 10
7.13138 -6.46635 -2.22246 0.000894739 10
7.13325 -6.46804 -1.8717 0.000917561 10
7.1367 -6.47117 -1.52583 0.000936784 10
7.13639 -6.47088 -1.18282 0.000952217 10
7.13714 -6.47157 -0.842893 0.00096371 10
7.12803 -6.46331 -0.504269 0.000971151 10
7.129 -6.46419 -0.167976 0.000974468 10
7.13914 -6.47338 0.168215 0.000973625 10
7.14362 -6.47744 0.505371 0.00096863 10
7.1448 -6.47851 0.843797 0.000959536 10
7.13382 -6.46855 1.18239 0.000737944 10
7.14068 -6.47478 1.52668 0.000724698 10
7.13999 -6.47415 1.87347 0.000708553 10
7.15426 -6.48709 2.22959 0.000689668 10
7.14261 -6.47652 2.58348 0.000668225 10
7.29859 -6.57169 -2.63159 0.000807626 10
7.28757 -6.56176 -2.26398 0.00083205 10
7.29355 -6.56714 -1.90773 0.000853325 10
7.29665 -6.56993 -1.55511 0.00087124 10
7.29519 -6.56862 -1.20533 0.000885621 10
7.29434 -6.56786 -0.858746 0.000896325 10
7.29831 -6.57143 -0.514689 0.000903252 10
7.31491 -6.58638 -0.171814 0.000906328 10
7.31159 -6.58339 0.171735 0.000905525 10
7.30759 -6.57978 0.515343 0.000900851 10
7.31606 -6.58741 0.861302 0.000892351 10
7.3089 -6.58097 1.2076 0.000686234 10
7.31542 -6.58684 1.55912 0.000673865 10
7.31436 -6.58588 1.91318 0.000658796 10
7.31106 -6.58291 2.27128 0.000641171 10
7.3294 -6.59942 2.6427 0.000621163 10
7.4607 -6.67064 -2.68163 0.000749632 10
7.4722 -6.68092 -2.31408 0.000772362 10
7.4763 -6.68458 -1.94942 0.000792157 10
7.51861 -6.72241 -1.59741 0.0032235 10
7.51838 -6.72221 -1.23832 0.00328031 10
7.51087 -6.71549 -0.881472 0.00332353 10
7.51724 -6.72119 -0.52847 0.00335272 10
7.51625 -6.7203 -0.17599 0.00336761 10
7.50154 -6.70715 0.175646 0.00336804 10
7.50609 -6.71122 0.527686 0.003354 10
7.50653 -6.71162 0.880963 0.00332565 10
7.48275 -6.69036 1.23246 0.000636996 10
7.48713 -6.69427 1.59072 0.000625467 10
7.49046 -6.69724 1.95311 0.000611423 10
7.4931 -6.69961 2.32056 0.000595003 10
7.50543 -6.71063 2.69771 0.000576365 10
7.58844 -6.73733 -2.71907 0.000514192 1
7.66798 -6.80795 -2.36734 0.000715597 10
7.66005 -6.80092 -1.99113 0.000733984 10
7.72693 -6.86029 -1.63657 0.00301717 10
7.72921 -6.86232 -1.2691 0.00307056 10
7.72617 -6.85961 -0.903923 0.00311118 10
7.72799 -6.86124 -0.541599 0.00313862 10
7.73149 -6.86434 -0.180468 0.00315261 10
7.7294 -6.86248 0.180419 0.00315301 10
7.73214 -6.86491 0.54189 0.00313982 10
7.73491 -6.86738 0.904946 0.00311317 10
7.68202 -6.82042 1.26135 0.000590171 10
7.67368 -6.81302 1.62529 0.000579443 10
7.69036 -6.82783 1.99901 0.000566379 10
7.69486 -6.83182 2.37564 0.000551106 10
7.68387 -6.82206 2.75327 0.000533775 10
7.61523 -6.71373 -2.72026 0.000514224 1
7.84383 -6.91527 -2.41416 0.000661688 10
7.8639 -6.93296 -2.03782 0.000678734 10
7.86385 -6.93292 -1.66044 0.000693084 10
7.9563 -7.01443 -1.30236 0.00287817 10
7.95075 -7.00953 -0.92733 0.00291639 10
7.96453 -7.02168 -0.556455 0.00294222 10
7.95832 -7.01621 -0.18519 0.00295538 10
7.95382 -7.01224 0.185085 0.00295576 10
7.95521 -7.01347 0.555805 0.00294335 10
7.95685 -7.0149 0.928041 0.00291826 10
7.87892 -6.9462 1.28969 0.0005457 10
7.88203 -6.94894 1.66427 0.000535735 10
7.89076 -6.95664 2.04477 0.000523604 10
7.88145 -6.94844 2.42574 0.000509426 10
7.88426 -6.95091 2.81636 0.000493339 10
7.63045 -6.67996 -2.71735 0.000514255 1
8.0558 -7.05232 -2.47181 0.000610562 10
8.06854 -7.06347 -2.08444 0.000626335 10
8.07296 -7.06734 -1.69937 0.00063961 10
8.18135 -7.16223 -1.33509 0.00270134 10
8.18657 -7.1668 -0.951912 0.00273735 10
8.18824 -7.16826 -0.570334 0.00276169 10
8.17249 -7.15447 -0.189591 0.0027741 10
8.17701 -7.15843 0.189696 0.00277445 10
8.17665 -7.15811 0.569526 0.00276276 10
8.19243 -7.17193 0.952593 0.00273912 10
8.01595 -7.01744 1.3081 0.00335764 10
8.01473 -7.01636 1.68711 0.00329984 10
8.01012 -7.01233 2.06935 0.00322857 10
8.01727 -7.01859 2.45999 0.00314453 10
8.01428 -7.01597 2.85404 0.00304854 10
7.65354 -6.65312 -2.71728 0.000514287 1
8.27708 -7.19515 -2.53199 0.000562148 10
8.27792 -7.19588 -2.13203 0.000576711 10
8.27214 -7.19086 -1.736 0.000588967 10
8.39954 -7.30161 -1.36653 0.0025385 10
8.41417 -7.31433 -0.975401 0.00257248 10
8.41474 -7.31482 -0.584328 0.00259544 10
8.41437 -7.3145 -0.194609 0.00260714 10
8.40141 -7.30324 0.194309 0.00260748 10
8.40739 -7.30843 0.583817 0.00259644 10
8.39946 -7.30154 0.973696 0.00257414 10
8.05173 -6.99926 1.30994 0.00336396 10
8.04174 -6.99058 1.68765 0.00330606 10
8.04877 -6.99669 2.07301 0.00323466 10
8.03782 -6.98717 2.45879 0.00315046 10
8.04215 -6.99093 2.85525 0.0030543 10
7.68988 -6.63773 -2.72194 0.000514318 1
8.49159 -7.32975 -2.58976 0.000516377 10
8.50229 -7.33898 -2.18321 0.000529794 10
8.48926 -7.32774 -1.77619 0.000541085 10
8.64832 -7.46504 -1.40276 0.00238826 10
8.63144 -7.45046 -0.997567 0.00242036 10
8.6384 -7.45647 -0.598048 0.00244205 10
8.64507 -7.46223 -0.199341 0.00245311 10
8.63656 -7.45488 0.199145 0.00245343 10
8.64391 -7.46123 0.59843 0.002443 10
8.62724 -7.44684 0.997081 0.00242193 10
8.072 -6.96756 1.30928 0.00337014 10
8.06071 -6.95782 1.68653 0.00331214 10
8.07128 -6.96694 2.07253 0.00324061 10
8.06982 -6.96569 2.46113 0.00315627 10
8.0584 -6.95583 2.85239 0.00305994 10
7.6965 -6.5967 -2.71612 0.00051435 1
8.73726 -7.48874 -2.6567 0.000473171 10
8.7347 -7.48654 -2.23616 0.000485503 10
8.72399 -7.47737 -1.81983 0.000495879 10
8.87137 -7.60368 -1.43462 0.00224943 10
8.87385 -7.60581 -1.02251 0.00227978 10
8.87219 -7.60439 -0.612392 0.00230029 10
8.85528 -7.5899 -0.203576 0.00231075 10
8.86994 -7.60246 0.203913 0.00231105 10
8.86086 -7.59468 0.61161 0.00230119 10
8.86454 -7.59783 1.02144 0.00228127 10
8.07327 -6.91963 1.30556 0.00337618 10
8.07507 -6.92118 1.68447 0.00331808 10
8.07225 -6.91876 2.06657 0.00324643 10
8.07457 -6.92074 2.4552 0.00316194 10
8.0718 -6.91837 2.84856 0.00306545 10
7.7272 -6.57637 -2.71884 0.000514381 1
8.96138 -7.62673 -2.71674 0.000311359 1
8.96908 -7.63329 -2.28933 0.000443767 10
8.98123 -7.64363 -1.86791 0.000453279 10
10.695 -9.10218 -1.72438 0.00208226 10
10.6866 -9.09502 -1.22772 0.00211132 10
10.6815 -9.09065 -0.735081 0.00213097 10
10.694 -9.10131 -0.245115 0.00214099 10
10.6929 -9.10038 0.24509 0.00214128 10
10.6923 -9.09991 0.735829 0.00213183 10
9.24892 -7.87145 1.06255 0.000213129 10
8.1104 -6.90249 1.30766 0.00338208 10
8.10692 -6.89954 1.68608 0.00332389 10
8.09574 -6.89001 2.06641 0.00325211 10
8.10219 -6.8955 2.45626 0.00316749 10
8.11231 -6.90412 2.85434 0.00307083 10
7.74857 -6.54805 -2.71829 0.000514412 1
8.99286 -7.59956 -2.71822 0.000311382 1
9.24479 -7.81246 -2.35273 0.00040451 10
9.23054 -7.80041 -1.91409 0.000413207 10
10.1952 -8.61557 -1.63893 0.000298646 10
10.7054 -9.04679 -1.22625 0.0021151 10
10.7053 -9.04672 -0.734546 0.00213478 10
10.7027 -9.0445 -0.24459 0.00214482 10
10.7189 -9.05816 0.244959 0.00214511 10
10.7179 -9.05737 0.735411 0.00213564 10
9.2662 -7.83055 1.06139 0.000213088 10
8.11318 -6.85617 1.30424 0.00338785 10
8.11682 -6.85924 1.68314 0.00332955 10
8.11842 -6.8606 2.06608 0.00325767 10
8.12242 -6.86398 2.45512 0.0031729 10
8.12514 -6.86628 2.8504 0.00307608 10
7.78156 -6.52951 -2.72186 0.000514444 1
9.03017 -7.57721 -2.72149 0.000311404 1
9.49914 -7.97072 -2.41036 0.000367657 10
9.50222 -7.97331 -1.96464 0.000375589 10
10.207 -8.56467 -1.63601 0.000298687 10
10.7358 -9.00837 -1.22611 0.00211879 10
10.749 -9.01945 -0.735374 0.0021385 10
10.7512 -9.02132 -0.244976 0.00214855 10
10.7472 -9.01798 0.244885 0.00214884 10
10.7418 -9.0134 0.734881 0.00213936 10
9.5417 -8.00644 1.08974 0.000299714 10
8.14431 -6.83389 1.3054 0.00339347 10
8.15367 -6.84174 1.68582 0.00333508 10
8.14508 -6.83453 2.06678 0.00326308 10
8.14138 -6.83143 2.45363 0.00317818 10
8.13078 -6.82254 2.84401 0.00308121 10
7.79405 -6.49376 -2.71828 0.000514475 1
9.03623 -7.52871 -2.71538 0.000311426 1
9.78798 -8.15504 -2.47642 0.000333135 10
9.79885 -8.1641 -2.02007 0.000340345 10
10.2465 -8.53707 -1.63756 0.000298728 10
10.7634 -8.9677 -1.22568 0.00212238 10
10.77 -8.97322 -0.734666 0.00214212 10
10.7613 -8.96594 -0.244491 0.00215219 10
10.7713 -8.9743 0.244719 0.00215248 10
10.7773 -8.9793 0.735163 0.00214299 10
9.80987 -8.17328 1.1171 0.00027156 10
8.15685 -6.79603 1.3036 0.00339895 10
8.16528 -6.80305 1.6833 0.00334047 10
8.15638 -6.79564 2.06361 0.00326836 10
8.16951 -6.80658 2.45493 0.00318333 10
8.16944 -6.80652 2.8492 0.00308621 10
7.82499 -6.47339 -2.72117 0.000514506 1
9.08276 -7.51392 -2.72146 0.000311449 1
10.1072 -8.36144 -2.54979 0.000300866 10
10.1072 -8.36142 -2.07761 0.000307401 10
10.2822 -8.50621 -1.63852 0.000298769 10
10.7922 -8.92806 -1.22541 0.00212588 10
10.7866 -8.92346 -0.73367 0.00214566 10
10.7954 -8.93073 -0.244557 0.00215574 10
10.7905 -8.92671 0.244447 0.00215603 10
10.7901 -8.92636 0.733908 0.00214652 10
10.1187 -8.37095 1.14894 0.000245244 10
8.19318 -6.77799 1.30562 0.00340429 10
8.19291 -6.77777 1.68411 0.00334573 10
8.18339 -6.76989 2.06446 0.0032735 10
8.1811 -6.76799 2.45129 0.00318834 10
8.17266 -6.76101 2.84208 0.00309108 10
7.84626 -6.44499 -2.72073 0.000514537 1
9.10298 -7.47727 -2.71968 0.000311471 1
10.4276 -8.5653 -2.62304 0.000270773 10
10.4205 -8.55952 -2.13586 0.000276678 10
10.422 -8.56073 -1.65602 0.000281399 10
10.8246 -8.89139 -1.22555 0.00212929 10
10.8259 -8.89251 -0.734227 0.00214909 10
10.8174 -8.88552 -0.244352 0.00215919 10
10.8158 -8.88419 0.244315 0.00215948 10
10.821 -8.88849 0.733896 0.00214996 10
10.4387 -8.57445 1.18187 0.000220705 10
8.19665 -6.73281 1.30242 0.00340949 10
8.20635 -6.74077 1.68203 0.00335084 10
8.19916 -6.73486 2.06249 0.00327851 10
8.20432 -6.7391 2.45119 0.00319322 10
8.19324 -6.73001 2.84105 0.00309582 10
7.86543 -6.41489 -2.7196 0.000514568 1
9.12389 -7.44126 -2.71815 0.000311493 1
10.7508 -8.76813 -2.69663 0.000242783 10
10.7663 -8.78079 -2.20044 0.000248098 10
10.7722 -8.78558 -1.70678 0.000252346 10
10.8548 -8.85296 -1.22547 0.0021326 10
10.8429 -8.84329 -0.733284 0.00215243 10
10.854 -8.85228 -0.244478 0.00216255 10
10.8404 -8.84121 0.244172 0.00216284 10
10.8504 -8.84934 0.733786 0.0021533 10
10.7823 -8.79387 1.21729 0.000197879 10
9.70962 -7.91897 1.53842 0.00220572 10
9.72275 -7.92968 1.98715 0.0021667 10
9.71272 -7.9215 2.43625 0.00211859 10
9.716 -7.92417 2.89455 0.0020619 10
9.71272 -7.9215 3.35833 0.0019972 10
7.88079 -6.38174 -2.71719 0.000514598 1
9.15144 -7.41069 -2.71864 0.000311515 1
10.8694 -8.80188 -2.71867 0.000170154 1
11.1257 -9.00946 -2.26746 0.000221584 10
11.1293 -9.01233 -1.75836 0.000225392 10
11.1271 -9.01053 -1.25265 0.000228202 10
11.1475 -9.0271 -0.751748 0.000229984 10
11.1424 -9.02297 -0.250264 0.00023072 10
11.1504 -9.02943 0.250443 0.000230402 10
11.1586 -9.03604 0.752492 0.000229033 10
11.1565 -9.03435 1.25596 0.000176706 10
9.73434 -7.88271 1.53797 0.00220898 10
9.73341 -7.88197 1.9837 0.0021699 10
9.75121 -7.89638 2.43898 0.00212173 10
9.74336 -7.89002 2.89448 0.00206496 10
9.74954 -7.89502 3.36151 0.00200017 10
7.92063 -6.36835 -2.72324 0.000514629 1
9.18562 -7.38543 -2.72112 0.000311538 1
10.8843 -8.75118 -2.71472 0.000170169 1
11.5005 -9.24666 -2.33724 0.000197059 10
11.5041 -9.2495 -1.81246 0.000200458 10
12.252 -9.85087 -1.37541 0.00102309 10
12.2359 -9.83792 -0.822822 0.00103283 10
12.2398 -9.84107 -0.274139 0.0010378 10
12.2371 -9.83886 0.274077 0.00103795 10
12.2435 -9.84403 0.823333 0.00103326 10
11.5286 -9.26924 1.2942 0.000157121 10
9.76161 -7.84854 1.53794 0.00221215 10
9.77453 -7.85892 1.98647 0.00217302 10
9.77876 -7.86233 2.43899 0.00212478 10
9.77192 -7.85683 2.8948 0.00206794 10
9.77304 -7.85773 3.36013 0.00200305 10
7.93815 -6.33694 -2.72164 0.00051466 1
9.2079 -7.35057 -2.7201 0.00031156 1
10.9143 -8.71274 -2.7146 0.000170183 1
11.9118 -9.50906 -2.41407 0.000174441 10
11.9112 -9.50863 -1.87137 0.000177462 10
12.2811 -9.80387 -1.37483 0.00102457 10
12.2753 -9.79922 -0.823164 0.00103433 10
12.2664 -9.7921 -0.273966 0.00103931 10
12.2755 -9.79943 0.274171 0.00103945 10
12.2621 -9.78869 0.82228 0.00103476 10
11.9418 -9.53299 1.33684 0.000139062 10
9.79872 -7.82222 1.53948 0.00221522 10
9.79138 -7.81636 1.98434 0.00217604 10
9.78434 -7.81074 2.43357 0.00212774 10
9.79297 -7.81763 2.89293 0.00207082 10
9.79433 -7.81872 3.35805 0.00200585 10
7.94811 -6.2996 -2.7175 0.000514691 1
9.2331 -7.31807 -2.71998 0.000311582 1
10.9594 -8.68629 -2.71826 0.000170198 1
12.343 -9.78297 -2.49453 0.000153654 10
12.3614 -9.79751 -1.93671 0.000156326 10
12.3714 -9.80543 -1.38109 0.000104556 10
12.3682 -9.80293 -0.827098 0.000105374 10
12.5176 -9.92134 -0.278803 0.000991437 10
12.5075 -9.91336 0.278578 0.000991573 10
12.5002 -9.90757 0.835926 0.000987078 10
12.3966 -9.82541 1.38391 0.000122466 10
9.80996 -7.77528 1.53697 0.0022182 10
9.80748 -7.77332 1.98209 0.00217897 10
9.82026 -7.78344 2.43573 0.0021306 10
9.82373 -7.78619 2.89397 0.00207361 10
9.81411 -7.77857 3.3555 0.00200855 10
7.9852 -6.28373 -2.72267 0.000514721 1
9.25715 -7.28466 -2.71956 0.000311604 1
10.9859 -8.64505 -2.71734 0.000170213 1
12.8139 -10.0835 -2.58256 0.000134618 10
12.8299 -10.0961 -2.00458 0.000136969 10
12.9771 -10.212 -1.44473 0.000889525 10
12.9751 -10.2104 -0.865292 0.000898091 10
12.9616 -10.1997 -0.287896 0.00090246 10
12.9672 -10.2042 0.28802 0.000902585 10
12.9584 -10.1973 0.864179 0.000898463 10
12.8548 -10.1157 1.43111 0.000107271 10
12.8689 -10.1268 2.01067 0.000105587 10
11.4478 -9.00854 2.30723 0.00144467 10
11.441 -9.00321 2.82992 0.00141167 10
11.4578 -9.01642 3.36607 0.00137279 10
12.8766 -10.1329 4.39048 9.43782e-05 10
8.00342 -6.25296 -2.72142 0.000514752 1
9.27751 -7.24839 -2.71809 0.000311625 1
11.0071 -8.59966 -2.71514 0.000170227 1
13.3118 -10.4003 -2.67558 0.000117255 10
13.3337 -10.4174 -2.07761 0.000119313 10
13.4209 -10.4856 -1.49006 0.00081134 10
13.4286 -10.4916 -0.893091 0.000819211 10
13.4367 -10.4979 -0.297633 0.000823225 10
13.4371 -10.4982 0.297642 0.00082334 10
13.4263 -10.4897 0.892933 0.000819553 10
13.3668 -10.4433 1.48405 9.34125e-05 10
13.0012 -10.1576 2.02579 0.000126897 10
11.4724 -8.96323 2.30587 0.00144654 10
11.4716 -8.96263 2.82973 0.00141349 10
11.4676 -8.9595 3.35974 0.00137457 10
13.3938 -10.4644 4.55432 8.20738e-05 10
8.0291 -6.22801 -2.72275 0.000514782 1
9.29932 -7.21329 -2.71708 0.000311647 1
11.0414 -8.5646 -2.71622 0.000170242 1
13.5374 -10.5007 -2.71353 7.99284e-05 1
13.8621 -10.7525 -2.15407 0.000103275 10
14.7416 -11.4348 -1.63224 8.35821e-05 10
14.7369 -11.4311 -0.977438 0.000949849 10
14.7467 -11.4387 -0.325765 0.000954606 10
14.7349 -11.4296 0.325505 0.000954742 10
14.7321 -11.4274 0.977118 0.000950255 10
13.8939 -10.7772 1.53838 8.08283e-05 10
13.0436 -10.1176 2.02688 0.000126879 10
11.5054 -8.92447 2.30622 0.00144834 10
11.5106 -8.92856 2.83165 0.00141525 10
11.5048 -8.92405 3.36149 0.00137628 10
13.9386 -10.8119 4.72671 7.09128e-05 10
8.03204 -6.1855 -2.7164 0.000514813 1
9.33543 -7.18925 -2.72029 0.000311669 1
11.0651 -8.52129 -2.71472 0.000170257 1
13.5652 -10.4466 -2.71177 7.99372e-05 1
14.4415 -11.1215 -2.23807 8.87776e-05 10
14.7757 -11.3788 -1.6316 8.3599e-05 10
14.7805 -11.3825 -0.977689 0.00095105 10
14.768 -11.3729 -0.325355 0.000955813 10
14.7861 -11.3868 0.325754 0.000955949 10
14.7794 -11.3817 0.977619 0.000951456 10
14.4956 -11.1631 1.60067 6.94546e-05 10
13.0624 -10.0594 2.02434 0.000126861 10
11.5413 -8.88797 2.30718 0.00145007 10
11.5422 -8.88871 2.83177 0.00141695 10
11.5234 -8.87422 3.35785 0.00137794 10
14.5172 -11.1797 4.90965 6.08375e-05 10
8.06482 -6.16602 -2.7202 0.000514843 1
9.34946 -7.14821 -2.71709 0.000311691 1
11.1065 -8.49156 -2.71758 0.000170271 1
13.6126 -10.4076 -2.71397 7.99459e-05 1
15.0752 -11.5258 -2.33001 7.57385e-05 10
15.0734 -11.5245 -1.66003 7.67078e-05 10
15.0973 -11.5427 -0.995972 7.73092e-05 10
15.1003 -11.545 -0.331787 7.75355e-05 10
15.1001 -11.5449 0.331783 7.73846e-05 10
15.0992 -11.5442 0.996102 7.68583e-05 10
14.9998 -11.4682 1.65193 0.000707991 10
13.1072 -10.0212 2.02584 0.000126843 10
12.5063 -9.56178 2.49341 0.00116148 10
12.5046 -9.56048 3.05967 0.00113451 10
12.5136 -9.56734 3.63662 0.00110274 10
14.9907 -11.4612 5.05622 0.000626029 10
8.09184 -6.14204 -2.72206 0.000514873 1
9.37479 -7.11585 -2.71721 0.000311712 1
11.1265 -8.4455 -2.71525 0.000170286 1
13.6488 -10.36 -2.71397 7.99546e-05 1
15.7443 -11.9506 -2.42698 6.4078e-05 10
15.7578 -11.9608 -1.73079 6.49014e-05 10
15.7723 -11.9719 -1.03774 6.541e-05 10
15.7701 -11.9701 -0.345584 6.55984e-05 10
15.7785 -11.9765 0.345768 6.54639e-05 10
15.7918 -11.9866 1.03902 6.50081e-05 10
15.0385 -11.4149 1.65179 0.00070882 10
13.1534 -9.98395 2.02758 0.000126826 10
12.5367 -9.51585 2.49283 0.00116279 10
12.5536 -9.52869 3.0635 0.00113578 10
12.5378 -9.51674 3.634 0.00110399 10
15.0332 -11.4109 5.05712 0.000626768 10
8.10075 -6.10435 -2.71787 0.000514903 1
9.40219 -7.08506 -2.71797 0.000311734 1
11.1605 -8.41002 -2.71635 0.0001703 1
13.6686 -10.3 -2.71075 7.99633e-05 1
16.5004 -12.4339 -2.53682 5.37139e-05 10
16.5088 -12.4403 -1.80851 5.44077e-05 10
16.5174 -12.4467 -1.0839 5.48338e-05 10
16.5242 -12.4519 -0.361155 5.49883e-05 10
16.5214 -12.4498 0.361094 5.48692e-05 10
16.5345 -12.4596 1.08502 4.24767e-05 10
15.0709 -11.3567 1.65098 0.000709616 10
13.182 -9.93337 2.02664 0.000126808 10
13.055 -9.83764 2.58905 0.00104591 10
13.0513 -9.83488 3.17657 0.00102142 10
13.0537 -9.83665 3.77353 0.000992588 10
15.0703 -11.3563 5.05622 0.000627476 10
8.12102 -6.0753 -2.71754 0.000514933 1
9.42743 -7.05262 -2.71813 0.000311756 1
11.1824 -8.36547 -2.71456 0.000170315 1
13.716 -10.2609 -2.71301 7.9972e-05 1
17.3169 -12.9547 -2.65539 4.45673e-05 10
17.3048 -12.9457 -1.89074 4.51455e-05 10
17.322 -12.9586 -1.13373 4.5499e-05 10
17.3346 -12.9679 -0.377876 4.5624e-05 10
17.3545 -12.9828 0.378309 4.55193e-05 10
17.3484 -12.9783 1.13545 3.52318e-05 10
15.1126 -11.3057 1.65122 0.000710377 10
13.5232 -10.1167 2.07366 7.28728e-05 10
14.0608 -10.5188 2.78121 0.000852026 10
14.039 -10.5025 3.40802 0.00083175 10
16.3987 -12.2678 4.72809 0.000116552 10
15.1182 -11.3099 5.05903 0.000628154 10
8.13618 -6.04246 -2.71554 0.000514963 1
9.45819 -7.02427 -2.71991 0.000311777 1
11.2185 -8.33157 -2.71624 0.000170329 1
13.7443 -10.2074 -2.71155 7.99806e-05 1
17.712 -13.1541 -2.7089 2.94127e-05 1
18.1949 -13.5127 -1.98282 3.70337e-05 10
17.7637 -13.1925 -1.15961 0.00056468 10
17.7673 -13.1951 -0.386301 0.000567637 10
18.226 -13.5358 0.396273 3.73318e-05 10
18.2523 -13.5554 1.19151 2.88888e-05 10
15.1392 -11.2434 1.64983 0.000711103 10
15.1379 -11.2424 2.31523 0.000700852 10
15.1524 -11.2531 2.98934 0.000687329 10
15.154 -11.2543 3.66912 0.000670684 10
16.448 -12.2153 4.72998 0.000116542 10
15.1324 -11.2383 5.0506 0.000628802 10
8.15992 -6.01601 -2.71644 0.000514993 1
9.47244 -6.98369 -2.71699 0.000311799 1
11.2382 -8.28549 -2.71399 0.000170343 1
13.7925 -10.1687 -2.71405 7.99892e-05 1
17.7487 -13.0854 -2.70752 2.94171e-05 1
19.1808 -14.1413 -2.08487 2.9992e-05 10
17.8002 -13.1234 -1.159 0.000565253 10
17.7951 -13.1197 -0.385907 0.000568213 10
19.2255 -14.1743 0.416928 3.02255e-05 10
15.1701 -11.1844 1.64893 0.000711796 10
15.1904 -11.1994 2.31726 0.000701536 10
15.1771 -11.1895 2.9865 0.000688 10
15.1724 -11.1861 3.66411 0.00067134 10
16.4871 -12.1554 4.72902 0.000116533 10
15.1813 -11.1927 5.05387 0.000629419 10
8.19402 -5.99712 -2.7208 0.000515023 1
9.50657 -6.95775 -2.71979 0.00031182 1
11.2668 -8.24602 -2.71393 0.000170358 1
13.8145 -10.1107 -2.71141 7.99978e-05 1
17.8067 -13.0325 -2.70941 2.94214e-05 1
17.8513 -13.0652 -1.15935 0.000565799 10
17.8454 -13.0608 -0.386007 0.000568761 10
16.7586 -12.2655 1.81693 0.000530057 10
16.774 -12.2767 2.55228 0.000522223 10
16.7782 -12.2798 3.29311 0.000511893 10
15.8492 -11.5998 3.81774 3.81673e-05 10
16.5233 -12.0932 4.72724 0.000116524 10
16.7726 -12.2757 5.5693 0.000467237 10
8.20282 -5.95969 -2.7168 0.000515053 1
9.51594 -6.91373 -2.71555 0.000311842 1
11.2898 -8.2025 -2.71256 0.000170372 1
13.8454 -10.0593 -2.71057 8.00065e-05 1
17.8391 -12.9608 -2.70744 2.94258e-05 1
20.5106 -14.9019 -2.21806 0.000359092 10
17.8741 -12.9863 -1.15788 0.000566315 10
17.8871 -12.9957 -0.385926 0.000569281 10
20.5035 -14.8967 1.32821 0.000283142 10
16.8197 -12.2202 1.81892 0.000530533 10
16.8185 -12.2193 2.55254 0.000522693 10
16.8181 -12.2191 3.29255 0.000512354 10
20.5002 -14.8943 4.92552 0.000262952 10
16.8087 -12.2122 4.79667 2.93971e-05 10
7.65375 -5.52006 -2.52855 0.000461476 4
9.54397 -6.88333 -2.71668 0.000311863 1
11.3269 -8.16922 -2.71462 0.000170386 1
13.8919 -10.0192 -2.71282 8.0015e-05 1
17.876 -12.8926 -2.70619 2.94301e-05 1
20.5521 -14.8226 -2.21694 0.000359414 10
17.9332 -12.9338 -1.15877 0.000566804 10
17.922 -12.9258 -0.385704 0.000569771 10
22.1054 -15.9429 0.475734 0.00028528 10
20.5552 -14.8248 1.32819 0.000283396 10
18.8369 -13.5856 2.03192 3.22932e-05 10
17.9133 -12.9195 2.71185 0.000431157 10
17.9106 -12.9175 3.49758 0.000422485 10
20.5475 -14.8193 4.92444 0.000263189 10
20.5404 -14.8142 5.84679 0.00025485 10
17.9073 -12.9151 5.91599 0.000385025 10
7.67125 -5.49207 -2.52798 0.000461502 4
9.57476 -6.85486 -2.71861 0.000311884 1
11.3512 -8.12663 -2.71361 0.0001704 1
13.9221 -9.96723 -2.71189 8.00236e-05 1
17.9301 -12.8367 -2.70759 2.94344e-05 1
20.6012 -14.749 -2.21666 0.000359719 10
