VERSION 0.7
FIELDS x y z intensity label
SIZE 4 4 4 4 4
TYPE F F F F F
COUNT 1 1 1 1 1
WIDTH 1180
HEIGHT 1
VIEWPOINT 0.57146 9.08152 2.72923 0.877414 0.000405928 0.000620357 -0.479734
POINTS 1180
DATA ascii
-10.4121 5.72409 -2.74313 0.000300683 1
-12.3812 6.80664 -2.74637 0.00016294 1
-15.2179 8.3661 -2.75049 7.55652e-05 1
-21.3864 11.7573 -1.27902 0.000272198 10
-21.3655 11.7458 -0.425578 0.000273569 10
-21.375 11.751 0.425766 0.000273516 10
-18.1103 9.95625 1.08309 2.93579e-05 10
-16.8337 9.25443 1.68065 0.000672134 10
-16.8359 9.2556 2.35898 0.00066218 10
-16.861 9.26939 3.04746 0.000649126 10
-16.8454 9.26086 3.73662 0.000633118 10
-17.7803 9.77478 4.68431 0.000121377 10
-16.8446 9.26038 5.15058 0.000592984 10
-8.9753 4.89349 -2.73915 0.000499465 1
-10.4461 5.69538 -2.74682 0.000300673 1
-12.4217 6.77253 -2.75009 0.000162933 1
-15.2451 8.3119 -2.75015 7.55612e-05 1
-20.327 11.0827 -2.02553 3.43992e-05 10
-20.4759 11.1638 -1.22223 0.000315205 10
-20.4713 11.1613 -0.406987 0.000316771 10
-20.4787 11.1653 0.407133 0.00031671 10
-18.1478 9.89452 1.08326 2.93626e-05 10
-16.8792 9.20284 1.68197 0.000671482 10
-16.8883 9.2078 2.3618 0.000661537 10
-16.875 9.20053 3.04417 0.000648494 10
-16.8824 9.20461 3.73768 0.0006325 10
-17.8068 9.70861 4.68236 0.000121382 10
-16.8766 9.20144 5.15053 0.000592403 10
-8.99107 4.86145 -2.73876 0.000499451 1
-10.4701 5.66119 -2.74794 0.000300663 1
-12.4431 6.72794 -2.74961 0.000162926 1
-15.2813 8.26259 -2.75147 7.55572e-05 1
-19.4103 10.4951 -2.70936 4.1471e-05 10
-15.7514 8.51674 -1.56661 0.00106489 10
-15.7591 8.52092 -0.938898 0.001075 10
-15.7396 8.51035 -0.312324 0.00107998 10
-20.0353 10.8331 0.397566 0.000341158 10
-18.177 9.82824 1.08295 2.93673e-05 10
-16.9219 9.14965 1.68303 0.000670797 10
-15.7538 8.51806 2.19898 0.000817484 10
-15.7591 8.52091 2.83749 0.000801645 10
-15.756 8.51926 3.48169 0.000782215 10
-17.8547 9.65401 4.68606 0.000121386 10
-16.9137 9.14523 5.15209 0.000591794 10
-9.01354 4.83302 -2.74045 0.000499437 1
-10.491 5.6252 -2.74823 0.000300653 1
-12.4681 6.68534 -2.74996 0.00016292 1
-15.308 8.2081 -2.7511 7.55533e-05 1
-18.5628 9.9533 -2.5862 5.01097e-05 10
-14.7315 7.89897 -1.46243 0.00130265 10
-14.7373 7.90206 -0.87637 0.00131482 10
-14.7201 7.89284 -0.291546 0.00132081 10
-18.5902 9.96799 0.368197 5.13758e-05 10
-18.1964 9.75681 1.08207 2.93719e-05 10
-16.9448 9.08573 1.68214 0.00067008 10
-14.7227 7.89425 2.05119 0.00100026 10
-14.7409 7.90399 2.64917 0.000981185 10
-14.7184 7.89197 3.2463 0.000957784 10
-17.8732 9.58355 4.68211 0.000121391 10
-16.9485 9.08772 5.15298 0.000591156 10
-9.04946 4.81169 -2.74625 0.000499423 1
-10.5038 5.58497 -2.74647 0.000300643 1
-12.481 6.63627 -2.74769 0.000162913 1
-15.3556 8.16472 -2.75451 7.55494e-05 1
-17.8128 9.47126 -2.47709 5.9916e-05 10
-14.7588 7.84739 -1.46241 0.00130125 10
-14.7433 7.83916 -0.875097 0.0013134 10
-14.7694 7.85303 -0.291978 0.00131939 10
-17.8272 9.47887 0.352426 6.14259e-05 10
-17.8402 9.48583 1.05892 4.76006e-05 10
-16.9973 9.03761 1.68421 0.000669331 10
-14.7682 7.85241 2.0537 0.000999174 10
-14.7614 7.8488 2.64793 0.000980122 10
-14.7514 7.84347 3.24751 0.000956745 10
-17.8576 9.49504 4.6693 4.27913e-05 10
-16.9917 9.03465 5.15649 0.00059049 10
-9.04381 4.76826 -2.73947 0.00049941 1
-10.5188 5.54596 -2.74533 0.000300633 1
-12.5137 6.59774 -2.7498 0.000162907 1
-15.3763 8.10701 -2.75313 7.55455e-05 1
-17.1073 9.01965 -2.37458 7.09679e-05 10
-14.7895 7.7976 -1.46274 0.00129978 10
-14.7987 7.80246 -0.87676 0.00131191 10
-14.7899 7.79782 -0.291843 0.0013179 10
-17.1344 9.03394 0.338105 7.27514e-05 10
-17.1196 9.02615 1.01427 7.2312e-05 10
-17.0252 8.97639 1.68386 0.00066855 10
-14.7987 7.80246 2.05414 0.000998046 10
-14.7795 7.79233 2.64627 0.000979013 10
-14.7856 7.79558 3.24903 0.000955661 10
-17.1483 9.04126 4.47555 5.07582e-05 10
-17.0358 8.98198 5.16034 0.000589795 10
-9.06569 4.73943 -2.74107 0.000499396 1
-10.5265 5.50311 -2.74229 0.000300623 1
-12.5289 6.54996 -2.7481 0.0001629 1
-12.9997 6.79609 -2.32334 0.00181889 10
-13.0101 6.8015 -1.80256 0.00185259 10
-13 6.79626 -1.2834 0.00187811 10
-13.008 6.80044 -0.769262 0.00189515 10
-13.0118 6.8024 -0.256286 0.00190356 10
-16.4712 8.61092 0.324423 8.54347e-05 10
-16.4961 8.62396 0.975537 8.49279e-05 10
-13.012 6.80253 1.28459 0.00146311 10
-13.001 6.79674 1.8013 0.00144273 10
-12.9996 6.79603 2.32332 0.00141598 10
-13.0209 6.80714 2.856 0.00138314 10
-13.0177 6.8055 3.3913 0.00134455 10
-16.527 8.64011 4.99704 5.75756e-05 10
-9.08129 4.7073 -2.7408 0.000499383 1
-10.5668 5.47731 -2.7478 0.000300614 1
-12.5414 6.50084 -2.74584 0.000162894 1
-13.0194 6.74859 -2.32263 0.00181672 10
-13.0325 6.75541 -1.80239 0.00185039 10
-13.0265 6.75231 -1.28368 0.00187587 10
-13.0292 6.7537 -0.769115 0.0018929 10
-13.0342 6.75626 -0.256261 0.0019013 10
-15.8941 8.23874 0.312489 9.95539e-05 10
-15.8986 8.24104 0.938493 9.89727e-05 10
-13.0217 6.74982 1.28321 0.00146137 10
-13.0325 6.7554 1.80239 0.00144102 10
-13.0438 6.76124 2.32698 0.00141429 10
-13.0487 6.76381 2.85691 0.00138149 10
-13.0337 6.75602 3.38929 0.00134295 10
-12.4305 6.44337 3.75162 0.000136554 10
-9.10887 4.68133 -2.74418 0.000499369 1
-10.5671 5.43078 -2.74294 0.000300604 1
-12.5738 6.46206 -2.74798 0.000162888 1
-13.0459 6.70467 -2.32317 0.00181447 10
-13.0519 6.70778 -1.80183 0.0018481 10
-13.0622 6.71309 -1.28489 0.00187355 10
-13.07 6.71707 -0.770134 0.00189056 10
-13.048 6.70579 -0.256072 0.00189895 10
-15.3383 7.8828 0.301018 0.000115189 10
-15.3285 7.87776 0.903211 0.000114526 10
-11.984 6.15894 1.17882 0.00017699 10
-13.0619 6.71293 1.80321 0.00143923 10
-13.0771 6.72074 2.32873 0.00141254 10
-13.0689 6.71649 2.85617 0.00137978 10
-13.0531 6.70837 3.38822 0.00134128 10
-12.3759 6.36038 3.72843 0.000407257 10
-9.12882 4.65137 -2.74528 0.000499356 1
-10.5962 5.39905 -2.74559 0.000300595 1
-12.5874 6.41359 -2.74604 0.000162881 1
-13.077 6.66308 -2.32456 0.00181214 10
-13.0789 6.66404 -1.80233 0.00184573 10
-13.0806 6.66492 -1.2844 0.00187115 10
-13.0785 6.66383 -0.769259 0.00188814 10
-13.1018 6.67571 -0.256668 0.00189651 10
-14.8229 7.55266 0.290385 0.000132422 10
-14.8374 7.56002 0.872714 0.000131672 10
-11.5636 5.89197 1.13544 0.000202087 10
-13.0814 6.66531 1.80267 0.00143738 10
-13.0812 6.66518 2.32529 0.00141072 10
-13.0911 6.67023 2.85592 0.001378 10
-13.0984 6.67395 3.39391 0.00133955 10
-12.3968 6.31651 3.72806 0.000407268 10
-9.14211 4.61802 -2.74441 0.000499343 1
-10.6043 5.3566 -2.7428 0.000300585 1
-11.3886 5.7528 -2.48012 0.0025985 10
-11.4025 5.75983 -2.02332 0.00265758 10
-11.4042 5.76068 -1.56877 0.0027055 10
-11.3842 5.75059 -1.11585 0.00274175 10
-11.386 5.75151 -0.668527 0.00276597 10
-11.3813 5.74911 -0.222568 0.00277791 10
-11.382 5.74948 0.222582 0.00277744 10
-11.406 5.76157 0.669696 0.00276457 10
-11.2124 5.66379 1.099 0.000294313 10
-11.4038 5.76049 1.56872 0.00210701 10
-11.3981 5.75759 2.02253 0.00206898 10
-11.3848 5.75088 2.47929 0.00202227 10
-11.4001 5.7586 2.94864 0.00196736 10
-11.3948 5.75593 3.42066 0.00190481 10
-9.15327 4.58362 -2.74294 0.00049933 1
-10.6187 5.31746 -2.74173 0.000300576 1
-11.4139 5.71566 -2.48127 0.00259501 10
-11.4141 5.71577 -2.02182 0.00265402 10
-11.4112 5.71432 -1.56698 0.00270187 10
-11.405 5.7112 -1.11593 0.00273808 10
-11.4114 5.71441 -0.668841 0.00276227 10
-11.4144 5.71592 -0.222825 0.00277419 10
-11.4306 5.72401 0.22314 0.00277373 10
-11.4066 5.71198 0.668556 0.00276087 10
-10.8556 5.43609 1.06217 0.000332529 10
-11.4109 5.71414 1.56693 0.00210419 10
-11.4333 5.72539 2.02523 0.0020662 10
-11.4293 5.72339 2.48463 0.00201955 10
-11.431 5.72424 2.95147 0.00196471 10
-11.4203 5.71885 3.42229 0.00190224 10
-9.17101 4.55253 -2.74348 0.000499317 1
-10.6425 5.28301 -2.7431 0.000300567 1
-11.4517 5.68467 -2.48515 0.00259141 10
-11.4344 5.67611 -2.0219 0.00265034 10
-11.4326 5.67521 -1.56719 0.00269813 10
-11.4528 5.68523 -1.11865 0.00273429 10
-11.4497 5.68367 -0.669917 0.00275845 10
-11.4334 5.67559 -0.222807 0.00277036 10
-11.4314 5.6746 0.222768 0.00276989 10
-11.4519 5.68478 0.670047 0.00275705 10
-10.6034 5.26357 1.03569 0.000299846 10
-11.4504 5.68404 1.56963 0.00210127 10
-11.4431 5.68041 2.02343 0.00206334 10
-11.4431 5.68043 2.4833 0.00201675 10
-11.452 5.68484 2.95174 0.00196198 10
-11.4391 5.67843 3.42197 0.0018996 10
-9.19344 4.52373 -2.74545 0.000499304 1
-10.6618 5.24627 -2.74333 0.000300558 1
-11.4602 5.63911 -2.48271 0.0025877 10
-11.4615 5.63977 -2.02319 0.00264655 10
-11.4585 5.6383 -1.56803 0.00269427 10
-11.4708 5.64433 -1.11848 0.00273039 10
-11.4735 5.64568 -0.670156 0.00275451 10
-11.471 5.64443 -0.223154 0.0027664 10
-11.4565 5.6373 0.222872 0.00276593 10
-11.4766 5.6472 0.670336 0.00275311 10
-10.6026 5.21715 1.03383 0.000299869 10
-11.4608 5.63942 1.56835 0.00209826 10
-11.4734 5.6456 2.02529 0.00206038 10
-11.464 5.641 2.48355 0.00201386 10
-11.4747 5.64623 2.95248 0.00195917 10
-11.4578 5.63795 3.42166 0.00189686 10
-9.20496 4.48956 -2.74419 0.000499292 1
-10.6865 5.21217 -2.74499 0.000300548 1
-11.4758 5.59714 -2.48185 0.00258387 10
-11.5011 5.60945 -2.02671 0.00264264 10
-11.4801 5.59923 -1.5683 0.0026903 10
-11.5011 5.60946 -1.11952 0.00272636 10
-11.4829 5.60057 -0.669554 0.00275045 10
-11.4981 5.60801 -0.2233 0.00276232 10
-11.4967 5.60731 0.223272 0.00276186 10
-11.5022 5.60998 0.670679 0.00274906 10
-10.6379 5.18846 1.0355 0.000299892 10
-11.4984 5.60815 1.5708 0.00209517 10
-11.4955 5.60675 2.02573 0.00205734 10
-11.4976 5.60777 2.48657 0.00201088 10
-11.5019 5.60985 2.95443 0.00195627 10
-11.5072 5.61246 3.43055 0.00189405 10
-9.20683 4.45076 -2.7401 0.000499279 1
-10.7011 5.1731 -2.74407 0.000300539 1
-11.5057 5.56205 -2.48409 0.00257994 10
-11.5009 5.55973 -2.02324 0.00263862 10
-11.502 5.56029 -1.56863 0.00268621 10
-11.5259 5.57185 -1.12003 0.00272222 10
-11.5081 5.56321 -0.669887 0.00274627 10
-11.5201 5.56904 -0.223348 0.00275813 10
-11.5265 5.57214 0.223472 0.00275766 10
-11.5228 5.57034 0.670745 0.00274488 10
-10.6334 5.14038 1.0333 0.000299915 10
-11.5261 5.57192 1.57191 0.00209198 10
-11.5203 5.56913 2.02666 0.00205421 10
-11.5264 5.5721 2.48858 0.00200782 10
-11.5061 5.56227 2.95051 0.00195328 10
-11.5232 5.57051 3.42948 0.00189115 10
-9.23024 4.42239 -2.74246 0.000499267 1
-10.713 5.13283 -2.74253 0.00030053 1
-11.5434 5.53069 -2.48807 0.00257589 10
-11.5399 5.52899 -2.02669 0.00263448 10
-11.5386 5.52839 -1.57099 0.002682 10
-11.5278 5.52318 -1.11833 0.00271796 10
-11.5395 5.52878 -0.670587 0.00274197 10
-11.5484 5.53307 -0.223521 0.00275381 10
-11.5387 5.52842 0.223332 0.00275335 10
-11.5275 5.52307 0.669894 0.00274058 10
-10.6607 5.10776 1.03422 0.000299938 10
-11.5329 5.52562 1.5702 0.0020887 10
-11.5536 5.53557 2.02911 0.00205099 10
-11.5322 5.52532 2.48565 0.00200466 10
-11.5331 5.52573 2.95246 0.00195021 10
-11.5448 5.53133 3.43014 0.00188817 10
-9.24375 4.38926 -2.7419 0.000499254 1
-10.7442 5.10172 -2.74592 0.000300522 1
-11.5635 5.49078 -2.48825 0.00257173 10
-11.5702 5.49395 -2.02864 0.00263023 10
-11.561 5.48956 -1.57141 0.00267768 10
-11.5752 5.4963 -1.12106 0.00271358 10
-11.5658 5.49187 -0.671002 0.00273756 10
-11.5593 5.48878 -0.22336 0.00274938 10
-11.5592 5.48872 0.223357 0.00274892 10
-11.5779 5.49761 0.671704 0.00273617 10
-10.6749 5.06884 1.03388 0.000299961 10
-11.5706 5.49412 1.57271 0.00208534 10
-11.5576 5.48795 2.02643 0.00204768 10
-11.5786 5.49792 2.49149 0.00200142 10
-11.564 5.49098 2.95544 0.00194705 10
-11.5751 5.49629 3.43344 0.00188511 10
-9.27474 4.36436 -2.74656 0.000499242 1
-10.7531 5.06003 -2.74368 0.000300513 1
-11.4214 5.37451 -2.45362 0.000349696 10
-11.4183 5.37303 -1.9987 0.000357439 10
-11.413 5.37057 -1.54875 0.000363678 10
-11.431 5.37904 -1.10528 0.000368348 10
-11.4172 5.37251 -0.661285 0.000371402 10
-11.435 5.38092 -0.220594 0.000372807 10
-11.445 5.38561 0.220786 0.000372551 10
-11.4447 5.38545 0.662878 0.000370635 10
-10.7095 5.03953 1.03552 0.000299983 10
-11.4317 5.37933 1.55127 0.000282193 10
-11.456 5.39077 2.0053 0.000276961 10
-11.4363 5.3815 2.45681 0.000270573 10
-11.4608 5.39303 2.92423 0.000263095 10
-11.4486 5.38731 3.39032 0.000254603 10
-9.27184 4.32353 -2.74121 0.00049923 1
-10.7867 5.02994 -2.74776 0.000300504 1
-11.139 5.19419 -2.38903 0.000385043 10
-11.1409 5.19508 -1.94695 0.000393535 10
-11.1399 5.19462 -1.50921 0.000400378 10
-11.1539 5.20114 -1.07672 0.000405503 10
-11.1399 5.19463 -0.644172 0.000408856 10
-11.1425 5.19584 -0.2146 0.000410403 10
-11.157 5.20258 0.214878 0.000410129 10
-11.1511 5.19986 0.64482 0.000408037 10
-10.7268 5.00199 1.03549 0.000300005 10
-11.1665 5.20703 1.51281 0.000310716 10
-11.162 5.20495 1.95065 0.000304988 10
-11.1604 5.20418 2.39362 0.000297992 10
-11.1712 5.20921 2.84569 0.000289801 10
-11.1672 5.20737 3.30159 0.000280496 10
-9.3059 4.29993 -2.74683 0.000499218 1
-10.7979 4.98935 -2.74616 0.000300496 1
-10.893 5.03329 -2.3325 0.000422722 10
-10.8817 5.02804 -1.89858 0.00043201 10
-10.8729 5.02399 -1.47065 0.000439496 10
-10.8984 5.03577 -1.05035 0.000445102 10
-10.8756 5.02525 -0.627872 0.000448774 10
-10.892 5.0328 -0.209435 0.000450472 10
-10.8946 5.03402 0.209485 0.000450181 10
-10.8911 5.03239 0.628765 0.000447902 10
-10.7206 4.95363 1.03322 0.000300027 10
-10.9055 5.03906 1.47507 0.000341121 10
-10.9085 5.04041 1.90325 0.000334866 10
-10.9108 5.04149 2.3363 0.000327226 10
-10.9067 5.03959 2.77381 0.000318277 10
-10.8965 5.0349 3.21633 0.000308109 10
-9.30968 4.26231 -2.74353 0.000499206 1
-10.6258 4.86486 -2.69804 0.0004508 10
-10.6267 4.86528 -2.27182 0.000462795 10
-10.6257 4.86482 -1.85094 0.000472928 10
-10.6322 4.86782 -1.43579 0.000481094 10
-10.6414 4.872 -1.02394 0.000487213 10
-10.6332 4.86826 -0.61289 0.000491222 10
-10.6354 4.86927 -0.204173 0.000493081 10
-10.6343 4.86878 0.204153 0.000492771 10
-10.6486 4.87534 0.613781 0.000490295 10
-10.6366 4.86981 1.02347 0.000485679 10
-10.642 4.87231 1.43712 0.000373457 10
-10.6603 4.88068 1.85697 0.000366645 10
-10.6392 4.87099 2.27448 0.000358321 10
-10.6426 4.87255 2.7023 0.000348569 10
-10.6582 4.87969 3.14093 0.000337489 10
-9.31812 4.22689 -2.74166 0.000499194 1
-10.6298 4.82189 -2.69477 0.00318619 10
-10.6239 4.81922 -2.26761 0.00327254 10
-10.6402 4.82662 -1.85053 0.00334576 10
-10.6251 4.81978 -1.43255 0.00340513 10
-10.6478 4.83004 -1.02292 0.00345004 10
-10.6296 4.82182 -0.611711 0.00348003 10
-10.6322 4.823 -0.203788 0.00349482 10
-10.6421 4.82747 0.203977 0.00349424 10
-10.65 4.83106 0.612884 0.00347829 10
-10.6262 4.82024 1.02085 0.00344715 10
-10.6286 4.82137 1.43303 0.0026519 10
-10.6475 4.82992 1.85179 0.00260478 10
-10.6509 4.83145 2.27337 0.00254689 10
-10.6315 4.82267 2.69521 0.00247881 10
-10.6311 4.82248 3.12798 0.00240123 10
-9.34417 4.19944 -2.74499 0.000499183 1
-10.667 4.79396 -2.69995 0.00318026 10
-10.6445 4.78383 -2.26843 0.00326645 10
-10.6698 4.79522 -1.85276 0.00333955 10
-10.6602 4.79089 -1.43502 0.00339881 10
-10.6558 4.78891 -1.02208 0.00344364 10
-10.6673 4.79407 -0.612911 0.00347359 10
-10.6494 4.78603 -0.203796 0.00348834 10
-10.6506 4.78657 0.203818 0.00348776 10
-10.6589 4.79032 0.612432 0.00347185 10
-10.647 4.78494 1.02124 0.00344076 10
-10.6588 4.79024 1.43482 0.00264698 10
-10.6541 4.78816 1.85003 0.00259994 10
-10.6522 4.78728 2.27007 0.00254215 10
-10.6742 4.79717 2.70176 0.0024742 10
-10.6738 4.79702 3.13561 0.00239676 10
-9.35506 4.16514 -2.7439 0.000499171 1
-10.6758 4.75317 -2.69795 0.0031742 10
-10.6914 4.76013 -2.27488 0.00326023 10
-10.666 4.7488 -1.8492 0.0033332 10
-10.692 4.76038 -1.43705 0.00339235 10
-10.6785 4.75436 -1.02266 0.0034371 10
-10.6905 4.7597 -0.613284 0.00346699 10
-10.67 4.7506 -0.203872 0.00348172 10
-10.6797 4.75489 0.204056 0.00348114 10
-10.6837 4.7567 0.612898 0.00346526 10
-10.6912 4.76002 1.02387 0.00343423 10
-10.6946 4.76153 1.4374 0.00264195 10
-10.6856 4.75752 1.85259 0.002595 10
-10.6817 4.75581 2.27281 0.00253731 10
-10.6734 4.7521 2.69735 0.00246948 10
-10.6748 4.75271 3.13098 0.00239218 10
-9.36844 4.13198 -2.74358 0.00049916 1
-10.7051 4.72153 -2.70119 0.003168 10
-10.6966 4.71778 -2.27247 0.00325388 10
-10.7014 4.71988 -1.85247 0.00332671 10
-10.7148 4.7258 -1.43789 0.00338575 10
-10.692 4.71575 -1.02238 0.00343042 10
-10.7047 4.72135 -0.613154 0.00346025 10
-10.7081 4.72283 -0.204283 0.00347496 10
-10.7082 4.72287 0.204284 0.00347437 10
-10.7132 4.7251 0.613641 0.00345852 10
-10.6958 4.7174 1.02273 0.00342755 10
-10.7175 4.72699 1.43825 0.00263681 10
-10.7008 4.71963 1.85237 0.00258994 10
-10.6994 4.71899 2.27305 0.00253236 10
-10.7018 4.72004 2.70033 0.00246466 10
-10.7067 4.72223 3.13551 0.0023875 10
-9.37349 4.09518 -2.74086 0.000499148 1
-10.7256 4.68591 -2.70221 0.00316168 10
-10.7282 4.68705 -2.27569 0.00324739 10
-10.7301 4.68787 -1.85459 0.00332008 10
-10.7137 4.68069 -1.43554 0.00337901 10
-10.7109 4.6795 -1.02262 0.0034236 10
-10.7364 4.69062 -0.614026 0.00345337 10
-10.7369 4.69084 -0.204519 0.00346805 10
-10.7219 4.68427 0.204232 0.00346747 10
-10.7129 4.68037 0.612685 0.00345164 10
-10.7225 4.68455 1.02372 0.00342073 10
-10.7266 4.68634 1.43727 0.00263156 10
-10.7284 4.68713 1.8543 0.00258478 10
-10.7386 4.69159 2.27789 0.00252731 10
-10.7407 4.69249 2.706 0.00245973 10
-10.7294 4.68756 3.13733 0.00238272 10
-9.39985 4.06768 -2.7444 0.000499137 1
-10.7463 4.65034 -2.70331 0.00315522 10
-10.7491 4.65157 -2.27667 0.00324077 10
-10.7572 4.65508 -1.85647 0.00331332 10
-10.7409 4.64799 -1.437 0.00337213 10
-10.7335 4.6448 -1.02321 0.00341663 10
-10.7564 4.65472 -0.614239 0.00344635 10
-10.7408 4.64795 -0.204282 0.00346099 10
-10.7497 4.6518 0.204451 0.00346042 10
-10.758 4.65543 0.614331 0.00344462 10
-10.7402 4.6477 1.02385 0.00341377 10
-10.7376 4.64659 1.43657 0.0026262 10
-10.7431 4.64894 1.85402 0.00257951 10
-10.7562 4.65461 2.27815 0.00252215 10
-10.7414 4.64824 2.70209 0.00245471 10
-10.7427 4.64878 3.13646 0.00237785 10
-9.40872 4.03259 -2.74286 0.000499126 1
-10.7754 4.61836 -2.70657 0.00314864 10
-10.7772 4.61913 -2.27919 0.00323401 10
-10.7671 4.61479 -1.85537 0.00330642 10
-10.7612 4.61225 -1.43755 0.00336512 10
-10.7596 4.61156 -1.02416 0.00340952 10
-10.7655 4.6141 -0.613833 0.00343918 10
-10.7723 4.61702 -0.204574 0.0034538 10
-10.7774 4.61921 0.204671 0.00345322 10
-10.774 4.61776 0.61432 0.00343746 10
-10.7652 4.61397 1.02469 0.00340666 10
-10.7688 4.6155 1.43857 0.00262073 10
-10.7595 4.61153 1.85406 0.00257414 10
-10.7864 4.62305 2.28112 0.00251689 10
-10.7607 4.61204 2.70287 0.00244958 10
-10.7743 4.61787 3.14095 0.00237287 10
-9.42739 4.00169 -2.74421 0.000499115 1
-10.7936 4.58162 -2.7071 0.00314192 10
-10.7932 4.58143 -2.27916 0.00322712 10
-10.8034 4.58579 -1.85887 0.00329938 10
-10.8021 4.5852 -1.44087 0.00335796 10
-10.7906 4.58034 -1.02558 0.00340228 10
-10.7997 4.5842 -0.614868 0.00343188 10
-10.794 4.58179 -0.204681 0.00344646 10
-10.792 4.58093 0.204643 0.00344588 10
-10.7806 4.57607 0.613777 0.00343015 10
-10.8018 4.58509 1.02665 0.00339942 10
-10.7863 4.57851 1.43877 0.00261516 10
-10.7871 4.57886 1.85606 0.00256865 10
-10.7849 4.57792 2.27742 0.00251153 10
-10.8035 4.58582 2.70959 0.00244435 10
-10.7968 4.58297 3.14284 0.0023678 10
-9.43141 3.9646 -2.74134 0.000499104 1
-10.8192 4.54799 -2.70953 0.00313508 10
-10.8191 4.54795 -2.28128 0.0032201 10
-10.8065 4.54263 -1.85665 0.00329221 10
-10.8051 4.54207 -1.43916 0.00335067 10
-10.8137 4.54566 -1.02627 0.00339489 10
-10.8154 4.54638 -0.614855 0.00342443 10
-10.8191 4.54795 -0.204855 0.00343898 10
-10.809 4.54369 0.204664 0.00343841 10
-10.8039 4.54156 0.614202 0.00342271 10
-10.8085 4.54348 1.02577 0.00339204 10
-10.8093 4.54383 1.43972 0.00260948 10
-10.8219 4.54911 1.8593 0.00256307 10
-10.8274 4.55144 2.28303 0.00250606 10
-10.8096 4.54395 2.70712 0.00243902 10
-10.8282 4.55175 3.14732 0.00236263 10
-9.4498 3.93357 -2.74268 0.000499093 1
-10.8253 4.50613 -2.70709 0.0031281 10
-10.8442 4.51402 -2.28324 0.00321295 10
-10.8405 4.51248 -1.85978 0.0032849 10
-10.8364 4.51076 -1.44121 0.00334324 10
-10.8458 4.51467 -1.02781 0.00338737 10
-10.8418 4.51301 -0.615456 0.00341684 10
-10.843 4.51349 -0.205007 0.00343136 10
-10.833 4.50936 0.204819 0.00343079 10
-10.8498 4.51635 0.615912 0.00341512 10
-10.8433 4.51363 1.02757 0.00338452 10
-10.8292 4.50777 1.44026 0.00260369 10
-10.844 4.51391 1.86037 0.00255738 10
-10.8406 4.5125 2.28246 0.00250049 10
-10.8339 4.50972 2.70925 0.00243359 10
-10.8414 4.51285 3.14657 0.00235736 10
-9.47152 3.90388 -2.74501 0.000499083 1
-10.8528 4.47321 -2.71005 0.003121 10
-10.8516 4.47272 -2.28149 0.00320566 10
-10.8503 4.47219 -1.85878 0.00327746 10
-10.8563 4.47464 -1.44177 0.00333567 10
-10.8504 4.47223 -1.02676 0.0033797 10
-10.8519 4.47283 -0.615138 0.00340912 10
-10.85 4.47203 -0.204843 0.00342361 10
-10.8698 4.4802 0.205217 0.00342303 10
-10.8733 4.48164 0.61635 0.0034074 10
-10.8589 4.4757 1.02756 0.00337686 10
-10.8612 4.47668 1.44243 0.00259779 10
-10.8553 4.47424 1.85963 0.00255158 10
-10.8683 4.4796 2.285 0.00249481 10
-10.8523 4.473 2.70993 0.00242806 10
-10.8597 4.47606 3.14733 0.002352 10
-9.4739 3.86622 -2.74177 0.000499072 1
-10.8879 4.44325 -2.71492 0.00311377 10
-10.8847 4.44196 -2.28517 0.00319825 10
-10.8833 4.44139 -1.86176 0.00326989 10
-10.8787 4.43953 -1.44269 0.00332797 10
-10.8833 4.44141 -1.0284 0.0033719 10
-10.8717 4.43664 -0.615377 0.00340125 10
-10.8735 4.43738 -0.204993 0.00341571 10
-10.8862 4.44257 0.205233 0.00341514 10
-10.8893 4.44383 0.616374 0.00339953 10
-10.8974 4.44714 1.02973 0.00336907 10
-10.8758 4.43835 1.4423 0.00259179 10
-10.8769 4.43878 1.86066 0.00254568 10
-10.8849 4.44203 2.2852 0.00248904 10
-10.8757 4.43829 2.71188 0.00242243 10
-10.8926 4.4452 3.15235 0.00234654 10
-9.48797 3.83339 -2.74195 0.000499062 1
-10.9142 4.40964 -2.71764 0.00310642 10
-10.9066 4.40655 -2.28652 0.0031907 10
-10.8947 4.40177 -1.86108 0.00326218 10
-10.9092 4.40759 -1.44467 0.00332013 10
-10.8983 4.4032 -1.02836 0.00336397 10
-10.9073 4.40684 -0.616521 0.00339325 10
-10.9009 4.40423 -0.205219 0.00340768 10
-10.9067 4.4066 0.205329 0.0034071 10
-10.9016 4.40452 0.616196 0.00339154 10
-10.8966 4.40253 1.0282 0.00336113 10
-10.8963 4.40239 1.44297 0.00258569 10
-10.9087 4.40741 1.86346 0.00253968 10
-10.9066 4.40655 2.28652 0.00248316 10
-10.9055 4.4061 2.71545 0.00241671 10
-10.9101 4.40797 3.15294 0.00234098 10
-9.50538 3.80188 -2.74313 0.000499052 1
-10.9329 4.37284 -2.71846 0.00309894 10
-10.9333 4.373 -2.2889 0.00318303 10
-10.9381 4.37494 -1.86586 0.00325434 10
-10.9128 4.3648 -1.44312 0.00331216 10
-10.9298 4.37161 -1.02988 0.0033559 10
-10.9215 4.36828 -0.616455 0.00338511 10
-10.9164 4.36625 -0.205223 0.00339951 10
-10.9353 4.37381 0.205578 0.00339893 10
-10.9401 4.37572 0.617505 0.0033834 10
-10.9279 4.37086 1.02971 0.00335307 10
-10.9385 4.37508 1.44652 0.00257948 10
-10.9419 4.37647 1.86651 0.00253357 10
-10.9369 4.37446 2.28967 0.00247719 10
-10.9231 4.36892 2.71603 0.00241089 10
-10.9284 4.37105 3.1538 0.00233533 10
-9.50991 3.76524 -2.74063 0.000499041 1
-10.9562 4.33788 -2.72049 0.00309133 10
-10.9494 4.33518 -2.2891 0.00317523 10
-10.9394 4.33123 -1.8635 0.00324638 10
-10.9562 4.33787 -1.44686 0.00330406 10
-10.9553 4.33751 -1.03085 0.00334769 10
-10.9586 4.33882 -0.617693 0.00337684 10
-10.9595 4.33916 -0.205747 0.0033912 10
-10.9375 4.33048 0.205335 0.00339063 10
-10.9408 4.33178 0.61669 0.00337513 10
-10.9463 4.33394 1.03001 0.00334487 10
-10.9394 4.33122 1.44464 0.00257316 10
-10.9474 4.33439 1.86486 0.00252737 10
-10.9486 4.33487 2.28893 0.00247111 10
-10.9449 4.33338 2.71767 0.00240497 10
-10.9453 4.33355 3.15429 0.00232959 10
-9.52707 3.73362 -2.7418 0.000499032 1
-10.9651 4.29718 -2.71895 0.0030836 10
-10.9763 4.30156 -2.29156 0.0031673 10
-10.9593 4.29492 -1.86432 0.00323828 10
-10.9585 4.29461 -1.44518 0.00329582 10
-10.9691 4.29873 -1.03073 0.00333935 10
-10.9626 4.29621 -0.617071 0.00336843 10
-10.9676 4.29816 -0.205616 0.00338275 10
-10.9724 4.30004 0.205706 0.00338218 10
-10.9698 4.29902 0.617474 0.00336672 10
-10.9839 4.30455 1.03213 0.00333653 10
-10.98 4.30301 1.448 0.00256675 10
-10.966 4.29755 1.86546 0.00252106 10
-10.9665 4.29774 2.28953 0.00246494 10
-10.9817 4.30368 2.72306 0.00239895 10
-10.9683 4.29844 3.15658 0.00232375 10
-9.54095 3.70069 -2.74206 0.000499021 1
-11.0023 4.2675 -2.72445 0.00307575 10
-10.983 4.26001 -2.28984 0.00315924 10
-10.9966 4.26529 -1.86811 0.00323005 10
-10.9913 4.26325 -1.44753 0.00328745 10
-10.9812 4.25934 -1.03047 0.00333088 10
-11.0029 4.26774 -0.618494 0.00335988 10
-11.0007 4.26688 -0.205956 0.00337418 10
-11.0048 4.26846 0.206032 0.00337361 10
-10.9957 4.26495 0.61809 0.00335818 10
-11.0042 4.26826 1.03263 0.00332806 10
-10.9921 4.26357 1.44763 0.00256023 10
-11.0041 4.26821 1.86939 0.00251465 10
-11.0099 4.27047 2.29546 0.00245867 10
-10.9943 4.26441 2.72248 0.00239284 10
-11.0102 4.27059 3.16434 0.00231782 10
-9.54627 3.66447 -2.7399 0.000499012 1
-11.016 4.22866 -2.72419 0.00306778 10
-11.0277 4.23314 -2.29607 0.00315106 10
-11.0186 4.22963 -1.86933 0.00322169 10
-11.0051 4.22445 -1.44739 0.00327896 10
-11.0097 4.22622 -1.03175 0.00332227 10
-11.0185 4.2296 -0.618537 0.00335121 10
-11.0094 4.22611 -0.205842 0.00336546 10
-11.0173 4.22915 0.205989 0.0033649 10
-11.0198 4.23009 0.618609 0.00334951 10
-11.033 4.23519 1.03394 0.00331946 10
-11.0066 4.22504 1.44759 0.00255361 10
-11.0157 4.22852 1.86884 0.00250814 10
-11.0233 4.23146 2.29516 0.0024523 10
-11.0137 4.22778 2.72363 0.00238663 10
-11.0346 4.23579 3.16706 0.00231179 10
-9.58303 3.64025 -2.74679 0.000499002 1
-11.0406 4.19394 -2.72663 0.00305968 10
-11.0351 4.19184 -2.29455 0.00314276 10
-11.0394 4.19346 -1.87036 0.00321321 10
-11.0371 4.19259 -1.44966 0.00327033 10
-11.0294 4.18967 -1.03222 0.00331354 10
-11.0374 4.19272 -0.618774 0.0033424 10
-11.0348 4.19171 -0.206041 0.00335662 10
-11.0426 4.19471 0.206188 0.00335605 10
-11.0413 4.19419 0.618992 0.0033407 10
-11.0414 4.19422 1.03334 0.00331073 10
-11.033 4.19103 1.44912 0.00254689 10
-11.0338 4.19136 1.86942 0.00250154 10
-11.0324 4.19081 2.29399 0.00244583 10
-11.0373 4.19268 2.72582 0.00238032 10
-11.0426 4.19471 3.16515 0.00230568 10
-9.58386 3.60234 -2.7434 0.000498992 1
-11.0547 4.15517 -2.7265 0.00305146 10
-11.056 4.15569 -2.29587 0.00313433 10
-11.0618 4.15787 -1.8717 0.0032046 10
-11.0601 4.15721 -1.45077 0.00326157 10
-11.0692 4.16063 -1.03458 0.00330467 10
-11.0528 4.15449 -0.618822 0.00333346 10
-11.0622 4.15801 -0.206281 0.00334764 10
-11.0666 4.15965 0.206362 0.00334707 10
-11.0652 4.15915 0.619517 0.00333177 10
-11.06 4.15719 1.03372 0.000300442 10
-11.0661 4.15946 1.45156 0.00254006 10
-11.0705 4.16114 1.87317 0.00249483 10
-11.0771 4.16361 2.30025 0.00243926 10
-11.0802 4.16479 2.73281 0.00237393 10
-11.0708 4.16123 3.16903 0.00229947 10
-9.59447 3.56815 -2.74286 0.000498983 1
-11.0941 4.12587 -2.73267 0.00304313 10
-11.0955 4.12636 -2.30106 0.00312577 10
-11.09 4.12432 -1.87401 0.00319586 10
-11.0747 4.11865 -1.45079 0.00325269 10
-11.0907 4.1246 -1.03524 0.00329568 10
-11.0822 4.12144 -0.619658 0.00332439 10
-11.0919 4.12502 -0.206564 0.00333853 10
-11.0875 4.12341 0.206483 0.00333797 10
-11.0961 4.1266 0.620434 0.0033227 10
-11.0707 4.11716 1.03337 0.00030046 10
-11.0746 4.11862 1.45079 0.00253314 10
-11.0812 4.12105 1.87253 0.00248802 10
-11.087 4.1232 2.29929 0.0024326 10
-11.0815 4.12118 2.72957 0.00236744 10
-11.0858 4.12275 3.16918 0.00229318 10
-9.61737 3.5385 -2.74586 0.000498974 1
-11.1029 4.08508 -2.7313 0.00303467 10
-11.1018 4.08468 -2.29941 0.0031171 10
-11.1161 4.08993 -1.876 0.003187 10
-11.1081 4.087 -1.4533 0.00324368 10
-11.0997 4.08388 -1.03474 0.00328655 10
-11.1063 4.08633 -0.620205 0.00331519 10
-11.1217 4.09201 -0.206854 0.00332929 10
-11.1171 4.0903 0.206767 0.00332873 10
-11.097 4.08292 0.619687 0.0033135 10
-11.0902 4.0804 1.03385 0.000300477 10
-11.1154 4.08968 1.45425 0.00252612 10
-11.1083 4.08707 1.87469 0.00248112 10
-11.1024 4.08488 2.29952 0.00242585 10
-11.1187 4.09088 2.73519 0.00236085 10
-11.1261 4.0936 3.17661 0.00228679 10
-9.61498 3.49957 -2.74167 0.000498964 1
-11.1229 4.04842 -2.73274 0.0030261 10
-11.1296 4.05086 -2.30222 0.0031083 10
-11.1308 4.05128 -1.87609 0.00317802 10
-11.1326 4.05193 -1.45463 0.00323454 10
-11.1193 4.04709 -1.03524 0.0032773 10
-11.1341 4.05248 -0.620961 0.00330586 10
-11.1283 4.05036 -0.206711 0.00331993 10
-11.1463 4.05693 0.207046 0.00331936 10
-11.1378 4.05383 0.621168 0.00330417 10
-11.105 4.04189 1.03391 0.000300494 10
-11.1213 4.04783 1.45316 0.002519 10
-11.1312 4.05142 1.87615 0.00247413 10
-11.1389 4.05423 2.30414 0.002419 10
-11.1242 4.04888 2.73304 0.00235418 10
-11.1487 4.05779 3.179 0.00228031 10
-9.63877 3.47017 -2.74498 0.000498955 1
-11.1647 4.01955 -2.73954 0.00301741 10
-11.1405 4.01083 -2.30156 0.00309939 10
-11.1446 4.0123 -1.87604 0.00316891 10
-11.1582 4.01719 -1.45614 0.00322528 10
-11.1479 4.01349 -1.0366 0.00326792 10
-11.1462 4.0129 -0.620855 0.0032964 10
-11.1502 4.01432 -0.206857 0.00331043 10
-11.1555 4.01622 0.206955 0.00330987 10
-11.157 4.01679 0.621456 0.00329472 10
-11.1046 3.99789 1.03257 0.000300511 10
-11.1505 4.01442 1.45513 0.00251179 10
-11.1531 4.01537 1.87748 0.00246703 10
-11.1483 4.01363 2.30317 0.00241205 10
-11.166 4.02 2.73985 0.00234741 10
-11.1675 4.02056 3.18035 0.00227375 10
-9.64812 3.43554 -2.74421 0.000498946 1
-11.1657 3.97593 -2.73636 0.0030086 10
-11.1698 3.97738 -2.30473 0.00309035 10
-11.1757 3.97951 -1.87893 0.00315968 10
-11.1658 3.97595 -1.45531 0.00321589 10
-11.1852 3.98286 -1.03876 0.00325841 10
-11.1699 3.97742 -0.621394 0.00328681 10
-11.1897 3.98448 -0.207331 0.0033008 10
-11.17 3.97745 0.206964 0.00330024 10
-11.1683 3.97687 0.621308 0.00328514 10
-11.1197 3.95956 1.03269 0.000300527 10
-11.18 3.98103 1.45717 0.00250448 10
-11.1833 3.9822 1.88021 0.00245984 10
-11.1716 3.97803 2.3051 0.00240502 10
-11.1721 3.9782 2.73792 0.00234055 10
-11.1927 3.98555 3.18354 0.0022671 10
-9.66636 3.40406 -2.74601 0.000498937 1
-11.1939 3.94198 -2.73987 0.00299967 10
-11.211 3.94802 -2.31038 0.00308119 10
-11.186 3.93921 -1.87833 0.00315033 10
-11.1868 3.9395 -1.45625 0.00320638 10
-11.2029 3.94516 -1.03912 0.00324878 10
-11.2039 3.9455 -0.622514 0.0032771 10
-11.2067 3.94652 -0.207389 0.00329105 10
-11.2056 3.94611 0.207368 0.00329049 10
-11.1939 3.94198 0.621959 0.00327543 10
-11.1547 3.92818 1.03465 0.000300543 10
-11.1943 3.94212 1.45722 0.00249707 10
-11.1895 3.94046 1.87893 0.00245256 10
-11.1905 3.94078 2.30614 0.00239789 10
-11.1922 3.94138 2.73945 0.0023336 10
-11.1942 3.9421 3.18003 0.00226035 10
-9.67272 3.3684 -2.74445 0.000498929 1
-11.2068 3.90263 -2.73969 0.00299063 10
-11.2127 3.90469 -2.30791 0.00307192 10
-11.2115 3.90426 -1.88032 0.00314086 10
-11.2237 3.90853 -1.45927 0.00319675 10
-11.2246 3.90883 -1.03987 0.00323903 10
-11.2118 3.90436 -0.622194 0.00326727 10
-11.2302 3.91079 -0.207571 0.00328118 10
-11.2151 3.9055 0.20729 0.00328062 10
-11.2224 3.90806 0.622783 0.0032656 10
-11.1669 3.88871 1.03452 0.00030056 10
-11.2255 3.90912 1.4595 0.00248956 10
-11.2316 3.91127 1.88369 0.00244518 10
-11.225 3.90894 2.31042 0.00239067 10
-11.2319 3.91138 2.74583 0.00232657 10
-11.227 3.90967 3.18546 0.00225353 10
-9.68513 3.33486 -2.74466 0.00049892 1
-11.2411 3.87062 -2.74475 0.00298148 10
-11.2444 3.87174 -2.31162 0.00306253 10
-11.2335 3.868 -1.88173 0.00313127 10
-11.2402 3.87032 -1.45965 0.003187 10
-11.2324 3.86762 -1.03933 0.00322915 10
-11.2526 3.8746 -0.623707 0.00325731 10
-11.2342 3.86824 -0.207393 0.00327118 10
-11.2533 3.87481 0.207745 0.00327062 10
-11.2353 3.86863 0.622746 0.00325564 10
-11.1867 3.85188 1.0351 0.000300576 10
-11.2454 3.8721 1.46032 0.00248196 10
-11.2585 3.8766 1.88591 0.00243771 10
-11.2578 3.87637 2.31438 0.00238336 10
-11.2532 3.87478 2.7477 0.00231944 10
-11.2455 3.87214 3.18685 0.00224661 10
-9.6896 3.29861 -2.74264 0.000498911 1
-11.2534 3.83097 -2.74447 0.000300276 1
-11.2691 3.83632 -2.31394 0.00305303 10
-11.2648 3.83485 -1.88472 0.00312156 10
-11.2669 3.83557 -1.46137 0.00317712 10
-11.2695 3.83645 -1.04152 0.00321915 10
-11.2722 3.83736 -0.624042 0.00324723 10
-11.2788 3.83963 -0.207968 0.00326106 10
-11.2663 3.83536 0.207737 0.0032605 10
-11.2833 3.84114 0.624657 0.00324556 10
-11.1819 3.80664 1.03342 0.000300591 10
-11.2806 3.84022 1.46314 0.00247427 10
-11.2635 3.83442 1.88451 0.00243015 10
-11.279 3.83969 2.31598 0.00237595 10
-11.2801 3.84007 2.75099 0.00231223 10
-11.271 3.83695 3.19025 0.00223962 10
-9.69281 3.26199 -2.74031 0.000498903 1
-11.2594 3.7892 -2.74268 0.00030027 1
-11.2891 3.79921 -2.31532 0.00304341 10
-11.2908 3.79979 -1.88685 0.00311173 10
-11.2948 3.80111 -1.46325 0.00316713 10
-11.2923 3.80028 -1.04239 0.00320903 10
-11.3002 3.80296 -0.624858 0.00323702 10
-11.2835 3.79734 -0.207809 0.00325081 10
-11.3016 3.80342 0.208142 0.00325025 10
-11.2964 3.80168 0.624648 0.00323536 10
-11.1924 3.76665 1.03317 0.000300607 10
-11.3051 3.80459 1.46459 0.00246648 10
-11.2942 3.80091 1.8874 0.00242249 10
-11.3082 3.80562 2.31922 0.00236846 10
-11.3035 3.80406 2.75344 0.00230493 10
-11.2837 3.79739 3.19008 0.00223253 10
-9.71007 3.23011 -2.74199 0.000498894 1
-11.2807 3.75259 -2.74467 0.000300264 1
-11.3119 3.76297 -2.31728 0.00303367 10
-11.3122 3.76307 -1.88821 0.00310179 10
-11.3075 3.76151 -1.46319 0.00315702 10
-11.3227 3.76656 -1.04398 0.00319879 10
-11.3112 3.76273 -0.624732 0.00322669 10
-11.3227 3.76656 -0.208287 0.00324044 10
-11.3103 3.76245 0.208059 0.00323989 10
-11.3046 3.76055 0.624371 0.00322504 10
-11.2031 3.72676 1.03295 0.000300622 10
-11.3178 3.76494 1.46453 0.00245861 10
-11.3149 3.76396 1.88865 0.00241475 10
-11.3058 3.76093 2.31602 0.00236088 10
-11.331 3.76931 2.7569 0.00229754 10
-11.328 3.76831 3.19886 0.00222537 10
-9.7222 3.1965 -2.74224 0.000498886 1
-11.2898 3.71189 -2.74371 0.000300258 1
-11.3441 3.72977 -2.3212 0.00302382 10
-11.3281 3.72451 -1.88869 0.00309173 10
-11.3292 3.72487 -1.46431 0.00314679 10
-11.3381 3.72779 -1.0442 0.00318843 10
-11.3304 3.72524 -0.625071 0.00321625 10
-11.3393 3.72818 -0.208352 0.00322995 10
-11.3402 3.72847 0.208368 0.0032294 10
-11.3465 3.73055 0.625961 0.0032146 10
-11.2189 3.6886 1.03322 0.000300637 10
-11.342 3.72908 1.46597 0.00245064 10
-11.3509 3.732 1.89249 0.00240692 10
-11.3354 3.7269 2.31942 0.00235321 10
-11.3474 3.73083 2.75771 0.00229007 10
-11.3556 3.73353 3.20296 0.00221812 10
-9.75086 3.16825 -2.74719 0.000498878 1
-11.3115 3.67533 -2.74586 0.000300252 1
-11.3546 3.68933 -2.32069 0.00301386 10
-11.3611 3.69145 -1.89203 0.00308156 10
-11.3648 3.69266 -1.46724 0.00313644 10
-11.3533 3.68891 -1.0444 0.00317796 10
-11.3615 3.69158 -0.626073 0.00320568 10
-11.3516 3.68835 -0.208339 0.00321934 10
-11.354 3.68915 0.208384 0.00321879 10
-11.3516 3.68837 0.62553 0.00320404 10
-11.2405 3.65225 1.03402 0.000300652 10
-11.3788 3.69718 1.46903 0.00244258 10
-11.3541 3.68916 1.89085 0.00239899 10
-11.3522 3.68855 2.3202 0.00234546 10
-11.3639 3.69236 2.75858 0.00228251 10
-11.3585 3.69061 3.20013 0.00221078 10
-9.742 3.12782 -2.7416 0.00049887 1
-11.3222 3.63517 -2.74537 0.000300247 1
-11.3855 3.65547 -2.32438 0.00300379 10
-11.3781 3.6531 -1.89272 0.00307127 10
-11.3765 3.65259 -1.46708 0.00312598 10
-11.3724 3.65127 -1.04498 0.00316736 10
-11.3949 3.65851 -0.627207 0.003195 10
-11.3984 3.65963 -0.208963 0.00320862 10
-11.3792 3.65347 0.208611 0.00320807 10
-11.3791 3.65343 0.626336 0.00319336 10
-11.2602 3.61525 1.03467 0.000300667 10
-11.3834 3.65481 1.46798 0.00243443 10
-11.3933 3.658 1.89525 0.00239098 10
-11.4027 3.66101 2.3279 0.00233761 10
-11.4013 3.66056 2.76454 0.00227487 10
-11.3978 3.65943 3.20758 0.00220337 10
-9.76357 3.09719 -2.74461 0.000498862 1
-11.3305 3.59425 -2.74431 0.000300241 1
-11.4089 3.61913 -2.32658 0.00299361 10
-11.4079 3.6188 -1.89556 0.00306087 10
-11.4141 3.62077 -1.4703 0.0031154 10
-11.4111 3.61981 -1.04737 0.00315665 10
-11.3957 3.61493 -0.626552 0.0031842 10
-11.402 3.61691 -0.208796 0.00319777 10
-11.4057 3.61811 0.208865 0.00319723 10
-11.4218 3.62322 0.627988 0.00318256 10
-11.2561 3.57065 1.03314 0.000300681 10
-11.4241 3.62395 1.47159 0.00242618 10
-11.4177 3.62192 1.8972 0.00238288 10
-11.4027 3.61715 2.32531 0.00232969 10
-11.4071 3.61856 2.76287 0.00226714 10
-11.4051 3.6179 3.20605 0.00219587 10
-9.78182 3.06544 -2.74672 0.000498855 1
-11.3549 3.55841 -2.7472 0.000300236 1
-11.4227 3.57965 -2.32682 0.00298332 10
-11.4282 3.58139 -1.89685 0.00305036 10
-11.425 3.58039 -1.47009 0.00310471 10
-11.4215 3.57928 -1.04717 0.00314583 10
-11.4207 3.57905 -0.627238 0.00317329 10
-11.4282 3.58139 -0.209046 0.00318681 10
-11.4325 3.58273 0.209124 0.00318627 10
-11.4479 3.58756 0.62873 0.00317165 10
-11.2646 3.53011 1.03278 0.000300695 10
-11.4369 3.58411 1.47161 0.00241786 10
-11.4294 3.58177 1.89705 0.00237469 10
-11.4431 3.58606 2.33098 0.00232167 10
-11.4475 3.58742 2.76959 0.00225933 10
-11.428 3.58133 3.20898 0.0021883 10
-9.76968 3.02422 -2.74033 0.000498847 1
-11.3699 3.51957 -2.74784 0.00030023 1
-11.4569 3.5465 -2.33125 0.00297292 10
-11.4408 3.54151 -1.89687 0.00303974 10
-11.449 3.54407 -1.47158 0.00309391 10
-11.4568 3.54648 -1.04927 0.00313489 10
-11.4634 3.54851 -0.628897 0.00316226 10
-11.4561 3.54625 -0.209328 0.00317574 10
-11.4651 3.54904 0.209493 0.00317519 10
-11.4652 3.54906 0.628993 0.00316063 10
-11.2951 3.4964 1.03445 0.00030071 10
-11.4705 3.55071 1.47433 0.00240944 10
-11.4593 3.54726 1.89995 0.00236642 10
-11.4492 3.54412 2.32969 0.00231358 10
-11.4632 3.54845 2.77038 0.00225144 10
-11.4633 3.54848 3.21537 0.00218065 10
-9.80041 2.99629 -2.746 0.000498839 1
-11.3789 3.47887 -2.74705 0.000300225 1
-11.4667 3.50572 -2.33074 0.00296242 10
-11.4819 3.51037 -1.90164 0.00302901 10
-11.4886 3.51243 -1.47508 0.003083 10
-11.4874 3.51206 -1.05094 0.00312384 10
-11.4818 3.51033 -0.629228 0.00315112 10
-11.4663 3.5056 -0.20929 0.00316455 10
-11.4825 3.51057 0.209586 0.00316401 10
-11.4666 3.50571 0.6284 0.00314949 10
-11.3103 3.45792 1.03474 0.000300723 10
-11.4762 3.50864 1.47349 0.00240094 10
-11.4861 3.51166 1.90234 0.00235806 10
-11.4844 3.51114 2.33434 0.0023054 10
-11.4922 3.51351 2.77441 0.00224347 10
-11.4755 3.50841 3.21534 0.00217291 10
-9.79553 2.95745 -2.74172 0.000498832 1
-11.388 3.43825 -2.74635 0.000300219 1
-11.5046 3.47344 -2.33596 0.00295181 10
-11.501 3.47236 -1.90279 0.00301817 10
-11.4899 3.46899 -1.47367 0.00307198 10
-11.4951 3.47057 -1.05052 0.00311268 10
-11.5168 3.47713 -0.630479 0.00313986 10
-11.4925 3.4698 -0.209546 0.00315325 10
-11.5089 3.47475 0.209845 0.00315271 10
-11.4958 3.47078 0.629328 0.00313824 10
-11.3199 3.41767 1.03451 0.000300737 10
-11.5148 3.47652 1.47687 0.00239235 10
-11.5092 3.47483 1.90414 0.00234962 10
-11.4977 3.47138 2.33457 0.00229713 10
-11.5032 3.47302 2.77412 0.00223542 10
-11.4959 3.47083 3.21765 0.0021651 10
-9.82256 2.92823 -2.74641 0.000498825 1
-11.4036 3.39956 -2.74722 0.000300214 1
-11.5042 3.42956 -2.33345 0.000852124 10
-11.4971 3.42743 -1.90015 0.000871146 10
-11.5127 3.43208 -1.47505 0.000886539 10
-11.4995 3.42814 -1.04983 0.000898148 10
-11.5132 3.43222 -0.62962 0.000905856 10
-11.4906 3.42551 -0.209292 0.000909582 10
-11.5264 3.43618 0.209944 0.00314129 10
-11.5271 3.43637 0.63038 0.00312687 10
-11.3118 3.37221 1.0327 0.00030075 10
-11.5064 3.43021 1.47425 0.000689711 10
-11.5036 3.42939 1.90124 0.00067729 10
-11.5078 3.43062 2.33417 0.000662061 10
-11.5064 3.43021 2.772 0.000644177 10
-11.516 3.43306 3.21989 0.000623818 10
-9.82118 2.89053 -2.74319 0.000498818 1
-11.3679 3.34577 -2.7358 0.000866856 10
-11.3605 3.34357 -2.30191 0.000890273 10
-11.3853 3.35087 -1.87973 0.000910108 10
-11.36 3.34342 -1.45398 0.000926159 10
-11.3707 3.34657 -1.037 0.000938294 10
-11.3649 3.34488 -0.62087 0.000946333 10
-11.3651 3.34494 -0.206793 0.000950222 10
-11.5536 3.40042 0.210222 0.00312977 10
-11.549 3.39905 0.630925 0.0031154 10
-11.3371 3.33669 1.03393 0.000300763 10
-11.3786 3.34892 1.45638 0.000720556 10
-11.3803 3.34942 1.87892 0.00070761 10
-11.3756 3.34803 2.30498 0.000691735 10
-11.3778 3.34866 2.73817 0.000673091 10
-11.374 3.34755 3.17691 0.000651866 10
-9.83073 2.85609 -2.74305 0.000498811 1
-11.2615 3.27178 -2.70743 0.000905125 10
-11.2353 3.26417 -2.27423 0.000929556 10
-11.2542 3.26966 -1.8562 0.000950225 10
-11.2639 3.27247 -1.44022 0.000966953 10
-11.2494 3.26825 -1.02489 0.00097957 10
-11.2442 3.26675 -0.613651 0.000987949 10
-11.2634 3.27231 -0.204732 0.000992003 10
-11.5701 3.36141 0.210306 0.00311814 10
-11.5674 3.36065 0.63129 0.00310382 10
-11.3387 3.29419 1.03302 0.000300776 10
-11.2696 3.27414 1.44095 0.000752293 10
-11.2571 3.2705 1.85668 0.000738808 10
-11.2634 3.27233 2.27992 0.000722269 10
-11.264 3.27249 2.70802 0.000702846 10
-11.2687 3.27385 3.14427 0.000680729 10
-9.84289 2.82241 -2.74368 0.000498804 1
-11.2352 3.22166 -2.69839 0.00307783 10
-11.2257 3.21893 -2.26999 0.00316124 10
-11.2281 3.21962 -1.85003 0.00323197 10
-11.2418 3.22353 -1.43594 0.0032893 10
-11.2459 3.2247 -1.02354 0.00333267 10
-11.2304 3.22026 -0.612277 0.00336164 10
-11.2343 3.22139 -0.203999 0.0033759 10
-11.5869 3.32248 0.2104 0.0031064 10
-11.6022 3.32689 0.632551 0.00309213 10
-11.3563 3.25637 1.03359 0.000300789 10
-11.2514 3.22629 1.43717 0.0025616 10
-11.2475 3.22518 1.85322 0.00251606 10
-11.2491 3.22563 2.27472 0.00246012 10
-11.2369 3.22213 2.69879 0.00239434 10
-11.2393 3.22282 3.13292 0.00231938 10
-9.85533 2.78878 -2.74442 0.000498797 1
-11.2465 3.18244 -2.69841 0.00306611 10
-11.2539 3.18454 -2.27344 0.00314921 10
-11.2467 3.18251 -1.85125 0.00321968 10
-11.2679 3.18848 -1.43784 0.00327681 10
-11.2555 3.18497 -1.02339 0.00332002 10
-11.2479 3.18283 -0.612622 0.00334888 10
-11.2716 3.18955 -0.204473 0.00336309 10
-11.6177 3.28747 0.21075 0.00309455 10
-11.6352 3.29242 0.633716 0.00308033 10
-11.3678 3.21675 1.0336 0.000300802 10
-11.2559 3.18509 1.43632 0.00255187 10
-11.2726 3.18983 1.85551 0.00250649 10
-11.2744 3.19033 2.27757 0.00245075 10
-11.2593 3.18607 2.70149 0.00238521 10
-11.2563 3.18521 3.13454 0.00231052 10
-9.84895 2.74988 -2.73995 0.00049879 1
-11.288 3.15168 -2.70572 0.00305428 10
-11.2761 3.14833 -2.27567 0.00313708 10
-11.2805 3.14958 -1.855 0.00320729 10
-11.2753 3.14812 -1.43738 0.00326421 10
-11.2826 3.15017 -1.02486 0.00330726 10
-11.2768 3.14855 -0.613598 0.00333601 10
-11.2913 3.15258 -0.204628 0.00335017 10
-11.6555 3.25426 0.211228 0.00308259 10
-11.6456 3.25151 0.633662 0.00306843 10
-11.384 3.17848 1.03407 0.000300814 10
-11.2894 3.15206 1.43918 0.00254205 10
-11.2859 3.1511 1.85588 0.00249684 10
-11.2941 3.15337 2.27931 0.00244131 10
-11.2845 3.15068 2.70486 0.00237601 10
-11.2857 3.15102 3.13965 0.00230159 10
-9.86134 2.71627 -2.74074 0.000498784 1
-11.4738 3.16042 -2.7476 0.000300185 1
-11.6647 3.213 0.211191 0.00307053 10
-11.6586 3.2113 0.633755 0.00305642 10
-11.3994 3.13992 1.03446 0.000300826 10
-9.88198 2.68487 -2.74386 0.000498777 1
-11.4683 3.11586 -2.74364 0.00030018 1
-11.6884 3.17568 0.211419 0.00305837 10
-11.7078 3.18094 0.635823 0.00304431 10
-11.3994 3.09715 1.03347 0.000300838 10
-9.88922 2.64981 -2.74328 0.000498771 1
-11.5021 3.08198 -2.74914 0.000300176 1
-11.72 3.14036 0.211789 0.00304611 10
-11.7093 3.1375 0.635306 0.0030321 10
-11.4212 3.06031 1.03448 0.000300849 10
-9.89725 2.61497 -2.74296 0.000498765 1
-11.495 3.03712 -2.74491 0.000300171 1
-11.7471 3.10372 0.212082 0.00303374 10
-11.7351 3.10054 0.636112 0.00301978 10
-11.4197 3.01722 1.03338 0.000300861 10
-9.91308 2.58217 -2.74483 0.000498759 1
-11.5238 3.00172 -2.74925 0.000300167 1
-11.7615 3.06364 0.212148 0.00302127 10
-11.7608 3.06347 0.636925 0.00300737 10
-11.432 2.97782 1.03354 0.000300872 10
-9.92301 2.5478 -2.74511 0.000498753 1
-11.5309 2.96064 -2.74847 0.000300163 1
-11.7779 3.02404 0.212252 0.00300871 10
-11.8019 3.0302 0.638571 0.00299486 10
-11.4448 2.93853 1.03377 0.000300883 10
-9.93504 2.51395 -2.74599 0.000498747 1
-11.5244 2.91613 -2.74448 0.000300159 1
-11.8031 2.98664 0.212517 0.00299604 10
-11.8141 2.98942 0.638664 0.00298225 10
-11.4408 2.89498 1.03249 0.000300894 10
-9.94458 2.47946 -2.74622 0.000498741 1
-11.5283 2.87434 -2.74301 0.000300154 1
-11.8271 2.94883 0.212763 0.00298328 10
-11.8512 2.95484 0.640109 0.00296955 10
-11.4595 2.85718 1.03327 0.000300904 10
-9.93101 2.43929 -2.7401 0.000498736 1
-11.5403 2.83457 -2.74348 0.00030015 1
-11.8734 2.91638 0.213411 0.00297043 10
-11.8566 2.91226 0.639848 0.00295675 10
-11.4721 2.81782 1.03351 0.000300915 10
-9.95339 2.40798 -2.74394 0.00049873 1
-11.5529 2.79493 -2.74414 0.000300146 1
-11.8916 2.87688 0.213557 0.00295748 10
-11.8993 2.87875 0.641608 0.00294385 10
-11.4673 2.77422 1.0322 0.000300925 10
-9.97401 2.37615 -2.74732 0.000498725 1
-11.5691 2.75615 -2.74569 0.000300143 1
-11.9157 2.83872 0.21381 0.00294444 10
-11.9172 2.83908 0.642032 0.00293087 10
-11.4836 2.73577 1.0328 0.000300935 10
-9.96434 2.33712 -2.7424 0.000498719 1
-11.5741 2.71468 -2.74461 0.000300139 1
-11.9309 2.79837 0.213906 0.00293131 10
-11.9389 2.80024 0.64267 0.0029178 10
-11.4929 2.69565 1.03279 0.000300944 10
-9.98445 2.30509 -2.7457 0.000498714 1
-11.604 2.679 -2.74947 0.000300135 1
-12.0253 2.77625 -2.39896 0.00268954 10
-12.0246 2.77611 -1.95461 0.00275029 10
-12.0174 2.77443 -1.51436 0.00279955 10
-12.0423 2.78018 -1.08128 0.00283681 10
-12.0281 2.7769 -0.646945 0.00286169 10
-12.0246 2.7761 -0.215411 0.00287394 10
-11.9695 2.76337 0.214423 0.00291808 10
-11.9564 2.76036 0.643093 0.00290463 10
-11.5117 2.65769 1.03364 0.000300954 10
-12.0459 2.781 1.51795 0.00139175 10
-12.0464 2.78112 1.95814 0.00136677 10
-12.0383 2.77926 2.40156 0.00133608 10
-12.0287 2.77704 2.85008 0.00130001 10
-12.0413 2.77994 3.31131 0.00125892 10
-9.97737 2.26681 -2.74156 0.000498709 1
-11.6127 2.63834 -2.74932 0.000300132 1
-11.9882 2.72367 0.214588 0.00290477 10
-11.9779 2.72131 0.64373 0.00289138 10
-11.5151 2.61618 1.03312 0.000300963 10
-9.98147 2.23112 -2.74053 0.000498704 1
-11.6107 2.5953 -2.74669 0.000300128 1
-12.0094 2.68442 0.214798 0.00289137 10
-12.0209 2.687 0.645537 0.00287803 10
-11.5245 2.57603 1.03314 0.000300972 10
-9.99224 2.19694 -2.74136 0.0004987 1
-11.6292 2.55684 -2.74894 0.000300125 1
-12.0408 2.64734 0.215192 0.00287789 10
-12.0241 2.64367 0.645207 0.00286461 10
-11.5294 2.5349 1.03278 0.000300981 10
-9.99554 2.16111 -2.74018 0.000498695 1
-11.6381 2.51625 -2.74895 0.000300121 1
-12.0538 2.60613 0.215262 0.00286432 10
-12.0659 2.60873 0.646956 0.0028511 10
-11.5459 2.4963 1.03347 0.000300989 10
-10.0143 2.1286 -2.74327 0.00049869 1
-11.6478 2.47582 -2.74918 0.000300118 1
-12.0957 2.57102 0.215848 0.00285066 10
-12.0754 2.5667 0.646981 0.0028375 10
-11.5518 2.45542 1.03323 0.000300998 10
-10.0164 2.09254 -2.74182 0.000498686 1
-11.6479 2.43337 -2.74718 0.000300115 1
-12.1213 2.53227 0.216145 0.00283693 10
-12.1196 2.53192 0.648873 0.00282383 10
-11.5695 2.41699 1.03405 0.000301006 10
-10.0343 2.05976 -2.74475 0.000498682 1
-11.6488 2.39115 -2.74541 0.000300112 1
-12.1311 2.49016 0.216165 0.00282311 10
-12.1254 2.48898 0.648713 0.00281007 10
-11.5848 2.37801 1.03467 0.000301014 10
-10.0521 2.02686 -2.74766 0.000498677 1
