VERSION 0.7
FIELDS x y z intensity label
SIZE 4 4 4 4 4
TYPE F F F F F
COUNT 1 1 1 1 1
WIDTH 1172
HEIGHT 1
VIEWPOINT 4.57355 4.06587 2.7297 -0.539598 -0.000307455 -0.000473718 0.841923
POINTS 1172
DATA ascii
-0.437034 9.62424 -2.58146 0.00177101 4
-0.498176 10.9707 -2.53539 0.000305684 4
-0.635436 13.9934 -2.72284 0.000168539 1
-0.779326 17.1621 -2.721 7.8919e-05 1
-1.00526 22.1375 -2.72094 2.88844e-05 1
-1.10586 24.3529 -2.1328 0.000153848 10
-1.63953 36.1052 -1.89414 9.38775e-05 10
-1.29066 28.4225 0.496628 6.12995e-05 10
-1.10511 24.3365 1.27673 0.000121437 10
-1.10481 24.3298 2.13077 0.000120228 10
-1.10499 24.3338 2.9909 0.000118405 10
-1.10485 24.3307 3.85757 0.000115991 10
-1.10546 24.3441 4.73689 0.000113014 10
-1.1044 24.3207 5.62067 0.000109509 10
-1.1048 24.3295 6.52579 0.00010552 10
-0.469502 9.59969 -2.5753 0.00143497 4
-0.536541 10.9704 -2.53575 0.000217363 4
-0.685052 14.0069 -2.72593 0.000168527 1
-0.839506 17.165 -2.72192 7.89119e-05 1
-1.08207 22.1246 -2.71981 2.88808e-05 1
-1.20113 24.5591 -2.15121 0.000148244 10
-1.37731 28.1613 -1.47764 0.000154826 10
-1.37785 28.1722 -0.492336 0.000155674 10
-1.20145 24.5654 1.28896 0.000117019 10
-1.20132 24.5628 2.15153 0.000115852 10
-1.20076 24.5514 3.01814 0.000114091 10
-1.20052 24.5466 3.89245 0.000111759 10
-1.20009 24.5377 4.77534 0.000108883 10
-1.20086 24.5535 5.67541 0.000105499 10
-1.19953 24.5263 6.57966 0.000101646 10
-0.502551 9.58923 -2.57295 0.000472457 4
-0.576817 11.0063 -2.54449 0.000261996 4
-0.733855 14.0028 -2.7256 0.000168515 1
-0.899274 17.1591 -2.72147 7.89048e-05 1
-1.15902 22.1154 -2.71916 2.88772e-05 1
-1.29843 24.7756 -2.17056 0.000142776 10
-1.47686 28.1801 -1.47888 6.15926e-05 10
-1.4773 28.1885 -0.492707 6.19598e-05 10
-1.47687 28.1803 0.492564 6.19894e-05 10
-1.29814 24.77 1.29992 0.000112708 10
-1.29745 24.7568 2.16891 0.000111581 10
-1.29687 24.7458 3.04257 0.000109881 10
-1.29728 24.7535 3.92594 0.00010763 10
-1.29796 24.7665 4.82073 0.000104853 10
-1.29715 24.751 5.72207 0.000101586 10
-1.2964 24.7368 6.63731 9.78665e-05 10
-0.537256 9.60955 -2.57889 0.000497488 4
-0.619473 11.0801 -2.56204 0.000557035 4
-0.781351 13.9755 -2.72081 0.000168503 1
-0.959882 17.1688 -2.72351 7.88976e-05 1
-1.23597 22.1071 -2.71865 2.88736e-05 1
-1.39776 25.0009 -2.19071 0.000137443 10
-2.00951 35.9428 -1.88662 9.58219e-05 10
-1.39661 24.9803 1.31121 0.000108503 10
-1.39658 24.9797 2.18886 0.000107416 10
-1.39551 24.9606 3.06956 0.000105776 10
-1.39692 24.9858 3.96354 0.000103603 10
-1.39547 24.9599 4.85929 0.000100924 10
-1.39603 24.9699 5.77376 9.7771e-05 10
-1.39575 24.9649 6.69976 9.4182e-05 10
-0.569726 9.58963 -2.57406 0.00044736 4
-0.662141 11.1452 -2.5776 0.000341284 4
-0.830909 13.9859 -2.72337 0.000168491 1
-1.01919 17.155 -2.72188 7.88905e-05 1
-1.31462 22.1277 -2.72173 2.887e-05 1
-1.49791 25.2128 -2.20973 0.000132244 10
-1.66566 28.0365 -1.47192 0.000157727 10
-1.66673 28.0544 -0.490556 0.00015859 10
-1.66659 28.052 0.490513 0.00015859 10
-1.49771 25.2095 1.3235 0.000104404 10
-1.48717 25.032 2.19388 0.000271342 10
-1.48657 25.0219 3.07772 0.00026707 10
-1.49575 25.1765 3.99459 9.96777e-05 10
-1.49577 25.1768 4.9025 9.70935e-05 10
-1.48708 25.0305 5.78894 0.000246488 10
-1.48631 25.0176 6.71525 0.000237314 10
-0.604335 9.60563 -2.57891 0.000443759 4
-0.701063 11.1431 -2.57767 0.000260839 4
-0.880254 13.9912 -2.725 0.000168479 1
-1.079 17.1502 -2.72169 7.88832e-05 1
-1.39064 22.1036 -2.71934 2.88664e-05 1
-1.60037 25.4371 -2.22986 0.000127176 10
-1.77174 28.1611 -1.47878 5.98615e-05 10
-1.77294 28.1801 -0.492858 6.02193e-05 10
-1.7719 28.1636 0.492568 6.02488e-05 10
-1.59866 25.41 1.33431 0.000100408 10
-1.57142 24.977 2.18953 0.000272933 10
-1.57273 24.9979 3.07542 0.000268638 10
-1.59961 25.4251 4.0349 9.58516e-05 10
-1.59818 25.4023 4.94748 9.33602e-05 10
-1.57238 24.9923 5.78134 0.000247944 10
-1.57231 24.9912 6.70962 0.000238719 10
-0.636363 9.58094 -2.57286 0.000450895 4
-0.739646 11.1359 -2.5766 0.000297774 4
-0.927967 13.9713 -2.72172 0.000168467 1
-1.13965 17.1583 -2.7236 7.88761e-05 1
-1.46875 22.1132 -2.72114 2.88628e-05 1
-1.70446 25.662 -2.25008 0.000122239 10
-1.72995 26.0458 -1.36801 0.00020372 10
-1.72987 26.0445 -0.45561 0.000204808 10
-1.72965 26.0413 0.455553 0.000204808 10
-1.70254 25.633 1.34633 9.65159e-05 10
-1.65585 24.9302 2.18591 0.000274516 10
-1.6577 24.958 3.0712 0.000270198 10
-1.70246 25.6319 4.06864 9.2125e-05 10
-1.70189 25.6233 4.99163 8.97241e-05 10
-1.65747 24.9545 5.77388 0.000249391 10
-1.6568 24.9443 6.69854 0.000240117 10
-0.670006 9.58153 -2.57363 0.000468765 4
-0.778029 11.1263 -2.57499 0.000687375 4
-0.97806 13.9869 -2.72542 0.000168455 1
-1.19856 17.1402 -2.72136 7.88689e-05 1
-1.5461 22.1102 -2.72142 2.88592e-05 1
-1.80942 25.8759 -2.26937 0.000117431 10
-1.81727 25.9881 -1.36531 0.000204903 10
-1.8186 26.0071 -0.455065 0.000205997 10
-1.81691 25.983 0.454642 0.000205997 10
-1.81033 25.889 1.3601 9.27247e-05 10
-1.7426 24.9203 2.18557 0.000276091 10
-1.74239 24.9174 3.06694 0.00027175 10
-1.80937 25.8751 4.10823 8.84956e-05 10
-1.80875 25.8664 5.04019 8.61831e-05 10
-1.74087 24.8956 5.76165 0.000250832 10
-1.7423 24.916 6.69252 0.000241508 10
-0.704925 9.59928 -2.57905 0.0003936 4
-0.814467 11.091 -2.56745 0.000575523 4
-1.0267 13.981 -2.72495 0.000168443 1
-1.25806 17.1316 -2.72069 7.88617e-05 1
-1.62172 22.0837 -2.71884 2.88556e-05 1
-1.91894 26.1311 -2.29233 0.000112752 10
-1.92734 26.2454 -1.37917 0.000198557 10
-1.927 26.2408 -0.459268 0.00019962 10
-1.92796 26.2539 0.459497 0.00019962 10
-1.91783 26.1159 1.37236 8.90346e-05 10
-1.91672 26.1008 2.28967 0.000150498 10
-1.91687 26.1028 3.21365 0.000148097 10
-1.917 26.1047 4.14571 8.49633e-05 10
-1.91643 26.0969 5.08639 8.27371e-05 10
-1.91742 26.1104 6.0443 0.000136533 10
-1.91798 26.118 7.01714 0.000131382 10
-0.73693 9.57726 -2.5738 0.000307709 4
-0.852626 11.0809 -2.56578 6.22695e-05 4
-1.0749 13.9696 -2.72344 0.000168431 1
-1.31978 17.1521 -2.72465 7.88545e-05 1
-1.69887 22.0788 -2.71895 2.8852e-05 1
-2.02761 26.3512 -2.31224 0.000108198 10
-2.0375 26.4796 -1.39184 0.000192449 10
-2.03796 26.4857 -0.463676 0.000193483 10
-2.03879 26.4964 0.463864 0.000193482 10
-2.02816 26.3583 1.38546 8.54434e-05 10
-2.0084 26.1014 2.29033 0.000236115 10
-2.00965 26.1177 3.21633 0.000232348 10
-2.02607 26.3311 4.18276 8.15262e-05 10
-2.02731 26.3472 5.13652 7.9384e-05 10
-2.00763 26.0915 6.0415 0.000214206 10
-2.00829 26.1001 7.01416 0.000206126 10
-0.770621 9.57793 -2.57469 0.000443651 4
-0.890047 11.0623 -2.56218 0.00106348 4
-1.12394 13.9693 -2.72413 0.000168419 1
-1.37756 17.1215 -2.72055 7.88473e-05 1
-1.77717 22.0882 -2.72086 2.88483e-05 1
-2.14154 26.6169 -2.3362 0.000103769 10
-2.1518 26.7444 -1.40614 0.000186567 10
-2.15156 26.7414 -0.468281 0.000187573 10
-2.15043 26.7274 0.468036 0.000187573 10
-2.14027 26.6011 1.39861 8.19509e-05 10
-2.09676 26.0603 2.28735 0.000237446 10
-2.09643 26.0562 3.20964 0.000233659 10
-2.13969 26.5939 4.22567 7.81837e-05 10
-2.13883 26.5832 5.18396 7.61237e-05 10
-2.09742 26.0685 6.03783 0.000215422 10
-2.09647 26.0567 7.00444 0.000207299 10
-0.803388 9.56733 -2.57258 0.000407853 4
-0.926643 11.0351 -2.55663 0.000691286 4
-1.17227 13.9602 -2.72315 0.000168407 1
-1.43864 17.1324 -2.72306 7.88401e-05 1
-1.85427 22.082 -2.72088 2.88447e-05 1
-2.25585 26.8643 -2.35859 9.94638e-05 10
-2.26512 26.9747 -1.41866 0.000180903 10
-2.26571 26.9817 -0.472625 0.000181881 10
-2.26565 26.9811 0.472614 0.000181881 10
-2.25528 26.8575 1.4125 7.85554e-05 10
-2.18626 26.0356 2.28583 0.00023877 10
-2.18392 26.0078 3.20459 0.000234963 10
-2.25382 26.8401 4.26602 7.49345e-05 10
-2.25397 26.842 5.23591 7.29543e-05 10
-2.18459 26.0157 6.02734 0.000216631 10
-2.18571 26.0291 6.99901 0.000208466 10
-0.837597 9.57379 -2.57509 0.00048296 4
-0.966189 11.0436 -2.55936 0.000234478 4
-1.22087 13.9546 -2.72287 0.000168395 1
-1.49749 17.1164 -2.72132 7.88329e-05 1
-1.93262 22.0899 -2.72266 2.88411e-05 1
-2.37261 27.1191 -2.38168 9.52795e-05 10
-2.38237 27.2307 -1.43255 0.000175446 10
-2.38046 27.2089 -0.476747 0.000176397 10
-2.38204 27.2269 0.477062 0.000176397 10
-2.37144 27.1057 1.42598 7.52552e-05 10
-2.27835 26.0417 2.28705 8.53751e-05 10
-2.27693 26.0255 3.20773 8.40574e-05 10
-2.37038 27.0936 4.30759 7.17769e-05 10
-2.36934 27.0817 5.28426 6.98747e-05 10
-2.27607 26.0157 6.02914 7.76222e-05 10
-2.27618 26.0168 6.99782 7.47374e-05 10
-0.870871 9.56929 -2.57468 0.000543751 4
-1.00138 11.0033 -2.55082 0.000335175 4
-1.26901 13.9441 -2.72167 0.000168383 1
-1.55854 17.1255 -2.72363 7.88256e-05 1
-2.0098 22.084 -2.72278 2.88374e-05 1
-2.49042 27.3652 -2.40404 9.12157e-05 10
-2.49877 27.4569 -1.4449 0.000257653 10
-2.49978 27.468 -0.481437 0.000259054 10
-2.5003 27.4737 0.481537 0.000259054 10
-2.48871 27.3464 1.43908 7.20499e-05 10
-2.4896 27.3562 2.40325 7.13097e-05 10
-2.48998 27.3603 3.37331 7.01919e-05 10
-2.49002 27.3608 4.35143 6.87105e-05 10
-2.48957 27.3559 5.33942 6.68841e-05 10
-2.48953 27.3554 6.3416 6.47355e-05 10
-2.48666 27.3239 7.35167 6.22913e-05 10
-0.903881 9.56207 -2.57357 0.000439988 4
-1.04074 11.0098 -2.55315 0.000400351 4
-1.31874 13.9508 -2.72385 0.000168371 1
-1.61786 17.1152 -2.72286 7.88184e-05 1
-2.08565 22.0639 -2.72119 2.88338e-05 1
-2.61334 27.6462 -2.42951 8.72699e-05 10
-2.61268 27.6393 -1.45497 8.82729e-05 10
-2.61167 27.6286 -0.484409 8.88014e-05 10
-2.61069 27.6182 0.484227 8.88486e-05 10
-2.61125 27.6242 1.45418 0.000197239 10
-2.60927 27.6032 2.42573 0.000195103 10
-2.60898 27.6002 3.40398 0.000191932 10
-2.60911 27.6015 4.39114 0.000187767 10
-2.6109 27.6205 5.39281 6.39808e-05 10
-2.60859 27.5961 6.39945 6.19191e-05 10
-2.60825 27.5924 7.42631 5.9574e-05 10
-0.939402 9.58079 -2.57948 0.000318349 4
-1.07747 10.9889 -2.54916 0.000411241 4
-1.36814 13.9534 -2.72527 0.000168359 1
-1.67726 17.106 -2.72232 7.88111e-05 1
-2.16221 22.052 -2.72063 2.88302e-05 1
-3.45884 35.2761 -1.85761 0.000103343 10
-3.45754 35.2628 -0.618466 6.86664e-05 10
-3.45987 35.2866 0.618883 6.86663e-05 10
-2.70334 27.5709 1.45186 0.00019831 10
-2.70197 27.5569 2.42248 0.000196163 10
-2.70294 27.5668 3.40101 0.000192976 10
-2.70265 27.5638 4.38662 0.00018879 10
-2.70238 27.5611 5.38302 0.000183657 10
-2.70341 27.5716 6.39593 0.000177642 10
-2.70249 27.5622 7.42068 0.000170818 10
-0.972634 9.57541 -2.57892 0.00041133 4
-1.11369 10.964 -2.54427 0.000449734 4
-1.41685 13.9487 -2.72529 0.000168347 1
-1.73822 17.1125 -2.7243 7.88039e-05 1
-2.23984 22.0508 -2.72143 2.88265e-05 1
-3.57743 35.2191 -1.85525 0.000103948 10
-2.79662 27.5322 1.45033 0.000199374 10
-2.79525 27.5187 2.41996 0.000197216 10
-2.79486 27.5149 3.39579 0.000194014 10
-2.79489 27.5151 4.38039 0.000189807 10
-2.79454 27.5118 5.37527 0.000184649 10
-2.79594 27.5255 6.38746 0.000178603 10
-2.79666 27.5326 7.41531 0.000171745 10
-1.00566 9.56825 -2.57793 0.000375544 4
-1.14911 10.933 -2.53799 0.000442439 4
-1.46607 13.9488 -2.7263 0.000168335 1
-1.79674 17.0949 -2.72247 7.87966e-05 1
-2.31538 22.0294 -2.71977 2.88229e-05 1
-3.697 35.1747 -1.85358 0.00010455 10
-4.64956 44.2377 -0.776425 4.11591e-05 10
-4.64824 44.2252 0.776205 4.1159e-05 10
-2.88871 27.4843 1.44832 0.000200431 10
-2.88783 27.4759 2.41707 0.000198263 10
-2.88986 27.4952 3.39459 0.000195045 10
-2.88695 27.4675 4.37439 0.000190817 10
-2.88871 27.4843 5.37184 0.000185633 10
-2.8899 27.4956 6.38283 0.000179558 10
-2.88758 27.4735 7.40206 0.000172666 10
-1.03987 9.57212 -2.57993 0.00040056 4
-1.18888 10.9438 -2.54145 0.000212898 4
-1.51451 13.9413 -2.72587 0.000168322 1
-1.85602 17.085 -2.72191 7.87893e-05 1
-2.39514 22.0476 -2.72304 2.88192e-05 1
-3.81465 35.1144 -1.8511 0.000105148 10
-2.99854 27.602 1.45507 6.60113e-05 10
-2.99982 27.6138 2.43011 6.53326e-05 10
-2.99742 27.5917 3.40777 6.43067e-05 10
-2.99683 27.5862 4.39494 6.29466e-05 10
-2.99599 27.5785 5.39226 6.12693e-05 10
-2.99515 27.5708 6.40266 5.92959e-05 10
-2.99768 27.5941 7.43731 5.7051e-05 10
-1.07176 9.55496 -2.5763 0.000482795 4
-1.22537 10.9244 -2.53791 6.33318e-05 4
-1.56072 13.9141 -2.7216 0.00016831 1
-1.91797 17.0991 -2.72522 7.8782e-05 1
-2.47 22.0206 -2.72074 2.88155e-05 1
-3.93176 35.0525 -1.84854 0.000105742 10
-4.94521 44.0876 -0.774378 4.16748e-05 10
-4.94613 44.0958 0.774522 4.16747e-05 10
-3.93242 35.0583 4.33162 8.0035e-05 10
-3.93093 35.045 8.14152 7.31261e-05 10
-1.10596 9.55857 -2.5783 0.000514956 4
-1.26357 10.9207 -2.53807 0.000176414 4
-1.49904 12.9559 -2.53517 0.00018642 4
-1.97503 17.0697 -2.72161 7.87748e-05 1
-2.54655 22.0093 -2.72043 2.88119e-05 1
-4.04962 35 -1.84651 0.000106333 10
-4.04919 34.9962 4.32566 8.04829e-05 10
-4.04849 34.9902 8.13201 7.35382e-05 10
-1.13891 9.55116 -2.57736 0.000432684 4
-1.29896 10.8934 -2.53277 0.000108556 4
-1.54456 12.9531 -2.53567 0.000182679 4
-2.03555 17.0706 -2.72288 7.87675e-05 1
-2.62554 22.0185 -2.72268 2.88082e-05 1
-4.16657 34.9419 -1.8442 0.000106919 10
-4.16899 34.9623 4.32324 8.09278e-05 10
-4.1668 34.9438 8.12457 7.39476e-05 10
-1.17341 9.55666 -2.57993 0.000454117 4
-1.33995 10.913 -2.53839 0.000203531 4
-1.5881 12.9341 -2.53301 0.000147872 4
-2.09598 17.0704 -2.72399 7.87602e-05 1
-2.70315 22.0155 -2.72346 2.88045e-05 1
-4.28412 34.8914 -1.84232 0.000107501 10
-4.23817 34.5172 1.82256 8.73705e-05 10
-4.23711 34.5086 3.04178 8.6346e-05 10
-4.28364 34.8875 4.31582 8.13697e-05 10
-4.23786 34.5147 5.50764 8.28339e-05 10
-4.23697 34.5074 6.75794 8.03947e-05 10
-4.28606 34.9073 8.1195 7.43542e-05 10
-4.23714 34.5088 9.31604 7.43153e-05 10
-1.20556 9.54303 -2.57737 0.00052203 4
-1.37631 10.8946 -2.53522 0.000237439 4
-1.63523 12.9442 -2.53609 0.000140406 4
-2.15368 17.0481 -2.72162 7.87528e-05 1
-2.78018 22.0074 -2.72365 2.88009e-05 1
-4.40114 34.8387 -1.84033 0.00010808 10
-4.40202 34.8456 4.31251 8.18084e-05 10
-4.39989 34.8287 8.10476 7.4758e-05 10
-1.23887 9.53875 -2.57737 0.00038614 4
-1.41612 10.9035 -2.53842 0.000275865 4
-1.68065 12.9403 -2.53647 0.00011679 4
-2.21555 17.0588 -2.72454 7.87456e-05 1
-2.85351 21.9708 -2.72033 2.87972e-05 1
-4.5188 34.7929 -1.83873 0.000108654 10
-4.52021 34.8037 1.83931 8.47184e-05 10
-4.51967 34.7996 3.07014 8.37217e-05 10
-4.51862 34.7915 4.30774 8.22439e-05 10
-4.51755 34.7832 5.55539 8.03054e-05 10
-4.5193 34.7967 6.8206 7.79329e-05 10
-4.51978 34.8004 8.10179 7.51588e-05 10
-4.5195 34.7983 9.40248 7.20209e-05 10
-1.27268 9.53828 -2.57843 0.000518404 4
-1.45159 10.8792 -2.53392 0.000312026 4
-1.72645 12.9391 -2.5374 0.000150325 4
-2.27571 17.0556 -2.72529 7.87382e-05 1
-2.93078 21.9652 -2.72089 2.87935e-05 1
-4.63669 34.7503 -1.83733 0.000109224 10
-4.63569 34.7429 1.83693 8.51627e-05 10
-4.63333 34.7252 3.06499 8.41612e-05 10
-4.63616 34.7464 4.30413 8.26763e-05 10
-4.63607 34.7457 5.55195 8.07284e-05 10
-4.63503 34.7379 6.81221 7.83443e-05 10
-4.63424 34.732 8.08959 7.55568e-05 10
-4.63472 34.7356 9.38987 7.24035e-05 10
-1.30433 9.52184 -2.5752 0.000461177 4
-1.48903 10.8702 -2.53302 0.00026905 4
-1.77058 12.9256 -2.53594 0.000152799 4
-2.33461 17.0431 -2.72457 7.87309e-05 1
-3.00825 21.9608 -2.72162 2.87898e-05 1
-4.75154 34.6872 -1.83485 0.000109789 10
-4.74921 34.6702 -0.610821 7.29475e-05 10
-4.75052 34.6797 0.610989 7.29475e-05 10
-4.75116 34.6844 1.83471 8.56036e-05 10
-4.74977 34.6742 3.06193 8.45973e-05 10
-4.75235 34.6931 4.29955 8.31052e-05 10
-4.74904 34.6689 5.5423 8.1148e-05 10
-4.75208 34.6911 6.80624 7.87526e-05 10
-4.74952 34.6724 8.07951 7.59516e-05 10
-4.75165 34.688 9.38141 7.27831e-05 10
-1.33697 9.51301 -2.57406 0.000482604 4
-1.52995 10.8861 -2.53796 0.000176342 4
-1.81725 12.9304 -2.53812 0.000136639 4
-2.39299 17.027 -2.72332 7.87235e-05 1
-3.08532 21.9532 -2.722 2.87861e-05 1
-4.86515 34.6173 -1.83205 0.00011035 10
-4.8658 34.6219 1.83229 8.60411e-05 10
-4.86576 34.6216 3.05877 8.503e-05 10
-4.86801 34.6376 4.29476 8.3531e-05 10
-4.86819 34.6389 5.54018 8.15645e-05 10
-4.86733 34.6328 6.7981 7.91577e-05 10
-4.86799 34.6375 8.07528 7.63435e-05 10
-4.86865 34.6422 9.37358 7.31599e-05 10
-1.37164 9.5185 -2.57682 0.000443258 4
-1.56664 10.8717 -2.53586 0.000330056 4
-1.86131 12.9166 -2.53667 0.000168924 4
-2.45251 17.0192 -2.72342 7.87162e-05 1
-3.16166 21.9404 -2.72177 2.87824e-05 1
-4.98133 34.568 -1.83035 0.000110907 10
-4.98258 34.5767 -0.609774 7.36898e-05 10
-4.98353 34.5833 0.609889 7.36897e-05 10
-4.98448 34.5899 1.83151 8.6475e-05 10
-4.98446 34.5898 3.05747 8.54593e-05 10
-4.98215 34.5738 4.28897 8.39532e-05 10
-4.98446 34.5898 5.53507 8.19777e-05 10
-4.98419 34.5879 6.79265 7.95596e-05 10
-4.98306 34.5801 8.0659 7.67322e-05 10
-4.98354 34.5834 9.36231 7.35336e-05 10
-1.40497 9.51447 -2.57704 0.00045396 4
-1.6053 10.8711 -2.537 0.000320994 4
-1.90733 12.9165 -2.53793 0.000212382 4
-2.51312 17.0189 -2.72476 7.87089e-05 1
-3.23777 21.9262 -2.72139 2.87787e-05 1
-5.09659 34.5142 -1.82842 0.000111459 10
-5.09587 34.5092 1.82816 8.69054e-05 10
-5.09853 34.5272 3.0535 8.5885e-05 10
-5.09875 34.5287 4.28557 8.4372e-05 10
-5.09914 34.5314 5.52854 8.23873e-05 10
-5.09935 34.5328 6.78529 7.99582e-05 10
-5.09719 34.5182 8.05557 7.71177e-05 10
-5.09768 34.5215 9.35032 7.39043e-05 10
-1.4363 9.49708 -2.57367 0.000471809 4
-1.64376 10.8688 -2.5378 0.000180831 4
-1.95001 12.8939 -2.53481 0.000149029 4
-2.5698 16.992 -2.72188 7.87014e-05 1
-3.31411 21.9135 -2.72124 2.8775e-05 1
-5.21463 34.4802 -1.82758 0.000112006 10
-5.21423 34.4775 -0.60865 0.000112668 10
-5.21232 34.4649 0.608427 0.000112668 10
-5.21128 34.458 1.8264 8.73323e-05 10
-5.21281 34.4681 3.04986 8.63072e-05 10
-5.21269 34.4673 4.28018 8.47874e-05 10
-5.21381 34.4747 5.52235 8.27937e-05 10
-5.21237 34.4652 6.77554 8.03535e-05 10
-5.21326 34.4711 8.04877 7.75e-05 10
-5.21258 34.4666 9.34032 7.4272e-05 10
-1.47171 9.50666 -2.57764 0.000514675 4
-1.68216 10.8661 -2.53852 0.000298354 4
-1.99443 12.8833 -2.53408 0.000167646 4
-2.63067 16.9931 -2.72351 7.86941e-05 1
-3.39431 21.926 -2.72424 2.87713e-05 1
-5.32906 34.4237 -1.82556 0.000112549 10
-5.32646 34.4069 -0.607729 0.000113213 10
-5.32855 34.4204 0.607967 0.000113213 10
-5.32983 34.4286 1.82582 8.77554e-05 10
-5.33015 34.4307 3.04818 8.67258e-05 10
-5.32866 34.4211 4.27673 8.51991e-05 10
-5.32742 34.4131 5.51543 8.31965e-05 10
-5.3283 34.4188 6.77002 8.07453e-05 10
-5.32932 34.4254 8.0424 7.78791e-05 10
-5.32806 34.4172 9.33191 7.46364e-05 10
-1.50307 9.49001 -2.57454 0.000421726 4
-1.71913 10.8541 -2.53711 0.000323198 4
-2.04033 12.8822 -2.53525 0.0001726 4
-2.69234 16.9988 -2.7259 7.86868e-05 1
-3.46778 21.8947 -2.72184 2.87676e-05 1
-5.44109 34.3537 -1.82284 0.000113087 10
-5.44413 34.3729 -0.60746 0.000113754 10
-5.44328 34.3675 0.607365 0.000113754 10
-5.44399 34.372 1.82381 8.81748e-05 10
-5.44134 34.3553 3.04316 8.71407e-05 10
-5.44121 34.3545 4.27078 8.56073e-05 10
-5.44184 34.3584 5.50968 8.35958e-05 10
-5.44359 34.3695 6.76403 8.11338e-05 10
-5.44419 34.3733 8.03461 7.82548e-05 10
-5.44085 34.3522 9.31938 7.49977e-05 10
-1.53616 9.48458 -2.5745 0.000483806 4
-1.75465 10.8336 -2.53372 0.000262159 4
-2.08388 12.8663 -2.53354 0.000140305 4
-2.74969 16.9771 -2.72395 7.86793e-05 1
-3.54454 21.8847 -2.72212 2.87639e-05 1
-5.55957 34.3259 -1.82239 0.00011362 10
-5.55648 34.3068 -0.606631 0.00011429 10
-5.55627 34.3055 0.606607 0.00011429 10
-5.55885 34.3214 1.82215 8.85904e-05 10
-5.55737 34.3123 3.04106 8.75518e-05 10
-5.55637 34.3061 4.26716 8.60118e-05 10
-5.55549 34.3007 5.50349 8.39915e-05 10
-5.55791 34.3156 6.7572 8.15187e-05 10
-5.55754 34.3133 8.02508 7.86271e-05 10
-5.55552 34.3008 9.31065 7.53559e-05 10
-1.58253 9.55926 -2.59626 0.000648876 4
-1.79484 10.8418 -2.53709 0.000275703 4
-2.12934 12.8623 -2.53421 0.000180025 4
-2.81135 16.982 -2.72629 7.86719e-05 1
-3.62368 21.8889 -2.7242 2.87602e-05 1
-5.6806 34.3137 -1.82278 3.10348e-05 10
-5.67842 34.3006 -0.606867 3.12407e-05 10
-5.67552 34.283 0.606557 3.12632e-05 10
-5.67277 34.2664 1.82027 8.90022e-05 10
-5.67215 34.2626 3.03839 8.79592e-05 10
-5.6716 34.2593 4.26377 8.64125e-05 10
-5.67327 34.2694 5.50162 8.43836e-05 10
-5.67001 34.2498 6.74809 8.19002e-05 10
-5.67194 34.2614 8.01753 7.89961e-05 10
-5.67138 34.258 9.30435 7.57106e-05 10
-1.62712 9.62013 -2.61432 0.000697084 4
-1.83088 10.8248 -2.5346 0.000212414 4
-2.17571 12.8636 -2.53594 0.000197392 4
-2.86828 16.9583 -2.72408 7.86646e-05 1
-3.69723 21.8593 -2.72211 2.87565e-05 1
-5.87481 34.734 -1.84618 2.91616e-05 10
-5.78365 34.195 1.81754 8.94101e-05 10
-5.78431 34.1989 3.03451 8.83627e-05 10
-5.78428 34.1987 4.25872 8.68094e-05 10
-5.78533 34.205 5.49448 8.4772e-05 10
-5.78368 34.1952 6.74128 8.2278e-05 10
-5.78801 34.2208 8.01271 7.93616e-05 10
-5.78469 34.2012 9.29433 7.60621e-05 10
-1.67406 9.69175 -2.63535 0.000464358 4
-1.87135 10.834 -2.53826 0.000341198 4
-2.21851 12.8438 -2.53355 0.000141516 4
-2.92696 16.9453 -2.72362 7.86571e-05 1
-3.77423 21.8504 -2.72262 2.87528e-05 1
-6.15797 35.6508 -0.631503 6.48399e-05 10
-6.16074 35.6668 0.631786 6.48397e-05 10
-5.89757 34.1432 1.81587 8.98142e-05 10
-5.90109 34.1637 3.03319 8.87623e-05 10
-5.8986 34.1492 4.25509 8.72026e-05 10
-5.89878 34.1503 5.48896 8.51566e-05 10
-5.8981 34.1463 6.73566 8.26522e-05 10
-5.90113 34.1639 8.00414 7.97236e-05 10
-5.89982 34.1563 9.28768 7.64102e-05 10
-1.72489 9.78235 -2.66161 0.000602323 4
-1.90576 10.8081 -2.53375 0.000336659 4
-2.26315 12.8349 -2.53335 0.000150195 4
-2.78035 15.7682 -2.53596 8.63588e-05 4
-3.85019 21.8355 -2.72243 2.8749e-05 1
-1.77276 9.8526 -2.68239 0.00059872 4
-1.9481 10.8271 -2.53977 0.000320823 4
-2.31105 12.8443 -2.53677 0.000142737 4
-2.83661 15.7653 -2.53707 7.51898e-05 4
-3.92606 21.8202 -2.72221 2.87453e-05 1
-6.494 36.0922 -0.640109 6.16166e-05 10
-6.49273 36.0852 0.639983 6.16165e-05 10
-6.35909 35.3424 3.14171 7.76582e-05 10
-6.35899 35.3418 6.98007 7.22425e-05 10
-6.35559 35.3229 9.61674 6.67147e-05 10
-1.81378 9.88251 -2.69224 0.000211621 4
-1.98256 10.8021 -2.53552 0.000309509 4
-2.35647 12.8394 -2.53741 0.000152655 4
-2.88892 15.7405 -2.53469 6.46102e-05 4
-4.00536 21.8235 -2.72434 2.87416e-05 1
-6.71691 36.5976 -0.649484 5.83161e-05 10
-6.71658 36.5958 0.649451 5.8316e-05 10
-6.47614 35.2857 3.13866 7.79992e-05 10
-6.47646 35.2874 6.97375 7.25615e-05 10
-6.47587 35.2843 9.61231 6.70112e-05 10
-1.84506 9.85902 -2.68758 0.000548263 4
-2.02114 10.7999 -2.53663 0.00030949 4
-2.4018 12.8339 -2.53797 0.000182428 4
-2.94495 15.7362 -2.53565 7.98743e-05 4
-4.08137 21.8087 -2.72425 2.87378e-05 1
-6.93667 37.0658 -0.658219 5.52164e-05 10
-6.93888 37.0777 0.658428 5.52163e-05 10
-1.87925 9.85139 -2.68727 0.00038152 4
-2.05717 10.7841 -2.5346 0.000304954 4
-2.44421 12.813 -2.53551 0.000157597 4
-2.99951 15.724 -2.53534 6.81217e-05 4
-4.1534 21.7729 -2.72158 2.87341e-05 1
-7.16514 37.561 -0.667452 5.23034e-05 10
-7.16532 37.5619 0.667468 5.23034e-05 10
-7.13686 37.4127 3.33221 6.16112e-05 10
-7.13479 37.4019 6.03069 5.90165e-05 10
-7.13908 37.4244 7.40574 5.72164e-05 10
-7.13503 37.4031 10.2029 5.27377e-05 10
-1.91593 9.85664 -2.69051 8.01473e-05 4
-2.0958 10.7819 -2.5358 0.000266536 4
-2.49052 12.8126 -2.53714 0.000171234 4
-3.05594 15.7214 -2.53664 7.51618e-05 4
-4.23455 21.7849 -2.72491 2.87304e-05 1
-7.39728 38.0558 -0.676699 4.95644e-05 10
-7.39953 38.0673 0.676903 4.95643e-05 10
-7.26272 37.3635 3.33006 6.18761e-05 10
-7.25952 37.347 6.0259 5.92711e-05 10
-7.25891 37.3439 7.39478 5.74638e-05 10
-7.26109 37.3551 10.1966 5.29673e-05 10
-1.9475 9.83561 -2.68661 0.000176315 4
-2.13489 10.782 -2.53754 0.000432759 4
-2.53728 12.8142 -2.53919 0.000115389 4
-3.11113 15.7124 -2.53691 7.39805e-05 4
-4.30767 21.7553 -2.72308 2.87266e-05 1
-7.385 37.2969 3.32641 6.2138e-05 10
-7.62782 38.5233 4.8219 5.3613e-05 10
-7.38422 37.293 6.02131 5.95228e-05 10
-7.38461 37.295 7.39016 5.77085e-05 10
-7.38502 37.297 10.1877 5.31943e-05 10
-1.98218 9.83051 -2.68709 0.000246829 4
-2.19466 10.8843 -2.56342 0.00031292 4
-2.57749 12.783 -2.53476 0.000141434 4
-3.1659 15.7011 -2.53687 6.63414e-05 4
-4.38521 21.7482 -2.72409 2.87229e-05 1
-7.7524 38.4477 3.43143 5.4851e-05 10
-7.75368 38.454 4.81658 5.38396e-05 10
-7.75437 38.4574 6.21364 5.25139e-05 10
-7.75106 38.441 9.05342 4.90005e-05 10
-7.7525 38.4481 10.5095 4.6863e-05 10
-2.02125 9.84677 -2.69345 0.000410292 4
-2.2537 10.9792 -2.58759 0.000385425 4
-2.62302 12.7783 -2.53565 0.000166235 4
-3.21842 15.6789 -2.53508 5.16593e-05 4
-4.46295 21.7418 -2.72522 2.87191e-05 1
-7.88364 38.4061 3.43016 5.50789e-05 10
-7.88367 38.4062 4.81401 5.40636e-05 10
-7.88381 38.4069 6.2099 5.27328e-05 10
-7.88022 38.3894 7.61773 5.11058e-05 10
-7.88353 38.4055 9.05149 4.92059e-05 10
-7.87861 38.3816 10.4987 4.70602e-05 10
-2.05388 9.83138 -2.69118 0.000413476 4
-2.30899 11.0525 -2.60676 0.000378823 4
-2.66818 12.7719 -2.53619 0.000135211 4
-3.2737 15.6703 -2.53552 6.6916e-05 4
-4.53569 21.7111 -2.72334 2.87154e-05 1
-8.46058 40.4985 -0.722166 3.80536e-05 10
-8.4636 40.513 0.722423 3.80535e-05 10
-2.08523 9.81026 -2.68738 0.00060576 4
-2.37225 11.1606 -2.63419 0.000333523 4
-2.715 12.7731 -2.53831 0.000169932 4
-3.33102 15.6713 -2.53753 8.68653e-05 4
-4.61152 21.6955 -2.72339 2.87117e-05 1
-8.71317 40.9923 -0.731509 3.61406e-05 10
-8.71126 40.9833 0.731347 3.61405e-05 10
-2.12193 9.81433 -2.6905 0.000394204 4
-2.42552 11.2185 -2.64984 0.000143197 4
-2.76045 12.7676 -2.53912 0.000189764 4
-3.38086 15.6371 -2.5339 7.04247e-05 4
-4.68903 21.6876 -2.72444 2.87079e-05 1
-8.9615 41.4486 -0.740205 3.4335e-05 10
-8.96723 41.4751 0.740677 3.43349e-05 10
-2.15611 9.80657 -2.69042 0.000487122 4
-2.46651 11.2183 -2.65182 0.000383179 4
-2.80139 12.7415 -2.53585 0.000174867 4
-3.43695 15.6322 -2.53503 7.86336e-05 4
-4.76278 21.6624 -2.72334 2.87041e-05 1
-9.25832 42.1093 -0.752577 4.85069e-05 10
-9.25719 42.1042 0.752484 4.85069e-05 10
-2.19071 9.80068 -2.69089 0.000179457 4
-2.50552 11.2091 -2.65168 0.000185528 4
-2.84618 12.7331 -2.53614 0.000150053 4
-3.49157 15.6204 -2.53508 8.86012e-05 4
-4.83933 21.6499 -2.72388 2.87004e-05 1
-2.22534 9.79487 -2.69141 0.000490277 4
-2.5455 11.2041 -2.65258 4.83957e-05 4
-2.8905 12.7226 -2.53604 0.000153762 4
-3.54463 15.6018 -2.53405 7.56853e-05 4
-4.91839 21.6484 -2.72583 2.86966e-05 1
-9.54042 41.9924 2.25681 3.78763e-05 10
-9.53779 41.9808 6.81855 3.57368e-05 10
-9.53929 41.9874 9.94058 3.32531e-05 10
-2.25978 9.78816 -2.69172 0.000416554 4
-2.58485 11.1962 -2.65284 0.000183489 4
-2.93403 12.7087 -2.5353 0.000141351 4
-3.60455 15.613 -2.53791 8.2718e-05 4
-4.99433 21.6328 -2.72604 2.86929e-05 1
-2.29232 9.77338 -2.68984 0.00067286 4
-2.62267 11.1818 -2.65158 0.000229852 4
-2.98024 12.7063 -2.53688 0.000193414 4
-3.65605 15.5877 -2.53584 7.86041e-05 4
-5.06534 21.5962 -2.72364 2.86891e-05 1
-10.3335 44.0571 2.3716 3.05716e-05 10
-10.3335 44.0573 7.16735 2.88077e-05 10
-2.66239 11.1755 -2.65228 0.000133064 4
-3.03208 12.7273 -2.54318 0.00020674 4
-3.70766 15.5631 -2.53394 7.5664e-05 4
-10.4826 44.0015 2.37056 3.06875e-05 10
-10.4819 43.9986 7.16372 2.89174e-05 10
-2.36085 9.7586 -2.69024 0.000227468 4
-2.70059 11.1629 -2.6515 0.00019152 4
-3.11235 12.8649 -2.57283 0.00020207 4
-3.76213 15.5508 -2.53405 9.0319e-05 4
-2.29396 9.33936 -2.57686 0.000460482 4
-2.73566 11.1376 -2.64775 0.000251985 4
-3.193 12.9996 -2.60197 0.000227347 4
-3.82268 15.5632 -2.53823 8.85512e-05 4
-4.92788 20.0627 -2.53662 2.87898e-05 4
-2.32974 9.34407 -2.58038 0.000524709 4
-2.77889 11.1455 -2.65192 0.000189481 4
-3.26882 13.1105 -2.62644 0.000210783 4
-3.87408 15.5381 -2.53633 9.4993e-05 4
-2.36029 9.32779 -2.57815 0.000442589 4
-2.81232 11.1142 -2.64679 0.000495845 4
-3.34252 13.2095 -2.6486 0.000188415 4
-3.926 15.5154 -2.53485 8.32577e-05 4
-1.81138 7.1585 -0.646026 0.00728738 8
-2.39223 9.3171 -2.57749 0.000488964 4
-2.85583 11.1227 -2.65118 0.000177365 4
-3.39216 13.2116 -2.65137 0.000154246 4
-3.98187 15.5084 -2.53595 8.14911e-05 4
-1.83503 7.14695 -0.645559 0.00132919 8
-1.83258 7.13743 -0.38619 0.00143269 8
-2.42179 9.29739 -2.57436 0.000463957 4
-2.89012 11.0953 -2.64704 0.00028417 4
-3.43754 13.1969 -2.65082 0.000194997 4
-4.03589 15.494 -2.5359 7.5035e-05 4
-1.90076 7.29713 -0.925871 0.00617538 8
-1.89112 7.26013 -0.656374 0.00131509 8
-1.89442 7.27278 -0.393869 0.00141981 8
-2.47669 9.37389 -2.59792 0.000281695 4
-2.93326 11.102 -2.65104 0.000259969 4
-3.48288 13.1822 -2.65029 0.000280906 4
-4.09096 15.4836 -2.53652 7.1511e-05 4
-1.95911 7.41493 -0.941681 0.00120657 8
-1.9551 7.39976 -0.669611 0.00130862 8
-1.96115 7.42265 -0.402354 0.0013806 8
-2.00689 7.4898 -2.07768 0.00540705 8
-2.01033 7.50265 -1.79322 0.00557043 8
-2.00871 7.4966 -1.5086 0.00571348 8
-2.00756 7.49231 -1.22853 0.00583482 8
-2.00883 7.49704 -0.952993 0.0059333 8
-2.01259 7.5111 -0.680318 0.006008 8
-2.00846 7.49568 -0.40669 0.0060582 8
-2.0452 7.5276 -2.09013 0.000895669 8
-2.03923 7.50561 -1.79562 0.000923549 8
-2.03908 7.50507 -1.51172 0.000948084 8
-2.04199 7.51579 -1.23354 0.000969043 8
-2.04015 7.50902 -0.955415 0.000986226 8
-2.03876 7.50391 -0.680306 0.000999471 8
-2.03932 7.50595 -0.407631 0.00100865 8
-2.67774 9.72146 -2.70187 0.000325558 4
-2.91684 10.5895 -2.53584 0.000304533 4
-3.61846 13.1367 -2.64862 0.000125554 4
-4.25202 15.4369 -2.53602 8.43825e-05 4
-2.16584 7.86302 -0.713545 0.000983741 8
-2.16552 7.86187 -0.427367 0.000917301 8
-2.73468 9.79454 -2.72482 0.000509475 1
-2.95763 10.5931 -2.53913 0.000268424 4
-3.66393 13.1227 -2.64836 8.14936e-05 4
-4.35105 15.5837 -2.56262 4.34043e-05 4
-5.55823 19.9074 -2.5378 3.00634e-05 4
-2.77126 9.79341 -2.72718 0.000509448 1
-2.99127 10.5709 -2.53632 0.00025713 4
-3.71356 13.1235 -2.65111 7.15769e-05 4
-4.45783 15.7536 -2.59311 0.000110244 4
-5.62278 19.8705 -2.53559 4.18219e-05 4
-2.8093 9.7972 -2.73094 0.000509422 1
-3.04311 10.6126 -2.54885 0.000230068 4
-3.75943 13.1107 -2.65117 0.000122222 4
-4.57607 15.9586 -2.62946 8.47385e-05 4
-5.69534 19.862 -2.53703 3.02734e-05 4
-2.84263 9.78439 -2.73012 0.000509396 1
-3.12197 10.7459 -2.58346 0.000257354 4
-3.80027 13.0806 -2.64775 0.000117809 4
-4.66473 16.0561 -2.64819 9.15507e-05 4
-2.87219 9.75887 -2.72578 0.000509369 1
-3.20889 10.9029 -2.62389 0.000198415 4
-3.8513 13.0856 -2.65146 0.000123305 4
-4.7231 16.0477 -2.64951 8.11982e-05 4
-2.90454 9.74308 -2.72419 0.000509343 1
-3.30109 11.0733 -2.66765 0.00020509 4
-3.89375 13.0613 -2.64928 0.000136506 4
-4.7804 16.0355 -2.65023 4.1371e-05 4
-2.94515 9.75481 -2.73032 0.000509317 1
-3.39086 11.2311 -2.7085 0.000216855 4
-3.76957 12.4854 -2.53512 0.000158487 4
-4.83596 16.0175 -2.65002 8.3251e-05 4
-5.97269 19.7825 -2.53728 2.96046e-05 4
-2.97273 9.72337 -2.72441 0.00050929 1
-3.45532 11.3019 -2.72846 0.000307736 1
-3.81772 12.4872 -2.53817 0.000172094 4
-4.88852 15.9897 -2.64823 7.96238e-05 4
-3.00704 9.71417 -2.72476 0.000509263 1
-3.49154 11.2794 -2.72595 0.000307717 1
-3.86246 12.4776 -2.53895 0.000153512 4
-4.94645 15.9794 -2.64938 9.77107e-05 4
-6.10653 19.727 -2.53557 2.93793e-05 4
-3.04054 9.70239 -2.72442 0.000509237 1
-3.53278 11.2731 -2.72741 0.000307698 1
-3.92454 12.5232 -2.551 0.000159657 4
-5.00595 15.974 -2.65136 0.000123548 4
-6.17815 19.7145 -2.53672 3.22042e-05 4
-3.07945 9.70767 -2.7289 0.000509211 1
-3.57514 11.2703 -2.72973 0.000307679 1
-4.04012 12.7361 -2.59721 0.00011723 4
-5.06099 15.9542 -2.651 6.82293e-05 4
-6.27812 19.7911 -2.54938 3.90323e-05 4
-3.11517 9.70262 -2.73052 0.000509184 1
-3.60732 11.2355 -2.72434 0.00030766 1
-4.15904 12.9539 -2.64458 0.00012132 4
-5.11687 15.9372 -2.65112 7.7009e-05 4
-6.45378 20.1012 -2.59221 4.08383e-05 4
-3.14517 9.67984 -2.72718 0.000509158 1
-3.65429 11.2467 -2.73014 0.000307641 1
-4.28421 13.1854 -2.69489 0.000114873 4
-5.17174 15.917 -2.65074 8.88878e-05 4
-6.63953 20.4344 -2.63815 3.3103e-05 4
-3.17986 9.6716 -2.72797 0.000509132 1
-3.69078 11.2256 -2.72811 0.000307622 1
-4.38287 13.3306 -2.72766 0.000167575 1
-5.00178 15.213 -2.53639 8.66112e-05 4
-3.2179 9.67336 -2.73162 0.000509105 1
-3.73362 11.2237 -2.7308 0.000307603 1
-4.43151 13.3216 -2.72897 0.000167563 1
-5.05631 15.1998 -2.53713 8.01663e-05 4
-3.24429 9.64022 -2.72544 0.000509078 1
-3.77011 11.2026 -2.72887 0.000161094 4
-4.47751 13.3046 -2.72869 0.00016755 1
-5.11391 15.1957 -2.53939 8.36693e-05 4
-3.28511 9.64994 -2.73142 0.000509052 1
-3.79971 11.1616 -2.72208 0.000276585 4
-4.51752 13.2701 -2.72483 0.000167537 1
-5.21938 15.3319 -2.56518 5.54629e-05 4
-6.95856 20.4406 -2.65124 3.60844e-05 4
-3.30989 9.61261 -2.7241 0.000375454 4
-3.82678 11.1138 -2.71366 0.000248785 4
-4.57073 13.2744 -2.72895 0.000167525 1
-5.39115 15.657 -2.62272 7.06501e-05 4
-3.33505 9.57696 -2.71728 0.000367443 4
-3.84545 11.0426 -2.69955 0.000190831 4
-4.61967 13.2659 -2.73051 0.000167512 1
-5.5729 16.0032 -2.68395 5.96964e-05 4
-7.0987 20.3847 -2.65035 2.99991e-05 4
-3.35911 9.53871 -2.70974 0.000350552 4
-3.87548 11.005 -2.69365 0.000231534 4
-4.66587 13.2495 -2.73046 0.000167499 1
-5.7166 16.2332 -2.72585 7.82962e-05 1
-7.17059 20.362 -2.65063 3.03748e-05 4
-3.37722 9.48433 -2.69763 0.000365471 4
-3.90596 10.9692 -2.6882 0.000203943 4
-4.70563 13.215 -2.72672 0.000118159 4
-5.77425 16.216 -2.72633 7.82886e-05 1
-3.40436 9.45597 -2.69292 0.000315713 4
-3.92627 10.9056 -2.67596 0.000190051 4
-4.73757 13.1591 -2.71859 9.37822e-05 4
-5.82917 16.1912 -2.72556 7.8281e-05 1
-7.00087 19.4457 -2.53765 3.21537e-05 4
-3.43378 9.43424 -2.69013 0.000303855 4
-3.95412 10.8639 -2.66908 0.00030633 4
-4.75768 13.0716 -2.70393 0.000128949 4
-5.88862 16.1789 -2.72693 7.82734e-05 1
-3.4716 9.43553 -2.69394 0.000470151 4
-3.98582 10.8332 -2.66494 0.000284025 4
-4.78769 13.0126 -2.69516 0.000145969 4
-5.94994 16.1715 -2.72918 7.82658e-05 1
-3.50005 9.41135 -2.69051 0.000642827 4
-4.00851 10.7786 -2.65494 0.000250073 4
-4.81437 12.9455 -2.68472 0.000124741 4
-6.00591 16.1494 -2.72897 7.82582e-05 1
-3.53486 9.40436 -2.69202 0.000598021 4
-4.04139 10.7519 -2.65184 0.000146853 4
-4.84382 12.8868 -2.67604 0.000100944 4
-6.04529 16.0833 -2.72134 5.16134e-05 4
-3.56618 9.38803 -2.69089 0.000537232 4
-4.0786 10.737 -2.65165 0.000352023 4
-4.86978 12.8198 -2.66565 9.83292e-05 4
-6.0731 15.9875 -2.70872 4.42063e-05 4
-3.59503 9.36539 -2.68798 0.000636331 4
-4.11452 10.7187 -2.65067 0.000428436 4
-4.89908 12.7625 -2.65728 0.000120783 4
-6.10083 15.8932 -2.69633 6.27946e-05 4
-3.63024 9.35932 -2.68986 0.000629903 4
-4.15411 10.7099 -2.65207 0.000400251 4
-6.13124 15.8073 -2.68536 5.57328e-05 4
-3.66262 9.3459 -2.68966 0.000175852 4
-4.19482 10.7039 -2.65419 0.000428383 4
-4.98152 12.7114 -2.6538 0.000221971 4
-6.16288 15.7258 -2.67516 3.04237e-05 4
-3.69742 9.33862 -2.69127 0.000169449 4
-4.22339 10.6671 -2.64869 0.000357969 4
-5.01813 12.6743 -2.64972 0.00025272 4
-6.18843 15.6302 -2.66255 7.26815e-05 4
-3.73147 9.32936 -2.69233 0.000111894 4
-5.06968 12.6751 -2.65356 0.000202161 4
-3.76417 9.31666 -2.69245 0.000121479 4
-4.30172 10.6471 -2.65113 8.84758e-05 4
-5.10614 12.6382 -2.64954 0.000228512 4
-6.27298 15.5262 -2.65223 0.000109348 4
-3.79719 9.30473 -2.69281 0.000281305 4
-4.33956 10.6338 -2.65156 6.43421e-05 4
-5.1548 12.6314 -2.65189 0.000206524 4
-6.32242 15.4926 -2.65025 0.000106759 4
-3.82904 9.28995 -2.69238 0.000351612 4
-4.37907 10.6244 -2.65303 8.44438e-05 4
-5.20181 12.6206 -2.6534 3.73474e-05 4
-6.3824 15.4849 -2.65272 0.000106233 4
-3.86026 9.27367 -2.69156 3.83557e-05 4
-4.40926 10.5926 -2.64889 0.000146762 4
-5.23856 12.5848 -2.64972 5.60168e-05 4
-6.43306 15.4544 -2.65134 0.00010055 4
-8.30209 19.9445 -2.65257 3.69408e-05 4
-3.88913 9.25187 -2.68915 0.000373949 4
-5.28765 12.5788 -2.65232 0.000138384 4
-6.48337 15.4233 -2.64987 3.24824e-05 4
-8.3666 19.9034 -2.65096 3.84512e-05 4
-3.92731 9.25215 -2.6932 0.000105467 4
-4.48914 10.5757 -2.65246 0.00010051 4
-6.54667 15.423 -2.65372 3.91813e-05 4
-8.4426 19.8895 -2.65303 3.73097e-05 4
-3.95821 9.2352 -2.69227 0.000143811 4
-4.52437 10.5562 -2.65149 8.04028e-05 4
-5.37107 12.5317 -2.65022 5.05135e-05 4
-3.99499 9.23188 -2.69536 0.000201325 4
-4.56011 10.5378 -2.65086 8.03978e-05 4
-5.41485 12.513 -2.65025 2.9647e-05 4
-4.02602 9.2152 -2.69457 0.000124624 4
-4.5952 10.518 -2.6499 0.000239169 4
-4.05331 9.19008 -2.69135 9.90546e-05 4
-4.63747 10.5146 -2.6531 4.82327e-05 4
-4.08501 9.17508 -2.69111 0.000156562 4
-4.66923 10.4873 -2.65031 0.000154737 4
-5.55386 12.4742 -2.6542 4.17159e-05 4
-4.11826 9.16356 -2.69193 6.38995e-05 4
-4.70584 10.471 -2.65033 3.01417e-05 4
-4.14831 9.14489 -2.69069 0.000108624 4
-4.18741 9.14611 -2.69533 0.000204457 4
-4.77913 10.4385 -2.65049 9.64416e-05 4
-5.67465 12.3945 -2.64975 6.91449e-05 4
-4.2168 9.126 -2.69373 0.000156529 4
-4.81837 10.4279 -2.65205 6.42904e-05 4
-5.72902 12.3987 -2.65491 0.000109746 4
-4.25033 9.11487 -2.6948 0.000172493 4
-4.85613 10.414 -2.65281 3.61611e-05 4
-5.7714 12.3768 -2.65451 4.27975e-05 4
-4.27402 9.08275 -2.6897 6.38828e-05 4
-4.88806 10.3876 -2.65043 0.000192847 4
-5.8062 12.3388 -2.65069 4.49888e-05 4
-4.30606 9.06855 -2.68993 0.000111789 4
-4.93381 10.3906 -2.65555 0.000136592 4
-5.85523 12.3311 -2.65341 4.82771e-05 4
-7.18192 15.1251 -2.65193 3.14116e-05 4
-4.34118 9.06076 -2.6921 0.000239536 4
-4.96677 10.3665 -2.6538 0.000116498 4
-5.89607 12.3061 -2.65244 5.92446e-05 4
-4.37517 9.05048 -2.69357 0.00010539 4
-5.0052 10.3538 -2.65501 9.84143e-05 4
-5.94229 12.2922 -2.65391 9.65395e-05 4
-4.40816 9.03807 -2.69444 4.47087e-05 4
-5.04168 10.337 -2.65521 0.000112467 4
-5.98235 12.2656 -2.65266 3.83935e-05 4
-9.47398 19.4245 -2.65359 4.02596e-05 4
-4.4413 9.02592 -2.69542 0.000252271 4
-5.07425 10.3122 -2.65338 8.43447e-05 4
-6.01916 12.2326 -2.65004 6.25218e-05 4
-4.46924 9.00323 -2.69329 0.000105374 4
-5.10927 10.2926 -2.65289 9.43799e-05 4
-6.06572 12.2193 -2.65174 0.000103098 4
-9.60399 19.3471 -2.65211 3.00449e-05 4
-4.50076 8.9878 -2.69336 0.000603473 4
-5.15081 10.2859 -2.6558 9.839e-05 4
-6.11306 12.2075 -2.65379 3.3998e-05 4
-4.53057 8.96901 -2.69245 0.000664104 4
-5.18715 10.2688 -2.65604 8.03134e-05 4
-4.56468 8.95869 -2.69411 0.000600217 4
-5.21729 10.2395 -2.65315 7.42853e-05 4
-6.1972 12.1627 -2.65339 4.38617e-05 4
-7.60406 14.9238 -2.65284 7.51238e-05 4
-4.5886 8.92845 -2.68982 0.000718307 4
-5.2535 10.2222 -2.65341 6.02276e-05 4
-6.23574 12.1334 -2.65174 4.49548e-05 4
-4.62259 8.9179 -2.69149 0.000731039 4
-6.27848 12.1124 -2.65192 4.05659e-05 4
-7.71085 14.8757 -2.6538 5.96758e-05 4
-4.66259 8.91871 -2.69663 0.000360712 4
-5.31903 10.1744 -2.65056 4.81761e-05 4
-6.32432 12.0973 -2.65343 4.16592e-05 4
-7.76635 14.8556 -2.65504 2.9835e-05 4
-4.6895 8.89444 -2.69422 0.000360693 4
-5.36447 10.1746 -2.65549 0.000136491 4
-6.36455 12.0714 -2.65261 4.49446e-05 4
-4.72289 8.88246 -2.69557 0.000181933 4
-5.39556 10.1476 -2.65333 8.42978e-05 4
-6.4068 12.0494 -2.65268 3.94606e-05 4
-4.74517 8.84971 -2.69064 0.000268098 4
-5.42756 10.1224 -2.65168 0.000148516 4
-6.45399 12.0366 -2.6548 6.35706e-05 4
-7.91777 14.7666 -2.65379 5.29675e-05 4
-4.77696 8.83481 -2.69116 4.78722e-05 4
-5.46691 10.1108 -2.65364 0.000272931 4
-6.49492 12.0121 -2.65438 5.26062e-05 4
-4.80903 8.82038 -2.69187 9.25481e-05 4
-5.50158 10.0906 -2.65336 0.000144484 4
-6.52844 11.974 -2.65097 6.79446e-05 4
-4.84052 8.80488 -2.69228 0.000220189 4
-5.5352 10.0685 -2.65261 0.000186613 4
-6.57475 11.9594 -2.65281 0.000104101 4
-4.87326 8.79159 -2.6934 0.000216987 4
-5.57657 10.0604 -2.65559 0.000160518 4
-6.61503 11.9338 -2.65224 7.67e-05 4
-4.89929 8.76625 -2.69086 0.000261647 4
-5.60085 10.0215 -2.65047 4.81524e-05 4
-6.65411 11.9061 -2.65123 4.82078e-05 4
-4.9277 8.74526 -2.68968 0.000216964 4
-5.64506 10.0184 -2.65483 0.00010633 4
-6.70005 11.8907 -2.65298 0.000133657 4
-8.22035 14.5888 -2.6522 2.92951e-05 4
-4.96197 8.73465 -2.69173 0.000223334 4
-5.67163 9.98388 -2.65092 0.000112342 4
-4.98873 8.71081 -2.68973 0.000264796 4
-5.7178 9.98384 -2.65619 6.01794e-05 4
-6.7818 11.8417 -2.65255 7.9963e-05 4
-8.32157 14.5303 -2.65207 3.49418e-05 4
-5.02807 8.70888 -2.69454 6.06129e-05 4
-5.74554 9.95157 -2.65293 9.22693e-05 4
-6.82789 11.8263 -2.65442 6.46228e-05 4
-8.37342 14.5032 -2.65244 3.44246e-05 4
-5.04961 8.6761 -2.68983 0.000149929 4
-6.86588 11.7968 -2.65316 5.47609e-05 4
-5.08186 8.66182 -2.69089 4.78473e-05 4
-5.82241 9.92406 -2.65636 0.000110308 4
-6.90686 11.7725 -2.6531 5.80422e-05 4
-8.47947 14.4529 -2.65401 2.97947e-05 4
-5.11342 8.64633 -2.69161 0.000137155 4
-5.84792 9.88829 -2.65224 0.000202554 4
-6.94522 11.7437 -2.65207 7.00834e-05 4
-5.15311 8.64443 -2.6966 0.000165853 4
-5.88311 9.86902 -2.65256 0.00013837 4
-6.99129 11.728 -2.65401 5.03687e-05 4
-5.18071 8.62216 -2.69527 0.000137141 4
-5.92553 9.86174 -2.65615 0.000184482 4
-7.02742 11.6956 -2.65222 5.03649e-05 4
-5.20419 8.59314 -2.69186 0.000204106 4
-5.95448 9.83202 -2.65372 9.02302e-05 4
-7.06669 11.6685 -2.65165 8.32053e-05 4
-5.24182 8.58749 -2.69581 0.000153072 4
-5.99457 9.82068 -2.6563 6.61647e-05 4
-7.11324 11.6534 -2.65384 8.7578e-05 4
-8.72443 14.2929 -2.65219 3.44014e-05 4
-5.26766 8.56246 -2.69371 3.82659e-05 4
-6.01564 9.77828 -2.65049 0.000138336 4
-7.14976 11.6218 -2.65231 6.89625e-05 4
-5.30116 8.54991 -2.69556 0.000580336 4
-6.05653 9.76818 -2.65347 7.01661e-05 4
-7.19841 11.6099 -2.65531 3.94042e-05 4
-8.83965 14.2569 -2.65689 4.20952e-05 4
-5.32646 8.52411 -2.69328 0.000538856 4
-6.09589 9.75546 -2.65578 0.000158365 4
-7.23299 11.5752 -2.65314 8.53693e-05 4
-5.35324 8.50081 -2.6918 0.00055477 4
-6.11947 9.71755 -2.65125 3.80855e-05 4
-7.27984 11.5602 -2.65551 3.06431e-05 4
-8.93819 14.1936 -2.65666 3.07954e-05 4
-5.38776 8.48975 -2.69424 0.000589811 4
-6.15754 9.70273 -2.65306 0.000130285 4
-7.32064 11.5355 -2.65569 7.55076e-05 4
-5.4202 8.47533 -2.69565 0.000634413 4
-6.19662 9.68939 -2.65531 5.61191e-05 4
-7.35467 11.5002 -2.65345 5.79943e-05 4
-5.44543 8.44965 -2.69351 0.000535557 4
-6.23176 9.6698 -2.65589 0.00015031 4
-7.4013 11.4846 -2.6558 3.72011e-05 4
-9.08116 14.0912 -2.65515 4.51536e-05 4
-5.47089 8.42442 -2.69154 0.000637534 4
-6.25443 9.63098 -2.6512 3.40682e-05 4
-5.50549 8.41328 -2.6941 0.000678939 4
-6.29969 9.62693 -2.65613 0.000112218 4
-7.4779 11.4274 -2.65459 5.79812e-05 4
-5.53998 8.40182 -2.69661 0.000599221 4
-6.32719 9.59569 -2.65358 0.00013826 4
-7.52007 11.4048 -2.65541 5.25074e-05 4
-9.22088 13.9842 -2.65303 2.87258e-05 4
-5.56397 8.37445 -2.69405 0.000133862 4
-6.35909 9.57121 -2.65294 7.8142e-05 4
-7.55481 11.3709 -2.65365 0.000154229 4
-5.59429 8.35666 -2.69459 0.000127481 4
-6.3907 9.54632 -2.65221 0.000118208 4
-7.58985 11.3376 -2.65204 6.56244e-05 4
-5.62641 8.34149 -2.69601 0.000286817 4
-6.4365 9.54251 -2.65737 7.61291e-05 4
-7.64471 11.3338 -2.65737 5.46829e-05 4
-9.37095 13.893 -2.6542 2.87176e-05 4
-5.65325 8.31851 -2.69495 9.24139e-05 4
-6.45608 9.49984 -2.65175 7.01146e-05 4
-7.67014 11.2863 -2.6525 4.81174e-05 4
-5.6798 8.29514 -2.69378 9.55957e-05 4
-6.50406 9.49894 -2.65782 0.000176277 4
-9.47841 13.8429 -2.65721 5.22971e-05 4
-5.70663 8.27223 -2.69279 0.000114709 4
-6.52824 9.46322 -2.65419 0.000160242 4
-7.75915 11.2475 -2.65606 8.30994e-05 4
-9.52255 13.8037 -2.65605 4.87034e-05 4
-5.73054 8.24517 -2.69048 0.000187986 4
-6.56157 9.44087 -2.65432 6.80989e-05 4
-7.80099 11.2241 -2.65695 3.28e-05 4
-5.75942 8.22531 -2.69054 0.000213464 4
-6.60176 9.42829 -2.65725 8.61198e-05 4
-7.83888 11.1951 -2.65653 5.02895e-05 4
-9.61919 13.7376 -2.65619 3.43422e-05 4
-5.80332 8.22673 -2.69762 0.000191152 4
-6.63264 9.40237 -2.65645 0.000112149 4
-7.87725 11.1667 -2.65631 0.000130087 4
-5.82515 8.19678 -2.69445 0.000286713 4
-6.65757 9.36811 -2.65332 8.01018e-05 4
-7.91378 11.1358 -2.6555 3.27927e-05 4
-9.71459 13.6698 -2.65612 4.25352e-05 4
-5.85032 8.17165 -2.69288 0.000216617 4
-6.69445 9.35071 -2.655 5.00606e-05 4
-7.95101 11.1059 -2.65497 5.02783e-05 4
-9.76551 13.6403 -2.65701 4.30436e-05 4
-5.87554 8.14664 -2.69139 3.18538e-05 4
-6.73073 9.33239 -2.65645 0.000118136 4
-5.91523 8.14161 -2.69653 0.000312151 4
-6.76628 9.31299 -2.65764 9.81068e-05 4
-8.02231 11.0418 -2.65298 5.90136e-05 4
-5.93828 8.11364 -2.69411 0.000149698 4
-6.79496 9.28413 -2.65615 7.20741e-05 4
-8.06304 11.0168 -2.65371 4.1525e-05 4
-9.90478 13.5332 -2.65619 9.11853e-05 4
-5.95918 8.08284 -2.69078 7.96223e-05 4
-6.81843 9.2483 -2.6527 0.00012412 4
-8.11031 11.0006 -2.65662 8.41366e-05 4
-9.94496 13.489 -2.65433 0.000102446 4
-6.00419 8.08465 -2.69834 8.91723e-05 4
-6.85437 9.22942 -2.65413 0.000128116 4
-8.1514 10.9759 -2.65751 0.000116908 4
-9.99054 13.4523 -2.65394 0.000100899 4
-6.02502 8.05381 -2.69505 0.000206997 4
-6.88372 9.20167 -2.65304 6.00508e-05 4
-8.19098 10.9491 -2.65793 6.44587e-05 4
-10.038 13.4181 -2.65409 9.93535e-05 4
-6.05943 8.04113 -2.69787 0.000149667 4
-6.91617 9.17807 -2.65318 5.00393e-05 4
-8.21543 10.9022 -2.6535 0.000136555 4
-10.0874 13.3865 -2.65479 4.916e-05 4
-6.08252 8.01342 -2.69568 0.000101896 4
-6.95828 9.1672 -2.65704 6.80494e-05 4
-10.1399 13.3589 -2.65632 2.9186e-05 4
-6.0997 7.97808 -2.69094 8.91542e-05 4
-6.99347 9.14709 -2.65827 0.0001501 4
-8.29384 10.8479 -2.6543 2.94915e-05 4
-6.12936 7.95914 -2.69175 0.000238794 4
-7.01002 9.1027 -2.65247 7.00424e-05 4
-8.33061 10.8175 -2.65397 9.28368e-05 4
-10.2319 13.2865 -2.65606 3.17401e-05 4
-6.17178 7.95661 -2.69816 0.000130534 4
-7.04627 9.08401 -2.65417 0.000160087 4
-8.37064 10.7914 -2.65471 0.000109212 4
-10.2813 13.2545 -2.65684 4.19749e-05 4
-6.19472 7.92888 -2.69608 0.000219668 4
-7.08922 9.07379 -2.6584 0.000106051 4
-8.41941 10.7764 -2.65823 4.69576e-05 4
-10.335 13.2282 -2.65877 4.09473e-05 4
-6.21142 7.89331 -2.69134 0.000181456 4
-8.45294 10.7418 -2.65696 5.78737e-05 4
-6.2503 7.88592 -2.69624 0.00014643 4
-7.14207 9.01104 -2.65456 5.40197e-05 4
-6.28207 7.86942 -2.69808 0.000652537 4
-7.17224 8.98452 -2.65411 0.000104032 4
-8.53199 10.6878 -2.65829 4.69472e-05 4
-6.30721 7.84458 -2.6971 0.000697066 4
-7.20194 8.9574 -2.65351 0.000222054 4
-8.57045 10.6595 -2.65866 3.71183e-05 4
-6.33112 7.81829 -2.69564 0.000598364 4
-7.24334 8.94478 -2.65724 0.000114021 4
-8.59682 10.6162 -2.65533 4.14822e-05 4
-6.36315 7.80199 -2.69766 0.000579238 4
-7.26832 8.91185 -2.65498 0.000260033 4
-8.62812 10.5791 -2.65357 4.58453e-05 4
-6.37593 7.76219 -2.69158 0.000601486 4
-7.30553 8.89389 -2.65721 4.20028e-05 4
-8.67555 10.5618 -2.65681 0.000204106 4
-6.41719 7.75706 -2.69755 0.000617367 4
-7.3349 8.86637 -2.65662 0.000116001 4
-8.71004 10.5286 -2.6561 0.000201908 4
-6.44371 7.73398 -2.69733 8.59179e-05 4
-7.35945 8.83309 -2.65433 9.59948e-05 4
-10.7344 12.8838 -2.65604 4.19355e-05 4
-6.46774 7.70795 -2.69611 0.000136825 4
-7.3978 8.81636 -2.65705 4.99943e-05 4
-8.788 10.4731 -2.65751 0.000109124 4
-7.42467 8.78591 -2.65567 8.99844e-05 4
-8.82398 10.4418 -2.65735 8.72925e-05 4
-6.52216 7.66351 -2.69643 4.7725e-05 4
-7.45921 8.76454 -2.65706 0.000101976 4
-6.54897 7.64081 -2.69647 0.00012726 4
-7.49146 8.74044 -2.65767 8.59749e-05 4
-8.90347 10.3879 -2.65939 3.05479e-05 4
-10.9146 12.7343 -2.65637 3.47628e-05 4
-6.56542 7.60612 -2.69229 0.000133617 4
-7.5226 8.71502 -2.6579 0.000111961 4
-8.93209 10.3479 -2.65713 0.00010691 4
-14.1567 16.4007 -2.6602 3.25702e-05 4
-6.5957 7.58749 -2.69383 0.000229045 4
-7.54931 8.6845 -2.65662 0.000109955 4
