VERSION 0.7
FIELDS x y z intensity label
SIZE 4 4 4 4 4
TYPE F F F F F
COUNT 1 1 1 1 1
WIDTH 1198
HEIGHT 1
VIEWPOINT 11.108 7.4857 2.72676 0.999986 -4.38741e-05 0.000291827 -0.00536257
POINTS 1198
DATA ascii
35.622 15.8599 -2.04354 6.88686e-05 10
35.6046 15.8522 -0.680296 6.93017e-05 10
35.6225 15.8601 0.680636 6.93094e-05 10
29.5284 13.1469 1.69397 0.000111007 10
29.5098 13.1386 2.8261 0.000109751 10
29.5092 13.1384 3.96617 0.000107884 10
29.5081 13.1379 5.11593 0.000105428 10
29.5271 13.1463 6.28265 0.000102418 10
29.5236 13.1447 7.4611 9.8892e-05 10
29.5059 13.1369 8.65429 9.48977e-05 10
8.98907 4.03984 -2.64068 0.000127422 4
10.7438 4.82845 -2.71938 0.000310679 1
11.8581 5.32925 -2.52706 0.000145234 4
14.5633 6.54499 -2.52883 8.19119e-05 4
20.1691 9.06436 -2.71506 2.91313e-05 1
35.6263 16.0111 -2.04698 6.83429e-05 10
35.6176 16.0072 -0.681607 6.87729e-05 10
35.6035 16.0009 0.681338 6.87806e-05 10
29.5215 13.2675 1.69622 0.000110218 10
29.5311 13.2718 2.83256 0.000108971 10
29.529 13.2708 3.97502 0.000107115 10
29.5086 13.2617 5.124 0.000104676 10
29.5296 13.2711 6.293 0.000101686 10
29.5301 13.2714 7.47442 9.81832e-05 10
29.5231 13.2682 8.67287 9.42154e-05 10
8.97469 4.0711 -2.64061 0.000184425 4
10.7193 4.8625 -2.71747 0.000310677 1
11.8535 5.377 -2.53007 0.000110176 4
14.5313 6.59168 -2.52726 8.4285e-05 4
20.1325 9.13252 -2.71441 2.91308e-05 1
35.6044 16.1508 -2.04895 6.78159e-05 10
35.6196 16.1578 -0.682721 6.82428e-05 10
35.6031 16.1503 0.682405 6.82505e-05 10
29.5183 13.3901 1.69871 0.000109427 10
29.5081 13.3855 2.83482 0.000108188 10
29.5152 13.3887 3.97944 0.000106345 10
29.5251 13.3932 5.13495 0.000103922 10
29.5227 13.3921 6.30145 0.000100951 10
29.5287 13.3948 7.48585 9.74724e-05 10
29.5269 13.394 8.68765 9.35311e-05 10
8.97619 4.10962 -2.64526 0.000114008 4
10.7127 4.90465 -2.7201 0.000310674 1
12.3452 5.65206 -2.6392 0.000197003 4
14.5108 6.64354 -2.5277 8.25032e-05 4
20.0976 9.20138 -2.71401 2.91302e-05 1
35.6101 16.3036 -2.05254 6.72876e-05 10
35.6143 16.3055 -0.683706 6.77115e-05 10
35.6164 16.3064 0.683745 6.77192e-05 10
29.5254 13.5178 1.70182 0.000108634 10
29.517 13.5139 2.84019 0.000107403 10
29.5037 13.5078 3.98422 0.000105572 10
29.5065 13.5091 5.13988 0.000103166 10
29.5253 13.5177 6.31205 0.000100215 10
29.5201 13.5153 7.49557 9.67596e-05 10
29.5116 13.5115 8.69697 9.2845e-05 10
8.94681 4.134 -2.64083 0.00056668 4
10.6986 4.94344 -2.72089 0.000310671 1
12.3455 5.70442 -2.64351 0.000143577 4
14.4912 6.69587 -2.52835 6.64765e-05 4
20.052 9.2653 -2.7122 2.91297e-05 1
35.598 16.4486 -2.05514 6.67582e-05 10
35.6008 16.4499 -0.684545 6.71791e-05 10
35.6087 16.4535 0.684696 6.71867e-05 10
29.5254 13.6427 1.70456 0.000107839 10
29.5038 13.6327 2.84348 0.000106616 10
29.5169 13.6387 3.99241 0.000104798 10
29.5248 13.6424 5.15134 0.000102408 10
29.5005 13.6311 6.31686 9.94769e-05 10
29.5229 13.6415 7.50833 9.6045e-05 10
29.524 13.642 8.71461 9.2157e-05 10
8.93018 4.16421 -2.6402 0.000519732 4
10.6791 4.97977 -2.72035 0.000310668 1
12.3197 5.74479 -2.64228 0.000103508 4
14.4681 6.74659 -2.52842 8.01268e-05 4
20.0291 9.3397 -2.71349 2.91291e-05 1
35.5993 16.6002 -2.05855 6.62277e-05 10
35.602 16.6015 -0.685679 6.66455e-05 10
35.6057 16.6032 0.68575 6.66531e-05 10
29.5244 13.7675 1.70727 0.000107041 10
29.5232 13.7669 2.84997 0.000105828 10
29.5218 13.7662 3.99955 0.000104021 10
29.516 13.7636 5.15816 0.000101647 10
29.5029 13.7574 6.32764 9.87369e-05 10
29.5151 13.7631 7.51852 9.53285e-05 10
29.5201 13.7654 8.72759 9.14675e-05 10
8.9358 4.20487 -2.64619 0.000660558 4
10.6595 5.01597 -2.71978 0.000310666 1
12.2832 5.78003 -2.63875 0.000149139 4
14.4315 6.79096 -2.52615 7.83451e-05 4
19.9956 9.40921 -2.71339 2.91286e-05 1
35.6043 16.7541 -2.06221 6.56962e-05 10
35.6175 16.7603 -0.687099 6.6111e-05 10
35.5922 16.7484 0.68661 6.61185e-05 10
29.5042 13.8836 1.70889 0.000106242 10
29.5139 13.8882 2.85373 0.000105037 10
29.5136 13.888 4.00497 0.000103243 10
29.5063 13.8846 5.1649 0.000100885 10
29.521 13.8915 6.34188 9.79951e-05 10
29.5166 13.8894 7.5312 9.46105e-05 10
29.5223 13.8921 8.74253 9.07763e-05 10
8.91709 4.23414 -2.64501 0.000630375 4
10.6535 5.05865 -2.72274 0.000310663 1
12.2741 5.82818 -2.64116 0.000166945 4
14.4276 6.85074 -2.52964 6.40997e-05 4
19.9576 9.47655 -2.71271 2.9128e-05 1
35.5918 16.9002 -2.06489 6.51639e-05 10
35.6033 16.9057 -0.687959 6.55755e-05 10
35.5898 16.8993 0.687697 6.5583e-05 10
29.5026 14.0088 1.71162 0.000105441 10
29.4983 14.0068 2.85693 0.000104244 10
29.5009 14.0081 4.00987 0.000102463 10
29.5105 14.0126 5.17416 0.000100122 10
29.5195 14.0169 6.35202 9.72517e-05 10
29.5196 14.0169 7.5444 9.38908e-05 10
29.4991 14.0072 8.75008 9.00836e-05 10
8.89827 4.26334 -2.64382 0.000643783 4
10.6283 5.09224 -2.72084 0.00031066 1
12.2536 5.87096 -2.64114 0.0001547 4
14.3845 6.89189 -2.52628 7.24078e-05 4
19.9259 9.54688 -2.71291 2.91274e-05 1
30.0115 14.3791 -1.74405 5.87578e-05 10
30.017 14.3818 -0.580983 5.9101e-05 10
30.0008 14.374 0.580668 5.9103e-05 10
29.522 14.1446 1.7156 0.000104638 10
29.4998 14.1339 2.86184 0.00010345 10
29.5138 14.1407 4.01831 0.000101681 10
29.4965 14.1323 5.18032 9.93566e-05 10
29.5124 14.14 6.36109 9.65067e-05 10
29.5175 14.1424 7.55644 9.31697e-05 10
29.4965 14.1324 8.7639 8.93894e-05 10
8.88016 4.29284 -2.64288 0.000710838 4
10.5928 5.12075 -2.7163 0.000310657 1
12.2442 5.91906 -2.64354 0.000114633 4
14.3661 6.94482 -2.52728 8.54637e-05 4
19.9095 9.62461 -2.71523 2.91268e-05 1
27.8292 13.4531 -2.7043 7.67902e-05 10
29.7213 14.3678 -1.73008 6.08734e-05 10
29.7416 14.3777 -0.576621 6.12279e-05 10
29.7209 14.3676 0.576218 6.123e-05 10
29.5089 14.2652 1.71772 0.000103834 10
29.5036 14.2626 2.86701 0.000102654 10
29.5054 14.2634 4.02391 0.000100898 10
29.5171 14.2691 5.19267 9.85899e-05 10
29.5007 14.2612 6.36926 9.57603e-05 10
29.5022 14.2619 7.56524 9.24471e-05 10
29.5142 14.2677 8.7839 8.86941e-05 10
8.87619 4.32921 -2.64618 0.000653832 4
10.5776 5.15902 -2.717 0.000310654 1
12.2244 5.96226 -2.64375 0.000159149 4
14.3329 6.99061 -2.52572 7.00318e-05 4
19.8689 9.69069 -2.71429 2.91262e-05 1
27.5689 13.4462 -2.68356 7.94593e-05 10
29.5219 14.3988 -1.72139 0.000132094 10
29.522 14.3988 -0.573333 0.000132871 10
29.5136 14.3947 0.573169 0.000132885 10
29.5182 14.397 1.72118 0.000103028 10
29.521 14.3984 2.87358 0.000101856 10
29.5065 14.3913 4.03089 0.000100113 10
29.4982 14.3872 5.19815 9.78217e-05 10
29.493 14.3847 6.3784 9.50125e-05 10
29.4993 14.3877 7.57731 9.17231e-05 10
29.5098 14.3929 8.79749 8.79972e-05 10
8.85955 4.35944 -2.64574 0.000144177 4
10.5062 5.16967 -2.70328 0.000615607 4
12.1933 5.99987 -2.64154 5.78715e-05 4
14.3138 7.04328 -2.52668 6.23155e-05 4
19.8427 9.76379 -2.71535 2.91256e-05 1
27.3208 13.4435 -2.66396 8.2189e-05 10
29.5137 14.5225 -1.72386 0.000131058 10
29.5157 14.5235 -0.574192 0.00013183 10
29.517 14.5242 0.574217 0.000131844 10
29.4996 14.5156 1.72304 0.000102221 10
29.4952 14.5134 2.87598 0.000101058 10
29.5017 14.5166 4.03713 9.93268e-05 10
29.4919 14.5118 5.20592 9.7052e-05 10
29.4916 14.5116 6.38899 9.42633e-05 10
29.5149 14.5231 7.59431 9.0998e-05 10
29.5042 14.5178 8.81085 8.72993e-05 10
8.83151 4.384 -2.64192 0.000371461 4
10.4293 5.17715 -2.68814 0.000613176 4
12.1753 6.04387 -2.64219 3.89515e-05 4
14.306 7.10157 -2.52967 7.35905e-05 4
19.7993 9.82844 -2.71409 2.9125e-05 1
27.0929 13.449 -2.6463 8.49796e-05 10
29.5132 14.6505 -1.72681 0.000130021 10
29.5153 14.6515 -0.575176 0.000130788 10
29.5007 14.6443 0.57489 0.000130802 10
29.3613 14.5751 1.71792 3.61117e-05 10
29.5093 14.6486 2.88232 0.000100257 10
29.3003 14.5448 4.0165 4.57682e-05 10
29.3455 14.5672 5.18903 3.42801e-05 10
29.5064 14.6471 6.40326 9.3513e-05 10
29.3124 14.5508 7.55521 4.19273e-05 10
29.3635 14.5761 8.78398 3.08321e-05 10
8.85382 4.43366 -2.6532 0.0002721 4
10.3329 5.17433 -2.66793 0.000589303 4
12.1219 6.07021 -2.63519 0.000328252 4
14.2715 7.14666 -2.52797 5.5192e-05 4
19.7499 9.89003 -2.71204 2.91244e-05 1
26.8487 13.4448 -2.62702 8.78317e-05 10
35.5947 17.8245 -2.08626 6.19531e-05 10
35.6048 17.8296 -0.695053 6.23461e-05 10
35.5807 17.8175 0.694582 6.23533e-05 10
29.094 14.5692 1.70525 3.73582e-05 10
30.9325 15.4898 3.02659 8.31325e-05 10
29.061 14.5527 3.99064 4.73507e-05 10
29.1038 14.5741 5.15525 3.54683e-05 10
30.9347 15.491 6.7249 7.74401e-05 10
29.0423 14.5433 7.49864 4.3387e-05 10
29.0958 14.5701 8.71907 3.19097e-05 10
8.86805 4.47957 -2.66214 0.000251133 4
10.2518 5.17854 -2.65163 0.000602391 4
12.0532 6.0885 -2.62485 0.000290744 4
14.2568 7.20162 -2.52979 7.53687e-05 4
19.7211 9.96185 -2.71285 2.91238e-05 1
26.8247 13.5501 -2.62928 0.000179369 10
35.5807 17.9731 -2.0891 6.14159e-05 10
35.586 17.9758 -0.695907 6.18058e-05 10
35.5786 17.972 0.695761 6.18129e-05 10
28.8321 14.5641 1.69286 3.86328e-05 10
30.9213 15.6195 3.03082 8.24497e-05 10
28.7803 14.538 3.95903 4.89689e-05 10
28.8426 14.5695 5.11797 3.66834e-05 10
30.94 15.6289 6.73787 7.68006e-05 10
28.7864 14.5411 7.44563 4.488e-05 10
28.8285 14.5623 8.65415 3.30119e-05 10
8.87448 4.52177 -2.66879 0.000356977 4
10.1771 5.18551 -2.63699 0.000571989 4
11.9521 6.08988 -2.60744 0.000375837 4
14.2254 7.24822 -2.5287 7.18068e-05 4
19.7024 10.0389 -2.71507 2.91232e-05 1
26.8153 13.6631 -2.63302 0.000177956 10
35.5877 18.1328 -2.09322 6.08783e-05 10
35.5805 18.1292 -0.697033 6.1265e-05 10
35.5924 18.1352 0.697264 6.12722e-05 10
28.5753 14.5598 1.68076 3.99358e-05 10
30.9455 15.7675 3.03857 8.17661e-05 10
28.5371 14.5404 3.93253 5.06232e-05 10
28.5772 14.5608 5.07986 3.79255e-05 10
30.9406 15.765 6.74994 7.61603e-05 10
28.5411 14.5424 7.39528 4.64065e-05 10
28.5822 14.5633 8.59541 3.41391e-05 10
8.89388 4.57083 -2.67941 0.000260904 4
10.1126 5.19715 -2.62495 0.000602317 4
11.8737 6.10223 -2.59497 0.000423856 4
14.1836 7.28939 -2.52577 6.4091e-05 4
19.6555 10.1016 -2.71346 2.91225e-05 1
26.8049 13.7759 -2.6367 0.000176542 10
35.5945 18.2931 -2.09736 6.03403e-05 10
35.5933 18.2924 -0.698529 6.0724e-05 10
35.5925 18.2921 0.698514 6.0731e-05 10
28.3251 14.5571 1.66902 4.12673e-05 10
30.995 15.9293 3.04887 9.72203e-05 10
28.3001 14.5443 3.90685 5.23138e-05 10
28.3357 14.5626 5.04593 3.91951e-05 10
30.9964 15.93 6.7742 9.05456e-05 10
28.3264 14.5578 8.53374 3.52913e-05 10
8.89028 4.60828 -2.68315 0.000262319 4
10.0134 5.19046 -2.6039 0.000660924 4
11.7914 6.11209 -2.58164 0.000420648 4
14.1582 7.33891 -2.52579 7.83322e-05 4
19.6202 10.1702 -2.71347 2.91219e-05 1
26.8028 13.8932 -2.64125 0.000175125 10
35.5778 18.4418 -2.10016 5.98021e-05 10
35.5904 18.4483 -0.699732 6.01826e-05 10
35.5728 18.4392 0.699385 6.01896e-05 10
28.0779 14.5542 1.65744 4.26275e-05 10
28.0314 14.5301 3.87674 5.40409e-05 10
28.075 14.5527 5.00853 4.04922e-05 10
28.0873 14.5591 8.47696 3.64688e-05 10
8.92097 4.66377 -2.69731 0.000276526 4
9.94604 5.19966 -2.59108 0.000516797 4
11.692 6.11245 -2.56454 0.000399068 4
14.1512 7.39808 -2.52914 7.71442e-05 4
19.582 10.2372 -2.71311 2.91212e-05 1
26.8209 14.0216 -2.64784 0.000173707 10
35.5757 18.5985 -2.10386 5.92636e-05 10
35.5745 18.5979 -0.700692 5.9641e-05 10
35.5965 18.6094 0.701125 5.9648e-05 10
27.8412 14.555 1.64646 4.40168e-05 10
27.7992 14.5331 3.85161 5.58051e-05 10
27.8527 14.561 4.9779 4.18171e-05 10
30.9364 16.1731 8.05936 7.16072e-05 10
27.7999 14.5334 8.40547 4.91402e-05 10
8.92199 4.70403 -2.70257 0.000294613 4
9.86443 5.20092 -2.57453 0.000584839 4
11.6106 6.12159 -2.55135 0.000339672 4
14.1232 7.44633 -2.52877 6.4088e-05 4
19.5533 10.3093 -2.7141 2.91206e-05 1
26.8054 14.1329 -2.65116 0.000172287 10
35.5896 18.7643 -2.10854 5.8725e-05 10
35.5887 18.7638 -0.702257 5.90993e-05 10
35.5942 18.7667 0.702365 5.91062e-05 10
27.5906 14.5469 1.63463 4.54354e-05 10
27.5513 14.5261 3.82427 5.76065e-05 10
27.6033 14.5536 4.94238 4.31702e-05 10
30.9256 16.3052 8.07132 7.09858e-05 10
27.5541 14.5276 8.34644 5.07422e-05 10
8.93815 4.7525 -2.71247 0.000241001 4
9.78764 5.20418 -2.55922 0.000650566 4
11.5381 6.13491 -2.5401 0.00031204 4
14.0815 7.48724 -2.52595 5.93398e-05 4
19.5082 10.3727 -2.71285 2.91199e-05 1
26.8096 14.2549 -2.65648 0.000170866 10
35.5864 18.9216 -2.11225 5.81863e-05 10
35.5736 18.9148 -0.703258 5.85575e-05 10
35.5809 18.9187 0.703401 5.85643e-05 10
27.3664 14.551 1.62435 4.68834e-05 10
27.3205 14.5266 3.79924 5.94454e-05 10
27.3755 14.5558 4.91066 4.45514e-05 10
30.9196 16.4403 8.08469 7.03641e-05 10
27.3278 14.5304 8.29319 5.23779e-05 10
8.94155 4.79441 -2.71856 0.00051349 1
9.71333 5.20824 -2.54452 0.000624506 4
11.4744 6.15252 -2.5308 0.000170235 4
14.0721 7.5454 -2.52899 7.95139e-05 4
19.4886 10.4497 -2.71519 2.91192e-05 1
26.8228 14.3823 -2.66275 0.000169444 10
35.5734 19.0743 -2.11542 5.76476e-05 10
35.5761 19.0757 -0.704619 5.80155e-05 10
35.5714 19.0732 0.704525 5.80224e-05 10
27.1306 14.5473 1.61336 4.83611e-05 10
27.0896 14.5253 3.77416 6.1322e-05 10
27.1356 14.55 4.8767 4.59611e-05 10
30.9213 16.5799 8.10021 6.97421e-05 10
27.0915 14.5263 8.23682 5.40478e-05 10
8.92608 4.82631 -2.71897 0.000513485 1
9.66012 5.2232 -2.53535 0.000551437 4
11.4377 6.18435 -2.52745 0.000167729 4
14.0279 7.58486 -2.52579 6.11179e-05 4
19.4514 10.5173 -2.7151 2.91186e-05 1
26.8051 14.4935 -2.666 0.00016802 10
31.2675 16.9063 -1.86286 5.037e-05 10
31.2788 16.9124 -0.620673 5.06715e-05 10
31.2724 16.9089 0.620544 5.06731e-05 10
26.9019 14.5458 1.60276 4.98686e-05 10
30.9891 16.7558 3.08214 4.86076e-05 10
26.864 14.5253 4.83697 6.18211e-05 10
31.0003 16.7618 6.85029 4.52458e-05 10
30.9288 16.7231 8.11741 6.912e-05 10
26.8671 14.527 8.18397 5.57517e-05 10
8.90942 4.85757 -2.71904 0.000513481 1
9.62712 5.24887 -2.53148 0.000261736 4
11.4153 6.22384 -2.52729 0.000128924 4
14.007 7.63689 -2.52681 5.45898e-05 4
19.403 10.5789 -2.71348 2.91179e-05 1
26.8125 14.6186 -2.67179 0.000166596 10
30.9995 16.9015 -1.85039 5.20126e-05 10
31.0535 16.9309 -0.617372 9.80822e-05 10
31.0325 16.9195 0.616952 9.80931e-05 10
26.8386 14.6329 1.60203 9.47642e-05 10
30.9638 16.882 3.08546 4.88005e-05 10
26.7982 14.6108 4.83427 0.00011719 10
30.9617 16.8809 6.85473 4.54245e-05 10
30.9262 16.8615 8.13214 6.84977e-05 10
26.8095 14.617 8.18192 0.000105711 10
8.88787 4.88615 -2.71765 0.000513476 1
9.61229 5.2844 -2.53241 0.000327736 4
11.4036 6.26916 -2.52951 0.000105141 4
15.0342 8.26514 -2.7173 7.94333e-05 1
19.3645 10.6457 -2.71327 2.91172e-05 1
26.806 14.7367 -2.67625 0.000165171 10
30.7395 16.8992 -1.83839 5.369e-05 10
30.7934 16.9288 -0.613371 6.614e-05 10
30.7928 16.9285 0.613357 6.61474e-05 10
26.8269 14.7482 1.60439 9.39542e-05 10
30.8745 16.9734 3.08245 4.92467e-05 10
26.8127 14.7404 4.84615 0.000116184 10
30.8822 16.9777 6.85023 4.58406e-05 10
30.7546 16.9075 8.10248 3.71479e-05 10
26.7967 14.7316 8.19365 0.000104797 10
8.88985 4.92772 -2.7235 0.000513471 1
9.59246 5.31719 -2.53207 0.000298145 4
11.3812 6.30868 -2.52941 5.13181e-05 4
15.004 8.31686 -2.71707 7.94319e-05 1
19.3332 10.7165 -2.71411 2.91165e-05 1
26.8177 14.8653 -2.68259 0.000163745 10
30.4981 16.9054 -1.82747 5.54023e-05 10
30.5282 16.922 -0.60926 6.77819e-05 10
30.5442 16.9309 0.60958 6.77895e-05 10
26.8159 14.8643 1.60682 9.31438e-05 10
26.8196 14.8663 4.85675 8.85484e-05 10
30.4886 16.9001 8.04789 3.8344e-05 10
26.7871 14.8483 8.20652 0.000103883 10
8.87004 4.9573 -2.72272 0.000513466 1
9.56872 5.34777 -2.53071 0.00029359 4
11.3679 6.35328 -2.53137 0.000128919 4
14.9604 8.3611 -2.71445 7.94306e-05 1
19.3077 10.7907 -2.71581 2.91158e-05 1
26.7922 14.9737 -2.68525 0.000162319 10
30.2271 16.8933 -1.81475 5.715e-05 10
30.2613 16.9125 -0.605109 6.94739e-05 10
30.2722 16.9185 0.605325 6.94817e-05 10
26.8341 14.9971 1.61104 9.23332e-05 10
26.8127 14.9851 4.86494 8.77749e-05 10
30.2292 16.8945 7.99493 3.9565e-05 10
26.8032 14.9798 8.22741 0.000102969 10
8.84 4.98108 -2.71882 0.000513462 1
9.96997 5.61779 -2.642 0.000229696 4
11.3478 6.39417 -2.53186 0.000112646 4
14.9492 8.42345 -2.71773 7.94291e-05 1
19.2623 10.8537 -2.71473 2.91151e-05 1
26.7972 15.0994 -2.69101 0.000160893 10
29.9894 16.8982 -1.80401 5.89333e-05 10
29.9961 16.9019 -0.600982 7.12178e-05 10
30 16.9041 0.601059 7.12258e-05 10
26.8185 15.1115 1.61327 9.15224e-05 10
26.8086 15.1059 3.77827 0.000115756 10
26.8311 15.1185 4.87782 8.70012e-05 10
29.9869 16.8967 7.9464 4.08113e-05 10
26.8088 15.106 8.24526 0.000102054 10
8.82771 5.01484 -2.72041 0.000513457 1
9.9615 5.65891 -2.64497 0.000469551 4
11.3146 6.42759 -2.52944 0.000150193 4
14.9163 8.47361 -2.7171 7.94277e-05 1
19.2275 10.9227 -2.71518 2.91144e-05 1
26.7931 15.2206 -2.69593 0.000159467 10
29.7321 16.8902 -1.79207 6.07525e-05 10
29.7352 16.8919 -0.596932 4.03651e-05 10
29.7435 16.8967 0.597099 4.03663e-05 10
26.8134 15.2321 1.61614 9.07116e-05 10
29.7336 16.891 2.9918 4.68229e-05 10
26.7928 15.2204 3.7835 0.000114728 10
26.8108 15.2306 4.88377 8.62275e-05 10
29.7264 16.8869 6.64549 4.36195e-05 10
29.7487 16.8996 7.89886 4.20829e-05 10
26.7854 15.2162 8.25437 0.00010114 10
8.81012 5.0456 -2.7204 0.000513452 1
9.93576 5.69026 -2.6434 4.06533e-05 4
11.3008 6.472 -2.53138 0.000132669 4
14.882 8.52301 -2.71626 7.94263e-05 1
19.1878 10.989 -2.71499 2.91136e-05 1
26.7912 15.3435 -2.70111 0.00015804 10
29.4831 16.8851 -1.7806 6.26077e-05 10
29.484 16.8856 -0.593069 4.15972e-05 10
29.4943 16.8915 0.593276 4.15984e-05 10
26.8334 15.3676 1.62057 8.99007e-05 10
29.4863 16.887 2.97283 4.82541e-05 10
26.7864 15.3407 3.79014 0.000113701 10
26.8116 15.3552 4.89366 8.54538e-05 10
29.4877 16.8878 6.60527 4.49603e-05 10
29.4933 16.891 7.84666 4.33801e-05 10
26.8037 15.3506 8.27645 0.000100226 10
8.80156 5.08158 -2.72321 0.000513447 1
9.90345 5.71776 -2.6401 0.000156513 4
11.2687 6.50597 -2.52927 0.000152692 4
14.8432 8.56975 -2.71463 7.94248e-05 1
19.1491 11.0557 -2.71495 2.91129e-05 1
26.8054 15.4761 -2.70796 0.000156614 10
29.2584 16.8924 -1.77058 6.44993e-05 10
29.2492 16.887 -0.589529 4.28534e-05 10
29.2652 16.8962 0.58985 4.28546e-05 10
26.7993 15.4726 1.62177 0.000115883 10
29.2405 16.882 2.95397 4.97133e-05 10
26.7848 15.4642 3.79754 0.000112674 10
26.784 15.4638 4.89844 0.000110149 10
29.2499 16.8874 6.56517 4.63275e-05 10
29.2632 16.8951 7.80108 4.47031e-05 10
26.7805 15.4617 8.28592 9.93116e-05 10
8.7713 5.10502 -2.71935 0.000513442 1
9.89043 5.75637 -2.64197 0.000449208 4
11.2537 6.54979 -2.53101 0.000147684 4
14.8188 8.62475 -2.71565 7.94234e-05 1
19.1139 11.1245 -2.71544 2.91122e-05 1
29.0138 16.8865 -1.75934 6.64274e-05 10
29.183 16.9849 -0.589385 7.60619e-05 10
29.1789 16.9825 0.589302 7.60704e-05 10
26.8081 15.6027 1.62559 8.82795e-05 10
29.023 16.8918 2.93793 5.12007e-05 10
26.7819 15.5874 3.80481 0.000111647 10
26.827 15.6137 4.91623 8.3907e-05 10
29.0181 16.8889 6.52633 4.77213e-05 10
29.0095 16.8839 7.74911 4.60519e-05 10
26.8015 15.5988 8.3092 9.83979e-05 10
8.7513 5.13435 -2.71868 0.000513436 1
9.873 5.79245 -2.6427 0.000213422 4
11.2178 6.58142 -2.52809 0.000143927 4
14.7989 8.68244 -2.71753 7.94219e-05 1
19.0605 11.1827 -2.71339 2.91114e-05 1
28.7872 16.8894 -1.74916 6.83924e-05 10
28.9247 16.97 -0.585361 7.80122e-05 10
28.9016 16.9565 0.584895 7.80209e-05 10
26.8208 15.7357 1.62968 8.74693e-05 10
28.7789 16.8845 2.91917 5.27166e-05 10
26.7937 15.7198 3.81426 0.00011062 10
26.8052 15.7265 4.92227 8.31339e-05 10
28.7729 16.881 6.4844 4.9142e-05 10
28.7748 16.8821 7.70213 4.74267e-05 10
26.7862 15.7154 8.32142 9.74845e-05 10
8.70517 5.14822 -2.70992 0.000773413 4
9.85998 5.83117 -2.64464 0.000166671 4
11.2139 6.63188 -2.53242 0.000150183 4
14.758 8.72788 -2.71562 7.94204e-05 1
19.0379 11.259 -2.71574 2.91107e-05 1
28.5374 16.877 -1.73755 7.03943e-05 10
28.63 16.9317 -0.58059 8.00248e-05 10
28.6492 16.9431 0.580979 8.00338e-05 10
26.8143 15.858 1.63264 8.66594e-05 10
28.5537 16.8866 2.9023 5.4261e-05 10
26.7911 15.8442 3.82175 0.000109594 10
26.8188 15.8606 4.9349 8.23613e-05 10
28.5342 16.8751 6.44385 5.05897e-05 10
28.5444 16.8811 7.65617 4.88277e-05 10
26.7865 15.8415 8.33863 9.65716e-05 10
8.65208 5.15767 -2.69898 0.000840965 4
9.83529 5.86301 -2.64349 0.000296751 4
11.1685 6.65778 -2.52741 0.000146426 4
14.7365 8.78469 -2.71727 7.94189e-05 1
18.9881 11.3192 -2.71427 2.91099e-05 1
28.3044 16.8728 -1.72694 7.24333e-05 10
28.3782 16.9168 -0.576677 8.21023e-05 10
28.3738 16.9142 0.576589 8.21115e-05 10
26.8116 15.9829 1.63586 8.585e-05 10
28.3266 16.886 2.88518 5.58341e-05 10
26.7898 15.9699 3.82948 0.000108569 10
26.7991 15.9755 4.94151 8.15892e-05 10
28.3016 16.8711 6.40457 5.20644e-05 10
28.3068 16.8742 7.60819 5.02551e-05 10
26.7834 15.9661 8.35497 9.56594e-05 10
8.58649 5.15928 -2.68412 0.000788283 4
9.80265 5.89003 -2.64023 0.000308943 4
11.1571 6.70385 -2.5301 0.00020274 4
14.7062 8.83636 -2.71736 7.94174e-05 1
18.9418 11.3814 -2.71331 2.91092e-05 1
28.0752 16.8693 -1.71654 7.45099e-05 10
28.1134 16.8922 -0.572491 8.42472e-05 10
28.0996 16.8839 0.57221 8.42566e-05 10
26.8185 16.1141 1.6397 8.50411e-05 10
28.0743 16.8687 2.86546 5.74362e-05 10
26.7957 16.1005 3.83833 0.000107544 10
26.8021 16.1043 4.9524 8.08175e-05 10
28.094 16.8806 6.37089 5.35665e-05 10
28.0942 16.8807 7.56684 5.1709e-05 10
26.7898 16.0969 8.37444 9.47478e-05 10
8.52901 5.16535 -2.67178 0.000463505 4
9.79044 5.9293 -2.6425 0.000280484 4
11.1192 6.73405 -2.52683 0.000177708 4
14.6663 8.88224 -2.71571 7.94159e-05 1
18.8968 11.4443 -2.71257 2.91084e-05 1
27.8593 16.8722 -1.70692 7.6624e-05 10
27.8685 16.8778 -0.568702 5.0905e-05 10
27.8719 16.8798 0.568769 5.09064e-05 10
26.8081 16.2356 1.64252 8.42329e-05 10
27.9862 16.949 2.86249 3.71412e-05 10
26.7921 16.2259 3.84591 0.00010652 10
26.8021 16.2319 4.96283 8.00465e-05 10
27.9647 16.936 6.35493 3.46405e-05 10
27.8515 16.8675 7.5173 5.31896e-05 10
26.7937 16.2269 8.39333 9.38371e-05 10
8.46711 5.16835 -2.65802 0.000844997 4
9.76324 5.95951 -2.64076 0.000182922 4
11.0971 6.77371 -2.52716 0.00016394 4
14.6328 8.93187 -2.71525 7.94143e-05 1
18.8573 11.5106 -2.71265 2.91076e-05 1
27.6479 16.8764 -1.69758 7.87759e-05 10
27.6522 16.879 -0.565486 5.2334e-05 10
27.6526 16.8792 0.565494 5.23354e-05 10
26.8025 16.3603 1.64567 8.34254e-05 10
26.7873 16.351 3.85339 0.000105497 10
26.7984 16.3578 4.9727 7.92762e-05 10
27.6433 16.8735 7.47695 5.4697e-05 10
26.7918 16.3538 8.41057 9.29271e-05 10
8.39684 5.16577 -2.64161 0.000924483 4
9.74232 5.99352 -2.64074 0.000296737 4
11.0845 6.81921 -2.52969 0.000186463 4
14.6053 8.98523 -2.71595 7.94128e-05 1
18.8352 11.5875 -2.71527 2.91069e-05 1
27.4171 16.8671 -1.68701 8.09658e-05 10
27.5711 16.9618 -0.565034 8.78846e-05 10
27.5573 16.9534 0.564752 8.78944e-05 10
26.8102 16.4938 1.64966 8.26187e-05 10
26.8187 16.499 2.75479 6.76694e-05 10
26.7776 16.4737 3.86025 0.000104475 10
26.8011 16.4881 4.98384 7.85067e-05 10
26.8361 16.5097 6.1245 6.3173e-05 10
26.8333 16.5079 7.2734 6.10132e-05 10
26.7859 16.4788 8.42672 9.20183e-05 10
8.34758 5.17572 -2.63178 0.00083136 4
9.71861 6.0258 -2.64 0.000160561 4
11.0535 6.85345 -2.52806 0.00016894 4
14.5666 9.03165 -2.7146 7.94112e-05 1
18.7758 11.6415 -2.71256 2.91061e-05 1
27.1989 16.864 -1.67719 8.31939e-05 10
27.3006 16.9271 -0.5607 9.02218e-05 10
27.2846 16.9172 0.560369 9.02319e-05 10
26.7943 16.6132 1.65224 0.000113466 10
26.7789 16.6036 2.75664 0.000112195 10
26.7903 16.6107 3.87041 0.000110304 10
26.779 16.6037 4.99049 0.000107816 10
26.7844 16.607 6.1259 0.000104766 10
26.7875 16.609 7.27666 0.000101192 10
26.7845 16.6071 8.44446 9.71425e-05 10
8.28285 5.1757 -2.61705 0.00107589 4
9.68761 6.05349 -2.63731 0.000800398 4
11.0407 6.89899 -2.53063 0.000190211 4
14.5484 9.09087 -2.71712 7.94097e-05 1
18.7492 11.7158 -2.7146 2.91053e-05 1
26.9896 16.8649 -1.6679 8.54603e-05 10
26.9838 16.8614 -0.555398 8.59507e-05 10
27.0011 16.8721 0.555753 8.5953e-05 10
26.7766 16.7319 1.65475 0.00011235 10
26.7945 16.7431 2.76425 0.000111091 10
26.7916 16.7412 3.87902 0.000109216 10
26.774 16.7303 5.00041 0.000106752 10
26.7852 16.7373 6.13942 0.000103729 10
26.7746 16.7306 7.28897 0.000100189 10
26.789 16.7396 8.46426 9.61759e-05 10
8.21912 5.17586 -2.6026 0.000717106 4
9.61692 6.0561 -2.6238 0.000712203 4
11.0062 6.93098 -2.52825 0.000140154 4
14.5263 9.14772 -2.71894 7.9408e-05 1
18.7087 11.7815 -2.71468 2.91045e-05 1
26.7883 16.8695 -1.65909 0.000142615 10
26.7816 16.8653 -0.552445 0.000143444 10
26.7781 16.863 0.552371 0.00014346 10
26.7814 16.8652 1.65867 0.000111236 10
26.7764 16.862 2.76844 0.000109988 10
26.7708 16.8585 3.8845 0.000108131 10
26.7701 16.858 5.01064 0.000105689 10
26.7872 16.8688 6.15333 0.000102694 10
26.7865 16.8684 7.30821 9.91862e-05 10
26.7825 16.8658 8.48074 9.52107e-05 10
8.1564 5.17621 -2.58845 0.000990492 4
9.54954 6.06032 -2.61117 0.00060551 4
10.9953 6.97781 -2.53132 0.00014766 4
14.4789 9.18861 -2.71605 7.94065e-05 1
18.6662 11.8459 -2.71449 2.91037e-05 1
26.7818 16.9962 -1.66236 0.000141188 10
26.7916 17.0025 -0.553871 0.000142009 10
26.7846 16.9981 0.553727 0.000142025 10
26.7844 16.9979 1.66252 0.000110123 10
26.784 16.9977 2.77534 0.000108887 10
26.784 16.9976 3.895 0.000107047 10
26.7849 16.9982 5.02448 0.000104628 10
26.7885 17.0005 6.16722 0.000101661 10
26.7748 16.9918 7.32114 9.81853e-05 10
26.7649 16.9855 8.49389 9.42468e-05 10
8.09741 5.17851 -2.57545 0.000796536 4
9.49859 6.0746 -2.60302 0.000432636 4
10.9603 7.00939 -2.52888 0.000157668 4
14.4594 9.24717 -2.71843 7.94049e-05 1
18.6249 11.9111 -2.71452 2.91028e-05 1
26.7682 17.119 -1.66521 0.000139763 10
26.7852 17.1299 -0.554973 0.000140577 10
26.773 17.1221 0.554719 0.000140593 10
26.7791 17.1259 1.66589 0.000109012 10
26.7688 17.1194 2.77994 0.000107787 10
26.7809 17.1271 3.90323 0.000105965 10
26.7739 17.1226 5.03361 0.000103568 10
26.7701 17.1202 6.17671 0.000100629 10
26.7864 17.1306 7.34063 9.71861e-05 10
26.7645 17.1166 8.51269 9.32847e-05 10
8.05717 5.19249 -2.5684 0.00116738 4
9.43998 6.08365 -2.59276 0.000402359 4
10.9468 7.05471 -2.53143 0.000153911 4
14.4308 9.3 -2.71913 7.94032e-05 1
18.5928 11.9822 -2.71591 2.9102e-05 1
26.7735 17.2544 -1.66928 0.000138341 10
26.7913 17.2658 -0.556343 0.000139147 10
26.7757 17.2558 0.55602 0.000139163 10
19.9114 12.832 1.24144 0.000242291 10
26.7747 17.2551 2.78679 0.000106689 10
26.772 17.2534 3.91068 0.000104884 10
26.7735 17.2544 5.04482 0.00010251 10
26.7672 17.2503 6.1899 9.95985e-05 10
26.7694 17.2517 7.35243 9.61885e-05 10
26.7676 17.2505 8.53277 9.23241e-05 10
7.9871 5.18688 -2.55182 0.000896291 4
9.35958 6.07818 -2.57649 0.0010807 4
10.9213 7.09237 -2.53125 0.00015516 4
14.3874 9.3433 -2.71709 7.94016e-05 1
18.5471 12.0446 -2.71537 2.91012e-05 1
20.6015 13.3788 -2.14911 0.000214033 10
20.5865 13.369 -1.28643 0.000216293 10
20.6098 13.3842 -0.428947 0.000217433 10
20.6022 13.3792 0.428789 0.000217438 10
19.7511 12.8265 1.23423 0.000248036 10
20.5909 13.3719 2.148 0.000166904 10
20.6051 13.3811 3.01667 0.000164297 10
20.6002 13.3779 3.89038 0.000160869 10
20.5906 13.3717 4.77232 0.000156661 10
20.6054 13.3813 5.67224 0.000151723 10
20.5849 13.368 6.57673 0.000146115 10
7.94153 5.19679 -2.54304 0.00105079 4
9.31746 6.09717 -2.57074 0.000436774 4
10.8815 7.12065 -2.52777 0.000193947 4
14.3513 9.39125 -2.71645 7.93999e-05 1
18.4885 12.0985 -2.71295 2.91004e-05 1
20.4297 13.3688 -2.13605 0.000219129 10
20.4282 13.3678 -1.27945 0.000221439 10
20.4427 13.3773 -0.42644 0.000222604 10
20.4478 13.3807 0.426545 0.000222609 10
19.6062 12.8299 1.22796 0.000253863 10
20.4324 13.3706 2.13633 0.000170878 10
20.4347 13.3721 2.99853 0.000168213 10
20.4354 13.3726 3.86806 0.000164708 10
20.426 13.3664 4.74495 0.000160407 10
20.4275 13.3674 5.63607 0.000155359 10
20.4406 13.376 6.54551 0.000149627 10
7.8834 5.19814 -2.53022 0.000508629 4
9.23748 6.09099 -2.55452 0.000643038 4
10.8705 7.16775 -2.531 0.000135135 4
14.3199 9.44223 -2.71672 7.93982e-05 1
18.4633 12.1743 -2.71548 2.90995e-05 1
20.2814 13.3731 -2.1254 0.000224296 10
20.2882 13.3776 -1.2736 0.000226657 10
20.2784 13.3711 -0.423982 0.000227848 10
20.2835 13.3745 0.424088 0.000227853 10
19.4391 12.8177 1.22029 0.000259772 10
20.28 13.3722 2.12526 0.000174907 10
20.2805 13.3726 2.98274 0.000172184 10
20.2752 13.369 3.84654 0.000168603 10
20.2861 13.3762 4.72328 0.000164207 10
20.2724 13.3672 5.6061 0.000159048 10
20.2797 13.372 6.50888 0.000153189 10
7.86241 5.22377 -2.52932 0.000478704 4
9.19751 6.11081 -2.54935 0.000759761 4
10.8288 7.19465 -2.52714 0.000177675 4
14.2803 9.48779 -2.71547 7.93966e-05 1
18.4011 12.2257 -2.71259 2.90987e-05 1
20.1155 13.3647 -2.1129 0.000229537 10
20.1287 13.3735 -1.26651 0.000231949 10
20.1227 13.3695 -0.421701 0.000233164 10
20.122 13.369 0.421686 0.00023317 10
19.3012 12.8237 1.21444 0.000265761 10
20.136 13.3783 2.11505 0.000178993 10
20.1308 13.3749 2.96757 0.000176211 10
20.1222 13.3691 3.82633 0.000172552 10
20.12 13.3677 4.69544 0.00016806 10
20.134 13.377 5.58071 0.000162789 10
20.1129 13.363 6.47027 0.000156801 10
7.83961 5.24816 -2.52786 0.000519837 4
10.8096 7.23636 -2.52852 0.000172667 4
14.2557 9.54336 -2.71712 7.93949e-05 1
18.3698 12.2975 -2.71428 2.90978e-05 1
19.9658 13.3659 -2.10206 0.000234849 10
19.9743 13.3716 -1.25972 0.000237313 10
19.9636 13.3644 -0.419341 0.000238555 10
19.9639 13.3647 0.419347 0.000238561 10
19.1585 12.8255 1.20827 0.000271831 10
19.9785 13.3744 2.1034 0.000183136 10
19.9752 13.3722 2.95149 0.000180294 10
19.9632 13.3642 3.80496 0.000176556 10
19.9674 13.367 4.67068 0.000171967 10
19.9665 13.3664 5.54719 0.000166582 10
19.9796 13.3752 6.44239 0.000160464 10
7.83831 5.28701 -2.53338 0.000430076 4
9.08465 6.12767 -2.52987 0.000188843 4
10.7953 7.28153 -2.53112 0.00017892 4
14.2169 9.58939 -2.71607 7.93932e-05 1
18.3371 12.3685 -2.71581 2.9097e-05 1
19.8068 13.3599 -2.09022 0.000240234 10
19.8188 13.368 -1.25285 0.000242751 10
19.8063 13.3595 -0.417013 0.000244019 10
19.8073 13.3602 0.417035 0.000244025 10
19.0156 12.8262 1.20208 0.000277983 10
19.8165 13.3664 2.09124 0.000187335 10
19.8223 13.3703 2.93578 0.000184432 10
19.8123 13.3635 3.78506 0.000180614 10
19.8256 13.3726 4.64842 0.000175927 10
19.8195 13.3685 5.51929 0.000170427 10
19.82 13.3688 6.40593 0.000164178 10
7.81049 5.308 -2.53036 0.000557222 4
9.07402 6.16669 -2.53289 0.000250271 4
10.7614 7.31342 -2.52914 0.000175164 4
14.2003 9.6505 -2.71933 7.93915e-05 1
18.2824 12.4247 -2.71412 2.90961e-05 1
19.6724 13.3693 -2.08095 0.000245692 10
19.6599 13.3609 -1.24575 0.000248261 10
19.6649 13.3642 -0.415016 0.000249557 10
19.6705 13.3681 0.415135 0.000249563 10
18.8663 12.8215 1.19546 0.000284216 10
19.6625 13.3626 2.0799 0.000191591 10
19.6639 13.3635 2.9192 0.000188627 10
19.6563 13.3584 3.76415 0.000184728 10
19.6653 13.3645 4.62174 0.000179941 10
19.6562 13.3583 5.48675 0.000174324 10
19.6694 13.3673 6.37229 0.000167942 10
7.80695 5.34553 -2.53525 0.000437545 4
9.04083 6.19038 -2.52964 0.000313972 4
10.7285 7.34597 -2.52743 0.000166403 4
14.1482 9.68748 -2.71582 7.93897e-05 1
18.2329 12.4843 -2.71322 2.90952e-05 1
18.9733 12.9913 -2.01178 0.000274781 10
18.9745 12.9921 -1.20518 0.000277628 10
18.9881 13.0014 -0.401688 0.000279062 10
19.5183 13.3644 0.412904 0.000255174 10
18.7196 12.8176 1.18899 0.000290532 10
18.9786 12.9949 2.01235 0.000214274 10
18.9874 13.0009 2.8255 0.00021099 10
18.9718 12.9902 3.64172 0.000206671 10
19.5165 13.3632 4.5977 0.00018401 10
18.9794 12.9955 5.31047 0.000195141 10
18.9881 13.0014 6.16624 0.000188065 10
8.11226 5.59627 -2.64072 0.000670311 4
9.01261 6.21738 -2.5278 0.000323068 4
10.7016 7.38255 -2.52714 0.000176409 4
14.1237 9.74328 -2.71762 7.9388e-05 1
18.2028 12.5573 -2.71526 2.90944e-05 1
18.8844 13.0275 -2.00717 0.000413508 10
18.8912 13.0322 -1.20277 0.000417821 10
18.8958 13.0353 -0.400695 0.000420012 10
19.3776 13.3677 0.410913 0.000260859 10
18.5639 12.8064 1.18194 0.000296928 10
18.8732 13.0198 2.00598 0.000322582 10
18.8912 13.0322 2.81794 0.000317669 10
18.8708 13.0181 3.63105 0.000311197 10
19.3645 13.3587 4.57285 0.000188132 10
18.8773 13.0226 5.29458 0.0002939 10
18.8814 13.0254 6.14631 0.000283277 10
8.10082 5.63021 -2.64338 0.000388776 4
8.99602 6.25239 -2.52925 0.000259361 4
10.6872 7.4278 -2.52985 0.000211437 4
14.096 9.79694 -2.71885 7.93862e-05 1
18.1428 12.6095 -2.71285 2.90935e-05 1
18.889 13.1282 -2.01251 0.000409415 10
18.877 13.1199 -1.20478 0.000413688 10
18.8819 13.1233 -0.401371 0.000415857 10
19.213 13.3534 0.408407 0.000266618 10
18.4316 12.8103 1.17635 0.000303406 10
18.8823 13.1235 2.0118 0.00031939 10
18.877 13.1199 2.82263 0.000314522 10
18.8683 13.1138 3.63934 0.00030811 10
19.2174 13.3564 4.54909 0.000192308 10
18.8893 13.1284 5.31078 0.000290973 10
18.8782 13.1207 6.16013 0.000280449 10
8.07848 5.65661 -2.64252 0.000790947 4
8.97329 6.28317 -2.52902 0.000238881 4
10.6581 7.46289 -2.52911 0.000176403 4
14.0572 9.84296 -2.71798 7.93845e-05 1
18.1038 12.6764 -2.71362 2.90926e-05 1
18.8725 13.2147 -2.01566 0.00040533 10
18.8889 13.2261 -1.20847 0.000409561 10
18.8771 13.2179 -0.402247 0.000411712 10
19.0798 13.3598 0.406566 0.000272451 10
18.2974 12.812 1.17063 0.000309966 10
18.8899 13.2269 2.01752 0.000316203 10
18.8884 13.2258 2.83123 0.00031138 10
18.8905 13.2273 3.65252 0.000305028 10
19.0855 13.3638 4.52888 0.000196538 10
18.8812 13.2208 5.32145 0.000288051 10
18.8895 13.2266 6.17886 0.000277627 10
8.05162 5.67979 -2.6402 5.02715e-05 4
8.96076 6.32112 -2.53168 0.000270729 4
10.6335 7.50113 -2.52948 0.000182655 4
14.0107 9.88349 -2.71566 7.93827e-05 1
18.0717 12.7482 -2.71546 2.90917e-05 1
18.8752 13.315 -2.0209 0.000401249 10
18.8877 13.3238 -1.21137 0.000405443 10
18.892 13.3268 -0.403552 0.000407574 10
18.9431 13.3629 0.404644 0.000278358 10
18.1509 12.804 1.16411 0.000316608 10
18.8712 13.3122 2.02047 0.000313022 10
18.8851 13.322 2.83769 0.000308245 10
18.8689 13.3105 3.65729 0.000301952 10
18.9282 13.3524 4.5026 0.000200821 10
18.8826 13.3202 5.3349 0.000285136 10
18.8775 13.3166 6.19012 0.000274809 10
8.03456 5.70986 -2.64112 0.000197732 4
8.9469 6.35823 -2.53402 0.000311675 4
10.6209 7.54789 -2.53273 0.000135112 4
13.9829 9.93715 -2.71697 7.93809e-05 1
18.0254 12.81 -2.7152 2.90908e-05 1
18.8458 13.393 -2.02274 0.000399198 10
18.8414 13.3899 -1.21139 0.000403372 10
18.8603 13.4033 -0.403874 0.000405493 10
18.7915 13.3544 0.402399 0.000284338 10
18.024 12.809 1.15884 0.000323331 10
18.837 13.3867 2.02179 0.000198807 10
18.8362 13.3862 2.83733 0.000195772 10
18.8427 13.3908 3.66126 0.000191774 10
18.7906 13.3538 4.48092 0.000205159 10
18.8522 13.3976 5.3395 0.000181091 10
18.843 13.391 6.19409 0.000174531 10
8.01844 5.74064 -2.6424 0.000325081 4
8.91547 6.38285 -2.53142 0.00032532 4
10.5916 7.58287 -2.53204 0.000170139 4
13.9531 9.98943 -2.71793 7.93791e-05 1
17.9814 12.8734 -2.71533 2.90899e-05 1
18.6501 13.3521 0.400366 0.000290393 10
17.8944 12.8111 1.15337 0.000330136 10
18.644 13.3478 4.45704 0.000209551 10
7.99482 5.76604 -2.64123 0.000351888 4
8.88584 6.40867 -2.52934 0.000313941 4
10.549 7.60821 -2.52819 0.00017514 4
13.9074 10.0303 -2.71583 7.93773e-05 1
17.9377 12.9371 -2.71554 2.9089e-05 1
18.52 13.357 0.398572 0.000296521 10
17.7623 12.8106 1.14773 0.000337022 10
18.5118 13.3511 4.43656 0.000213997 10
7.97228 5.7922 -2.64045 0.000335127 4
8.86646 6.44185 -2.53021 0.000332135 4
11.3152 8.22097 -2.71867 0.000169386 1
13.8793 10.0839 -2.71721 7.93755e-05 1
17.8947 13.0012 -2.71587 2.90881e-05 1
18.3664 13.3439 0.396266 0.000302722 10
17.6327 12.8109 1.14224 0.00034399 10
18.3714 13.3476 4.41405 0.000218496 10
7.97397 5.83606 -2.64774 0.000640084 4
8.84667 6.47478 -2.531 0.000320756 4
11.2981 8.26894 -2.72148 0.000169383 1
13.8327 10.124 -2.71499 7.93736e-05 1
17.8339 13.0525 -2.71356 2.90871e-05 1
18.2359 13.3467 0.394455 0.000308998 10
17.5005 12.8084 1.13656 0.000351039 10
18.241 13.3504 4.39388 0.00022305 10
7.93379 5.84929 -2.64116 0.000385386 4
8.82246 6.50448 -2.53055 0.00026843 4
11.2504 8.29453 -2.71696 0.00016938 1
13.8173 10.187 -2.71892 7.93717e-05 1
17.7932 13.1183 -2.71431 2.90862e-05 1
18.1127 13.3538 0.392794 0.000315347 10
17.3692 12.8057 1.13094 0.00035817 10
18.0949 13.3407 4.36988 0.000227657 10
7.91714 5.87979 -2.64243 0.000177611 4
8.78982 6.5279 -2.52771 0.000325296 4
11.2247 8.33622 -2.71776 0.000169377 1
13.7752 10.2303 -2.71764 7.93699e-05 1
17.757 13.1875 -2.71579 2.90852e-05 1
17.9702 13.3459 0.390713 0.00032177 10
17.2282 12.7948 1.12466 0.000365382 10
17.9695 13.3454 4.35083 0.000232318 10
7.90241 5.91175 -2.64439 0.000636709 4
8.78597 6.57274 -2.53318 0.000313917 4
11.2044 8.38196 -2.71991 0.000169374 1
13.7487 10.2854 -2.71949 7.9368e-05 1
17.342 12.9735 -2.65924 0.000347551 10
17.3492 12.9789 -1.89559 0.000352884 10
17.3477 12.9777 -1.1354 0.000356477 10
17.3408 12.9725 -0.378009 0.000358288 10
17.8506 13.354 0.389124 0.000328266 10
17.1137 12.8027 1.12009 0.000372676 10
17.3507 12.9799 1.89575 0.000275177 10
17.347 12.9772 2.65999 0.000271029 10
17.3517 12.9807 3.43216 0.000265573 10
17.8296 13.3382 4.3282 0.000237033 10
17.3485 12.9783 5.00194 0.000250999 10
17.348 12.9779 5.80516 0.000242051 10
7.88955 5.9452 -2.64701 0.000288191 4
8.75076 6.59417 -2.52965 0.000316187 4
11.177 8.42247 -2.72037 0.000169371 1
13.702 10.3252 -2.71737 7.93661e-05 1
17.3134 13.0466 -2.66181 0.000472375 10
17.3166 13.049 -1.89699 0.000479667 10
17.3324 13.0609 -1.13738 0.000484593 10
17.3177 13.0498 -0.378498 0.000487096 10
17.713 13.3477 0.387137 0.000334836 10
16.9743 12.791 1.11388 0.00038005 10
17.3261 13.0561 1.89803 0.000374199 10
17.3139 13.047 2.66189 0.000368589 10
17.3315 13.0602 3.43717 0.000361197 10
17.7169 13.3506 4.31212 0.000241802 10
17.3135 13.0467 5.00496 0.000341432 10
17.3123 13.0457 5.80841 0.000329287 10
7.8621 5.96766 -2.64478 0.000506003 4
8.7227 6.62089 -2.52821 0.000297985 4
11.1475 8.4614 -2.72036 0.000169367 1
13.675 10.3799 -2.71917 7.93642e-05 1
17.3272 13.1521 -2.67098 0.000467341 10
17.3323 13.156 -1.90374 0.000474561 10
17.3338 13.1571 -1.14048 0.000479438 10
17.3161 13.1436 -0.379463 0.000481916 10
17.5845 13.3474 0.385345 0.000341479 10
16.8618 12.7988 1.10942 0.000387505 10
17.3169 13.1442 1.90204 0.000370216 10
17.3278 13.1525 2.67106 0.000364662 10
17.319 13.1458 3.44376 0.000357344 10
17.5692 13.3357 4.28748 0.000246624 10
17.316 13.1436 5.01892 0.000337776 10
17.3258 13.151 5.82834 0.000325752 10
7.83589 5.99099 -2.64298 0.000485891 4
8.71187 6.66072 -2.53179 0.000327551 4
11.1205 8.50222 -2.72099 0.000169364 1
13.63 10.421 -2.71746 7.93623e-05 1
17.312 13.2361 -2.67575 0.000462321 10
17.3215 13.2433 -1.90761 0.000469468 10
17.3157 13.2388 -1.14232 0.000474297 10
17.3282 13.2484 -0.380739 0.000476751 10
17.4466 13.3389 0.383341 0.000348195 10
16.7346 12.7945 1.10399 0.000395041 10
17.3258 13.2466 1.90809 0.000366244 10
17.3206 13.2426 2.67706 0.000360746 10
17.3075 13.2326 3.45064 0.000353501 10
17.4611 13.35 4.27245 0.0002515 10
17.3253 13.2462 5.03499 0.000334131 10
17.3071 13.2323 5.83755 0.000322228 10
7.8105 6.01489 -2.64148 0.000244618 4
8.68315 6.68693 -2.53022 0.00033437 4
11.0866 8.53783 -2.71999 0.000169361 1
13.6017 10.4747 -2.71908 7.93604e-05 1
17.3327 13.348 -2.68613 0.000457316 10
17.3243 13.3415 -1.91304 0.000464391 10
17.3243 13.3415 -1.14595 0.000469171 10
17.3119 13.332 -0.381402 0.0004716 10
17.3125 13.3324 0.381415 0.000354984 10
16.6135 12.7941 1.09894 0.000402657 10
17.3189 13.3373 1.91244 0.000362284 10
17.3145 13.334 2.68331 0.000356841 10
17.3157 13.3349 3.46153 0.00034967 10
17.3321 13.3475 4.25227 0.000256429 10
17.3225 13.3401 5.04766 0.000330496 10
17.3089 13.3296 5.85378 0.000318714 10
7.76575 6.02373 -2.63344 0.000935077 4
8.66257 6.71938 -2.53104 0.000350287 4
11.0417 8.56479 -2.71628 0.000169358 1
13.5564 10.5154 -2.71734 7.93584e-05 1
17.2025 13.3436 -2.67315 0.000350983 10
17.2046 13.3452 -1.90495 0.000356375 10
17.2033 13.3442 -1.14103 0.000360008 10
17.1872 13.3318 -0.379678 0.000361839 10
17.195 13.3378 0.37985 0.000361846 10
16.4997 12.7985 1.09436 0.000410354 10
17.2058 13.3462 1.90508 0.000277899 10
17.2012 13.3426 2.67294 0.000273705 10
17.205 13.3456 3.4487 0.000268188 10
17.1915 13.3351 4.22916 0.000261411 10
17.206 13.3463 5.02726 0.000253453 10
17.1941 13.3371 5.83069 0.000244406 10
7.72621 6.03637 -2.62716 0.00110465 4
8.64204 6.7519 -2.53191 0.000320712 4
11.025 8.61369 -2.71957 0.000169355 1
13.5098 10.555 -2.71537 7.93565e-05 1
17.0637 13.3316 -2.65879 0.000357724 10
17.0823 13.3461 -1.89655 0.000363213 10
17.076 13.3413 -1.13567 0.00036691 10
17.0754 13.3408 -0.378234 0.000368774 10
17.0805 13.3448 0.378347 0.000368781 10
16.3649 12.7857 1.08837 0.000418132 10
17.0633 13.3313 1.89445 0.00028323 10
17.0746 13.3401 2.66049 0.000278961 10
17.0626 13.3307 3.42946 0.000273345 10
17.0762 13.3414 4.21223 0.000266447 10
17.0649 13.3325 4.99959 0.000258346 10
17.0812 13.3453 5.80816 0.000249136 10
7.68501 6.04751 -2.62031 0.00130346 4
8.6152 6.77949 -2.53096 0.0003571 4
11.0009 8.65688 -2.72106 0.000169351 1
13.4761 10.6046 -2.71602 7.93545e-05 1
16.9368 13.3279 -2.64626 0.000364535 10
16.9546 13.3419 -1.88754 0.000370121 10
16.937 13.3281 -1.1295 0.000373885 10
16.9403 13.3307 -0.376269 0.000375781 10
16.9411 13.3313 0.376287 0.000375789 10
16.2531 12.7899 1.0839 0.000425989 10
16.9378 13.3287 1.88566 0.000288618 10
16.9417 13.3318 2.64702 0.000284273 10
16.9408 13.3311 3.41431 0.000278557 10
16.9464 13.3355 4.19166 0.000271536 10
16.9553 13.3425 4.98112 0.00026329 10
16.9396 13.3302 5.7758 0.000253916 10
7.63803 6.05382 -2.61148 0.000612996 4
8.59383 6.81139 -2.53166 0.000257017 4
10.9579 8.68514 -2.7179 0.000169348 1
13.4505 10.6607 -2.71835 7.93525e-05 1
16.8151 13.3274 -2.63449 0.000371417 10
16.8264 13.3364 -1.87844 0.000377102 10
16.8177 13.3295 -1.12465 0.000380931 10
16.8195 13.3309 -0.374617 0.000382861 10
16.8231 13.3338 0.374698 0.000382869 10
16.1308 12.7851 1.07871 0.000433926 10
16.8352 13.3434 1.87942 0.000294061 10
16.8363 13.3442 2.63781 0.000289639 10
16.8243 13.3348 3.40019 0.000283823 10
16.836 13.344 4.17584 0.000276677 10
16.8322 13.341 4.9586 0.000268287 10
16.8222 13.3331 5.7516 0.000258746 10
7.58362 6.05392 -2.60009 0.00079293 4
8.56907 6.84059 -2.53138 0.000336618 4
10.94 8.73332 -2.72101 0.000169345 1
13.4035 10.6999 -2.71638 7.93505e-05 1
16.6941 13.3267 -2.62281 0.00037837 10
16.6965 13.3286 -1.86912 0.000384153 10
16.7029 13.3337 -1.12007 0.00038805 10
16.7116 13.3407 -0.373249 0.000390013 10
16.704 13.3346 0.373079 0.000390021 10
16.0077 12.7788 1.07346 0.000441943 10
16.6931 13.3259 1.86873 0.000299559 10
16.7068 13.3368 2.6248 0.000295061 10
16.6943 13.3269 3.3833 0.000289142 10
16.7085 13.3382 4.15575 0.000281872 10
16.6996 13.3311 4.93322 0.000273334 10
16.6973 13.3293 5.72477 0.000263626 10
7.52937 6.05377 -2.58872 0.000750296 4
8.53671 6.86369 -2.52888 0.000302497 4
10.901 8.76466 -2.71891 0.000169341 1
13.3711 10.7506 -2.7174 7.93485e-05 1
16.5869 13.3362 -2.61326 0.000385392 10
16.5841 13.3339 -1.86173 0.000391276 10
16.5878 13.337 -1.11547 0.00039524 10
16.5935 13.3415 -0.371649 0.000397237 10
16.5926 13.3408 0.37163 0.000397245 10
15.9107 12.7925 1.06994 0.000450039 10
16.5815 13.3319 1.86145 0.000305113 10
16.573 13.325 2.61107 0.000300537 10
16.5724 13.3246 3.36801 0.000294516 10
16.5859 13.3354 4.13682 0.00028712 10
16.5724 13.3245 4.90934 0.000278433 10
16.5748 13.3265 5.69869 0.000268556 10
7.49248 6.06729 -2.5833 0.00123627 4
8.51593 6.89606 -2.52984 0.000357077 4
10.8626 8.79637 -2.71696 0.000169338 1
13.3314 10.7955 -2.71697 7.93465e-05 1
16.4613 13.3301 -2.60078 0.000392485 10
16.468 13.3355 -1.85391 0.00039847 10
16.4527 13.3232 -1.10951 0.000402502 10
16.462 13.3306 -0.369743 0.000404533 10
16.4542 13.3243 0.369569 0.000404541 10
15.7941 12.7898 1.06509 0.000458215 10
16.4564 13.3261 1.8526 0.000310723 10
16.4642 13.3324 2.60125 0.000306067 10
16.4614 13.3302 3.35488 0.000299943 10
16.4588 13.3281 4.1167 0.00029242 10
16.4621 13.3307 4.89041 0.000283583 10
16.4603 13.3293 5.6753 0.000273535 10
7.42893 6.05889 -2.56867 0.00110821 4
8.50232 6.93433 -2.53298 0.000272921 4
10.8341 8.83607 -2.71753 0.000169335 1
13.2954 10.8434 -2.71733 7.93444e-05 1
16.3456 13.3312 -2.58985 0.000399648 10
16.344 13.3299 -1.84518 0.000405734 10
16.3542 13.3382 -1.106 0.000409834 10
16.3485 13.3335 -0.368238 0.0004119 10
16.3544 13.3384 0.368372 0.000411908 10
15.7353 12.8334 1.06414 3.84139e-05 10
16.3348 13.3224 1.84415 0.000316387 10
16.3516 13.336 2.59079 0.000311653 10
16.3512 13.3357 3.34188 0.000305424 10
16.3382 13.3251 4.09812 0.000297772 10
16.3391 13.3258 4.86767 0.000288785 10
16.3362 13.3235 5.64851 0.000278564 10
7.40341 6.08123 -2.56717 0.00135667 4
8.48065 6.96608 -2.53375 0.000345694 4
10.8011 8.87209 -2.717 0.000169331 1
13.2491 10.8829 -2.71563 7.93424e-05 1
16.234 13.3347 -2.57952 0.000406879 10
16.2361 13.3364 -1.83824 0.000413069 10
16.2172 13.3209 -1.09987 0.000417237 10
16.2242 13.3267 -0.366484 0.000419339 10
16.2359 13.3363 0.366748 0.000419347 10
15.6913 12.889 1.0642 3.84171e-05 10
16.229 13.3306 1.83744 0.000322106 10
16.2258 13.328 2.57822 0.000317292 10
16.2309 13.3322 3.32679 0.000310957 10
16.2219 13.3248 4.08061 0.000303176 10
16.2172 13.321 4.84518 0.000294036 10
16.216 13.3199 5.62296 0.000283642 10
7.34188 6.07373 -2.55317 0.00115319 4
8.44945 6.98999 -2.5317 0.000322946 4
10.7708 8.91035 -2.71718 0.000169328 1
13.2152 10.9325 -2.71647 7.93404e-05 1
16.1039 13.3223 -2.56622 0.00041418 10
16.1067 13.3246 -1.82885 0.000420473 10
16.122 13.3373 -1.09656 0.000424712 10
16.1055 13.3236 -0.364851 0.000426848 10
16.1168 13.3329 0.365106 0.000426856 10
15.6425 12.9406 1.06395 3.84203e-05 10
16.1203 13.3359 1.8304 0.00032788 10
16.1197 13.3353 2.56874 0.000322985 10
16.1059 13.324 3.31068 0.000316545 10
16.1065 13.3245 4.06325 0.000308632 10
16.1078 13.3255 4.82635 0.000299339 10
16.1191 13.3349 5.60548 0.00028877 10
7.30886 6.08951 -2.54906 0.00136132 4
8.42047 7.01567 -2.53034 0.000311569 4
10.7409 8.94897 -2.71751 0.000169324 1
13.1864 10.9865 -2.71843 7.93383e-05 1
15.9945 13.3261 -2.55619 0.000421551 10
15.9969 13.3281 -1.82166 0.000427948 10
15.9887 13.3213 -1.09066 0.000432257 10
15.9892 13.3217 -0.363268 0.000434429 10
16.0033 13.3334 0.363587 0.000434437 10
15.5936 12.9921 1.0637 3.84234e-05 10
16.003 13.3332 1.82235 0.000333709 10
16.0018 13.3322 2.55735 0.000328732 10
15.9855 13.3186 3.29547 0.000322185 10
15.9848 13.318 4.04424 0.000314141 10
15.9932 13.3251 4.80595 0.000304692 10
15.984 13.3174 5.57464 0.000293947 10
7.25637 6.08882 -2.53815 0.00045911 4
8.40599 7.05346 -2.53337 0.000291096 4
10.7149 8.99089 -2.71886 0.000169321 1
13.1425 11.0278 -2.71728 7.93362e-05 1
15.8922 13.3352 -2.54727 0.000428989 10
15.8817 13.3263 -1.81382 0.000435493 10
15.8834 13.3277 -1.08664 0.000439873 10
15.8814 13.326 -0.361872 0.00044208 10
15.8812 13.3259 0.361869 0.000442088 10
15.5545 13.0518 1.06414 3.84266e-05 10
15.8695 13.3161 1.81243 0.000339591 10
15.888 13.3316 2.54658 0.000334533 10
15.8746 13.3204 3.28217 0.000327878 10
15.8902 13.3334 4.03206 0.000319701 10
15.8819 13.3265 4.78645 0.000310096 10
15.8865 13.3303 5.55681 0.000299172 10
7.21433 6.09658 -2.53088 0.000433644 4
8.37087 7.07393 -2.53021 0.000309285 4
10.6808 9.02597 -2.71818 0.000169317 1
13.1116 11.0802 -2.71889 7.93341e-05 1
