VERSION 0.7
FIELDS x y z intensity label
SIZE 4 4 4 4 4
TYPE F F F F F
COUNT 1 1 1 1 1
WIDTH 1154
HEIGHT 1
VIEWPOINT 9.56181 4.0601 2.72975 -0.537744 -0.000498247 -0.000663313 0.843108
POINTS 1154
DATA ascii
-1.60262 -11.4032 -2.65852 3.17501e-05 4
-1.90825 -13.5779 -2.66521 6.26961e-05 4
-2.34341 -16.6743 -2.6669 7.22449e-05 4
-4.91496 -34.9717 0.616432 9.37171e-05 10
-4.91261 -34.955 4.33411 7.05198e-05 10
-4.91443 -34.968 8.15233 6.44358e-05 10
-1.36705 -9.97969 -2.69902 0.000575394 4
-1.56376 -11.4157 -2.66013 8.33507e-05 4
-1.85782 -13.5624 -2.66089 3.13512e-05 4
-2.28377 -16.6719 -2.66524 6.72013e-05 4
-4.78099 -34.902 0.614906 9.47474e-05 10
-4.78135 -34.9047 4.32578 7.12973e-05 10
-4.78073 -34.9002 8.13258 6.51512e-05 10
-1.33203 -9.9831 -2.69867 0.000644991 4
-1.52359 -11.4188 -2.65959 0.000111143 4
-1.8121 -13.581 -2.66328 4.97343e-05 4
-2.13291 -15.9854 -2.55428 7.89939e-05 4
-4.64728 -34.8297 0.613342 9.57801e-05 10
-4.6488 -34.8411 4.31586 7.20765e-05 10
-4.64831 -34.8375 8.11414 6.58684e-05 10
-1.29914 -10.0028 -2.70276 0.000591281 4
-1.48494 -11.4334 -2.66177 0.000144895 4
-1.76522 -13.5914 -2.66409 0.000130836 4
-2.07364 -15.9661 -2.55002 8.58737e-05 4
-4.51591 -34.7706 0.61202 9.68152e-05 10
-4.51712 -34.7798 4.30629 7.28576e-05 10
-4.51808 -34.7873 8.09872 6.65873e-05 10
-1.2643 -10.0079 -2.70293 0.000474322 4
-1.71517 -13.577 -2.66007 0.000104895 4
-2.01821 -15.9758 -2.55042 7.27155e-05 4
-4.38707 -34.7272 0.610983 9.78525e-05 10
-4.3845 -34.7069 4.29534 7.36404e-05 10
-4.38511 -34.7117 8.07753 6.73079e-05 10
-1.22793 -10.0007 -2.69981 0.000215041 4
-1.40323 -11.4284 -2.65827 6.35258e-05 4
-1.66976 -13.5991 -2.66324 3.0282e-05 4
-1.96441 -15.9989 -2.553 0.000291797 4
-4.25605 -34.6627 0.609583 9.88918e-05 10
-4.2537 -34.6436 4.28564 7.44247e-05 10
-4.25477 -34.6523 8.0602 6.80299e-05 10
-1.19192 -9.99571 -2.69732 4.42761e-05 4
-1.36464 -11.4442 -2.66083 8.53697e-05 4
-1.62345 -13.6147 -2.66517 8.43654e-05 4
-1.9214 -16.1133 -2.57018 0.000211636 4
-4.1259 -34.6008 0.608238 9.99331e-05 10
-4.12421 -34.5866 4.27679 7.52106e-05 10
-4.12707 -34.6106 8.0471 6.87533e-05 10
-1.1576 -10.0049 -2.69868 0.000186605 4
-1.32343 -11.438 -2.65829 0.000129058 4
-1.57487 -13.6112 -2.6634 4.21869e-05 4
-1.87172 -16.1768 -2.57924 0.000192102 4
-2.39136 -20.6679 -2.55463 2.91417e-05 4
-3.99756 -34.5499 0.607094 0.000100976 10
-3.99523 -34.5297 4.268 7.5998e-05 10
-3.99652 -34.5409 8.0276 6.94782e-05 10
-1.12383 -10.0192 -2.70147 8.22383e-05 4
-1.28468 -11.4532 -2.66076 0.000117154 4
-1.82658 -16.2843 -2.59535 0.000203352 4
-3.81944 -34.0511 -1.79573 0.000106258 10
-3.8208 -34.0632 -0.598304 0.000106885 10
-3.82048 -34.0603 0.598253 0.000106887 10
-3.81895 -34.0467 1.7955 8.28569e-05 10
-3.82147 -34.0691 2.99935 8.18928e-05 10
-3.86854 -34.4888 4.26124 7.67866e-05 10
-3.82172 -34.0713 5.43021 7.85843e-05 10
-3.82016 -34.0574 6.66161 7.62849e-05 10
-3.8662 -34.4679 8.00744 7.02044e-05 10
-3.81878 -34.0452 9.17958 7.05515e-05 10
-1.08881 -10.0227 -2.70137 0.000117039 4
-1.24326 -11.4444 -2.65769 5.75889e-05 4
-1.77997 -16.3849 -2.61039 0.000225114 4
-2.24917 -20.7039 -2.55708 3.42217e-05 4
-3.69984 -34.0576 -1.79539 6.44319e-05 10
-3.69957 -34.0551 -0.597932 6.47753e-05 10
-3.70186 -34.0762 0.598302 6.47406e-05 10
-3.70121 -34.0702 1.79605 5.01575e-05 10
-3.70037 -34.0625 2.99761 4.95459e-05 10
-3.74026 -34.4297 4.2523 7.75766e-05 10
-3.70225 -34.0797 5.42946 4.74896e-05 10
-3.7042 -34.0977 6.66692 4.60731e-05 10
-3.73995 -34.4268 7.99482 7.09318e-05 10
-3.70293 -34.0861 9.18707 4.25587e-05 10
-1.0518 -10.0072 -2.69618 0.000287874 4
-1.20386 -11.454 -2.65892 6.35516e-05 4
-1.43021 -13.6075 -2.65961 6.16762e-05 4
-1.73136 -16.4728 -2.6234 0.00022057 4
-3.60145 -34.2655 -1.80567 6.26604e-05 10
-3.60371 -34.287 -0.601778 6.29949e-05 10
-3.60334 -34.2835 0.601717 6.29608e-05 10
-3.60245 -34.275 1.80617 4.87778e-05 10
-3.6026 -34.2764 3.01532 4.81815e-05 10
-3.61068 -34.3533 4.24129 7.83678e-05 10
-3.60561 -34.305 5.46331 4.61774e-05 10
-3.60352 -34.2852 6.70108 4.47968e-05 10
-3.61223 -34.3681 7.97821 7.16603e-05 10
-3.60456 -34.2951 9.23995 4.13722e-05 10
-1.01766 -10.0187 -2.69831 5.37823e-05 4
-1.1637 -11.4564 -2.65853 5.56122e-05 4
-1.38382 -13.6234 -2.66175 0.000119036 4
-1.68098 -16.5489 -2.63458 0.000224935 4
-3.48371 -34.2964 -1.80665 0.000104546 10
-3.4836 -34.2954 -0.601709 0.000105163 10
-3.48299 -34.2894 0.601603 0.000105166 10
-3.48327 -34.2921 1.80642 8.15216e-05 10
-3.48398 -34.2991 3.01622 8.05709e-05 10
-3.48316 -34.2911 4.23208 7.91601e-05 10
-3.48478 -34.307 5.46166 7.73085e-05 10
-3.4848 -34.3072 6.70295 7.50415e-05 10
-3.48488 -34.3079 7.96137 7.23898e-05 10
-3.483 -34.2895 9.23511 6.93893e-05 10
-0.983309 -10.0285 -2.70003 8.22609e-05 4
-1.12483 -11.4719 -2.66119 0.000182741 4
-1.33632 -13.6288 -2.66187 5.0866e-05 4
-1.63357 -16.6604 -2.6514 0.000183886 4
-3.35711 -34.2384 -1.80297 0.000105591 10
-3.35811 -34.2486 -0.600679 0.000106214 10
-3.35833 -34.2508 0.600717 0.000106217 10
-3.3578 -34.2454 1.80333 8.23367e-05 10
-3.35761 -34.2435 3.01029 8.13772e-05 10
-3.35859 -34.2535 4.22597 7.99534e-05 10
-3.35783 -34.2457 5.45 7.80848e-05 10
-3.35826 -34.2501 6.68948 7.57967e-05 10
-3.35835 -34.2511 7.9454 7.31204e-05 10
-3.35578 -34.2248 9.2145 7.00919e-05 10
-0.947985 -10.0286 -2.69914 0.000265785 4
-1.0839 -11.4664 -2.65903 9.73372e-05 4
-1.28922 -13.6385 -2.66287 3.78827e-05 4
-1.58317 -16.7482 -2.66448 0.000231044 4
-1.95797 -20.7131 -2.55459 2.87493e-05 4
-3.23031 -34.1731 -1.79892 0.000106638 10
-3.23001 -34.1699 -0.599097 0.000107267 10
-3.23038 -34.1739 0.599166 0.000107269 10
-3.23237 -34.1949 1.80007 8.31527e-05 10
-3.23018 -34.1717 3.00296 8.21844e-05 10
-3.23127 -34.1832 4.21589 8.07476e-05 10
-3.22973 -34.167 5.43564 7.88618e-05 10
-3.23228 -34.1939 6.67625 7.65529e-05 10
-3.23139 -34.1845 7.9273 7.38519e-05 10
-3.23201 -34.191 9.2023 7.07954e-05 10
-0.914052 -10.0437 -2.70233 0.000167709 4
-1.04485 -11.4809 -2.66153 0.000170851 4
-1.53243 -16.8386 -2.67799 0.000209584 4
-3.1043 -34.1105 -1.79504 0.000107685 10
-3.10667 -34.1365 -0.598318 0.00010832 10
-3.10554 -34.1241 0.5981 0.000108323 10
-3.10554 -34.1241 1.79576 8.39697e-05 10
-3.10527 -34.1212 2.99755 8.29926e-05 10
-3.10432 -34.1107 4.20558 8.15427e-05 10
-3.10585 -34.1275 5.4276 7.96398e-05 10
-3.10569 -34.1258 6.6608 7.73098e-05 10
-3.1064 -34.1335 7.91291 7.45842e-05 10
-3.10509 -34.1192 9.17998 7.14998e-05 10
-1.00363 -11.4715 -2.65853 5.9604e-05 4
-1.19417 -13.6494 -2.6633 5.9542e-05 4
-1.48266 -16.9468 -2.69437 0.000169345 4
-1.81214 -20.7128 -2.55293 3.08741e-05 4
-2.98025 -34.0644 -1.79206 0.000108734 10
-2.98085 -34.0712 -0.596986 0.000109374 10
-2.98064 -34.0688 0.596944 0.000109377 10
-2.97973 -34.0584 1.79174 8.47872e-05 10
-2.98079 -34.0705 2.99217 8.38014e-05 10
-2.97993 -34.0607 4.19811 8.23385e-05 10
-2.97949 -34.0557 5.41449 8.04185e-05 10
-2.97946 -34.0554 6.64498 7.80674e-05 10
-2.98127 -34.0761 7.89713 7.53172e-05 10
-2.98127 -34.076 9.16551 7.22048e-05 10
-0.843837 -10.049 -2.70209 0.000335464 4
-0.963057 -11.4687 -2.65708 0.000238436 4
-1.14513 -13.637 -2.66009 3.68115e-05 4
-1.43154 -17.0477 -2.7096 0.000191246 4
-1.73984 -20.7192 -2.55295 3.13025e-05 4
-2.8546 -33.9945 -1.78785 0.000109783 10
-2.85501 -33.9993 -0.595549 0.000110429 10
-2.85639 -34.0158 0.595837 0.000110432 10
-2.85652 -34.0173 1.78905 8.56055e-05 10
-2.85625 -34.0141 2.98632 8.46109e-05 10
-2.85503 -33.9996 4.18932 8.3135e-05 10
-2.85472 -33.996 5.40338 8.11978e-05 10
-2.85481 -33.997 6.63161 7.88258e-05 10
-2.85568 -34.0073 7.87883 7.60509e-05 10
-2.85664 -34.0188 9.14739 7.29105e-05 10
-0.807285 -10.0336 -2.69718 0.000145589 4
-0.924735 -11.4934 -2.66203 0.000149035 4
-1.09849 -13.6529 -2.66244 8.6624e-05 4
-1.37924 -17.1424 -2.72386 0.00020742 4
-2.73046 -33.9364 -1.78428 0.000110833 10
-2.73048 -33.9366 -0.594281 0.000111485 10
-2.73151 -33.9495 0.594505 0.000111488 10
-2.73049 -33.9368 1.7843 8.64244e-05 10
-2.7316 -33.9506 2.97989 8.5421e-05 10
-2.73056 -33.9377 4.18049 8.3932e-05 10
-2.73089 -33.9417 5.39321 8.19778e-05 10
-2.73251 -33.9619 6.62286 7.95847e-05 10
-2.73218 -33.9578 7.8651 7.67852e-05 10
-2.7319 -33.9542 9.12741 7.36168e-05 10
-0.772627 -10.0412 -2.69848 0.000462119 4
-0.883289 -11.4793 -2.65805 0.000107314 4
-1.0503 -13.6498 -2.6611 5.52284e-05 4
-1.32618 -17.2353 -2.73786 0.000128169 4
-2.60855 -33.9011 -1.78193 0.000111884 10
-2.60765 -33.8894 -0.593291 0.000112542 10
-2.6071 -33.8823 0.593165 0.000112545 10
-2.607 -33.8809 1.78087 8.72438e-05 10
-2.60766 -33.8896 2.97372 8.62316e-05 10
-2.6075 -33.8875 4.17316 8.47297e-05 10
-2.60684 -33.8788 5.38174 8.27582e-05 10
-2.60793 -33.893 6.60761 8.03441e-05 10
-2.60784 -33.8919 7.84769 7.75199e-05 10
-2.60699 -33.8809 9.10518 7.43236e-05 10
-0.738253 -10.0531 -2.70097 0.000101293 4
-0.843738 -11.4895 -2.6597 9.93728e-05 4
-1.00289 -13.6567 -2.66174 6.71472e-05 4
-1.2684 -17.2722 -2.74302 7.67697e-05 1
-2.49378 -33.9587 -1.78449 6.21548e-05 10
-2.4929 -33.9468 -0.594139 6.24833e-05 10
-2.49414 -33.9637 0.594434 6.24478e-05 10
-2.4939 -33.9604 1.78458 4.83802e-05 10
-2.49389 -33.9603 2.97914 4.77901e-05 10
-2.4946 -33.9699 4.18221 4.69288e-05 10
-2.49593 -33.988 5.39767 4.58083e-05 10
-2.49495 -33.9746 6.62178 4.44436e-05 10
-2.49536 -33.9803 7.86609 4.28531e-05 10
-2.49677 -33.9995 9.13466 4.10584e-05 10
-0.703627 -10.0623 -2.70278 0.000237423 4
-0.80409 -11.499 -2.66124 7.75172e-05 4
-0.954875 -13.6553 -2.66081 7.04034e-05 4
-1.20793 -17.2742 -2.74265 7.67797e-05 1
-1.45066 -20.7454 -2.55344 2.96314e-05 4
-2.38968 -34.1739 -1.79535 6.03088e-05 10
-2.39093 -34.1918 -0.598278 6.06281e-05 10
-2.39042 -34.1846 0.598151 6.05933e-05 10
-2.39036 -34.1836 1.79586 4.69427e-05 10
-2.39129 -34.197 2.99916 4.63685e-05 10
-2.3913 -34.1971 4.20913 4.55308e-05 10
-2.39189 -34.2055 5.43085 4.44408e-05 10
-2.39159 -34.2013 6.6643 4.31136e-05 10
-2.39107 -34.1938 7.91354 4.1567e-05 10
-2.39262 -34.216 9.19054 3.98218e-05 10
-0.667235 -10.0457 -2.69766 0.000167791 4
-0.764188 -11.5054 -2.66208 3.97557e-05 4
-0.90806 -13.6715 -2.66332 4.87458e-05 4
-1.14719 -17.2718 -2.74161 7.67898e-05 1
-2.28497 -34.4019 -1.8069 5.84988e-05 10
-2.28484 -34.3999 -0.601775 5.8809e-05 10
-2.28631 -34.4219 0.602161 5.8775e-05 10
-2.28474 -34.3983 1.80671 4.55331e-05 10
-2.28523 -34.4057 3.01674 4.49747e-05 10
-2.28636 -34.4228 4.2359 4.41601e-05 10
-2.28627 -34.4214 5.46382 4.31003e-05 10
-2.28648 -34.4245 6.70619 4.18099e-05 10
-2.28749 -34.4397 7.96856 4.03063e-05 10
-2.28784 -34.445 9.24984 3.86099e-05 10
-0.632603 -10.0549 -2.69954 0.000183633 4
-0.724134 -11.5098 -2.66249 0.000109337 4
-0.85891 -13.652 -2.65892 6.39176e-05 4
-1.08714 -17.2797 -2.74224 7.67998e-05 1
-2.17926 -34.6383 -1.81891 5.67245e-05 10
-2.17853 -34.6267 -0.605606 5.70258e-05 10
-2.17885 -34.6318 0.605695 5.69926e-05 10
-2.17892 -34.6329 1.81862 4.41515e-05 10
-2.17875 -34.6301 3.03573 4.36085e-05 10
-2.17983 -34.6473 4.26257 4.28166e-05 10
-2.17967 -34.6448 5.49805 4.17864e-05 10
-2.18065 -34.6604 6.75062 4.05321e-05 10
-2.17988 -34.6482 8.01497 3.90709e-05 10
-2.18069 -34.661 9.30574 3.74224e-05 10
-0.596739 -10.0443 -2.6961 9.18229e-05 4
-0.684135 -11.5153 -2.6632 4.37385e-05 4
-0.812699 -13.6793 -2.66367 2.92534e-05 4
-1.02608 -17.2709 -2.74027 7.681e-05 1
-1.23404 -20.7713 -2.55489 2.90118e-05 4
-2.07089 -34.857 -1.83 5.49858e-05 10
-2.07134 -34.8646 -0.609636 5.52784e-05 10
-2.07133 -34.8644 0.609633 5.52459e-05 10
-2.07246 -34.8834 1.83139 4.27974e-05 10
-2.07218 -34.8788 3.05688 4.22698e-05 10
-2.07143 -34.8661 4.28857 4.15001e-05 10
-2.07275 -34.8883 5.53551 4.0499e-05 10
-2.07281 -34.8893 6.79375 3.92803e-05 10
-2.07223 -34.8795 8.06678 3.78605e-05 10
-2.07417 -34.9123 9.37121 3.6259e-05 10
-0.562777 -10.066 -2.70138 0.000126661 4
-0.64375 -11.5143 -2.66243 0.000103391 4
-0.764676 -13.6772 -2.66273 5.74292e-05 4
-0.965709 -17.2729 -2.74003 7.68201e-05 1
-1.96144 -35.0828 -1.84148 5.32824e-05 10
-1.96284 -35.1079 -0.613767 5.35665e-05 10
-1.96236 -35.0993 0.613617 5.35347e-05 10
-1.96247 -35.1012 1.84245 4.1471e-05 10
-1.96244 -35.1007 3.07571 4.09582e-05 10
-1.96245 -35.1008 4.31657 4.02104e-05 10
-1.96328 -35.1157 5.57046 3.92379e-05 10
-1.96402 -35.129 6.83906 3.80541e-05 10
-1.96363 -35.122 8.12121 3.66751e-05 10
-1.9649 -35.1447 9.4317 3.51198e-05 10
-0.526577 -10.0477 -2.69596 0.00011717 4
-0.602626 -11.4988 -2.65834 6.16419e-05 4
-0.716385 -13.6694 -2.66071 6.50208e-05 4
-1.08856 -20.7709 -2.55384 3.00814e-05 4
-1.852 -35.3383 -1.85454 5.1614e-05 10
-1.85165 -35.3316 -0.617561 5.18896e-05 10
-1.85185 -35.3354 0.617627 5.18585e-05 10
-1.85206 -35.3394 1.8546 4.01717e-05 10
-1.85184 -35.3351 3.09566 3.96736e-05 10
-1.85309 -35.359 4.34749 3.89473e-05 10
-1.8527 -35.3516 5.60683 3.80029e-05 10
-1.85355 -35.3677 6.88422 3.68533e-05 10
-1.85382 -35.3729 8.17769 3.55143e-05 10
-1.85435 -35.383 9.49387 3.40043e-05 10
-0.491696 -10.0534 -2.69703 0.000323032 4
-0.563424 -11.52 -2.66279 7.95445e-05 4
-0.668731 -13.6732 -2.66097 6.17761e-05 4
-1.01537 -20.7607 -2.55214 2.92392e-05 4
-1.7278 -35.3273 -1.85364 9.74976e-05 10
-1.72812 -35.3339 -0.617492 9.80798e-05 10
-1.73963 -35.5692 0.621604 5.02172e-05 10
-1.72807 -35.3328 1.85393 7.60259e-05 10
-1.72774 -35.3261 3.09432 7.51305e-05 10
-1.74049 -35.5868 4.37473 3.77106e-05 10
-1.72868 -35.3454 5.60485 7.20589e-05 10
-1.72797 -35.3308 6.87582 6.9925e-05 10
-1.74202 -35.6181 8.23292 3.43781e-05 10
-1.72805 -35.3325 9.47863 6.46074e-05 10
-0.456565 -10.0543 -2.69683 0.00010135 4
-0.523194 -11.5216 -2.66272 0.000139215 4
-0.621109 -13.6779 -2.66145 7.8041e-05 4
-0.770713 -16.9724 -2.69093 3.11491e-05 4
-1.60165 -35.271 -1.85038 9.8368e-05 10
-1.60243 -35.2883 -0.616595 9.89544e-05 10
-1.62671 -35.8229 0.625934 4.86106e-05 10
-1.60161 -35.2703 1.85034 7.67042e-05 10
-1.60216 -35.2823 3.08998 7.58015e-05 10
-1.62713 -35.8321 4.40416 3.65001e-05 10
-1.60225 -35.2843 5.59424 7.27045e-05 10
-1.60226 -35.2846 6.86569 7.05531e-05 10
-1.62807 -35.8529 8.28582 3.32662e-05 10
-1.60248 -35.2893 9.4655 6.51913e-05 10
-0.422322 -10.0763 -2.7023 9.81901e-05 4
-0.482612 -11.5147 -2.66072 8.15468e-05 4
-1.47859 -35.2779 -1.85046 5.09759e-05 10
-1.47857 -35.2774 -0.61631 5.12473e-05 10
-1.5117 -36.0679 0.63012 4.70383e-05 10
-1.47897 -35.2871 1.85094 3.96738e-05 10
-1.47894 -35.2864 3.08987 3.91817e-05 10
-1.5123 -36.0822 4.43423 3.53156e-05 10
-1.47998 -35.3111 5.59764 3.7532e-05 10
-1.47959 -35.3019 6.86802 3.6397e-05 10
-1.48055 -35.3247 9.47353 3.35845e-05 10
-0.386306 -10.0558 -2.69643 0.0002154 4
-0.44182 -11.5009 -2.65714 0.000214824 4
-0.797851 -20.7686 -2.55194 2.8831e-05 4
-1.39525 -36.3192 0.634421 4.55e-05 10
-1.39542 -36.3238 4.4633 3.41569e-05 10
-0.35102 -10.0519 -2.69503 0.000548042 4
-0.401586 -11.4999 -2.65658 0.000198928 4
-0.477418 -13.6714 -2.65908 6.28857e-05 4
-0.587066 -16.8113 -2.66428 9.28118e-05 4
-0.726376 -20.8006 -2.55555 6.07461e-05 4
-1.2834 -36.7518 -1.92725 8.44693e-05 10
-1.28343 -36.7527 -0.641912 8.49809e-05 10
-1.27753 -36.5837 0.638959 4.39955e-05 10
-1.2832 -36.7459 1.92694 4.20479e-05 10
-1.28349 -36.7543 3.21754 4.15453e-05 10
-1.27774 -36.5897 4.49538 3.30237e-05 10
-1.2829 -36.7375 5.82219 3.98216e-05 10
-0.316516 -10.0717 -2.70003 0.000570258 4
-0.36193 -11.5168 -2.66017 3.58101e-05 4
-0.429844 -13.6778 -2.66001 0.00014205 4
-0.52809 -16.8041 -2.66282 0.00010094 4
-0.657722 -20.929 -2.57103 9.75957e-05 4
-1.15609 -36.7875 -1.9289 8.42944e-05 10
-1.15606 -36.7864 -0.642426 8.48052e-05 10
-1.15714 -36.8207 0.643025 4.25244e-05 10
-1.15649 -36.7999 1.92955 6.57302e-05 10
-1.15626 -36.7928 3.22054 6.49442e-05 10
-1.15792 -36.8455 4.52629 3.19158e-05 10
-1.15621 -36.7912 5.83003 6.22485e-05 10
-1.15647 -36.7995 7.15663 6.03768e-05 10
-1.13334 -36.0635 8.33003 3.1701e-05 10
-1.15611 -36.7879 9.86215 5.57159e-05 10
-0.280836 -10.054 -2.69502 0.000620991 4
-0.322022 -11.5285 -2.66261 0.00015718 4
-0.382257 -13.685 -2.66112 6.50677e-05 4
-0.469065 -16.7927 -2.66074 8.92852e-05 4
-0.588468 -21.0674 -2.58776 9.59973e-05 4
-1.02581 -36.7243 -1.92539 8.50259e-05 10
-1.02617 -36.7372 -0.6415 8.55408e-05 10
-1.03579 -37.0815 0.647512 4.10866e-05 10
-1.02604 -36.7326 1.92583 6.63007e-05 10
-1.02555 -36.715 3.2134 6.55083e-05 10
-1.03686 -37.1199 4.55952 3.0833e-05 10
-1.02603 -36.7322 5.82008 6.2791e-05 10
-1.02609 -36.7345 7.14325 6.09043e-05 10
-1.01467 -36.3255 8.38968 3.06264e-05 10
-1.02574 -36.7218 9.8434 5.62059e-05 10
-0.245736 -10.0548 -2.69499 0.000659058 4
-0.281174 -11.5049 -2.6569 6.76527e-05 4
-0.334115 -13.6711 -2.65818 3.47063e-05 4
-0.517809 -21.1873 -2.60225 5.79262e-05 4
-0.896164 -36.6685 -1.92229 8.57568e-05 10
-0.896213 -36.6705 -0.640278 8.62757e-05 10
-0.913133 -37.3629 0.652365 3.96815e-05 10
-0.89621 -36.6704 1.92239 6.68706e-05 10
-0.895868 -36.6564 3.20798 6.6072e-05 10
-0.913369 -37.3725 4.59014 2.9775e-05 10
-0.896495 -36.6821 5.81161 6.33332e-05 10
-0.896303 -36.6742 7.13087 6.14314e-05 10
-0.896261 -36.6725 8.46904 5.92086e-05 10
-0.896129 -36.6671 9.82785 5.66954e-05 10
-0.210775 -10.0622 -2.69676 0.000662274 4
-0.241514 -11.5297 -2.66242 0.000103478 4
-0.286953 -13.6989 -2.66339 6.29118e-05 4
-0.35226 -16.8166 -2.66408 3.95801e-05 4
-0.446566 -21.3187 -2.61819 0.000107452 4
-0.788099 -37.6233 -1.97218 3.8127e-05 10
-0.788155 -37.626 -0.656908 3.8334e-05 10
-0.788147 -37.6256 0.656901 3.8309e-05 10
-0.788005 -37.6188 1.97195 2.96699e-05 10
-0.788417 -37.6385 3.29366 2.92919e-05 10
-0.78864 -37.6491 4.62374 2.87416e-05 10
-0.175624 -10.0615 -2.69638 0.000595772 4
-0.201058 -11.5186 -2.65968 0.000248765 4
-0.239011 -13.6929 -2.66203 3.25439e-05 4
-0.374385 -21.4484 -2.63394 7.69086e-05 4
-0.661263 -37.8836 -1.9857 3.67929e-05 10
-0.661447 -37.8941 -0.661545 3.69931e-05 10
-0.661519 -37.8983 0.661617 3.69687e-05 10
-0.140693 -10.0756 -2.70002 0.000117261 4
-0.191196 -13.6924 -2.66179 5.53304e-05 4
-0.301465 -21.5892 -2.65108 9.35873e-05 4
-0.532814 -38.1571 -1.99992 3.54906e-05 10
-0.532869 -38.161 -0.666168 3.56841e-05 10
-0.533152 -38.1813 0.666522 3.56603e-05 10
-0.105562 -10.0799 -2.70106 0.000320115 4
-0.120466 -11.5031 -2.65584 0.000107485 4
-0.143425 -13.6955 -2.66227 5.85913e-05 4
-0.176034 -16.8092 -2.66246 3.35042e-05 4
-0.451007 -43.0659 -2.25711 4.46944e-05 10
-0.0702286 -10.0592 -2.69542 0.000285271 4
-0.0803398 -11.5075 -2.65678 9.15689e-05 4
-0.0955206 -13.6819 -2.65956 9.98326e-05 4
-0.117367 -16.8111 -2.66268 3.85857e-05 4
-0.300263 -43.0081 -2.25402 4.50868e-05 10
-0.289978 -41.535 2.17681 4.06808e-05 10
-0.290086 -41.5506 3.63529 4.01699e-05 10
-0.290037 -41.5434 5.10102 3.94125e-05 10
-0.289969 -41.5337 6.57845 3.84198e-05 10
-0.289993 -41.5372 8.07421 3.72067e-05 10
-0.290009 -41.5395 9.59038 3.57909e-05 10
-0.290013 -41.54 11.1309 3.41932e-05 10
-0.0351175 -10.0602 -2.69563 7.60778e-05 4
-0.149911 -42.9453 -2.25068 4.54787e-05 10
-0.144782 -41.4759 2.17367 4.10293e-05 10
-0.144808 -41.4834 3.62935 4.05143e-05 10
-0.144769 -41.4722 5.09218 3.9751e-05 10
-0.144757 -41.4689 6.56808 3.87505e-05 10
-0.144781 -41.4756 8.06208 3.75278e-05 10
-0.14479 -41.4781 9.57604 3.61008e-05 10
-0.144831 -41.49 11.1173 3.44903e-05 10
-4.40222e-07 -10.0711 -2.69855 6.65729e-05 4
-5.03265e-07 -11.5134 -2.65807 6.96838e-05 4
-1.87354e-06 -42.8616 -2.24628 4.58703e-05 10
-2.07917e-06 -47.5658 -0.830264 2.92955e-05 10
-2.07929e-06 -47.5686 0.830313 2.92963e-05 10
-1.80998e-06 -41.4075 2.17008 4.13774e-05 10
-1.81013e-06 -41.4109 3.62298 4.08584e-05 10
-1.81066e-06 -41.423 5.08611 4.0089e-05 10
-1.80968e-06 -41.4007 6.55722 3.90808e-05 10
-1.81081e-06 -41.4266 8.05251 3.78484e-05 10
-1.81059e-06 -41.4215 9.5629 3.64102e-05 10
-1.8108e-06 -41.4262 11.1001 3.47871e-05 10
0.0351476 -10.0694 -2.6981 0.000221926 4
0.040241 -11.5286 -2.6616 0.00012345 4
0.0477195 -13.6711 -2.65741 5.21028e-05 4
0.149359 -42.7897 -2.24253 4.62613e-05 10
0.144358 -41.357 2.16744 4.17249e-05 10
0.14432 -41.346 3.61733 4.12019e-05 10
0.144305 -41.3418 5.07616 4.04266e-05 10
0.144319 -41.3459 6.54859 3.94105e-05 10
0.144359 -41.3573 8.0391 3.81686e-05 10
0.144287 -41.3366 9.54335 3.67193e-05 10
0.144358 -41.3568 11.0816 3.50834e-05 10
0.0702226 -10.0586 -2.69527 0.000114141 4
0.0804089 -11.5177 -2.65914 0.000113504 4
0.0955023 -13.6797 -2.65913 4.12524e-05 4
0.298293 -42.7273 -2.2393 4.66517e-05 10
0.288234 -41.2864 2.16378 4.2072e-05 10
0.288215 -41.2838 3.61195 4.15449e-05 10
0.288102 -41.2676 5.06714 4.07637e-05 10
0.288108 -41.2685 6.53644 3.97398e-05 10
0.288215 -41.2837 8.02493 3.84884e-05 10
0.288133 -41.272 9.52863 3.70278e-05 10
0.288175 -41.2779 11.0607 3.53794e-05 10
0.105496 -10.0738 -2.69942 0.000123662 4
0.120473 -11.504 -2.65605 9.95738e-05 4
0.143438 -13.6969 -2.66255 5.75423e-05 4
0.175892 -16.796 -2.66037 3.70874e-05 4
0.446855 -42.6703 -2.23638 4.70416e-05 10
0.431708 -41.2238 2.16057 4.24184e-05 10
0.431511 -41.2051 3.60517 4.18874e-05 10
0.431489 -41.2029 5.05936 4.11003e-05 10
0.431519 -41.2058 6.52672 4.00686e-05 10
0.431508 -41.2048 8.00983 3.88076e-05 10
0.431543 -41.2081 9.51416 3.73359e-05 10
0.431654 -41.2187 11.0451 3.56749e-05 10
0.140589 -10.0683 -2.69807 0.00018075 4
0.160912 -11.5238 -2.66074 0.000117507 4
0.191123 -13.6873 -2.66081 6.29774e-05 4
0.291099 -20.8472 -2.55996 9.67779e-05 4
0.594599 -42.5824 -2.23187 4.74308e-05 10
0.574631 -41.1524 2.15692 4.27642e-05 10
0.574606 -41.1506 3.60056 4.22293e-05 10
0.574651 -41.1538 5.05354 4.14362e-05 10
0.57441 -41.1365 6.51602 4.03968e-05 10
0.574406 -41.1363 7.99686 3.91264e-05 10
0.574528 -41.145 9.49999 3.76435e-05 10
0.574664 -41.1548 11.0285 3.59699e-05 10
0.17582 -10.0728 -2.69941 8.56246e-05 4
0.200776 -11.5025 -2.65597 7.76809e-05 4
0.366491 -20.9964 -2.57843 8.18881e-05 4
0.742332 -42.5285 -2.22916 4.78193e-05 10
0.764917 -43.8224 -0.76504 4.22688e-05 10
0.765149 -43.8357 0.765271 4.22699e-05 10
0.717101 -41.083 2.1534 4.31094e-05 10
0.716846 -41.0684 3.59357 4.25704e-05 10
0.716882 -41.0705 5.04359 4.17715e-05 10
0.716811 -41.0664 6.50527 4.07244e-05 10
0.717104 -41.0832 7.98698 3.94444e-05 10
0.716811 -41.0664 9.48238 3.79505e-05 10
0.717154 -41.0861 11.0107 3.62643e-05 10
0.210552 -10.0517 -2.69394 0.000383753 4
0.241068 -11.5085 -2.65753 0.000145415 4
0.286714 -13.6877 -2.6612 0.000152046 4
0.44303 -21.1501 -2.59748 7.60503e-05 4
0.889131 -42.4469 -2.22504 4.82071e-05 10
0.916516 -43.7543 -0.763901 4.26159e-05 10
0.917012 -43.7779 0.764314 4.2617e-05 10
0.858912 -41.0042 2.14941 4.34539e-05 10
0.859328 -41.0241 3.58993 4.29109e-05 10
0.859046 -41.0106 5.03658 4.21061e-05 10
0.859246 -41.0202 6.49838 4.10513e-05 10
0.858957 -41.0064 7.97258 3.97619e-05 10
0.859288 -41.0222 9.47279 3.82569e-05 10
0.859266 -41.0211 10.994 3.65581e-05 10
0.245748 -10.0554 -2.69514 0.000152244 4
0.281397 -11.5141 -2.65903 0.000117538 4
0.33405 -13.6685 -2.65768 0.000132512 4
0.520892 -21.3136 -2.61777 0.000111394 4
1.03597 -42.3894 -2.2222 4.8594e-05 10
1.00085 -40.9524 2.14687 4.37975e-05 10
1.00038 -40.933 3.58224 4.32507e-05 10
1.00076 -40.9488 5.02938 4.244e-05 10
1.00089 -40.9541 6.48842 4.13775e-05 10
1.00067 -40.9449 7.96126 4.00786e-05 10
1.00076 -40.9486 9.45654 3.85626e-05 10
1.00095 -40.9566 10.9776 3.68514e-05 10
0.281447 -10.076 -2.7009 0.000231554 4
0.321755 -11.519 -2.66042 7.96933e-05 4
0.381641 -13.663 -2.65685 5.75725e-05 4
0.599378 -21.4581 -2.63575 8.65993e-05 4
1.18201 -42.3166 -2.21858 4.898e-05 10
1.14198 -40.8835 2.14345 4.41404e-05 10
1.14216 -40.8899 3.57879 4.35897e-05 10
1.14224 -40.8928 5.02296 4.27731e-05 10
1.14215 -40.8898 6.47883 4.17029e-05 10
1.14174 -40.875 7.9484 4.03947e-05 10
1.14204 -40.8859 9.44293 3.88677e-05 10
1.14229 -40.8947 10.962 3.7144e-05 10
0.31645 -10.0696 -2.69949 0.00010151 4
0.361305 -11.497 -2.65559 6.17676e-05 4
0.429477 -13.6662 -2.65776 6.51833e-05 4
0.679264 -21.6146 -2.65526 7.89473e-05 4
1.32808 -42.2603 -2.21586 4.93652e-05 10
1.28237 -40.806 2.13961 4.44825e-05 10
1.28246 -40.8087 3.57206 4.39278e-05 10
0.351498 -10.0656 -2.69872 0.00013007 4
0.401646 -11.5017 -2.65699 0.000215209 4
0.477934 -13.6863 -2.66196 7.17093e-05 4
0.760324 -21.7729 -2.67501 8.32885e-05 4
1.42568 -40.8262 2.14092 4.45275e-05 10
1.42559 -40.8237 3.57379 4.39721e-05 10
1.4251 -40.8097 5.01386 4.3149e-05 10
1.42559 -40.8238 6.46979 4.207e-05 10
1.42573 -40.8278 9.43159 3.92115e-05 10
1.42498 -40.8063 10.9407 3.74735e-05 10
0.386237 -10.0541 -2.69596 0.000180842 4
0.441571 -11.4945 -2.65566 0.000109607 4
0.525062 -13.6678 -2.65871 3.25986e-05 4
0.843417 -21.9548 -2.6977 8.72638e-05 4
1.56538 -40.7482 2.1371 4.48657e-05 10
1.56532 -40.7465 3.56749 4.43065e-05 10
1.56494 -40.7367 5.00553 4.34776e-05 10
1.56502 -40.7388 6.45715 4.23911e-05 10
1.5658 -40.7589 9.41688 3.95124e-05 10
1.5652 -40.7435 10.9252 3.77622e-05 10
0.420971 -10.0441 -2.69366 0.0003395 4
0.481946 -11.4989 -2.65706 9.5665e-05 4
0.572595 -13.6617 -2.6579 4.56428e-05 4
0.926796 -22.1127 -2.71748 6.21241e-05 4
0.457196 -10.0683 -2.70057 8.25014e-05 4
0.522267 -11.5012 -2.65801 5.1823e-05 4
0.620106 -13.6558 -2.65716 3.69529e-05 4
1.01074 -22.2582 -2.73578 5.73905e-05 4
0.491853 -10.0567 -2.69791 0.000104721 4
0.561932 -11.4896 -2.65574 2.99005e-05 4
0.667607 -13.6503 -2.65651 6.84788e-05 4
2.06545 -42.2314 2.2159 3.87079e-05 10
2.06631 -42.2489 3.70072 3.82181e-05 10
2.06522 -42.2266 5.19097 3.7492e-05 10
2.06609 -42.2443 6.69884 3.65407e-05 10
2.06525 -42.2272 9.76058 3.40221e-05 10
0.527553 -10.0663 -2.70097 0.000171374 4
0.602163 -11.49 -2.65631 7.57545e-05 4
0.715688 -13.6562 -2.65813 6.52248e-05 4
0.879123 -16.7747 -2.6605 8.39639e-05 4
2.2097 -42.1636 2.21274 3.89947e-05 10
2.2104 -42.1771 3.69508 3.85015e-05 10
2.20997 -42.1689 5.18479 3.77705e-05 10
2.21058 -42.1805 6.68991 3.68127e-05 10
2.21035 -42.176 9.75047 3.42767e-05 10
0.562002 -10.0521 -2.69767 0.000123779 4
0.64234 -11.4891 -2.65661 0.000105667 4
0.763227 -13.6513 -2.65769 4.13134e-05 4
0.597804 -10.0622 -2.70091 0.000390409 4
0.68277 -11.4923 -2.65789 0.000105676 4
0.810576 -13.6436 -2.65672 3.58813e-05 4
0.631335 -10.0348 -2.69413 0.000120623 4
0.723354 -11.4974 -2.65963 0.000129614 4
0.859324 -13.6586 -2.66021 4.89342e-05 4
0.666819 -10.0395 -2.69599 5.07924e-05 4
0.762667 -11.4825 -2.65679 0.000111677 4
0.905713 -13.6362 -2.65645 0.000135943 4
0.70246 -10.0457 -2.6983 0.000622253 4
0.803325 -11.4881 -2.65871 0.00014958 4
0.954367 -13.6481 -2.6594 7.39609e-05 4
1.17263 -16.7694 -2.6625 6.00879e-05 4
0.736551 -10.0299 -2.69475 0.000695323 4
0.843745 -11.4896 -2.65973 0.000119675 4
0.771965 -10.0326 -2.69617 0.000615994 4
0.88368 -11.4845 -2.65924 6.38321e-05 4
1.0493 -13.6369 -2.65857 4.67794e-05 4
1.28853 -16.7459 -2.66014 3.66739e-05 4
1.66328 -21.6163 -2.66199 4.1726e-05 4
0.806917 -10.029 -2.69596 0.00058746 4
0.922269 -11.4627 -2.65493 6.78276e-05 4
1.09677 -13.6316 -2.65828 3.91683e-05 4
1.73973 -21.6229 -2.66354 3.44677e-05 4
0.843001 -10.039 -2.69942 0.000619261 4
0.962899 -11.4669 -2.65665 7.7809e-05 4
1.14372 -13.6202 -2.65681 5.98469e-05 4
1.81394 -21.6017 -2.66169 3.11199e-05 4
0.877996 -10.0355 -2.69929 0.000616131 4
1.00441 -11.4804 -2.66059 0.000103754 4
1.19111 -13.6144 -2.65648 4.13532e-05 4
0.913251 -10.035 -2.69997 0.00069558 4
1.04241 -11.4542 -2.65534 8.97954e-05 4
1.23824 -13.606 -2.65568 4.57111e-05 4
0.946866 -10.0168 -2.69596 0.00060034 4
1.0822 -11.4485 -2.65487 0.000121733 4
0.982702 -10.0224 -2.69837 0.000590854 4
1.12292 -11.4524 -2.65668 0.000105778 4
1.33346 -13.5996 -2.65618 4.57209e-05 4
1.63723 -16.6978 -2.65735 3.87433e-05 4
1.01739 -10.016 -2.69759 0.000683027 4
1.16368 -11.4563 -2.6585 5.78834e-05 4
1.0512 -10.0015 -2.69467 0.00062589 4
1.20165 -11.4329 -2.65404 0.000165681 4
1.42801 -13.5866 -2.65552 3.91978e-05 4
1.75638 -16.7109 -2.66132 2.95754e-05 4
1.0859 -9.99594 -2.69416 0.000692661 4
1.24369 -11.4483 -2.65861 0.000145732 4
1.47604 -13.5872 -2.65663 0.000109983 4
1.12304 -10.0122 -2.69958 0.000638694 4
1.28343 -11.4421 -2.65818 0.000157724 4
1.52435 -13.5899 -2.65817 6.42547e-05 4
1.15668 -9.99692 -2.69654 0.000562474 4
1.32185 -11.4244 -2.65513 7.5874e-05 4
1.5727 -13.5925 -2.65973 3.70321e-05 4
1.1925 -10.0006 -2.69863 0.000598226 4
1.36264 -11.4274 -2.65692 0.000109827 4
1.61723 -13.5625 -2.65495 6.53579e-05 4
1.22651 -9.98917 -2.69669 0.000713972 4
1.40143 -11.4138 -2.65486 5.19229e-05 4
1.66794 -13.5843 -2.66035 5.88285e-05 4
1.25966 -9.97128 -2.69303 0.000739579 4
1.44161 -11.4115 -2.6555 0.000421412 4
1.29335 -9.95825 -2.69072 0.00045692 4
1.48353 -11.4226 -2.65926 0.000363525 4
1.75978 -13.5496 -2.65589 3.26896e-05 4
1.32614 -9.93897 -2.68674 0.00036696 4
1.52235 -11.4095 -2.65743 0.000357564 4
1.80958 -13.5622 -2.65958 0.000119875 4
2.22187 -16.6522 -2.66082 4.59438e-05 4
1.35996 -9.92796 -2.68503 0.00028779 4
1.56286 -11.4092 -2.65862 0.000393555 4
1.85482 -13.5406 -2.6566 5.34046e-05 4
1.3918 -9.90315 -2.67962 0.000947538 4
1.60024 -11.3863 -2.65457 0.000421561 4
1.90182 -13.5322 -2.65624 5.12303e-05 4
1.42261 -9.87226 -2.67259 0.000231974 4
1.63904 -11.3742 -2.65306 9.99049e-05 4
3.09168 -21.4548 -2.66152 2.99121e-05 4
1.45836 -9.87603 -2.67497 0.000372532 4
1.68075 -11.382 -2.65624 0.000133885 4
1.48907 -9.846 -2.66823 0.000514104 4
1.7221 -11.3868 -2.65875 7.79397e-05 4
2.04222 -13.5036 -2.65467 4.47049e-05 4
2.509 -16.59 -2.65748 3.11614e-05 4
1.5209 -9.82441 -2.6638 0.000551138 4
1.76226 -11.3835 -2.6594 8.59412e-05 4
1.55345 -9.80811 -2.66083 0.000764925 4
1.79931 -11.3604 -2.65545 4.1975e-05 4
2.13699 -13.4924 -2.65535 7.63421e-05 4
2.6256 -16.5774 -2.65833 4.70106e-05 4
1.58867 -9.80874 -2.66249 0.000283426 4
1.84097 -11.3665 -2.65835 0.000123937 4
2.1859 -13.4962 -2.65758 0.000161427 4
1.62275 -9.80224 -2.66225 0.000414762 4
1.877 -11.3381 -2.65322 0.000105956 4
2.23207 -13.4829 -2.65647 3.16344e-05 4
2.7399 -16.5504 -2.65701 6.08242e-05 4
1.65411 -9.77968 -2.65768 0.000606434 4
1.91969 -11.3499 -2.65755 0.000143953 4
2.27942 -13.4768 -2.65682 9.81863e-05 4
2.79589 -16.5303 -2.65533 3.93623e-05 4
1.68878 -9.77698 -2.65853 0.000247881 4
2.32425 -13.456 -2.65431 0.000105835 4
1.71886 -9.74812 -2.6523 0.000221457 4
1.99944 -11.3394 -2.65829 9.19863e-05 4
2.37284 -13.4571 -2.65614 8.72958e-05 4
2.91362 -16.5239 -2.65751 3.8862e-05 4
1.75303 -9.74292 -2.65253 0.000168584 4
2.03521 -11.3112 -2.65334 0.000123993 4
2.41832 -13.4404 -2.65451 9.82185e-05 4
1.7891 -9.74804 -2.65561 0.000148762 4
2.07871 -11.326 -2.65849 0.000188006 4
2.46727 -13.4431 -2.65673 0.000113509 4
3.02712 -16.4935 -2.65595 3.47811e-05 4
1.82313 -9.74182 -2.65563 0.000125631 4
2.1144 -11.2982 -2.65368 8.80105e-05 4
2.51179 -13.4216 -2.65419 9.38738e-05 4
3.08762 -16.4986 -2.65848 3.01819e-05 4
1.85743 -9.73701 -2.65607 0.000175235 4
2.15643 -11.3044 -2.65689 8.20171e-05 4
2.56126 -13.4266 -2.65693 7.86007e-05 4
1.89266 -9.7369 -2.65783 0.00012565 4
2.19503 -11.2925 -2.65587 9.60287e-05 4
3.20053 -16.4653 -2.65666 3.32606e-05 4
1.92586 -9.72632 -2.65676 0.000152114 4
2.23608 -11.293 -2.65782 0.000120047 4
2.65188 -13.393 -2.65388 3.9309e-05 4
1.95755 -9.70837 -2.6537 0.00024803 4
2.27573 -11.2864 -2.65811 0.000238114 4
1.99463 -9.71708 -2.65797 0.000221591 4
2.31119 -11.2592 -2.6536 0.000252143 4
2.74461 -13.3707 -2.65319 0.000149625 4
2.02649 -9.70026 -2.65529 0.000152148 4
2.35361 -11.2661 -2.65714 8.60566e-05 4
2.79348 -13.3716 -2.65529 4.58756e-05 4
2.05829 -9.68351 -2.65266 0.000310936 4
2.38844 -11.2367 -2.65216 4.80359e-05 4
2.84313 -13.3759 -2.65809 3.49567e-05 4
3.48984 -16.4184 -2.65852 3.43081e-05 4
2.09514 -9.6904 -2.65653 0.000119091 4
2.43217 -11.2492 -2.6571 0.000194162 4
2.889 -13.3621 -2.65735 5.46258e-05 4
2.12916 -9.68397 -2.65679 0.000162108 4
2.47052 -11.2366 -2.65613 0.000174161 4
2.93296 -13.3399 -2.65494 5.79098e-05 4
2.16141 -9.66959 -2.6549 7.60973e-05 4
2.51135 -11.2351 -2.65784 6.00611e-05 4
2.98224 -13.3418 -2.65738 5.79161e-05 4
2.1974 -9.67188 -2.65761 0.000155515 4
2.54961 -11.2222 -2.65686 6.80754e-05 4
3.02728 -13.3246 -2.65605 6.01083e-05 4
2.22556 -9.63995 -2.65096 0.000129054 4
2.58543 -11.1987 -2.65343 0.000174208 4
3.07479 -13.3184 -2.65692 3.38829e-05 4
2.265 -9.65689 -2.65778 0.000142301 4
2.62392 -11.1871 -2.65285 7.00902e-05 4
3.11814 -13.2943 -2.65428 3.27936e-05 4
2.295 -9.63342 -2.65351 4.96437e-05 4
2.66387 -11.1817 -2.65375 0.000150207 4
3.16724 -13.2947 -2.65655 4.48228e-05 4
3.88316 -16.2998 -2.65388 2.92164e-05 4
2.33231 -9.64062 -2.65772 8.27458e-05 4
2.70493 -11.1808 -2.65576 6.00881e-05 4
3.21472 -13.2881 -2.65745 4.59211e-05 4
2.36564 -9.63118 -2.65737 0.000420381 4
2.73934 -11.1526 -2.65131 8.21279e-05 4
3.25594 -13.2558 -2.65326 7.10763e-05 4
3.9967 -16.2717 -2.65378 4.87078e-05 4
2.39574 -9.60879 -2.65349 6.28964e-05 4
2.77805 -11.1422 -2.65112 6.0099e-05 4
3.30664 -13.2622 -2.65683 7.32713e-05 4
2.42992 -9.60297 -2.65421 2.97953e-05 4
2.82314 -11.1569 -2.65696 0.000112195 4
3.35068 -13.2418 -2.65507 5.1405e-05 4
2.4619 -9.58848 -2.65256 0.000311219 4
2.86271 -11.1495 -2.65756 0.000116212 4
4.16833 -16.2346 -2.65471 2.975e-05 4
2.49346 -9.57256 -2.65055 0.00012251 4
2.89639 -11.1194 -2.65278 0.000128246 4
3.44397 -13.2216 -2.65578 5.46982e-05 4
4.22246 -16.2103 -2.65313 3.79623e-05 4
2.93654 -11.1144 -2.65401 5.01006e-05 4
2.55984 -9.55346 -2.65014 0.000119217 4
2.97628 -11.1076 -2.65486 5.21093e-05 4
3.53256 -13.1837 -2.65305 7.33119e-05 4
2.59408 -9.54779 -2.65107 5.29896e-05 4
3.01229 -11.0871 -2.65244 0.000148325 4
3.58023 -13.1775 -2.65429 6.45654e-05 4
2.63365 -9.56142 -2.65739 0.000112611 4
3.05474 -11.0902 -2.65572 0.000144329 4
3.62919 -13.1757 -2.65648 3.06446e-05 4
2.66251 -9.53604 -2.6529 0.000158993 4
3.08935 -11.0648 -2.65221 5.01187e-05 4
3.67183 -13.151 -2.65407 0.000100701 4
2.69584 -9.5269 -2.65296 0.000132504 4
3.13346 -11.0734 -2.65688 0.000132325 4
4.56588 -16.1355 -2.65596 7.39354e-05 4
2.73087 -9.52368 -2.6547 0.000609566 4
3.16948 -11.0533 -2.6547 0.000154394 4
3.76309 -13.1235 -2.65375 5.69303e-05 4
2.76606 -9.52084 -2.65658 0.000291554 4
3.20851 -11.0438 -2.65508 0.000190503 4
3.80606 -13.1006 -2.65178 6.6791e-05 4
2.79364 -9.49199 -2.65124 8.28341e-05 4
3.24797 -11.0357 -2.65584 5.01369e-05 4
3.85478 -13.0974 -2.65386 3.9422e-05 4
2.82557 -9.47818 -2.65012 0.000129231 4
3.89972 -13.0813 -2.65334 5.69493e-05 4
2.86238 -9.48065 -2.65359 0.00010273 4
3.32012 -10.9968 -2.65199 0.000132385 4
3.9431 -13.0602 -2.65182 7.33851e-05 4
2.89149 -9.45765 -2.64996 0.000102738 4
3.35945 -10.9883 -2.65276 3.20963e-05 4
4.90042 -16.0285 -2.65467 4.57351e-05 4
2.93104 -9.46867 -2.6559 0.000178976 4
3.40172 -10.9892 -2.65583 0.000152471 4
4.03818 -13.0452 -2.65445 6.90192e-05 4
4.95801 -16.0167 -2.65557 3.23789e-05 4
2.96277 -9.45421 -2.65473 0.000251912 4
3.43944 -10.9753 -2.65535 8.22618e-05 4
4.07887 -13.0157 -2.65132 4.16352e-05 4
2.99605 -9.44474 -2.65499 0.000185633 4
3.47266 -10.9472 -2.65148 8.62824e-05 4
4.1244 -13.0018 -2.6514 6.68429e-05 4
5.06447 -15.9652 -2.65282 2.98176e-05 4
3.02511 -9.42212 -2.65158 0.00011603 4
3.51012 -10.9327 -2.65092 0.000236796 4
4.17429 -13.0014 -2.65428 3.17813e-05 4
3.05806 -9.41174 -2.65165 0.000354747 4
3.55349 -10.9365 -2.65483 0.000128444 4
4.21833 -12.9827 -2.65345 3.9457e-05 4
3.09563 -9.41543 -2.65572 0.000261936 4
3.58971 -10.9182 -2.6534 4.41565e-05 4
4.26175 -12.9622 -2.65228 4.93268e-05 4
3.12926 -9.40691 -2.65638 0.000142583 4
3.62578 -10.8995 -2.65192 3.61313e-05 4
4.31122 -12.96 -2.6549 4.71398e-05 4
3.15656 -9.37954 -2.65174 0.000179072 4
3.66505 -10.8905 -2.65283 9.43514e-05 4
4.35166 -12.9307 -2.65199 6.24945e-05 4
3.18773 -9.36391 -2.65046 0.000441081 4
3.70455 -10.882 -2.6539 0.000140536 4
4.39637 -12.9143 -2.65175 3.83781e-05 4
5.39455 -15.8464 -2.65127 4.27065e-05 4
3.22145 -9.35578 -2.65132 0.000271966 4
3.73821 -10.8566 -2.65086 0.000206808 4
4.44343 -12.9047 -2.65295 3.28992e-05 4
3.25306 -9.34153 -2.65049 0.000162529 4
3.77459 -10.8391 -2.64981 0.000156626 4
4.48677 -12.8843 -2.65196 8.88376e-05 4
3.28728 -9.33475 -2.6518 0.000318448 4
3.81912 -10.845 -2.65448 3.81559e-05 4
4.52826 -12.8587 -2.64994 4.38753e-05 4
5.56826 -15.8119 -2.65511 4.32395e-05 4
3.31932 -9.32173 -2.65138 0.000182458 4
3.84944 -10.8105 -2.64931 0.000100419 4
4.57664 -12.8527 -2.65197 9.21484e-05 4
3.34924 -9.30289 -2.64933 0.000318496 4
3.89475 -10.8181 -2.65448 0.000144617 4
4.6175 -12.8256 -2.64969 5.15649e-05 4
3.38902 -9.31125 -2.65506 0.000454556 4
3.92682 -10.7889 -2.65066 4.41926e-05 4
4.66487 -12.8166 -2.65119 4.38899e-05 4
3.97012 -10.7905 -2.65444 0.000120536 4
4.71221 -12.8074 -2.65267 6.25501e-05 4
5.78761 -15.7303 -2.65471 3.29631e-05 4
3.44703 -9.26879 -2.64975 0.000305296 4
4.00817 -10.7776 -2.65471 0.000130593 4
4.75679 -12.7906 -2.65261 4.49972e-05 4
5.83339 -15.6855 -2.65058 3.34829e-05 4
3.48059 -9.25997 -2.65069 0.000109517 4
4.0396 -10.7472 -2.65067 0.000154716 4
4.80028 -12.7709 -2.65199 3.07332e-05 4
3.51585 -9.25555 -2.65292 0.000119482 4
4.07517 -10.728 -2.64942 8.84173e-05 4
4.84424 -12.7526 -2.65167 5.818e-05 4
3.54509 -9.23529 -2.65064 0.000142725 4
4.12105 -10.7357 -2.65487 0.00011857 4
4.89321 -12.7473 -2.6541 9.66115e-05 4
6.00145 -15.6343 -2.6524 2.98898e-05 4
3.58396 -9.23999 -2.65557 0.000285472 4
4.15386 -10.7093 -2.6519 0.000174857 4
4.93485 -12.7228 -2.65258 8.45445e-05 4
6.05909 -15.6213 -2.65376 3.91716e-05 4
3.60729 -9.20471 -2.64903 0.000182584 4
4.1965 -10.7082 -2.65525 0.000102512 4
4.97947 -12.7061 -2.65271 8.12595e-05 4
3.64322 -9.20173 -2.65182 0.000112878 4
4.22531 -10.6719 -2.64989 9.85004e-05 4
5.02664 -12.6959 -2.65421 0.000101037 4
3.67595 -9.19054 -2.65227 8.96457e-05 4
4.26261 -10.6573 -2.64993 7.6395e-05 4
5.06763 -12.67 -2.65248 5.38189e-05 4
6.21868 -15.5478 -2.6522 3.19694e-05 4
3.71049 -9.18379 -2.65405 0.000242394 4
4.30452 -10.6541 -2.65285 6.63491e-05 4
5.11249 -12.6539 -2.65283 5.93173e-05 4
3.73491 -9.15212 -2.64864 0.000215847 4
4.33441 -10.6211 -2.64841 7.03766e-05 4
5.15548 -12.6331 -2.65224 0.000161493 4
3.77039 -9.14765 -2.65115 0.000139481 4
4.37489 -10.6143 -2.65049 5.83173e-05 4
5.20173 -12.6203 -2.65335 6.70214e-05 4
6.38439 -15.4897 -2.65355 4.02367e-05 4
3.80411 -9.1388 -2.65241 0.000132849 4
5.23991 -12.5881 -2.6504 0.000126366 4
3.83807 -9.1304 -2.65385 0.000259075 4
4.45014 -10.5865 -2.65124 9.45315e-05 4
5.28433 -12.5709 -2.65065 7.363e-05 4
6.48465 -15.4264 -2.65039 3.66361e-05 4
3.86252 -9.09954 -2.64878 0.000162765 4
4.48368 -10.5629 -2.64924 0.000112643 4
5.32551 -12.5461 -2.64933 8.35299e-05 4
3.89673 -9.09174 -2.65045 0.000159455 4
4.5285 -10.5658 -2.65391 4.62685e-05 4
5.37758 -12.5468 -2.65343 6.15552e-05 4
6.58909 -15.3735 -2.64914 3.76788e-05 4
3.92932 -9.08013 -2.65105 0.000142856 4
4.55823 -10.5335 -2.64977 9.85809e-05 4
5.41191 -12.5062 -2.64881 4.72709e-05 4
6.64968 -15.3665 -2.65192 3.87166e-05 4
3.95915 -9.06213 -2.64981 0.00014619 4
4.59236 -10.5115 -2.64827 0.000177059 4
5.45989 -12.4972 -2.65093 3.84805e-05 4
6.70463 -15.3463 -2.65246 3.87221e-05 4
3.99755 -9.06365 -2.65432 0.000139555 4
4.63649 -10.5123 -2.65254 0.000118721 4
5.50562 -12.4829 -2.65196 6.04761e-05 4
4.02089 -9.03107 -2.64887 0.00036553 4
4.66891 -10.4865 -2.65012 8.25085e-05 4
5.54291 -12.4496 -2.64897 5.71838e-05 4
4.05528 -9.0234 -2.65076 9.63743e-05 4
4.71141 -10.4834 -2.65346 0.00017107 4
5.58629 -12.4301 -2.64895 4.39924e-05 4
6.85726 -15.2581 -2.64948 3.30569e-05 4
4.08197 -8.99865 -2.64766 9.97052e-05 4
4.74636 -10.4633 -2.65256 7.84979e-05 4
6.90735 -15.2272 -2.64828 4.54597e-05 4
4.11836 -8.99528 -2.65088 0.000103037 4
4.78292 -10.4468 -2.65259 0.000173114 4
5.67756 -12.4009 -2.65111 6.1603e-05 4
4.14442 -8.96934 -2.64748 0.000189469 4
4.82094 -10.4335 -2.65347 0.000100657 4
5.71824 -12.3754 -2.64992 9.57152e-05 4
4.18339 -8.97132 -2.65236 0.000109701 4
4.85334 -10.408 -2.65129 7.65059e-05 4
5.76455 -12.3621 -2.65137 3.74101e-05 4
7.06744 -15.1562 -2.64866 2.99749e-05 4
4.21202 -8.95099 -2.65068 0.000123007 4
4.88295 -10.3768 -2.64766 8.25533e-05 4
5.80146 -12.3287 -2.64853 8.1431e-05 4
4.23851 -8.92629 -2.64774 5.31964e-05 4
4.92425 -10.3705 -2.65041 0.000110752 4
7.17434 -15.1091 -2.64913 3.56699e-05 4
4.27902 -8.93102 -2.65355 0.000156276 4
4.96523 -10.3632 -2.65298 4.63188e-05 4
5.89435 -12.3025 -2.65166 7.04424e-05 4
7.23067 -15.0916 -2.65046 3.7743e-05 4
4.30599 -8.90738 -2.65098 0.000149638 4
4.99363 -10.3298 -2.64887 0.000100702 4
7.27927 -15.0579 -2.64899 3.25773e-05 4
4.33921 -8.8967 -2.65229 0.0001563 4
5.02922 -10.3114 -2.64864 8.66116e-05 4
5.97655 -12.2537 -2.65009 8.69716e-05 4
7.33956 -15.0483 -2.6518 6.10265e-05 4
4.36494 -8.87074 -2.64908 7.98189e-05 4
5.06887 -10.3013 -2.65057 0.00018734 4
6.01751 -12.2292 -2.64931 4.29401e-05 4
4.39393 -8.85152 -2.6479 5.98687e-05 4
5.10131 -10.2765 -2.64876 8.25981e-05 4
4.4344 -8.85529 -2.65364 0.00011642 4
5.13768 -10.2597 -2.64903 8.05907e-05 4
6.09926 -12.1799 -2.6478 5.50635e-05 4
9.66154 -19.2936 -2.64939 3.46393e-05 4
4.45621 -8.8218 -2.64825 8.64901e-05 4
5.17141 -10.2376 -2.64798 9.06728e-05 4
6.14766 -12.1703 -2.65035 7.48947e-05 4
9.73022 -19.2626 -2.64977 3.27424e-05 4
4.49475 -8.82145 -2.65284 7.98432e-05 4
5.21299 -10.2311 -2.65097 8.66507e-05 4
6.18609 -12.1409 -2.64863 3.30454e-05 4
7.59808 -14.9121 -2.65076 9.885e-05 4
9.78617 -19.2064 -2.64673 3.44624e-05 4
4.51586 -8.78692 -2.64718 0.000149717 4
5.24413 -10.204 -2.64867 9.87504e-05 4
6.22908 -12.1205 -2.64891 6.16916e-05 4
7.64959 -14.8845 -2.65058 9.98992e-05 4
4.55079 -8.77938 -2.64968 0.000136419 4
5.27971 -10.1856 -2.64867 5.03874e-05 4
6.27867 -12.1128 -2.652 0.000232471 4
7.69893 -14.8528 -2.6497 0.000102502 4
4.58296 -8.76639 -2.65057 8.31889e-05 4
5.32398 -10.1838 -2.65303 9.87682e-05 4
6.31663 -12.0826 -2.65021 0.000236904 4
7.75202 -14.8283 -2.65014 9.06077e-05 4
4.61951 -8.76168 -2.65401 9.31786e-05 4
5.35079 -10.1487 -2.64872 9.67612e-05 4
6.35376 -12.051 -2.64812 0.00022591 4
4.6467 -8.73917 -2.65209 0.000159747 4
5.38561 -10.1289 -2.64844 0.0004274 4
6.39953 -12.0358 -2.64967 0.00019728 4
7.87761 -14.8156 -2.65765 5.47013e-05 4
4.67845 -8.72528 -2.65281 0.000232982 4
5.42718 -10.1216 -2.65149 0.000387114 4
6.44263 -12.0155 -2.65013 0.000182972 4
7.97466 -14.8727 -2.67286 3.89432e-05 4
10.4852 -19.5548 -2.7244 2.86896e-05 1
4.69947 -8.69149 -2.64751 0.000662384 4
5.45392 -10.0868 -2.64733 0.000371018 4
6.48051 -11.9855 -2.64849 4.62993e-05 4
8.04931 -14.8869 -2.68045 5.33226e-05 4
10.5543 -19.5197 -2.72463 2.86952e-05 1
4.73486 -8.68435 -2.65035 0.000629146 4
5.4973 -10.0828 -2.65129 0.000453731 4
6.53497 -11.986 -2.65363 0.000136475 4
8.13826 -14.9266 -2.6927 4.52462e-05 4
10.6242 -19.4862 -2.72511 2.87008e-05 1
4.7675 -8.67206 -2.65166 0.000695775 4
5.52495 -10.0498 -2.64769 0.000409403 4
6.60467 -12.0138 -2.66488 0.000130689 4
8.22583 -14.9627 -2.70438 4.44711e-05 4
10.6854 -19.4367 -2.72339 2.87064e-05 1
4.79345 -8.64762 -2.64929 0.00058596 4
5.55779 -10.0265 -2.64664 8.47117e-05 4
6.67043 -12.0338 -2.67445 0.00012404 4
8.32305 -15.0152 -2.71909 6.0149e-05 4
10.7593 -19.4103 -2.72494 2.8712e-05 1
4.82918 -8.6408 -2.65235 0.000669244 4
5.60054 -10.021 -2.65033 5.94862e-05 4
6.73953 -12.059 -2.68527 0.000130165 4
8.39598 -15.0228 -2.72577 7.85863e-05 1
4.85527 -8.61671 -2.65014 0.000645985 4
5.64935 -10.026 -2.65685 0.000147119 4
6.80659 -12.0797 -2.69517 0.000119806 4
8.44364 -14.9851 -2.72424 7.85974e-05 1
4.88035 -8.59097 -2.64745 0.000133203 4
5.7114 -10.0539 -2.6695 0.000234674 4
6.8725 -12.0978 -2.70452 0.000113475 4
8.50388 -14.9695 -2.7268 7.86085e-05 1
4.91776 -8.5869 -2.65147 0.000139874 4
5.75922 -10.0562 -2.67543 0.000251933 4
6.93619 -12.1113 -2.71294 0.000154867 4
8.54529 -14.9209 -2.72336 7.86196e-05 1
4.95845 -8.58828 -2.65722 0.000406128 4
5.80548 -10.0554 -2.6806 0.000215381 4
7.00273 -12.1291 -2.72239 0.000133451 4
8.59597 -14.8887 -2.72294 7.86307e-05 1
10.7765 -18.6654 -2.64637 2.88338e-05 4
4.99268 -8.57828 -2.6595 0.000384295 4
5.87111 -10.0876 -2.69463 0.00021656 4
7.04964 -12.1125 -2.72417 0.000168075 1
8.65829 -14.8764 -2.72621 7.86417e-05 1
5.0409 -8.592 -2.6692 0.0003928 4
5.91287 -10.0783 -2.69764 0.000208973 4
7.09578 -12.0945 -2.72567 0.000168093 1
8.5866 -14.6355 -2.68754 4.70145e-05 4
5.08056 -8.59076 -2.6743 0.000356541 4
5.97891 -10.1098 -2.71165 0.000248023 4
7.13606 -12.0664 -2.72495 0.000168112 1
8.42938 -14.2533 -2.62274 5.96437e-05 4
5.12715 -8.60087 -2.68301 0.000382728 4
6.02835 -10.1127 -2.71804 0.000253817 4
7.1715 -12.0303 -2.72242 0.00016813 1
8.30197 -13.9267 -2.56796 6.98528e-05 4
5.17585 -8.61406 -2.69274 0.000376308 4
6.07749 -10.1146 -2.72426 0.000207218 4
7.22651 -12.0269 -2.72736 0.000168149 1
8.2506 -13.7313 -2.53722 7.22919e-05 4
11.0942 -18.4639 -2.64485 4.87395e-05 4
5.22077 -8.62052 -2.70044 0.00040176 4
6.11989 -10.1051 -2.72744 0.000308507 1
7.25624 -11.9815 -2.72277 0.000168167 1
8.29531 -13.6972 -2.53625 6.64238e-05 4
11.1547 -18.4186 -2.64393 3.19257e-05 4
5.25167 -8.60361 -2.70087 0.000392336 4
6.15448 -10.0827 -2.72715 0.000308535 1
7.29603 -11.9528 -2.72203 0.000168186 1
8.33418 -13.6536 -2.53355 7.64272e-05 4
5.30821 -8.62838 -2.71445 0.000383043 4
6.18596 -10.0551 -2.72553 0.000308562 1
7.27906 -11.8319 -2.70027 0.000116233 4
5.34088 -8.61396 -2.71576 0.000328901 4
6.22007 -10.032 -2.72512 0.00030859 1
7.18268 -11.5845 -2.6495 0.000152528 4
11.1253 -17.9432 -2.59227 3.56921e-05 4
5.38871 -8.62374 -2.72476 0.000510515 1
6.26252 -10.0221 -2.72837 0.000308617 1
8.85192 -14.166 -2.6457 6.90745e-05 4
11.0076 -17.6158 -2.5505 3.82873e-05 4
5.42635 -8.6169 -2.72856 0.000510554 1
6.28625 -9.9824 -2.72351 0.000308645 1
6.9926 -11.1041 -2.55073 0.000128403 4
5.45645 -8.598 -2.72859 0.000510592 1
6.32035 -9.95929 -2.72321 0.000308672 1
6.98764 -11.0108 -2.53489 0.000171485 4
8.94568 -14.0961 -2.64424 6.33791e-05 4
11.0505 -17.4128 -2.53221 3.04498e-05 4
3.68674 -5.80937 -0.601963 0.00116153 8
3.67915 -5.79742 -0.359848 0.00124364 8
5.48096 -8.57034 -2.72587 0.00051063 1
6.35304 -9.93398 -2.72234 0.0003087 1
7.03045 -10.9932 -2.53648 0.00017896 4
8.99813 -14.07 -2.64521 4.9879e-05 4
3.70842 -5.7987 -0.602195 0.00119122 8
3.7083 -5.79851 -0.360717 0.00128884 8
5.51652 -8.55996 -2.72868 0.000510669 1
6.36887 -9.88255 -2.71432 0.000131407 4
7.06463 -10.9622 -2.53499 0.000166551 4
9.04793 -14.0396 -2.64543 7.327e-05 4
11.1652 -17.325 -2.53073 2.91464e-05 4
3.73282 -5.7922 -0.602869 0.00123441 8
3.72218 -5.77569 -0.360104 0.00133457 8
5.53374 -8.52121 -2.72247 0.000510707 1
6.29887 -9.69941 -2.67004 0.000227462 4
7.42044 -11.4265 -2.64834 0.000160245 4
11.2342 -17.2991 -2.53266 3.15629e-05 4
3.73986 -5.75889 -0.600757 0.00127816 8
3.74569 -5.76786 -0.360428 0.00138084 8
5.5753 -8.51996 -2.72827 0.000510745 1
6.23029 -9.52088 -2.62687 0.000240855 4
7.46099 -11.4016 -2.64859 0.000251998 4
9.14404 -13.9736 -2.64494 5.40581e-05 4
3.77626 -5.77073 -0.846781 0.00122804 8
3.7742 -5.76759 -0.603035 0.00132959 8
3.76716 -5.75683 -0.360559 0.00142764 8
5.60519 -8.50072 -2.72835 0.000510783 1
6.1669 -9.3526 -2.58636 0.000270564 4
9.19989 -13.9524 -2.64699 7.53799e-05 4
3.79407 -5.75401 -0.846267 0.00126329 8
3.79363 -5.75334 -0.602927 0.00137455 8
