VERSION 0.7
FIELDS x y z intensity label
SIZE 4 4 4 4 4
TYPE F F F F F
COUNT 1 1 1 1 1
WIDTH 1166
HEIGHT 1
VIEWPOINT 9.55449 49.0369 2.72845 -0.537698 -0.000696988 -0.000512021 0.843137
POINTS 1166
DATA ascii
12.8691 -11.266 -2.70896 8.06027e-05 1
16.5441 -14.4833 -2.69979 2.97223e-05 1
17.0054 -14.8871 -1.97734 0.000211518 10
17.09 -14.9612 -1.19037 0.000314683 10
17.0769 -14.9497 -0.396162 0.000316327 10
17.0719 -14.9453 0.396047 0.000316359 10
16.986 -14.8701 1.18312 0.000167009 10
16.9943 -14.8774 1.97605 0.000165406 10
17.1232 -14.9903 2.7943 0.000101621 10
17.1252 -14.992 3.60488 9.96046e-05 10
16.9913 -14.8748 4.38957 0.000155762 10
16.9805 -14.8653 5.21023 0.000151061 10
17.1073 -14.9763 6.09222 9.08275e-05 10
7.12543 -6.19405 -2.52979 0.000437033 4
8.86178 -7.70343 -2.71085 0.000313392 1
10.516 -9.14146 -2.70847 0.000171393 1
12.889 -11.2042 -2.7049 8.06111e-05 1
16.5986 -14.429 -2.70045 2.97265e-05 1
16.9324 -14.7191 -1.96286 0.000218595 10
16.936 -14.7223 -1.17606 0.000325964 10
16.9283 -14.7156 -0.391521 0.000327663 10
16.9314 -14.7183 0.391593 0.000327695 10
16.2521 -14.1277 1.12856 0.00019593 10
16.2378 -14.1153 1.88235 0.000194074 10
16.245 -14.1215 2.64291 0.000191261 10
16.2427 -14.1196 3.40872 0.000187523 10
16.2373 -14.1148 4.18201 0.000182903 10
16.2378 -14.1153 4.96719 0.000177456 10
16.2384 -14.1158 5.76522 0.000171242 10
7.14494 -6.16735 -2.52905 0.000497341 4
8.90072 -7.6829 -2.71454 0.000313413 1
10.5465 -9.10353 -2.70813 0.000171407 1
12.9482 -11.1766 -2.70912 8.06194e-05 1
16.6619 -14.3822 -2.70257 2.97307e-05 1
16.8522 -14.5465 -1.94767 0.000225823 10
16.8479 -14.5427 -1.1664 0.000150775 10
16.8349 -14.5315 -0.388185 0.00015163 10
16.8303 -14.5275 0.388079 0.000151717 10
16.181 -13.9671 1.12023 0.000202326 10
16.1755 -13.9623 1.86946 0.000200413 10
16.1717 -13.9591 2.62306 0.000197513 10
16.1735 -13.9606 3.38395 0.00019366 10
16.1588 -13.9479 4.14925 0.000188898 10
16.1581 -13.9473 4.92789 0.000183283 10
16.1655 -13.9537 5.722 0.000176879 10
7.14996 -6.12826 -2.52325 0.000516208 4
8.9345 -7.6578 -2.71668 0.000313433 1
10.5888 -9.07573 -2.71084 0.000171421 1
12.971 -11.1175 -2.70576 8.06278e-05 1
16.7055 -14.3184 -2.70151 2.9735e-05 1
16.7538 -14.3597 -1.93049 0.000233203 10
16.7675 -14.3715 -1.15736 0.000235719 10
16.7625 -14.3672 -0.385358 0.000237052 10
16.7618 -14.3666 0.385341 0.000237186 10
16.0884 -13.7895 1.11048 0.000208855 10
16.0889 -13.7898 1.85387 0.000206884 10
16.0939 -13.7941 2.6026 0.000203895 10
16.0983 -13.7979 3.35811 0.000199925 10
16.091 -13.7916 4.11943 0.000195019 10
16.0803 -13.7825 4.88947 0.000189233 10
16.0757 -13.7786 5.67317 0.000182634 10
7.17836 -6.10927 -2.52573 0.000418264 4
8.95402 -7.62047 -2.7145 0.000313454 1
10.6215 -9.03963 -2.71111 0.000171435 1
13.0211 -11.0818 -2.70812 8.06361e-05 1
16.6951 -14.2087 -2.69179 0.000236958 10
16.6963 -14.2097 -1.91814 0.000240737 10
16.6868 -14.2015 -1.14835 0.000243328 10
16.6841 -14.1993 -0.382414 0.000244699 10
16.686 -14.2009 0.382456 0.000244836 10
16.0271 -13.6401 1.10296 0.000215518 10
16.0211 -13.635 1.84057 0.000213486 10
16.01 -13.6256 2.58132 0.000210408 10
16.0152 -13.63 3.33084 0.000206319 10
16.0193 -13.6335 4.08887 0.000201265 10
16.0079 -13.6238 4.85297 0.000195306 10
16.0082 -13.6241 5.63253 0.000188508 10
7.20539 -6.08903 -2.52774 0.000493654 4
8.97325 -7.58299 -2.71229 0.000313475 1
10.6447 -8.9955 -2.709 0.000171449 1
13.047 -11.0256 -2.70549 8.06444e-05 1
16.6147 -14.0405 -2.6709 0.000244535 10
16.6059 -14.033 -1.90211 0.000248425 10
16.7143 -14.1247 -1.14685 0.000530545 10
16.7324 -14.14 -0.382387 0.00053329 10
16.7189 -14.1286 0.382079 0.000533344 10
15.9562 -13.484 1.09483 0.000222315 10
15.955 -13.483 1.82756 0.000220223 10
15.9422 -13.4722 2.5628 0.000217053 10
15.949 -13.478 3.30726 0.000212842 10
15.9271 -13.4594 4.05332 0.000207638 10
15.9456 -13.4751 4.81978 0.000201501 10
15.9223 -13.4554 5.58574 0.000194502 10
7.22256 -6.06045 -2.52633 0.000512524 4
8.99797 -7.55019 -2.71178 0.000313495 1
10.6782 -8.9601 -2.70955 0.000171462 1
13.0926 -10.986 -2.70698 8.06527e-05 1
16.5274 -13.8682 -2.64908 0.000252264 10
16.5439 -13.882 -1.88945 0.000256269 10
16.7907 -14.0891 -1.14871 0.000526979 10
16.7975 -14.0948 -0.382747 0.000529707 10
16.7972 -14.0946 0.382741 0.00052976 10
15.8738 -13.3197 1.08598 0.000229247 10
15.8804 -13.3252 1.81367 0.000227093 10
15.8651 -13.3124 2.54293 0.00022383 10
15.8603 -13.3083 3.27921 0.000219495 10
15.8627 -13.3104 4.02509 0.000214139 10
15.8596 -13.3078 4.77973 0.000207822 10
15.8638 -13.3113 5.54889 0.000200615 10
7.24725 -6.03818 -2.52758 0.00042587 4
9.01975 -7.51497 -2.71042 0.000313516 1
10.7151 -8.92746 -2.71098 0.000171476 1
13.1385 -10.9466 -2.70856 8.06609e-05 1
16.468 -13.7207 -2.63187 0.000260149 10
16.4694 -13.7218 -1.87546 0.000264268 10
16.8766 -14.061 -1.15122 0.000523402 10
16.8801 -14.064 -0.38351 0.000526113 10
16.863 -14.0497 0.383119 0.000526165 10
15.8067 -13.1696 1.07824 0.000236316 10
15.7952 -13.1601 1.79869 0.000234098 10
15.8079 -13.1707 2.52637 0.00023074 10
15.7903 -13.156 3.25523 0.00022628 10
15.7863 -13.1526 3.99402 0.000220768 10
15.7857 -13.1522 4.74359 0.000214267 10
15.7799 -13.1473 5.50346 0.000206851 10
7.2688 -6.01328 -2.52776 0.000143221 4
9.04829 -7.4854 -2.71113 0.000313536 1
10.7376 -8.88289 -2.70881 0.00017149 1
13.1774 -10.9013 -2.70872 8.06691e-05 1
16.3938 -13.5621 -2.61242 0.000268188 10
16.3825 -13.5528 -1.86017 0.000272426 10
16.942 -14.0156 -1.15234 0.000519816 10
16.9551 -14.0265 -0.384097 0.000522509 10
16.9424 -14.016 0.383811 0.000522562 10
15.7269 -13.0105 1.78573 0.00024124 10
15.7211 -13.0056 2.50522 0.000237785 10
15.7327 -13.0152 3.23397 0.000233196 10
15.7336 -13.016 3.96917 0.000227526 10
15.7129 -12.9988 4.70803 0.000220838 10
15.7236 -13.0077 5.46794 0.000213209 10
7.28068 -5.98042 -2.52461 0.000388225 4
9.07494 -7.45424 -2.7113 0.000313557 1
10.7836 -8.85776 -2.71261 0.000171503 1
13.2023 -10.8445 -2.70603 8.06773e-05 1
16.3117 -13.3986 -2.59188 0.000276385 10
16.3083 -13.3958 -1.84642 0.000280742 10
17.0323 -13.9905 -1.15515 0.000516221 10
17.0381 -13.9953 -0.384869 0.000518897 10
17.0288 -13.9876 0.384659 0.000518949 10
15.6644 -12.8668 1.77351 0.000248518 10
15.6566 -12.8605 2.48778 0.000244965 10
15.6565 -12.8604 3.20905 0.000240245 10
15.659 -12.8624 3.93899 0.000234414 10
15.6416 -12.8481 4.6732 0.000227536 10
15.6459 -12.8517 5.42529 0.000219689 10
7.3069 -5.95936 -2.52647 0.000471172 4
9.10405 -7.42508 -2.71224 0.000313577 1
10.7956 -8.80469 -2.70788 0.000171517 1
13.2357 -10.7948 -2.70514 8.06854e-05 1
16.2445 -13.2487 -2.57383 0.000284738 10
16.2366 -13.2423 -1.83306 0.000289217 10
17.1037 -13.9494 -1.15669 0.000512617 10
17.1082 -13.9531 -0.385351 0.000515275 10
17.1171 -13.9603 0.385549 0.000515327 10
15.9437 -13.0033 1.07823 3.66813e-05 10
15.5861 -12.7117 1.75962 0.000255933 10
15.5829 -12.7091 2.469 0.00025228 10
15.5863 -12.7119 3.18555 0.000247428 10
15.575 -12.7027 3.9067 0.000241432 10
15.5746 -12.7024 4.63993 0.000234361 10
15.5705 -12.699 5.38375 0.000226293 10
7.33504 -5.9398 -2.52902 0.000407114 4
9.13485 -7.39726 -2.71371 0.000313597 1
10.8343 -8.77341 -2.70987 0.00017153 1
13.2829 -10.7563 -2.70709 8.06935e-05 1
16.1838 -13.1054 -2.55694 0.00029325 10
16.1659 -13.0909 -1.81991 0.000297852 10
25.6363 -20.7599 -1.72881 0.000129234 10
33.6131 -27.2194 -0.754967 4.39993e-05 10
33.6229 -27.2273 0.755186 4.4005e-05 10
15.9725 -12.9343 1.07713 3.66693e-05 10
15.5322 -12.5778 1.74857 0.000263486 10
15.5145 -12.5634 2.45121 0.000259731 10
15.5272 -12.5737 3.16449 0.000254744 10
15.5096 -12.5594 3.87926 0.000248582 10
15.5157 -12.5644 4.60929 0.000241313 10
15.5188 -12.5669 5.35066 0.000233021 10
7.3559 -5.91429 -2.52908 0.000425985 4
9.16309 -7.36732 -2.71444 0.000313617 1
10.8739 -8.74286 -2.71215 0.000171544 1
13.3082 -10.7001 -2.70462 8.07016e-05 1
16.1055 -12.9492 -2.53743 0.000301921 10
16.1051 -12.9488 -1.80796 0.00030665 10
25.7332 -20.69 -1.73047 0.000128189 10
16.0308 -12.8891 1.07802 3.66574e-05 10
15.4626 -12.4323 1.73584 0.000271179 10
15.4555 -12.4266 2.43501 0.00026732 10
15.445 -12.4181 3.13888 0.000262196 10
15.4422 -12.4158 3.85155 0.000255864 10
15.4475 -12.4201 4.57612 0.000248395 10
15.4572 -12.4279 5.31444 0.000239875 10
7.36308 -5.87787 -2.52448 0.000542877 4
9.18482 -7.33215 -2.71328 0.000313637 1
10.9004 -8.70169 -2.71116 0.000171557 1
13.3468 -10.6546 -2.70489 8.07097e-05 1
16.0346 -12.8003 -2.5192 0.000310752 10
16.0228 -12.7908 -1.7937 0.000315608 10
25.8601 -20.6438 -1.73415 0.000127143 10
16.0729 -12.8308 1.07783 3.66454e-05 10
15.4031 -12.2962 1.72433 0.000279011 10
15.3831 -12.2802 2.41684 0.000275047 10
15.3957 -12.2902 3.12013 0.000269783 10
15.3766 -12.275 3.82448 0.000263279 10
15.3818 -12.2791 4.54392 0.000255607 10
15.389 -12.2849 5.27623 0.000246854 10
7.39336 -5.85991 -2.52783 0.000377018 4
9.20931 -7.29921 -2.71297 0.000313657 1
10.9371 -8.66865 -2.71274 0.000171571 1
13.3838 -10.6078 -2.70486 8.07177e-05 1
15.9656 -12.6541 -2.50139 0.000319744 10
15.9597 -12.6495 -1.78168 0.00032473 10
25.9797 -20.5912 -1.73733 0.000126095 10
16.1244 -12.78 1.07828 3.66335e-05 10
15.3252 -12.1466 1.71085 0.000286984 10
15.3328 -12.1527 2.40226 0.000282913 10
15.315 -12.1385 3.09517 0.000277507 10
15.3284 -12.1492 3.80192 0.000270827 10
15.3171 -12.1402 4.51225 0.000262949 10
15.3141 -12.1378 5.23599 0.000253959 10
7.4009 -5.82394 -2.52344 0.000343104 4
9.22528 -7.25958 -2.71019 0.000313677 1
10.9548 -8.62055 -2.70964 0.000171584 1
13.4315 -10.5696 -2.70703 8.07257e-05 1
15.9018 -12.5135 -2.48454 0.000328898 10
15.8964 -12.5093 -1.76973 0.000334016 10
26.0972 -20.5365 -1.74039 0.000125046 10
16.1717 -12.7259 1.07847 3.66217e-05 10
15.2645 -12.012 1.69938 0.000295098 10
15.2739 -12.0194 2.38645 0.000290918 10
15.2697 -12.016 3.0775 0.000285368 10
15.247 -11.9982 3.77133 0.00027851 10
15.2639 -12.0115 4.48422 0.000270421 10
15.2509 -12.0013 5.20002 0.000261192 10
7.4213 -5.79815 -2.52348 0.000361975 4
9.26107 -7.23554 -2.71327 0.000313697 1
10.9887 -8.5853 -2.7106 0.000171597 1
13.4677 -10.5222 -2.70692 8.07336e-05 1
15.832 -12.3693 -2.46688 0.000338214 10
15.8347 -12.3714 -1.75805 0.000343467 10
26.2194 -20.4849 -1.74376 0.000123997 10
16.2104 -12.6649 1.07809 3.66099e-05 10
15.1938 -11.8707 1.68689 0.000303353 10
15.1978 -11.8738 2.36806 0.000299063 10
15.209 -11.8826 3.0569 0.000293366 10
15.1974 -11.8735 3.74878 0.000286327 10
15.1893 -11.8672 4.4501 0.000278025 10
15.1841 -11.8631 5.16309 0.000268552 10
7.46111 -5.78743 -2.53014 0.000531679 4
9.27443 -7.19399 -2.70981 0.000313716 1
11.0149 -8.544 -2.70969 0.00017161 1
13.5093 -10.4789 -2.70791 8.07416e-05 1
15.7789 -12.2394 -2.45193 0.000347694 10
15.779 -12.2394 -1.7471 0.000353083 10
26.3229 -20.4181 -1.74589 0.000122946 10
16.2594 -12.6121 1.07842 3.65982e-05 10
15.1424 -11.7457 1.67662 0.000311751 10
15.1438 -11.7467 2.35324 0.000307348 10
15.137 -11.7414 3.03417 0.000301503 10
15.1278 -11.7344 3.72149 0.000294281 10
15.1409 -11.7445 4.42388 0.000285761 10
15.1403 -11.744 5.13422 0.00027604 10
7.46364 -5.74778 -2.52417 0.00054302 4
9.31509 -7.17359 -2.71436 0.000313736 1
11.0428 -8.50411 -2.70924 0.000171623 1
13.545 -10.431 -2.70774 8.07495e-05 1
15.7196 -12.1057 -2.43613 0.000357337 10
15.7064 -12.0955 -1.73438 0.000362865 10
15.6956 -12.0873 -1.03822 0.000242179 10
15.6954 -12.0871 -0.345788 0.000243496 10
15.704 -12.0937 0.345978 0.000243616 10
15.6889 -12.0821 1.03778 0.000242539 10
15.0774 -11.6111 1.66492 0.000320292 10
15.0689 -11.6046 2.33529 0.000315776 10
15.0738 -11.6084 3.01337 0.000309779 10
15.0651 -11.6017 3.69607 0.000302369 10
15.061 -11.5985 4.38867 0.000293629 10
15.0613 -11.5987 5.09366 0.000283657 10
7.48453 -5.72236 -2.52447 0.000328092 4
9.33699 -7.13867 -2.71346 0.000313756 1
11.0642 -8.45921 -2.70723 0.000171636 1
13.5795 -10.3823 -2.70738 8.07574e-05 1
15.6378 -11.956 -2.41697 0.000367145 10
15.6405 -11.958 -1.72248 0.000372813 10
15.7357 -12.0309 -1.03809 0.000465534 10
15.7416 -12.0354 -0.345879 0.00046788 10
15.7524 -12.0437 0.346116 0.000467927 10
15.7431 -12.0365 1.03857 0.000465673 10
15.0134 -11.4786 1.65342 0.000328976 10
15.0053 -11.4724 2.31922 0.000324344 10
15.0126 -11.478 2.99309 0.000318194 10
15.0063 -11.4732 3.6718 0.000310595 10
15.001 -11.4692 4.35952 0.000301631 10
15.0122 -11.4777 5.06348 0.000291403 10
7.50772 -5.69867 -2.52557 0.000441249 4
9.36973 -7.11202 -2.71575 0.000313775 1
11.1146 -8.43646 -2.71235 0.00017165 1
13.6103 -10.3308 -2.70631 8.07652e-05 1
15.5915 -11.8346 -2.40342 0.000377119 10
15.5788 -11.8249 -1.71113 0.00038293 10
15.5837 -11.8287 -1.02533 0.00025556 10
15.5692 -11.8177 -0.341182 0.000256943 10
15.5671 -11.8161 0.341136 0.000257068 10
15.5675 -11.8164 1.02427 0.000255933 10
14.9529 -11.3499 1.64239 0.000337805 10
14.9462 -11.3448 2.30395 0.000333055 10
14.9637 -11.358 2.97542 0.000326749 10
14.9599 -11.3552 3.65072 0.000318957 10
14.9457 -11.3444 4.33191 0.000309767 10
14.9452 -11.344 5.0275 0.000299278 10
7.52632 -5.67149 -2.52515 0.000418643 4
9.38361 -7.07106 -2.7126 0.000313794 1
11.1253 -8.38353 -2.7078 0.000171662 1
13.6353 -10.2749 -2.70413 8.0773e-05 1
15.534 -11.7057 -2.38824 0.000387259 10
15.5172 -11.6931 -1.69988 0.000393215 10
15.6465 -11.7905 -1.02675 0.000480755 10
15.6348 -11.7817 -0.341717 0.000483171 10
15.6385 -11.7845 0.341797 0.000483219 10
15.6376 -11.7838 1.02617 0.000480899 10
14.978 -11.2868 1.64081 0.00063901 10
15.0008 -11.3039 2.30627 0.000629783 10
14.9914 -11.2968 2.97307 0.000617618 10
14.9811 -11.289 3.64625 0.000602654 10
14.9906 -11.2962 4.33345 0.000585054 10
14.987 -11.2935 5.02828 0.000565015 10
7.55144 -5.6492 -2.52694 0.000546904 4
9.41243 -7.0414 -2.71381 0.000313814 1
11.1653 -8.35271 -2.71041 0.000171675 1
13.6713 -10.2275 -2.70419 8.07808e-05 1
15.4558 -11.5624 -2.37 0.000397566 10
15.4688 -11.5722 -1.69014 0.000403669 10
15.4652 -11.5695 -1.0122 0.000500416 10
15.4554 -11.5622 -0.336912 0.000502922 10
15.4639 -11.5685 0.337095 0.000502972 10
15.4768 -11.5781 1.01296 0.000500566 10
15.0537 -11.2616 1.64479 0.000634264 10
15.0524 -11.2606 2.30814 0.000625101 10
15.0618 -11.2677 2.97923 0.000613022 10
15.0645 -11.2697 3.65696 0.000598162 10
15.0592 -11.2657 4.3419 0.000580686 10
15.0565 -11.2637 5.03835 0.000560787 10
7.5645 -5.61789 -2.52473 0.000528072 4
9.43943 -7.01034 -2.71452 0.000313833 1
11.2016 -8.31905 -2.71216 0.000171688 1
13.7152 -10.1858 -2.70581 8.07885e-05 1
15.4017 -11.4383 -2.35557 0.00040804 10
15.3952 -11.4335 -1.67773 0.000414292 10
15.5475 -11.5466 -1.01494 0.000496643 10
15.5434 -11.5435 -0.337948 0.000499132 10
15.5389 -11.5402 0.33785 0.000499181 10
15.542 -11.5425 1.01458 0.000496792 10
15.1365 -11.2413 1.64953 0.000629512 10
15.1341 -11.2396 2.31464 0.000620413 10
15.1354 -11.2406 2.986 0.000608419 10
15.1222 -11.2307 3.66142 0.000593664 10
15.1221 -11.2307 4.3487 0.000576312 10
15.119 -11.2283 5.04612 0.000556554 10
7.57929 -5.58793 -2.52315 0.000546959 4
9.45451 -6.97047 -2.71184 0.000313852 1
11.2202 -8.27227 -2.70966 0.000171701 1
13.7408 -10.1306 -2.70387 8.07962e-05 1
15.3495 -11.3166 -2.34152 0.000418682 10
15.3412 -11.3105 -1.66753 0.000425085 10
15.3669 -11.3294 -1.00056 0.000517192 10
15.3598 -11.3242 -0.333095 0.000519774 10
15.3642 -11.3275 0.333191 0.000519826 10
15.351 -11.3177 0.999524 0.000517347 10
15.198 -11.2049 1.65196 0.000624754 10
15.2021 -11.2079 2.31904 0.00061572 10
15.1907 -11.1995 2.98918 0.000603811 10
15.1942 -11.2021 3.66937 0.000589161 10
15.1813 -11.1926 4.35445 0.000571932 10
15.1984 -11.2053 5.05956 0.000552315 10
7.60042 -5.56266 -2.5237 0.000467768 4
9.47243 -6.93277 -2.71003 0.000313871 1
11.2559 -8.23806 -2.71131 0.000171714 1
13.778 -10.084 -2.70424 8.0804e-05 1
15.2933 -11.193 -2.32698 0.000429493 10
15.2732 -11.1783 -1.65588 0.00043605 10
15.4319 -11.2944 -1.00222 0.00051324 10
15.4396 -11.3 -0.333967 0.000515804 10
15.417 -11.2835 0.333478 0.000515855 10
15.4155 -11.2825 1.00116 0.000513394 10
15.2625 -11.1704 1.65472 0.00061999 10
15.2619 -11.17 2.3222 0.000611021 10
15.2533 -11.1638 2.99382 0.000599198 10
15.2567 -11.1662 3.67502 0.000584653 10
15.2587 -11.1676 4.36544 0.000567547 10
15.2629 -11.1707 5.06799 0.000548072 10
7.63146 -5.54458 -2.52757 0.000520607 4
9.50815 -6.90808 -2.71333 0.00031389 1
11.2686 -8.18714 -2.70748 0.000171727 1
13.8063 -10.0308 -2.70291 8.08116e-05 1
15.2334 -11.0677 -2.31198 0.000440472 10
15.2262 -11.0625 -1.64659 0.000447185 10
15.2524 -11.0815 -0.988043 0.000534732 10
15.2379 -11.071 -0.328767 0.000537394 10
15.2454 -11.0764 0.328929 0.000537447 10
15.2392 -11.072 0.987192 0.000534892 10
15.2126 -11.0526 1.64512 0.000349485 10
14.606 -10.6119 2.21675 0.000388343 10
14.6028 -10.6096 2.85885 0.000381052 10
14.606 -10.6119 3.50934 0.000372044 10
15.2197 -11.0577 4.34322 0.000320442 10
15.2139 -11.0535 5.03889 0.000309582 10
7.64124 -5.51104 -2.52442 0.000569679 4
8.87581 -6.40143 -2.52649 0.000287446 4
11.2942 -8.14564 -2.70678 0.000171739 1
13.8617 -9.99737 -2.70691 8.08193e-05 1
15.1611 -10.9345 -2.2952 0.000451622 10
15.1676 -10.9392 -1.63611 0.000458492 10
15.317 -11.047 -0.989727 0.000530591 10
15.3076 -11.0402 -0.329438 0.000533233 10
15.313 -11.0441 0.329555 0.000533287 10
15.3248 -11.0526 0.990227 0.00053075 10
15.1529 -10.9286 1.63452 0.000358315 10
14.6223 -10.5459 2.21363 0.000702498 10
14.6242 -10.5473 2.85581 0.000689064 10
14.6076 -10.5353 3.50086 0.000672533 10
15.141 -10.92 4.30987 0.000328579 10
15.1476 -10.9248 5.00427 0.00031746 10
7.65983 -5.4839 -2.52422 0.000433883 4
8.89386 -6.36738 -2.52528 0.000223072 4
11.3411 -8.1194 -2.7112 0.000171752 1
13.8882 -9.94301 -2.7053 8.08268e-05 1
15.1043 -10.8136 -2.28087 0.00046294 10
15.1054 -10.8144 -1.62533 0.00046997 10
15.1308 -10.8326 -0.975241 0.000553085 10
15.1384 -10.838 -0.324979 0.000555829 10
15.1235 -10.8274 0.324661 0.000555885 10
15.1371 -10.8371 0.975651 0.000553251 10
15.1133 -10.8201 1.62617 0.000367279 10
14.6774 -10.508 2.2164 0.000697066 10
14.6744 -10.5058 2.85843 0.00068373 10
14.6832 -10.5121 3.51017 0.000667319 10
15.0891 -10.8028 4.28434 0.00033684 10
15.1057 -10.8146 4.97792 0.000325458 10
7.68275 -5.45985 -2.52548 0.000411266 4
8.90293 -6.32699 -2.52157 0.000315079 4
11.3694 -8.07979 -2.71121 0.000171764 1
13.9193 -9.89191 -2.7046 8.08344e-05 1
15.0542 -10.6985 -2.26765 0.00047443 10
15.1221 -10.7467 -1.62308 8.53206e-05 10
15.2062 -10.8065 -0.977665 0.000548745 10
15.1991 -10.8015 -0.325473 0.000551469 10
15.1896 -10.7947 0.325269 0.000551524 10
15.2067 -10.8069 0.977702 0.00054891 10
15.0403 -10.6886 1.61429 0.000376379 10
14.7412 -10.476 2.2205 0.000691629 10
14.7393 -10.4747 2.86395 0.00067839 10
14.7544 -10.4854 3.51841 0.0006621 10
15.0367 -10.686 4.25883 0.000345227 10
15.0472 -10.6935 4.94633 0.000333578 10
7.7139 -5.44156 -2.52946 0.000482979 4
8.9361 -6.30373 -2.52472 0.000312797 4
11.383 -8.02981 -2.70776 0.000171777 1
13.9512 -9.84147 -2.70411 8.08419e-05 1
15.0023 -10.583 -2.25425 0.000486091 10
15.1703 -10.7015 -1.62423 8.53351e-05 10
15.2749 -10.7752 -0.979657 0.000544402 10
15.2775 -10.7771 -0.326343 0.000547106 10
15.2598 -10.7646 0.325965 0.000547161 10
15.2633 -10.7671 0.978918 0.000544566 10
14.9866 -10.5719 1.60456 0.000385614 10
14.8023 -10.4419 2.2242 0.000686188 10
14.8101 -10.4474 2.87059 0.000673047 10
14.8165 -10.4519 3.52452 0.000656878 10
14.9813 -10.5682 4.23268 0.000353739 10
14.9947 -10.5776 4.9169 0.00034182 10
7.72082 -5.40618 -2.52552 0.000509417 4
8.94773 -6.26527 -2.52181 0.000351917 4
11.4074 -7.98755 -2.70691 0.000171789 1
13.998 -9.8015 -2.70653 8.08494e-05 1
14.9568 -10.4729 -2.24191 0.000497923 10
14.9445 -10.4643 -1.59613 0.000505446 10
14.9437 -10.4637 -0.95607 0.000510585 10
14.9521 -10.4696 -0.318611 0.000513285 10
14.9503 -10.4683 0.318571 0.000513513 10
14.9302 -10.4543 0.955208 0.000511268 10
14.9337 -10.4567 1.59497 0.000394984 10
14.8826 -10.4209 2.23079 0.000680743 10
14.8772 -10.4171 2.87653 0.0006677 10
14.869 -10.4114 3.52834 0.000651652 10
14.9362 -10.4585 4.2096 0.000362377 10
14.9394 -10.4607 4.88675 0.000350183 10
7.73333 -5.3748 -2.52346 0.000475479 4
8.98373 -6.24385 -2.5258 0.000363439 4
11.444 -7.95378 -2.70899 0.000171802 1
14.0151 -9.74075 -2.70325 8.08569e-05 1
14.9023 -10.3574 -2.22831 0.000509927 10
14.9059 -10.3598 -1.58813 0.000517619 10
14.884 -10.3447 -0.949937 0.000522873 10
14.888 -10.3474 -0.316472 0.000525632 10
14.8911 -10.3496 0.316538 0.000525864 10
14.9009 -10.3564 0.951011 0.000523567 10
14.8896 -10.3485 1.5864 0.000404489 10
14.8762 -10.3393 2.22441 0.000398836 10
14.8774 -10.3401 2.86958 0.000391335 10
14.8875 -10.3471 3.52412 0.000382069 10
14.8795 -10.3416 4.18342 0.000371141 10
14.8857 -10.3459 4.85737 0.00035867 10
7.74984 -5.34626 -2.52275 0.000498145 4
9.00551 -6.21249 -2.52581 0.000248441 4
11.4805 -7.91986 -2.71107 0.000171814 1
14.051 -9.69317 -2.70364 8.08643e-05 1
14.8539 -10.247 -2.21571 0.000522103 10
14.8359 -10.2346 -1.57686 0.000529965 10
14.8446 -10.2406 -0.945131 0.000535336 10
14.8469 -10.2422 -0.314836 0.000538155 10
14.8278 -10.229 0.314432 0.000538391 10
14.828 -10.2292 0.944075 0.000536041 10
14.8292 -10.23 1.57615 0.00041413 10
14.8439 -10.2402 2.21422 0.00040835 10
14.8364 -10.2349 2.85476 0.00040068 10
14.8272 -10.2286 3.50139 0.000391205 10
14.8257 -10.2275 4.15821 0.000380031 10
14.8337 -10.2331 4.8287 0.000367278 10
7.77551 -5.32401 -2.52504 0.000437785 4
9.01427 -6.1722 -2.52221 0.000282963 4
11.5099 -7.88098 -2.7115 0.000171827 1
14.0951 -9.65114 -2.70563 8.08717e-05 1
14.7912 -10.1277 -2.20107 0.000534451 10
14.8648 -10.1781 -1.57614 0.000904266 10
14.8549 -10.1714 -0.943521 0.000913115 10
14.8412 -10.162 -0.313962 0.000917611 10
14.8419 -10.1624 0.313975 0.000917703 10
14.857 -10.1728 0.943653 0.00091339 10
14.7805 -10.1204 1.56721 0.000423908 10
14.7832 -10.1223 2.19988 0.000417999 10
14.7834 -10.1224 2.83774 0.000410157 10
14.7832 -10.1223 3.48263 0.000400471 10
14.7708 -10.1138 4.13289 0.000389047 10
14.7738 -10.1158 4.79768 0.000376009 10
7.78897 -5.29338 -2.52339 0.000464226 4
9.04513 -6.14707 -2.52482 0.000289881 4
11.5282 -7.83455 -2.70935 0.000171839 1
14.1316 -9.6038 -2.70617 8.08791e-05 1
14.7398 -10.0171 -2.1882 0.000546972 10
14.9268 -10.1443 -1.57896 0.000896877 10
14.9106 -10.1332 -0.944806 0.000905658 10
14.9242 -10.1425 -0.314967 0.000910119 10
14.9293 -10.146 0.315075 0.00091021 10
14.9251 -10.1431 0.945726 0.000905931 10
14.7347 -10.0137 1.55863 0.000433823 10
14.7409 -10.0179 2.18837 0.000427782 10
14.7276 -10.0088 2.8203 0.000419767 10
14.7288 -10.0097 3.46157 0.000409867 10
14.7225 -10.0054 4.10957 0.00039819 10
14.7318 -10.0117 4.77266 0.000384864 10
7.8184 -5.27358 -2.52695 0.000505766 4
9.05615 -6.10846 -2.52193 0.000292199 4
11.554 -7.79328 -2.70901 0.000171851 1
14.1466 -9.54199 -2.70265 8.08864e-05 1
14.6979 -9.91384 -2.17683 0.000559666 10
14.9841 -10.1069 -1.58128 0.000889486 10
14.9762 -10.1016 -0.946726 0.000898199 10
14.9897 -10.1107 -0.315603 0.000902626 10
14.9943 -10.1138 0.315699 0.000902717 10
14.9839 -10.1067 0.947208 0.000898471 10
14.6842 -9.9046 1.54963 0.000443873 10
14.6756 -9.89885 2.17353 0.0004377 10
14.6796 -9.90153 2.80448 0.000429509 10
14.6687 -9.8942 3.43931 0.000419392 10
14.6692 -9.89451 4.08504 0.000407459 10
14.6636 -9.89073 4.73935 0.000393841 10
7.82647 -5.23936 -2.52363 0.000592606 4
9.08539 -6.08214 -2.52415 0.000441775 4
11.591 -7.75947 -2.71131 0.000171863 1
14.1822 -9.49416 -2.70311 8.08937e-05 1
14.631 -9.79461 -2.16185 0.000572533 10
15.0564 -10.0794 -1.58518 0.000882095 10
15.0421 -10.0698 -0.948659 0.00089074 10
15.0631 -10.0839 -0.316406 0.000895133 10
15.0523 -10.0766 0.316177 0.000895223 10
15.058 -10.0805 0.949664 0.00089101 10
14.6351 -9.79737 1.54083 0.000454061 10
14.6381 -9.79937 2.1629 0.000447753 10
14.6188 -9.78643 2.78632 0.000439385 10
14.6197 -9.78706 3.41979 0.000429049 10
14.62 -9.78723 4.06179 0.000416856 10
14.6218 -9.78846 4.71478 0.000402941 10
7.87293 -5.23076 -2.53271 0.00121299 4
9.10388 -6.04861 -2.5234 0.000195588 4
11.6087 -7.71281 -2.70914 0.000171875 1
14.228 -9.45308 -2.70554 8.09009e-05 1
14.5883 -9.69246 -2.15053 0.000585574 10
15.1285 -10.0513 -1.58907 0.000874703 10
15.1305 -10.0527 -0.952017 0.000883281 10
15.115 -10.0424 -0.316758 0.000887639 10
15.1165 -10.0434 0.316788 0.000887729 10
15.1237 -10.0482 0.95159 0.000883549 10
14.5817 -9.68805 1.53164 0.000464386 10
14.5737 -9.68276 2.14838 0.000457942 10
14.5786 -9.68598 2.77219 0.000449394 10
14.5868 -9.69148 3.40416 0.000438835 10
14.5737 -9.68276 4.03953 0.000426381 10
14.5632 -9.6758 4.68497 0.000412166 10
7.90381 -5.2116 -2.53677 0.00092787 4
9.11825 -6.01238 -2.52156 0.000241623 4
11.6297 -7.66836 -2.70777 0.000171887 1
14.2592 -9.4022 -2.7052 8.09082e-05 1
14.5512 -9.59472 -2.1401 0.000598788 10
15.1818 -10.0105 -1.59099 0.000867312 10
15.1773 -10.0076 -0.952758 0.000875822 10
15.1863 -10.0135 -0.317516 0.000880146 10
15.192 -10.0173 0.317636 0.000880235 10
15.192 -10.0173 0.953681 0.000876089 10
14.5402 -9.58747 1.52375 0.000474848 10
14.5214 -9.57507 2.13572 0.000468267 10
14.5397 -9.5872 2.75843 0.000459537 10
14.5188 -9.57336 3.38045 0.000448753 10
14.5333 -9.58295 4.01903 0.000436032 10
14.5264 -9.57839 4.66233 0.000421514 10
7.93121 -5.19004 -2.53974 0.00108222 4
9.14796 -5.98626 -2.52398 0.000317579 4
11.6572 -7.62827 -2.70797 0.000171899 1
14.2774 -9.34287 -2.70246 8.09154e-05 1
14.4982 -9.48738 -2.12743 0.000612177 10
15.2443 -9.97561 -1.59388 0.000859922 10
15.248 -9.97798 -0.955002 0.000868364 10
15.2667 -9.99023 -0.318466 0.000872654 10
15.2416 -9.97382 0.317942 0.000872743 10
15.2652 -9.98928 0.956083 0.00086863 10
14.4899 -9.4819 1.515 0.000485447 10
14.4738 -9.47136 2.12384 0.000478727 10
14.4793 -9.47499 2.74067 0.000469812 10
14.4795 -9.47511 3.36358 0.0004588 10
14.4672 -9.46709 3.99159 0.000445812 10
14.4802 -9.47556 4.63685 0.000430986 10
7.96903 -5.17515 -2.54605 0.000894775 4
9.15973 -5.9484 -2.52148 0.000133483 4
11.6953 -7.59501 -2.71064 0.000171911 1
14.3297 -9.30581 -2.70619 8.09226e-05 1
14.4459 -9.38129 -2.11494 0.00062574 10
29.3153 -19.0376 -1.83189 9.77913e-05 10
29.3228 -19.0425 -0.61029 9.8382e-05 10
29.3086 -19.0332 0.609993 9.83943e-05 10
17.2963 -11.2324 1.08083 3.63314e-05 10
14.4281 -9.36969 1.50511 0.000496184 10
14.4351 -9.37425 2.11335 0.000489323 10
14.4412 -9.37823 2.72725 0.000480221 10
14.4213 -9.36528 3.34244 0.000468979 10
14.4315 -9.37194 3.97269 0.000455718 10
14.4232 -9.36655 4.60811 0.000440582 10
8.00086 -5.1562 -2.55045 0.00107331 4
9.17563 -5.91329 -2.52016 0.000292298 4
11.7006 -7.54055 -2.70576 0.000171923 1
14.3432 -9.24357 -2.70263 8.09297e-05 1
14.4042 -9.28284 -2.10407 0.000639476 10
29.4564 -18.9833 -1.83655 9.6758e-05 10
29.4481 -18.978 -0.611514 9.7343e-05 10
29.4447 -18.9758 0.611442 9.73551e-05 10
17.3145 -11.1584 1.07953 3.63209e-05 10
14.3954 -9.27718 1.49831 0.000507059 10
14.3975 -9.27857 2.1031 0.000500055 10
14.3861 -9.27121 2.71071 0.000490764 10
14.3728 -9.26266 3.3237 0.000479289 10
14.3756 -9.26442 3.94836 0.000465752 10
14.3688 -9.26008 4.58038 0.000450302 10
8.0252 -5.13233 -2.55248 0.00112971 4
9.20711 -5.88819 -2.52314 0.000400493 4
11.7438 -7.51048 -2.70967 0.000171935 1
14.353 -9.17914 -2.69842 0.000640723 10
14.3618 -9.18473 -2.09318 0.000653386 10
24.3689 -15.5846 -1.51596 8.1868e-05 10
24.3711 -15.586 -0.504954 8.23596e-05 10
24.3661 -15.5827 0.504849 8.23987e-05 10
17.3761 -11.1125 1.08094 3.63105e-05 10
14.328 -9.16315 1.48796 0.00051807 10
14.3424 -9.17233 2.09035 0.000510922 10
14.3408 -9.17135 2.69614 0.000501441 10
14.3441 -9.17345 3.30964 0.000489729 10
14.3329 -9.1663 3.92784 0.000475914 10
14.3321 -9.16577 4.55845 0.000460146 10
8.06866 -5.12052 -2.5606 0.000942295 4
9.21938 -5.8508 -2.52089 0.000273916 4
11.7696 -7.46923 -2.70959 0.000171947 1
14.2974 -9.07339 -2.68199 0.000654552 10
14.2935 -9.07093 -2.0786 0.000667471 10
24.3841 -15.4746 -1.51353 0.000129574 10
24.3814 -15.4729 -0.504044 0.000130304 10
24.3729 -15.4675 0.503868 0.00013032 10
17.4017 -11.0434 1.08013 3.63001e-05 10
14.2953 -9.0721 1.48127 0.000529219 10
14.294 -9.07127 2.07868 0.000521926 10
14.2912 -9.06948 2.68084 0.000512251 10
14.28 -9.06238 3.28753 0.000500301 10
14.2847 -9.06532 3.90592 0.000486204 10
14.2842 -9.06506 4.53313 0.000470114 10
8.0905 -5.09486 -2.56188 0.00118531 4
9.23796 -5.81746 -2.52041 9.66814e-05 4
11.7905 -7.42485 -2.70841 0.000171958 1
14.2651 -8.98324 -2.67005 0.000668552 10
14.2507 -8.97413 -2.06781 0.000681728 10
24.6548 -15.526 -1.52696 8.09333e-05 10
24.6329 -15.5122 -0.508121 8.14199e-05 10
24.6451 -15.5199 0.508373 8.14582e-05 10
17.4514 -10.9897 1.08083 3.62898e-05 10
14.2506 -8.97412 1.47339 0.000540506 10
14.2577 -8.97858 2.06883 0.000533064 10
13.6738 -8.61085 2.55936 0.000587353 10
13.6832 -8.6168 3.1432 0.000573789 10
13.6887 -8.62027 3.73472 0.000557786 10
14.2358 -8.96477 4.50781 0.000480206 10
8.1151 -5.07088 -2.56405 0.00105474 4
9.26284 -5.78806 -2.52167 0.000112801 4
11.8279 -7.39087 -2.71105 0.00017197 1
14.2037 -8.87548 -2.65274 0.000682724 10
14.2065 -8.87723 -2.05689 0.000696161 10
24.5881 -15.3644 -1.5195 0.000126959 10
24.5798 -15.3592 -0.505918 0.000127676 10
24.5961 -15.3694 0.506253 0.000127691 10
17.4722 -10.9179 1.07975 3.62795e-05 10
14.2018 -8.87426 1.46512 0.000551931 10
14.19 -8.86688 2.05449 0.00054434 10
13.6654 -8.53908 2.55219 0.00091693 10
13.6558 -8.53311 3.13004 0.000895495 10
13.6728 -8.54371 3.72221 0.000870267 10
14.199 -8.87252 4.48631 0.000490423 10
8.15777 -5.05803 -2.57193 0.00107021 4
9.28631 -5.75776 -2.52257 0.000308493 4
11.8514 -7.34816 -2.71054 0.000171981 1
14.1621 -8.7809 -2.63923 0.000697067 10
14.1676 -8.7843 -2.04681 0.000710768 10
30.1101 -18.669 -1.85671 9.16263e-05 10
30.1051 -18.666 -0.618298 9.21828e-05 10
30.1045 -18.6656 0.618285 9.21945e-05 10
17.5234 -10.865 1.08056 3.62692e-05 10
14.1514 -8.77422 1.45675 0.000563492 10
14.1598 -8.77948 2.04568 0.000555751 10
13.7151 -8.50374 2.55593 0.0009089 10
13.7148 -8.50356 3.13674 0.000887642 10
13.7184 -8.50576 3.72652 0.000862623 10
14.1468 -8.7714 4.46013 0.000500763 10
8.19643 -5.04248 -2.57856 0.00123953 4
9.3173 -5.73205 -2.52554 0.000283184 4
11.8758 -7.30607 -2.71029 0.000171993 1
14.119 -8.68605 -2.62552 0.000711582 10
14.1301 -8.69289 -2.03699 0.00072555 10
24.8292 -15.275 -1.52777 8.19765e-05 10
24.828 -15.2743 -0.508819 8.24689e-05 10
24.8305 -15.2758 0.50887 8.25071e-05 10
17.575 -10.8122 1.08141 3.62591e-05 10
14.1089 -8.67986 1.44925 0.000575192 10
14.1096 -8.68027 2.03403 0.000567298 10
13.7788 -8.47679 2.56227 0.000900876 10
13.78 -8.4775 3.14485 0.000879796 10
13.7803 -8.47769 3.73527 0.000854985 10
14.1051 -8.67754 4.43741 0.000511228 10
8.21912 -5.01697 -2.58017 0.000963285 4
9.32128 -5.68973 -2.52122 0.000294712 4
11.8888 -7.25693 -2.70744 0.000172004 1
14.0741 -8.59085 -2.61158 0.000726267 10
14.0852 -8.59763 -2.02617 0.000740505 10
30.3781 -18.5429 -1.86521 8.95917e-05 10
30.3653 -18.5351 -0.620969 9.01369e-05 10
30.3686 -18.5371 0.621036 9.01484e-05 10
17.6 -10.7431 1.08063 3.62489e-05 10
14.0771 -8.59267 1.44289 0.000587029 10
14.0655 -8.58562 2.02334 0.000578981 10
13.8351 -8.44496 2.56723 0.000892858 10
13.8437 -8.45023 3.15264 0.000871955 10
13.8433 -8.45 3.74434 0.000847353 10
14.061 -8.58286 4.41407 0.000521817 10
8.25964 -5.00222 -2.58739 0.000889644 4
9.35833 -5.66761 -2.52587 0.00030624 4
11.9197 -7.21882 -2.70873 0.000172016 1
14.0453 -8.50613 -2.60071 0.000741124 10
14.028 -8.49569 -2.01368 0.000755633 10
25.0926 -15.1966 -1.53741 8.10499e-05 10
25.0921 -15.1963 -0.512045 8.15374e-05 10
25.0744 -15.1856 0.511682 8.15748e-05 10
17.6408 -10.6836 1.08084 3.62389e-05 10
14.032 -8.49808 1.43523 0.000599003 10
14.0347 -8.49971 2.01463 0.000590799 10
13.9169 -8.42839 2.57694 0.000884848 10
13.9192 -8.42979 3.16313 0.000864122 10
13.8949 -8.41504 3.75031 0.000839728 10
14.0074 -8.48321 4.38793 0.000532529 10
8.28695 -4.9793 -2.59049 0.0010504 4
9.35793 -5.62281 -2.52045 0.000301652 4
11.9432 -7.17622 -2.70838 0.000172027 1
14.0003 -8.41224 -2.58693 0.000756152 10
13.994 -8.40842 -2.00456 0.000770937 10
25.159 -15.117 -1.53824 0.000120466 10
25.147 -15.1098 -0.512085 0.00012115 10
30.6464 -18.4142 0.624073 8.81139e-05 10
17.6667 -10.6152 1.08015 3.62289e-05 10
13.995 -8.40903 1.42843 0.000611116 10
13.9886 -8.40522 2.0038 0.000602754 10
13.9611 -8.38868 2.57969 0.000876845 10
13.9735 -8.39612 3.16878 0.000856297 10
13.9628 -8.38971 3.76073 0.000832112 10
13.9828 -8.40174 4.37102 0.000543366 10
8.32943 -4.96534 -2.59833 0.00117042 4
9.39778 -5.6022 -2.5259 0.000329301 4
11.9599 -7.12952 -2.70649 0.000172039 1
13.9446 -8.31265 -2.57126 0.00077135 10
13.9428 -8.31158 -1.99306 0.000786414 10
25.3471 -15.1099 -1.54651 8.01496e-05 10
25.3339 -15.102 -0.514814 8.06322e-05 10
25.3458 -15.1091 0.515057 8.0669e-05 10
17.712 -10.5585 1.08066 3.62189e-05 10
13.9416 -8.31085 1.42001 0.000623365 10
13.9485 -8.31497 1.99388 0.000614844 10
13.9963 -8.34346 2.58079 0.000558207 10
14.004 -8.34804 3.16906 0.000545125 10
13.9423 -8.3113 3.74737 0.000365871 10
13.94 -8.30988 4.34851 0.000554327 10
8.3657 -4.94747 -2.60425 0.000991781 4
9.41816 -5.56989 -2.52614 0.000310895 4
11.9977 -7.09542 -2.70942 0.00017205 1
13.9131 -8.2282 -2.56014 0.000786718 10
13.9029 -8.22217 -1.98325 0.000802062 10
21.0385 -12.4422 -2.13843 0.00023004 10
21.0122 -12.4266 -1.27936 0.000232559 10
21.0342 -12.4396 -0.426554 0.000233877 10
21.0132 -12.4272 0.426129 0.000233977 10
17.7452 -10.4945 1.08045 3.6209e-05 10
13.887 -8.21278 1.41152 0.000635749 10
13.8886 -8.21371 1.98121 0.000627068 10
14.0061 -8.28317 2.57724 0.000560202 10
13.9967 -8.27762 3.16085 0.000547079 10
13.97 -8.26185 3.74704 0.000149094 10
13.8823 -8.20995 4.32155 0.00056541 10
8.37958 -4.91628 -2.60321 0.00120812 4
9.42563 -5.52999 -2.52295 0.000301699 4
12.0222 -7.05339 -2.70938 0.000172061 1
13.8614 -8.13242 -2.54538 0.000802258 10
13.8579 -8.13039 -1.97277 0.000817885 10
20.9635 -12.2992 -2.12642 0.000235092 10
20.9658 -12.3005 -1.27392 0.000237662 10
20.969 -12.3025 -0.424359 0.000239007 10
20.9594 -12.2968 0.424164 0.000239108 10
17.8011 -10.4438 1.08162 3.61991e-05 10
13.8502 -8.12587 1.40489 0.000648272 10
13.856 -8.12925 1.97249 0.000639428 10
13.9404 -8.1788 3.73142 0.000372608 10
13.8478 -8.12444 4.30196 0.000576618 10
8.43055 -4.9067 -2.61371 0.000876858 4
9.45093 -5.50057 -2.52457 0.000292502 4
12.0457 -7.01075 -2.70914 0.000172072 1
13.814 -8.03992 -2.53151 0.000817968 10
13.8205 -8.04373 -1.96343 0.000833882 10
20.9348 -12.1844 -2.11919 0.000343787 10
20.9104 -12.1702 -1.26796 0.000347433 10
20.9301 -12.1816 -0.422708 0.000349287 10
20.9172 -12.1741 0.422448 0.000349327 10
17.8229 -10.3732 1.08074 3.61893e-05 10
13.8242 -8.04589 1.3994 0.000660931 10
13.8204 -8.04368 1.96342 0.000651924 10
13.9128 -8.09746 3.71644 0.000379929 10
13.796 -8.02945 4.27713 0.000587949 10
8.46335 -4.88632 -2.61857 0.00123731 4
9.45135 -5.45674 -2.51958 0.000234935 4
12.0651 -6.9658 -2.70803 0.000172083 1
13.7762 -7.95367 -2.51948 0.000833846 10
13.7869 -7.95988 -1.9547 0.00085005 10
21.0081 -12.1291 -2.12231 0.000340216 10
21.0114 -12.1309 -1.27151 0.000343827 10
21.0205 -12.1362 -0.423677 0.000345664 10
21.025 -12.1388 0.423767 0.000345703 10
17.8672 -10.3156 1.08124 3.61795e-05 10
13.7833 -7.95778 1.39243 0.000673727 10
13.7818 -7.95695 1.95398 0.000664553 10
13.872 -8.00901 3.69805 0.000387329 10
13.7577 -7.94299 4.25663 0.000599403 10
8.47969 -4.85637 -2.61837 0.000738202 4
9.48856 -5.43415 -2.52442 0.00032478 4
12.0819 -6.91938 -2.70636 0.000172094 1
13.7414 -7.86979 -2.50808 0.000849896 10
13.735 -7.86613 -1.94344 0.000866392 10
21.1195 -12.0952 -2.12928 0.000336654 10
21.11 -12.0898 -1.27492 0.00034023 10
21.102 -12.0852 -0.424466 0.000342049 10
21.1 -12.0841 0.424426 0.000342088 10
17.9114 -10.258 1.08174 3.61698e-05 10
13.7395 -7.86868 1.38522 0.000686659 10
13.7405 -7.86926 1.94421 0.000677318 10
13.1824 -7.54965 2.40606 0.000744891 10
13.1999 -7.55966 2.95679 0.000727899 10
13.1743 -7.54499 3.50501 0.000707851 10
13.7303 -7.86341 4.23965 0.000610981 10
8.52401 -4.84231 -2.62681 0.00104969 4
9.50305 -5.39848 -2.52325 0.000251084 4
12.1086 -6.87863 -2.70694 0.000172105 1
13.7093 -7.78796 -2.49724 0.000866115 10
13.7066 -7.78641 -1.93555 0.000882905 10
21.2105 -12.0492 -2.1342 0.000333101 10
21.1969 -12.0415 -1.27762 0.000336642 10
21.2029 -12.0449 -0.425648 0.000338443 10
21.2099 -12.0489 0.425787 0.000338481 10
17.9491 -10.1965 1.08186 3.61601e-05 10
13.702 -7.78383 1.3787 0.000699727 10
13.6952 -7.77998 1.93396 0.000690216 10
13.1382 -7.46355 2.39322 0.000758966 10
13.1542 -7.47265 2.9407 0.00074167 10
13.1486 -7.46945 3.49122 0.000721262 10
13.688 -7.77585 4.21817 0.000622681 10
8.56819 -4.82793 -2.63522 0.00111219 4
9.51445 -5.36112 -2.52129 0.000292563 4
12.1474 -6.84468 -2.71025 0.000172116 1
13.6682 -7.70165 -2.48485 0.000882502 10
13.6497 -7.69121 -1.92372 0.00089959 10
21.294 -11.9986 -2.13838 0.000329556 10
21.2933 -11.9982 -1.2809 0.000333062 10
21.297 -12.0002 -0.426692 0.000334845 10
21.3013 -12.0027 0.426779 0.000334884 10
17.9861 -10.1346 1.08195 3.61506e-05 10
13.6519 -7.69245 1.37094 0.00071293 10
13.6625 -7.69842 1.92552 0.000703249 10
13.1846 -7.42911 2.39692 0.00105957 10
13.1869 -7.43042 2.94218 0.00103513 10
13.1939 -7.43438 3.49633 0.00100636 10
13.641 -7.68628 4.19539 0.000634504 10
8.59048 -4.80106 -2.63691 0.000413192 4
9.5394 -5.33139 -2.52296 0.00032483 4
12.1513 -6.79111 -2.70581 0.000172127 1
13.6193 -7.61159 -2.47112 0.000899058 10
13.6258 -7.61519 -1.91659 0.000916446 10
21.3848 -11.9515 -2.14329 0.000326021 10
21.3838 -11.951 -1.28382 0.000329492 10
21.3991 -11.9596 -0.4279 0.000331258 10
21.3819 -11.9499 0.427555 0.000331296 10
18.0121 -10.0666 1.08139 3.6141e-05 10
13.601 -7.60134 1.36316 0.000726268 10
13.6108 -7.6068 1.91448 0.000716416 10
13.243 -7.40126 2.40283 0.00104948 10
13.2546 -7.40773 2.9515 0.00102527 10
13.2522 -7.40641 3.50491 0.000996754 10
13.6155 -7.60944 4.17936 0.000646449 10
8.60631 -4.77056 -2.63664 0.000741746 4
9.56681 -5.30297 -2.52529 0.000324847 4
12.1926 -6.75847 -2.70975 0.000172138 1
13.5884 -7.53218 -2.46072 0.000915782 10
13.571 -7.52252 -1.90518 0.000933473 10
13.5869 -7.53134 -1.3591 0.000625519 10
13.5672 -7.52042 -0.812955 0.000631607 10
13.5846 -7.53007 -0.271112 0.000634785 10
13.5862 -7.53093 0.271143 0.000635016 10
13.5795 -7.52723 0.813692 0.0006323 10
13.5658 -7.51962 1.35699 0.000739742 10
13.5703 -7.52212 1.90508 0.000729715 10
13.3209 -7.38391 2.41228 0.00103941 10
13.3178 -7.38218 2.95982 0.00101542 10
13.3063 -7.37581 3.51239 0.000987163 10
13.5583 -7.51551 4.15374 0.000658515 10
8.62284 -4.74045 -2.63662 0.000491131 4
9.57245 -5.2625 -2.52192 0.000361727 4
12.1959 -6.70475 -2.70526 0.000172148 1
13.5536 -7.45113 -2.44968 0.000932672 10
13.5333 -7.43999 -1.89623 0.00095067 10
13.5883 -7.47023 -1.35663 0.000858476 10
13.6078 -7.48093 -0.813816 0.000866603 10
13.5889 -7.47058 -0.270677 0.000870734 10
13.6106 -7.48251 0.271109 0.000870824 10
13.5887 -7.47047 0.812678 0.000866872 10
13.5275 -7.43683 1.35056 0.000753349 10
13.5415 -7.44453 1.89739 0.000743147 10
13.3799 -7.35569 2.4183 0.00102936 10
13.3629 -7.34634 2.96414 0.00100559 10
13.3608 -7.34516 3.51998 0.000977591 10
13.5237 -7.43471 4.13515 0.000670703 10
8.64305 -4.71235 -2.63775 0.000433569 4
9.60431 -5.23644 -2.52548 0.000223499 4
12.2251 -6.66536 -2.70657 0.000172159 1
13.5034 -7.36228 -2.43595 0.000949732 10
13.5026 -7.36186 -1.88832 0.000968038 10
13.6485 -7.44143 -1.36004 0.000850092 10
13.6498 -7.44212 -0.814773 0.000858144 10
13.6581 -7.44664 -0.271535 0.000862238 10
13.6607 -7.44808 0.271587 0.000862327 10
13.6493 -7.44183 0.81474 0.000858411 10
13.4918 -7.35595 1.34442 0.000767091 10
13.5083 -7.36498 1.88912 0.000756713 10
13.4345 -7.32475 2.42353 0.00101933 10
13.4326 -7.32371 2.9739 0.000995772 10
13.4218 -7.31782 3.52931 0.000968036 10
13.5009 -7.36092 4.12029 0.000683013 10
8.6457 -4.67471 -2.63356 0.000362452 4
9.60451 -5.19314 -2.52075 0.000258073 4
12.2649 -6.63163 -2.71024 0.00017217 1
13.4626 -7.27919 -2.42399 0.000966957 10
13.4684 -7.28234 -1.87997 0.000985575 10
13.4627 -7.27924 -1.33898 0.0006604 10
13.4628 -7.27933 -0.80209 0.000666805 10
13.4703 -7.28334 -0.267293 0.000670145 10
13.4707 -7.28357 0.267301 0.000670386 10
13.459 -7.27728 0.801864 0.000667523 10
13.4477 -7.27113 1.33749 0.000780968 10
13.4504 -7.2726 1.87745 0.00077041 10
13.4572 -7.27631 2.42303 0.000756414 10
13.4687 -7.2825 2.97625 0.000739126 10
13.454 -7.27454 3.53106 0.000718731 10
13.4638 -7.27986 4.1012 0.000695443 10
8.66933 -4.64845 -2.6358 0.000376017 4
9.62125 -5.15887 -2.52041 0.000324912 4
12.273 -6.58073 -2.70693 0.00017218 1
13.42 -7.19572 -2.41178 0.00098435 10
13.4247 -7.19828 -1.87035 0.00100328 10
13.4878 -7.23211 -1.33896 0.000886163 10
13.4759 -7.22574 -0.801364 0.000894527 10
13.4919 -7.23431 -0.267221 0.00089878 10
13.494 -7.23541 0.267261 0.000898873 10
13.4918 -7.23426 0.802308 0.000894806 10
13.4144 -7.19273 1.33167 0.000794977 10
13.4331 -7.20278 1.87152 0.00078424 10
13.4106 -7.19071 2.4101 0.000770005 10
13.4108 -7.1908 2.95788 0.000752423 10
13.4132 -7.1921 3.51375 0.00073168 10
13.4172 -7.19427 4.07935 0.000707995 10
8.69403 -4.6227 -2.63839 6.09783e-05 4
9.64192 -5.1267 -2.52111 0.000306492 4
12.3005 -6.54027 -2.70794 0.000172191 1
13.3986 -7.12417 -2.40346 0.00100191 10
13.3839 -7.11634 -1.86119 0.00102116 10
13.555 -7.20732 -1.34312 0.000877345 10
13.545 -7.20198 -0.803968 0.000885631 10
13.536 -7.19721 -0.267594 0.000889843 10
13.5346 -7.1965 0.267567 0.000889936 10
13.5458 -7.20242 0.804017 0.000885908 10
13.3961 -7.12281 1.32738 0.00080912 10
13.3796 -7.11404 1.86059 0.000798201 10
13.3856 -7.11724 2.40112 0.000783725 10
13.3863 -7.11765 2.94699 0.000765846 10
13.3804 -7.11448 3.49863 0.000744752 10
13.3873 -7.11815 4.06266 0.000720667 10
8.7143 -4.59453 -2.63966 0.000271026 4
9.6632 -5.09483 -2.52201 0.000235066 4
12.3216 -6.49647 -2.70759 0.000172201 1
13.351 -7.03919 -2.3905 0.00101963 10
13.3539 -7.04071 -1.85359 0.0010392 10
13.3531 -7.04028 -1.32067 0.000696299 10
13.3476 -7.03739 -0.79079 0.000703028 10
13.3485 -7.03787 -0.2634 0.000706537 10
13.3576 -7.04267 0.26358 0.000706786 10
13.3552 -7.04141 0.791242 0.000703773 10
13.3378 -7.03222 1.31916 0.000823396 10
13.3539 -7.04069 1.85359 0.000812293 10
13.3479 -7.03753 2.38994 0.000797574 10
13.3488 -7.03803 2.9333 0.000779395 10
13.347 -7.03707 3.48345 0.000757948 10
13.3508 -7.03906 4.04409 0.000733459 10
8.71007 -4.55351 -2.63354 0.000494643 4
9.67453 -5.05772 -2.52035 0.00028578 4
12.3443 -6.45343 -2.7076 0.000172212 1
13.3161 -6.96147 -2.37988 0.00103752 10
13.3275 -6.96746 -1.84655 0.00105741 10
13.3644 -6.98676 -1.31938 0.000915247 10
13.3556 -6.98215 -0.789816 0.000923861 10
13.3779 -6.99381 -0.263498 0.000928239 10
13.3728 -6.99111 0.263396 0.000928336 10
13.368 -6.98864 0.790551 0.00092415 10
13.3004 -6.95328 1.31306 0.000837803 10
13.3082 -6.95738 1.84387 0.000826516 10
13.2996 -6.95285 2.37693 0.000811552 10
13.3062 -6.95631 2.91859 0.000793071 10
13.3157 -6.96127 3.46892 0.000771267 10
13.2985 -6.95231 4.0209 0.00074637 10
8.73351 -4.52702 -2.63584 0.000454006 4
9.69095 -5.02331 -2.52004 0.000290403 4
12.3579 -6.40575 -2.70568 0.000172222 1
13.2951 -6.89152 -2.37182 0.00105557 10
13.293 -6.89044 -1.83842 0.00107579 10
13.4291 -6.96099 -1.32336 0.000905968 10
13.4365 -6.96483 -0.793158 0.000914499 10
13.4415 -6.96742 -0.26427 0.000918837 10
13.4381 -6.96563 0.264201 0.000918933 10
13.4156 -6.95398 0.791922 0.000914787 10
13.2672 -6.87706 1.3074 0.000852342 10
13.28 -6.88372 1.83662 0.000840868 10
13.2609 -6.8738 2.36572 0.000825658 10
13.2603 -6.87349 2.90324 0.000806872 10
13.2656 -6.87622 3.44959 0.000784708 10
13.26 -6.87332 4.00196 0.0007594 10
8.74265 -4.49311 -2.63385 0.000403201 4
9.70802 -4.98925 -2.51994 0.000331906 4
12.3786 -6.36173 -2.70532 0.000172232 1
13.2468 -6.80791 -2.35894 0.00107379 10
13.2383 -6.80355 -1.82755 0.00109433 10
13.2544 -6.81185 -1.30379 0.000733203 10
13.2548 -6.81206 -0.781024 0.000740266 10
13.2502 -6.80969 -0.26004 0.000743946 10
13.2453 -6.80718 0.259944 0.000744204 10
13.2348 -6.80175 0.779842 0.000741037 10
13.2469 -6.80797 1.30305 0.000867011 10
13.2273 -6.7979 1.82604 0.00085535 10
13.2285 -6.79851 2.35568 0.000839891 10
13.2431 -6.80605 2.89426 0.000820797 10
13.2384 -6.80362 3.43633 0.000798271 10
13.2432 -6.80607 3.98969 0.000772547 10
8.75513 -4.46096 -2.6329 0.00060652 4
9.72212 -4.95367 -2.51909 0.000304261 4
12.4138 -6.32516 -2.70817 0.000172242 1
13.2057 -6.72865 -2.34743 0.00109216 10
13.2228 -6.73736 -1.82216 0.00111304 10
13.2463 -6.74932 -1.30066 0.000945847 10
13.2475 -6.74994 -0.779199 0.000954722 10
13.2372 -6.74467 -0.25932 0.000959234 10
13.2383 -6.74527 0.259342 0.000959334 10
13.2339 -6.74302 0.778401 0.000955022 10
13.2167 -6.73427 1.29776 0.000881812 10
13.1979 -6.72465 1.81872 0.000869961 10
13.2112 -6.73145 2.34841 0.00085425 10
13.1953 -6.72334 2.87866 0.000834848 10
13.2031 -6.72731 3.42105 0.000811955 10
13.1869 -6.71907 3.96565 0.000785814 10
8.79262 -4.44148 -2.6395 0.00038968 4
9.76019 -4.93023 -2.52448 0.000315801 4
12.4404 -6.28412 -2.70918 0.000172253 1
13.1795 -6.65747 -2.33864 0.0011107 10
13.1827 -6.65907 -1.81342 0.00113191 10
13.3004 -6.71853 -1.30367 0.000936079 10
13.31 -6.72339 -0.781493 0.000944868 10
13.3032 -6.71991 -0.260152 0.000949337 10
13.3141 -6.72542 0.260364 0.000949436 10
13.3142 -6.7255 0.781739 0.000945166 10
13.1673 -6.65127 1.29062 0.000896743 10
13.1739 -6.65461 1.81221 0.000884701 10
13.163 -6.6491 2.3357 0.000868737 10
13.1734 -6.65438 2.86881 0.000849022 10
13.1691 -6.65222 3.40621 0.000825761 10
13.1554 -6.64526 3.94917 0.000799198 10
8.79707 -4.40525 -2.6362 0.000264315 4
9.76318 -4.88904 -2.52083 0.00025588 4
12.4467 -6.23284 -2.70579 0.000172263 1
13.1313 -6.57567 -2.32599 0.0011294 10
13.1542 -6.58712 -1.80632 0.00115095 10
13.1311 -6.57554 -1.28481 0.000771103 10
13.1287 -6.57437 -0.769494 0.000778507 10
13.129 -6.57452 -0.256296 0.000782363 10
13.1344 -6.57723 0.256401 0.00078263 10
13.1354 -6.57771 0.769885 0.000779306 10
13.1436 -6.58181 1.28603 0.000911803 10
13.1357 -6.57787 1.80378 0.000899569 10
13.1336 -6.57681 2.32639 0.00088335 10
13.1344 -6.5772 2.85528 0.000863319 10
13.1183 -6.56915 3.3871 0.000839688 10
13.1316 -6.57584 3.93513 0.0008127 10
8.80061 -4.36866 -2.63267 0.000403266 4
9.78015 -4.85491 -2.52082 0.000258198 4
12.462 -6.18618 -2.7044 0.000172273 1
13.1153 -6.51049 -2.31911 0.00114827 10
13.0964 -6.50109 -1.79525 0.00117015 10
13.1128 -6.50923 -1.28079 0.000978094 10
13.1151 -6.51042 -0.767363 0.000987243 10
13.1243 -6.51494 -0.255757 0.000991896 10
13.1063 -6.50602 0.255407 0.000992 10
13.1013 -6.50354 0.766552 0.000987556 10
13.1109 -6.50831 1.28061 0.000926992 10
13.103 -6.50439 1.79617 0.000914563 10
13.1064 -6.50609 2.31755 0.000898088 10
13.1061 -6.50591 2.84418 0.00087774 10
13.0846 -6.49523 3.37252 0.000853734 10
13.1025 -6.50414 3.91957 0.000826318 10
8.82487 -4.34237 -2.63538 0.00041006 4
