VERSION 0.7
FIELDS x y z intensity label
SIZE 4 4 4 4 4
TYPE F F F F F
COUNT 1 1 1 1 1
WIDTH 1180
HEIGHT 1
VIEWPOINT 5.05797 48.9013 2.72839 0.727165 0.000665088 0.000602475 -0.686462
POINTS 1180
DATA ascii
8.04007 -11.3975 -2.71121 0.000171136 1
8.34257 -11.8263 -2.29226 0.00118141 10
8.33834 -11.8203 -1.77613 0.00120392 10
8.33896 -11.8212 -1.26566 0.00122113 10
8.33273 -11.8124 -0.757591 0.00123286 10
8.3384 -11.8204 -0.252497 0.001239 10
8.33966 -11.8222 0.252535 0.00123947 10
8.34119 -11.8244 0.75836 0.00123426 10
8.3342 -11.8145 1.26493 0.000953938 10
8.33818 -11.8201 1.7761 0.000941215 10
8.27091 -11.7248 2.27257 0.00118569 10
8.27043 -11.7241 2.78889 0.00115853 10
8.26667 -11.7187 3.3109 0.00112657 10
8.27621 -11.7323 3.84712 0.00109015 10
5.87863 -8.27204 -2.71919 0.000516747 1
6.81731 -9.59288 -2.71699 0.000313033 1
8.08964 -11.3832 -2.71451 0.000171151 1
8.34873 -11.7478 -2.28267 0.00120105 10
8.34115 -11.7371 -1.76799 0.0012239 10
8.33753 -11.732 -1.25921 0.00124138 10
8.34679 -11.7451 -0.755137 0.0012533 10
8.34413 -11.7413 -0.251428 0.00125953 10
8.33644 -11.7305 0.251196 0.00126 10
8.34385 -11.7409 0.754872 0.00125472 10
8.34391 -11.741 1.26018 0.000969752 10
8.33867 -11.7337 1.76747 0.000956827 10
8.33743 -11.7319 2.27958 0.00117332 10
8.32543 -11.715 2.79363 0.00114643 10
8.3318 -11.724 3.32058 0.00111479 10
8.32925 -11.7204 3.85274 0.000864928 10
5.90188 -8.24366 -2.71661 0.00051678 1
6.84905 -9.56665 -2.71631 0.000313057 1
8.11738 -11.3382 -2.71053 0.000171167 1
8.34038 -11.6497 -2.26926 0.00122085 10
8.3418 -11.6517 -1.7595 0.00124406 10
8.34279 -11.6531 -1.25386 0.00126181 10
8.34328 -11.6538 -0.751135 0.00127391 10
8.33802 -11.6464 -0.250017 0.00128023 10
8.3412 -11.6509 0.250112 0.00128071 10
8.33743 -11.6456 0.750608 0.00127534 10
8.34833 -11.6608 1.25469 0.000985696 10
8.33949 -11.6485 1.75901 0.000972569 10
8.33385 -11.6406 2.26748 0.000955156 10
8.34392 -11.6547 2.78617 0.000933639 10
8.33911 -11.648 3.30727 0.000908243 10
8.34616 -11.6578 3.84171 0.000879231 10
5.93042 -8.22273 -2.71652 0.000516813 1
6.8756 -9.53326 -2.71363 0.00031308 1
8.1586 -11.3122 -2.71109 0.000171183 1
8.3535 -11.5824 -2.26181 0.00124081 10
8.35906 -11.5901 -1.75459 0.00126438 10
8.35679 -11.587 -1.24988 0.0012824 10
8.35323 -11.582 -0.748387 0.00129468 10
8.35551 -11.5852 -0.249327 0.0013011 10
8.34779 -11.5745 0.249097 0.00130159 10
8.3404 -11.5643 0.747237 0.00129613 10
8.3469 -11.5733 1.2484 0.00100177 10
8.34045 -11.5643 1.75069 0.000988443 10
8.34261 -11.5673 2.25886 0.000970759 10
8.33743 -11.5601 2.77051 0.000948908 10
8.34776 -11.5745 3.29465 0.000923117 10
8.34546 -11.5713 3.82277 0.000893655 10
5.96473 -8.20975 -2.7191 0.000516845 1
6.91413 -9.51649 -2.71571 0.000313104 1
8.20723 -11.2963 -2.71413 0.000171198 1
8.35466 -11.4992 -2.25125 0.00126094 10
8.35669 -11.502 -1.74566 0.00128487 10
8.34808 -11.4902 -1.24257 0.00130316 10
8.36333 -11.5111 -0.745687 0.00131563 10
8.36002 -11.5066 -0.248262 0.00132215 10
8.35671 -11.502 0.248163 0.00132264 10
8.3435 -11.4838 0.743919 0.0013171 10
8.35822 -11.5041 1.24408 0.00101798 10
8.3533 -11.4973 1.74495 0.00100445 10
8.34737 -11.4892 2.24928 0.000986489 10
8.34829 -11.4904 2.76078 0.000964301 10
8.34475 -11.4856 3.27762 0.000938113 10
8.35044 -11.4934 3.80665 0.000908196 10
5.98465 -8.17699 -2.71515 0.000516878 1
6.94955 -9.49536 -2.71659 0.000313127 1
8.24055 -11.2593 -2.71213 0.000171214 1
8.35859 -11.4206 -2.24155 0.00128123 10
8.35338 -11.4135 -1.73663 0.00130552 10
8.40726 -11.4871 -1.2454 0.0015806 10
8.40932 -11.4899 -0.746206 0.00159514 10
8.41158 -11.493 -0.2486 0.00160246 10
8.41733 -11.5008 0.24877 0.00160247 10
8.41148 -11.4928 0.746398 0.00159517 10
8.35529 -11.4161 1.2377 0.00103432 10
8.35593 -11.4169 1.73716 0.00102058 10
8.35906 -11.4212 2.24167 0.00100235 10
8.3561 -11.4172 2.75016 0.000979819 10
8.35607 -11.4171 3.26639 0.00095323 10
8.35311 -11.4131 3.78968 0.000922856 10
6.0084 -8.14959 -2.713 0.00051691 1
6.97806 -9.46481 -2.7148 0.00031315 1
8.28515 -11.2377 -2.71388 0.00017123 1
8.36007 -11.3393 -2.23132 0.00130168 10
8.36621 -11.3477 -1.73106 0.00132634 10
8.46785 -11.4855 -1.24843 0.00156356 10
8.47292 -11.4924 -0.748286 0.00157796 10
8.47406 -11.4939 -0.24926 0.0015852 10
8.48189 -11.5046 0.24949 0.00158521 10
8.47671 -11.4975 0.74862 0.00157799 10
8.36469 -11.3456 1.23322 0.00105079 10
8.36594 -11.3473 1.731 0.00103684 10
8.35925 -11.3382 2.2311 0.00101833 10
8.35383 -11.3309 2.73638 0.000995461 10
8.35499 -11.3324 3.25049 0.000968469 10
8.35378 -11.3308 3.77202 0.000937633 10
6.03963 -8.13237 -2.71427 0.000516942 1
7.0052 -9.4325 -2.71253 0.000313173 1
8.32365 -11.2078 -2.71366 0.000171245 1
8.37871 -11.2819 -2.22577 0.0013223 10
8.36539 -11.264 -1.72274 0.00134732 10
8.54677 -11.5082 -1.25413 0.00154659 10
8.54433 -11.505 -0.751041 0.00156083 10
8.5334 -11.4902 -0.249824 0.001568 10
8.53924 -11.4981 0.249995 0.00156801 10
8.54051 -11.4998 0.750705 0.00156086 10
8.36277 -11.2605 1.22713 0.00106739 10
8.36797 -11.2675 1.72327 0.00105322 10
8.36426 -11.2625 2.22193 0.00103444 10
8.36511 -11.2636 2.72718 0.00101123 10
8.35817 -11.2543 3.23642 0.000983827 10
8.36228 -11.2598 3.75809 0.000952527 10
6.07816 -8.12485 -2.71882 0.000516975 1
7.04745 -9.42052 -2.71614 0.000313197 1
8.35918 -11.174 -2.71252 0.000171261 1
8.37695 -11.1977 -2.2149 0.00134307 10
8.3678 -11.1855 -1.71519 0.00136846 10
8.60092 -11.4971 -1.25618 0.00152966 10
8.60512 -11.5027 -0.752851 0.00154377 10
8.60049 -11.4965 -0.250611 0.00155086 10
8.6061 -11.504 0.250775 0.00155087 10
8.60462 -11.502 0.752807 0.00154379 10
8.3605 -11.1757 1.22107 0.00108411 10
8.36457 -11.1812 1.71452 0.00106974 10
8.37013 -11.1886 2.2131 0.00105067 10
8.37178 -11.1908 2.7166 0.00102711 10
8.37151 -11.1904 3.22644 0.000999305 10
8.36577 -11.1828 3.74209 0.000967537 10
6.10079 -8.09603 -2.71629 0.000517007 1
7.07812 -9.39298 -2.71531 0.00031322 1
8.37583 -11.1151 -2.70531 0.00133244 10
8.38405 -11.126 -2.2065 0.001364 10
8.3728 -11.1111 -1.70825 0.00138976 10
8.66793 -11.5027 -1.2601 0.0015128 10
8.67862 -11.5169 -0.755759 0.00152675 10
8.67618 -11.5137 -0.251644 0.00153377 10
8.66228 -11.4952 0.251241 0.00153378 10
8.67903 -11.5175 0.755794 0.00152678 10
8.36936 -11.1065 1.21669 0.00110097 10
8.37359 -11.1121 1.70841 0.00108638 10
8.3712 -11.109 2.20311 0.00106703 10
8.37138 -11.1092 2.70387 0.00104312 10
8.37831 -11.1184 3.21409 0.0010149 10
8.36905 -11.1061 3.72619 0.000982662 10
6.13425 -8.08158 -2.71861 0.000517039 1
7.10546 -9.3611 -2.71325 0.000313243 1
8.38163 -11.0424 -2.69472 0.00135306 10
8.38898 -11.0521 -2.19763 0.00138509 10
8.38377 -11.0452 -1.70261 0.00141123 10
8.72822 -11.499 -1.26302 0.00149599 10
8.74494 -11.521 -0.758028 0.0015098 10
8.7312 -11.5029 -0.252074 0.00151674 10
8.73306 -11.5054 0.252127 0.00151675 10
8.74396 -11.5197 0.757943 0.00150983 10
8.37227 -11.0301 1.21151 0.00111795 10
8.38392 -11.0454 1.70264 0.00110314 10
8.3726 -11.0305 2.19334 0.00108351 10
8.38138 -11.0421 2.69464 0.00105925 10
8.37653 -11.0357 3.19861 0.00103061 10
8.37965 -11.0398 3.71373 0.0009979 10
6.15903 -8.05569 -2.71711 0.00051707 1
7.13517 -9.33241 -2.71213 0.000313266 1
8.38257 -10.9639 -2.6827 0.00137385 10
8.38535 -10.9676 -2.18663 0.00140633 10
8.38965 -10.9732 -1.69602 0.00143285 10
8.79453 -11.5028 -1.2668 0.00147924 10
8.80274 -11.5135 -0.759549 0.00149291 10
8.80431 -11.5156 -0.253023 0.00149978 10
8.79577 -11.5044 0.252777 0.00149979 10
8.80594 -11.5177 0.759826 0.00149293 10
8.38933 -10.9728 1.20843 0.00113505 10
8.37235 -10.9506 1.69252 0.00112003 10
8.37525 -10.9544 2.184 0.00110011 10
8.38539 -10.9676 2.6836 0.0010755 10
8.38515 -10.9673 3.18726 0.00104645 10
8.37873 -10.9589 3.69635 0.00101325 10
6.17644 -8.02028 -2.71242 0.000517102 1
7.17264 -9.31386 -2.714 0.000313288 1
8.39108 -10.896 -2.67324 0.00139478 10
8.38613 -10.8896 -2.17691 0.00142774 10
8.39228 -10.8976 -1.68885 0.00145463 10
8.87461 -11.5239 -1.27253 0.00146256 10
8.87541 -11.525 -0.762344 0.00147607 10
8.86775 -11.515 -0.253689 0.00148287 10
8.86584 -11.5125 0.253634 0.00148288 10
8.87265 -11.5214 0.762107 0.0014761 10
8.38785 -10.8918 1.20273 0.00115228 10
8.38044 -10.8822 1.68647 0.00113704 10
8.39268 -10.8981 2.17861 0.00111684 10
8.39076 -10.8956 2.67313 0.00109187 10
8.38482 -10.8879 3.17267 0.00106239 10
8.38008 -10.8818 3.68017 0.00102872 10
6.2174 -8.01543 -2.71811 0.000517134 1
7.20271 -9.28568 -2.7131 0.000313311 1
8.3987 -10.8275 -2.6636 0.00141587 10
8.40171 -10.8314 -2.17113 0.00144929 10
8.40146 -10.8311 -1.68308 0.00147657 10
12.7529 -16.441 -1.8204 0.000445264 10
12.7671 -16.4593 -1.09168 0.000449915 10
12.7608 -16.4511 -0.363417 0.000452344 10
12.758 -16.4475 0.363336 0.00045252 10
12.5882 -16.2286 1.07638 3.68447e-05 10
8.39429 -10.8219 1.19823 0.00116964 10
8.38294 -10.8072 1.67937 0.00115418 10
8.38231 -10.8064 2.16612 0.00113368 10
8.38195 -10.8059 2.65829 0.00110835 10
8.38453 -10.8093 3.15826 0.00107846 10
8.37972 -10.8031 3.66343 0.0010443 10
6.24173 -7.98905 -2.71654 0.000517166 1
7.22893 -9.25261 -2.71079 0.000313334 1
8.39563 -10.7459 -2.65072 0.00143711 10
8.40171 -10.7537 -2.16142 0.001471 10
8.39653 -10.7471 -1.67456 0.00149867 10
12.7686 -16.343 -1.81448 0.000452598 10
12.7681 -16.3424 -1.08687 0.00045732 10
12.7557 -16.3265 -0.361646 0.000459784 10
12.7645 -16.3378 0.361896 0.000459963 10
12.6444 -16.1842 1.07635 3.68311e-05 10
8.40205 -10.7541 1.19397 0.00118711 10
8.39421 -10.7441 1.6741 0.00117144 10
8.39586 -10.7462 2.15991 0.00115065 10
8.3835 -10.7304 2.64689 0.00112496 10
8.3936 -10.7433 3.14754 0.00109463 10
8.39645 -10.747 3.65432 0.00105999 10
6.26039 -7.95554 -2.71256 0.000517197 1
7.26979 -9.23826 -2.71401 0.000313357 1
8.40674 -10.6831 -2.64244 0.00145849 10
8.41352 -10.6917 -2.15484 0.00149287 10
8.41234 -10.6902 -1.67026 0.00152092 10
12.7671 -16.2242 -1.80622 0.000459991 10
12.7687 -16.2262 -1.0821 0.000464784 10
12.771 -16.2291 -0.360473 0.000467286 10
12.7667 -16.2236 0.360351 0.000467466 10
12.7061 -16.1466 1.0768 3.68176e-05 10
8.40223 -10.6773 1.1887 0.00120471 10
8.39957 -10.6739 1.66773 0.00118881 10
8.40614 -10.6823 2.15295 0.00116773 10
8.39016 -10.662 2.63722 0.00114168 10
8.39947 -10.6738 3.13574 0.00111093 10
8.39914 -10.6734 3.63925 0.00107579 10
6.28616 -7.93116 -2.71171 0.000517228 1
7.29363 -9.20228 -2.7109 0.000313379 1
8.40531 -10.6049 -2.63034 0.00148003 10
8.41437 -10.6163 -2.14555 0.00151488 10
8.41373 -10.6155 -1.66317 0.00154332 10
12.7888 -16.1354 -1.8013 0.000523942 10
12.7923 -16.1398 -1.07932 0.000529196 10
12.7798 -16.1241 -0.359129 0.000531839 10
12.7853 -16.131 0.359284 0.000531843 10
12.7598 -16.0989 1.07658 3.68041e-05 10
8.40398 -10.6032 1.1837 0.00122243 10
8.40957 -10.6102 1.66235 0.00120631 10
8.40284 -10.6017 2.14261 0.00118493 10
8.40361 -10.6027 2.6298 0.00115851 10
8.40044 -10.5987 3.12228 0.00112733 10
8.39639 -10.5936 3.62201 0.0010917 10
6.31987 -7.91677 -2.71431 0.000517259 1
7.3335 -9.18652 -2.71378 0.000313401 1
8.40673 -10.5309 -2.61926 0.00150171 10
8.40875 -10.5335 -2.13473 0.00153704 10
8.41732 -10.5442 -1.6566 0.00156588 10
12.882 -16.137 -1.80649 0.000517301 10
12.8745 -16.1276 -1.0815 0.000522493 10
12.8898 -16.1468 -0.360635 0.000525105 10
12.8731 -16.1259 0.360168 0.000525109 10
12.8268 -16.0678 1.07749 3.67907e-05 10
8.40727 -10.5316 1.17898 0.00124027 10
8.40453 -10.5282 1.65408 0.00122393 10
8.39926 -10.5216 2.13232 0.00120225 10
8.41185 -10.5373 2.62085 0.00117546 10
8.39707 -10.5188 3.10736 0.00114385 10
8.40165 -10.5246 3.60841 0.00110772 10
6.35902 -7.90903 -2.71925 0.000517291 1
7.35835 -9.15195 -2.71114 0.000313424 1
8.41379 -10.4646 -2.61006 0.00152354 10
8.42534 -10.479 -2.12964 0.00155936 10
8.41312 -10.4638 -1.64857 0.00158858 10
12.9826 -16.1471 -1.81268 0.000510694 10
12.979 -16.1426 -1.08554 0.000515823 10
12.9807 -16.1448 -0.361599 0.000518404 10
12.9739 -16.1363 0.361408 0.000518408 10
12.8784 -16.0175 1.07712 3.67772e-05 10
8.41855 -10.4706 1.17543 0.00125823 10
8.40784 -10.4572 1.64754 0.00124166 10
8.40177 -10.4497 2.12368 0.00121968 10
8.41357 -10.4644 2.60999 0.00119253 10
8.41458 -10.4656 3.1003 0.00116047 10
8.4134 -10.4642 3.59775 0.00112385 10
6.38165 -7.88068 -2.71715 0.000517322 1
7.39522 -9.13234 -2.71296 0.000313446 1
8.41816 -10.3956 -2.60015 0.00154551 10
8.41794 -10.3953 -2.11859 0.00158182 10
8.41522 -10.3919 -1.64187 0.00161144 10
13.0715 -16.142 -1.81721 0.00050412 10
13.0769 -16.1486 -1.089 0.000509187 10
13.0787 -16.1509 -0.362756 0.000511737 10
13.0726 -16.1433 0.362586 0.000511741 10
12.924 -15.9598 1.07627 3.67639e-05 10
8.41139 -10.3872 1.16936 0.00127631 10
8.41944 -10.3972 1.64269 0.00125951 10
8.41734 -10.3946 2.11844 0.00123723 10
8.41164 -10.3875 2.59813 0.0012097 10
8.40795 -10.383 3.08448 0.00117721 10
8.41193 -10.3879 3.58159 0.00114009 10
6.41272 -7.86277 -2.71868 0.000517353 1
7.42605 -9.10524 -2.71259 0.000313469 1
8.42305 -10.3277 -2.59051 0.00156763 10
8.43054 -10.3369 -2.11267 0.00160442 10
8.42813 -10.3339 -1.63734 0.00163444 10
13.1693 -16.1471 -1.82296 0.000497579 10
13.1757 -16.1551 -1.09253 0.000502585 10
13.1742 -16.1532 -0.363839 0.000505104 10
13.1791 -16.1592 0.363973 0.000505108 10
12.9984 -15.9376 1.07782 3.67506e-05 10
8.42703 -10.3326 1.16651 0.00129451 10
8.41194 -10.3141 1.63419 0.00127748 10
8.41946 -10.3233 2.10989 0.0012549 10
8.42512 -10.3302 2.59114 0.00122699 10
8.4118 -10.3139 3.07267 0.00119406 10
8.40617 -10.307 3.5638 0.00115643 10
6.43186 -7.83028 -2.71519 0.000517383 1
7.46189 -9.08426 -2.71409 0.000313491 1
8.42316 -10.2545 -2.57951 0.00158989 10
8.42625 -10.2583 -2.1026 0.00162717 10
8.44087 -10.2761 -1.63283 0.000302484 10
13.2667 -16.1512 -1.82863 0.000491072 10
13.2679 -16.1526 -1.09549 0.000496017 10
13.2666 -16.1511 -0.364832 0.000498506 10
13.2741 -16.1601 0.365036 0.000498509 10
13.0545 -15.8928 1.07787 3.67373e-05 10
8.41914 -10.2496 1.16046 0.00131282 10
8.43071 -10.2637 1.63087 0.00129556 10
8.4174 -10.2475 2.1004 0.00127267 10
8.427 -10.2592 2.58069 0.0012444 10
8.42556 -10.2574 3.0646 0.00121101 10
8.41688 -10.2469 3.55316 0.00117288 10
6.45299 -7.80033 -2.7126 0.000517414 1
7.48363 -9.04616 -2.71049 0.000313513 1
8.43306 -10.1938 -2.57164 0.00161229 10
8.4413 -10.2038 -2.09746 0.00165007 10
8.46307 -10.2301 -1.63021 0.000302525 10
17.2013 -20.7928 -2.36094 0.000198342 10
17.1902 -20.7793 -1.41334 0.000200576 10
17.1893 -20.7782 -0.470707 0.000201741 10
17.1912 -20.7806 0.470759 0.000201823 10
13.0969 -15.8315 1.07681 3.67241e-05 10
8.4264 -10.1858 1.15655 0.00133125 10
8.43572 -10.197 1.62494 0.00131376 10
8.41839 -10.1761 2.09177 0.00129056 10
8.42916 -10.1891 2.57045 0.0012619 10
8.41741 -10.1749 3.0487 0.00122808 10
8.42319 -10.1819 3.54079 0.00118943 10
6.48597 -7.7847 -2.71502 0.000517445 1
7.52881 -9.03637 -2.71542 0.000313535 1
8.43801 -10.1276 -2.56235 0.00163483 10
8.4288 -10.1166 -2.08557 0.00167311 10
8.5 -10.202 -1.63045 0.000302566 10
17.2134 -20.6602 -2.35269 0.000215502 10
17.1989 -20.6427 -1.40813 0.000217839 10
17.2161 -20.6634 -0.469464 0.000219016 10
17.2134 -20.6601 0.469389 0.000219018 10
13.157 -15.7915 1.0772 3.6711e-05 10
8.43154 -10.1199 1.1524 0.00134979 10
8.43646 -10.1258 1.61826 0.00133207 10
8.42539 -10.1125 2.08472 0.00130856 10
8.42138 -10.1077 2.5573 0.00127952 10
8.43495 -10.124 3.04223 0.00124525 10
8.43553 -10.1246 3.5311 0.00120608 10
6.51799 -7.76783 -2.71706 0.000517476 1
7.54752 -8.99479 -2.71082 0.000313557 1
8.44879 -10.0689 -2.55493 0.0016575 10
8.44947 -10.0697 -2.08197 0.00169629 10
8.53263 -10.1688 -1.62989 0.000302606 10
17.3344 -20.6583 -2.35935 0.000212402 10
17.3401 -20.6651 -1.41377 0.000214708 10
17.3429 -20.6685 -0.470951 0.000215869 10
17.3384 -20.6631 0.470829 0.000215871 10
13.2096 -15.7425 1.077 3.66979e-05 10
8.43016 -10.0467 1.14741 0.00136845 10
8.42603 -10.0418 1.60953 0.00135049 10
8.43994 -10.0583 2.07962 0.00132667 10
8.42531 -10.0409 2.54783 0.00129725 10
8.42439 -10.0398 3.02577 0.00126252 10
8.42588 -10.0416 3.51237 0.00122284 10
6.53584 -7.73413 -2.71323 0.000517506 1
7.5901 -8.98167 -2.71484 0.000313579 1
8.4464 -9.99496 -2.54364 0.00168032 10
8.44241 -9.99024 -2.07162 0.0017196 10
8.5746 -10.1467 -1.63113 0.000302646 10
17.4634 -20.6652 -2.36708 0.000209323 10
17.4584 -20.6592 -1.41753 0.000211598 10
17.4685 -20.6712 -0.4724 0.000212743 10
17.4621 -20.6635 0.472225 0.000212745 10
13.2717 -15.7049 1.07759 3.66848e-05 10
8.43145 -9.97728 1.14284 0.00138721 10
8.43742 -9.98434 1.60504 0.00136902 10
8.43221 -9.97818 2.06912 0.00134489 10
8.10278 -9.58834 2.44016 0.00146742 10
8.09117 -9.5746 2.89406 0.00142846 10
8.09204 -9.57564 3.35925 0.00138393 10
6.55854 -7.70625 -2.71146 0.000517536 1
7.61549 -8.94817 -2.71273 0.000313601 1
8.43926 -9.91609 -2.53105 0.00170327 10
8.4514 -9.93037 -2.06531 0.00174306 10
8.61236 -10.1195 -1.63159 0.000302686 10
17.5876 -20.6654 -2.37413 0.000206263 10
17.5938 -20.6726 -1.42265 0.000208508 10
17.5953 -20.6744 -0.473874 0.000209638 10
17.5919 -20.6704 0.473782 0.000209639 10
13.3366 -15.6704 1.07841 3.66718e-05 10
8.44833 -9.92675 1.14043 0.00140609 10
8.44761 -9.92592 1.60038 0.00138766 10
8.43895 -9.91574 2.06227 0.00136322 10
8.10045 -9.518 2.42944 0.00148729 10
8.10397 -9.52213 2.88673 0.00144782 10
8.09408 -9.51052 3.3463 0.00140272 10
6.59202 -7.69104 -2.71419 0.000517567 1
7.64795 -8.92302 -2.71318 0.000313622 1
8.44466 -9.85256 -2.52234 0.00172635 10
8.45442 -9.86395 -2.05763 0.00176665 10
13.3721 -15.6015 -2.52297 8.62751e-05 10
17.7324 -20.6887 -2.3839 0.000203225 10
17.7286 -20.6843 -1.42771 0.000205438 10
17.7212 -20.6757 -0.475319 0.000206553 10
17.7268 -20.6822 0.475467 0.000206555 10
13.3893 -15.6216 1.07826 3.66588e-05 10
8.45535 -9.86504 1.13672 0.00142508 10
8.44599 -9.85411 1.59354 0.00140641 10
8.43927 -9.84627 2.05394 0.00138166 10
8.14445 -9.50229 2.43267 0.00155064 10
8.13455 -9.49075 2.88581 0.00150898 10
8.13244 -9.48828 3.34844 0.00146146 10
6.624 -7.67398 -2.71631 0.000517597 1
7.68579 -8.90408 -2.71556 0.000313644 1
8.45642 -9.79687 -2.51563 0.00174957 10
8.4463 -9.78514 -2.04732 0.00179038 10
13.4319 -15.561 -2.52399 8.62877e-05 10
18.017 -20.8729 -2.41236 0.000194004 10
18.1744 -21.0552 -1.45768 0.000121974 10
18.171 -21.0513 -0.485409 0.000122689 10
18.1627 -21.0417 0.485187 0.000122739 10
13.4329 -15.5622 1.07739 3.66459e-05 10
8.44915 -9.78844 1.13128 0.00144417 10
8.45643 -9.79687 1.58905 0.00142527 10
8.44718 -9.78616 2.04754 0.0014002 10
8.18848 -9.48645 2.43592 0.00153158 10
8.19859 -9.49816 2.89675 0.0014904 10
8.192 -9.49053 3.35931 0.00144344 10
6.6416 -7.64029 -2.71258 0.000517627 1
7.71673 -8.87708 -2.71553 0.000313666 1
8.46294 -9.7355 -2.50744 0.00177292 10
8.46672 -9.73985 -2.04402 0.00181425 10
13.483 -15.5104 -2.52341 8.63002e-05 10
18.1564 -20.8866 -2.42125 0.000191091 10
18.1765 -20.9097 -1.45199 0.000123944 10
18.1703 -20.9025 -0.483437 0.000124669 10
18.1759 -20.909 0.483587 0.000124719 10
13.4875 -15.5156 1.07742 3.6633e-05 10
8.4543 -9.72556 1.12742 0.00146338 10
8.45815 -9.72999 1.58298 0.00144423 10
8.45849 -9.73038 2.04203 0.00141884 10
8.25773 -9.49943 2.44664 0.00151261 10
8.25727 -9.49891 2.90575 0.00147191 10
8.26107 -9.50328 3.37401 0.00142551 10
6.68229 -7.63312 -2.7183 0.000517657 1
7.73236 -8.8326 -2.71016 0.000313687 1
8.46161 -9.66562 -2.49703 0.0017964 10
8.46089 -9.6648 -2.03445 0.00183824 10
13.5251 -15.4496 -2.52118 8.63127e-05 10
18.2941 -20.8972 -2.42987 0.000188198 10
18.436 -21.0593 -1.46684 0.000120029 10
18.4333 -21.0562 -0.488476 0.000120733 10
18.4432 -21.0675 0.48874 0.000120781 10
13.5488 -15.4766 1.07799 3.66202e-05 10
8.46707 -9.67185 1.12462 0.00148269 10
8.45171 -9.65432 1.57546 0.0014633 10
8.45463 -9.65765 2.03295 0.00143759 10
8.31059 -9.49311 2.45247 0.00149373 10
8.3106 -9.49312 2.91283 0.00145352 10
8.31378 -9.49676 3.38198 0.00140766 10
6.69786 -7.59724 -2.71383 0.000517687 1
7.77188 -8.81547 -2.71321 0.000313709 1
8.46653 -9.60339 -2.48858 0.00182001 10
8.4627 -9.59905 -2.02682 0.00186237 10
13.5847 -15.4088 -2.52224 8.63251e-05 10
18.4296 -20.9043 -2.43816 0.000185327 10
18.4479 -20.9251 -1.46197 0.000121943 10
18.4469 -20.9239 -0.486899 0.000122658 10
18.4429 -20.9194 0.486793 0.000122707 10
13.5954 -15.421 1.07741 3.66074e-05 10
8.45223 -9.58717 1.11819 0.0015021 10
8.45352 -9.58864 1.56955 0.00148247 10
8.45176 -9.58665 2.0242 0.00145644 10
8.38209 -9.50762 2.46376 0.00147494 10
8.37126 -9.49533 2.92246 0.00143521 10
8.38118 -9.50658 3.39587 0.0013899 10
6.73575 -7.58666 -2.71843 0.000517717 1
7.80282 -8.78853 -2.71329 0.00031373 1
8.47165 -9.54185 -2.48028 0.00184374 10
8.47743 -9.54836 -2.02235 0.00188663 10
13.638 -15.3608 -2.52216 8.63375e-05 10
18.5632 -20.9083 -2.44616 0.000182476 10
18.7054 -21.0684 -1.47654 0.000118131 10
18.703 -21.0657 -0.491716 0.000118826 10
18.718 -21.0826 0.492108 0.000118873 10
13.6513 -15.3759 1.07758 3.65947e-05 10
8.46714 -9.53677 1.11575 0.00152162 10
8.46323 -9.53237 1.56517 0.00150174 10
8.46672 -9.5363 2.0198 0.00147539 10
8.44471 -9.51151 2.47239 0.00145625 10
8.43635 -9.5021 2.93359 0.001417 10
8.44491 -9.51173 3.40822 0.00137224 10
6.75809 -7.55851 -2.71678 0.000517746 1
7.83391 -8.76175 -2.71345 0.000313752 1
8.47997 -9.48433 -2.47301 0.0018676 10
8.48139 -9.48592 -2.01539 0.00191101 10
13.689 -15.3103 -2.52171 8.63498e-05 10
18.7008 -20.9157 -2.45465 0.000179647 10
18.7217 -20.9391 -1.47204 0.000119994 10
18.7192 -20.9363 -0.490216 0.000120698 10
18.7107 -20.9268 0.489994 0.000120746 10
13.707 -15.3305 1.07775 3.6582e-05 10
8.46226 -9.46452 1.11075 0.00154124 10
8.46949 -9.47261 1.5602 0.00152112 10
8.45859 -9.46042 2.00997 0.00149444 10
8.47116 -9.47448 2.47044 0.000926018 10
8.4838 -9.48862 2.93855 0.000901059 10
8.47196 -9.47538 3.40577 0.000872595 10
6.78755 -7.53834 -2.71803 0.000517776 1
7.86779 -8.73807 -2.7146 0.000313773 1
8.4696 -9.40645 -2.46039 0.00189159 10
8.46773 -9.40436 -2.00433 0.00193552 10
13.746 -15.2665 -2.52238 8.63621e-05 10
18.8371 -20.9207 -2.46294 0.000176838 10
18.9831 -21.0829 -1.4868 0.00011628 10
18.9799 -21.0793 -0.495112 0.000116965 10
18.9841 -21.084 0.495223 0.000117011 10
13.7713 -15.2945 1.0786 3.65694e-05 10
8.48025 -9.41827 1.10879 0.00156096 10
8.47154 -9.4086 1.55452 0.0015406 10
8.46094 -9.39682 2.00272 0.00151359 10
8.5284 -9.47175 2.47747 0.000926226 10
8.53029 -9.47385 2.94318 0.000901548 10
8.53374 -9.47767 3.41728 0.00087335 10
6.79814 -7.4973 -2.71178 0.000517805 1
7.8945 -8.70642 -2.71331 0.000313794 1
8.48486 -9.3575 -2.45532 0.00191569 10
8.49068 -9.36392 -2.00201 0.00196016 10
13.7874 -15.2054 -2.52021 8.63744e-05 10
18.9821 -20.9343 -2.47233 0.000174052 10
18.9902 -20.9433 -1.48162 0.000118092 10
18.9861 -20.9387 -0.493364 0.000118786 10
18.9931 -20.9465 0.493546 0.000118833 10
13.8288 -15.2511 1.07893 3.65568e-05 10
8.47573 -9.34743 1.10393 0.00158079 10
8.46477 -9.33534 1.54729 0.00156017 10
8.48288 -9.35531 2.00017 0.00153284 10
8.54962 -9.42892 2.47406 0.000918649 10
8.55484 -9.43467 2.94027 0.000893887 10
8.54594 -9.42486 3.40897 0.000865647 10
6.82365 -7.47286 -2.71153 0.000517835 1
7.91738 -8.67064 -2.71076 0.000313815 1
8.49204 -9.29998 -2.44799 0.00193992 10
8.48934 -9.29702 -1.99403 0.00198492 10
13.852 -15.1698 -2.52232 8.63866e-05 10
19.1236 -20.9431 -2.48123 0.000171287 10
19.2532 -21.085 -1.49639 0.000114473 10
19.244 -21.0749 -0.498152 0.000115148 10
19.2456 -21.0766 0.498193 0.000115194 10
13.8832 -15.2041 1.07903 3.65443e-05 10
8.47588 -9.28228 1.09972 0.00160071 10
8.48118 -9.28808 1.54435 0.00157984 10
8.47936 -9.28609 1.99169 0.00155218 10
6.86445 -7.46504 -2.71737 0.000517864 1
7.96102 -8.65755 -2.71534 0.000313836 1
8.49006 -9.23287 -2.43811 0.00196427 10
8.48008 -9.22203 -1.98428 0.0020098 10
13.8918 -15.1072 -2.51996 8.63987e-05 10
19.2717 -20.9578 -2.49093 0.000168543 10
19.2689 -20.9548 -1.49192 0.000112558 10
19.271 -20.9571 -0.496955 0.000113177 10
19.2756 -20.9621 0.497073 0.000113178 10
13.9256 -15.144 1.0782 3.65318e-05 10
8.48459 -9.22692 1.09666 0.00162073 10
8.48447 -9.2268 1.53907 0.00159961 10
8.49044 -9.23328 1.98671 0.00157162 10
6.88129 -7.43112 -2.71375 0.000517893 1
7.99005 -8.62847 -2.71495 0.000313857 1
8.48483 -9.16278 -2.42741 0.00198873 10
8.50117 -9.18043 -1.98171 0.0020348 10
13.957 -15.0722 -2.52223 8.64108e-05 10
19.4004 -20.9505 -2.4981 0.000165822 10
19.5231 -21.083 -1.50589 0.000112708 10
19.5206 -21.0803 -0.501489 0.000113374 10
19.5128 -21.0719 0.501289 0.000113418 10
13.9824 -15.0997 1.07852 3.65194e-05 10
8.47879 -9.15626 1.09178 0.00164084 10
8.48647 -9.16455 1.53362 0.00161948 10
8.49252 -9.17109 1.97969 0.00159115 10
6.9063 -7.40611 -2.71341 0.000517922 1
8.02088 -8.60134 -2.71521 0.000313878 1
8.50158 -9.11683 -2.42309 0.00201331 10
8.4873 -9.10151 -1.97105 0.00205992 10
14.0088 -15.0226 -2.5221 8.64229e-05 10
19.5465 -20.961 -2.50748 0.000163123 10
19.557 -20.9723 -1.50284 0.00010894 10
19.5561 -20.9713 -0.500518 0.000109542 10
19.5545 -20.9696 0.500477 0.000109542 10
14.0327 -15.0482 1.07833 3.6507e-05 10
8.48824 -9.10253 1.0889 0.00166105 10
8.49204 -9.1066 1.52888 0.00163943 10
8.47915 -9.09277 1.96916 0.00161077 10
6.9425 -7.39301 -2.71747 0.00051795 1
8.05074 -8.57316 -2.71517 0.000313898 1
8.48962 -9.04053 -2.41067 0.00203801 10
8.49761 -9.04903 -1.9661 0.00208515 10
14.0483 -14.96 -2.51979 8.64349e-05 10
19.786 -21.07 -1.51478 0.000110982 10
19.7999 -21.0847 -0.504872 0.000111639 10
19.7804 -21.064 0.504374 0.000111682 10
14.0941 -15.0087 1.07902 3.64946e-05 10
8.49009 -9.04103 1.08508 0.00168135 10
8.49348 -9.04464 1.52344 0.00165948 10
8.49731 -9.04872 1.96603 0.00163049 10
6.96944 -7.36998 -2.71793 0.000517979 1
8.06677 -8.53037 -2.71052 0.000313919 1
8.50634 -8.99521 -2.40649 0.00206281 10
8.50273 -8.99138 -1.96001 0.0021105 10
14.1098 -14.9207 -2.52147 8.64469e-05 10
19.8422 -20.9826 -1.51347 0.000105383 10
19.8455 -20.986 -0.504163 0.000105965 10
19.8374 -20.9774 0.503956 0.000105966 10
14.1412 -14.9539 1.07863 3.64824e-05 10
8.48619 -8.97389 1.08057 0.00170175 10
8.49352 -8.98164 1.51782 0.00167962 10
8.49656 -8.98486 1.95859 0.00165029 10
6.99116 -7.34145 -2.71639 0.000518008 1
8.10537 -8.51147 -2.71348 0.00031394 1
8.51043 -8.93684 -2.3988 0.00208773 10
8.50981 -8.93618 -1.95444 0.00213597 10
14.1581 -14.8675 -2.52081 8.64588e-05 10
20.0563 -21.0612 -1.52419 0.000109294 10
20.0663 -21.0717 -0.5079 0.000109942 10
20.0679 -21.0734 0.507942 0.000109985 10
14.2037 -14.9154 1.07941 3.64701e-05 10
8.49289 -8.91842 1.07745 0.00172223 10
8.49013 -8.91551 1.51164 0.00169985 10
8.49542 -8.92107 1.95114 0.00167019 10
8.55543 -8.98409 2.41148 0.00102229 10
8.56573 -8.9949 2.8676 0.000995178 10
8.56909 -8.99844 3.32949 0.000964195 10
7.00668 -7.3065 -2.71249 0.000518036 1
8.13371 -8.48175 -2.71304 0.00031396 1
8.49951 -8.86321 -2.38699 0.00211276 10
8.51045 -8.87462 -1.94746 0.00216154 10
14.2076 -14.8155 -2.52039 8.64707e-05 10
20.1406 -21.0024 -1.52501 0.000101884 10
20.1415 -21.0034 -0.507946 0.00010245 10
20.1381 -20.9998 0.50786 0.00010245 10
14.2481 -14.8578 1.07884 3.6458e-05 10
8.49953 -8.86322 1.07436 0.00174281 10
8.49469 -8.85818 1.50694 0.00172017 10
8.50362 -8.86749 1.9459 0.00169016 10
7.03457 -7.28451 -2.71343 0.000518065 1
8.15546 -8.44523 -2.71045 0.000313981 1
8.52028 -8.82301 -2.38416 0.00213789 10
8.50728 -8.80955 -1.93969 0.00218722 10
14.262 -14.7687 -2.52088 8.64826e-05 10
20.3293 -21.0516 -1.53372 0.000107643 10
20.3333 -21.0557 -0.510926 0.000108282 10
20.3428 -21.0656 0.511164 0.000108324 10
14.3161 -14.8247 1.08006 3.64458e-05 10
8.5023 -8.80439 1.07082 0.00176347 10
8.49923 -8.80122 1.50228 0.00174057 10
8.49732 -8.79924 1.93742 0.00171023 10
7.0631 -7.26314 -2.71464 0.000518093 1
8.17982 -8.4115 -2.70877 0.000314001 1
8.51612 -8.75733 -2.37443 0.00216313 10
8.51692 -8.75814 -1.9349 0.00221301 10
14.3075 -14.7128 -2.51984 8.64944e-05 10
20.5946 -21.1779 -1.54815 0.000104498 10
20.5992 -21.1827 -0.515748 0.000105121 10
20.598 -21.1814 0.515717 0.000105161 10
14.3641 -14.771 1.07979 3.64338e-05 10
8.50246 -8.74327 1.06699 0.000208348 10
8.50304 -8.74387 1.49755 0.00176107 10
8.51155 -8.75262 1.93368 0.00173038 10
8.16514 -8.39641 2.27657 0.00188501 10
8.15827 -8.38933 2.70163 0.00183552 10
8.15764 -8.38869 3.13532 0.00177895 10
7.09593 -7.24613 -2.71752 0.000518121 1
8.20908 -8.38284 -2.70876 0.000314021 1
8.51165 -8.69181 -2.36471 0.00218848 10
8.51695 -8.69723 -1.928 0.00223891 10
14.3623 -14.6663 -2.52045 8.65061e-05 10
20.6059 -21.0421 -1.54347 0.000106026 10
20.6092 -21.0454 -0.514155 0.000106656 10
20.6119 -21.0482 0.514222 0.000106698 10
14.4163 -14.7214 1.07984 3.64217e-05 10
8.54596 -8.72685 1.06862 0.000208312 10
8.50885 -8.68895 1.49323 0.00178164 10
8.5177 -8.698 1.92817 0.00175061 10
8.16962 -8.34254 2.26968 0.00190692 10
8.16058 -8.33331 2.69275 0.00185687 10
8.16177 -8.33453 3.1257 0.00179967 10
7.10838 -7.20834 -2.71264 0.000518149 1
8.24881 -8.3648 -2.71221 0.000314041 1
8.51361 -8.63332 -2.35686 0.00221393 10
8.51886 -8.63864 -1.9216 0.00226492 10
14.4087 -14.6113 -2.51963 8.65179e-05 10
20.8756 -21.1691 -1.55813 0.000102955 10
20.8704 -21.1639 -0.518825 0.000103569 10
20.8656 -21.159 0.518705 0.000103609 10
14.4535 -14.6567 1.07879 3.64097e-05 10
8.57059 -8.6911 1.0679 0.000208275 10
8.50876 -8.62841 1.48792 0.0018023 10
8.51996 -8.63976 1.92184 0.00177092 10
8.17562 -8.29058 2.2633 0.00174033 10
8.17492 -8.28987 2.68792 0.00169415 10
8.17533 -8.29028 3.11979 0.00164146 10
7.14303 -7.19307 -2.71626 0.000518177 1
8.27397 -8.33194 -2.71091 0.000314062 1
8.53014 -8.58991 -2.35312 0.00223947 10
8.51975 -8.57944 -1.91503 0.00229102 10
8.517 -8.57667 -1.48411 0.00154104 10
8.52093 -8.58063 -1.05797 0.00156224 10
8.52321 -8.58293 -0.633921 0.00157666 10
8.51468 -8.57433 -0.210924 0.00158415 10
8.52754 -8.58729 0.211243 0.00158463 10
8.51044 -8.57007 0.632972 0.00157811 10
8.51167 -8.5713 1.05682 0.00156464 10
8.51687 -8.57654 1.48409 0.00182304 10
8.5186 -8.57828 1.91477 0.00179131 10
8.23175 -8.28942 2.27081 0.00171605 10
8.23724 -8.29495 2.69887 0.00167048 10
8.22816 -8.28581 3.1289 0.00161849 10
7.15416 -7.15416 -2.71098 0.000518205 1
8.30149 -8.30149 -2.71041 0.000314082 1
8.53056 -8.53057 -2.34501 0.00226512 10
8.51853 -8.51853 -1.90806 0.00231722 10
8.53494 -8.53495 -1.48204 0.00155865 10
8.52952 -8.52952 -1.05534 0.00158008 10
8.53623 -8.53624 -0.63267 0.00159465 10
8.51567 -8.51567 -0.210211 0.00160222 10
8.53024 -8.53025 0.210571 0.00160271 10
8.53257 -8.53257 0.632398 0.00159611 10
8.52984 -8.52985 1.05538 0.0015825 10
8.52493 -8.52493 1.4803 0.00184385 10
8.52474 -8.52475 1.90945 0.00181178 10
8.30191 -8.30191 2.28216 0.00169192 10
8.30432 -8.30432 2.71133 0.00164696 10
8.307 -8.307 3.14783 0.00159568 10
7.18956 -7.13954 -2.71493 0.000518233 1
8.3319 -8.27394 -2.71089 0.000314102 1
8.52546 -8.46615 -2.33547 0.00229086 10
8.53352 -8.47415 -1.90478 0.00234353 10
8.59643 -8.53663 -1.48753 0.00137151 10
8.58585 -8.52612 -1.05862 0.00138996 10
8.59515 -8.53535 -0.634824 0.00140236 10
8.58514 -8.52541 -0.21119 0.0014086 10
8.58469 -8.52496 0.211179 0.00140862 10
8.57955 -8.51986 0.633672 0.00140239 10
8.5927 -8.53292 1.05946 0.00139001 10
8.52028 -8.461 1.47435 0.00186475 10
8.51487 -8.45564 1.90062 0.00183233 10
8.36924 -8.31102 2.29268 0.00166795 10
8.36764 -8.30943 2.72252 0.0016236 10
8.35537 -8.29724 3.15517 0.00157301 10
7.20344 -7.10356 -2.71079 0.000518261 1
8.35731 -8.24143 -2.70978 0.000314121 1
8.53338 -8.41506 -2.32958 0.0023167 10
8.53904 -8.42064 -1.89944 0.00236993 10
8.64436 -8.5245 -1.49067 0.00135188 10
8.65374 -8.53374 -1.06331 0.00137007 10
8.64437 -8.5245 -0.636258 0.00138231 10
8.65682 -8.53679 -0.212219 0.00138847 10
8.64706 -8.52716 0.211979 0.00138848 10
8.65407 -8.53407 0.636972 0.00138234 10
8.65968 -8.5396 1.06404 0.00137012 10
8.52621 -8.40798 1.47029 0.00188572 10
8.51925 -8.40112 1.89504 0.00185295 10
8.43057 -8.31367 2.30151 0.00164414 10
8.4328 -8.31587 2.73426 0.00160039 10
8.43285 -8.31592 3.17345 0.00155049 10
7.23943 -7.08938 -2.71501 0.000518288 1
8.39085 -8.21693 -2.71134 0.000314141 1
8.53223 -8.35538 -2.32129 0.00234263 10
8.53302 -8.35615 -1.8916 0.00239642 10
14.6691 -14.3651 -2.52094 8.65757e-05 10
14.7156 -14.4106 1.07941 3.63506e-05 10
8.73044 -8.54948 1.06906 0.000269227 10
8.52635 -8.34962 1.46528 0.00190676 10
8.53984 -8.36283 1.89311 0.00187365 10
8.47571 -8.30003 2.30591 0.00162049 10
8.49455 -8.31848 2.74485 0.00157734 10
8.49503 -8.31895 3.1859 0.00152812 10
7.26977 -7.06954 -2.71711 0.000518316 1
8.42292 -8.19093 -2.71245 0.000314161 1
8.53466 -8.2996 -2.31406 0.00236865 10
8.53131 -8.29634 -1.88479 0.00242301 10
8.5344 -8.29934 -1.46168 0.00162974 10
8.53577 -8.30067 -1.04167 0.00165209 10
8.54325 -8.30795 -0.624531 0.00166728 10
8.54759 -8.31217 -0.208114 0.00167517 10
8.53137 -8.2964 0.207718 0.00167568 10
8.53103 -8.29607 0.623638 0.00166879 10
8.52674 -8.29189 1.04057 0.00165458 10
8.53295 -8.29794 1.46143 0.00192788 10
8.53532 -8.30023 1.88568 0.00189442 10
8.53427 -8.29922 2.31395 0.00185307 10
8.53199 -8.297 2.74757 0.00180427 10
8.53909 -8.30391 3.19153 0.00174849 10
7.29109 -7.04093 -2.71588 0.000518343 1
8.44354 -8.15383 -2.70991 0.000314181 1
8.54794 -8.25465 -2.30983 0.00239476 10
8.55426 -8.26075 -1.88348 0.00244969 10
8.54955 -8.2562 -1.45933 0.00141621 10
8.54962 -8.25627 -1.03983 0.0014352 10
8.54331 -8.25018 -0.622426 0.00144797 10
8.54028 -8.24726 -0.207233 0.00145439 10
8.55155 -8.25814 0.207507 0.0014544 10
8.55313 -8.25966 0.623141 0.001448 10
8.5415 -8.24843 1.03885 0.00143525 10
8.5343 -8.24148 1.45672 0.00194908 10
8.53136 -8.23864 1.87844 0.00191526 10
8.54076 -8.24772 2.30789 0.00187348 10
8.54336 -8.25023 2.74194 0.00182416 10
8.54357 -8.25043 3.18242 0.0017678 10
7.31033 -7.01036 -2.71392 0.00051837 1
8.48576 -8.13755 -2.71433 0.0003142 1
8.55187 -8.20095 -2.30314 0.00242096 10
8.54348 -8.1929 -1.8748 0.00247645 10
8.61211 -8.25872 -1.46508 0.00139543 10
8.60405 -8.25099 -1.04295 0.00141415 10
8.60962 -8.25633 -0.625154 0.00142674 10
8.61825 -8.26461 -0.208424 0.00143308 10
8.60062 -8.2477 0.207997 0.00143309 10
8.5998 -8.24691 0.624441 0.00142677 10
8.60319 -8.25017 1.04284 0.0014142 10
8.53138 -8.1813 1.45134 0.00197034 10
8.54836 -8.19759 1.87587 0.00193617 10
8.53026 -8.18023 2.29732 0.00189395 10
8.54286 -8.19231 2.73259 0.00184412 10
8.53657 -8.18628 3.16915 0.00178717 10
7.34354 -6.99316 -2.71717 0.000518397 1
8.51231 -8.10616 -2.71375 0.00031422 1
8.55808 -8.14976 -2.29714 0.00244724 10
8.55376 -8.14564 -1.8708 0.00250331 10
8.67346 -8.25963 -1.4706 0.00137479 10
8.67789 -8.26384 -1.04839 0.00139325 10
8.68235 -8.2681 -0.628336 0.00140567 10
8.67669 -8.2627 -0.209139 0.00141191 10
8.66957 -8.25592 0.208967 0.00141192 10
8.67151 -8.25777 0.627551 0.0014057 10
8.66896 -8.25535 1.04732 0.0013933 10
8.53404 -8.12686 1.44696 0.00199167 10
8.5486 -8.14073 1.86967 0.00195714 10
8.55339 -8.14528 2.29588 0.00191449 10
8.54095 -8.13344 2.72288 0.00186414 10
8.54892 -8.14103 3.16317 0.0018066 10
7.36807 -6.96764 -2.71723 0.000518424 1
8.52349 -8.06027 -2.70833 0.000314239 1
8.56459 -8.09914 -2.29128 0.00247361 10
8.56036 -8.09513 -1.86606 0.00253025 10
14.9156 -14.105 -2.52061 8.66324e-05 10
17.4398 -16.492 -2.09997 0.000329176 10
17.4521 -16.5036 -1.25882 0.000332738 10
17.4329 -16.4855 -0.418805 0.000334588 10
17.4349 -16.4874 0.418852 0.000334705 10
14.9807 -14.1666 1.08056 3.62928e-05 10
8.88551 -8.40261 1.06993 0.000269001 10
8.54045 -8.0763 1.44326 0.00201307 10
8.54068 -8.07652 1.86176 0.00197819 10
8.5499 -8.08524 2.28735 0.0019351 10
8.55486 -8.08994 2.7183 0.00188423 10
8.53664 -8.0727 3.14818 0.00182609 10
7.37657 -6.92706 -2.71143 0.000518451 1
8.56227 -8.04051 -2.71172 0.00243285 10
8.56176 -8.04003 -2.283 0.00250005 10
8.54724 -8.0264 -1.85708 0.00255727 10
8.54773 -8.02686 -1.43975 0.00171995 10
8.56119 -8.0395 -1.02749 0.00174347 10
8.56091 -8.03923 -0.61547 0.00175946 10
8.54516 -8.02444 -0.204613 0.00176776 10
8.55091 -8.02984 0.20475 0.00176828 10
8.55906 -8.03749 0.615337 0.00176102 10
8.54399 -8.02334 1.02542 0.00174605 10
8.55568 -8.03432 1.44108 0.00203453 10
8.5589 -8.03735 1.85961 0.00199929 10
8.54539 -8.02466 2.27864 0.00195576 10
8.55118 -8.0301 2.7082 0.00190438 10
8.54081 -8.02035 3.13937 0.00184565 10
7.39962 -6.90026 -2.71103 0.000518478 1
8.56732 -7.98916 -2.70447 0.0024587 10
8.57038 -7.99201 -2.27785 0.00252658 10
8.56412 -7.98617 -1.85468 0.00258437 10
8.55744 -7.97995 -1.43668 0.00144226 10
8.55604 -7.97863 -1.02352 0.00146155 10
8.57006 -7.99171 -0.614118 0.00147452 10
8.56091 -7.98318 -0.204322 0.00148104 10
8.56703 -7.98888 0.204467 0.00148105 10
8.56457 -7.98659 0.613725 0.00147455 10
8.55273 -7.97555 1.02313 0.0014616 10
8.54731 -7.9705 1.43498 0.00205606 10
8.55799 -7.98046 1.85335 0.00202046 10
8.56147 -7.9837 2.27548 0.00197649 10
8.54488 -7.96823 2.69738 0.00192459 10
8.54144 -7.96502 3.12936 0.00186526 10
7.44119 -6.89062 -2.71743 0.000518504 1
8.5602 -7.92684 -2.69347 0.00248462 10
8.55386 -7.92096 -2.2661 0.00255318 10
8.56475 -7.93105 -1.84881 0.00261155 10
8.622 -7.98406 -1.44283 0.00142039 10
8.63462 -7.99575 -1.02958 0.0014394 10
8.62648 -7.98821 -0.61616 0.00145219 10
8.62125 -7.98337 -0.205095 0.00145862 10
8.61582 -7.97834 0.204966 0.00145863 10
8.62881 -7.99036 0.616326 0.00145222 10
8.61885 -7.98114 1.0277 0.00143946 10
8.56157 -7.9281 1.43272 0.00207765 10
8.54716 -7.91475 1.84501 0.0020417 10
8.56196 -7.92847 2.26824 0.00199728 10
8.56394 -7.9303 2.69464 0.00194485 10
8.55906 -7.92578 3.12567 0.00188493 10
7.44531 -6.84632 -2.71019 0.000518531 1
8.56176 -7.87294 -2.6853 0.00251062 10
8.57379 -7.88401 -2.26407 0.00257986 10
8.55594 -7.86759 -1.84096 0.00263881 10
8.68756 -7.98862 -1.44913 0.00139869 10
8.68219 -7.98369 -1.03192 0.00141742 10
8.69144 -7.9922 -0.618803 0.00143002 10
8.696 -7.99639 -0.206208 0.00143636 10
8.68424 -7.98557 0.205929 0.00143637 10
8.68704 -7.98815 0.61849 0.00143005 10
8.69777 -7.99802 1.03377 0.00141748 10
8.56143 -7.87264 1.42809 0.00209929 10
8.55515 -7.86686 1.84079 0.00206299 10
8.56303 -7.87412 2.26123 0.00201813 10
8.56023 -7.87154 2.68482 0.00196518 10
8.56521 -7.87612 3.11785 0.00190466 10
7.48839 -6.83784 -2.71717 0.000518557 1
8.5695 -7.82503 -2.67914 0.00253669 10
8.57002 -7.82551 -2.25585 0.00260661 10
8.57025 -7.82572 -1.83815 0.00266614 10
13.0154 -11.8847 -2.1641 0.000853915 10
13.0237 -11.8922 -1.54298 0.000866601 10
13.0184 -11.8874 -0.923908 0.000875231 10
13.0217 -11.8905 -0.307798 0.00087971 10
13.0142 -11.8836 0.307619 0.000879989 10
13.0102 -11.8799 0.923327 0.000876065 10
9.01489 -8.23173 1.06804 0.000268779 10
8.56959 -7.82511 1.42488 0.00212101 10
8.5528 -7.80978 1.83441 0.00208434 10
8.56376 -7.81979 2.2542 0.00203904 10
8.55123 -7.80835 2.67343 0.00198556 10
8.55528 -7.81205 3.10429 0.00192444 10
7.49742 -6.79825 -2.71182 0.000518583 1
8.56708 -7.76816 -2.66989 0.00256283 10
8.56676 -7.76787 -2.24784 0.00263344 10
8.56268 -7.76417 -1.83071 0.00269354 10
8.56871 -7.76964 -1.42022 0.00181152 10
8.58019 -7.78005 -1.01332 0.00183622 10
8.55934 -7.76114 -0.605526 0.00185301 10
8.56387 -7.76525 -0.201785 0.00186172 10
8.57547 -7.77576 0.202058 0.00186226 10
8.55682 -7.75886 0.605347 0.00185463 10
8.5722 -7.7728 1.01237 0.0018389 10
8.56441 -7.76574 1.41951 0.00214277 10
8.5665 -7.76763 1.83152 0.00210574 10
8.55415 -7.75643 2.24453 0.00206 10
8.56081 -7.76247 2.66794 0.002006 10
8.57231 -7.7729 3.10061 0.00194427 10
7.51776 -6.76903 -2.71061 0.00051861 1
8.56584 -7.71272 -2.6611 0.00258904 10
8.57375 -7.71985 -2.24259 0.00266033 10
8.58385 -7.72894 -1.82945 0.00272102 10
8.58476 -7.72975 -1.4184 0.00182998 10
8.56708 -7.71383 -1.00858 0.00185492 10
8.564 -7.71107 -0.603948 0.00187187 10
8.56073 -7.70811 -0.201075 0.00188067 10
8.56501 -7.71197 0.201176 0.00188121 10
8.57377 -7.71986 0.604636 0.0018735 10
8.56457 -7.71157 1.00829 0.00185762 10
8.56741 -7.71414 1.41553 0.00216459 10
8.56354 -7.71065 1.82512 0.0021272 10
8.55853 -7.70614 2.23861 0.00208101 10
8.56451 -7.71152 2.66068 0.00202648 10
8.568 -7.71467 3.08929 0.00196416 10
7.55578 -6.75565 -2.7158 0.000518636 1
8.57698 -7.6687 -2.65622 0.00261531 10
8.57986 -7.67128 -2.23717 0.00268729 10
8.56809 -7.66075 -1.82038 0.00274856 10
8.63894 -7.72411 -1.42289 0.00144661 10
8.63072 -7.71676 -1.0129 0.00146592 10
8.63485 -7.72045 -0.607039 0.0014789 10
8.63142 -7.71738 -0.202102 0.00148543 10
8.62313 -7.70997 0.201908 0.00148545 10
8.64166 -7.72654 0.607518 0.00147893 10
8.64097 -7.72592 1.0141 0.00146597 10
8.56167 -7.65502 1.41016 0.00218647 10
8.57527 -7.66718 1.82191 0.00214872 10
8.56101 -7.65443 2.23225 0.00210208 10
8.57728 -7.66897 2.65632 0.00204702 10
8.56515 -7.65813 3.07861 0.0019841 10
7.56572 -6.71716 -2.71093 0.000518662 1
8.5793 -7.61706 -2.64869 0.00264165 10
8.59095 -7.62741 -2.23311 0.00271432 10
8.5782 -7.61609 -1.81687 0.00277617 10
8.70239 -7.72634 -1.42889 0.00142377 10
8.70083 -7.72496 -1.01795 0.00144278 10
8.69003 -7.71537 -0.609021 0.00145557 10
8.70724 -7.73065 -0.203244 0.00146201 10
8.69936 -7.72366 0.20306 0.00146202 10
8.69004 -7.71538 0.609022 0.00145561 10
8.706 -7.72955 1.01856 0.00144284 10
8.58501 -7.62213 1.40961 0.0022084 10
8.57995 -7.61764 1.81724 0.00217028 10
8.5734 -7.61182 2.22854 0.0021232 10
8.56438 -7.60381 2.64409 0.00206761 10
8.56409 -7.60355 3.06866 0.00200408 10
7.59846 -6.69895 -2.71427 0.000518687 1
8.57492 -7.55981 -2.63918 0.00266805 10
8.58651 -7.57003 -2.22507 0.0027414 10
8.58118 -7.56533 -1.8119 0.00280385 10
13.3591 -11.7776 -2.18673 0.000660036 10
13.3647 -11.7826 -1.55878 0.000669654 10
13.3665 -11.7841 -0.933872 0.000676128 10
13.3582 -11.7769 -0.310846 0.000679386 10
13.361 -11.7793 0.31091 0.000679391 10
13.3472 -11.7671 0.932522 0.000676144 10
9.15719 -8.07315 1.06804 0.000268562 10
8.57145 -7.55675 1.40305 0.00223038 10
8.57913 -7.56352 1.81147 0.0021919 10
8.5797 -7.56403 2.2233 0.00214436 10
8.57159 -7.55687 2.63815 0.00208825 10
8.57218 -7.55739 3.06209 0.00202411 10
7.61233 -6.66409 -2.71089 0.000518713 1
8.59225 -7.52195 -2.63642 0.00269451 10
8.58261 -7.51351 -2.21725 0.00276855 10
8.59134 -7.52115 -1.80849 0.00283158 10
8.58544 -7.51598 -1.40103 0.00190427 10
8.57949 -7.51078 -0.997599 0.00193016 10
8.579 -7.51035 -0.597551 0.00194777 10
8.57272 -7.50485 -0.198876 0.00195689 10
8.58754 -7.51783 0.19922 0.00195745 10
8.58507 -7.51566 0.597974 0.00194944 10
8.57144 -7.50373 0.996663 0.00193293 10
8.58585 -7.51634 1.4011 0.00225241 10
8.58932 -7.51939 1.80807 0.00221356 10
8.58353 -7.51431 2.21749 0.00216558 10
8.58288 -7.51375 2.63354 0.00210893 10
8.57838 -7.5098 3.05492 0.00204419 10
7.63443 -6.63651 -2.7105 0.000518738 1
8.59435 -7.47095 -2.62904 0.00272102 10
8.60009 -7.47594 -2.21501 0.00279576 10
8.5813 -7.45961 -1.80088 0.00285938 10
8.59872 -7.47475 -1.39893 0.00192294 10
8.59385 -7.47052 -0.99623 0.00194908 10
8.58304 -7.46113 -0.596015 0.00196684 10
8.58122 -7.45954 -0.198468 0.00197606 10
8.58233 -7.4605 0.198494 0.00197662 10
8.58921 -7.46649 0.596444 0.00196853 10
8.57557 -7.45463 0.994111 0.00195187 10
8.57941 -7.45797 1.39579 0.00227448 10
8.58136 -7.45967 1.8009 0.00223527 10
8.58211 -7.46031 2.21038 0.00218684 10
8.59191 -7.46883 2.62829 0.00212966 10
8.57138 -7.45098 3.04315 0.00206431 10
7.66917 -6.61986 -2.71461 0.000518764 1
8.59396 -7.41811 -2.62098 0.00274759 10
8.5883 -7.41322 -2.20529 0.00282302 10
8.58424 -7.40972 -1.79606 0.00288723 10
8.62542 -7.44527 -1.39904 0.00147431 10
8.62689 -7.44653 -0.997041 0.00149393 10
8.6355 -7.45396 -0.597847 0.00150713 10
8.63831 -7.4564 -0.199185 0.00151377 10
8.61738 -7.43833 0.198703 0.00151378 10
8.62721 -7.44681 0.597274 0.00150717 10
8.62368 -7.44377 0.99667 0.00149399 10
8.59339 -7.41762 1.39385 0.0022966 10
8.58134 -7.40722 1.79546 0.00225702 10
8.5915 -7.41598 2.20611 0.00220814 10
8.58134 -7.40722 2.61714 0.00215043 10
8.58936 -7.41414 3.04033 0.00208446 10
7.69754 -6.59759 -2.71648 0.000518789 1
8.60522 -7.37557 -2.61655 0.00277421 10
8.59589 -7.36757 -2.20062 0.00285034 10
8.59368 -7.36568 -1.79265 0.00291513 10
8.69618 -7.45353 -1.40629 0.00145024 10
8.70149 -7.45808 -1.00265 0.00146956 10
8.69347 -7.4512 -0.600056 0.00148256 10
8.69308 -7.45088 -0.199847 0.00148909 10
8.68787 -7.44641 0.199727 0.00148911 10
8.68938 -7.4477 0.599774 0.00148259 10
8.6846 -7.4436 1.0007 0.00146962 10
8.59092 -7.36332 1.38927 0.00231876 10
8.57981 -7.35379 1.78975 0.00227882 10
8.58212 -7.35577 2.1971 0.00222948 10
8.59679 -7.36834 2.61399 0.00217124 10
8.57798 -7.35223 3.0272 0.00210467 10
7.70191 -6.55485 -2.70994 0.000518814 1
8.5983 -7.31773 -2.60666 0.00280089 10
8.59115 -7.31164 -2.19286 0.00287771 10
8.59343 -7.31359 -1.78726 0.00294309 10
8.76634 -7.46074 -1.41342 0.00142638 10
8.76995 -7.46382 -1.00753 0.0014454 10
8.75044 -7.44721 -0.602191 0.00145819 10
8.75524 -7.4513 -0.200677 0.00146463 10
8.75013 -7.44695 0.20056 0.00146464 10
8.7477 -7.44488 0.602002 0.00145823 10
8.75678 -7.4526 1.00601 0.00144546 10
8.58484 -7.30627 1.38415 0.00234097 10
8.58698 -7.3081 1.78592 0.00230066 10
8.59591 -7.3157 2.19408 0.00225087 10
8.59843 -7.31784 2.6067 0.00219209 10
8.59875 -7.31811 3.02549 0.00212491 10
7.72958 -6.532 -2.71163 0.000518839 1
8.59417 -7.26264 -2.59771 0.00282761 10
8.59855 -7.26634 -2.18827 0.00290513 10
8.60199 -7.26925 -1.78375 0.0029711 10
15.6689 -13.2413 -2.51887 8.68057e-05 10
23.5474 -19.8991 -1.6157 0.000147109 10
23.6424 -19.9794 -0.540301 7.25458e-05 10
23.6422 -19.9792 0.540295 7.25465e-05 10
8.5875 -7.257 0.58923 0.00204526 10
8.59006 -7.25917 0.983944 0.00202798 10
8.58608 -7.2558 1.38026 0.00236321 10
8.59319 -7.26181 1.78193 0.00232254 10
8.59856 -7.26635 2.18827 0.00227229 10
8.59528 -7.26358 2.59805 0.00221298 10
8.59366 -7.26221 3.01477 0.00214518 10
7.74584 -6.49953 -2.70936 0.000518864 1
8.60902 -7.22382 -2.59456 0.00285438 10
8.59812 -7.21468 -2.18173 0.0029326 10
8.59719 -7.2139 -1.77752 0.00299916 10
8.60335 -7.21907 -1.37898 0.00201686 10
8.60141 -7.21744 -0.982352 0.00204421 10
8.59362 -7.21091 -0.58792 0.00206279 10
8.59605 -7.21294 -0.195869 0.00207242 10
8.59004 -7.2079 0.195732 0.002073 10
8.6023 -7.21819 0.588514 0.00206453 10
8.60755 -7.22259 0.983054 0.00204709 10
8.59255 -7.21 1.37725 0.0023855 10
8.59999 -7.21625 1.7781 0.00234446 10
8.59844 -7.21495 2.18182 0.00229376 10
8.59452 -7.21166 2.59019 0.00223391 10
8.59487 -7.21195 3.00634 0.0021655 10
7.77531 -6.47815 -2.71174 0.00051889 1
8.60067 -7.16581 -2.58449 0.0028812 10
8.61656 -7.17905 -2.18004 0.00296011 10
8.61024 -7.17378 -1.77503 0.00302727 10
8.61429 -7.17716 -1.37671 0.00150377 10
8.61676 -7.17921 -0.981238 0.00152374 10
8.61924 -7.18128 -0.587954 0.00153716 10
8.60833 -7.17219 -0.195577 0.00154392 10
8.61739 -7.17974 0.195783 0.00154393 10
8.60323 -7.16794 0.586862 0.0015372 10
8.62344 -7.18478 0.981998 0.0015238 10
8.60139 -7.1664 1.37465 0.00240782 10
8.58909 -7.15616 1.77067 0.00236641 10
8.5887 -7.15584 2.17299 0.00231525 10
8.60708 -7.17115 2.58641 0.00225487 10
8.60555 -7.16988 3.0013 0.00218584 10
7.80968 -6.46073 -2.71585 0.000518914 1
8.61699 -7.1286 -2.5819 0.00290806 10
8.61858 -7.12991 -2.17424 0.00298767 10
