VERSION 0.7
FIELDS x y z intensity label
SIZE 4 4 4 4 4
TYPE F F F F F
COUNT 1 1 1 1 1
WIDTH 1157
HEIGHT 1
VIEWPOINT 5.5783 54.0688 2.72733 0.876819 0.000118029 0.000863614 -0.48082
POINTS 1157
DATA ascii
-6.84672 9.63428 -2.72871 0.000305636 1
-7.6703 10.7932 -2.5738 0.000334765 10
-7.66479 10.7854 -2.09567 0.00034257 10
-7.67005 10.7928 -1.62575 0.000348931 10
-7.6701 10.7929 -1.15841 0.000353781 10
-7.6704 10.7933 -0.693944 0.000357071 10
-7.65897 10.7772 -0.230782 0.000358766 10
-7.66725 10.7889 0.231032 0.000358848 10
-7.67231 10.796 0.694117 0.000357318 10
-7.66169 10.781 1.15714 0.00035419 10
-7.65724 10.7748 1.62303 0.000349496 10
-7.55905 10.6366 2.06676 0.000131996 10
-7.09654 9.9858 2.38127 0.000175831 10
-5.93508 8.29004 -2.7319 0.00050647 1
-6.88684 9.61945 -2.7313 0.000305607 1
-7.69292 10.7454 -2.56879 0.000329065 10
-7.69471 10.7479 -2.09358 0.000336738 10
-7.69682 10.7508 -1.62346 0.000342992 10
-7.6965 10.7504 -1.15673 0.000347761 10
-7.70278 10.7591 -0.693472 0.000350997 10
-7.69685 10.7509 -0.230792 0.000352665 10
-7.69037 10.7418 0.230597 0.000352748 10
-7.69762 10.7519 0.693007 0.000351245 10
-7.69342 10.7461 1.15626 0.000348173 10
-7.69289 10.7453 1.62263 0.000343561 10
-7.59379 10.6069 2.06613 0.000132014 10
-7.12743 9.9555 2.37997 0.000172827 10
-5.96296 8.26785 -2.73143 0.000506431 1
-6.91533 9.58835 -2.72931 0.000305579 1
-7.7351 10.725 -2.57036 0.000323328 10
-7.72528 10.7114 -2.09171 0.000330869 10
-7.72294 10.7081 -1.62107 0.000337015 10
-7.73204 10.7207 -1.15644 0.000341702 10
-7.71985 10.7038 -0.691641 0.000344883 10
-7.72848 10.7158 -0.230617 0.000346524 10
-7.7374 10.7282 0.230883 0.000346608 10
-7.72618 10.7126 0.692207 0.000345134 10
-7.72324 10.7085 1.15512 0.000342117 10
-7.72689 10.7136 1.6219 0.000337588 10
-7.63381 10.5845 2.06695 0.000132033 10
-7.16799 9.93867 2.38191 0.000169804 10
-5.99177 8.24697 -2.73142 0.000506391 1
-6.9613 9.58142 -2.73424 0.000305551 1
-7.76024 10.6811 -2.56631 0.000317556 10
-7.7628 10.6846 -2.09176 0.000324964 10
-7.76189 10.6833 -1.62141 0.000331001 10
-7.76543 10.6882 -1.15584 0.000335607 10
-7.76861 10.6926 -0.692661 0.000338732 10
-7.75867 10.6789 -0.230404 0.000340346 10
-7.75702 10.6766 0.230355 0.000340431 10
-7.75714 10.6768 0.691638 0.000338985 10
-7.76345 10.6855 1.15555 0.000336024 10
-7.76712 10.6905 1.6225 0.000331579 10
-7.66846 10.5547 2.06634 0.000132051 10
-7.19117 9.8978 2.37812 0.000166763 10
-6.02799 8.2362 -2.73481 0.000506351 1
-6.9828 9.54078 -2.72958 0.000305522 1
-7.80003 10.6574 -2.56715 0.000311749 10
-7.79568 10.6514 -2.09059 0.000319022 10
-7.7956 10.6513 -1.62067 0.000324951 10
-7.79719 10.6535 -1.15503 0.000329474 10
-7.79026 10.644 -0.691274 0.000332544 10
-7.80233 10.6605 -0.230594 0.00033413 10
-7.79362 10.6486 0.230337 0.000334215 10
-7.78933 10.6428 0.691192 0.000332798 10
-7.78686 10.6394 1.1535 0.000329894 10
-7.79061 10.6445 1.61964 0.000325533 10
-7.69808 10.5181 2.06442 0.000132069 10
-7.22566 9.87261 2.37811 0.000163704 10
-6.04707 8.20205 -2.73046 0.000506312 1
-7.02596 9.52978 -2.73343 0.000305494 1
-7.82565 10.6145 -2.56337 0.000305908 10
-7.82143 10.6087 -2.08755 0.000313046 10
-7.82469 10.6131 -1.61901 0.000318865 10
-7.82444 10.6128 -1.15357 0.000323305 10
-7.81881 10.6052 -0.690518 0.00032632 10
-7.82613 10.6151 -0.230201 0.000327879 10
-7.82984 10.6201 0.23031 0.000327964 10
-7.82144 10.6087 0.690751 0.000326576 10
-7.82294 10.6108 1.15335 0.000323729 10
-7.81902 10.6055 1.61784 0.000319452 10
-7.75045 10.5125 2.06861 0.000132087 10
-7.25168 9.83594 2.37536 0.000160627 10
-6.07328 8.17768 -2.72939 0.000506272 1
-7.06178 9.50869 -2.73444 0.000305466 1
-7.85294 10.574 -2.5602 0.000300032 10
-7.85826 10.5811 -2.08751 0.000307035 10
-7.86505 10.5903 -1.6197 0.000312744 10
-7.85878 10.5819 -1.15318 0.000317101 10
-7.86088 10.5847 -0.690966 0.00032006 10
-7.85321 10.5744 -0.229911 0.000321591 10
-7.85191 10.5726 0.229872 0.000321677 10
-7.85989 10.5833 0.690879 0.000320318 10
-7.8661 10.5917 1.15425 0.000317528 10
-7.86235 10.5867 1.61915 0.000313335 10
-7.77714 10.4719 2.06596 0.000132105 10
-7.28794 9.81322 2.376 0.000157533 10
-6.11364 8.17228 -2.73469 0.000506233 1
-7.08369 9.46896 -2.73011 0.000305438 1
-7.89469 10.5531 -2.56179 0.000294125 10
-7.89607 10.5549 -2.08776 0.000300991 10
-7.88616 10.5417 -1.61646 0.00030659 10
-7.88531 10.5405 -1.15167 0.000310863 10
-7.88199 10.5361 -0.689585 0.000313765 10
-7.88787 10.5439 -0.229846 0.000315268 10
-7.88497 10.5401 0.229762 0.000315355 10
-7.89001 10.5468 0.690287 0.000314025 10
-7.88514 10.5403 1.15164 0.000311293 10
-7.89424 10.5525 1.61812 0.000307185 10
-7.80876 10.4382 2.06467 0.000132123 10
-7.31811 9.78232 2.37469 0.000154422 10
-6.13259 8.13822 -2.73044 0.000506194 1
-7.12333 9.45298 -2.73265 0.000305409 1
-7.9217 10.5124 -2.55863 0.000288184 10
-7.91646 10.5055 -2.08344 0.000294914 10
-7.91582 10.5047 -1.61502 0.000300401 10
-7.92945 10.5227 -1.15274 0.000304589 10
-7.92709 10.5196 -0.690314 0.000307436 10
-7.91782 10.5073 -0.229649 0.00030891 10
-7.92884 10.5219 0.229968 0.000308998 10
-7.92121 10.5118 0.689802 0.000307697 10
-7.93254 10.5268 1.15319 0.000305023 10
-7.92772 10.5204 1.61744 0.000301 10
-7.8593 10.4296 2.06839 0.000132141 10
-7.34382 9.74557 2.37198 0.000151294 10
-6.17156 8.13074 -2.73514 0.000506154 1
-7.1504 9.42031 -2.73041 0.000305381 1
-7.96173 10.4892 -2.55972 0.000282213 10
-7.95011 10.4739 -2.08266 0.000288805 10
-7.94774 10.4708 -1.61406 0.00029418 10
-7.95256 10.4771 -1.15078 0.000298284 10
-7.9635 10.4915 -0.690291 0.000301073 10
-7.94913 10.4726 -0.229495 0.00030252 10
-7.95881 10.4854 0.229775 0.000302608 10
-7.96075 10.4879 0.690053 0.000301337 10
-7.95783 10.4841 1.15154 0.00029872 10
-7.95346 10.4783 1.61522 0.000294784 10
-7.87902 10.3802 2.06404 0.000132159 10
-7.36996 9.70957 2.36946 0.00014815 10
-6.19765 8.10619 -2.73415 0.000506115 1
-7.18054 9.39176 -2.72938 0.000305353 1
-7.98675 10.4462 -2.55603 0.00027621 10
-7.99573 10.458 -2.08503 0.000282663 10
-7.99124 10.4521 -1.61548 0.000287926 10
-7.9855 10.4446 -1.15026 0.000291945 10
-7.98246 10.4406 -0.688772 0.000294678 10
-7.98856 10.4486 -0.229579 0.000296096 10
-7.9904 10.451 0.229632 0.000296184 10
-7.9973 10.46 0.690052 0.000294943 10
-7.98348 10.442 1.14997 0.000292384 10
-7.98797 10.4478 1.61482 0.000288535 10
-7.92008 10.359 2.06531 0.000132177 10
-7.39559 9.67303 2.36683 0.00014499 10
-6.22206 8.07951 -2.73246 0.000506076 1
-7.22029 9.37574 -2.73203 0.000305325 1
-8.02101 10.4155 -2.55534 0.000270176 10
-8.02053 10.4149 -2.08201 0.000276491 10
-8.01648 10.4096 -1.61322 0.000281641 10
-8.01852 10.4123 -1.14977 0.000285574 10
-8.01155 10.4032 -0.688143 0.000288249 10
-8.02339 10.4186 -0.229534 0.000289639 10
-8.01481 10.4074 0.229288 0.000289728 10
-8.02896 10.4258 0.68964 0.000288516 10
-8.01422 10.4067 1.14916 0.000286016 10
-8.02205 10.4169 1.61434 0.000282253 10
-7.96395 10.3414 2.06732 0.000132195 10
-7.43737 9.65762 2.3694 0.000141814 10
-6.241 8.04586 -2.72843 0.000506036 1
-7.25764 9.3565 -2.73379 0.000305297 1
-8.05222 10.3809 -2.55372 0.000264113 10
-8.05675 10.3867 -2.08199 0.000270288 10
-8.05258 10.3813 -1.61319 0.000275325 10
-8.05766 10.3879 -1.15018 0.000279172 10
-8.04788 10.3753 -0.688149 0.00028179 10
-8.04738 10.3746 -0.229183 0.000283151 10
-8.05182 10.3804 0.229309 0.000283241 10
-8.06064 10.3917 0.68924 0.000282059 10
-8.05476 10.3841 1.14977 0.000279617 10
-8.05487 10.3843 1.61364 0.000275941 10
-7.99276 10.3042 2.06545 0.000132212 10
-7.46396 9.62249 2.36716 0.000138623 10
-6.27828 8.03583 -2.73244 0.000505998 1
-7.2937 9.33552 -2.73508 0.000305269 1
-8.07532 10.3359 -2.54959 0.000258021 10
-8.07466 10.3351 -2.07728 0.000264055 10
-8.08654 10.3503 -1.61274 0.000268978 10
-8.0859 10.3495 -1.14905 0.000272739 10
-8.07789 10.3392 -0.687625 0.000275298 10
-8.09179 10.357 -0.229416 0.000276631 10
-8.07854 10.3401 0.229041 0.000276721 10
-8.07874 10.3403 0.687698 0.00027557 10
-8.08872 10.3531 1.14945 0.000273187 10
-8.07816 10.3396 1.61107 0.000269599 10
-8.03289 10.2816 2.06653 0.00013223 10
-7.48315 9.578 2.36263 0.000135417 10
-6.29854 8.00403 -2.72909 0.000505958 1
-7.31979 9.30179 -2.73267 0.000305241 1
-8.1129 10.3097 -2.55008 0.000251901 10
-8.11577 10.3133 -2.07858 0.000257794 10
-8.11346 10.3104 -1.61092 0.000262602 10
-8.12492 10.3249 -1.14946 0.000266276 10
-8.11145 10.3078 -0.687415 0.000268778 10
-8.12031 10.3191 -0.229202 0.000270081 10
-8.11251 10.3092 0.228982 0.000270173 10
-8.10966 10.3056 0.687264 0.000269051 10
-8.1234 10.323 1.14925 0.000266728 10
-8.11111 10.3074 1.61046 0.000263227 10
-8.06487 10.2486 2.06555 0.000132248 10
-7.52121 9.55776 2.36409 0.000132197 10
-6.33549 7.9934 -2.73299 0.000505919 1
-7.35477 9.27941 -2.73362 0.000305213 1
-8.14711 10.2791 -2.54953 0.000245752 10
-8.15088 10.2839 -2.07837 0.000251503 10
-8.14249 10.2733 -1.60956 0.000256197 10
-8.1568 10.2913 -1.14889 0.000259784 10
-8.14287 10.2737 -0.687034 0.000262227 10
-8.14473 10.2761 -0.228878 0.000263501 10
-8.1485 10.2809 0.228983 0.000263593 10
-8.15401 10.2878 0.687974 0.000262502 10
-8.15284 10.2863 1.14833 0.000260238 10
-8.15746 10.2921 1.61251 0.000256826 10
-8.09282 10.2106 2.06356 0.000132266 10
-6.36589 7.97442 -2.73408 0.00050588 1
-7.37743 9.24155 -2.73004 0.000305185 1
-8.1762 10.2422 -2.54744 5.62734e-05 10
-8.18235 10.2499 -2.07725 5.74517e-05 10
-8.18482 10.253 -1.61084 5.83839e-05 10
-8.19032 10.2598 -1.14856 5.90608e-05 10
-8.18593 10.2543 -0.687643 5.94755e-05 10
-8.18039 10.2474 -0.228873 5.96236e-05 10
-8.17845 10.245 0.228819 5.95038e-05 10
-8.18837 10.2574 0.687848 5.91174e-05 10
-8.18125 10.2485 1.14728 5.84683e-05 10
-8.1895 10.2588 1.61176 5.75636e-05 10
-8.1281 10.1819 2.06348 0.000132284 10
-6.38592 7.94249 -2.73076 0.000505842 1
-7.42225 9.23142 -2.73468 0.000305157 1
-8.21296 10.2149 -2.54776 6.27814e-05 10
-8.21156 10.2131 -2.07561 6.41094e-05 10
-8.22148 10.2255 -1.61102 6.51631e-05 10
-8.21478 10.2171 -1.14698 6.59322e-05 10
-8.22523 10.2301 -0.68794 6.64089e-05 10
-8.21749 10.2205 -0.228911 6.6588e-05 10
-8.22786 10.2334 0.2292 6.6468e-05 10
-8.21247 10.2143 0.686873 6.605e-05 10
-8.22479 10.2296 1.14837 6.53384e-05 10
-8.21457 10.2169 1.60967 6.43409e-05 10
-8.17273 10.1648 2.06579 0.000132302 10
-7.62905 9.48862 2.36663 3.16309e-05 10
-6.41561 7.92262 -2.73161 0.000505802 1
-7.45577 9.20711 -2.73517 0.000305129 1
-8.2647 10.2061 -2.55275 6.92818e-05 10
-8.25036 10.1883 -2.07641 7.0759e-05 10
-8.24863 10.1862 -1.60936 7.19343e-05 10
-8.26071 10.2011 -1.14841 7.27957e-05 10
-8.2582 10.198 -0.687716 7.33341e-05 10
-8.25968 10.1999 -0.229094 7.35442e-05 10
-8.26032 10.2007 0.229111 7.34239e-05 10
-8.25094 10.1891 0.687112 7.29743e-05 10
-8.24749 10.1848 1.14657 7.22005e-05 10
-8.25993 10.2002 1.61157 7.11102e-05 10
-8.21182 10.1408 2.06671 0.00013232 10
-7.6503 9.44733 2.36297 3.50421e-05 10
-6.45035 7.90891 -2.73463 0.000505764 1
-7.4833 9.17544 -2.73351 0.000305101 1
-8.29576 10.1716 -2.55136 7.57742e-05 10
-8.29738 10.1736 -2.0793 7.74009e-05 10
-8.28635 10.1601 -1.60979 7.86976e-05 10
-8.29147 10.1664 -1.14775 7.96509e-05 10
-8.29384 10.1693 -0.687725 8.0251e-05 10
-8.30068 10.1776 -0.229244 8.04921e-05 10
-8.2993 10.176 0.229206 8.03715e-05 10
-8.29669 10.1728 0.687961 7.98905e-05 10
-8.29659 10.1726 1.14846 7.90544e-05 10
-8.28643 10.1602 1.60981 7.78716e-05 10
-8.2342 10.0961 2.06346 0.000132337 10
-7.67964 9.41617 2.36187 3.84494e-05 10
-6.47802 7.88647 -2.73467 0.000505725 1
-7.51195 9.1452 -2.7323 0.000305073 1
-8.32681 10.1372 -2.55001 8.22595e-05 10
-8.33121 10.1426 -2.07889 8.40352e-05 10
-8.32275 10.1323 -1.60998 8.54531e-05 10
-8.33419 10.1462 -1.14875 8.64984e-05 10
-8.32895 10.1398 -0.687696 8.71603e-05 10
-8.32434 10.1342 -0.228919 8.74321e-05 10
-8.32867 10.1395 0.229038 8.73113e-05 10
-8.33103 10.1424 0.687868 8.67989e-05 10
-8.33932 10.1525 1.14946 8.59005e-05 10
-8.32976 10.1408 1.61134 8.46252e-05 10
-8.28491 10.0862 2.06733 0.000132355 10
-7.72215 9.4011 2.36484 4.18531e-05 10
-6.50662 7.86516 -2.73514 0.000505686 1
-7.54984 9.1262 -2.73447 0.000305045 1
-8.37106 10.1189 -2.55273 8.87345e-05 10
-8.35755 10.1026 -2.07665 9.06593e-05 10
-8.36812 10.1153 -1.61192 9.21983e-05 10
-8.36065 10.1063 -1.14753 9.33353e-05 10
-8.36391 10.1102 -0.687665 9.40589e-05 10
-8.36078 10.1065 -0.22895 9.43615e-05 10
-8.36385 10.1102 0.229034 9.42405e-05 10
-8.35914 10.1045 0.687272 9.36967e-05 10
-8.36665 10.1136 1.14835 9.27361e-05 10
-8.36172 10.1076 1.61069 9.13687e-05 10
-8.30993 10.045 2.06482 0.000132373 10
-7.75208 9.37066 2.36397 4.52515e-05 10
-6.52021 7.8258 -2.72935 0.000505647 1
-7.57158 9.0877 -2.73084 0.000305017 1
-8.39433 10.0752 -2.54908 9.52008e-05 10
-8.39429 10.0751 -2.07703 9.72746e-05 10
-8.41134 10.0956 -1.61345 9.89343e-05 10
-8.39944 10.0813 -1.14802 0.000100163 10
-8.39478 10.0757 -0.687307 0.000100948 10
-8.41063 10.0948 -0.229348 0.000101282 10
-8.41162 10.0959 0.229375 0.00010116 10
-8.40525 10.0883 0.688164 0.000100585 10
-8.40856 10.0923 1.14926 9.95626e-05 10
-8.40022 10.0823 1.61131 9.81029e-05 10
-8.34038 10.0104 2.06369 0.000132391 10
-7.78259 9.34095 2.36332 4.86457e-05 10
-6.55237 7.80881 -2.73139 0.000505608 1
-7.61621 9.07665 -2.73549 0.00030499 1
-8.43572 10.0533 -2.55098 0.000101656 10
-8.43632 10.054 -2.07873 0.000103878 10
-8.43466 10.052 -1.61118 0.000105658 10
-8.44778 10.0677 -1.14981 0.000106979 10
-8.44608 10.0657 -0.688627 0.000107825 10
-8.43682 10.0546 -0.229104 0.00010819 10
-8.43987 10.0582 0.229187 0.000108068 10
-8.43379 10.051 0.687625 0.000107462 10
-8.44856 10.0686 1.14992 0.000106377 10
-8.43131 10.048 1.61054 0.000104825 10
-8.37352 9.97917 2.06326 0.000132408 10
-7.82188 9.32175 2.36535 5.2034e-05 10
-6.58333 7.79031 -2.73294 0.00050557 1
-7.63526 9.03511 -2.73099 0.000304962 1
-8.48348 10.0388 -2.55481 0.0001081 10
-8.47694 10.0311 -2.0801 0.000110471 10
-8.47698 10.0311 -1.61256 0.000112372 10
-8.469 10.0217 -1.14793 0.000113783 10
-8.47656 10.0307 -0.688252 0.000114691 10
-8.48324 10.0386 -0.229412 0.000115087 10
-8.46765 10.0201 0.22899 0.000114965 10
-8.48496 10.0406 0.688935 0.000114327 10
-8.47231 10.0256 1.14838 0.00011318 10
-8.47996 10.0347 1.61313 0.000111537 10
-8.42558 9.97033 2.0675 0.000132426 10
-7.85665 9.29709 2.36604 5.5417e-05 10
-6.60609 7.76213 -2.73113 0.000505531 1
-7.68385 9.0285 -2.73708 0.000304934 1
-8.51832 10.009 -2.55477 0.000114532 10
-8.51916 10.01 -2.08187 0.000117051 10
-8.50558 9.99402 -1.61136 0.000119072 10
-8.52046 10.0115 -1.15016 0.000120575 10
-8.51133 10.0008 -0.688237 0.000121544 10
-8.50722 9.99595 -0.229115 0.00012197 10
-8.51877 10.0095 0.229426 0.000121848 10
-8.51695 10.0074 0.688691 0.000121179 10
-8.50803 9.9969 1.14848 0.000119971 10
-8.5143 10.0043 1.61301 0.000118235 10
-8.44147 9.9187 2.06289 0.000132444 10
-7.89865 9.28089 2.36892 5.87936e-05 10
-6.63971 7.74668 -2.73383 0.000505493 1
-7.70495 8.98952 -2.7334 0.000304907 1
-8.54227 9.96643 -2.5515 0.000120952 10
-8.54488 9.96948 -2.07964 0.000123618 10
-8.5426 9.96683 -1.61177 0.000125759 10
-8.54999 9.97545 -1.14944 0.000127354 10
-8.55052 9.97606 -0.688586 0.000128384 10
-8.54854 9.97375 -0.229289 0.00012884 10
-8.55895 9.9859 0.229568 0.000128718 10
-8.54614 9.97096 0.688233 0.000128018 10
-8.54214 9.96628 1.14839 0.000126748 10
-8.54486 9.96946 1.6122 0.000124921 10
-8.48985 9.90527 2.06625 0.000132461 10
-7.92102 9.24161 2.36593 6.21641e-05 10
-6.66065 7.71644 -2.73134 0.000505455 1
-7.73418 8.96013 -2.73266 0.000304879 1
-8.58309 9.94361 -2.55331 0.000127358 10
-8.58175 9.94205 -2.08015 0.000130172 10
-8.59031 9.95197 -1.61421 0.000132433 10
-8.583 9.94351 -1.14921 0.000134118 10
-8.58755 9.94878 -0.688767 0.000135209 10
-8.58727 9.94844 -0.229395 0.000135696 10
-8.58831 9.94966 0.229423 0.000135573 10
-8.59482 9.95719 0.68935 0.000134843 10
-8.59128 9.95309 1.15031 0.000133511 10
-8.59397 9.95621 1.6149 0.000131593 10
-8.51376 9.86329 2.06368 0.000132479 10
-7.9689 9.23206 2.3706 6.55274e-05 10
-6.69623 7.70313 -2.73489 0.000505416 1
-7.77385 8.9428 -2.73563 0.000304852 1
-8.62952 9.92713 -2.5568 0.00013375 10
-8.61716 9.91291 -2.08034 0.000136711 10
-8.632 9.92998 -1.61552 0.000139091 10
-8.63113 9.92899 -1.151 0.000140867 10
-8.63201 9.93 -0.689549 0.000142019 10
-8.62647 9.92362 -0.229515 0.000142537 10
-8.625 9.92193 0.229476 0.000142414 10
-8.62652 9.92368 0.68911 0.000141652 10
-8.62523 9.9222 1.15022 0.000140259 10
-8.62697 9.9242 1.61458 0.00013825 10
-8.55831 9.84521 2.06613 0.000132496 10
-7.99699 9.1995 2.36939 6.88835e-05 10
-6.72525 7.6822 -2.73578 0.000505377 1
-7.79647 8.90584 -2.73263 0.000304824 1
-8.65671 9.88848 -2.55461 0.000140127 10
-8.66361 9.89636 -2.0832 0.000143235 10
-8.6681 9.90149 -1.6158 0.000145735 10
-8.6559 9.88756 -1.1497 0.000147601 10
-8.66932 9.90289 -0.689764 0.000148815 10
-8.66876 9.90225 -0.22972 0.000149363 10
-8.65423 9.88565 0.229334 0.000149239 10
-8.6581 9.89007 0.688871 0.000148447 10
-8.66714 9.90039 1.15119 0.000146993 10
-8.657 9.88882 1.61373 0.000144892 10
-8.57997 9.80083 2.06309 0.000132514 10
-8.02697 9.16914 2.36877 7.22326e-05 10
-6.75104 7.65755 -2.73537 0.000505339 1
-7.83771 8.89014 -2.7362 0.000304797 1
-8.70074 9.86906 -2.55742 0.000409978 10
-8.69672 9.8645 -2.08287 0.0004193 10
-8.69198 9.85912 -1.61382 0.000426849 10
-8.69602 9.8637 -1.15045 0.000432546 10
-8.6981 9.86607 -0.689309 0.000436333 10
-8.69784 9.86577 -0.229576 0.000438172 10
-8.69254 9.85976 0.229436 0.000438042 10
-8.70542 9.87436 0.689889 0.000435946 10
-8.7099 9.87945 1.15228 0.000431905 10
-8.70808 9.87738 1.61681 0.000425961 10
-8.6239 9.7819 2.06543 0.000132532 10
-8.06786 9.1512 2.3714 7.55733e-05 10
-6.77549 7.63141 -2.73447 0.000505301 1
-7.87069 8.86497 -2.73689 0.000304769 1
-8.75071 9.85616 -2.56198 0.000415395 10
-8.73403 9.83737 -2.08357 0.000424843 10
-8.74397 9.84857 -1.61708 0.000432494 10
-8.7371 9.84083 -1.15133 0.00043827 10
-8.73302 9.83623 -0.689351 0.00044211 10
-8.73335 9.8366 -0.229606 0.000443975 10
-8.74815 9.85328 0.229995 0.000443845 10
-8.74579 9.85062 0.690359 0.000441723 10
-8.7342 9.83756 1.15095 0.00043763 10
-8.73359 9.83688 1.61516 0.000431608 10
-8.64644 9.73872 2.06267 0.000132549 10
-8.08725 9.10889 2.36774 7.89063e-05 10
-6.80036 7.6058 -2.73378 0.000505263 1
-7.90278 8.83878 -2.7373 0.000304742 1
-8.7866 9.82728 -2.56243 0.000420766 10
-8.78542 9.82596 -2.08763 0.00043034 10
-8.7881 9.82895 -1.61889 0.000438093 10
-8.79325 9.83472 -1.1542 0.000443946 10
-8.77941 9.81924 -0.690303 0.000447838 10
-8.79115 9.83236 -0.230221 0.000449729 10
-8.78945 9.83047 0.230177 0.0004496 10
-8.77937 9.8192 0.6903 0.000447451 10
-8.79037 9.8315 1.15382 0.000443306 10
-8.78707 9.8278 1.6187 0.000437208 10
-8.68304 9.71146 2.0633 0.000132567 10
-8.13489 9.09839 2.37237 8.22301e-05 10
-6.82308 7.57779 -2.73226 0.000505224 1
-7.92137 8.79757 -2.73309 0.000304714 1
-8.82726 9.80367 -2.56429 0.000426092 10
-8.83486 9.81211 -2.09123 0.00043579 10
-8.82125 9.797 -1.61869 0.000443645 10
-8.8272 9.8036 -1.15415 0.000449574 10
-8.83317 9.81023 -0.691833 0.000453518 10
-8.82023 9.79585 -0.230086 0.000455436 10
-8.82906 9.80567 0.230316 0.000455306 10
-8.83103 9.80785 0.691665 0.000453132 10
-8.81907 9.79456 1.15309 0.000448936 10
-8.83139 9.80825 1.62055 0.00044276 10
-8.71609 9.6802 2.06312 0.000132584 10
-8.16084 9.06353 2.3707 0.000221743 10
-6.86027 7.56582 -2.73656 0.000505186 1
-7.94872 8.76622 -2.73195 0.000304687 1
-8.87318 9.78576 -2.56769 0.000431371 10
-8.85776 9.76875 -2.08856 0.000441193 10
-8.86873 9.78085 -1.62113 0.000449148 10
-8.8694 9.78159 -1.1552 0.000455154 10
-8.87144 9.78384 -0.692152 0.000459149 10
-8.87342 9.78602 -0.230581 0.000461092 10
-8.86302 9.77455 0.230311 0.000460963 10
-8.86321 9.77476 0.691509 0.000458763 10
-8.86703 9.77898 1.15489 0.000454516 10
-8.86507 9.77681 1.62046 0.000448264 10
-8.76366 9.66497 2.06638 0.000132602 10
-8.20879 9.05304 2.37543 0.000224551 10
-6.88435 7.53933 -2.73565 0.000505148 1
-7.98244 8.7419 -2.73304 0.00030466 1
-8.90508 9.75231 -2.56706 0.000436604 10
-8.90155 9.74845 -2.09085 0.000446548 10
-8.91558 9.76381 -1.62345 0.000454602 10
-8.90063 9.74744 -1.15483 0.000460684 10
-8.91273 9.76069 -0.692711 0.00046473 10
-8.91001 9.75772 -0.230646 0.000466699 10
-8.90869 9.75627 0.230611 0.00046657 10
-8.90313 9.75018 0.691965 0.000464345 10
-8.90547 9.75274 1.15546 0.000460046 10
-8.91064 9.75841 1.62255 0.000453719 10
-8.7955 9.63231 2.06594 0.000132619 10
-8.23783 9.02158 2.37471 0.000227335 10
-6.91381 7.51871 -2.73691 0.00050511 1
-8.01955 8.72119 -2.7353 0.000304633 1
-8.95559 9.73913 -2.5718 0.00044179 10
-8.9441 9.72663 -2.09286 0.000451856 10
-8.95872 9.74254 -1.6251 0.000460009 10
-8.95806 9.74182 -1.15786 0.000466166 10
-8.95744 9.74115 -0.693539 0.000470262 10
-8.95293 9.73623 -0.230875 0.000472256 10
-8.95649 9.74011 0.230967 0.000472128 10
-8.94353 9.72601 0.692461 0.000469877 10
-8.94661 9.72936 1.15638 0.000465529 10
-8.95256 9.73584 1.62399 0.000459127 10
-8.81304 9.58411 2.06219 0.000132637 10
-8.27989 9.00432 2.37776 0.000230095 10
-6.93496 7.48908 -2.73492 0.000505072 1
-8.04619 8.68911 -2.73403 0.000304605 1
-8.98869 9.70691 -2.57156 0.000446928 10
-8.98834 9.70653 -2.09527 0.000457114 10
-8.99726 9.71616 -1.62593 0.000465365 10
-8.99955 9.71863 -1.15883 0.000471596 10
-8.99582 9.71461 -0.69388 0.000475743 10
-8.98329 9.70108 -0.230784 0.000477762 10
-8.99565 9.71442 0.231101 0.000477633 10
-9.00069 9.71987 0.694256 0.000475358 10
-8.99844 9.71743 1.15869 0.000470959 10
-8.9858 9.70379 1.62386 0.000464484 10
-8.85517 9.56272 2.06423 0.000132654 10
-8.31444 8.97878 2.37867 0.00023283 10
-6.96508 7.46913 -2.7365 0.000505034 1
-8.08455 8.66962 -2.73676 0.000304578 1
-9.02581 9.67899 -2.5725 0.000452017 10
-9.02809 9.68144 -2.09665 0.000462323 10
-9.0244 9.67748 -1.62472 0.000470671 10
-9.02961 9.68307 -1.15834 0.000476976 10
-9.0402 9.69443 -0.694689 0.000481172 10
-9.03755 9.69159 -0.231307 0.000483217 10
-9.03444 9.68825 0.231227 0.000483088 10
-9.02991 9.68339 0.693898 0.000480788 10
-9.03417 9.68796 1.15893 0.00047634 10
-9.0437 9.69818 1.62819 0.000469791 10
-8.89015 9.53352 2.06461 0.000132671 10
-8.35709 8.96188 2.3819 0.00023554 10
-6.99211 7.44584 -2.73689 0.000504996 1
-8.10288 8.6287 -2.73275 0.000304551 1
-9.08082 9.6701 -2.57854 0.000457058 10
-9.07877 9.66792 -2.10057 0.000467482 10
-9.07524 9.66415 -1.62779 0.000475926 10
-9.073 9.66177 -1.15958 0.000482304 10
-9.07836 9.66748 -0.695025 0.000486549 10
-9.06783 9.65626 -0.231218 0.000488619 10
-9.06962 9.65816 0.231263 0.00048849 10
-9.08079 9.67007 0.69521 0.000486166 10
-9.0702 9.65878 1.15922 0.000481669 10
-9.0665 9.65485 1.62622 0.000475047 10
-8.92784 9.50719 2.06564 0.000132689 10
-8.39781 8.94276 2.3846 0.000238226 10
-7.00273 7.40518 -2.73091 0.000504959 1
-8.14811 8.61638 -2.73784 0.000304524 1
-9.11461 9.63843 -2.57857 0.00046205 10
-9.11747 9.64146 -2.10172 0.000472591 10
-9.11756 9.64155 -1.62933 0.000481131 10
-9.12496 9.64938 -1.16191 0.000487581 10
-9.12481 9.64921 -0.695997 0.000491876 10
-9.10806 9.63151 -0.231385 0.000493969 10
-9.11086 9.63446 0.231456 0.000493841 10
-9.1091 9.6326 0.694799 0.000491492 10
-9.11041 9.63399 1.16005 0.000486947 10
-9.11561 9.63948 1.62899 0.000480253 10
-8.94986 9.46421 2.06308 0.000132706 10
-8.44472 8.93004 2.38905 0.000240886 10
-7.03526 7.38775 -2.73352 0.000504921 1
-8.162 8.57095 -2.73244 0.000304497 1
-9.15563 9.61436 -2.58066 0.000613693 10
-9.15145 9.60998 -2.10181 0.000627744 10
-9.16289 9.62199 -1.63142 0.000639136 10
-9.15495 9.61365 -1.16144 0.000647753 10
-9.1646 9.62378 -0.696466 0.000653506 10
-9.16035 9.61932 -0.231859 0.000656336 10
-9.16902 9.62842 0.232078 0.000656213 10
-9.16793 9.62728 0.696719 0.000653138 10
-9.15468 9.61337 1.16141 0.000647144 10
-9.16117 9.62018 1.63112 0.000638292 10
-8.9879 9.43822 2.06424 0.000132723 10
-8.48166 8.90663 2.39069 0.00024352 10
-7.06797 7.37041 -2.73622 0.000504883 1
-8.19235 8.5429 -2.7326 0.00030447 1
-9.20571 9.59962 -2.58532 0.000617501 10
-9.1971 9.59065 -2.10459 0.000631643 10
-9.21063 9.60475 -1.63394 0.00064311 10
-9.20671 9.60066 -1.16375 0.000651784 10
-9.1969 9.59044 -0.696372 0.000657576 10
-9.20392 9.59776 -0.232113 0.000660425 10
-9.20935 9.60342 0.232249 0.000660302 10
-9.2161 9.61046 0.697826 0.000657209 10
-9.19688 9.59041 1.16251 0.000651177 10
-9.19658 9.59011 1.63145 0.000642269 10
-9.01951 9.40546 2.06395 0.000132741 10
-8.51797 8.88246 2.39217 0.000246129 10
-7.09514 7.34723 -2.73679 0.000504846 1
-8.22101 8.5131 -2.73223 0.000304443 1
-9.25736 9.58628 -2.59041 0.000621244 10
-9.24213 9.57051 -2.10724 0.000635476 10
-9.24401 9.57245 -1.63393 0.000647017 10
-9.25151 9.58022 -1.16518 0.000655747 10
-9.25001 9.57866 -0.697857 0.000661576 10
-9.25459 9.58341 -0.232545 0.000664444 10
-9.25741 9.58634 0.232616 0.000664322 10
-9.24875 9.57737 0.697763 0.00066121 10
-9.24263 9.57102 1.16406 0.000655141 10
-9.2482 9.57679 1.63467 0.000646178 10
-9.04602 9.36743 2.06252 0.000132758 10
-8.56099 8.86517 2.39555 0.000248711 10
-7.11843 7.32005 -2.73591 0.000504808 1
-8.26278 8.49681 -2.73624 0.000304416 1
-9.29398 9.55721 -2.5913 0.000624922 10
-9.29971 9.56311 -2.11274 0.000639242 10
-9.30091 9.56434 -1.63807 0.000650855 10
-9.30031 9.56373 -1.16712 0.000659641 10
-9.30247 9.56595 -0.699292 0.000665507 10
-9.29082 9.55397 -0.232616 0.000668395 10
-9.29331 9.55653 0.232679 0.000668272 10
-9.30387 9.56739 0.699398 0.000665142 10
-9.30388 9.56739 1.16756 0.000659037 10
-9.30605 9.56962 1.63898 0.000650019 10
-9.08193 9.33916 2.06327 0.000132775 10
-8.60277 8.84643 2.39858 0.000251267 10
-7.13348 7.28447 -2.7319 0.00050477 1
-8.29253 8.46806 -2.73629 0.000304389 1
-9.33399 9.53156 -2.59317 0.000628534 10
-9.34385 9.54163 -2.11519 0.000642943 10
-9.33238 9.52991 -1.63775 0.000654627 10
-9.34261 9.54037 -1.16824 0.000663466 10
-9.34434 9.54213 -0.699931 0.00066937 10
-9.34003 9.53773 -0.233013 0.000672275 10
-9.33964 9.53733 0.233003 0.000672154 10
-9.34502 9.54282 0.699982 0.000669006 10
-9.35084 9.54876 1.16927 0.000662864 10
-9.33439 9.53197 1.6381 0.000653794 10
-9.10878 9.30158 2.06198 0.000132792 10
-8.6335 8.81624 2.39856 0.000253797 10
-7.16192 7.26263 -2.73307 0.000504733 1
-8.31347 8.43037 -2.73347 0.000304362 1
-9.38562 9.5176 -2.59827 0.000632081 10
-9.38976 9.52179 -2.11805 0.000646576 10
-9.3908 9.52285 -1.64216 0.00065833 10
-9.39622 9.52835 -1.17078 0.000667223 10
-9.3778 9.50967 -0.699947 0.000673162 10
-9.38461 9.51658 -0.233296 0.000676086 10
-9.37908 9.51096 0.233158 0.000675965 10
-9.39158 9.52364 0.700975 0.000672799 10
-9.3841 9.51606 1.16926 0.000666622 10
-9.39417 9.52626 1.64275 0.000657499 10
-9.14432 9.2729 2.06268 0.00013281 10
-8.6679 8.78978 2.39957 0.000256299 10
-7.1864 7.23675 -2.73275 0.000504696 1
-8.34513 8.40359 -2.73422 0.000304335 1
-9.43341 9.4995 -2.6023 0.000635562 10
-9.42479 9.49082 -2.11846 0.000650141 10
-9.43006 9.49613 -1.64322 0.000661964 10
-9.4248 9.49083 -1.1702 0.00067091 10
-9.425 9.49103 -0.700993 0.000676884 10
-9.4409 9.50704 -0.233868 0.000679826 10
-9.42788 9.49393 0.233545 0.000679705 10
-9.42761 9.49366 0.701186 0.000676522 10
-9.42854 9.49459 1.17066 0.000670311 10
-9.4426 9.50875 1.6454 0.000661136 10
-9.18161 9.24593 2.0638 0.000132827 10
-8.70184 8.76281 2.40049 0.000258775 10
-7.21562 7.21563 -2.73427 0.000504658 1
-8.38685 8.38685 -2.73828 0.000304309 1
-9.48405 9.48405 -2.60712 0.000638976 10
-9.4827 9.4827 -2.12402 0.000653639 10
-9.47498 9.47499 -1.64527 0.000665529 10
-9.47759 9.4776 -1.17264 0.000674526 10
-9.47578 9.47579 -0.702306 0.000680536 10
-9.48727 9.48727 -0.234195 0.000683495 10
-9.48538 9.48538 0.234148 0.000683375 10
-9.48663 9.48664 0.703109 0.000680175 10
-9.47396 9.47396 1.17219 0.00067393 10
-9.47809 9.47809 1.64581 0.000664704 10
-9.21003 9.21004 2.06295 0.000132844 10
-8.74252 8.74252 2.40328 0.000337408 10
-7.24528 7.19488 -2.73597 0.000504621 1
-8.40277 8.34431 -2.73395 0.000304282 1
-9.53112 9.46481 -2.61096 0.000642324 10
-9.53376 9.46743 -2.12805 0.000657068 10
-9.53122 9.46491 -1.64929 0.000669026 10
-9.53154 9.46523 -1.17522 0.000678074 10
-9.52309 9.45683 -0.70336 0.000684117 10
-9.51817 9.45195 -0.234142 0.000687094 10
-9.53605 9.46971 0.234582 0.000686974 10
-9.52924 9.46294 0.703814 0.000683758 10
-9.52941 9.46311 1.17496 0.000677479 10
-9.53328 9.46695 1.64964 0.000668203 10
-9.25164 9.18727 2.06507 0.000132861 10
-8.78782 8.72669 2.40734 0.000339227 10
-7.26987 7.16907 -2.73579 0.000504584 1
-8.42991 8.31303 -2.73333 0.000304255 1
-9.56935 9.43666 -2.61239 0.000645605 10
-9.57717 9.44438 -2.13036 0.00066043 10
-9.56824 9.43557 -1.64999 0.000672453 10
-9.57004 9.43735 -1.1759 0.00068155 10
-9.57413 9.44138 -0.704692 0.000687627 10
-9.57359 9.44084 -0.234693 0.000690621 10
-9.5781 9.4453 0.234804 0.000690502 10
-9.57231 9.43958 0.704558 0.000687269 10
-9.56323 9.43062 1.17506 0.000680957 10
-9.56461 9.43199 1.64936 0.000671632 10
-9.27369 9.14511 2.06286 0.000132878 10
-8.83746 8.71492 2.41259 0.000341011 10
-7.28629 7.13527 -2.73258 0.000504547 1
-8.4551 8.27985 -2.73211 0.000304229 1
-9.61626 9.41693 -2.61621 0.000648819 10
-9.61616 9.41684 -2.13171 0.000663723 10
-9.61635 9.41703 -1.6526 0.00067581 10
-9.60828 9.40912 -1.17655 0.000684956 10
-9.62424 9.42475 -0.705954 0.000691066 10
-9.62327 9.4238 -0.235103 0.000694078 10
-9.61118 9.41196 0.234808 0.000693958 10
-9.62303 9.42357 0.705866 0.000690709 10
-9.61825 9.41888 1.17777 0.000684365 10
-9.61914 9.41976 1.65308 0.000674992 10
-9.30416 9.11131 2.06255 0.000132895 10
-8.87854 8.69451 2.41551 0.000342759 10
-7.30713 7.10587 -2.73108 0.00050451 1
-8.48888 8.25507 -2.73369 0.000304202 1
-9.66918 9.40287 -2.62166 0.000649659 10
-9.65612 9.39017 -2.13329 0.000664586 10
-9.6605 9.39442 -1.65454 0.000676693 10
-9.67091 9.40455 -1.1802 0.000685854 10
-9.66525 9.39905 -0.706552 0.000691974 10
-9.65424 9.38834 -0.235058 0.000694991 10
-9.65856 9.39255 0.235163 0.000694871 10
-9.66627 9.40004 0.706626 0.000691618 10
-9.67437 9.40792 1.18062 0.000685265 10
-9.66185 9.39574 1.65478 0.000675877 10
-9.3442 9.08684 2.06438 0.000132912 10
-8.91765 8.67204 2.4179 0.000344473 10
-7.34811 7.096 -2.73712 0.000504473 1
-8.5213 8.22893 -2.73487 0.000304176 1
-9.70306 9.37015 -2.62197 0.00065276 10
-9.70035 9.36753 -2.13583 0.000667764 10
-9.71346 9.38018 -1.658 0.000679933 10
-9.70638 9.37335 -1.18053 0.000689142 10
-9.71396 9.38067 -0.707715 0.000695294 10
-9.71661 9.38323 -0.235778 0.000698326 10
-9.71555 9.38221 0.235752 0.000698207 10
-9.71759 9.38418 0.707979 0.000694939 10
-9.70747 9.3744 1.18066 0.000688554 10
-9.71066 9.37748 1.65752 0.000679119 10
-9.36507 9.04375 2.062 0.000132929 10
-8.97016 8.66239 2.42392 0.000346151 10
-7.36275 7.06063 -2.73338 0.000504435 1
-8.55377 8.20278 -2.73608 0.000304149 1
-9.74756 9.34758 -2.62516 0.000655795 10
-9.74716 9.34719 -2.13894 0.000670873 10
-9.76773 9.36691 -1.66167 0.000683103 10
-9.75219 9.35201 -1.18212 0.000692358 10
-9.74854 9.34851 -0.707852 0.000698542 10
-9.75295 9.35274 -0.235866 0.000701591 10
-9.76505 9.36435 0.236158 0.000701472 10
-9.75193 9.35177 0.708099 0.000698188 10
-9.76801 9.36718 1.18404 0.000691772 10
-9.75189 9.35173 1.65897 0.000682292 10
-9.40341 9.01754 2.0635 0.000132946 10
-9.01783 8.64779 2.42863 0.000347794 10
-7.40022 7.04713 -2.73814 0.000504399 1
-8.58658 8.17689 -2.73743 0.000304123 1
-9.79409 9.32679 -2.62891 0.000658761 10
-9.79516 9.32781 -2.14231 0.000673913 10
-9.80594 9.33808 -1.66261 0.000686202 10
-9.80282 9.33511 -1.1843 0.000695503 10
-9.8011 9.33346 -0.709298 0.000701717 10
-9.8039 9.33614 -0.236308 0.000704782 10
-9.79972 9.33215 0.236207 0.000704664 10
-9.8121 9.34394 0.710095 0.000701364 10
-9.79698 9.32954 1.18359 0.000694919 10
-9.80174 9.33408 1.6619 0.000685394 10
-9.43271 8.98265 2.06304 0.000132963 10
-9.04647 8.61484 2.42823 0.000349402 10
-7.4244 7.0209 -2.738 0.000504362 1
-8.60021 8.13282 -2.73271 0.000304096 1
-9.85821 9.32245 -2.63736 0.000661659 10
-9.85915 9.32333 -2.14917 0.000676883 10
-9.85723 9.32152 -1.66578 0.000689231 10
-9.84038 9.30559 -1.18491 0.000698576 10
-9.84175 9.30689 -0.709885 0.000704821 10
-9.86108 9.32516 -0.2369 0.000707901 10
-9.84003 9.30525 0.236394 0.000707783 10
-9.84655 9.31142 0.710231 0.000704469 10
-9.85828 9.32252 1.18706 0.000697995 10
-9.84492 9.30988 1.6637 0.000688426 10
-9.46847 8.95389 2.06401 0.00013298 10
-9.09247 8.59832 2.43251 0.000350974 10
-7.43863 6.98534 -2.73424 0.000504325 1
-8.62963 8.10377 -2.73305 0.00030407 1
-9.89281 9.28997 -2.63793 0.000664489 10
-9.89834 9.29517 -2.15063 0.000679783 10
-9.8938 9.2909 -1.66647 0.000692189 10
-9.89872 9.29552 -1.18801 0.000701577 10
-9.89376 9.29086 -0.711293 0.000707852 10
-9.89328 9.29041 -0.236893 0.000710946 10
-9.8984 9.29521 0.237016 0.000710829 10
-9.9054 9.30179 0.71213 0.000707501 10
-9.89623 9.29318 1.18772 0.000700997 10
-9.90408 9.30055 1.6682 0.000691386 10
-9.49993 8.92103 2.06407 0.000132997 10
-9.14097 8.58394 2.43745 0.00035251 10
-7.46987 6.96576 -2.73677 0.000504288 1
-8.67001 8.08491 -2.73688 0.000304044 1
-9.94924 9.27782 -2.64432 0.00066725 10
-9.93954 9.26877 -2.15254 0.000682613 10
-9.94164 9.27073 -1.66907 0.000695075 10
-9.95474 9.28294 -1.19084 0.000704507 10
-9.94473 9.27361 -0.712626 0.00071081 10
-9.95357 9.28185 -0.23756 0.00071392 10
-9.95158 9.28 0.237512 0.000713803 10
-9.95545 9.28361 0.713394 0.000710461 10
-9.94366 9.27261 1.18952 0.000703929 10
-9.93743 9.2668 1.66836 0.000694275 10
-9.53017 8.88703 2.06389 0.000133014 10
-9.17719 8.55787 2.43913 0.000354011 10
-7.47941 6.92601 -2.73139 0.000504252 1
-8.7025 8.0586 -2.73824 0.000304017 1
-9.9895 9.25038 -2.64643 0.000669942 10
-10.0005 9.26053 -2.15872 0.000685373 10
-9.98319 9.24454 -1.67062 0.00069789 10
-9.9974 9.2577 -1.19207 0.000707364 10
-9.99497 9.25544 -0.713906 0.000713695 10
-9.99874 9.25894 -0.237865 0.000716819 10
-9.99765 9.25793 0.237839 0.000716702 10
-9.98765 9.24866 0.713383 0.000713347 10
-9.99779 9.25806 1.19212 0.000706788 10
-10.0032 9.2631 1.67397 0.000697093 10
-9.55264 8.84584 2.06205 0.000133031 10
-9.23133 8.54831 2.44557 0.000355476 10
-7.51375 6.90924 -2.7351 0.000504215 1
-8.71284 8.01187 -2.73268 0.000303991 1
-10.0462 9.23798 -2.6529 0.000672566 10
-10.043 9.23502 -2.16093 0.000688063 10
-10.0436 9.23559 -1.67533 0.000700633 10
-10.0342 9.22693 -1.19261 0.000710148 10
-10.0423 9.23432 -0.714977 0.000716507 10
-10.0338 9.22656 -0.237932 0.000719645 10
-10.0346 9.22732 0.237951 0.000719529 10
-10.0458 9.23754 0.715226 0.00071616 10
-10.0451 9.23694 1.19391 0.000709574 10
-10.0313 9.22423 1.67327 0.000699839 10
-9.5957 8.8237 2.06469 0.000133048 10
-9.27176 8.52582 2.44838 0.000357927 10
-7.54691 6.89128 -2.7384 0.000504179 1
-8.74953 7.98942 -2.73542 0.000303965 1
-10.0807 9.20495 -2.6535 0.000675121 10
-10.0816 9.20581 -2.16232 0.000690682 10
-10.0864 9.21016 -1.67709 0.000703305 10
-10.0942 9.21725 -1.19591 0.000712859 10
-10.0866 9.21033 -0.71584 0.000719246 10
-10.0922 9.21549 -0.238553 0.000722398 10
-10.0798 9.20409 0.238258 0.000722282 10
-10.0962 9.21913 0.716525 0.0007189 10
-10.0859 9.20966 1.19492 0.000712288 10
-10.0837 9.20772 1.67665 0.000702514 10
-9.61046 8.77556 2.06126 0.000133064 10
-9.31217 8.50318 2.4512 0.000359309 10
-7.55197 6.84771 -2.73155 0.000504142 1
-8.78051 7.96169 -2.7364 0.000303939 1
-10.1339 9.18884 -2.65904 0.000571813 10
-10.1426 9.19677 -2.1685 0.000584974 10
-10.1322 9.18732 -1.67936 0.000595646 10
-10.1393 9.19377 -1.19745 0.000603717 10
-10.1389 9.19341 -0.717271 0.000609104 10
-10.1424 9.19653 -0.238977 0.000611751 10
-10.1369 9.19159 0.238849 0.00061163 10
-10.1414 9.1957 0.717451 0.000608743 10
-10.1402 9.19457 1.19755 0.00060312 10
-10.1347 9.18962 1.67978 0.000594819 10
-9.64361 8.7443 2.06181 0.000133081 10
-9.35979 8.48694 2.45592 0.000360654 10
-7.59494 6.83852 -2.73844 0.000504106 1
-8.81019 7.93273 -2.73701 0.000303913 1
-10.1683 9.15557 -2.65966 0.000575269 10
-10.1724 9.15924 -2.16801 0.000588514 10
-10.1727 9.15958 -1.68077 0.000599254 10
-10.1891 9.17428 -1.19953 0.000607377 10
-10.1775 9.1639 -0.717737 0.000612799 10
-10.175 9.16165 -0.238993 0.000615464 10
-10.1748 9.16147 0.238988 0.000615343 10
-10.1721 9.15898 0.717352 0.000612439 10
-10.1681 9.15537 1.19706 0.000606781 10
-10.1779 9.16426 1.68163 0.000598429 10
-9.67557 8.71192 2.06213 0.000133098 10
-9.406 8.4692 2.46028 0.000361963 10
-7.61648 6.80992 -2.73762 0.000504069 1
-8.82727 7.8925 -2.73374 0.000303887 1
-10.2268 9.14386 -2.66661 0.000578664 10
-10.2325 9.14888 -2.174 0.000591991 10
-10.231 9.14757 -1.68511 0.000602799 10
-10.2236 9.14092 -1.19983 0.000610973 10
-10.2328 9.14923 -0.719381 0.00061643 10
-10.2257 9.14283 -0.239431 0.000619112 10
-10.216 9.13416 0.239204 0.000618992 10
-10.2197 9.13752 0.71846 0.00061607 10
-10.2197 9.1375 1.19938 0.000610378 10
-10.235 9.15119 1.68578 0.000601976 10
-9.70215 8.67473 2.06133 0.000133115 10
-9.44523 8.44501 2.46281 0.000363236 10
-7.64113 6.78411 -2.73795 0.000504033 1
-8.85767 7.86421 -2.73463 0.000303861 1
-10.2736 9.12129 -2.67048 0.000581998 10
-10.27 9.11812 -2.17519 0.000595407 10
-10.2793 9.12643 -1.68782 0.00060628 10
-10.2731 9.12085 -1.2019 0.000614505 10
-10.2586 9.108 -0.71895 0.000619996 10
-10.2688 9.11703 -0.239693 0.000622695 10
-10.2604 9.10964 0.239498 0.000622575 10
-10.2697 9.11784 0.719728 0.000619637 10
-10.2743 9.12191 1.20204 0.000613912 10
-10.2607 9.10984 1.68475 0.000605459 10
-9.73193 8.64041 2.06123 0.000133131 10
-9.48792 8.42377 2.46626 0.000364472 10
-7.64841 6.74299 -2.73211 0.000503997 1
-8.89365 7.84081 -2.73728 0.000303835 1
-10.3116 9.09091 -2.6721 0.000585271 10
-10.3146 9.09356 -2.17791 0.00059876 10
-10.3246 9.10241 -1.69003 0.000609698 10
-10.3121 9.09132 -1.20274 0.000617972 10
-10.3175 9.09608 -0.720848 0.000623496 10
-10.3226 9.10063 -0.240208 0.000626213 10
-10.3173 9.0959 0.240082 0.000626093 10
-10.3099 9.08936 0.720316 0.000623138 10
-10.3256 9.10327 1.20432 0.00061738 10
-10.3126 9.09178 1.68805 0.000608879 10
-9.76652 8.61035 2.06218 0.000133148 10
-9.53243 8.40397 2.47019 0.000365671 10
-7.69076 6.73275 -2.73883 0.000503961 1
-8.91988 7.80876 -2.73694 0.000303809 1
-10.3499 9.06068 -2.67382 0.000588483 10
-10.3488 9.05966 -2.17843 0.00060205 10
-10.3502 9.06095 -1.68903 0.000613052 10
-10.3563 9.06629 -1.20421 0.000621375 10
-10.3575 9.06732 -0.72143 0.000626932 10
-10.3647 9.07363 -0.240448 0.000629665 10
-10.3589 9.06851 0.240313 0.000629546 10
-10.3543 9.06452 0.721207 0.000626575 10
-10.3549 9.06502 1.20404 0.000620785 10
-10.3567 9.06663 1.69009 0.000612235 10
-9.80578 8.58431 2.06413 0.000133165 10
-9.58348 8.3897 2.47581 0.000366834 10
-7.71195 6.7039 -2.73802 0.000503925 1
-8.94279 7.77385 -2.73563 0.000303783 1
-10.3958 9.03693 -2.6775 0.000591632 10
-10.4104 9.04962 -2.18474 0.000605277 10
-10.4124 9.0514 -1.69401 0.000616342 10
-10.4006 9.04111 -1.20568 0.000624713 10
-10.4124 9.05136 -0.723047 0.000630302 10
-10.3945 9.03579 -0.240406 0.000633051 10
-10.4109 9.05007 0.240785 0.000632932 10
-10.4117 9.05079 0.723002 0.000629946 10
-10.4141 9.05287 1.20724 0.000624124 10
-10.4038 9.04387 1.6926 0.000615527 10
-9.82627 8.54185 2.06216 0.000133181 10
-9.63264 8.37353 2.48095 0.00036796 10
-7.72926 6.67172 -2.73588 0.000503889 1
-8.96462 7.73805 -2.73403 0.000303757 1
-10.4555 9.02492 -2.68474 0.00059472 10
-10.4483 9.01872 -2.18607 0.00060844 10
-10.4562 9.02559 -1.696 0.000619567 10
-10.4486 9.01902 -1.20759 0.000627985 10
-10.4427 9.01386 -0.722959 0.000633606 10
-10.4538 9.02347 -0.241047 0.000636371 10
-10.4511 9.02115 0.240985 0.000636253 10
-10.4499 9.02008 0.723458 0.000633251 10
-10.4553 9.02482 1.20836 0.000627398 10
-10.4603 9.02911 1.69666 0.000618754 10
-9.85361 8.50541 2.06165 0.000133198 10
-9.66829 8.34545 2.48261 0.000369049 10
-7.74119 6.635 -2.73189 0.000503853 1
-8.99116 7.70636 -2.7339 0.000303731 1
-10.5022 9.00147 -2.68866 0.000451682 10
-10.484 8.98584 -2.18696 0.000462074 10
-10.4884 8.98962 -1.69611 0.000470496 10
-10.4921 8.99283 -1.20898 0.000476859 10
-10.5063 9.00496 -0.725183 0.000481097 10
-10.4873 8.98872 -0.241096 0.000483167 10
-10.5035 9.00257 0.241467 0.000483046 10
-10.4893 8.99044 0.724013 0.000480736 10
-10.4884 8.98965 1.20855 0.000476261 10
-10.499 8.99873 1.69783 0.000469667 10
-9.8918 8.4783 2.06344 0.000133214 10
-9.71632 8.3279 2.48747 0.000316757 10
-7.76651 6.60982 -2.73267 0.000503817 1
-9.0303 7.68539 -2.73763 0.000303706 1
-10.5279 8.95995 -2.68721 0.000455844 10
-10.5358 8.96665 -2.19123 0.000466336 10
-10.5303 8.96203 -1.69783 0.000474837 10
-10.5312 8.96273 -1.20986 0.000481262 10
-10.5421 8.97204 -0.72549 0.000485542 10
-10.5427 8.97258 -0.241648 0.000487632 10
-10.5267 8.95892 0.24128 0.000487511 10
-10.5279 8.95999 0.724515 0.00048518 10
-10.5294 8.96123 1.20966 0.000480664 10
-10.5304 8.96207 1.69784 0.00047401 10
-9.91625 8.4394 2.06238 0.000133231 10
-9.74829 8.29645 2.48822 0.000318338 10
-7.79835 6.59012 -2.73576 0.000503781 1
-9.06242 7.65834 -2.73924 0.00030368 1
-10.5809 8.94156 -2.69276 0.000459957 10
-10.5752 8.93671 -2.19292 0.000470547 10
-10.5887 8.94816 -1.7022 0.000479129 10
-10.5703 8.93263 -1.21078 0.000485614 10
-10.5806 8.94129 -0.725986 0.000489934 10
-10.5761 8.93753 -0.241697 0.000492045 10
-10.581 8.94165 0.241808 0.000491924 10
-10.5731 8.93497 0.725472 0.000489573 10
-10.5861 8.94598 1.21258 0.000485016 10
-10.5869 8.94659 1.7019 0.000478301 10
-9.93227 8.39342 2.0596 0.000133247 10
-9.79891 8.28072 2.49375 0.000319887 10
-7.81305 6.55593 -2.73287 0.000503746 1
-9.0818 7.62054 -2.73705 0.000303655 1
-10.6139 8.90616 -2.69324 0.00046402 10
-10.622 8.91294 -2.19617 0.000474707 10
-10.6236 8.91423 -1.70279 0.000483368 10
-10.6117 8.90425 -1.21194 0.000489913 10
-10.6286 8.91849 -0.727142 0.000494273 10
-10.6193 8.91063 -0.24197 0.000496405 10
-10.6132 8.90551 0.241831 0.000496284 10
-10.6205 8.91166 0.726586 0.000493913 10
-10.6258 8.91611 1.21355 0.000489316 10
-10.6246 8.91509 1.70295 0.000482541 10
-9.97975 8.37401 2.06338 0.000133264 10
-9.83326 8.25109 2.49515 0.000321402 10
-7.83789 6.53029 -2.73357 0.00050371 1
-9.10285 7.58421 -2.7354 0.000303629 1
-10.6741 8.89332 -2.70061 0.000468034 10
-10.6629 8.884 -2.1982 0.000478817 10
-10.6698 8.88975 -1.70521 0.000487555 10
-10.6637 8.88465 -1.21433 0.000494159 10
-10.6636 8.88459 -0.727409 0.00049856 10
-10.6676 8.88792 -0.242364 0.000500711 10
-10.6701 8.88997 0.242419 0.000500591 10
-10.6632 8.88423 0.72738 0.0004982 10
-10.6645 8.88536 1.21443 0.000493563 10
-10.6653 8.88603 1.7045 0.00048673 10
-9.99812 8.33012 2.06115 0.00013328 10
-9.89393 8.24331 2.50322 0.000322884 10
-7.87218 6.51243 -2.73758 0.000503674 1
-9.12855 7.5518 -2.73518 0.000303604 1
-10.6982 8.85034 -2.69888 0.000471997 10
-10.7086 8.85895 -2.20124 0.000482874 10
-10.7137 8.86318 -1.70728 0.00049169 10
-10.704 8.8551 -1.21539 0.000498353 10
-10.7148 8.86406 -0.728786 0.000502793 10
-10.7022 8.85359 -0.242445 0.000504964 10
-10.7131 8.86261 0.242691 0.000504843 10
-10.7037 8.85486 0.72803 0.000502433 10
-10.7 8.85179 1.21494 0.000497757 10
-10.7018 8.85332 1.70538 0.000490865 10
-10.033 8.30004 2.06236 0.000133297 10
-9.9392 8.22242 2.5074 0.000324334 10
-7.88555 6.47726 -2.73435 0.000503639 1
-9.15093 7.51665 -2.73401 0.000303578 1
-10.738 8.82025 -2.70112 0.000475909 10
-10.7561 8.83514 -2.20464 0.00048688 10
-10.7415 8.82316 -1.70678 0.000495772 10
-10.7407 8.82248 -1.21605 0.000502493 10
-10.7459 8.82682 -0.728804 0.000506972 10
-10.7498 8.82998 -0.242824 0.000509163 10
-10.7601 8.83847 0.243057 0.000509042 10
-10.7459 8.82681 0.728803 0.000506612 10
-10.7495 8.82971 1.21705 0.000501897 10
-10.7379 8.82025 1.70622 0.000494948 10
-10.0599 8.2633 2.06194 0.000133313 10
-9.98057 8.19814 2.5106 0.00032575 10
-7.90728 6.44902 -2.73407 0.000503603 1
-9.17837 7.48569 -2.73438 0.000303553 1
-10.8021 8.80997 -2.7095 0.00047977 10
-10.7922 8.80189 -2.20572 0.000490833 10
-10.792 8.80171 -1.70991 0.000499801 10
-10.7936 8.80307 -1.21856 0.000506579 10
-10.8002 8.80845 -0.730396 0.000511096 10
-10.7968 8.80566 -0.24319 0.000513306 10
-10.7846 8.79568 0.242914 0.000513186 10
-10.7984 8.80697 0.730272 0.000510737 10
-10.7995 8.80786 1.21923 0.000505984 10
-10.7883 8.79875 1.70934 0.000498977 10
-10.0777 8.21914 2.05969 0.000133319 10
-10.0152 8.16824 2.51214 0.000252253 10
-7.94025 6.42989 -2.73769 0.000503568 1
-9.21693 7.46373 -2.73809 0.000303528 1
-10.8268 8.76734 -2.708 0.000483579 10
-10.8252 8.76611 -2.20621 0.000494734 10
-10.8341 8.7733 -1.71173 0.000503775 10
-10.8272 8.76766 -1.21889 0.00051061 10
-10.8361 8.7749 -0.730745 0.000515166 10
-10.8306 8.77048 -0.243261 0.000517395 10
-10.8317 8.77134 0.243285 0.000517275 10
-10.83 8.76998 0.730336 0.000514806 10
-10.8262 8.76689 1.21878 0.000510016 10
-10.826 8.76676 1.71045 0.000502953 10
-10.1248 8.19887 2.06345 0.000133335 10
-10.0586 8.1453 2.51586 0.000254264 10
-7.95384 6.39505 -2.73466 0.000503533 1
-9.24149 7.43035 -2.73766 0.000303502 1
-10.8796 8.7474 -2.71355 0.000318735 10
-10.8757 8.74432 -2.21027 0.000326052 10
-10.8722 8.74145 -1.71291 0.000331975 10
-10.8801 8.74786 -1.22141 0.000336443 10
-10.8641 8.73495 -0.730572 0.000339408 10
-10.8762 8.74471 -0.243598 0.00034084 10
-10.8779 8.74609 0.243636 0.000340724 10
-10.87 8.73968 0.730967 0.000339061 10
-10.8787 8.7467 1.22124 0.000335869 10
-10.8778 8.74599 1.7138 0.00033118 10
-10.147 8.15836 2.06216 0.000133352 10
-10.0972 8.11834 2.51841 0.000256248 10
-7.97532 6.36662 -2.73439 0.000503497 1
-9.27557 7.40459 -2.74009 0.000303477 1
-10.9054 8.7057 -2.71241 0.000323494 10
-10.9142 8.71271 -2.2119 0.000330923 10
-10.9195 8.71696 -1.71557 0.000336937 10
-10.9104 8.70965 -1.22138 0.000341474 10
-10.9138 8.71238 -0.731866 0.000344486 10
-10.9149 8.71324 -0.243781 0.000345941 10
-10.9039 8.70446 0.243535 0.000345825 10
-10.9064 8.70646 0.731369 0.000344138 10
-10.9142 8.71273 1.22181 0.000340899 10
-10.9184 8.71606 1.71539 0.000336142 10
-10.178 8.125 2.06269 0.000133368 10
-10.1274 8.08461 2.5189 0.000258204 10
-8.01106 6.34949 -2.73903 0.000503463 1
-9.28294 7.35757 -2.73466 0.000303452 1
-10.9576 8.6849 -2.71783 0.000328218 10
-10.959 8.68599 -2.21481 0.000335758 10
-10.9415 8.67215 -1.71426 0.000341863 10
-10.9487 8.67786 -1.22228 0.000346468 10
-10.9457 8.67543 -0.731968 0.000349526 10
-10.9537 8.68181 -0.24397 0.000351005 10
-10.9566 8.6841 0.244034 0.000350888 10
-10.9611 8.68769 0.733002 0.000349178 10
-10.943 8.67328 1.22163 0.000345893 10
-10.949 8.67807 1.71543 0.000341067 10
-10.1876 8.07456 2.0589 0.000133385 10
-10.1715 8.06185 2.52285 0.000260134 10
-8.01863 6.31004 -2.73407 0.000503427 1
-9.31894 7.33329 -2.73771 0.000303427 1
-10.9901 8.64839 -2.71839 0.000332905 10
-10.9849 8.6443 -2.21395 0.000340556 10
-10.9876 8.64636 -1.71673 0.00034675 10
-10.9835 8.64315 -1.22278 0.000351424 10
-10.9934 8.65095 -0.733136 0.000354527 10
-10.9986 8.65503 -0.244295 0.000356029 10
-10.9901 8.64833 0.244106 0.000355912 10
-10.9878 8.64656 0.732763 0.000354179 10
-10.9982 8.6547 1.22441 0.000350848 10
-10.9963 8.65326 1.7181 0.000345953 10
