VERSION 0.7
FIELDS x y z intensity label
SIZE 4 4 4 4 4
TYPE F F F F F
COUNT 1 1 1 1 1
WIDTH 1164
HEIGHT 1
VIEWPOINT 7.56808 49.0916 2.72902 0.876931 0.000065 0.000834002 -0.480615
POINTS 1164
DATA ascii
-4.83604 8.24283 -2.56072 0.00119783 4
-5.57634 9.50464 -2.5441 0.000305307 4
-7.11596 12.1289 -2.73342 0.000166719 1
-8.72553 14.8723 -2.73102 7.78172e-05 1
-9.78899 16.6849 -2.37521 0.000292967 10
-9.78163 16.6724 -1.69116 0.000297322 10
-9.78736 16.6821 -1.01364 0.000300253 10
-9.7943 16.694 -0.337843 0.000301726 10
-9.7915 16.6892 1.69286 0.00029732 10
-9.79426 16.6939 2.37649 0.000292964 10
-9.79658 16.6979 3.06625 0.000287233 10
-9.7944 16.6942 3.76228 0.000280191 10
-9.79219 16.6904 4.4675 0.000271917 10
-4.85362 8.20704 -2.55485 0.00103886 4
-5.60596 9.47916 -2.5425 0.000285077 4
-7.14592 12.0831 -2.72871 0.0001667 1
-8.77638 14.8401 -2.73071 7.7806e-05 1
-9.82233 16.6087 -2.36922 0.000292527 10
-9.8326 16.626 -1.68993 0.000296873 10
-9.83409 16.6285 -1.01246 0.000299799 10
-9.82552 16.6141 -0.336918 0.00030127 10
-9.82995 16.6216 1.68947 0.000296873 10
-9.82437 16.6121 2.36971 0.000292526 10
-9.82818 16.6186 3.05797 0.000286806 10
-9.83311 16.6269 3.75483 0.000279778 10
-9.83088 16.6231 4.45865 0.00027152 10
-4.8761 8.17973 -2.55163 0.00140042 4
-5.63956 9.46045 -2.54275 0.000309741 4
-7.19146 12.0638 -2.73 0.000166681 1
-8.8323 14.8163 -2.732 7.77948e-05 1
-9.86934 16.556 -2.3666 0.000292055 10
-9.86756 16.553 -1.68599 0.000296393 10
-9.87465 16.5649 -1.01067 0.000299313 10
-9.87742 16.5695 -0.336712 0.000300781 10
-9.87088 16.5585 1.68656 0.000296395 10
-9.86519 16.549 2.36561 0.000292057 10
-9.86497 16.5486 3.05142 0.000286349 10
-9.8766 16.5681 3.74933 0.000279335 10
-9.86918 16.5557 4.44979 0.000271094 10
-4.89242 8.14236 -2.54529 0.00147182 4
-5.67389 9.44294 -2.54335 0.000193009 4
-7.24063 12.0504 -2.73269 0.000166663 1
-8.89079 14.7968 -2.7341 7.77836e-05 1
-9.91177 16.496 -2.36296 0.000291552 10
-9.90806 16.4898 -1.68307 0.000295881 10
-9.90781 16.4894 -1.00817 0.000298795 10
-9.90564 16.4858 -0.33571 0.00030026 10
-9.91385 16.4994 1.68405 0.000295884 10
-9.90999 16.493 2.36253 0.000291556 10
-9.91413 16.4999 3.04879 0.000285861 10
-9.90966 16.4925 3.74 0.000278863 10
-9.90845 16.4904 4.44151 0.00027064 10
-4.90639 8.10141 -2.53783 0.00141704 4
-5.69925 9.41058 -2.53998 0.000255826 4
-7.28252 12.0249 -2.73263 0.000166644 1
-8.93277 14.7498 -2.73115 7.77725e-05 1
-9.94441 16.4202 -2.35706 0.000291018 10
-9.94408 16.4196 -1.67944 0.000295338 10
-9.94687 16.4242 -1.00631 0.000298245 10
-9.95803 16.4427 -0.335539 0.000299708 10
-9.95524 16.4381 1.68132 0.000295342 10
-9.9476 16.4254 2.35781 0.000291024 10
-9.95673 16.4405 3.04423 0.000285342 10
-9.95831 16.4431 3.73668 0.00027836 10
-9.94637 16.4234 4.43278 0.000270156 10
-4.94447 8.10035 -2.54288 0.000421258 4
-5.73781 9.40005 -2.54252 0.000275998 4
-7.31968 11.9916 -2.73086 0.000166625 1
-8.98023 14.712 -2.72995 7.77613e-05 1
-9.98983 16.366 -2.35427 0.000290453 10
-9.98988 16.3661 -1.67752 0.000294763 10
-9.98749 16.3622 -1.00463 0.000297664 10
-9.99255 16.3704 -0.334774 0.000299123 10
-9.9899 16.3661 1.67752 0.000294769 10
-9.99167 16.369 2.3547 0.000290461 10
-9.99666 16.3772 3.03894 0.000284793 10
-9.99253 16.3704 3.72805 0.000277827 10
-10.0005 16.3835 4.4314 0.000269643 10
-4.96598 8.07208 -2.53944 0.00052838 4
-5.76398 9.36922 -2.53961 0.000264755 4
-7.36539 11.9723 -2.7323 0.000166607 1
-9.03722 14.6898 -2.73167 7.77502e-05 1
-10.0358 16.3129 -2.35167 0.000289857 10
-10.0253 16.2958 -1.67389 0.000294156 10
-10.0261 16.2972 -1.00279 0.00029705 10
-10.0348 16.3114 -0.334282 0.000298506 10
-10.0376 16.316 1.67596 0.000294163 10
-10.0332 16.3087 2.35105 0.000289867 10
-10.0343 16.3106 3.03306 0.000284213 10
-10.0403 16.3203 3.7246 0.000277265 10
-10.0283 16.3008 4.41847 0.0002691 10
-5.0047 8.07176 -2.54482 0.000387942 4
-5.79563 9.3474 -2.53916 0.000246783 4
-7.40737 11.9469 -2.73239 0.000166588 1
-9.097 14.672 -2.73424 7.7739e-05 1
-10.0759 16.2507 -2.34775 0.000289229 10
-10.0742 16.248 -1.67259 0.000293517 10
-10.0741 16.2479 -1.00191 0.000296404 10
-10.0787 16.2554 -0.333852 0.000297856 10
-10.0755 16.2501 1.6728 0.000293526 10
-10.0754 16.25 2.34765 0.000289241 10
-10.0805 16.2582 3.02984 0.000283602 10
-10.0789 16.2557 3.71786 0.000276672 10
-10.0768 16.2522 4.41481 0.000268529 10
-5.02404 8.04014 -2.54036 0.000358357 4
-5.84122 9.3479 -2.54482 0.000332006 4
-7.4421 11.9099 -2.72985 0.000166569 1
-9.14004 14.6271 -2.73181 7.77279e-05 1
-10.1104 16.18 -2.34262 0.00028857 10
-10.1145 16.1866 -1.66988 0.000292847 10
-10.1132 16.1845 -1.00017 0.000295726 10
-10.1118 16.1823 -0.333074 0.000297175 10
-10.1085 16.177 1.66889 0.000292857 10
-10.1113 16.1814 2.34283 0.000288584 10
-10.1197 16.1949 3.02461 0.000282961 10
-10.1115 16.1818 3.70902 0.00027605 10
-10.112 16.1825 4.40544 0.000267928 10
-5.05936 8.03412 -2.54403 0.000480236 4
-5.86746 9.31736 -2.54207 0.000264683 4
-7.48841 11.8914 -2.73159 0.000166551 1
-9.19831 14.6067 -2.73397 7.77167e-05 1
-10.1503 16.1184 -2.33882 0.00028788 10
-10.1529 16.1225 -1.66692 0.000292145 10
-10.1509 16.1194 -0.998333 0.000295016 10
-10.1536 16.1236 -0.332593 0.000296462 10
-10.1472 16.1135 1.66599 0.000292157 10
-10.1521 16.1213 2.33923 0.000287896 10
-10.145 16.1099 3.01534 0.000282289 10
-10.1534 16.1233 3.70371 0.000275397 10
-10.1604 16.1344 4.40198 0.000267299 10
-5.07554 7.99778 -2.53811 0.000542995 4
-5.8982 9.29409 -2.54132 0.000237745 4
-7.52658 11.86 -2.7304 0.000166532 1
-9.23795 14.5567 -2.73064 7.77056e-05 1
-10.1964 16.067 -2.3365 0.000287158 10
-10.1877 16.0532 -1.66342 0.000291411 10
-10.1845 16.0482 -0.99612 0.000294275 10
-10.1887 16.0548 -0.331907 0.000295716 10
-10.1922 16.0603 1.66415 0.000291425 10
-10.1965 16.0672 2.33654 0.000287177 10
-10.1937 16.0627 3.01315 0.000281586 10
-10.1891 16.0554 3.69626 0.000274715 10
-10.1874 16.0527 4.38937 0.00026664 10
-5.10784 7.9869 -2.5403 0.000432147 4
-5.93017 9.27275 -2.54113 0.000331916 4
-7.57132 11.8389 -2.73162 0.000166514 1
-9.3018 14.5448 -2.73449 7.76945e-05 1
-10.2289 15.9945 -2.33114 0.000286405 10
-10.2298 15.9959 -1.66117 0.000290646 10
-10.2354 16.0047 -0.995631 0.000293501 10
-10.2294 15.9952 -0.331411 0.000294938 10
-10.2299 15.996 1.66119 0.000290661 10
-10.2284 15.9937 2.33102 0.000286426 10
-10.2241 15.9869 3.00561 0.000280852 10
-10.2379 16.0085 3.69367 0.000274002 10
-10.2318 15.9991 4.38443 0.000265952 10
-5.13704 7.97113 -2.54097 0.000498593 4
-5.96978 9.26329 -2.54423 0.000331886 4
-7.61972 11.8235 -2.73417 0.000166495 1
-9.35465 14.5156 -2.73511 7.76833e-05 1
-10.2613 15.9225 -2.32585 0.000285622 10
-10.271 15.9375 -1.65882 0.000289849 10
-10.269 15.9344 -0.993479 0.000292696 10
-10.2606 15.9214 -0.330621 0.000294128 10
-10.2747 15.9432 1.65942 0.000289866 10
-10.2726 15.9399 2.3284 0.000285645 10
-10.2782 15.9486 3.00513 0.000280088 10
-10.2651 15.9283 3.6834 0.00027326 10
-10.2751 15.9439 4.37911 0.000265235 10
-5.16475 7.95302 -2.54093 0.000421002 4
-5.99106 9.22542 -2.53956 0.000354279 4
-7.65422 11.7865 -2.73177 0.000166477 1
-9.39636 14.4691 -2.73252 7.76722e-05 1
-10.3092 15.8748 -2.32413 0.000284806 10
-10.2993 15.8595 -1.65443 0.000289021 10
-10.3004 15.8612 -0.99115 0.000291858 10
-10.3105 15.8768 -0.330441 0.000293287 10
-10.3084 15.8735 1.65589 0.000289039 10
-10.3021 15.8639 2.32253 0.000284831 10
-10.3166 15.8861 3.00012 0.000279294 10
-10.3069 15.8713 3.67852 0.000272488 10
-10.3105 15.8768 4.37054 0.000264489 10
-5.1994 7.94552 -2.54432 0.000435741 4
-6.02739 9.21081 -2.54132 0.000309406 4
-7.69272 11.7557 -2.73085 0.000166458 1
-9.44715 14.4368 -2.73262 7.76611e-05 1
-10.3399 15.801 -2.3186 0.00028396 10
-10.3435 15.8066 -1.65267 0.000288161 10
-10.3526 15.8204 -0.990855 0.000290989 10
-10.3496 15.8159 -0.329923 0.000292413 10
-10.3402 15.8015 1.65214 0.00028818 10
-10.3521 15.8196 2.32133 0.000283987 10
-10.3432 15.8061 2.99181 0.000278469 10
-10.3478 15.8131 3.67338 0.000271686 10
-10.3474 15.8125 4.36277 0.000263714 10
-5.45907 8.27911 -2.65723 0.000162154 4
-6.06808 9.20273 -2.54492 0.000316104 4
-7.74501 11.7459 -2.73484 0.000166439 1
-9.5071 14.4183 -2.73539 7.76501e-05 1
-10.3773 15.7381 -2.31466 0.000283083 10
-10.3821 15.7453 -1.65004 0.000287269 10
-10.3813 15.7441 -0.988338 0.000290088 10
-10.3882 15.7545 -0.329396 0.000291507 10
-10.3935 15.7626 1.65185 0.00028729 10
-10.3905 15.758 2.3176 0.000283112 10
-10.3843 15.7487 2.98779 0.000277613 10
-10.3845 15.7489 3.66687 0.000270854 10
-10.3888 15.7554 4.357 0.00026291 10
-5.47698 8.24352 -2.65193 0.000430171 4
-6.08945 9.16536 -2.54045 0.0002959 4
-7.77493 11.7022 -2.73097 0.000166421 1
-9.55105 14.3755 -2.73358 7.7639e-05 1
-10.4301 15.6985 -2.31419 0.000282174 10
-10.4245 15.6902 -1.64807 0.000286346 10
-10.421 15.6849 -0.986903 0.000289155 10
-10.4197 15.6828 -0.328657 0.000290569 10
-10.4279 15.6952 1.6486 0.000286369 10
-10.4226 15.6873 2.31254 0.000282206 10
-10.4314 15.7005 2.98553 0.000276727 10
-10.4268 15.6937 3.66245 0.000269992 10
-10.4261 15.6925 4.34963 0.000262077 10
-5.51232 8.23421 -2.6551 0.000466534 4
-6.11799 9.13895 -2.53903 0.000255527 4
-7.82063 11.6823 -2.73268 0.000166402 1
-9.60367 14.3458 -2.73429 7.76279e-05 1
-10.4617 15.6274 -2.30908 0.000281235 10
-10.4661 15.6341 -1.64601 0.000285391 10
-10.4695 15.6392 -0.986321 0.00028819 10
-10.4697 15.6395 -0.328512 0.0002896 10
-10.4563 15.6195 1.64447 0.000285416 10
-10.4616 15.6274 2.30907 0.000281269 10
-10.4571 15.6207 2.97728 0.00027581 10
-10.4625 15.6288 3.65581 0.000269101 10
-10.4721 15.6431 4.34604 0.000261215 10
-5.54398 8.21929 -2.65652 0.000585605 4
-6.16203 9.13559 -2.54406 0.000302571 4
-7.85803 11.65 -2.73152 0.000166384 1
-9.64569 14.3003 -2.73202 7.76168e-05 1
-10.5067 15.5769 -2.30701 0.000280265 10
-10.4944 15.5586 -1.64191 0.000284405 10
-10.4987 15.5649 -0.983941 0.000287194 10
-10.5036 15.5722 -0.327867 0.000288599 10
-10.5012 15.5687 1.64297 0.000284432 10
-10.5086 15.5796 2.30742 0.000280301 10
-10.5095 15.5809 2.97667 0.000274863 10
-10.5009 15.5682 3.65019 0.00026818 10
-10.5071 15.5774 4.33795 0.000260324 10
-5.56813 8.19327 -2.65437 0.000390373 4
-6.18306 9.0981 -2.53961 0.000331678 4
-7.90894 11.6377 -2.73508 0.000166365 1
-9.6947 14.2653 -2.73178 7.76057e-05 1
-10.5362 15.5036 -2.30159 0.000279263 10
-10.5464 15.5185 -1.64155 0.000283388 10
-10.537 15.5047 -0.982451 0.000286166 10
-10.5349 15.5016 -0.327152 0.000287565 10
-10.5337 15.4998 1.63957 0.000283416 10
-10.5393 15.5081 2.30226 0.000279302 10
-10.5397 15.5087 2.96989 0.000273886 10
-10.5392 15.5079 3.64466 0.000267229 10
-10.5375 15.5055 4.32815 0.000259405 10
-5.59017 8.16424 -2.65127 0.000456504 4
-6.22606 9.09294 -2.54422 0.000293553 4
-7.94608 11.605 -2.7339 0.000166347 1
-9.7498 14.2392 -2.73329 7.75947e-05 1
-10.5725 15.4408 -2.29773 0.000278231 10
-10.5798 15.4514 -1.63835 0.00028234 10
-10.5785 15.4495 -0.981287 0.000285106 10
-10.5806 15.4526 -0.326897 0.000286501 10
-10.5871 15.4621 1.63948 0.000282369 10
-10.584 15.4576 2.30023 0.000278272 10
-10.5721 15.4401 2.96381 0.000272878 10
-10.5731 15.4417 3.63775 0.000266249 10
-10.5772 15.4476 4.32225 0.000258456 10
-5.62634 8.15584 -2.65491 0.000843476 4
-6.2585 9.07222 -2.54452 0.000333859 4
-7.99135 11.5841 -2.73555 0.000166328 1
-9.79315 14.196 -2.73153 7.75836e-05 1
-10.6166 15.3897 -2.29563 0.000277169 10
-10.6117 15.3826 -1.63497 0.00028126 10
-10.6182 15.3919 -0.97998 0.000284015 10
-10.6106 15.3809 -0.32616 0.000285404 10
-10.6243 15.4008 1.63691 0.000281291 10
-10.6124 15.3836 2.29472 0.000277211 10
-10.6172 15.3905 2.96138 0.000271841 10
-10.616 15.3888 3.63401 0.000265239 10
-10.6139 15.3858 4.31531 0.000257479 10
-5.65796 8.14074 -2.6564 0.000737571 4
-6.28533 9.04341 -2.54258 0.000286779 4
-8.02796 11.5507 -2.73426 0.00016631 1
-9.84743 14.1686 -2.73286 7.75726e-05 1
-10.6614 15.3398 -2.29372 0.000276075 10
-10.6556 15.3313 -1.63346 0.000280149 10
-10.6544 15.3297 -0.978381 0.000282893 10
-10.6577 15.3344 -0.325963 0.000284276 10
-10.654 15.3291 1.63322 0.000280182 10
-10.6621 15.3407 2.29387 0.00027612 10
-10.6523 15.3267 2.95623 0.000270773 10
-10.6508 15.3245 3.62757 0.0002642 10
-10.6553 15.3309 4.31033 0.000256474 10
-5.67498 8.10471 -2.6511 0.000284423 4
-6.31605 9.02026 -2.54225 0.000248669 4
-8.06508 11.5181 -2.73319 0.000166291 1
-9.90244 14.1422 -2.73441 7.75615e-05 1
-10.6867 15.2622 -2.28768 0.000274951 10
-10.6874 15.2632 -1.63017 0.000279007 10
-10.6977 15.2779 -0.977453 0.000281739 10
-10.6868 15.2623 -0.325221 0.000283117 10
-10.6968 15.2767 1.63161 0.000279042 10
-10.6946 15.2735 2.28937 0.000274998 10
-10.6981 15.2785 2.95413 0.000269675 10
-10.6874 15.2631 3.62186 0.000263131 10
-10.7023 15.2844 4.30773 0.000255439 10
-5.71078 8.09554 -2.6546 0.000277788 4
-6.3566 9.01105 -2.5459 0.000311369 4
-8.10146 11.4846 -2.73192 0.000166273 1
-9.95568 14.1131 -2.73549 7.75505e-05 1
-10.7229 15.2007 -2.28407 0.000273796 10
-10.7285 15.2086 -1.62833 0.000277834 10
-10.7256 15.2045 -0.975147 0.000280554 10
-10.7279 15.2078 -0.324854 0.000281926 10
-10.7342 15.2168 1.6292 0.000277871 10
-10.7369 15.2206 2.28705 0.000273846 10
-10.7291 15.2095 2.948 0.000268547 10
-10.7326 15.2144 3.61916 0.000262033 10
-10.7356 15.2186 4.29973 0.000254377 10
-5.74713 8.087 -2.65836 0.000641508 4
-6.38329 8.98217 -2.54401 0.000250865 4
-8.14734 11.4644 -2.73387 0.000166254 1
-10.0025 14.075 -2.73485 7.75395e-05 1
-10.7723 15.1581 -2.2833 0.000272611 10
-10.7708 15.156 -1.62671 0.000276631 10
-10.7648 15.1476 -0.973897 0.000279339 10
-10.7676 15.1514 -0.324452 0.000280704 10
-10.7772 15.165 1.62768 0.000276668 10
-10.7746 15.1614 2.28379 0.000272663 10
-10.7749 15.1617 2.94602 0.000267389 10
-10.7644 15.147 3.61203 0.000260906 10
-10.7669 15.1505 4.29106 0.000253286 10
-5.76117 8.04713 -2.65185 0.0007638 4
-6.41399 8.95897 -2.54377 0.000326991 4
-8.19151 11.4418 -2.73528 0.000166236 1
-10.0551 14.0448 -2.7358 7.75285e-05 1
-10.7985 15.0832 -2.27768 0.000271395 10
-10.8004 15.0858 -1.62322 0.000275396 10
-10.8025 15.0888 -0.972539 0.000278091 10
-10.8125 15.1028 -0.324215 0.00027945 10
-10.8027 15.0891 1.62356 0.000275436 10
-10.8116 15.1015 2.28045 0.00027145 10
-10.8111 15.1007 2.94148 0.000266202 10
-10.8151 15.1064 3.61134 0.00025975 10
-10.8056 15.0931 4.28546 0.000252166 10
-5.79513 8.03514 -2.65455 0.000671167 4
-6.44672 8.9386 -2.54436 0.000300088 4
-8.22829 11.4088 -2.73425 0.000166218 1
-10.094 13.9956 -2.73307 7.75175e-05 1
-10.8378 15.027 -2.27489 0.00027015 10
-10.8398 15.0298 -1.62125 0.000274131 10
-10.8446 15.0364 -0.971592 0.000276813 10
-10.8372 15.0261 -0.32338 0.000278166 10
-10.8421 15.033 1.62159 0.000274172 10
-10.8393 15.029 2.2752 0.000270206 10
-10.8495 15.0432 2.93763 0.000264985 10
-10.8517 15.0462 3.60599 0.000258565 10
-10.8496 15.0433 4.28206 0.000251018 10
-5.81934 8.00964 -2.65282 0.000396719 4
-6.46594 8.89961 -2.53967 0.0003023 4
-8.26481 11.3755 -2.73317 0.000166199 1
-10.1493 13.9694 -2.73484 7.75065e-05 1
-10.8836 14.98 -2.27352 0.000268874 10
-10.8802 14.9753 -1.61946 0.000272836 10
-10.878 14.9723 -0.9699 0.000275504 10
-10.8861 14.9835 -0.323278 0.000276851 10
-10.8813 14.9768 0.323135 0.000276859 10
-10.8722 14.9643 0.969384 0.00027553 10
-10.8825 14.9785 1.6198 0.000272878 10
-10.8786 14.9732 2.27248 0.000268933 10
-10.8872 14.985 2.93368 0.000263738 10
-10.8847 14.9815 3.59955 0.000257351 10
-10.8872 14.985 4.27624 0.000249843 10
-10.8892 14.9877 4.96397 0.000241296 10
-5.84709 7.98904 -2.65274 0.000393383 4
-6.50803 8.8921 -2.54399 0.000279883 4
-8.31362 11.3591 -2.73618 0.000166181 1
-10.2032 13.9409 -2.73623 7.74955e-05 1
-10.9205 14.9209 -2.27032 0.000267568 10
-10.9152 14.9137 -1.61691 0.000271509 10
-10.9253 14.9275 -0.96946 0.000274164 10
-10.9151 14.9137 -0.322592 0.000275504 10
-10.9166 14.9156 0.322635 0.000275513 10
-10.9182 14.9179 0.968838 0.000274191 10
-10.925 14.9271 1.61836 0.000271554 10
-10.9261 14.9286 2.27149 0.000267629 10
-10.9107 14.9076 2.92596 0.000262461 10
-10.9214 14.9221 3.59444 0.000256107 10
-10.9274 14.9305 4.27154 0.000248639 10
-10.9132 14.9111 4.95118 0.000240136 10
-5.88504 7.98228 -2.6573 0.000280967 4
-6.5373 8.86698 -2.54332 0.00031568 4
-8.33985 11.3119 -2.7318 0.000166163 1
-10.2486 13.9009 -2.73537 7.74845e-05 1
-10.9562 14.8606 -2.26695 0.000266232 10
-10.9482 14.8498 -1.61411 0.000270152 10
-10.9585 14.8638 -0.967801 0.000272794 10
-10.9482 14.8498 -0.322035 0.000274127 10
-10.9555 14.8596 0.322248 0.000274137 10
-10.9635 14.8705 0.968241 0.000272822 10
-10.9527 14.8559 1.61477 0.000270199 10
-10.9501 14.8524 2.2657 0.000266295 10
-10.9624 14.869 2.92588 0.000261155 10
-10.959 14.8644 3.58972 0.000254836 10
-10.9527 14.8559 4.26111 0.000247407 10
-10.9601 14.8659 4.94886 0.00023895 10
-5.907 7.95379 -2.65466 0.000337135 4
-6.56941 8.84572 -2.54378 0.000210434 4
-8.39174 11.2995 -2.73586 0.000166144 1
-10.2953 13.8626 -2.73489 7.74736e-05 1
-10.9836 14.7894 -2.26192 0.000264866 10
-10.9837 14.7896 -1.61173 0.000268766 10
-10.9852 14.7916 -0.965591 0.000271393 10
-11.0003 14.8119 -0.322044 0.000272719 10
-10.9871 14.7941 0.321656 0.000272729 10
-10.9943 14.8038 0.966389 0.000271422 10
-10.9844 14.7905 1.61183 0.000268813 10
-10.991 14.7994 2.26345 0.000264932 10
-10.996 14.8061 2.92104 0.00025982 10
-10.9883 14.7958 3.5824 0.000253535 10
-10.9873 14.7944 4.25445 0.000246147 10
-10.9876 14.7948 4.93791 0.000237736 10
-5.93053 7.92751 -2.65279 0.000442869 4
-6.60083 8.82352 -2.54401 0.000239516 4
-8.42821 11.2662 -2.73492 0.000166126 1
-10.347 13.8311 -2.73579 7.74626e-05 1
-11.0276 14.741 -2.26039 0.00026347 10
-11.0288 14.7425 -1.61078 0.000267349 10
-11.0297 14.7437 -0.964974 0.000269962 10
-11.0202 14.731 -0.32112 0.000271281 10
-11.0262 14.739 0.321295 0.000271291 10
-11.0348 14.7505 0.96542 0.000269992 10
-11.0269 14.74 1.6105 0.000267398 10
-11.0322 14.747 2.26131 0.000263538 10
-11.0369 14.7534 2.91822 0.000258456 10
-11.0338 14.7492 3.58043 0.000252206 10
-11.0256 14.7383 4.24936 0.000244859 10
-11.0401 14.7576 4.93835 0.000236496 10
-5.95723 7.9055 -2.65237 0.000109057 4
-6.63587 8.80609 -2.54565 0.000290975 4
-8.46158 11.2289 -2.73301 0.000166108 1
-10.398 13.7986 -2.73651 7.74517e-05 1
-11.0583 14.6749 -2.25617 0.000262045 10
-11.0617 14.6793 -1.60809 0.000265901 10
-11.0566 14.6726 -0.96284 0.0002685 10
-11.0627 14.6808 -0.320864 0.000269812 10
-11.0671 14.6866 0.320991 0.000269822 10
-11.0612 14.6787 0.963242 0.000268531 10
-11.0659 14.6849 1.6087 0.000265953 10
-11.0623 14.6801 2.25697 0.000262115 10
-11.0647 14.6834 2.91199 0.000257062 10
-11.0688 14.6888 3.57512 0.000250849 10
-11.0693 14.6895 4.24642 0.000243544 10
-11.0721 14.6932 4.92968 0.000235228 10
-5.98647 7.88688 -2.65311 0.000459325 4
-6.65497 8.76761 -2.54122 0.000333472 4
-8.50546 11.2055 -2.73453 0.000166089 1
-10.4336 13.7458 -2.73325 7.74408e-05 1
-11.1031 14.6278 -2.25486 0.00026059 10
-11.099 14.6223 -1.60608 0.000264424 10
-11.0988 14.6221 -0.962064 0.000267008 10
-11.1114 14.6387 -0.320791 0.000268313 10
-11.1026 14.6272 0.320539 0.000268324 10
-11.1103 14.6373 0.963061 0.00026704 10
-11.1004 14.6242 1.60628 0.000264477 10
-11.1103 14.6373 2.25633 0.000260663 10
-11.0967 14.6194 2.90697 0.00025564 10
-11.0995 14.6231 3.56853 0.000249463 10
-11.0999 14.6235 4.23852 0.000242201 10
-11.1084 14.6347 4.92305 0.000233935 10
-6.01221 7.86365 -2.65234 0.00037338 4
-6.69073 8.75112 -2.5432 0.000324491 4
-8.53847 11.1679 -2.73259 0.000166071 1
-10.4804 13.7078 -2.73295 7.74298e-05 1
-11.1306 14.5582 -2.25011 0.000259106 10
-11.1423 14.5735 -1.60498 0.000262918 10
-11.1375 14.5672 -0.961006 0.000265486 10
-11.1342 14.563 -0.319982 0.000266784 10
-11.1335 14.5621 0.319961 0.000266795 10
-11.1402 14.5708 0.961237 0.000265519 10
-11.1316 14.5595 1.60344 0.000262972 10
-11.1332 14.5617 2.25065 0.000259181 10
-11.1399 14.5704 2.90493 0.000254188 10
-11.138 14.5679 3.56452 0.000248049 10
-11.1494 14.5828 4.23796 0.000240831 10
-11.1461 14.5785 4.91719 0.000232614 10
-6.03795 7.84043 -2.6516 0.00023128 4
-6.7279 8.73636 -2.54572 5.59418e-05 4
-8.5785 11.1394 -2.73294 0.000166053 1
-10.5345 13.6793 -2.73459 7.74189e-05 1
-11.1727 14.5081 -2.24838 0.000257592 10
-11.1838 14.5224 -1.60364 0.000261381 10
-11.1684 14.5024 -0.959297 0.000263934 10
-11.1699 14.5044 -0.319549 0.000265224 10
-11.1736 14.5092 0.319655 0.000265236 10
-11.1796 14.517 0.960259 0.000263968 10
-11.1688 14.5029 1.60149 0.000261437 10
-11.1794 14.5167 2.24972 0.00025767 10
-11.1854 14.5245 2.90355 0.000252708 10
-11.1806 14.5183 3.56192 0.000246607 10
-11.1864 14.5258 4.23272 0.000239434 10
-11.1717 14.5067 4.90612 0.000231267 10
-6.07011 7.82555 -2.65372 0.00116168 4
-6.753 8.70591 -2.5437 0.000143198 4
-8.61355 11.1045 -2.73174 0.000166035 1
-10.5913 13.6542 -2.73695 7.7408e-05 1
-11.2185 14.4628 -2.24742 0.00025605 10
-11.2154 14.4588 -1.60093 0.000259815 10
-11.2073 14.4484 -0.958305 0.000262353 10
-11.2134 14.4562 -0.319348 0.000263635 10
-11.2093 14.451 0.319231 0.000263647 10
-11.206 14.4467 0.958194 0.000262388 10
-11.2205 14.4654 1.60166 0.000259873 10
-11.2217 14.467 2.24807 0.00025613 10
-11.2157 14.4592 2.8983 0.0002512 10
-11.2189 14.4633 3.55801 0.000245137 10
-11.2175 14.4615 4.22537 0.000238009 10
-11.2229 14.4685 4.9064 0.000229894 10
-6.09912 7.80652 -2.65447 0.00122171 4
-6.79105 8.69215 -2.54659 0.000212541 4
-8.66772 11.0942 -2.73663 0.000166016 1
-10.6398 13.6183 -2.73718 7.73971e-05 1
-11.251 14.4007 -2.24385 0.000254478 10
-11.2549 14.4056 -1.59938 0.00025822 10
-11.2418 14.3889 -0.956954 0.000260741 10
-11.2456 14.3937 -0.318832 0.000262016 10
-11.2445 14.3923 0.318801 0.000262028 10
-11.2453 14.3933 0.957249 0.000260778 10
-11.2459 14.3941 1.5981 0.000258279 10
-11.2577 14.4092 2.24518 0.000254561 10
-11.2596 14.4116 2.89662 0.000249663 10
-11.2588 14.4107 3.55471 0.000243639 10
-11.251 14.4006 4.21903 0.000236558 10
-11.2433 14.3907 4.89332 0.000228495 10
-6.11369 7.76912 -2.64899 0.00090226 4
-6.82135 8.66839 -2.54659 0.00012975 4
-8.69893 11.0544 -2.73428 0.000165998 1
-10.6887 13.5829 -2.73756 7.73862e-05 1
-11.28 14.3343 -2.23964 0.000252878 10
-11.2872 14.3435 -1.59685 0.000256595 10
-11.2854 14.3412 -0.956398 0.000259101 10
-11.2829 14.338 -0.318468 0.000260367 10
-11.2805 14.3349 0.3184 0.00026038 10
-11.2821 14.3369 0.956112 0.000259138 10
-11.2769 14.3305 1.59539 0.000256657 10
-11.2931 14.351 2.24223 0.000252963 10
-11.295 14.3534 2.89284 0.000248097 10
-11.2855 14.3413 3.54729 0.000242114 10
-11.2831 14.3383 4.2123 0.000235079 10
-11.2957 14.3542 4.89428 0.000227069 10
-6.14082 7.74778 -2.64901 0.00108078 4
-6.84917 8.6415 -2.5457 0.000286321 4
-8.73791 11.0245 -2.73442 0.00016598 1
-10.7276 13.5349 -2.7354 7.73753e-05 1
-11.3204 14.2828 -2.23774 0.000251249 10
-11.3261 14.29 -1.59528 0.000254942 10
-11.3145 14.2753 -0.954631 0.000257431 10
-11.3189 14.2809 -0.318075 0.000258689 10
-11.3214 14.284 0.318145 0.000258702 10
-11.3229 14.2859 0.955341 0.000257469 10
-11.3194 14.2815 1.59433 0.000255005 10
-10.6838 13.4796 2.11191 0.000127436 10
-10.6989 13.4986 2.72807 0.000125019 10
-10.6882 13.4852 3.34475 0.000122046 10
-10.6861 13.4825 3.97182 0.000118549 10
-10.6878 13.4847 4.61049 0.000114567 10
-6.15077 7.70493 -2.64168 0.0007979 4
-6.87266 8.60923 -2.54324 0.000313135 4
-8.77552 10.9929 -2.73416 0.000165962 1
-10.7733 13.4955 -2.73503 7.73645e-05 1
-11.3615 14.2323 -2.23603 0.000249591 10
-11.3586 14.2287 -1.59286 0.000253259 10
-11.3623 14.2333 -0.954465 0.000255732 10
-11.3643 14.2358 -0.317954 0.000256981 10
-11.3628 14.234 0.317912 0.000256995 10
-11.3667 14.2388 0.954836 0.000255771 10
-11.3525 14.221 1.59199 0.000253324 10
-10.7358 13.4485 2.11289 0.000126589 10
-10.7282 13.439 2.72358 0.000124189 10
-10.7206 13.4294 3.34018 0.000121237 10
-10.7293 13.4404 3.97041 0.000117764 10
-10.7202 13.429 4.60421 0.000113809 10
-6.18435 7.69178 -2.64456 0.000728988 4
-6.90785 8.59163 -2.54515 0.000384675 4
-8.80937 10.9566 -2.73278 0.000165944 1
-10.8148 13.4509 -2.73361 7.73537e-05 1
-11.3944 14.1718 -2.23277 0.000247905 10
-11.3958 14.1735 -1.59112 0.000251548 10
-11.3906 14.1671 -0.952689 0.000254003 10
-11.3947 14.1721 -0.317417 0.000255245 10
-11.3972 14.1752 0.317486 0.000255258 10
-11.4032 14.1827 0.953739 0.000254043 10
-11.4007 14.1796 1.5918 0.000251614 10
-10.7639 13.3875 2.10921 0.000125727 10
-10.7646 13.3885 2.72093 0.000123345 10
-10.7527 13.3736 3.33561 0.000120413 10
-10.7628 13.3862 3.96547 0.000116966 10
-10.7583 13.3807 4.60049 0.000113039 10
-6.2028 7.65983 -2.641 0.000981181 4
-6.93921 8.56921 -2.54567 0.000239283 4
-8.84479 10.9224 -2.73192 0.000165925 1
-10.8797 13.4353 -2.73816 7.73428e-05 1
-11.4339 14.1197 -2.23083 0.000246191 10
-11.4196 14.1021 -1.58757 0.000249808 10
-11.4298 14.1147 -0.951839 0.000252246 10
-11.4341 14.1199 -0.31714 0.000253479 10
-11.4287 14.1133 0.316992 0.000253493 10
-11.4295 14.1142 0.951808 0.000252288 10
-11.4395 14.1266 1.59033 0.000249876 10
-10.7929 13.3282 2.10577 0.000124852 10
-10.7915 13.3264 2.71595 0.000122487 10
-10.7996 13.3363 3.3357 0.000119577 10
-10.8038 13.3416 3.9634 0.000116154 10
-10.7943 13.3299 4.59595 0.000112256 10
-6.21362 7.61865 -2.63427 0.000815457 4
-6.97313 8.5499 -2.54715 0.000335414 4
-8.89443 10.9057 -2.73548 0.000165907 1
-10.9269 13.3978 -2.73826 7.7332e-05 1
-11.4655 14.0581 -2.22741 0.000244449 10
-11.4686 14.0619 -1.58754 0.00024804 10
-11.4669 14.0598 -0.95083 0.000250461 10
-11.4683 14.0616 -0.316727 0.000251685 10
-11.4621 14.0539 0.316554 0.000251699 10
-11.4588 14.0499 0.950161 0.000250503 10
-11.4728 14.067 1.58812 0.00024811 10
-10.827 13.2752 2.10336 0.000123962 10
-10.8204 13.2672 2.71157 0.000121615 10
-10.8225 13.2697 3.32845 0.000118727 10
-10.8343 13.2842 3.95756 0.000115329 10
-10.8294 13.2781 4.59112 0.00011146 10
-6.24608 7.60411 -2.63676 0.000996909 4
-6.99029 8.51012 -2.54255 0.000333148 4
-8.93501 10.8777 -2.73626 0.000165889 1
-10.9732 13.359 -2.73815 7.73211e-05 1
-11.5042 14.0055 -2.22542 0.000242679 10
-11.4994 13.9996 -1.58503 0.000246243 10
-11.4959 13.9954 -0.949183 0.000248646 10
-11.5094 14.0118 -0.316509 0.000249862 10
-11.5019 14.0026 0.316301 0.000249876 10
-11.5052 14.0066 0.949946 0.00024869 10
-11.5104 14.013 1.58655 0.000246315 10
-10.864 13.2261 2.10157 0.000123059 10
-10.8607 13.222 2.71007 0.000120729 10
-10.8644 13.2266 3.32713 0.000117863 10
-10.862 13.2236 3.95078 0.000114492 10
-10.8584 13.2192 4.58383 0.000110651 10
-6.25703 7.56346 -2.63022 0.0010902 4
-7.02375 8.49026 -2.54393 0.00032194 4
-8.96149 10.8326 -2.73278 0.000165871 1
-11.0105 13.3094 -2.73584 7.73103e-05 1
-11.535 13.9434 -2.22195 0.000240882 10
-11.5317 13.9394 -1.58276 0.000244419 10
-11.542 13.9519 -0.948965 0.000246804 10
-11.535 13.9434 -0.315872 0.00024801 10
-11.5422 13.9521 0.316068 0.000248025 10
-11.5445 13.9549 0.949169 0.000246848 10
-11.5289 13.936 1.58238 0.000244492 10
-10.9033 13.1798 2.10026 0.000122141 10
-10.9033 13.1798 2.70921 0.00011983 10
-10.8889 13.1624 3.32053 0.000116986 10
-10.8956 13.1705 3.94626 0.000113641 10
-10.8967 13.1718 4.58056 0.000109831 10
-6.2774 7.53437 -2.62771 0.0010943 4
-7.05625 8.46917 -2.54497 0.000301793 4
-8.99943 10.8014 -2.73283 0.000165853 1
-11.0678 13.284 -2.73855 7.72995e-05 1
-11.5776 13.8959 -2.22079 0.000239056 10
-11.5787 13.8972 -1.58255 0.000242566 10
-11.5677 13.884 -0.947082 0.000244933 10
-11.5787 13.8971 -0.315737 0.00024613 10
-11.5793 13.898 0.315755 0.000246146 10
-11.5701 13.8868 0.947278 0.000244978 10
-11.5713 13.8883 1.58153 0.000242641 10
-10.9279 13.116 2.09616 0.00012121 10
-10.9258 13.1136 2.70341 0.000118917 10
-10.9255 13.1132 3.31771 0.000116096 10
-10.9285 13.1168 3.94158 0.000112777 10
-10.9252 13.1129 4.57329 0.000108997 10
-6.29937 7.5073 -2.62593 0.00108197 4
-7.08187 8.43984 -2.54357 0.000261531 4
-9.05138 10.787 -2.73716 0.000165835 1
-11.1076 13.2375 -2.73693 7.72888e-05 1
-11.6031 13.8281 -2.21642 0.000237204 10
-11.6137 13.8407 -1.58072 0.000240686 10
-11.6119 13.8385 -0.946742 0.000243034 10
-11.6035 13.8285 -0.315096 0.000244223 10
-11.613 13.8399 0.315355 0.000244238 10
-11.6046 13.8298 0.946147 0.000243081 10
-11.6163 13.8438 1.58107 0.000240763 10
-10.9601 13.0618 2.09359 0.000138162 10
-11.0407 13.1577 2.72044 0.000368085 10
-11.0407 13.1577 3.33872 0.000359483 10
-11.0316 13.147 3.96219 0.000349333 10
-11.0324 13.1479 4.59892 0.000337747 10
-6.32266 7.48186 -2.62473 0.000978997 4
-7.11939 8.42466 -2.54647 0.000348677 4
-9.08447 10.75 -2.7358 0.000165817 1
-11.1503 13.1945 -2.73608 7.7278e-05 1
-11.6411 13.7754 -2.21448 0.000235324 10
-11.6435 13.7782 -1.57821 0.000238778 10
-11.6448 13.7798 -0.945499 0.000241107 10
-11.6452 13.7802 -0.314919 0.000242287 10
-11.6531 13.7896 0.315134 0.000242303 10
-11.6356 13.7689 0.944752 0.000241155 10
-11.6433 13.778 1.5782 0.000238857 10
-10.9925 13.0079 2.09109 0.000137354 10
-11.2017 13.2554 2.74871 0.000356675 10
-11.2 13.2534 3.37288 0.00034832 10
-11.1938 13.2461 4.00383 0.000338462 10
-11.2014 13.2551 4.65005 0.000327209 10
-6.33267 7.44087 -2.61809 0.00108988 4
-7.15037 8.40166 -2.54705 0.000319593 4
-9.11573 10.7109 -2.73394 0.000165799 1
-11.2063 13.1673 -2.73853 7.72672e-05 1
-11.6808 13.7249 -2.2129 0.000233418 10
-11.6869 13.732 -1.57759 0.000236843 10
-11.6874 13.7327 -0.945059 0.000239154 10
-11.681 13.7252 -0.314592 0.000240324 10
-11.6725 13.7152 0.314363 0.00024034 10
-11.6851 13.73 0.944874 0.000239203 10
-11.6812 13.7254 1.57683 0.000236924 10
-11.0245 12.9537 2.08855 0.000136531 10
-11.3809 13.3725 2.7812 0.000345436 10
-11.3689 13.3584 3.40969 0.000337324 10
-11.3729 13.3631 4.05117 0.000327754 10
-11.3804 13.3719 4.70493 0.00031683 10
-6.35499 7.41449 -2.6166 0.0010275 4
-7.1757 8.37203 -2.54564 0.000256993 4
-9.16331 10.691 -2.737 0.000165781 1
-11.244 13.1186 -2.73655 7.72565e-05 1
-11.7057 13.6573 -2.20858 0.000231484 10
-11.7187 13.6725 -1.57544 0.000234881 10
-11.721 13.6752 -0.943912 0.000237172 10
-11.7134 13.6662 -0.314175 0.000238333 10
-11.7132 13.666 0.314172 0.000238349 10
-11.7133 13.6661 0.943286 0.000237222 10
-11.7151 13.6682 1.57495 0.000234963 10
-11.0597 12.9036 2.08669 0.000135693 10
-11.5486 13.474 2.81069 0.000334365 10
-11.5475 13.4727 3.44913 0.000326494 10
-11.5623 13.4899 4.10183 0.000317209 10
-11.5506 13.4763 4.75583 0.00030661 10
-6.385 7.39709 -2.61831 0.000889763 4
-7.2075 8.34997 -2.54657 0.000277081 4
-9.19952 10.6578 -2.73669 0.000165763 1
-11.297 13.0877 -2.73831 7.72457e-05 1
-11.7472 13.6093 -2.20742 0.00026499 10
-11.7407 13.6018 -1.57201 0.000268868 10
-11.7485 13.6107 -0.942288 0.000271481 10
-11.7435 13.6049 -0.313708 0.000236315 10
-11.7562 13.6197 0.314047 0.000236332 10
-11.7585 13.6223 0.943092 0.000235215 10
-11.7414 13.6025 1.57209 0.000232976 10
-11.0878 12.8454 2.08352 0.00013484 10
-11.7453 13.607 2.84697 0.000323468 10
-11.742 13.6033 3.49303 0.000315835 10
-11.7407 13.6017 4.14825 0.00030683 10
-11.7358 13.596 4.81251 0.000296551 10
-6.39715 7.35908 -2.61274 0.00128506 4
-7.23446 8.3223 -2.54582 0.000294931 4
-9.23221 10.6205 -2.73537 0.000165745 1
-11.3366 13.0412 -2.73685 7.7235e-05 1
-11.7904 13.5633 -2.20664 0.000263292 10
-11.7728 13.5431 -1.56996 0.000267144 10
-11.7749 13.5454 -0.940608 0.00026974 10
-11.7769 13.5478 -0.313337 0.000271051 10
-11.7894 13.5622 0.313668 0.000271061 10
-11.7767 13.5475 0.940752 0.000269771 10
-11.7926 13.5658 1.5726 0.000267195 10
-11.113 12.784 2.07985 0.000133972 10
-11.9172 13.7091 4.19367 0.000692175 10
-11.9137 13.7052 4.86583 0.000668925 10
-6.41991 7.33341 -2.61156 0.000921064 4
-7.26021 8.29327 -2.54468 0.000330652 4
-9.26039 10.5781 -2.73276 0.000165727 1
-11.3842 13.0041 -2.73738 7.72243e-05 1
-11.8242 13.5066 -2.20411 0.000261564 10
-11.8169 13.4984 -1.56955 0.00026539 10
-11.8094 13.4898 -0.939601 0.000267969 10
-11.8103 13.4908 -0.312969 0.000269271 10
-11.8087 13.4889 0.312926 0.000269282 10
-11.8229 13.5051 0.94067 0.000268001 10
-11.8133 13.4943 1.56907 0.000265443 10
-11.154 12.7411 2.07919 0.000133088 10
-12.1179 13.8422 4.24729 0.00066873 10
-12.1142 13.838 4.92796 0.000646208 10
-6.43995 7.30469 -2.60933 0.00110903 4
-7.29263 8.27187 -2.5459 0.000245733 4
-9.30734 10.5571 -2.73572 0.000165709 1
-11.4242 12.9582 -2.7361 7.72136e-05 1
-11.8415 13.4315 -2.19859 0.000259806 10
-11.8523 13.4438 -1.56801 0.000263606 10
-11.8503 13.4415 -0.939114 0.000266167 10
-11.8456 13.4362 -0.312661 0.00026746 10
-11.8516 13.443 0.312817 0.000267472 10
-11.8469 13.4376 0.938843 0.0002662 10
-11.8443 13.4348 1.56695 0.000263661 10
-11.1754 12.676 2.07492 0.00013219 10
-12.3125 13.9658 4.29837 0.000645682 10
-12.3142 13.9677 4.98945 0.000623876 10
-6.47079 7.28823 -2.6115 0.000868287 4
-7.32108 8.24593 -2.54577 0.000285919 4
-9.35321 10.5348 -2.73838 0.000165691 1
-11.4722 12.9215 -2.73678 7.72029e-05 1
-11.8783 13.3788 -2.19673 0.000258019 10
-11.8744 13.3744 -1.56474 0.000261792 10
-11.8895 13.3915 -0.938514 0.000264335 10
-11.8866 13.3882 -0.312506 0.00026562 10
-11.8832 13.3843 0.312416 0.000265631 10
-11.8801 13.3809 0.937771 0.000264369 10
-11.8881 13.3898 1.56654 0.000261848 10
-11.2106 12.6268 2.07325 0.000131278 10
-12.5089 14.0891 4.34973 0.000623028 10
-12.4992 14.0782 5.04446 0.000601928 10
-6.48849 7.25698 -2.6084 0.00113336 4
-7.33888 8.2081 -2.54198 0.000299296 4
-9.37317 10.4833 -2.73349 0.000165673 1
-11.52 12.8844 -2.73743 7.71922e-05 1
-11.9193 13.331 -2.19569 0.000256202 10
-11.9173 13.3288 -1.56426 0.000259949 10
-11.9153 13.3266 -0.936873 0.000262474 10
-11.9225 13.3346 -0.312224 0.000263749 10
-11.9192 13.3309 0.312139 0.000263761 10
-11.9179 13.3295 0.937078 0.000262509 10
-11.9187 13.3304 1.56445 0.000260007 10
-11.2493 12.5817 2.07228 0.00013035 10
-12.7152 14.2212 4.40418 0.000600776 10
-12.7087 14.2139 5.10894 0.000580371 10
-6.50172 7.22089 -2.60357 0.000967347 4
-7.37466 8.19039 -2.54446 0.000241202 4
-9.4098 10.4506 -2.73352 0.000165656 1
-11.5678 12.8473 -2.73811 7.71816e-05 1
-11.9378 13.2582 -2.19057 0.000254357 10
-11.9508 13.2727 -1.56256 0.000258076 10
-11.9533 13.2754 -0.936205 0.000260582 10
-11.9534 13.2755 -0.311817 0.000261849 10
-11.9462 13.2676 0.311631 0.000261861 10
-11.9393 13.26 0.935113 0.000260618 10
-11.943 13.264 1.56154 0.000258135 10
-11.2779 12.5254 2.06949 0.000129408 10
-12.9268 14.3566 4.46009 0.000578924 10
-12.912 14.3403 5.17055 0.000559203 10
-6.52116 7.19184 -2.60129 0.00121733 4
-7.40015 8.16123 -2.54341 0.000279145 4
-9.46201 10.4351 -2.73809 0.000165638 1
-11.6187 12.8136 -2.73956 7.71709e-05 1
-11.9879 13.2208 -2.19128 0.000252482 10
-11.9859 13.2186 -1.56111 0.000256173 10
-11.9847 13.2173 -0.93505 0.000258661 10
-11.9889 13.222 -0.31154 0.000259918 10
-11.9824 13.2148 0.31137 0.000259931 10
-11.9852 13.2179 0.93509 0.000258699 10
-11.9783 13.2102 1.56012 0.000256235 10
-11.2989 12.461 2.06534 0.000128452 10
-13.1325 14.4831 4.51358 0.000557478 10
-13.1289 14.4792 5.23713 0.000538431 10
-6.5414 7.16375 -2.59937 0.00138346 4
-7.43005 8.13695 -2.54391 0.000267956 4
-9.48165 10.3837 -2.73327 0.00016562 1
-11.6498 12.7582 -2.73638 7.71603e-05 1
-12.0012 13.143 -2.18532 0.000250579 10
-12.0169 13.1602 -1.55915 0.000254242 10
-12.0195 13.163 -0.934172 0.000256711 10
-12.0115 13.1543 -0.310931 0.000257959 10
-12.0102 13.1529 0.310898 0.000257972 10
-12.0105 13.1532 0.933474 0.000256749 10
-12.0086 13.1511 1.55807 0.000254306 10
-11.333 12.4112 2.06364 0.000127481 10
-13.3668 14.6385 4.57654 0.00053644 10
-13.3604 14.6315 5.30904 0.000518056 10
-6.5632 7.13743 -2.59812 0.00109653 4
-7.45434 8.10654 -2.54252 0.000250071 4
-9.51811 10.3509 -2.73334 0.000165602 1
-11.6902 12.7129 -2.73542 7.71497e-05 1
-12.041 13.0945 -2.18423 0.000248648 10
-12.0419 13.0955 -1.55647 0.000252282 10
-12.0472 13.1012 -0.932763 0.000254731 10
-12.0431 13.0967 -0.310563 0.00025597 10
-12.0493 13.1035 0.310724 0.000255983 10
-12.0433 13.097 0.932467 0.000254771 10
-12.0366 13.0897 1.55577 0.000252347 10
-11.3594 12.3532 2.06058 5.16872e-05 10
-13.5895 14.7784 4.63508 0.000515808 10
-13.5911 14.7802 5.3802 0.000498075 10
-6.58242 7.10837 -2.59589 0.000988204 4
-7.48889 8.08727 -2.54466 0.000305864 4
-9.57051 10.3352 -2.73801 0.000165584 1
-11.7468 12.6854 -2.73829 7.71391e-05 1
-12.0732 13.0378 -2.18179 0.000246688 10
-12.0759 13.0408 -1.55496 0.000250293 10
-12.071 13.0355 -0.931078 0.000252723 10
-12.0774 13.0424 -0.310272 0.000253952 10
-12.0697 13.0341 0.310075 0.000253965 10
-12.0882 13.054 0.932404 0.000252764 10
-12.0784 13.0435 1.55528 0.00025036 10
-11.4112 12.323 2.06217 5.16962e-05 10
-13.8296 14.9346 4.69917 0.00049559 10
-13.8193 14.9235 5.44986 0.000478497 10
-6.60051 7.07818 -2.59326 0.00131874 4
-7.52516 8.06975 -2.5474 0.000343788 4
-9.59924 10.2939 -2.73594 0.000165567 1
-11.7954 12.649 -2.73931 7.71285e-05 1
-12.1099 12.9863 -2.18022 0.000244699 10
-12.1045 12.9805 -1.5528 0.000248275 10
-12.1009 12.9767 -0.92989 0.000250685 10
-12.1023 12.9781 -0.309747 0.000251904 10
-12.1151 12.9919 0.310074 0.000251918 10
-12.1135 12.9901 0.930853 0.000250727 10
-12.1133 12.9899 1.55393 0.000248344 10
-11.454 12.2829 2.06213 5.17052e-05 10
-14.0525 15.0695 4.75702 0.000475783 10
-14.0606 15.0781 5.52424 0.000459319 10
-6.62054 7.05016 -2.59145 0.000838575 4
-7.54826 8.03808 -2.5457 0.000330365 4
-9.63669 10.262 -2.73638 0.000165549 1
-11.8417 12.6102 -2.73983 7.71179e-05 1
-12.1425 12.9305 -2.17796 0.000242684 10
-12.1457 12.9339 -1.55229 0.000246229 10
-12.1322 12.9195 -0.928824 0.00024862 10
-12.1423 12.9303 -0.309614 0.000249829 10
-12.1377 12.9253 0.309495 0.000249843 10
-12.1372 12.9248 0.929204 0.000248663 10
-12.1477 12.936 1.55254 0.0002463 10
-11.4886 12.2341 2.06067 5.17142e-05 10
-14.3152 15.2442 4.82791 0.000456394 10
-14.3113 15.24 5.60182 0.000440547 10
-6.64768 7.02972 -2.59245 0.00110984 4
-7.58427 8.02014 -2.54839 0.000316945 4
-9.66926 10.225 -2.73548 0.000165531 1
-11.8731 12.5555 -2.73694 7.71073e-05 1
-12.1734 12.873 -2.17543 0.00024064 10
-12.1682 12.8675 -1.54941 0.000244155 10
-12.1761 12.8759 -0.928736 0.000246525 10
-12.1817 12.8818 -0.30947 0.000247724 10
-12.1808 12.8809 0.309447 0.000247739 10
-12.177 12.8768 0.9288 0.000246569 10
-12.1815 12.8816 1.5511 0.000244228 10
-11.5417 12.205 2.06253 5.17232e-05 10
-14.5513 15.3876 4.88939 0.00043742 10
-14.5551 15.3916 5.67617 0.000422179 10
-6.65879 6.99242 -2.58725 0.00118264 4
-7.59857 7.97928 -2.54382 0.000287904 4
-9.69841 10.1843 -2.73365 0.000165514 1
-11.9233 12.5207 -2.73842 7.70968e-05 1
-12.2152 12.8272 -2.17488 0.000238568 10
-12.2014 12.8127 -1.54793 0.000242053 10
-12.1983 12.8095 -0.927015 0.000244403 10
-12.2153 12.8273 -0.309184 0.000245592 10
-12.2166 12.8287 0.309217 0.000245607 10
-12.1987 12.8099 0.92704 0.000244448 10
-12.2174 12.8295 1.54996 0.000242128 10
-11.5856 12.1661 2.06278 5.17322e-05 10
-14.8199 15.5624 4.96134 0.000418867 10
-14.8171 15.5595 5.75712 0.000404221 10
-6.67282 6.95835 -2.58325 0.00132557 4
-7.63943 7.96632 -2.54817 0.000314659 4
-9.74061 10.1574 -2.73554 0.000165496 1
-11.9577 12.4694 -2.7363 7.70862e-05 1
-12.2337 12.7572 -2.17023 0.00023647 10
-12.233 12.7565 -1.54628 0.000239923 10
-12.2391 12.7628 -0.926719 0.000242252 10
-12.2326 12.756 -0.308491 0.000243431 10
-12.2466 12.7706 0.308845 0.000243447 10
-12.2476 12.7716 0.927362 0.000242299 10
-12.2416 12.7654 1.54737 0.00024 10
-11.6292 12.1268 2.06299 5.17412e-05 10
-15.0832 15.7287 5.0311 0.000400731 10
-15.0864 15.7319 5.84038 0.000386669 10
-6.70047 6.93854 -2.58456 0.00139053 4
-7.65265 7.92455 -2.54334 0.00032802 4
-9.76985 10.117 -2.73381 0.000165478 1
-12.0021 12.4286 -2.73653 7.70757e-05 1
-12.2603 12.696 -2.16708 0.000234344 10
-12.2621 12.6978 -1.54435 0.000237766 10
-12.2717 12.7078 -0.925829 0.000240074 10
-12.2612 12.6969 -0.308095 0.000241243 10
-12.2669 12.7027 0.308236 0.000241259 10
-12.2676 12.7035 0.92552 0.000240122 10
-12.2765 12.7127 1.54616 0.000237845 10
-11.6661 12.0806 2.06205 5.17502e-05 10
-15.3663 15.9123 5.10695 0.000383021 10
-15.3644 15.9103 5.92648 0.00036953 10
-6.71168 6.90177 -2.57957 0.0011927 4
-7.68624 7.90394 -2.54532 0.000303448 4
-9.81229 10.0902 -2.73582 0.000165461 1
-12.054 12.3954 -2.73846 7.70651e-05 1
-12.3059 12.6544 -2.16731 0.000232192 10
-12.3107 12.6593 -1.54489 0.000235582 10
-12.2949 12.6431 -0.924241 0.000237869 10
-12.3002 12.6485 -0.307962 0.000239027 10
-12.3074 12.656 0.308143 0.000239044 10
-12.3058 12.6544 0.925063 0.000237918 10
-12.3081 12.6567 1.54456 0.000235663 10
-11.6945 12.0257 2.05963 5.17591e-05 10
-15.606 16.048 5.16797 8.69479e-05 10
-15.6093 16.0514 5.99929 8.38273e-05 10
-6.74352 6.88626 -2.58256 0.00139822 4
-7.70465 7.86773 -2.54231 0.000305654 4
-9.85247 10.061 -2.73721 0.000165443 1
-12.1053 12.3615 -2.74031 7.70547e-05 1
-12.3389 12.6001 -2.16537 0.000230012 10
-12.3299 12.5908 -1.54178 0.000233371 10
-12.3396 12.6008 -0.924289 0.000235636 10
-12.3401 12.6013 -0.307859 0.000236784 10
-12.337 12.5981 0.307781 0.0002368 10
-12.34 12.6012 0.924321 0.000235686 10
-12.3381 12.5993 1.54281 0.000233453 10
-11.7363 11.9848 2.05962 5.1768e-05 10
-15.6484 15.9796 5.16352 8.58847e-05 10
-15.6441 15.9753 5.99122 8.28031e-05 10
-6.76481 6.85993 -2.58153 0.0011551 4
-7.73209 7.84081 -2.54231 0.000310089 4
-9.88744 10.0265 -2.73719 0.000165426 1
-12.135 12.3057 -2.7373 7.70442e-05 1
-12.3704 12.5444 -2.1632 0.000137611 10
-12.3661 12.54 -1.54082 0.000139642 10
-12.3709 12.5448 -0.923346 0.000141019 10
-12.3689 12.5428 -0.307483 0.000141728 10
-12.3719 12.5458 0.307556 0.000141761 10
-12.368 12.5419 0.923133 0.000141116 10
-12.3747 12.5487 1.54189 0.000139801 10
-11.7932 11.959 2.06226 5.1777e-05 10
-15.6981 15.9188 5.16154 8.48107e-05 10
-15.6876 15.9082 5.98654 8.17688e-05 10
-6.77551 6.82298 -2.5765 0.00117584 4
-7.76976 7.82419 -2.54571 0.00030337 4
-9.92161 9.99112 -2.73697 0.000165408 1
-12.1902 12.2756 -2.74005 7.70337e-05 1
-12.399 12.4859 -2.16057 0.0001349 10
-12.3989 12.4857 -1.53947 0.000136892 10
-12.3964 12.4832 -0.921991 0.000138243 10
-12.3959 12.4828 -0.307069 0.000138939 10
-12.404 12.4909 0.30727 0.000138972 10
-12.4088 12.4958 0.922917 0.000138341 10
-12.4092 12.4961 1.54075 0.000137053 10
-11.8317 11.9145 2.0617 5.17859e-05 10
-15.7306 15.8408 5.15402 8.37261e-05 10
-15.73 15.8402 5.98161 8.07241e-05 10
-6.78901 6.78901 -2.57261 0.00124096 4
-7.79181 7.79181 -2.544 0.000296653 4
-9.94785 9.94785 -2.73462 0.000165391 1
-12.2194 12.2194 -2.73701 7.70233e-05 1
-12.4471 12.4471 -2.16136 0.000132174 10
-12.4385 12.4385 -1.53899 0.000134126 10
-12.4459 12.4459 -0.922435 0.000135451 10
-12.441 12.441 -0.307107 0.000136134 10
-12.4513 12.4513 0.307363 0.000136167 10
-12.4392 12.4392 0.921941 0.00013555 10
-12.4429 12.443 1.53954 0.000134289 10
-11.8739 11.8739 2.06182 5.17948e-05 10
-15.7724 15.7724 5.14965 8.26311e-05 10
-15.7728 15.7728 5.97691 7.96692e-05 10
-6.81147 6.76408 -2.57216 0.00135078 4
-7.82598 7.77154 -2.54629 0.000318931 4
-10.0006 9.93098 -2.73956 0.000165373 1
-12.2611 12.1758 -2.73681 7.70128e-05 1
-12.476 12.3892 -2.15885 0.000129432 10
-12.48 12.3932 -1.53876 0.000131345 10
-12.4708 12.384 -0.921071 0.000132643 10
-12.4737 12.3869 -0.306845 0.000133312 10
-12.4763 12.3895 0.306911 0.000133346 10
-12.4894 12.4025 0.922445 0.000132742 10
-12.4721 12.3853 1.53779 0.000131509 10
-11.9115 11.8287 2.06118 5.18037e-05 10
-15.8238 15.7137 5.14848 8.15255e-05 10
-15.8188 15.7088 5.97353 7.86042e-05 10
-6.84314 6.74826 -2.57521 0.00111364 4
-7.8608 7.75181 -2.5488 0.000289912 4
-10.0281 9.88908 -2.73764 0.000165356 1
-12.3091 12.1385 -2.73807 7.70024e-05 1
-12.5104 12.3369 -2.15734 0.000126675 10
-12.506 12.3326 -1.53665 0.000128548 10
-12.5069 12.3335 -0.920556 0.000129819 10
-12.508 12.3345 -0.306628 0.000130475 10
-12.5254 12.3517 0.307055 0.000130509 10
-12.511 12.3375 0.920854 0.000129919 10
-12.5195 12.3459 1.5383 0.000128714 10
-11.9453 11.7797 2.0599 5.18127e-05 10
-15.8647 15.6447 5.14399 8.04098e-05 10
-15.8596 15.6397 5.96827 7.75294e-05 10
-6.8522 6.71017 -2.56979 0.000910982 4
-7.88548 7.72203 -2.54804 0.000294348 4
-10.0603 9.85174 -2.73701 0.000165338 1
-12.3585 12.1023 -2.73964 7.6992e-05 1
-12.5562 12.296 -2.15783 0.000123903 10
-12.5594 12.2991 -1.53793 0.000125735 10
-12.562 12.3016 -0.921443 0.00012698 10
-12.5592 12.2988 -0.306829 0.000127623 10
-12.5458 12.2858 0.306503 0.000127656 10
-12.5527 12.2925 0.920763 0.000127081 10
-12.5592 12.2989 1.5379 0.000125903 10
-11.9811 11.7327 2.05899 5.18216e-05 10
-15.8993 15.5697 5.13755 7.92839e-05 10
-15.9025 15.5729 5.96393 7.64448e-05 10
-6.8764 6.68701 -2.57009 0.00107435 4
-7.90339 7.68571 -2.54514 0.000289863 4
-10.0969 9.81878 -2.73763 0.000165321 1
-12.3895 12.0482 -2.73716 7.69816e-05 1
-12.5801 12.2336 -2.15459 0.000121116 10
-12.5819 12.2354 -1.53544 0.000122909 10
-12.5864 12.2397 -0.920094 0.000124126 10
-12.5949 12.248 -0.306656 0.000124755 10
-12.5842 12.2376 0.306396 0.00012479 10
-12.5965 12.2496 0.920833 0.000124228 10
-12.5944 12.2475 1.53696 0.000123078 10
-12.0212 11.6901 2.05886 5.18304e-05 10
-15.9552 15.5157 5.13808 7.81481e-05 10
-15.961 15.5214 5.96552 7.53506e-05 10
-6.89282 6.65633 -2.56753 0.000242308 4
-7.93672 7.6644 -2.54725 0.000287609 4
-10.1349 9.78721 -2.73867 0.000165303 1
-12.451 12.0238 -2.74147 7.69712e-05 1
-12.627 12.1938 -2.15532 0.000118315 10
-12.6209 12.1879 -1.535 0.000120067 10
-12.6175 12.1846 -0.919256 0.000121257 10
-12.6148 12.1819 -0.306102 0.000121873 10
-12.6306 12.1972 0.306485 0.000121908 10
-12.6281 12.1948 0.920025 0.000121361 10
-12.6344 12.201 1.53665 0.000120238 10
-12.0646 11.6507 2.05932 5.18393e-05 10
-15.9858 15.4374 5.13057 7.70025e-05 10
-15.9968 15.4479 5.9587 7.42468e-05 10
-6.91491 6.63117 -2.56712 0.000854569 4
-7.95158 7.62529 -2.54346 0.00026975 4
-10.1712 9.75381 -2.73924 0.000165286 1
-12.4839 11.9717 -2.7395 7.69608e-05 1
-12.6655 12.1457 -2.15463 0.0001155 10
-12.6687 12.1488 -1.53564 0.000117211 10
-12.6655 12.1457 -0.919653 0.000118374 10
-12.6644 12.1447 -0.306276 0.000118976 10
-12.6722 12.1522 0.306463 0.000119011 10
-12.6669 12.1472 0.91976 0.000118478 10
-12.6608 12.1413 1.53469 0.000117383 10
-12.1097 11.6128 2.06008 5.18481e-05 10
-16.0342 15.3762 5.12883 7.5847e-05 10
-16.035 15.377 5.95291 7.31336e-05 10
-6.92731 6.5968 -2.56316 0.00132538 4
-7.98276 7.60189 -2.54493 0.000271956 4
-10.1928 9.70649 -2.73593 0.000165269 1
-12.5279 11.9302 -2.74 7.69505e-05 1
-12.6968 12.091 -2.15276 0.000112672 10
-12.6975 12.0916 -1.53401 0.000114342 10
-12.6872 12.0819 -0.918164 0.000115477 10
-12.7079 12.1015 -0.306304 0.000116066 10
-12.6951 12.0893 0.305995 0.000116101 10
-12.7091 12.1027 0.919746 0.000115582 10
-12.7019 12.0959 1.53454 0.000114516 10
-12.154 11.5741 2.06073 5.1857e-05 10
-16.0894 15.3217 5.12935 7.46821e-05 10
-16.0796 15.3124 5.94959 7.20113e-05 10
-6.95818 6.58003 -2.56607 0.000957884 4
-8.01981 7.58395 -2.54828 0.000234041 4
-10.2262 9.67046 -2.73582 0.000165251 1
-12.5688 11.8857 -2.73984 7.69402e-05 1
-12.7283 12.0365 -2.15097 0.00010983 10
-12.7336 12.0415 -1.53328 0.000111459 10
-12.7284 12.0366 -0.918099 0.000112567 10
-12.7304 12.0385 -0.305832 0.000113141 10
