VERSION 0.7
FIELDS x y z intensity label
SIZE 4 4 4 4 4
TYPE F F F F F
COUNT 1 1 1 1 1
WIDTH 1165
HEIGHT 1
VIEWPOINT 10.0649 53.9532 2.72886 0.730344 0.000378782 0.000545868 -0.683079
POINTS 1165
DATA ascii
12.9519 -16.8184 2.60642 0.000323898 10
12.9513 -16.8176 3.36196 0.000317498 10
12.9553 -16.8229 4.12732 0.000309613 10
12.9561 -16.8239 4.90238 0.000300335 10
12.953 -16.8198 5.68839 0.000289769 10
6.22092 -8.01996 -2.71964 0.000513139 1
6.96207 -8.97545 -2.62246 0.000520333 4
7.9771 -10.284 -2.5299 0.000173922 4
10.5229 -13.566 -2.71928 7.94486e-05 1
12.9636 -16.7126 -2.59702 0.000421374 10
12.9678 -16.718 -1.85107 0.00042791 10
13.1198 -16.914 -1.12184 0.000469503 10
13.1248 -16.9203 -0.373782 0.000471845 10
13.114 -16.9065 0.373476 0.000471819 10
12.9603 -16.7083 1.10819 0.000337394 10
12.9664 -16.7162 1.85088 0.000334117 10
12.9707 -16.7217 2.59844 0.000329201 10
12.9658 -16.7154 3.35057 0.000322703 10
12.9653 -16.7148 4.11189 0.000314697 10
12.9623 -16.7109 4.88262 0.000305276 10
12.9604 -16.7084 5.66598 0.000294547 10
6.26195 -8.01494 -2.72534 0.000513167 1
7.02015 -8.98538 -2.6325 0.000514813 4
8.01342 -10.2567 -2.53005 0.000180191 4
10.5665 -13.5245 -2.71833 7.94565e-05 1
12.9707 -16.6018 -2.58682 0.000428221 10
12.9779 -16.611 -1.84423 0.000434856 10
13.2081 -16.9056 -1.12433 0.000463509 10
13.2226 -16.9241 -0.374882 0.000465822 10
13.212 -16.9105 0.374582 0.000465797 10
12.9667 -16.5966 1.10378 0.000342865 10
12.9653 -16.5948 1.84243 0.000339538 10
12.9685 -16.5989 2.58638 0.000334547 10
12.9719 -16.6033 3.33715 0.00032795 10
12.9617 -16.5903 4.09236 0.000319822 10
12.9663 -16.5961 4.86227 0.000310257 10
12.972 -16.6034 5.64568 0.000299365 10
6.28491 -7.9867 -2.72318 0.000513194 1
7.07428 -8.98981 -2.64102 0.000621533 4
8.05446 -10.2354 -2.53171 0.00014892 4
10.6114 -13.4847 -2.71775 7.94644e-05 1
12.9925 -16.5106 -2.57966 0.000435123 10
12.9752 -16.4885 -1.83565 0.000441858 10
13.3125 -16.9172 -1.12818 0.000457544 10
13.3089 -16.9127 -0.375656 0.00045983 10
13.3161 -16.9217 0.375857 0.000459805 10
12.9798 -16.4943 1.09999 0.00034838 10
12.9752 -16.4885 1.83565 0.000345002 10
12.9766 -16.4903 2.57649 0.000339936 10
12.9693 -16.481 3.32164 0.000333239 10
12.9681 -16.4796 4.07619 0.000324989 10
12.98 -16.4947 4.84579 0.000315279 10
12.9743 -16.4874 5.62162 0.000304221 10
6.31648 -7.96941 -2.72479 0.000513221 1
8.08281 -10.198 -2.52941 0.000165201 4
10.6475 -13.4338 -2.71497 7.94722e-05 1
12.998 -16.3994 -2.56937 0.00044208 10
12.9967 -16.3977 -1.83058 0.000448914 10
13.4149 -16.9254 -1.13185 0.00045161 10
13.4215 -16.9337 -0.377161 0.000453868 10
13.4204 -16.9323 0.37713 0.000453843 10
12.9781 -16.3743 1.095 0.000353938 10
12.9873 -16.3859 1.82926 0.00035051 10
12.9811 -16.3781 2.56603 0.000345367 10
12.9873 -16.3859 3.31158 0.00033857 10
12.9796 -16.3761 4.06179 0.000330196 10
12.9821 -16.3794 4.8252 0.000320341 10
12.9807 -16.3775 5.59956 0.000309117 10
6.33677 -7.93794 -2.72157 0.000513248 1
7.13538 -8.93834 -2.64046 0.000123965 4
8.12737 -10.181 -2.53222 0.000180233 4
10.7068 -13.4121 -2.71813 7.94801e-05 1
13.0012 -16.2864 -2.55875 0.00044909 10
13.0056 -16.2919 -1.82382 0.000456025 10
17.3266 -21.7047 -1.45549 0.000180011 10
17.331 -21.7102 -0.484892 0.000181047 10
17.3218 -21.6986 0.484633 0.000181101 10
13.0012 -16.2863 1.09214 0.000359539 10
12.9925 -16.2754 1.82198 0.00035606 10
12.987 -16.2686 2.55595 0.000350841 10
12.9926 -16.2756 3.29844 0.000343943 10
12.9984 -16.2828 4.04988 0.000335444 10
12.9875 -16.2691 4.80605 0.000325442 10
12.9969 -16.2809 5.58202 0.000314051 10
6.35658 -7.90599 -2.71821 0.000513276 1
7.17064 -8.91848 -2.64198 0.000422728 4
8.14777 -10.1338 -2.52754 0.000141443 4
10.7535 -13.3747 -2.71813 7.94879e-05 1
13.0019 -16.1711 -2.54776 0.000456154 10
13.0022 -16.1715 -1.81542 0.000463191 10
17.3438 -21.5713 -1.45059 0.000198181 10
17.353 -21.5828 -0.483397 0.000199249 10
17.3534 -21.5833 0.483407 0.000199237 10
13.006 -16.1762 1.0878 0.000365183 10
12.9951 -16.1626 1.81442 0.000361652 10
13.0068 -16.1772 2.54872 0.000356356 10
12.9905 -16.1569 3.28356 0.000349356 10
12.9947 -16.1622 4.03113 0.000340732 10
12.9941 -16.1614 4.78758 0.000330583 10
12.9886 -16.1545 5.55419 0.000319023 10
6.38848 -7.88912 -2.72006 0.000513303 1
7.20391 -8.8961 -2.64278 0.000174793 4
8.18495 -10.1076 -2.52811 0.000133943 4
10.8012 -13.3383 -2.71839 7.94957e-05 1
13.0173 -16.075 -2.53976 0.000463271 10
13.0069 -16.0622 -1.80823 0.00047041 10
17.4789 -21.5847 -1.45559 0.000195352 10
17.4902 -21.5986 -0.485114 0.000196406 10
17.4802 -21.5863 0.484838 0.000196394 10
13.01 -16.066 1.08343 0.000370869 10
13.0133 -16.0701 1.80912 0.000367286 10
13.0123 -16.0689 2.5388 0.000361913 10
12.9983 -16.0516 3.27135 0.00035481 10
13.0015 -16.0555 4.01581 0.00034606 10
13.0041 -16.0587 4.77058 0.000335762 10
12.9971 -16.0501 5.53384 0.000324033 10
6.4163 -7.86717 -2.7202 0.00051333 1
7.22996 -8.86481 -2.64097 0.00015651 4
8.23347 -10.0952 -2.5322 0.000187785 4
10.8411 -13.2925 -2.71675 7.95035e-05 1
13.0099 -15.9517 -2.52744 0.000470442 10
13.0097 -15.9515 -1.80087 0.000477683 10
17.6235 -21.6085 -1.46134 0.000192541 10
17.6244 -21.6097 -0.486742 0.000193581 10
17.6113 -21.5936 0.486379 0.000193569 10
13.0233 -15.9681 1.07989 0.000376597 10
13.0053 -15.946 1.80025 0.000372963 10
13.0069 -15.9481 2.52686 0.000367512 10
13.0197 -15.9638 3.2627 0.000360306 10
13.0051 -15.9459 3.99973 0.000351428 10
13.0089 -15.9505 4.7519 0.00034098 10
13.0114 -15.9536 5.51621 0.00032908 10
6.44966 -7.85194 -2.7227 0.000513357 1
7.26537 -8.84501 -2.64261 8.94399e-05 4
8.26179 -10.0581 -2.5301 0.000132711 4
10.8854 -13.2521 -2.71623 7.95113e-05 1
13.0288 -15.8615 -2.52033 0.000477665 10
13.0187 -15.8492 -1.79444 0.00048501 10
17.7486 -21.6075 -1.46545 0.000189748 10
17.7535 -21.6135 -0.488221 0.000190774 10
17.7587 -21.6198 0.488363 0.000190762 10
13.0168 -15.847 1.07476 0.000382368 10
13.03 -15.863 1.796 0.000378681 10
13.0217 -15.8529 2.51896 0.000373151 10
13.0201 -15.851 3.24892 0.000365841 10
13.0234 -15.855 3.9883 0.000356836 10
13.0262 -15.8583 4.73796 0.000346238 10
13.0158 -15.8457 5.49457 0.000334165 10
6.46955 -7.82034 -2.71956 0.000513384 1
7.2975 -8.82116 -2.64308 0.000254106 4
8.30233 -10.0358 -2.53177 0.000180301 4
10.9262 -13.2075 -2.71489 7.9519e-05 1
13.0274 -15.7474 -2.50942 0.00048494 10
13.0229 -15.7419 -1.78743 0.000492389 10
21.7086 -26.2412 -1.78484 8.7561e-05 10
21.7059 -26.2379 -0.594388 8.81017e-05 10
21.7022 -26.2334 0.594287 8.81295e-05 10
13.0326 -15.7537 1.07151 0.000388179 10
13.0269 -15.7468 1.78798 0.00038444 10
13.0295 -15.7499 2.50982 0.000378831 10
13.0299 -15.7505 3.23762 0.000371417 10
13.0225 -15.7416 3.97118 0.000362283 10
13.0295 -15.75 4.71915 0.000351533 10
13.0307 -15.7514 5.47762 0.000339287 10
6.50302 -7.80517 -2.72216 0.000513411 1
7.33271 -8.80099 -2.64469 0.000235825 4
8.33461 -10.0035 -2.53095 0.000151514 4
10.97 -13.1667 -2.71435 7.95268e-05 1
13.0461 -15.6584 -2.50247 0.000492267 10
13.0396 -15.6506 -1.78222 0.00049982 10
21.7825 -26.1442 -1.7834 9.24629e-05 10
21.7861 -26.1485 -0.594082 9.29983e-05 10
21.7875 -26.1502 0.594121 9.29922e-05 10
13.028 -15.6367 1.06664 0.000394032 10
13.032 -15.6415 1.78119 0.000390239 10
13.0298 -15.6388 2.49934 0.000384551 10
13.0408 -15.652 3.22672 0.000377032 10
13.036 -15.6463 3.95861 0.000367769 10
13.0322 -15.6417 4.70031 0.000356866 10
13.0259 -15.6342 5.45263 0.000344447 10
6.52319 -7.77403 -2.71922 0.000513437 1
7.35233 -8.76217 -2.64072 0.00020941 4
8.3613 -9.96461 -2.52848 0.000164048 4
11.0217 -13.1352 -2.71577 7.95345e-05 1
13.0554 -15.5588 -2.49382 0.000499645 10
13.0547 -15.5579 -1.77685 0.000507304 10
21.9519 -26.1613 -1.78978 9.09947e-05 10
21.9588 -26.1695 -0.596297 9.15222e-05 10
21.9566 -26.1668 0.596237 9.15163e-05 10
13.0678 -15.5736 1.06544 2.9693e-05 10
13.0404 -15.541 1.77491 0.00039608 10
13.0335 -15.5327 2.48964 0.000390311 10
13.0326 -15.5316 3.21126 0.000382687 10
13.0369 -15.5368 3.94238 0.000373293 10
13.0474 -15.5493 4.6862 0.000362237 10
13.0407 -15.5413 5.43608 0.000349642 10
6.54938 -7.75015 -2.71885 0.000513464 1
7.38635 -8.74057 -2.64196 0.000355815 4
8.40142 -9.94174 -2.5301 0.000207893 4
11.0791 -13.1103 -2.71862 7.95422e-05 1
13.0547 -15.4481 -2.48337 0.000507074 10
13.0519 -15.4449 -1.76912 0.000514839 10
22.1136 -26.1679 -1.79551 8.95378e-05 10
22.1119 -26.1659 -0.59797 9.00577e-05 10
22.1254 -26.1818 0.598334 9.00518e-05 10
13.1237 -15.5299 1.06558 2.96838e-05 10
13.0411 -15.4321 1.76766 0.000401961 10
13.0572 -15.4511 2.48385 0.000396111 10
13.0411 -15.4321 3.20007 0.000388381 10
13.0386 -15.4291 3.9266 0.000378856 10
13.0484 -15.4407 4.66718 0.000367645 10
13.0375 -15.4278 5.41227 0.000354874 10
6.58764 -7.74045 -2.7235 0.000513491 1
7.42458 -8.72385 -2.64473 5.28672e-05 4
8.42789 -9.90274 -2.52764 0.000170335 4
11.1111 -13.0555 -2.71529 7.95499e-05 1
13.0589 -15.3442 -2.47398 0.000514554 10
13.0618 -15.3476 -1.7632 0.000522425 10
22.4378 -26.3643 -1.81435 8.56797e-05 10
22.4441 -26.3718 -0.604462 5.69235e-05 10
22.4485 -26.3769 0.604579 5.69197e-05 10
13.1772 -15.4832 1.06553 2.96746e-05 10
13.0607 -15.3463 1.76305 0.000407881 10
12.7228 -14.9493 2.4103 0.000435084 10
12.7206 -14.9466 3.1086 0.000426656 10
12.719 -14.9448 3.8146 0.000416272 10
13.0509 -15.3348 4.6489 0.00037309 10
13.056 -15.3407 5.39767 0.000360142 10
6.60394 -7.70495 -2.7191 0.000513517 1
7.45092 -8.69314 -2.64328 0.000180979 4
8.47804 -9.89151 -2.53232 0.000155317 4
11.1606 -13.0213 -2.71624 7.95576e-05 1
13.0687 -15.2475 -2.46573 0.000522083 10
13.0704 -15.2495 -1.75716 0.000530061 10
22.6157 -26.3862 -1.82127 8.42817e-05 10
22.6939 -26.4774 -0.608695 5.42242e-05 10
22.6929 -26.4762 0.608667 5.42411e-05 10
13.2331 -15.4393 1.06568 3.838e-05 10
13.0631 -15.241 1.75618 0.00041384 10
12.7764 -14.9065 2.41059 0.000445229 10
12.7789 -14.9094 3.1101 0.000436463 10
12.7298 -14.8521 3.80228 0.000422335 10
13.0535 -15.2298 4.63084 0.000378571 10
13.0543 -15.2307 5.37497 0.000365445 10
6.62271 -7.67248 -2.71578 0.000522276 4
7.16647 -8.30244 -2.53208 0.000209453 4
8.49467 -9.84118 -2.52701 0.000174118 4
11.206 -12.9823 -2.71625 7.95653e-05 1
13.0674 -15.1387 -2.4555 0.000529662 10
13.0792 -15.1524 -1.75122 0.000537748 10
22.7913 -26.404 -1.82798 8.28951e-05 10
22.9486 -26.5862 -0.613034 5.28819e-05 10
22.9403 -26.5766 0.612813 5.28984e-05 10
13.2822 -15.3876 1.0653 3.83682e-05 10
13.0655 -15.1366 1.74939 0.000419839 10
12.873 -14.9135 2.41898 0.000439094 10
12.8673 -14.9069 3.11893 0.000430441 10
12.7241 -14.7411 3.78519 0.000428437 10
13.0644 -15.1353 4.61596 0.000384089 10
13.0653 -15.1363 5.35772 0.000370784 10
6.62162 -7.61731 -2.70442 0.000679953 4
7.19997 -8.28262 -2.53368 0.000152546 4
8.53778 -9.82159 -2.52961 0.000142813 4
11.2545 -12.9468 -2.71703 7.95729e-05 1
13.0729 -15.0387 -2.44666 0.00053729 10
13.0808 -15.0478 -1.74439 0.000545484 10
22.9628 -26.4157 -1.83433 8.152e-05 10
22.9658 -26.4191 -0.611027 5.37919e-05 10
22.9632 -26.4162 0.610957 5.38086e-05 10
13.3394 -15.3452 1.06559 3.83564e-05 10
13.0792 -15.0459 1.74417 0.000425877 10
12.9585 -14.9071 2.42525 0.000432996 10
12.9641 -14.9135 3.12977 0.000424456 10
12.7388 -14.6543 3.77431 0.000434579 10
13.0674 -15.0324 4.59845 0.000389643 10
13.0637 -15.0281 5.33552 0.000376157 10
6.6146 -7.5558 -2.69076 0.000694523 4
7.22035 -8.24774 -2.53071 0.000273233 4
8.57512 -9.79529 -2.53053 0.000157857 4
11.3037 -12.9121 -2.71801 7.95805e-05 1
13.0868 -14.949 -2.43949 0.000544967 10
13.0894 -14.9519 -1.73856 0.00055327 10
23.1237 -26.4139 -1.8398 8.01565e-05 10
23.2317 -26.5373 -0.615632 5.24692e-05 10
23.2228 -26.5272 0.615397 5.24855e-05 10
13.3902 -15.2955 1.06537 3.83446e-05 10
13.0855 -14.9474 1.73805 0.000431953 10
13.0631 -14.9218 2.43505 0.000426935 10
13.0632 -14.922 3.1411 0.000418507 10
12.7532 -14.5678 3.76348 0.000120193 10
13.081 -14.9423 4.58485 0.000395233 10
13.0858 -14.9478 5.32318 0.000381565 10
6.6278 -7.51777 -2.68544 0.000567414 4
7.24004 -8.21221 -2.52754 0.000300574 4
8.60836 -9.76426 -2.53027 0.000140328 4
11.3493 -12.8732 -2.71816 7.95881e-05 1
13.0999 -14.8589 -2.43224 0.000552691 10
13.0885 -14.8459 -1.73155 0.000561104 10
23.2994 -26.428 -1.84643 7.88048e-05 10
23.3013 -26.4301 -0.615027 5.23579e-05 10
23.2964 -26.4246 0.6149 5.23543e-05 10
13.4583 -15.2654 1.06654 3.83329e-05 10
13.0926 -14.8507 1.7321 0.000438067 10
13.1414 -14.906 2.43994 0.000270465 10
13.1314 -14.8947 3.14498 0.000265124 10
12.8172 -14.5382 3.76737 0.000120183 10
13.0847 -14.8416 4.56794 0.000400858 10
13.0902 -14.8479 5.30386 0.000387008 10
6.63644 -7.4748 -2.67835 0.000500261 4
7.28207 -8.20199 -2.53221 0.000298315 4
8.64496 -9.73705 -2.53102 0.000126555 4
11.3928 -12.832 -2.71783 7.95958e-05 1
13.1019 -14.757 -2.42302 0.000560464 10
13.0971 -14.7516 -1.72586 0.000568987 10
23.4798 -26.4459 -1.8534 7.74648e-05 10
23.5081 -26.4779 -0.618045 5.20571e-05 10
23.5049 -26.4742 0.617959 5.20733e-05 10
13.5119 -15.2189 1.06658 3.83211e-05 10
13.1041 -14.7595 1.72678 0.000444218 10
12.854 -14.4779 3.76333 0.000120173 10
13.0847 -14.7376 4.54995 0.000406518 10
13.0879 -14.7413 5.28205 0.000392484 10
6.63351 -7.41918 -2.6667 0.000552064 4
7.30529 -8.17053 -2.53035 0.00030972 4
8.67359 -9.70088 -2.52947 0.000137842 4
11.4302 -12.784 -2.71609 7.96033e-05 1
13.1046 -14.6567 -2.41406 0.000568283 10
13.0967 -14.6478 -1.71906 0.000576917 10
23.6567 -26.4586 -1.86007 7.61366e-05 10
23.7656 -26.5804 -0.622371 5.07969e-05 10
23.759 -26.573 0.622197 5.08126e-05 10
13.5662 -15.173 1.06668 3.83095e-05 10
13.11 -14.6627 1.72081 0.000450407 10
12.9027 -14.4309 3.76282 0.000120164 10
13.0932 -14.644 4.53512 0.000412212 10
13.0989 -14.6504 5.26583 0.000397995 10
6.62997 -7.36333 -2.65493 0.000474019 4
7.35805 -8.17194 -2.53873 0.000745597 4
8.69814 -9.66026 -2.52678 0.000176702 4
11.472 -12.7409 -2.71543 7.96109e-05 1
13.1032 -14.5525 -2.40441 0.000576149 10
13.1055 -14.5551 -1.71354 0.000584894 10
23.8298 -26.4656 -1.8664 7.48205e-05 10
23.8222 -26.4572 -0.62143 4.97119e-05 10
23.8242 -26.4594 0.621481 4.97085e-05 10
13.6133 -15.1191 1.06623 3.82978e-05 10
13.1033 -14.5527 1.71326 0.000456632 10
12.9605 -14.3941 3.76499 0.000120154 10
13.0954 -14.5439 4.51826 0.000417941 10
13.0973 -14.546 5.24474 0.000403538 10
6.64494 -7.32834 -2.65066 0.000740774 4
7.41863 -8.18161 -2.54976 0.000747685 4
8.73307 -9.63124 -2.52715 0.000166688 4
11.5142 -12.6983 -2.71491 7.96185e-05 1
13.1196 -14.4689 -2.39814 0.000584061 10
13.1236 -14.4733 -1.70929 0.000592918 10
24.0181 -26.4883 -1.8739 7.35164e-05 10
24.031 -26.5025 -0.62446 5.0403e-05 10
24.0307 -26.5022 0.624452 5.04186e-05 10
13.6658 -15.0713 1.06621 3.82862e-05 10
13.1074 -14.4554 1.70718 0.000462894 10
13.006 -14.3436 3.76364 0.000120144 10
13.1154 -14.4643 4.50773 0.000423703 10
13.1189 -14.4681 5.23313 0.000409114 10
6.65683 -7.29017 -2.64524 0.000211315 4
7.462 -8.17193 -2.55485 0.000833441 4
8.7773 -9.61238 -2.53022 0.000196782 4
11.5537 -12.6529 -2.7138 7.9626e-05 1
13.1333 -14.3828 -2.39145 0.000592017 10
13.1273 -14.3762 -1.70323 0.000600987 10
24.1851 -26.486 -1.8797 7.22242e-05 10
24.2955 -26.607 -0.628917 4.92009e-05 10
24.3066 -26.6191 0.629203 4.92161e-05 10
13.7224 -15.0279 1.06652 3.82746e-05 10
13.1138 -14.3614 1.70148 0.000469191 10
13.0616 -14.3043 3.76525 0.000120135 10
13.1239 -14.3725 4.49337 0.000429498 10
13.1233 -14.3719 5.21484 0.000414722 10
6.68805 -7.2732 -2.64754 5.36701e-05 4
7.51614 -8.17374 -2.5636 0.000613076 4
8.80456 -9.57489 -2.52843 0.000174233 4
11.604 -12.6193 -2.71526 7.96335e-05 1
13.139 -14.2885 -2.38339 0.00060002 10
13.1342 -14.2833 -1.69764 0.000609102 10
24.3742 -26.5067 -1.8872 7.09442e-05 10
24.3725 -26.5049 -0.628512 4.71375e-05 10
24.376 -26.5087 0.628601 4.71342e-05 10
13.7781 -14.9836 1.06678 3.8263e-05 10
13.1186 -14.2664 1.69563 0.000475524 10
13.1216 -14.2696 3.76816 0.000120125 10
13.1273 -14.2759 4.47746 0.000435327 10
13.1129 -14.2601 5.19088 0.000420362 10
6.70545 -7.24122 -2.64441 8.38637e-05 4
7.56304 -8.16734 -2.56985 0.000779812 4
8.83525 -9.5412 -2.52766 0.000169232 4
11.6561 -12.5875 -2.71716 7.9641e-05 1
13.147 -14.1974 -2.37584 0.000608067 10
13.1321 -14.1814 -1.69096 0.000617263 10
24.56 -26.5224 -1.8944 6.96763e-05 10
24.5702 -26.5334 -0.631216 4.88235e-05 10
24.5643 -26.5271 0.631065 4.88384e-05 10
13.8299 -14.935 1.06675 3.82514e-05 10
13.1328 -14.1822 1.69106 0.000481893 10
12.7943 -13.8166 2.31211 0.000513539 10
12.79 -13.8119 2.98147 0.000503689 10
12.7939 -13.8161 3.66018 0.000491551 10
13.1309 -14.1801 4.46176 0.000441189 10
13.1198 -14.1681 5.17403 0.000426035 10
6.7334 -7.22068 -2.64547 0.0001778 4
7.6233 -8.175 -2.58062 0.00066757 4
8.88094 -9.52365 -2.53121 0.000176766 4
11.6865 -12.5323 -2.71403 7.96485e-05 1
13.1404 -14.0913 -2.36575 0.000616158 10
13.1347 -14.0852 -1.68495 0.000625468 10
24.7264 -26.5159 -1.90009 6.84206e-05 10
24.8318 -26.6289 -0.635546 4.76756e-05 10
24.8356 -26.633 0.635643 4.76902e-05 10
13.8874 -14.8924 1.06717 3.824e-05 10
13.1483 -14.0998 1.6867 0.000488296 10
12.8059 -13.7326 2.30552 0.000520324 10
12.8017 -13.7281 2.97301 0.000510351 10
12.7967 -13.7228 3.64726 0.000498062 10
13.1273 -14.0773 4.44382 0.000447082 10
13.1407 -14.0917 5.16282 0.000431738 10
6.76375 -7.20266 -2.6475 0.000556911 4
7.67512 -8.17317 -2.58849 0.000643042 4
8.90148 -9.47912 -2.52762 0.000162987 4
11.7397 -12.5015 -2.71623 7.96559e-05 1
13.1453 -13.9983 -2.35782 0.000624292 10
13.1503 -14.0036 -1.68067 0.000633717 10
13.1388 -13.9914 -1.00588 0.000422811 10
13.1462 -13.9993 -0.33521 0.000424989 10
13.1478 -14.001 0.335252 0.000425094 10
13.1517 -14.0051 1.00687 0.000423126 10
13.1483 -14.0016 1.68042 0.000494733 10
12.8625 -13.6972 2.3071 0.00048375 10
12.8611 -13.6957 2.97569 0.000474327 10
12.8612 -13.6958 3.65199 0.000462754 10
13.1347 -13.987 4.42976 0.000453008 10
13.1377 -13.9903 5.14244 0.000437473 10
6.78858 -7.17873 -2.6474 0.000224789 4
7.72282 -8.16666 -2.59494 0.000734379 4
8.9345 -9.44797 -2.52761 0.00015673 4
11.7886 -12.466 -2.71745 7.96634e-05 1
13.1517 -13.9075 -2.35025 0.000632469 10
13.1622 -13.9187 -1.67598 0.000642008 10
13.1812 -13.9387 -1.0054 0.000394089 10
13.1689 -13.9258 -0.334549 0.000395996 10
13.1767 -13.934 0.334746 0.000395973 10
13.1822 -13.9398 1.00547 0.00039402 10
13.149 -13.9047 1.6743 0.000501204 10
12.9667 -13.7119 2.31719 0.000476533 10
12.9636 -13.7086 2.98831 0.000467242 10
12.9677 -13.7129 3.66861 0.000455831 10
13.1551 -13.9112 4.42025 0.000458964 10
13.1562 -13.9123 5.13064 0.000443238 10
6.80771 -7.1488 -2.64511 6.71044e-05 4
7.77943 -8.1692 -2.60437 0.000792098 4
8.97342 -9.42302 -2.5293 0.000141694 4
11.8241 -12.4165 -2.71562 7.96708e-05 1
13.1595 -13.8188 -2.34301 0.000640688 10
13.1642 -13.8238 -1.67008 0.000650343 10
13.2762 -13.9414 -1.00893 0.000388148 10
13.2797 -13.9451 -0.336126 0.000390029 10
13.2741 -13.9392 0.335983 0.000390006 10
13.2752 -13.9403 1.00885 0.000388081 10
13.1483 -13.807 1.66805 0.000507708 10
13.0706 -13.7255 2.32719 0.000469368 10
13.0697 -13.7246 3.00172 0.000460207 10
13.0568 -13.711 3.68028 0.000448958 10
13.1478 -13.8065 4.40156 0.000464952 10
13.1443 -13.8029 5.10716 0.000449033 10
6.8208 -7.11266 -2.64053 0.000144282 4
7.84673 -8.1825 -2.61732 0.000863429 4
9.00621 -9.39159 -2.52929 0.000139196 4
11.8621 -12.3697 -2.71443 7.96782e-05 1
13.1621 -13.7253 -2.33492 0.000648948 10
13.1585 -13.7215 -1.66327 0.000658719 10
13.16 -13.7231 -0.996452 0.000439481 10
13.1635 -13.7268 -0.331969 0.000441738 10
13.1671 -13.7305 0.332059 0.000441846 10
13.1577 -13.7208 0.996279 0.000439805 10
13.1633 -13.7265 1.66387 0.000514244 10
13.1546 -13.7175 2.3336 0.000462254 10
13.1682 -13.7317 3.01331 0.000497122 10
13.1632 -13.7264 3.69672 0.000485111 10
13.1593 -13.7224 4.38936 0.000470971 10
13.1586 -13.7216 5.09407 0.000454858 10
6.86098 -7.10475 -2.64647 7.38222e-05 4
7.9075 -8.18846 -2.62804 0.000675546 4
9.03756 -9.35867 -2.5289 0.000169305 4
11.9084 -12.3316 -2.71517 7.96856e-05 1
13.1663 -13.6341 -2.32721 0.00065725 10
13.1786 -13.6468 -1.65978 0.000667137 10
13.1902 -13.6589 -0.995122 0.000400894 10
13.1912 -13.6598 -0.331462 0.00040283 10
13.199 -13.668 0.331659 0.000402806 10
13.1961 -13.6649 0.995564 0.000400824 10
13.1606 -13.6282 1.65751 0.000520813 10
13.1701 -13.638 2.32789 0.000513349 10
13.1666 -13.6344 3.00204 0.000503485 10
13.1623 -13.6299 3.68308 0.000491329 10
13.1665 -13.6344 4.37587 0.000477019 10
13.1565 -13.624 5.07483 0.000460712 10
6.87741 -7.0722 -2.64327 0.000332216 4
7.9449 -8.16992 -2.63098 0.000706326 4
9.06915 -9.32601 -2.52862 0.000145487 4
11.9479 -12.2863 -2.71438 7.9693e-05 1
13.1761 -13.5493 -2.32057 0.000665591 10
13.1827 -13.5561 -1.65432 0.000675596 10
13.2998 -13.6764 -0.999779 0.000394738 10
13.3039 -13.6807 -0.333092 0.000396646 10
13.3012 -13.6779 0.333024 0.000396623 10
13.3074 -13.6843 1.00035 0.000394669 10
13.166 -13.539 1.65223 0.000527414 10
13.169 -13.542 2.31933 0.000519861 10
13.1692 -13.5422 2.99183 0.000509879 10
13.1633 -13.5361 3.67014 0.000497578 10
13.1757 -13.5488 4.36316 0.000483097 10
13.1676 -13.5405 5.06085 0.000466595 10
6.90764 -7.05386 -2.64541 0.000181218 4
8.01598 -8.18565 -2.64504 0.000593779 4
9.10144 -9.29408 -2.52856 0.000120412 4
11.9929 -12.2467 -2.71486 7.97003e-05 1
13.184 -13.4631 -2.31368 0.000673973 10
13.1807 -13.4597 -1.64817 0.000684095 10
13.1862 -13.4654 -0.987706 0.000456399 10
13.1936 -13.4729 -0.329152 0.000458736 10
13.1791 -13.458 0.328789 0.000458848 10
13.1814 -13.4604 0.987344 0.000456732 10
13.184 -13.463 1.64858 0.000534047 10
13.1752 -13.4541 2.31213 0.000526404 10
13.1894 -13.4685 2.98571 0.000516304 10
13.1818 -13.4608 3.66216 0.000503857 10
13.1757 -13.4546 4.3476 0.000489204 10
13.1837 -13.4628 5.04896 0.000472506 10
6.93329 -7.03078 -2.64582 0.000711483 4
8.05759 -8.17089 -2.64934 0.000547012 4
9.13818 -9.26667 -2.52977 0.000127946 4
12.041 -12.2103 -2.71609 7.97076e-05 1
13.1918 -13.3773 -2.30683 0.000682394 10
13.1818 -13.3672 -1.64246 0.000692634 10
13.2079 -13.3936 -0.985819 0.00040793 10
13.2199 -13.4058 -0.328639 0.000409895 10
13.2082 -13.3939 0.328347 0.000409871 10
13.2021 -13.3877 0.985385 0.000407858 10
13.1828 -13.3682 1.64259 0.00054071 10
13.1833 -13.3686 2.30534 0.000532978 10
13.1807 -13.366 2.97316 0.000522759 10
13.1935 -13.3791 3.65243 0.000510166 10
13.1799 -13.3653 4.33357 0.000495341 10
13.1839 -13.3693 5.03113 0.000478445 10
6.94519 -6.99385 -2.64103 0.000641038 4
8.11529 -8.17215 -2.65892 0.000701891 4
9.17649 -9.24078 -2.53142 0.000186915 4
12.0742 -12.1588 -2.71399 7.9715e-05 1
13.1943 -13.2867 -2.29914 0.000690853 10
13.1954 -13.2878 -1.63836 0.000701212 10
13.3166 -13.4099 -0.990432 0.000401549 10
13.3029 -13.3961 -0.329538 0.000403485 10
13.3128 -13.4061 0.329782 0.000403461 10
13.3092 -13.4024 0.989882 0.000401478 10
13.1896 -13.282 1.63765 0.000547404 10
13.1883 -13.2807 2.2981 0.000539582 10
13.1935 -13.2859 2.96558 0.000529243 10
13.1823 -13.2746 3.63646 0.000516503 10
13.1877 -13.2801 4.32084 0.000501505 10
13.1865 -13.2789 5.01438 0.000484412 10
6.97219 -6.9722 -2.64203 0.000607505 4
8.18816 -8.18816 -2.67341 0.000593352 4
9.19599 -9.19599 -2.52793 0.000552158 4
12.1105 -12.1105 -2.71262 7.97223e-05 1
13.2046 -13.2046 -2.2929 0.000699351 10
13.205 -13.205 -1.63382 0.00046886 10
13.2045 -13.2045 -0.978659 0.000473555 10
13.2048 -13.2048 -0.325962 0.000475973 10
13.1986 -13.1986 0.325809 0.000476088 10
13.2074 -13.2074 0.978878 0.000473896 10
13.1915 -13.1915 1.63216 0.000554128 10
13.1943 -13.1943 2.29111 0.000546215 10
13.194 -13.194 2.95533 0.000535756 10
13.1995 -13.1995 3.62848 0.000522869 10
13.2039 -13.2039 4.31103 0.000507697 10
13.1959 -13.1959 5.00042 0.000490406 10
7.0056 -6.95686 -2.64546 0.000634387 4
8.23636 -8.17906 -2.67981 0.000529408 4
9.25917 -9.19476 -2.53646 0.000586142 4
12.1697 -12.085 -2.71641 7.97295e-05 1
13.2161 -13.1242 -2.28693 0.000707885 10
13.2168 -13.1249 -1.62961 0.000411227 10
13.2269 -13.1349 -0.976922 0.000415218 10
13.2133 -13.1214 -0.32504 0.000417213 10
13.2243 -13.1323 0.32531 0.000417188 10
13.2172 -13.1253 0.976205 0.000415144 10
13.1963 -13.1044 1.62707 0.000560881 10
13.1996 -13.1077 2.28406 0.000552877 10
13.1985 -13.1067 2.94606 0.000542299 10
13.1949 -13.1031 3.61462 0.000529264 10
13.1953 -13.1035 4.29326 0.000513917 10
13.2003 -13.1084 4.98471 0.000496427 10
7.01628 -6.919 -2.64036 0.00073512 4
8.29314 -8.17815 -2.68898 0.0006365 4
9.33413 -9.20471 -2.54818 0.000596324 4
12.209 -12.0397 -2.71579 7.97368e-05 1
13.2152 -13.0319 -2.27888 0.000716456 10
13.3069 -13.1224 -1.63506 8.32133e-05 10
13.322 -13.1373 -0.980548 0.000408602 10
13.3165 -13.1318 -0.326449 0.000410567 10
13.3268 -13.142 0.326702 0.000410542 10
13.3234 -13.1386 0.98065 0.000408529 10
13.2179 -13.0346 1.62412 0.000567663 10
13.2134 -13.0302 2.27857 0.000559568 10
13.2124 -13.0292 2.93898 0.000548869 10
13.2112 -13.028 3.6066 0.000535685 10
13.2118 -13.0286 4.28382 0.000520163 10
13.2088 -13.0257 4.97074 0.000502474 10
7.05359 -6.90739 -2.64531 0.0005371 4
8.34934 -8.17628 -2.69793 0.000546288 4
9.38892 -9.19431 -2.55436 0.000541503 4
12.2359 -11.9823 -2.71246 7.97441e-05 1
13.2269 -12.9527 -2.27308 0.000725063 10
13.2221 -12.9481 -1.61908 0.000486081 10
13.2171 -12.9432 -0.969498 0.000490937 10
13.2129 -12.939 -0.322801 0.000493437 10
13.2139 -12.94 0.322825 0.000493554 10
13.2202 -12.9461 0.969721 0.000491286 10
13.221 -12.947 1.61894 0.000574473 10
13.2191 -12.9451 2.27175 0.000566286 10
13.2085 -12.9348 2.92807 0.000555467 10
13.2122 -12.9383 3.59452 0.000542134 10
13.2055 -12.9318 4.26711 0.000526436 10
13.2102 -12.9364 4.95424 0.000508546 10
7.07767 -6.88273 -2.64532 0.000657979 4
8.40717 -8.17562 -2.70738 0.000507396 4
9.46297 -9.20234 -2.56575 0.000611468 4
12.2964 -11.9577 -2.71659 7.97513e-05 1
13.2309 -12.8665 -2.26604 0.000733705 10
13.2324 -12.8679 -1.61482 0.000491868 10
13.2306 -12.8662 -0.967188 0.000496778 10
13.2287 -12.8644 -0.322088 0.000499307 10
13.2197 -12.8556 0.321867 0.000499425 10
13.2168 -12.8528 0.96618 0.000497131 10
13.2131 -12.8492 1.61247 0.000581311 10
13.2126 -12.8487 2.26292 0.000573032 10
13.2225 -12.8584 2.92121 0.000562091 10
13.2214 -12.8572 3.58479 0.000548609 10
13.2213 -12.8572 4.25769 0.000532735 10
13.2132 -12.8493 4.93851 0.000514644 10
7.09671 -6.85321 -2.64348 0.000637868 4
8.4715 -8.18083 -2.71888 0.000311234 1
9.51168 -9.18532 -2.57025 0.00069869 4
12.3304 -11.9073 -2.71491 7.97585e-05 1
13.2291 -12.7752 -2.25808 0.000742382 10
13.3254 -12.8682 -1.62069 0.000411927 10
13.3157 -12.8589 -0.970124 0.000415918 10
13.3207 -12.8637 -0.323233 0.000417913 10
13.3267 -12.8694 0.323377 0.000417888 10
13.3117 -12.8549 0.969827 0.000415843 10
13.2201 -12.7665 1.60788 0.000588176 10
13.2245 -12.7707 2.25729 0.000579806 10
13.2325 -12.7785 2.91355 0.000568743 10
13.2301 -12.7762 3.57506 0.00055511 10
13.2264 -12.7726 4.24495 0.00053906 10
13.216 -12.7625 4.92286 0.000520766 10
8.50967 -8.16049 -2.72198 0.000311252 1
9.57329 -9.18046 -2.57822 0.000489835 4
12.3788 -11.8708 -2.71642 7.97657e-05 1
13.2378 -12.6946 -2.25199 0.000751093 10
17.9693 -17.2319 -2.17816 0.000245349 10
17.9604 -17.2234 -1.30412 0.000247928 10
17.9665 -17.2293 -0.434504 0.000249218 10
17.9663 -17.229 0.434496 0.000249202 10
14.7154 -14.1116 1.0685 3.806e-05 10
13.2251 -12.6825 1.60309 0.000595068 10
13.2347 -12.6916 2.25146 0.000586605 10
13.2292 -12.6863 2.90304 0.00057542 10
13.2264 -12.6836 3.56205 0.000561638 10
13.2305 -12.6876 4.23202 0.000545409 10
13.2369 -12.6938 4.91413 0.000526913 10
7.15395 -6.81262 -2.64702 0.000154446 4
8.53685 -8.12953 -2.72157 0.00031127 1
9.6474 -9.1871 -2.58953 0.000445921 4
12.4131 -11.8208 -2.71487 7.97728e-05 1
13.2351 -12.6036 -2.24403 0.000759838 10
13.2383 -12.6067 -1.59935 0.00050937 10
13.2415 -12.6097 -0.958277 0.000514442 10
13.2418 -12.61 -0.319174 0.000517054 10
13.2318 -12.6005 0.318933 0.000517175 10
13.2433 -12.6114 0.958409 0.000514804 10
13.2306 -12.5993 1.59842 0.000601987 10
13.2437 -12.6118 2.24549 0.000593431 10
13.2281 -12.597 2.89314 0.000582124 10
13.2333 -12.6019 3.55204 0.00056819 10
13.2307 -12.5994 4.21798 0.000551783 10
13.2388 -12.6072 4.89847 0.000533084 10
7.16939 -6.77975 -2.64396 0.000134307 4
8.56085 -8.0956 -2.7202 0.000311288 1
9.7072 -9.17964 -2.59696 0.000509903 4
12.4539 -11.7771 -2.7148 7.978e-05 1
13.2407 -12.5211 -2.23756 0.000768614 10
13.3208 -12.5969 -1.604 0.000419468 10
13.3217 -12.5977 -0.960894 0.000423523 10
13.3114 -12.588 -0.31979 0.000425548 10
13.3137 -12.5902 0.319846 0.000425522 10
13.3089 -12.5856 0.959973 0.000423445 10
12.8955 -12.1947 1.55278 0.000657358 10
12.9127 -12.211 2.18214 0.000648079 10
12.9073 -12.2058 2.81363 0.000635815 10
12.9003 -12.1992 3.45121 0.0006207 10
12.8929 -12.1922 4.09669 0.000602901 10
12.8969 -12.196 4.75617 0.000582611 10
7.18141 -6.74379 -2.63969 0.000241765 4
8.58959 -8.06616 -2.72037 0.000311305 1
9.78267 -9.18654 -2.60856 0.000550714 4
12.4884 -11.7274 -2.71338 7.97871e-05 1
13.252 -12.4444 -2.23211 0.000777423 10
13.4116 -12.5943 -1.60962 0.000412471 10
13.4183 -12.6006 -0.964682 0.000416462 10
13.4073 -12.5903 -0.321036 0.000418455 10
13.4155 -12.598 0.321234 0.00041843 10
13.4189 -12.6012 0.964728 0.000416385 10
12.9014 -12.1153 1.54839 0.000664835 10
12.9064 -12.12 2.17391 0.000655457 10
12.9088 -12.1221 2.80472 0.000643061 10
12.9101 -12.1234 3.44249 0.000627784 10
12.9135 -12.1266 4.08978 0.000609793 10
12.9102 -12.1235 4.74546 0.000589284 10
7.22428 -6.73675 -2.64679 0.000137678 4
8.60542 -8.02468 -2.71649 0.000311323 1
9.85452 -9.18948 -2.61915 0.000604101 4
12.543 -11.6966 -2.71636 7.97942e-05 1
13.2705 -12.375 -2.22795 0.000786263 10
13.258 -12.3632 -1.58599 0.000797952 10
13.2672 -12.3718 -0.950707 0.00080588 10
13.2477 -12.3537 -0.31618 0.00080996 10
13.2666 -12.3713 0.316632 0.000810147 10
13.2636 -12.3685 0.950448 0.00080644 10
12.9142 -12.0427 1.54487 0.000672338 10
12.9209 -12.0489 2.16924 0.00066286 10
12.9188 -12.047 2.79774 0.000650331 10
12.9054 -12.0345 3.43002 0.000634892 10
12.9125 -12.0411 4.07611 0.000616709 10
12.9116 -12.0403 4.73048 0.000595982 10
7.24503 -6.70898 -2.6458 0.000110819 4
8.63889 -7.9997 -2.71823 0.000311341 1
9.91769 -9.18388 -2.6274 0.000367718 4
11.7063 -10.8401 -2.52694 7.74764e-05 4
13.257 -12.2761 -2.21846 0.000795134 10
13.255 -12.2743 -1.5805 0.000806945 10
13.2677 -12.286 -0.947662 0.000814957 10
13.2722 -12.2902 -0.31574 0.000819079 10
13.2645 -12.2831 0.315556 0.000819268 10
13.268 -12.2863 0.947687 0.000815521 10
12.9963 -12.0347 1.54966 0.000541141 10
12.9916 -12.0304 2.17406 0.00053335 10
12.9948 -12.0333 2.80508 0.000523107 10
12.9971 -12.0355 3.44321 0.000510526 10
12.9953 -12.0338 4.08899 0.000495744 10
12.9942 -12.0327 4.74532 0.000478921 10
7.25255 -6.66906 -2.64003 0.000110825 4
8.67163 -7.97398 -2.71976 0.000311358 1
9.98638 -9.18295 -2.63709 0.000630104 4
11.729 -10.7854 -2.52371 7.92712e-05 4
13.2746 -12.2066 -2.21427 0.000804033 10
13.2695 -12.2019 -1.57714 0.000815968 10
13.2704 -12.2027 -0.944808 0.000824063 10
13.2756 -12.2076 -0.314805 0.000828229 10
13.2633 -12.1962 0.314512 0.000828419 10
13.2714 -12.2037 0.944881 0.000824632 10
13.0895 -12.0364 1.55575 0.000531995 10
13.0835 -12.0309 2.18239 0.000524328 10
13.0809 -12.0285 2.81459 0.000514249 10
13.0811 -12.0287 3.45432 0.000501868 10
13.0932 -12.0398 4.10651 0.000487321 10
13.0897 -12.0366 4.76482 0.000470767 10
7.27365 -6.64176 -2.63925 0.000141056 4
8.70444 -7.94825 -2.72133 0.000311376 1
10.0275 -9.15641 -2.63951 0.000101594 4
11.7757 -10.7527 -2.52567 6.85487e-05 4
13.2671 -12.1145 -2.20595 0.000812963 10
13.2807 -12.127 -1.57343 0.000825022 10
13.2779 -12.1244 -0.942325 0.000833201 10
13.2804 -12.1267 -0.313914 0.000837409 10
13.2817 -12.1279 0.313943 0.0008376 10
13.2831 -12.1292 0.942695 0.000833774 10
13.1996 -12.0529 1.56382 0.000522931 10
13.1806 -12.0355 2.19157 0.000515386 10
13.1919 -12.0459 2.82942 0.000505468 10
13.1993 -12.0526 3.47439 0.000493286 10
13.1806 -12.0355 4.12074 0.000478973 10
13.1808 -12.0358 4.78268 0.000462686 10
7.30058 -6.61976 -2.64062 0.000134346 4
8.72539 -7.9117 -2.71923 0.000311394 1
10.0562 -9.11839 -2.63865 0.000176407 4
11.8218 -10.7194 -2.52752 8.28618e-05 4
13.2972 -12.0572 -2.20394 0.000649915 10
13.2881 -12.049 -1.56932 0.000659356 10
13.2909 -12.0514 -0.940255 0.000665695 10
13.2802 -12.0418 -0.312913 0.000668861 10
13.2902 -12.0508 0.313147 0.000668819 10
13.2828 -12.0441 0.939681 0.00066557 10
13.2811 -12.0426 1.56849 0.000513948 10
13.2815 -12.0429 2.20134 0.000506526 10
13.297 -12.057 2.8429 0.000496768 10
13.2862 -12.0472 3.48617 0.000484782 10
13.285 -12.0461 4.1402 0.000470701 10
13.2956 -12.0557 4.80902 0.000454678 10
7.32663 -6.59693 -2.6417 9.74051e-05 4
8.757 -7.88484 -2.72048 0.000311411 1
10.0984 -9.09266 -2.64139 0.000116124 4
11.8438 -10.6642 -2.52424 7.75033e-05 4
13.3975 -12.0632 -2.21357 0.000638651 10
13.3791 -12.0466 -1.57509 0.000647938 10
13.3848 -12.0517 -0.943917 0.000654174 10
13.3945 -12.0605 -0.314611 0.000657288 10
13.4001 -12.0655 0.314743 0.000657246 10
13.3973 -12.063 0.944802 0.000654051 10
13.3804 -12.0477 1.57524 0.000505047 10
13.3808 -12.0481 2.21081 0.000497745 10
13.3812 -12.0485 2.85189 0.000488146 10
13.4018 -12.067 3.50543 0.000476356 10
13.3822 -12.0494 4.15737 0.000462505 10
13.3935 -12.0595 4.82916 0.000446744 10
7.35604 -6.57706 -2.64401 0.000174666 4
8.77887 -7.84922 -2.71875 7.21874e-05 4
10.1272 -9.0548 -2.64064 9.26819e-05 4
11.8929 -10.6335 -2.52677 6.91627e-05 4
13.4995 -12.0699 -2.22345 0.000627491 10
13.4912 -12.0626 -1.58333 0.000636626 10
13.4977 -12.0683 -0.948904 0.000642759 10
13.4958 -12.0666 -0.315999 0.000645822 10
13.4897 -12.0612 0.315857 0.000645781 10
13.4908 -12.0622 0.948418 0.000642637 10
13.5029 -12.073 1.58469 0.000496229 10
13.4903 -12.0617 2.22194 0.000489047 10
13.4841 -12.0562 2.86484 0.000479605 10
13.4831 -12.0553 3.51567 0.000468009 10
13.5003 -12.0707 4.18094 0.000454386 10
13.5042 -12.0742 4.85387 0.000438884 10
7.37242 -6.54555 -2.64167 0.000238497 4
8.74835 -7.76715 -2.70088 9.23959e-05 4
10.1553 -9.01633 -2.63975 4.57858e-05 4
11.9197 -10.5828 -2.52462 6.20133e-05 4
13.5971 -12.0721 -2.23257 0.000616436 10
13.5869 -12.063 -1.5896 0.00062542 10
13.5941 -12.0694 -0.952715 0.00063145 10
13.5878 -12.0639 -0.317167 0.000634463 10
13.5856 -12.0619 0.317115 0.000634423 10
13.5931 -12.0685 0.952645 0.000631331 10
13.5843 -12.0607 1.58929 0.000487493 10
13.6021 -12.0765 2.2334 0.000480429 10
13.5989 -12.0737 2.88026 0.000471144 10
13.6054 -12.0795 3.53655 0.00045974 10
13.5927 -12.0681 4.19648 0.000446343 10
13.5969 -12.0719 4.87202 0.000431099 10
7.39724 -6.52154 -2.64239 0.000225071 4
8.7534 -7.71716 -2.69411 8.41474e-05 4
10.1975 -8.99035 -2.64255 0.000140717 4
11.9598 -10.544 -2.52529 7.39453e-05 4
13.6978 -12.0762 -2.24217 0.000605486 10
13.7001 -12.0783 -1.5979 0.000614319 10
13.6925 -12.0715 -0.956648 0.000620249 10
13.6908 -12.07 -0.318584 0.000623212 10
13.7051 -12.0827 0.318918 0.000623172 10
13.6941 -12.073 0.956763 0.000620131 10
13.6961 -12.0748 1.59744 0.00047884 10
13.7009 -12.079 2.24269 0.000471894 10
13.6906 -12.0699 2.89074 0.000462764 10
13.6946 -12.0734 3.54875 0.00045155 10
13.7094 -12.0865 4.21947 0.000438377 10
13.694 -12.0729 4.89168 0.000423389 10
7.42746 -6.50225 -2.64506 0.000403131 4
8.73508 -7.64699 -2.68024 9.5754e-05 4
10.2119 -8.93982 -2.63815 0.00013961 4
11.9883 -10.495 -2.52356 7.4548e-05 4
13.7919 -12.0739 -2.25067 0.000594642 10
13.8051 -12.0854 -1.60522 0.000603326 10
13.8033 -12.0838 -0.961436 0.000609157 10
13.8145 -12.0937 -0.320479 0.000612069 10
13.8121 -12.0916 0.320422 0.00061203 10
13.8071 -12.0872 0.961706 0.00060904 10
13.8099 -12.0896 1.60577 0.00047027 10
13.8063 -12.0865 2.25302 0.000463441 10
13.8136 -12.0929 2.90779 0.000454464 10
13.8015 -12.0823 3.5655 0.000443439 10
13.8129 -12.0923 4.2383 0.000430488 10
13.7958 -12.0773 4.91296 0.000415753 10
7.44042 -6.46786 -2.64162 8.73491e-05 4
8.71458 -7.57547 -2.66582 9.08667e-05 4
10.25 -8.91018 -2.63995 7.48357e-05 4
12.0358 -10.4626 -2.52586 5.4872e-05 4
13.9033 -12.0859 -2.26194 0.000583902 10
14.0027 -12.1723 -1.62324 0.000506726 10
13.992 -12.1631 -0.971619 0.000511785 10
13.9851 -12.157 -0.323449 0.000514388 10
13.984 -12.1561 0.323425 0.000514504 10
14.0002 -12.1702 0.97219 0.000512133 10
13.906 -12.0883 1.61203 0.000461784 10
13.8996 -12.0828 2.26135 0.00045507 10
13.9014 -12.0843 2.91736 0.000446246 10
13.9005 -12.0836 3.58017 0.000435408 10
13.9077 -12.0898 4.25441 0.000422677 10
13.9088 -12.0907 4.93813 0.000408193 10
7.45766 -6.43728 -2.63974 0.000231822 4
8.69937 -7.50909 -2.65313 7.61266e-05 4
10.2715 -8.86612 -2.6375 0.000120639 4
14.0162 -12.0985 -2.27343 0.00057327 10
14.0264 -12.1073 -1.62108 0.000384202 10
14.005 -12.0888 -0.969587 0.000387923 10
14.025 -12.1061 -0.323394 0.000389782 10
14.0058 -12.0895 0.322951 0.000389757 10
14.0092 -12.0924 0.969876 0.000387848 10
14.0133 -12.096 1.61957 0.000453382 10
14.0156 -12.0979 2.27333 0.000446783 10
14.0225 -12.1039 2.93389 0.000438109 10
14.0145 -12.097 3.59864 0.000427456 10
14.0089 -12.0921 4.27242 0.000414944 10
14.0284 -12.109 4.96557 0.000400709 10
7.48984 -6.41957 -2.64319 0.000178074 4
8.69423 -7.45186 -2.64362 7.87571e-05 4
9.86848 -8.45831 -2.52642 0.000184697 4
12.1113 -10.3807 -2.52643 6.56189e-05 4
14.1148 -12.0979 -2.28256 0.000562743 10
14.1607 -12.1372 -1.6317 8.3484e-05 10
14.2615 -12.2236 -0.984385 0.000495134 10
14.2664 -12.2278 -0.327974 0.00049766 10
14.2666 -12.228 0.327979 0.000497772 10
14.2512 -12.2147 0.983669 0.00049547 10
14.1245 -12.1062 1.62753 0.000445063 10
14.1183 -12.1008 2.28312 0.000438577 10
14.1358 -12.1158 2.94873 0.000430053 10
14.1208 -12.103 3.61505 0.000419585 10
14.1219 -12.1039 4.29397 0.000407288 10
14.1174 -12.1001 4.98207 0.0003933 10
7.50111 -6.38395 -2.63928 0.000245283 4
8.71724 -7.41896 -2.64272 4.28145e-05 4
9.89589 -8.42207 -2.5259 0.000193505 4
12.1477 -10.3385 -2.52647 7.87494e-05 4
14.2267 -12.1079 -2.29381 0.000552323 10
14.2273 -12.1084 -1.63449 0.000560426 10
14.2708 -12.1454 -0.98209 0.000500292 10
14.2752 -12.1491 -0.327199 0.000502841 10
14.2715 -12.146 0.327114 0.000502954 10
14.2521 -12.1295 0.980805 0.00050063 10
14.2404 -12.1196 1.636 0.000436828 10
14.227 -12.1082 2.29386 0.000430455 10
14.2303 -12.111 2.95962 0.000422079 10
14.2291 -12.1099 3.63194 0.000411793 10
14.2271 -12.1082 4.3131 0.000399711 10
14.2234 -12.1051 5.00455 0.000385966 10
7.5231 -6.35751 -2.6392 7.05642e-05 4
8.7472 -7.39196 -2.64397 0.000381274 4
9.92959 -8.39115 -2.527 0.000139483 4
12.177 -10.2904 -2.52509 7.57728e-05 4
14.333 -12.1123 -2.30411 0.00054201 10
14.3498 -12.1266 -1.6437 0.000549971 10
14.3368 -12.1155 -0.983716 0.0003668 10
14.3529 -12.1291 -0.328007 0.000368563 10
14.3442 -12.1218 0.327809 0.000368539 10
14.339 -12.1174 0.983866 0.000366728 10
14.3377 -12.1163 1.6423 0.000428678 10
14.3385 -12.1169 2.30499 0.000422416 10
14.3501 -12.1268 2.97571 0.000414187 10
14.3473 -12.1244 3.65128 0.000404081 10
14.3367 -12.1155 4.33347 0.000392211 10
14.3403 -12.1185 5.03076 0.000378709 10
7.55522 -6.33959 -2.64269 0.000638467 4
8.76023 -7.35071 -2.64013 0.000340514 4
9.96292 -8.35988 -2.52805 0.000168396 4
12.2093 -10.2448 -2.52434 6.92156e-05 4
14.4629 -12.1358 -2.31818 0.000531804 10
14.4482 -12.1235 -1.65011 0.000539624 10
14.5291 -12.1914 -0.993989 0.0004842 10
14.5346 -12.196 -0.331185 0.000486674 10
14.539 -12.1997 0.331286 0.000486784 10
14.5306 -12.1926 0.994087 0.000484526 10
14.4481 -12.1234 1.65009 0.000420612 10
14.4548 -12.129 2.31687 0.000414461 10
14.4541 -12.1284 2.98847 0.000406377 10
14.4446 -12.1204 3.66524 0.00039645 10
14.4554 -12.1295 4.35651 0.00038479 10
14.4614 -12.1346 5.05836 0.000371527 10
7.58368 -6.31848 -2.64491 0.000692264 4
8.78875 -7.32251 -2.64101 0.000448606 4
10.0308 -8.35739 -2.53787 0.000608498 4
12.2358 -10.1945 -2.52245 7.33985e-05 4
14.561 -12.1317 -2.32709 0.000521705 10
14.56 -12.1309 -1.65802 0.000529386 10
14.5681 -12.1377 -0.993752 0.000353079 10
14.5718 -12.1407 -0.331064 0.00035478 10
14.5591 -12.1302 0.330777 0.000354757 10
14.5608 -12.1316 0.993249 0.000353009 10
14.5603 -12.1312 1.65806 0.000412631 10
14.5693 -12.1387 2.32842 0.00040659 10
14.5687 -12.1382 3.00339 0.000398649 10
14.5618 -12.1324 3.68423 0.000388899 10
14.5699 -12.1392 4.37824 0.000377448 10
14.5596 -12.1306 5.07785 0.000364422 10
7.59359 -6.28196 -2.6407 0.000651968 4
8.81497 -7.29238 -2.64122 0.000346669 4
10.0853 -8.34327 -2.54425 0.000718135 4
12.2853 -10.1633 -2.52534 6.684e-05 4
14.6685 -12.1349 -2.33749 0.000511714 10
14.6662 -12.1329 -1.66529 0.000519257 10
14.8044 -12.2473 -1.00695 0.000468849 10
14.8046 -12.2474 -0.33538 0.000471252 10
14.8084 -12.2506 0.335467 0.000471357 10
14.8064 -12.2489 1.00708 0.000469164 10
14.6073 -12.0842 1.65859 0.000571381 10
14.606 -12.0831 2.32753 0.000563182 10
14.5885 -12.0686 2.99876 0.000552349 10
14.6009 -12.0789 3.68342 0.000539005 10
14.6902 -12.1528 4.40162 0.000370184 10
14.5849 -12.0657 5.07197 0.0005054 10
7.6248 -6.26308 -2.64394 0.000618389 4
8.82967 -7.25278 -2.63803 0.000407867 4
10.1637 -8.34858 -2.55668 0.000732117 4
12.3148 -10.1155 -2.52412 7.81854e-05 4
14.7977 -12.155 -2.35131 0.00050183 10
14.7886 -12.1475 -1.67436 0.000509236 10
14.8145 -12.1687 -1.00474 0.000473582 10
14.7932 -12.1512 -0.334159 0.000476008 10
14.8126 -12.1672 0.334597 0.000476114 10
14.7931 -12.1512 1.00329 0.0004739 10
14.6047 -11.9964 1.65353 0.000577132 10
14.61 -12.0008 2.32148 0.000568855 10
14.5925 -11.9864 2.99097 0.00055792 10
14.6084 -11.9995 3.67473 0.000544449 10
14.7954 -12.1531 4.4204 0.000362999 10
14.6019 -11.9941 5.06328 0.000510524 10
7.63261 -6.225 -2.63909 0.000641944 4
8.86946 -7.23376 -2.64235 0.000436441 4
10.2501 -8.35975 -2.57104 0.000575979 4
12.348 -10.0708 -2.5237 8.89358e-05 4
14.9165 -12.1656 -2.36342 0.000492055 10
14.8974 -12.15 -1.68187 0.000499325 10
15.0771 -12.2966 -1.01963 0.000454191 10
15.0569 -12.2801 -0.339145 0.000456525 10
15.0642 -12.286 0.33931 0.000456627 10
15.0747 -12.2946 1.01947 0.000454496 10
14.5991 -11.9068 1.64819 0.000582894 10
14.5977 -11.9056 2.3129 0.00057454 10
14.6092 -11.915 2.98585 0.000563502 10
14.5962 -11.9044 3.66118 0.000549904 10
14.9094 -12.1598 4.44174 0.000355894 10
14.6102 -11.9158 5.05169 0.00051566 10
7.67475 -6.21489 -2.64615 0.00063525 4
8.88722 -7.19673 -2.64014 0.00040995 4
10.3065 -8.34605 -2.57787 5.60221e-05 4
12.3858 -10.0298 -2.52427 7.76014e-05 4
15.0313 -12.1721 -2.37486 0.000482388 10
15.0339 -12.1742 -1.69247 0.000489524 10
15.0722 -12.2053 -1.01641 0.000458722 10
15.0722 -12.2052 -0.338528 0.000461078 10
15.0706 -12.2039 0.338492 0.000461181 10
15.0669 -12.201 1.01606 0.00045903 10
14.614 -11.8342 1.6452 0.000588667 10
14.6116 -11.8323 2.30856 0.000580235 10
14.6212 -11.84 2.97984 0.000569094 10
14.622 -11.8407 3.65727 0.00055537 10
15.0244 -12.1665 4.46332 0.000348868 10
14.609 -11.8301 5.03697 0.000520805 10
7.69651 -6.18816 -2.64619 0.000695782 4
8.92275 -7.17408 -2.64324 0.000150935 4
10.3852 -8.34992 -2.59025 0.000685859 4
12.433 -9.99639 -2.52675 8.23837e-05 4
15.1393 -12.1723 -2.3852 0.000472829 10
15.1434 -12.1756 -1.7 0.000479832 10
15.1496 -12.1806 -1.01876 0.000320047 10
15.135 -12.1689 -0.338983 0.000321598 10
15.1403 -12.1731 0.339101 0.000321576 10
15.1474 -12.1789 1.01861 0.000319982 10
14.6481 -11.7774 1.6444 0.000412863 10
14.6625 -11.789 2.31008 0.00040683 10
14.6414 -11.772 2.97557 0.000398901 10
14.6526 -11.781 3.65462 0.000389164 10
15.1373 -12.1707 4.48423 0.00034192 10
14.6506 -11.7793 5.0371 0.00036472 10
7.7082 -6.15338 -2.6428 0.000194962 4
8.93992 -7.13665 -2.64093 0.000169301 4
10.4579 -8.34843 -2.60109 0.000549246 4
12.4577 -9.94484 -2.5247 7.94052e-05 4
15.269 -12.1891 -2.39891 0.000463378 10
15.2575 -12.1799 -1.70803 0.00047025 10
15.3342 -12.2411 -1.02829 0.000444521 10
15.3428 -12.248 -0.342677 0.000446811 10
15.33 -12.2378 0.342391 0.00044691 10
15.3429 -12.2481 1.02888 0.000444818 10
15.1441 -12.0894 3.76666 0.000119727 10
15.2699 -12.1898 4.51086 0.000335052 10
7.72495 -6.12272 -2.6412 6.72313e-05 4
8.95938 -7.10112 -2.63934 0.000116273 4
10.5375 -8.35195 -2.61364 0.000637665 4
12.4801 -9.89157 -2.52222 8.1203e-05 4
15.3764 -12.1872 -2.40909 0.000454035 10
15.3859 -12.1947 -1.71763 0.000460777 10
15.3812 -12.191 -1.02858 0.000307346 10
15.372 -12.1837 -0.342377 0.000308838 10
15.3711 -12.183 0.342357 0.000308817 10
15.3723 -12.184 1.02799 0.000307281 10
15.1849 -12.0354 3.76632 0.000119719 10
15.3772 -12.1878 4.52997 0.000328263 10
7.74803 -6.0971 -2.6418 0.000248767 4
8.98752 -7.07248 -2.64034 0.000195839 4
10.6192 -8.35651 -2.62665 0.000645884 4
12.5331 -9.8626 -2.52597 8.89723e-05 4
15.5066 -12.2025 -2.4228 0.000444801 10
15.4899 -12.1893 -1.72447 0.000451415 10
15.6046 -12.2796 -1.04065 0.000430938 10
15.6093 -12.2833 -0.346706 0.000433164 10
15.5986 -12.2749 0.346468 0.00043326 10
15.6018 -12.2774 1.04047 0.000431226 10
15.5883 -12.2668 1.73543 0.000220523 10
15.6053 -12.2802 2.43822 0.000217256 10
15.5883 -12.2668 3.14173 0.000212964 10
15.2387 -11.9917 3.76927 0.00011971 10
15.5125 -12.2071 4.55724 0.000321554 10
15.5876 -12.2663 5.31483 0.00019447 10
7.76134 -6.06383 -2.63911 0.000154646 4
9.00779 -7.03766 -2.63907 0.000110165 4
10.7084 -8.3663 -2.64146 0.000619893 4
12.5591 -9.81228 -2.5243 8.30077e-05 4
15.6148 -12.1996 -2.43303 0.000435675 10
15.6253 -12.2078 -1.7348 0.000442162 10
15.6265 -12.2088 -1.03926 0.000294936 10
15.633 -12.2138 -0.346284 0.000296372 10
15.6196 -12.2033 0.345986 0.000296352 10
15.6348 -12.2153 1.03982 0.000294874 10
15.2882 -11.9445 3.77118 0.000119702 10
15.6241 -12.2069 4.57749 0.000314924 10
7.8009 -6.051 -2.64536 0.000121032 4
9.03238 -7.00623 -2.63909 0.00010201 4
10.7837 -8.36471 -2.65283 0.000541576 4
12.5866 -9.76313 -2.52294 7.46533e-05 4
15.7487 -12.2159 -2.44723 0.000426659 10
15.7404 -12.2095 -1.74284 0.00043302 10
22.3148 -17.3091 0.492949 0.000210111 10
16.1351 -12.5157 1.07018 3.77449e-05 10
15.3123 -11.8774 3.76686 0.000119693 10
15.7464 -12.2142 4.6008 0.000308374 10
7.8033 -6.00935 -2.63904 0.000215178 4
9.06351 -6.97984 -2.64105 7.3451e-05 4
10.853 -8.35797 -2.66269 0.000682915 4
12.623 -9.72098 -2.52342 9.01884e-05 4
15.8689 -12.2207 -2.45928 0.00041775 10
15.8729 -12.2238 -1.75277 0.000423987 10
22.317 -17.1864 0.491669 0.000212329 10
16.1866 -12.4654 1.0707 3.7735e-05 10
15.3522 -11.8228 3.7665 0.000119685 10
15.8727 -12.2236 4.6252 0.000301903 10
7.83478 -5.99014 -2.6426 4.70722e-05 4
9.08522 -6.94618 -2.64029 7.9576e-05 4
10.9309 -8.35732 -2.67462 0.000548984 4
12.6579 -9.67769 -2.52364 8.06385e-05 4
15.9961 -12.2299 -2.47235 0.000408952 10
15.9896 -12.225 -1.76093 0.000415065 10
22.3255 -17.0691 0.490541 0.000214551 10
16.2173 -12.3991 1.06986 2.91592e-05 10
15.4885 -11.8419 3.78978 0.000336853 10
15.9984 -12.2317 4.64937 0.000295511 10
7.85423 -5.96168 -2.64213 0.000309345 4
9.11883 -6.92157 -2.64302 8.57017e-05 4
11.0092 -8.35647 -2.68663 0.000547737 4
12.6842 -9.62782 -2.52216 8.78134e-05 4
16.1288 -12.2424 -2.48625 0.000400261 10
