VERSION 0.7
FIELDS x y z intensity label
SIZE 4 4 4 4 4
TYPE F F F F F
COUNT 1 1 1 1 1
WIDTH 1196
HEIGHT 1
VIEWPOINT 10.0649 53.9532 2.72886 0.730344 0.000378782 0.000545868 -0.683079
POINTS 1196
DATA ascii
14.8126 9.04164 0.302916 0.000451831 10
14.8092 9.03957 0.90928 0.00044971 10
14.6848 8.96363 1.50519 0.000764795 10
14.6787 8.9599 2.11155 0.00075407 10
14.6762 8.95842 2.72332 0.000739897 10
14.6679 8.95331 3.34034 0.000722429 10
14.6727 8.95625 3.96867 0.000701858 10
14.6794 8.96035 4.6082 0.000678405 10
8.04377 4.94856 -2.53053 0.000500832 4
9.30717 5.72581 -2.52279 0.000298301 4
11.8862 7.31244 -2.71266 0.0001713 1
14.5628 8.95909 -2.70805 8.0562e-05 1
14.7038 9.04582 -2.11969 0.000956334 10
14.7159 9.05325 -1.5116 0.000453981 10
14.7263 9.05971 -0.90613 0.000458365 10
14.7119 9.05083 -0.301502 0.000460584 10
14.7089 9.04898 0.30144 0.000460615 10
14.7197 9.05564 0.905723 0.000458456 10
14.7001 9.04357 1.50998 0.000757436 10
14.699 9.04286 2.119 0.000746808 10
14.6821 9.03249 2.73024 0.000732764 10
14.6803 9.03141 3.35033 0.000715455 10
14.6896 9.03713 3.98176 0.000695071 10
14.6836 9.03343 4.6194 0.000671832 10
8.02029 4.97279 -2.52859 0.000485758 4
9.29673 5.76422 -2.5254 0.000279936 4
11.8657 7.35707 -2.71383 0.000171294 1
14.5211 9.00343 -2.70612 8.05583e-05 1
14.7013 9.1152 -2.12391 0.000947047 10
14.6918 9.10932 -1.51239 0.000634737 10
14.6852 9.10519 -0.905546 0.000640966 10
14.6828 9.1037 -0.301554 0.000644169 10
14.6891 9.10764 0.301685 0.000644309 10
14.6962 9.11206 0.906229 0.000641386 10
14.6804 9.10223 1.51121 0.00075009 10
14.6915 9.10909 2.12249 0.00073956 10
14.7005 9.11467 2.73955 0.000725644 10
14.6974 9.11279 3.36147 0.000708494 10
14.7 9.11438 3.99317 0.000688297 10
14.6825 9.10354 4.62902 0.000665272 10
7.99895 4.9983 -2.52735 0.000410437 4
9.28903 5.80443 -2.5288 0.000314345 4
11.8361 7.39604 -2.71295 0.000171287 1
14.4967 9.05853 -2.70745 8.05547e-05 1
14.7083 9.19074 -2.12953 0.000937777 10
24.4869 15.3011 -1.51324 0.000188601 10
24.479 15.2961 -0.503842 0.000189691 10
24.4844 15.2995 0.503953 0.000189739 10
17.4238 10.8876 1.07676 3.68678e-05 10
14.6865 9.17712 1.51512 0.000742757 10
14.7088 9.19105 2.12961 0.000732324 10
14.6925 9.18087 2.74402 0.000718537 10
14.694 9.18183 3.368 0.000701545 10
14.6827 9.17476 3.99714 0.000681535 10
14.7027 9.18724 4.64545 0.000658723 10
7.98228 5.02671 -2.52761 0.000429253 4
9.25204 5.82632 -2.52425 0.000298275 4
11.8076 7.43566 -2.71235 0.000171281 1
14.4758 9.11593 -2.70949 8.0551e-05 1
14.696 9.25457 -2.13243 0.000928525 10
14.8059 9.32374 -1.53079 0.000444738 10
14.7985 9.31913 -0.916526 0.000449045 10
14.8029 9.32187 -0.30535 0.000451225 10
14.8024 9.32158 0.30534 0.000451254 10
14.796 9.31751 0.916367 0.000449133 10
14.6977 9.25564 1.51961 0.000735438 10
14.6905 9.25112 2.13163 0.000725102 10
14.7122 9.26478 2.75373 0.000711444 10
14.7105 9.26371 3.37918 0.00069461 10
14.7095 9.2631 4.01323 0.000674787 10
14.7041 9.25968 4.6561 0.000652187 10
7.95722 5.0498 -2.52524 0.000474426 4
9.23938 5.86349 -2.52636 0.000312032 4
11.7715 7.4704 -2.71002 0.000171275 1
14.427 9.15567 -2.70631 8.05473e-05 1
14.7032 9.33097 -2.13819 0.000919292 10
14.7055 9.33238 -1.52377 0.000616151 10
14.7221 9.34293 -0.913807 0.00062221 10
14.7219 9.34281 -0.304351 0.000625325 10
14.7037 9.33125 0.303974 0.000625463 10
14.7182 9.34044 0.913563 0.000622621 10
14.7047 9.33191 1.52369 0.000728134 10
14.7074 9.33362 2.1388 0.000717895 10
14.6965 9.32668 2.75686 0.000704365 10
14.6937 9.32488 3.38276 0.000687689 10
14.6948 9.32562 4.01807 0.000668051 10
14.6971 9.32706 4.66415 0.000645665 10
7.94296 5.07973 -2.52632 0.00038405 4
9.21697 5.8945 -2.52585 0.000330378 4
11.7475 7.51283 -2.71052 0.000171269 1
14.4016 9.21021 -2.70756 8.05435e-05 1
14.7092 9.40692 -2.14382 0.000910078 10
14.7131 9.40942 -1.52796 0.000609981 10
14.7084 9.40642 -0.91499 0.000615983 10
14.7227 9.41553 -0.305044 0.00061907 10
14.7136 9.40976 0.304857 0.000619207 10
14.7174 9.41214 0.915546 0.000616392 10
14.7251 9.41706 1.5292 0.000720845 10
14.7131 9.40943 2.14439 0.000710704 10
14.71 9.40742 2.76554 0.000697301 10
14.7202 9.41398 3.39642 0.000680783 10
14.7042 9.40374 4.02959 0.000661332 10
14.72 9.41385 4.68183 0.000639157 10
7.91796 5.10278 -2.52402 0.000432987 4
9.1931 5.92455 -2.52496 0.000263835 4
11.7363 7.56354 -2.71402 0.000171263 1
14.3746 9.26378 -2.70854 8.05398e-05 1
14.7129 9.48183 -2.14917 0.000900884 10
14.862 9.57788 -1.54688 0.000435963 10
14.8696 9.58279 -0.927091 0.000440196 10
14.8626 9.57832 -0.308635 0.000442338 10
14.8632 9.5787 0.308647 0.000442367 10
14.8772 9.58767 0.927563 0.000440281 10
14.7231 9.48837 1.53242 0.000713573 10
14.7139 9.48248 2.14932 0.000703528 10
14.7158 9.48368 2.77284 0.000690252 10
14.7275 9.49121 3.40572 0.000673892 10
14.7226 9.48806 4.04367 0.000654626 10
14.7176 9.48483 4.69156 0.000632663 10
7.91746 5.14166 -2.52957 0.000560986 4
9.17255 5.95672 -2.52501 0.000282181 4
11.7087 7.60375 -2.71376 0.000171256 1
14.3354 9.30953 -2.70727 8.05359e-05 1
14.7208 9.55978 -2.15518 0.000891711 10
14.7619 9.5865 -1.53994 0.000444054 10
14.7588 9.58446 -0.922263 0.00044836 10
14.7682 9.59055 -0.307367 0.00045054 10
14.7588 9.58446 0.307171 0.000450569 10
14.7617 9.58638 0.922448 0.000448446 10
14.7335 9.56807 1.53698 0.000706316 10
14.7245 9.56222 2.15573 0.000696368 10
14.7241 9.56193 2.78067 0.00068322 10
14.7285 9.56479 3.41365 0.000667017 10
14.7202 9.55939 4.05215 0.000647936 10
14.7084 9.55176 4.69924 0.000626185 10
7.89108 5.16377 -2.52688 0.000320017 4
9.145 5.98432 -2.52316 0.00027529 4
11.6645 7.63301 -2.70966 0.00017125 1
14.3061 9.36162 -2.70788 8.05321e-05 1
14.7249 9.63569 -2.16069 0.00088256 10
14.7234 9.63472 -1.53942 0.000591555 10
14.7355 9.64262 -0.922904 0.000597387 10
14.7274 9.63734 -0.307216 0.000600387 10
14.7348 9.64215 0.30737 0.000600521 10
14.7412 9.64638 0.923264 0.000597787 10
14.7186 9.63155 1.53891 0.000699078 10
14.7358 9.64286 2.1623 0.000689225 10
14.717 9.63051 2.78566 0.000676204 10
14.7279 9.63769 3.4213 0.000660158 10
14.7311 9.63976 4.06439 0.000641263 10
14.7116 9.627 4.71096 0.000619722 10
7.86873 5.18847 -2.52551 0.000436719 4
9.12844 6.0191 -2.52437 0.000334926 4
11.6495 7.68145 -2.7124 0.000171243 1
14.2754 9.41289 -2.70828 8.05283e-05 1
14.7411 9.71996 -2.16803 0.000873432 10
24.5418 16.1824 0.513122 0.000174798 10
17.1259 11.2925 1.07508 3.69072e-05 10
14.7358 9.71649 1.54425 0.000691856 10
14.7305 9.71297 2.16648 0.0006821 10
14.722 9.70735 2.793 0.000669206 10
14.7193 9.70558 3.42714 0.000653316 10
14.7413 9.72011 4.07655 0.000634606 10
14.7371 9.71729 4.72994 0.000613276 10
7.86137 5.22308 -2.52899 0.00046306 4
9.10317 6.04813 -2.52321 0.000376207 4
11.6297 7.72679 -2.71406 0.000171237 1
14.2402 9.46115 -2.70785 8.05244e-05 1
14.7359 9.79052 -2.17229 0.000864327 10
14.8269 9.85094 -1.55739 0.000435395 10
14.8361 9.8571 -0.933496 0.000439629 10
14.8313 9.8539 -0.310812 0.000441771 10
14.8255 9.85005 0.31069 0.000441799 10
14.8233 9.84856 0.932687 0.000439712 10
14.7391 9.79265 1.54817 0.000684653 10
14.7315 9.78757 2.17163 0.000674993 10
14.7361 9.79062 2.80214 0.000662226 10
14.7314 9.78752 3.43789 0.000646493 10
14.7347 9.78969 4.08414 0.000627966 10
14.7377 9.79173 4.7411 0.000606846 10
7.84204 5.24979 -2.52865 0.000504459 4
9.08023 6.07868 -2.52271 0.000305085 4
11.6044 7.76849 -2.71446 0.00017123 1
14.2179 9.51805 -2.70991 8.05204e-05 1
14.737 9.86559 -2.17752 0.000855246 10
14.7529 9.87624 -1.55324 0.000573264 10
14.7527 9.87606 -0.930409 0.000578927 10
14.7546 9.87734 -0.309925 0.000581841 10
14.7451 9.87101 0.309726 0.000581972 10
14.7321 9.8623 0.929113 0.000579319 10
14.7467 9.87206 1.55258 0.000677469 10
14.7348 9.86409 2.17718 0.000667904 10
14.7334 9.86312 2.80816 0.000655264 10
14.7477 9.8727 3.44971 0.000639687 10
14.7491 9.87367 4.09767 0.000621344 10
14.7414 9.86853 4.75334 0.000600434 10
7.82313 5.27676 -2.52847 0.00122702 4
9.06093 6.11167 -2.52326 0.000295901 4
11.5575 7.79564 -2.70983 0.000171224 1
14.1754 9.56143 -2.70816 8.05165e-05 1
14.7633 9.958 -2.18652 0.00084619 10
14.7431 9.94437 -1.55585 0.000567199 10
14.7538 9.95157 -0.932665 0.000572807 10
14.7631 9.95781 -0.31083 0.000575692 10
14.7401 9.94233 0.310347 0.000575822 10
14.7516 9.95005 0.932522 0.000573196 10
14.752 9.95036 1.55679 0.000670305 10
14.7446 9.94534 2.18374 0.000660836 10
14.7432 9.94444 2.81664 0.000648322 10
14.7404 9.9425 3.4561 0.0006329 10
14.7354 9.93918 4.10348 0.00061474 10
14.7349 9.93881 4.76239 0.00059404 10
7.83564 5.32509 -2.53851 0.00141855 4
9.0575 6.15547 -2.52828 0.000369291 4
11.55 7.84939 -2.71449 0.000171217 1
14.137 9.60746 -2.7072 8.05125e-05 1
14.758 10.0295 -2.19091 0.00083716 10
14.8948 10.1225 -1.57558 0.000427136 10
14.9043 10.1289 -0.944406 0.0004313 10
14.9009 10.1266 -0.314475 0.000433408 10
14.8965 10.1237 0.314382 0.000433435 10
14.8963 10.1235 0.943899 0.000431381 10
14.758 10.0295 1.5611 0.000663161 10
14.7625 10.0326 2.19157 0.000653788 10
14.7427 10.0191 2.82321 0.000641399 10
14.7493 10.0236 3.46639 0.000626133 10
14.7606 10.0313 4.12022 0.000608156 10
14.7455 10.021 4.77708 0.000587664 10
7.82023 5.35462 -2.53956 0.00123014 4
9.02674 6.18073 -2.5257 0.000373866 4
11.5118 7.88227 -2.71194 0.000171211 1
14.1153 9.66494 -2.7095 8.05085e-05 1
14.7545 10.1026 -2.1956 0.000828156 10
14.805 10.1372 -1.56981 0.000434701 10
14.7864 10.1244 -0.939168 0.000438934 10
14.7876 10.1252 -0.312827 0.000441077 10
14.7944 10.1299 0.312971 0.000441104 10
14.7812 10.1209 0.938844 0.000439016 10
14.7616 10.1075 1.56521 0.000656038 10
14.7693 10.1127 2.19781 0.000646759 10
14.7563 10.1039 2.83255 0.000634496 10
14.7521 10.101 3.4753 0.000619385 10
14.7462 10.097 4.12602 0.00060159 10
14.7522 10.101 4.79065 0.000581307 10
7.83291 5.40356 -2.54979 0.00137438 4
8.99635 6.20616 -2.52324 0.0001789 4
11.4782 7.91826 -2.71052 0.000171204 1
14.0684 9.70516 -2.70699 8.05045e-05 1
14.7654 10.186 -2.2025 0.000819179 10
14.7801 10.1961 -1.57093 0.000549111 10
14.7605 10.1826 -0.93978 0.000554552 10
14.7636 10.1847 -0.313071 0.000557351 10
14.7752 10.1928 0.313317 0.000557478 10
14.7663 10.1866 0.940145 0.000554932 10
14.7624 10.1839 1.56905 0.000648935 10
14.7756 10.193 2.20402 0.000639752 10
14.7725 10.1909 2.84247 0.000627614 10
14.7552 10.1789 3.48438 0.000612657 10
14.7582 10.181 4.1393 0.000595045 10
14.7716 10.1903 4.80849 0.000574969 10
7.81541 5.43185 -2.55025 0.00107988 4
8.98897 6.24749 -2.52727 5.73378e-05 4
11.4453 7.9547 -2.70931 0.000171197 1
14.0389 9.75728 -2.70784 8.05004e-05 1
14.766 10.2626 -2.20792 0.00081023 10
14.9435 10.386 -1.59214 0.000419241 10
14.9443 10.3866 -0.953782 0.000423338 10
14.9536 10.393 -0.317868 0.000425412 10
14.9599 10.3974 0.318 0.000425438 10
14.9372 10.3816 0.953328 0.000423417 10
14.7653 10.2622 1.57316 0.000641856 10
14.7594 10.2581 2.20695 0.000632767 10
14.7632 10.2607 2.84754 0.000620754 10
14.779 10.2716 3.49844 0.000605951 10
14.7651 10.262 4.15124 0.00058852 10
14.7701 10.2655 4.81964 0.000568652 10
7.82813 5.48132 -2.56063 0.00127685 4
8.97147 6.28189 -2.5285 8.94442e-05 4
11.4306 8.00379 -2.71242 0.00017119 1
14.009 9.80918 -2.70866 8.04963e-05 1
14.7771 10.347 -2.21497 0.00080131 10
14.8552 10.4017 -1.5866 0.000426525 10
14.8514 10.399 -0.950163 0.000430689 10
14.8439 10.3938 -0.316305 0.000432797 10
14.8429 10.3931 0.316284 0.000432823 10
14.8459 10.3952 0.949811 0.000430769 10
14.7735 10.3445 1.57787 0.000634799 10
14.7784 10.348 2.21517 0.000625803 10
14.768 10.3407 2.85542 0.000613915 10
14.7793 10.3486 3.50705 0.000599266 10
14.7705 10.3424 4.16289 0.000582016 10
14.7788 10.3483 4.83424 0.000562355 10
7.82553 5.5203 -2.56606 0.00142759 4
8.93856 6.30546 -2.52541 0.000314191 4
11.3919 8.03609 -2.70987 0.000171184 1
13.9802 9.86192 -2.70973 8.04922e-05 1
14.7778 10.4246 -2.22052 0.000792418 10
14.7788 10.4253 -1.58231 0.00053119 10
14.7905 10.4335 -0.948591 0.000536464 10
14.7892 10.4326 -0.315913 0.000539179 10
14.776 10.4233 0.31563 0.000539304 10
14.7767 10.4238 0.947706 0.000536836 10
14.7869 10.431 1.58318 0.000627764 10
14.7814 10.4272 2.22107 0.000618863 10
14.7811 10.4269 2.86498 0.000607099 10
14.7877 10.4316 3.51766 0.000592603 10
14.7872 10.4312 4.17782 0.000575534 10
14.7744 10.4222 4.84467 0.000556078 10
7.81742 5.55555 -2.56975 0.00150121 4
8.91695 6.33695 -2.52554 0.000316474 4
11.3679 8.07873 -2.71085 0.000171177 1
13.9271 9.89751 -2.70613 8.0488e-05 1
14.7861 10.5079 -2.22726 0.000783557 10
24.6304 17.5039 0.527433 0.000154168 10
16.7222 11.8838 1.07513 3.69672e-05 10
14.7956 10.5147 1.58803 0.000620753 10
14.7933 10.5131 2.22835 0.000611946 10
14.7876 10.509 2.87332 0.000600306 10
14.7829 10.5057 3.52522 0.000585963 10
14.7827 10.5055 4.1869 0.000569074 10
14.7907 10.5112 4.86201 0.000549824 10
7.81125 5.5923 -2.57412 0.00135169 4
8.89327 6.36696 -2.52512 0.000346276 4
11.35 8.12581 -2.71334 0.00017117 1
13.905 9.95501 -2.70857 8.04839e-05 1
14.8006 10.5962 -2.235 0.000774726 10
14.9054 10.6712 -1.6038 0.000418694 10
14.8952 10.6639 -0.960059 0.000422791 10
14.9003 10.6675 -0.319869 0.000424865 10
14.8849 10.6566 0.319539 0.000424891 10
14.8877 10.6585 0.959574 0.000422869 10
14.7844 10.5846 1.59078 0.000613766 10
14.7048 10.5276 2.22055 0.000506381 10
14.6961 10.5214 2.86267 0.00049667 10
14.712 10.5327 3.51705 0.000484726 10
14.7905 10.589 4.19956 0.000562636 10
14.7883 10.5874 4.87335 0.000543591 10
7.81767 5.63828 -2.5827 0.00157101 4
8.86687 6.39499 -2.52394 0.000339385 4
11.3258 8.1684 -2.71434 0.000171163 1
13.8614 9.99716 -2.70685 8.04797e-05 1
14.7925 10.6687 -2.23939 0.000765927 10
14.7957 10.671 -1.596 0.000513448 10
14.7989 10.6733 -0.956249 0.000518559 10
14.7894 10.6664 -0.318285 0.00052119 10
14.8064 10.6787 0.31865 0.000521311 10
14.797 10.6719 0.956122 0.000518922 10
14.8073 10.6794 1.59725 0.000606805 10
14.6124 10.5388 2.21213 0.000514923 10
14.5981 10.5285 2.85072 0.000505058 10
14.594 10.5255 3.49761 0.000492925 10
14.7898 10.6667 4.20989 0.000556222 10
14.7951 10.6706 4.88782 0.000537381 10
7.82312 5.68383 -2.59104 0.00101791 4
8.86012 6.43725 -2.5284 0.000311857 4
11.2966 8.20742 -2.71419 0.000171156 1
13.8218 10.0421 -2.70595 8.04755e-05 1
14.8198 10.7672 -2.2492 0.000757161 10
14.8188 10.7665 -1.60254 0.000507577 10
14.7999 10.7527 -0.95873 0.000512633 10
14.794 10.7484 -0.319189 0.000515236 10
14.7954 10.7495 0.31922 0.000515357 10
14.793 10.7477 0.958282 0.000512994 10
14.7988 10.752 1.60037 0.000599869 10
14.5119 10.5435 2.20247 0.000523538 10
14.4998 10.5347 2.83868 0.000513517 10
14.5097 10.5419 3.48619 0.000501193 10
14.7961 10.75 4.22236 0.000549832 10
14.7975 10.751 4.90097 0.000531195 10
7.81541 5.72001 -2.59509 0.00133905 4
8.83367 6.46527 -2.52728 0.000298088 4
11.2633 8.2435 -2.7131 0.000171149 1
13.8096 10.1071 -2.71045 8.04712e-05 1
14.8187 10.8456 -2.25476 0.000748427 10
14.9322 10.9287 -1.61891 0.000411175 10
14.938 10.933 -0.970144 0.000415209 10
14.9429 10.9366 -0.323225 0.000417251 10
14.9337 10.9298 0.323026 0.000417276 10
14.9421 10.9359 0.970407 0.000415285 10
14.8084 10.8381 1.60549 0.000592958 10
14.4286 10.5601 2.19541 0.000631171 10
14.4165 10.5513 2.82957 0.000619208 10
14.4294 10.5607 3.47574 0.000604466 10
14.7984 10.8308 4.23378 0.000543465 10
14.8129 10.8414 4.91858 0.000525031 10
7.81686 5.76308 -2.60223 0.00135847 4
8.80801 6.49383 -2.52641 0.000238463 4
11.2373 8.28488 -2.7138 0.000171141 1
13.7663 10.1494 -2.70889 8.04669e-05 1
14.8246 10.9296 -2.26146 0.000739726 10
14.8318 10.9349 -1.61215 0.000417998 10
14.8342 10.9367 -0.965874 0.000422095 10
14.8292 10.933 -0.321588 0.000424168 10
14.8346 10.937 0.321706 0.000424193 10
14.8306 10.934 0.965639 0.000422171 10
14.8252 10.9301 1.61143 0.000586074 10
14.4227 10.6333 2.20014 0.000623882 10
14.4273 10.6367 2.83897 0.000612051 10
14.4211 10.6322 3.48267 0.000597468 10
14.7987 10.9106 4.24473 0.000537123 10
14.8108 10.9194 4.93051 0.000518892 10
7.81656 5.80509 -2.60886 0.00141791 4
8.77519 6.51703 -2.5235 0.000332461 4
11.1984 8.31669 -2.71139 0.000171134 1
13.7298 10.1967 -2.70869 8.04626e-05 1
14.8186 11.0053 -2.26639 0.000731059 10
14.821 11.007 -1.61515 0.000490097 10
14.8286 11.0127 -0.96801 0.00049499 10
14.8186 11.0053 -0.322191 0.00049751 10
14.8314 11.0148 0.322469 0.000497627 10
14.8148 11.0024 0.967106 0.000495342 10
14.8175 11.0045 1.61477 0.000579217 10
14.8187 11.0053 4.26145 0.000530806 10
14.8066 10.9964 4.94187 0.000512776 10
7.80511 5.83897 -2.61183 0.00134561 4
8.762 6.55481 -2.52627 0.000359962 4
11.1638 8.35162 -2.71006 0.000171127 1
13.7015 10.25 -2.71015 8.04582e-05 1
14.8198 11.0866 -2.27248 0.000722428 10
14.8842 11.1348 -1.62626 8.45996e-05 10
14.9731 11.2013 -0.979985 0.000407917 10
14.9832 11.2088 -0.326617 0.000409927 10
14.9731 11.2013 0.326398 0.000409951 10
14.9743 11.2022 0.980063 0.00040799 10
14.8311 11.0951 1.62046 0.000572387 10
14.9057 11.1509 2.28565 0.000355085 10
14.8984 11.1454 2.9469 0.000348291 10
14.9009 11.1473 3.61724 0.00033992 10
14.8113 11.0803 4.27042 0.000524515 10
14.8307 11.0948 4.96281 0.000506686 10
7.79546 5.8743 -2.61544 0.00107525 4
8.74665 6.59107 -2.52847 0.00035995 4
11.1402 8.39474 -2.71142 0.00017112 1
13.6568 10.2911 -2.70839 8.04538e-05 1
14.8478 11.1886 -2.28275 0.000713831 10
14.8623 11.1996 -1.62813 8.45912e-05 10
14.8761 11.2099 -0.976193 0.000414555 10
14.8785 11.2117 -0.325186 0.000416595 10
14.8803 11.2131 0.325224 0.00041662 10
14.8738 11.2082 0.976047 0.000414629 10
14.8352 11.1792 1.62517 0.000565586 10
14.8384 11.1815 4.28945 0.00051825 10
14.8235 11.1703 4.97341 0.000500622 10
7.81467 5.93166 -2.62882 0.00126339 4
8.71188 6.61268 -2.52507 0.000277404 4
11.107 8.43069 -2.71049 0.000171112 1
13.6183 10.3369 -2.70791 8.04494e-05 1
14.8372 11.262 -2.28714 0.000705272 10
14.8352 11.2606 -1.62946 0.000715831 10
14.8356 11.2608 -0.976108 0.000477557 10
14.8293 11.2561 -0.324968 0.000479995 10
14.8321 11.2582 0.325029 0.00048011 10
14.8443 11.2675 0.976684 0.000477901 10
14.8349 11.2603 1.62943 0.000558812 10
14.8341 11.2597 4.29956 0.000512012 10
14.8379 11.2625 4.99139 0.000494583 10
7.79907 5.96284 -2.63056 0.00148727 4
8.68702 6.64173 -2.52457 0.00029115 4
11.0883 8.47765 -2.71313 0.000171105 1
13.5888 10.3894 -2.70923 8.0445e-05 1
14.8533 11.3562 -2.29572 0.000696748 10
14.8452 11.35 -1.63489 0.000707189 10
14.8484 11.3524 -0.979553 0.000714273 10
14.8376 11.3442 -0.326015 0.000717922 10
14.8516 11.3549 0.326323 0.000718094 10
14.8342 11.3416 0.978618 0.000714788 10
14.844 11.3491 1.63477 0.000552068 10
14.8473 11.3516 4.31483 0.0005058 10
14.83 11.3384 5.00203 0.00048857 10
7.79996 6.00677 -2.63791 0.00140639 4
8.67916 6.68385 -2.52905 0.000327818 4
11.051 8.51042 -2.71126 0.000171098 1
13.5576 10.4407 -2.71025 8.04405e-05 1
14.8434 11.431 -2.30035 0.000688263 10
14.8438 11.4312 -1.63913 0.000698585 10
14.8507 11.4366 -0.982335 0.000705589 10
14.8433 11.4309 -0.327015 0.000709197 10
14.8426 11.4303 0.327 0.000709368 10
14.8503 11.4363 0.982306 0.0007061 10
14.8455 11.4326 1.63932 0.000545354 10
14.8535 11.4387 4.32822 0.000499617 10
14.8372 11.4261 5.01786 0.000482585 10
7.77461 6.0306 -2.63644 0.000711587 4
8.64749 6.70768 -2.52663 0.000300299 4
11.0314 8.55686 -2.71377 0.00017109 1
13.5111 10.4803 -2.70827 8.0436e-05 1
14.8571 11.5244 -2.30869 0.000679815 10
14.8614 11.5277 -1.6455 0.000690019 10
14.8508 11.5195 -0.984995 0.000696943 10
14.8463 11.516 -0.327965 0.00070051 10
14.8652 11.5306 0.328382 0.000700679 10
14.8432 11.5136 0.984488 0.00069745 10
14.8614 11.5277 1.6455 0.000538669 10
14.8448 11.5148 4.33737 0.000493461 10
14.8518 11.5202 5.03638 0.000476626 10
7.76641 6.06778 -2.64083 0.000455267 4
8.61743 6.73267 -2.5247 0.00028195 4
10.9983 8.59281 -2.71297 0.000171083 1
13.4706 10.5244 -2.70749 8.04316e-05 1
14.8583 11.6086 -2.31516 0.000671406 10
14.862 11.6115 -1.65005 0.000681492 10
14.8657 11.6143 -0.988663 0.000688336 10
14.8543 11.6054 -0.329034 0.000691862 10
14.8605 11.6103 0.329172 0.00069203 10
14.8641 11.6131 0.988558 0.000688839 10
14.8536 11.6049 1.64912 0.000532015 10
14.927 11.6622 2.32586 0.000329991 10
14.9237 11.6597 2.99956 0.00032365 10
14.9295 11.6642 3.68268 0.000315837 10
14.8625 11.6119 4.35436 0.000487334 10
14.8604 11.6102 5.05303 0.000470695 10
7.75284 6.10088 -2.64344 0.000293386 4
8.59159 6.76092 -2.52403 0.00035529 4
10.9689 8.63166 -2.71313 0.000171075 1
13.445 10.5802 -2.70976 8.0427e-05 1
14.8658 11.6982 -2.32268 0.000663036 10
14.8609 11.6943 -1.65444 0.000673005 10
19.8138 15.5919 -1.32136 0.000274624 10
19.8304 15.605 -0.440463 0.000276149 10
19.815 15.5929 0.440121 0.000276222 10
16.1222 12.6869 1.07517 3.70584e-05 10
14.8718 11.7029 1.65566 0.000525392 10
14.8718 11.703 2.32362 0.000330596 10
14.8565 11.6909 2.99423 0.000324247 10
14.8523 11.6876 3.67368 0.000316422 10
14.8629 11.696 4.36642 0.000481235 10
14.8611 11.6945 5.06711 0.000464793 10
7.72178 6.1202 -2.64012 0.000316982 4
8.57414 6.79578 -2.52586 0.00032548 4
10.9436 8.6738 -2.71436 0.000171068 1
13.3972 10.6185 -2.70757 8.04224e-05 1
14.8837 11.7967 -2.3319 0.000654707 10
14.8798 11.7936 -1.66113 0.000664559 10
19.8376 15.7231 -0.441839 0.000272402 10
19.8206 15.7096 0.441461 0.000272474 10
16.0779 12.7432 1.07518 3.70652e-05 10
14.7945 11.726 1.65161 0.000478677 10
14.7846 11.7182 2.31637 0.000471736 10
14.7889 11.7215 2.98884 0.000462593 10
14.7812 11.7154 3.6662 0.00045135 10
14.7871 11.7201 4.35613 0.000438132 10
14.7931 11.7249 5.05784 0.000423087 10
7.7026 6.1489 -2.64088 0.000751965 4
8.54282 6.81964 -2.52362 0.000258999 4
10.896 8.6982 -2.71007 0.00017106 1
13.3615 10.6664 -2.70788 8.04179e-05 1
14.8889 11.8857 -2.3392 0.000646418 10
14.8913 11.8875 -1.66703 0.000656153 10
24.8607 19.8461 -1.66713 0.000121246 10
24.8725 19.8555 -0.555522 0.000121974 10
24.7853 19.7858 0.553573 0.000123303 10
16.0333 12.7992 1.07517 3.70721e-05 10
14.6875 11.7248 1.64421 0.000486058 10
14.6843 11.7223 2.30705 0.000479017 10
14.6903 11.7271 2.97716 0.000469741 10
14.6888 11.726 3.65342 0.000458335 10
14.6904 11.7272 4.33967 0.000444926 10
14.7005 11.7353 5.04016 0.000429661 10
7.67437 6.17035 -2.63858 0.000559742 4
8.53372 6.86129 -2.528 0.000238362 4
10.8822 8.74955 -2.71422 0.000171052 1
13.3204 10.7098 -2.70709 8.04132e-05 1
14.8859 11.9685 -2.34527 0.00063817 10
14.8961 11.9768 -1.67224 0.00064779 10
24.807 19.9453 -1.66818 0.000120714 10
24.7999 19.9396 -0.555451 0.000121439 10
24.7973 19.9375 0.555392 0.000121474 10
15.9816 12.8496 1.07471 3.7079e-05 10
14.606 11.7435 1.63967 0.000493494 10
14.6029 11.741 2.30068 0.000486351 10
14.5997 11.7384 2.96708 0.000476942 10
14.5856 11.7272 3.63791 0.000465372 10
14.5992 11.7381 4.32483 0.000451769 10
14.6016 11.74 5.02028 0.000436284 10
7.65975 6.20274 -2.64097 7.75522e-05 4
8.49729 6.88097 -2.52431 0.000316277 4
10.8428 8.78033 -2.71201 0.000171044 1
13.2854 10.7583 -2.7076 8.04086e-05 1
14.8995 12.0654 -2.35404 0.000629964 10
14.8829 12.0519 -1.67547 0.000639468 10
24.7981 20.0811 -1.67229 0.00011062 10
24.8186 20.0977 -0.557437 0.000119622 10
24.8183 20.0975 0.557431 0.000119656 10
15.9389 12.9071 1.07486 3.7086e-05 10
14.4996 11.7416 1.63232 0.000539602 10
14.5084 11.7487 2.29225 0.000531899 10
14.5015 11.7431 2.95544 0.000521719 10
14.5085 11.7488 3.62888 0.000509172 10
14.5015 11.7431 4.308 0.0004944 10
14.5062 11.7469 5.00152 0.000477564 10
7.63625 6.22797 -2.64035 0.000222534 4
8.48367 6.91912 -2.52742 0.00027043 4
10.8222 8.82639 -2.71455 0.000171037 1
13.2509 10.8072 -2.70825 8.04039e-05 1
14.906 12.157 -2.36175 0.0006218 10
14.8947 12.1478 -1.68157 0.000631189 10
24.6305 20.0881 -1.66571 0.000112578 10
24.8255 20.2472 -0.559176 0.000117818 10
24.8276 20.2489 0.559224 0.000117852 10
15.8876 12.9576 1.07445 3.7093e-05 10
14.5059 11.8308 1.63767 0.000532663 10
14.5106 11.8346 2.29911 0.000525054 10
14.5227 11.8445 2.96818 0.000514997 10
14.5104 11.8344 3.63966 0.000502602 10
14.5095 11.8337 4.32261 0.00048801 10
14.5002 11.8261 5.01368 0.000471378 10
7.61001 6.25093 -2.63881 0.000549574 4
8.44827 6.93948 -2.52407 0.00027042 4
10.7837 8.8578 -2.71262 0.000171029 1
13.2191 10.8583 -2.70948 8.03992e-05 1
14.9187 12.2544 -2.37053 0.000613679 10
14.8989 12.2381 -1.68685 0.000622954 10
24.4589 20.0908 -1.65884 0.000114553 10
31.5939 25.9515 -0.713666 4.25418e-05 10
31.5833 25.9428 0.713425 4.25449e-05 10
15.8326 13.005 1.07378 3.71e-05 10
14.5234 11.9297 1.64434 0.000525761 10
14.5219 11.9284 2.30748 0.000518245 10
14.5109 11.9194 2.97425 0.00050831 10
14.5085 11.9174 3.6496 0.000496068 10
14.5246 11.9307 4.3395 0.000481653 10
14.515 11.9228 5.03316 0.000465226 10
7.58507 6.27491 -2.63774 0.000212406 4
8.42109 6.96653 -2.5232 0.000265826 4
10.7517 8.89459 -2.71238 0.000171021 1
13.1778 10.9016 -2.70878 8.03944e-05 1
14.9033 12.3291 -2.3749 0.000605602 10
14.9228 12.3452 -1.69443 0.000614763 10
24.3115 20.1122 -1.65359 0.000116547 10
31.3786 25.9586 -0.710845 4.33593e-05 10
31.3761 25.9566 0.710789 4.33625e-05 10
15.7883 13.0612 1.07387 3.71071e-05 10
14.5208 12.0126 1.64877 0.000518896 10
14.5248 12.016 2.31459 0.000511472 10
14.5145 12.0074 2.98355 0.00050166 10
14.5128 12.006 3.6612 0.000489567 10
14.5257 12.0167 4.35232 0.000475331 10
14.5237 12.015 5.05067 0.000459106 10
7.56763 6.30511 -2.63931 0.000428169 4
8.41634 7.01223 -2.5291 0.000320813 4
10.7298 8.93972 -2.7147 0.000171013 1
13.1418 10.9493 -2.70923 8.03897e-05 1
14.9278 12.4373 -2.38571 0.000597569 10
14.9111 12.4235 -1.69801 0.000606616 10
24.1544 20.1247 -1.64767 0.000118558 10
31.1787 25.9771 -0.708367 4.41855e-05 10
31.1837 25.9813 0.70848 4.41887e-05 10
15.7548 13.1264 1.0747 3.71143e-05 10
14.5424 12.1162 1.65602 0.000512066 10
14.5318 12.1075 2.32243 0.000504735 10
14.5358 12.1108 2.9966 0.000495044 10
14.5238 12.1008 3.67461 0.000483102 10
14.5344 12.1096 4.36756 0.000469042 10
14.5287 12.1049 5.06708 0.000453019 10
7.55728 6.34131 -2.64341 0.000664146 4
8.38212 7.03343 -2.52618 0.000261224 4
10.6968 8.97564 -2.71425 0.000171005 1
13.0975 10.9901 -2.70799 8.03849e-05 1
14.9325 12.5299 -2.39345 0.00058958 10
14.9297 12.5275 -1.70509 0.000598515 10
23.9972 20.1361 -1.64173 0.000120587 10
31.1701 26.1548 -0.71024 4.57077e-05 10
31.1806 26.1636 0.71048 4.57224e-05 10
15.6971 13.1714 1.07389 3.71214e-05 10
14.5298 12.192 1.65943 0.000505274 10
14.5264 12.1891 2.32835 0.000498035 10
14.5434 12.2034 3.00694 0.000488465 10
14.5364 12.1974 3.68853 0.000476672 10
14.5363 12.1974 4.38091 0.000462789 10
14.5392 12.1998 5.08556 0.000446967 10
7.51541 6.35101 -2.6365 0.000610186 4
8.35644 7.06174 -2.52585 0.000336828 4
10.6613 9.00948 -2.71322 0.000170997 1
13.0709 11.0458 -2.71044 8.03801e-05 1
14.9299 12.6167 -2.40006 0.000581636 10
14.9412 12.6263 -1.71143 0.000590459 10
23.8397 20.1461 -1.63576 0.000122633 10
15.665 13.2379 1.07485 3.71286e-05 10
14.5503 12.296 1.66666 0.000498521 10
14.5512 12.2967 2.33919 0.000491372 10
14.5529 12.2982 3.01776 0.000481923 10
14.5485 12.2945 3.70249 0.000470279 10
14.5494 12.2952 4.39776 0.00045657 10
14.5453 12.2917 5.10268 0.000440948 10
7.50144 6.38423 -2.6394 0.000569713 4
8.3408 7.09858 -2.5286 0.000284116 4
10.6235 9.04132 -2.71162 0.000170989 1
13.024 11.0843 -2.70873 8.03753e-05 1
14.9301 12.7065 -2.40721 0.000573739 10
14.9401 12.715 -1.71638 0.000582449 10
23.6772 20.1509 -1.62942 0.000124697 10
15.6096 13.2848 1.07423 3.71359e-05 10
14.5504 12.3833 1.6716 0.000491805 10
14.5567 12.3887 2.34701 0.000484747 10
14.5567 12.3887 3.0275 0.000475418 10
14.5535 12.386 3.71475 0.000463922 10
14.5481 12.3814 4.41041 0.000450387 10
14.5406 12.375 5.11613 0.000434964 10
7.48686 6.41701 -2.64213 0.000478678 4
8.30701 7.11997 -2.52588 0.000309309 4
10.6052 9.08975 -2.71503 0.000170981 1
12.9924 11.1358 -2.71023 8.03704e-05 1
14.9351 12.8009 -2.41521 0.000565887 10
14.9426 12.8074 -1.7218 0.000574486 10
23.5183 20.1576 -1.62332 0.000126779 10
23.5089 20.1496 -0.540453 8.42199e-05 10
23.5284 20.1662 0.540899 8.42253e-05 10
15.5707 13.3457 1.07475 3.71432e-05 10
14.5595 12.479 1.67765 0.000485128 10
14.5606 12.4799 2.35465 0.00047816 10
14.5632 12.4822 3.0379 0.00046895 10
14.5484 12.4694 3.72451 0.000457601 10
14.5426 12.4645 4.42191 0.00044424 10
14.5589 12.4785 5.13789 0.000429014 10
7.44917 6.42995 -2.63674 0.000593272 4
8.29241 7.15781 -2.52902 0.000329916 4
10.5587 9.11406 -2.71126 0.000170973 1
12.9387 11.1684 -2.70714 8.03655e-05 1
14.9526 12.9067 -2.4253 0.000558082 10
14.9611 12.914 -1.7291 0.000566571 10
23.3707 20.1731 -1.61799 0.000128877 10
23.4753 20.2634 -0.541303 8.53446e-05 10
23.4627 20.2525 0.541012 8.53698e-05 10
15.5104 13.3882 1.07381 3.71505e-05 10
14.5625 12.57 1.68304 0.00047849 10
14.5603 12.5681 2.36167 0.000471612 10
14.5605 12.5683 3.04647 0.000462521 10
14.5562 12.5646 3.73774 0.000451318 10
14.5619 12.5695 4.44108 0.000438129 10
14.5525 12.5614 5.15106 0.000423101 10
7.11928 6.1887 -2.5276 0.000492643 4
8.26238 7.18237 -2.52749 0.000309285 4
10.5414 9.16346 -2.71499 0.000170965 1
12.9038 11.2171 -2.708 8.03606e-05 1
14.9644 13.0083 -2.43457 0.000550324 10
14.961 13.0054 -1.73433 0.000558703 10
23.2063 20.173 -1.61147 8.65242e-05 10
23.2221 20.1867 -0.537085 8.70181e-05 10
23.2064 20.1731 0.536723 8.70237e-05 10
15.4658 13.4442 1.07396 3.71579e-05 10
14.5713 12.6667 1.68916 0.000471891 10
14.5704 12.6658 2.37047 0.000465103 10
14.5656 12.6617 3.05676 0.00045613 10
14.5775 12.672 3.75452 0.000445073 10
14.5658 12.6618 4.45572 0.000432055 10
14.5725 12.6676 5.17375 0.000417223 10
7.09098 6.20768 -2.52523 0.000398614 4
8.24482 7.21779 -2.52981 0.0002772 4
10.508 9.19903 -2.71465 0.000170956 1
12.8732 11.2697 -2.70984 8.03556e-05 1
14.9647 13.1006 -2.44206 0.000542614 10
14.9554 13.0925 -1.73897 0.000550884 10
23.2027 20.3124 -0.538273 8.64211e-05 10
23.1921 20.3032 0.538028 8.64467e-05 10
15.4167 13.4963 1.07381 3.71653e-05 10
14.5859 12.769 1.69601 0.000465333 10
14.5815 12.7652 2.37952 0.000458634 10
14.5836 12.767 3.06987 0.000449779 10
14.5669 12.7524 3.76324 0.000438866 10
14.5633 12.7492 4.46856 0.000426019 10
14.5635 12.7494 5.18634 0.000411381 10
7.08863 6.24946 -2.53215 0.000567819 4
8.2203 7.24717 -2.53003 0.000325296 4
10.4618 9.22334 -2.71103 0.000170948 1
12.8399 11.3199 -2.71112 8.03507e-05 1
14.977 13.204 -2.45157 0.000534952 10
14.9614 13.1902 -1.74501 0.000543113 10
22.9286 20.2142 -1.60194 8.84274e-05 10
22.9354 20.2203 -0.533706 8.89519e-05 10
22.9144 20.2018 0.533218 8.89783e-05 10
15.3637 13.545 1.07341 3.71728e-05 10
14.5918 12.8644 1.7019 0.000458815 10
14.5835 12.8571 2.38715 0.000452204 10
14.5695 12.8447 3.07632 0.000443465 10
14.5885 12.8615 3.78041 0.000432697 10
14.5738 12.8485 4.48551 0.00042002 10
14.5759 12.8504 5.20669 0.000405576 10
7.06502 6.27262 -2.53152 0.000522677 4
8.19097 7.27228 -2.5288 0.000290923 4
10.4304 9.26051 -2.71124 0.00017094 1
12.8009 11.3652 -2.71124 8.03457e-05 1
14.9677 13.289 -2.45762 0.000527339 10
14.9764 13.2966 -1.75216 0.000535392 10
22.9352 20.3629 -1.60737 8.69993e-05 10
22.9462 20.3726 -0.53561 8.7516e-05 10
22.9316 20.3596 0.535268 8.75421e-05 10
15.3316 13.6121 1.07448 3.71803e-05 10
14.5833 12.9477 1.70617 0.000452338 10
14.5963 12.9592 2.39664 0.000445815 10
14.5766 12.9417 3.08735 0.000437193 10
14.592 12.9554 3.79299 0.000426567 10
14.595 12.958 4.50592 0.000414059 10
14.5822 12.9467 5.22506 0.000399807 10
7.03971 6.29422 -2.53031 0.000564021 4
8.15411 7.29062 -2.52527 0.000318399 4
10.4065 9.30452 -2.71347 0.000170931 1
12.7619 11.4104 -2.7114 8.03406e-05 1
14.9867 13.3996 -2.4684 0.000519775 10
14.9906 13.4032 -1.75929 0.000527721 10
22.6507 20.252 -1.59237 8.9572e-05 10
22.6535 20.2545 -0.530423 9.01024e-05 10
22.6499 20.2514 0.53034 9.01293e-05 10
15.2668 13.6501 1.07327 3.71878e-05 10
14.5863 13.0416 1.71184 0.000445902 10
14.5891 13.0442 2.40292 0.000439467 10
14.5857 13.0411 3.09888 0.00043096 10
14.5887 13.0438 3.80395 0.000420477 10
14.6007 13.0545 4.52171 0.000408136 10
14.5907 13.0456 5.24437 0.000394076 10
7.00589 6.30813 -2.52605 0.000289521 4
8.1292 7.31956 -2.52545 0.000267994 4
10.3642 9.33193 -2.7109 0.000170923 1
12.7062 11.4407 -2.70803 8.03356e-05 1
14.9926 13.4994 -2.47712 0.000512261 10
14.9948 13.5014 -1.76531 0.000520099 10
22.4703 20.2323 -1.58464 9.36781e-05 10
22.457 20.2204 -0.527473 9.42096e-05 10
22.4647 20.2273 0.527653 9.42155e-05 10
15.2267 13.7102 1.07381 3.71954e-05 10
14.5934 13.14 1.71805 0.000439508 10
14.6087 13.1537 2.41369 0.000433159 10
14.6013 13.1471 3.11194 0.000424767 10
14.5995 13.1454 3.8187 0.000414426 10
14.5935 13.1401 4.53368 0.000402252 10
14.6023 13.148 5.26503 0.000388382 10
6.99454 6.34226 -2.52993 0.000591113 4
8.10226 7.34668 -2.52503 0.000318374 4
10.3382 9.37414 -2.71266 0.000170915 1
12.6668 11.4855 -2.70816 8.03305e-05 1
15.0006 13.6017 -2.48627 0.000504797 10
15.0086 13.609 -1.77251 0.000512529 10
22.3993 20.3104 -1.58462 9.0738e-05 10
22.3975 20.3088 -0.527736 9.12745e-05 10
22.3966 20.308 0.527716 9.13018e-05 10
15.1875 13.7712 1.07443 3.7203e-05 10
14.6035 13.2416 1.72466 0.000433156 10
14.6008 13.2392 2.42001 0.000426894 10
14.6121 13.2494 3.12407 0.000418616 10
14.5949 13.2338 3.82957 0.000408415 10
14.6001 13.2385 4.55004 0.000396407 10
14.6005 13.2389 5.28099 0.000382726 10
7.00555 6.39695 -2.54197 0.000430659 4
8.08722 7.38465 -2.52836 0.000245069 4
10.31 9.41435 -2.71386 0.000170906 1
12.6387 11.5407 -2.71076 8.03254e-05 1
14.9978 13.6949 -2.49372 0.000497383 10
15.0087 13.7048 -1.77816 0.00050501 10
15.1809 13.8621 -1.07738 0.00033931 10
15.1772 13.8587 -0.358749 0.000341021 10
15.1818 13.8629 0.358856 0.00034104 10
15.1182 13.8048 1.07293 3.72107e-05 10
14.6127 13.3433 1.73125 0.000426846 10
14.6139 13.3443 2.42989 0.00042067 10
14.6024 13.3338 3.13193 0.000412505 10
14.6141 13.3445 3.8468 0.000402444 10
14.6192 13.3491 4.57049 0.000390602 10
14.6189 13.3489 5.30449 0.000377109 10
6.99047 6.42807 -2.54463 0.00133817 4
8.05178 7.40399 -2.52535 0.000290865 4
9.55498 8.78625 -2.52317 0.000186747 4
12.5845 11.572 -2.70778 8.03203e-05 1
15.0039 13.7968 -2.50273 0.00049002 10
15.0038 13.7967 -1.78328 0.000497542 10
15.0886 13.8747 -1.07426 0.000343955 10
15.0902 13.8761 -0.357833 0.000345687 10
15.0823 13.8689 0.357646 0.000345706 10
15.0746 13.8618 1.07327 3.72184e-05 10
14.62 13.4438 1.73766 0.000420579 10
14.629 13.4521 2.44019 0.000414488 10
14.6189 13.4428 3.14552 0.000406436 10
14.6131 13.4374 3.85886 0.000396515 10
14.6195 13.4433 4.58524 0.000384836 10
14.6225 13.4461 5.3228 0.00037153 10
6.9876 6.47059 -2.55179 0.00129285 4
8.03986 7.44499 -2.52974 0.000300014 4
9.52366 8.819 -2.52302 0.000158979 4
12.5506 11.622 -2.7092 8.03151e-05 1
15.021 13.9096 -2.51366 0.00048271 10
15.0246 13.9129 -1.79151 0.000490127 10
15.0092 13.8987 -1.07205 0.000327069 10
15.0234 13.9118 -0.357399 0.000328787 10
15.01 13.8994 0.357081 0.000328875 10
15.0047 13.8945 1.07173 0.000327333 10
14.6251 13.5429 1.74386 0.000414356 10
14.6272 13.5449 2.44775 0.000408349 10
14.6303 13.5478 3.15812 0.00040041 10
14.633 13.5503 3.87659 0.000390627 10
14.6141 13.5328 4.59834 0.00037911 10
14.6294 13.547 5.34247 0.00036599 10
7.00341 6.53078 -2.56587 0.00144642 4
7.99614 7.45652 -2.52416 0.000332062 4
9.50073 8.85957 -2.52512 0.000186728 4
12.5052 11.6613 -2.70817 8.03099e-05 1
15.0252 14.0112 -2.52253 0.000475451 10
15.0161 14.0027 -1.79631 0.000482764 10
15.161 14.1378 -1.08641 0.000334239 10
15.1523 14.1298 -0.361637 0.000335928 10
15.1572 14.1343 0.361754 0.000335946 10
14.9733 13.9628 1.07296 3.72339e-05 10
14.6292 13.642 1.75003 0.000408176 10
14.6292 13.642 2.45605 0.000402254 10
14.6345 13.6469 3.16931 0.000394425 10
14.6383 13.6504 3.89059 0.000384779 10
14.6421 13.654 4.62211 0.000373425 10
14.6226 13.6358 5.35734 0.00036049 10
6.99997 6.57341 -2.573 0.00124364 4
7.97333 7.48745 -2.52519 0.000283959 4
9.47481 8.89744 -2.52647 0.000162748 4
12.4811 11.7205 -2.71179 8.03047e-05 1
15.0258 14.1101 -2.53088 0.000468244 10
15.0324 14.1164 -1.80414 0.000475453 10
15.0662 14.1481 -1.08316 0.000338728 10
15.0514 14.1342 -0.360405 0.000340438 10
15.0662 14.1481 0.360758 0.000340456 10
14.9382 14.0279 1.07395 3.72417e-05 10
14.643 13.7507 1.75741 0.000402039 10
14.6324 13.7407 2.46462 0.000396201 10
14.6342 13.7424 3.17959 0.000388483 10
14.6347 13.7429 3.90235 0.000378974 10
14.6432 13.7509 4.63757 0.00036778 10
14.6419 13.7496 5.38196 0.000355028 10
6.98683 6.60712 -2.57663 0.00104527 4
7.96902 7.53592 -2.53215 0.00103345 4
9.42736 8.91501 -2.5221 0.000137509 4
12.435 11.7592 -2.71067 8.02995e-05 1
15.0385 14.2212 -2.54137 0.000461089 10
15.0378 14.2206 -1.81074 0.000468197 10
15.0435 14.2259 -1.08509 0.000312445 10
15.0365 14.2193 -0.361233 0.000314092 10
15.033 14.216 0.361148 0.000314178 10
14.8718 14.0636 1.0727 3.72496e-05 10
14.6559 13.8594 1.76475 0.000395947 10
14.6509 13.8546 2.47587 0.000390192 10
14.6445 13.8486 3.19233 0.000382584 10
14.6356 13.8402 3.91546 0.00037321 10
14.6391 13.8435 4.65155 0.000362177 10
14.6429 13.8471 5.40007 0.000349607 10
7.0043 6.6701 -2.59165 0.00115735 4
7.97632 7.59574 -2.54287 0.00100188 4
9.4039 8.95521 -2.52417 0.000148855 4
12.384 11.7931 -2.70851 8.02943e-05 1
15.0449 14.3271 -2.55089 0.000453988 10
15.0468 14.3288 -1.81783 0.000460993 10
15.1299 14.408 -1.09494 0.000329267 10
15.1239 14.4023 -0.364538 0.000330935 10
15.1358 14.4136 0.364825 0.000330952 10
14.8419 14.1338 1.0741 2.87978e-05 10
14.6656 13.9658 1.77177 0.000389899 10
14.6657 13.966 2.4866 0.000384227 10
14.6584 13.959 3.20596 0.000376729 10
14.6545 13.9553 3.93353 0.00036749 10
14.6569 13.9576 4.67267 0.000356615 10
14.6581 13.9587 5.42362 0.000344226 10
7.00456 6.71713 -2.6004 0.00132327 4
7.96053 7.63387 -2.54632 0.000824524 4
9.38245 8.99745 -2.52683 0.00018669 4
12.3481 11.8414 -2.70968 8.0289e-05 1
15.0551 14.4374 -2.56115 0.00044694 10
15.0515 14.4339 -1.82448 0.000453844 10
15.0586 14.4407 -1.09342 0.000302874 10
15.054 14.4363 -0.364067 0.000304475 10
15.0451 14.4277 0.36385 0.000304558 10
14.7756 14.1693 1.07287 2.8804e-05 10
14.6688 14.0668 1.77808 0.000383896 10
14.6703 14.0683 2.49568 0.000378306 10
14.6659 14.0641 3.21831 0.000370917 10
14.6612 14.0596 3.94848 0.000361811 10
14.661 14.0594 4.6896 0.000351094 10
14.6518 14.0506 5.43939 0.000338886 10
6.98914 6.74933 -2.60341 0.00134489 4
7.97846 7.70471 -2.56064 0.000874483 4
9.3412 9.02069 -2.52418 0.000146318 4
12.3145 11.892 -2.71142 8.02837e-05 1
15.0634 14.5466 -2.57119 0.000439946 10
15.0654 14.5485 -1.83231 0.00044675 10
15.1976 14.6762 -1.10723 0.000320215 10
15.1984 14.6769 -0.368796 0.000321841 10
15.1835 14.6626 0.368434 0.000321859 10
14.7294 14.224 1.07311 2.88102e-05 10
14.6716 14.1682 1.78441 0.000377939 10
14.6645 14.1613 2.50309 0.00037243 10
14.6743 14.1708 3.231 0.000365149 10
14.6762 14.1726 3.9658 0.000356176 10
14.6678 14.1645 4.70753 0.000345616 10
14.661 14.158 5.46113 0.000333586 10
7.00069 6.80787 -2.61654 0.00124573 4
7.96567 7.74628 -2.5652 0.000754123 4
9.31721 9.06059 -2.52623 0.000180365 4
12.2745 11.9365 -2.71177 8.02783e-05 1
15.0756 14.6604 -2.58198 0.000433006 10
15.0744 14.6592 -1.83961 0.00043971 10
15.0975 14.6816 -1.10366 0.000324388 10
15.0963 14.6805 -0.367559 0.000326034 10
15.0951 14.6794 0.367531 0.000326052 10
14.6833 14.2789 1.07338 2.88164e-05 10
14.6721 14.268 1.79052 0.000372027 10
14.6801 14.2758 2.51425 0.000366599 10
14.684 14.2796 3.24408 0.000359425 10
14.6674 14.2634 3.97686 0.000350584 10
14.6678 14.2639 4.72352 0.000340179 10
14.6753 14.2711 5.48498 0.000328327 10
7.00654 6.86131 -2.62767 0.00111219 4
7.97154 7.80631 -2.57585 0.000931972 4
9.2755 9.08324 -2.5235 0.000127384 4
12.2242 11.9708 -2.70985 8.02729e-05 1
15.0848 14.7722 -2.59238 0.000426121 10
15.0827 14.77 -1.84691 0.000432726 10
15.076 14.7635 -1.10585 0.000288791 10
15.0638 14.7516 -0.368019 0.000290323 10
15.0825 14.7698 0.368475 0.000290404 10
14.6753 14.3711 1.07645 0.000369725 10
14.6937 14.3891 1.79927 0.000366161 10
14.6879 14.3834 2.52416 0.000360814 10
14.6801 14.3758 3.25429 0.000353745 10
14.6793 14.3751 3.99368 0.000345036 10
14.6872 14.3827 4.74588 0.000334786 10
14.6782 14.374 5.50479 0.000323109 10
6.9946 6.89761 -2.6322 0.00123377 4
7.95506 7.84475 -2.57936 0.000908633 4
9.24808 9.11985 -2.52469 0.000123594 4
12.1789 12.01 -2.7091 8.02676e-05 1
15.0892 14.88 -2.60205 0.000419291 10
15.0728 14.8638 -1.85203 0.000425797 10
15.156 14.9458 -1.11554 0.00031556 10
15.1565 14.9463 -0.371555 0.000317165 10
15.1636 14.9534 0.37173 0.000317183 10
14.6876 14.4839 1.08106 0.000363852 10
14.7007 14.4969 1.80632 0.000360341 10
14.6845 14.4809 2.53225 0.000355074 10
14.6977 14.4939 3.26938 0.000348111 10
14.6983 14.4945 4.01258 0.000339532 10
14.6929 14.4891 4.76403 0.000329435 10
14.6929 14.4891 5.52921 0.000317934 10
7.00761 6.95886 -2.64622 0.00104077 4
7.96693 7.9115 -2.59214 0.000942165 4
9.22765 9.16345 -2.52783 0.00021817 4
12.1348 12.0504 -2.70863 8.02622e-05 1
15.093 14.988 -2.61171 0.000412516 10
15.0939 14.9889 -1.86105 0.000418925 10
15.0858 14.9808 -1.11421 0.000279587 10
15.0967 14.9917 -0.371371 0.000281074 10
15.0825 14.9776 0.371022 0.000281153 10
14.7077 14.6054 1.08629 0.000358025 10
14.709 14.6066 1.81359 0.000354567 10
14.6912 14.589 2.54217 0.00034938 10
14.695 14.5927 3.28009 0.000342522 10
14.6964 14.5942 4.02594 0.000334072 10
14.6912 14.589 4.77996 0.000324127 10
14.6855 14.5833 5.54555 0.0003128 10
7.00493 7.00492 -2.65443 0.00118609 4
7.95724 7.95724 -2.59802 0.000757433 4
9.19518 9.19518 -2.52771 0.000167717 4
12.1026 12.1026 -2.71085 8.02567e-05 1
15.0956 15.0956 -2.62125 0.000405796 10
15.1084 15.1084 -1.86933 0.000412108 10
15.2179 15.2179 -1.12789 0.000307097 10
15.2136 15.2136 -0.375551 0.000308664 10
15.2205 15.2205 0.37572 0.000308681 10
14.6986 14.6986 1.0894 0.000352246 10
14.716 14.716 1.82077 0.00034884 10
14.7024 14.7024 2.55298 0.000343732 10
14.7125 14.7125 3.29545 0.000336978 10
14.6976 14.6976 4.04029 0.000328657 10
14.7104 14.7104 4.8029 0.000318863 10
14.6949 14.6949 5.56846 0.000307708 10
7.00784 7.05693 -2.66485 0.0011627 4
7.96407 8.01986 -2.60937 0.000902018 4
9.16151 9.22569 -2.52729 0.000161403 4
12.0522 12.1366 -2.70903 8.02512e-05 1
15.1113 15.2171 -2.63318 0.000399133 10
15.1106 15.2165 -1.87616 0.000405348 10
15.1177 15.2236 -1.12439 0.00031098 10
15.109 15.2148 -0.374277 0.000312565 10
15.1073 15.2131 0.374235 0.000312582 10
14.7072 14.8102 1.09386 0.000346513 10
14.7057 14.8088 1.82589 0.00034316 10
14.7111 14.8142 2.56346 0.00033813 10
14.7136 14.8167 3.30725 0.00033148 10
14.7188 14.8219 4.06032 0.000323286 10
14.7089 14.8119 4.81925 0.000313642 10
14.7135 14.8166 5.59505 0.000302658 10
6.99437 7.09272 -2.66913 0.00115674 4
7.95754 8.06943 -2.61644 0.000745903 4
9.1273 9.25564 -2.52675 0.000134916 4
12.0233 12.1923 -2.71209 8.02458e-05 1
15.1047 15.3171 -2.64134 0.000392525 10
15.1195 15.3321 -1.8839 0.000398645 10
15.4315 15.6485 -1.15179 0.000437397 10
15.432 15.649 -0.383629 0.000439642 10
15.4398 15.6569 0.383824 0.000439666 10
14.7132 14.9201 1.09818 0.000340829 10
14.7261 14.9332 1.83488 0.000337528 10
14.7135 14.9204 2.57293 0.000332575 10
14.7191 14.9261 3.32019 0.000326027 10
14.7268 14.9339 4.07689 0.00031796 10
14.7189 14.9259 4.83959 0.000308465 10
14.7124 14.9193 5.6144 0.000297651 10
7.00103 7.14921 -2.68117 0.00109142 4
7.94464 8.1128 -2.6215 0.000569304 4
9.07954 9.27172 -2.52248 0.000119779 4
11.9825 12.2361 -2.71251 8.02402e-05 1
15.1131 15.4329 -2.6522 0.000385975 10
15.113 15.4329 -1.88979 0.000391999 10
15.3226 15.647 -1.14773 0.000442881 10
15.3278 15.6523 -0.382396 0.000445152 10
15.3327 15.6572 0.382516 0.000445176 10
15.1125 15.4324 1.13199 0.000309107 10
15.1205 15.4406 1.89073 0.000306089 10
15.1091 15.4289 4.1976 0.000288203 10
15.1201 15.4402 4.9892 0.000279527 10
14.7259 15.0376 5.63955 0.000292687 10
7.00032 7.19859 -2.69051 0.00094393 4
7.95793 8.18332 -2.63529 0.000219094 4
9.06456 9.32129 -2.52734 0.000147509 4
11.9373 12.2754 -2.71195 8.02347e-05 1
15.1213 15.5496 -2.66316 0.00037948 10
15.1195 15.5477 -1.89738 0.000385411 10
15.2319 15.6633 -1.14502 0.00044839 10
15.2352 15.6667 -0.381447 0.000450688 10
15.2279 15.6592 0.381265 0.000450712 10
15.1242 15.5525 1.13693 0.000303917 10
15.1308 15.5593 1.89879 0.000300947 10
15.1974 15.6279 2.67657 0.000186439 10
15.1872 15.6174 3.45029 0.00018273 10
15.1254 15.5538 4.21718 0.000283343 10
15.124 15.5523 5.00834 0.000274804 10
14.7281 15.1452 5.66061 0.000287766 10
7.00453 7.25341 -2.70184 0.00107208 4
7.93141 8.21321 -2.63599 7.35972e-05 4
9.02554 9.34622 -2.52554 0.000160109 4
11.8872 12.3095 -2.71032 8.02292e-05 1
15.146 15.6841 -2.67713 0.000373043 10
15.144 15.6821 -1.90731 0.000378881 10
15.142 15.68 -1.14237 0.000382848 10
15.1358 15.6735 -0.380325 0.000384901 10
15.1373 15.6752 0.380364 0.000385012 10
15.1376 15.6754 1.14204 0.000298773 10
15.1399 15.6778 1.90679 0.00029585 10
15.1239 15.6613 2.67324 0.000186065 10
15.124 15.6614 3.44833 0.000182364 10
15.1217 15.659 4.23137 0.000278526 10
15.1255 15.6629 5.02691 0.000270123 10
14.7386 15.2622 5.68507 0.000282887 10
7.00046 7.30001 -2.71009 0.0008792 4
7.91791 8.25671 -2.64106 0.000110391 4
8.99364 9.37847 -2.52576 0.000153797 4
11.8542 12.3614 -2.71262 8.02235e-05 1
15.1434 15.7914 -2.6864 0.000366664 10
15.1452 15.7932 -1.91439 0.000372409 10
15.1497 15.798 -1.14711 0.000376314 10
15.1477 15.7959 -0.382009 0.000378333 10
15.1415 15.7894 0.38185 0.000378444 10
15.1314 15.7789 1.14572 0.000293675 10
15.1418 15.7897 1.91396 0.000290799 10
15.0301 15.6733 2.66631 0.000349393 10
15.0375 15.681 3.44106 0.000342366 10
15.132 15.7795 4.24964 0.000273752 10
15.1288 15.7761 5.04628 0.000265484 10
14.7414 15.3722 5.70685 0.000278053 10
6.98667 7.33673 -2.71465 0.000515806 1
7.89023 8.28556 -2.64146 4.29279e-05 4
8.96767 9.41698 -2.52768 0.000182781 4
11.796 12.387 -2.70917 8.02179e-05 1
15.1595 15.919 -2.6991 0.000360342 10
15.1471 15.906 -1.92164 0.000365994 10
15.1555 15.9148 -1.15174 0.000369837 10
15.1493 15.9083 -0.383445 0.000371825 10
15.1579 15.9174 0.383665 0.000371934 10
15.1421 15.9008 1.15073 0.000288622 10
15.1469 15.9058 1.92161 0.000285792 10
14.9356 15.6839 2.65924 0.000353644 10
14.9314 15.6795 3.42928 0.000346537 10
15.144 15.9027 4.26857 0.000269021 10
15.1358 15.8941 5.0671 0.000260887 10
14.7494 15.4884 5.73083 0.000273262 10
6.96604 7.36638 -2.71661 0.000515787 1
7.86176 8.31357 -2.64163 0.000404731 4
8.91643 9.42886 -2.5225 0.000192855 4
11.7618 12.4378 -2.71129 8.02123e-05 1
15.1453 16.0157 -2.70651 2.95287e-05 1
15.1698 16.0416 -1.93161 0.000359639 10
24.9687 26.4037 -1.90449 7.65842e-05 10
25.2483 26.6993 -0.641419 6.08263e-05 10
25.2605 26.7122 0.641728 6.08477e-05 10
15.1561 16.0271 1.15603 0.000283615 10
15.1626 16.0339 1.93069 0.000280832 10
14.8457 15.6989 2.65296 0.000357912 10
14.8398 15.6926 3.4208 0.000350725 10
15.1451 16.0155 4.28461 0.000264334 10
15.1466 16.017 5.08939 0.000256332 10
14.8363 15.689 5.78585 0.000319723 10
6.94654 7.39731 -2.71905 0.000515767 1
7.82567 8.33349 -2.63926 0.000521221 4
8.88848 9.46527 -2.52393 0.00011848 4
11.719 12.4795 -2.71144 8.02066e-05 1
15.092 16.0714 -2.707 2.95258e-05 1
