VERSION 0.7
FIELDS x y z intensity label
SIZE 4 4 4 4 4
TYPE F F F F F
COUNT 1 1 1 1 1
WIDTH 1139
HEIGHT 1
VIEWPOINT 8.06693 48.9706 2.72838 0.730652 0.000494303 0.000769572 -0.682749
POINTS 1139
DATA ascii
-18.7927 -6.39755 2.43749 9.84147e-05 10
-19.7669 -6.72921 3.30722 0.00016476 10
-19.7656 -6.72875 4.05857 0.000160598 10
-19.7686 -6.72978 4.82116 0.000155719 10
-19.7739 -6.7316 5.59702 0.000150179 10
-9.42108 -3.24394 -2.66983 0.000629386 4
-10.4867 -3.61087 -2.56056 0.000116063 4
-13.4001 -4.61401 -2.75479 0.000161633 1
-16.4748 -5.67274 -2.75971 7.47735e-05 1
-19.7739 -6.80871 -2.56783 0.000197354 10
-19.7737 -6.80862 -1.82965 0.000200299 10
-19.7769 -6.80974 -1.09619 0.000202263 10
-19.7745 -6.8089 -0.365053 0.000203224 10
-19.7752 -6.80915 0.365067 0.000203174 10
-19.7756 -6.80928 1.09611 0.000202111 10
-19.7816 -6.81135 1.83039 0.000200047 10
-18.7988 -6.47294 2.4412 9.87931e-05 10
-19.7846 -6.81239 3.31414 0.000165379 10
-19.789 -6.81392 4.06824 0.0001612 10
-19.7882 -6.81364 4.83171 0.000156301 10
-19.775 -6.80907 5.604 0.000150737 10
-9.00212 -3.13487 -2.55418 0.000401877 4
-10.452 -3.63977 -2.55516 0.000186142 4
-13.3833 -4.66056 -2.75468 0.000161636 1
-16.4597 -5.73188 -2.76051 7.47753e-05 1
-19.7704 -6.88479 -2.57048 0.000198072 10
-19.7846 -6.88973 -1.83288 0.000201028 10
-19.7795 -6.88794 -1.09765 0.000203001 10
-19.7813 -6.88857 -0.365621 0.000203966 10
-19.7855 -6.89005 0.365699 0.000203915 10
-19.7972 -6.89411 1.09864 0.000202848 10
-19.7768 -6.88699 1.83215 0.000200776 10
-18.7883 -6.54279 2.4428 9.91605e-05 10
-19.7841 -6.88956 3.31806 0.000165979 10
-19.8015 -6.8956 4.07572 0.000161783 10
-19.7952 -6.89342 4.83926 0.000156864 10
-19.7832 -6.88925 5.61312 0.000151279 10
-8.99496 -3.16762 -2.55527 0.000441708 4
-10.4625 -3.68441 -2.56085 0.000254033 4
-13.3588 -4.70437 -2.75299 0.00016164 1
-16.4397 -5.78933 -2.76052 7.47772e-05 1
-19.7905 -6.96935 -2.57624 0.000198767 10
-19.778 -6.96493 -1.83451 0.000201735 10
-19.7713 -6.96256 -1.09854 0.000203715 10
-19.7807 -6.96588 -0.366057 0.000204684 10
-19.7826 -6.96655 0.366092 0.000204633 10
-19.7942 -6.97064 1.09982 0.000203561 10
-19.7835 -6.96689 1.83502 0.000201482 10
-18.8129 -6.62507 2.44898 9.95166e-05 10
-19.8024 -6.97352 3.32519 0.00016656 10
-19.7815 -6.96617 4.07659 0.000162347 10
-19.8036 -6.97396 4.84724 0.00015741 10
-19.7838 -6.96698 5.62016 0.000151802 10
-8.979 -3.19728 -2.55389 0.000481541 4
-10.4305 -3.71415 -2.55619 0.000223377 4
-13.3488 -4.75328 -2.75433 0.000161643 1
-16.3998 -5.8397 -2.75723 7.47791e-05 1
-19.8009 -7.0508 -2.58079 0.00019944 10
-19.7855 -7.04531 -1.83748 0.000202419 10
-19.8025 -7.05136 -1.10164 0.000204405 10
-19.7845 -7.04496 -0.366581 0.000205379 10
-19.7983 -7.04987 0.366836 0.000205328 10
-19.7919 -7.04757 1.10104 0.000204252 10
-19.7826 -7.04426 1.8372 0.000202164 10
-18.8158 -6.69999 2.45238 9.98617e-05 10
-19.7969 -7.04935 3.32837 0.000167122 10
-19.7894 -7.04667 4.08325 0.000162894 10
-19.7977 -7.04965 4.85178 0.000157937 10
-19.8109 -7.05435 5.63481 0.000152309 10
-8.98125 -3.23345 -2.55773 0.000499651 4
-10.4143 -3.74937 -2.5554 0.000258421 4
-13.3165 -4.79423 -2.75111 0.000161646 1
-16.3869 -5.89966 -2.75852 7.47811e-05 1
-19.7859 -7.12336 -2.58205 0.00020009 10
-19.7989 -7.12804 -1.84102 0.00020308 10
-19.7999 -7.1284 -1.10287 0.000205073 10
-19.7866 -7.12361 -0.367078 0.000206051 10
-19.7937 -7.12615 0.367209 0.000206 10
-19.798 -7.12771 1.10276 0.00020492 10
-19.8018 -7.12908 1.84129 0.000202824 10
-18.8237 -6.77695 2.45649 0.000100196 10
-19.8147 -7.13374 3.33554 0.000167665 10
-19.7996 -7.12829 4.09048 0.000163421 10
-19.8167 -7.13445 4.86252 0.000158447 10
-19.8069 -7.13091 5.64071 0.000152798 10
-8.95334 -3.25875 -2.553 0.000430865 4
-10.403 -3.78639 -2.55587 0.000324127 4
-13.3011 -4.84121 -2.75141 0.000161649 1
-16.3671 -5.95714 -2.75867 7.4783e-05 1
-19.8107 -7.21052 -2.58856 0.000200717 10
-19.8104 -7.21039 -1.84442 0.000203718 10
-19.8104 -7.2104 -1.10485 0.000205719 10
-19.7891 -7.20265 -0.367589 0.0002067 10
-19.8112 -7.21069 0.367999 0.000206648 10
-19.7943 -7.20454 1.10395 0.000205565 10
-19.812 -7.21097 1.84456 0.000203462 10
-18.8113 -6.84674 2.45797 0.000100518 10
-19.8183 -7.21328 3.34036 0.000168189 10
-19.7997 -7.20651 4.09568 0.00016393 10
-19.7997 -7.20649 4.86448 0.000158938 10
-19.8264 -7.21622 5.65341 0.00015327 10
-8.96058 -3.29685 -2.55833 0.000543114 4
-10.4103 -3.83026 -2.56093 0.000319752 4
-13.3039 -4.89487 -2.75549 0.000161653 1
-16.3452 -6.01388 -2.7585 7.47851e-05 1
-19.7981 -7.28428 -2.59022 0.000201322 10
-19.8057 -7.28709 -1.84634 0.000204331 10
-19.7974 -7.28404 -1.10554 0.000206341 10
-19.8001 -7.28503 -0.368263 0.000207325 10
-19.7983 -7.28436 0.368229 0.000207273 10
-19.8014 -7.28548 1.10576 0.000206186 10
-19.8168 -7.29116 1.84737 0.000204076 10
-18.8396 -6.93163 2.46482 0.00010083 10
-19.8228 -7.29337 3.34539 0.000168694 10
-19.8287 -7.29554 4.10692 0.000164421 10
-19.8279 -7.29525 4.87764 0.000159412 10
-19.8172 -7.29131 5.65801 0.000153724 10
-8.93097 -3.3214 -2.55318 0.000496052 4
-10.3888 -3.86357 -2.55894 0.000337279 4
-13.2803 -4.93889 -2.75416 0.000161656 1
-16.3225 -6.0703 -2.75823 7.47872e-05 1
-19.8188 -7.37056 -2.59628 0.000201904 10
-19.8202 -7.37107 -1.85008 0.000204923 10
-19.8059 -7.36575 -1.10744 0.000206939 10
-19.8017 -7.36418 -0.368768 0.000207927 10
-19.8235 -7.37231 0.369175 0.000207875 10
-19.8209 -7.37131 1.10828 0.000206784 10
-19.8051 -7.36543 1.84866 0.000204667 10
-18.8427 -7.00753 2.46841 0.00010113 10
-19.832 -7.37544 3.35126 0.00016918 10
-19.8109 -7.36762 4.10854 0.000164893 10
-19.8176 -7.3701 4.88141 0.000159867 10
-19.8321 -7.3755 5.66959 0.000154161 10
-8.92381 -3.35424 -2.55446 0.000535889 4
-10.3748 -3.89964 -2.55883 0.000297862 4
-13.2558 -4.98254 -2.75268 0.00016166 1
-16.2946 -6.12474 -2.75711 7.47892e-05 1
-19.8041 -7.44386 -2.59774 0.000202461 10
-19.8249 -7.45168 -1.85293 0.000205492 10
-19.8172 -7.4488 -1.10952 0.000207515 10
-19.814 -7.44758 -0.369479 0.000208506 10
-19.8063 -7.44468 0.369335 0.000208454 10
-19.83 -7.45359 1.11023 0.000207359 10
-19.8104 -7.44625 1.85158 0.000205235 10
-18.8488 -7.08478 2.47242 0.000101419 10
-19.8277 -7.45272 3.35491 0.000169647 10
-19.8219 -7.45057 4.11618 0.000165346 10
-19.8379 -7.45659 4.8928 0.000160304 10
-19.8349 -7.45543 5.67777 0.00015458 10
-8.91908 -3.38804 -2.55648 0.000438132 4
-10.3659 -3.93763 -2.56 0.000293487 4
-13.2536 -5.03456 -2.75585 0.000161664 1
-16.2954 -6.19004 -2.76087 7.47914e-05 1
-19.8112 -7.52557 -2.6021 0.000203 10
-19.8335 -7.53403 -1.85618 0.00020604 10
-19.8138 -7.52654 -1.11079 0.000208068 10
-19.8148 -7.52693 1.11085 0.000207912 10
-19.8268 -7.53149 1.85555 0.000205782 10
-18.8398 -7.15658 2.47451 0.000101697 10
-19.8447 -7.53829 3.36222 0.000170095 10
-8.90883 -3.41978 -2.55695 0.000398308 4
-10.3377 -3.96829 -2.55645 0.000302253 4
-13.2255 -5.0768 -2.75368 0.000161667 1
-16.2773 -6.24826 -2.76149 7.47936e-05 1
-19.8252 -7.6102 -2.60742 0.000203513 10
-19.8272 -7.61094 -1.85807 0.000206562 10
-19.8422 -7.61671 -1.11387 0.000208597 10
-19.8446 -7.61764 1.114 0.000208441 10
-19.8446 -7.61763 1.8597 0.000206304 10
-18.8572 -7.23858 2.48009 0.000101963 10
-19.8239 -7.60968 3.36318 0.000170524 10
-8.89019 -3.44828 -2.55504 0.000362104 4
-10.3437 -4.01204 -2.56136 0.000190554 4
-13.216 -5.12615 -2.7554 0.000161671 1
-16.234 -6.29676 -2.75786 7.47958e-05 1
-19.8177 -7.68676 -2.60993 0.000204004 10
-19.8351 -7.69352 -1.86131 0.000207062 10
-19.8205 -7.68788 -1.11415 0.000209103 10
-19.8387 -7.69491 1.11517 0.000208946 10
-19.8524 -7.70025 1.86294 0.000206803 10
-18.8603 -7.31543 2.48385 0.000102218 10
-19.8524 -7.70023 3.37255 0.000170934 10
-8.87007 -3.47614 -2.55272 0.0015477 4
-10.314 -4.042 -2.55749 0.000315406 4
-13.1886 -5.16855 -2.75343 0.000161675 1
-16.2255 -6.3587 -2.76016 7.47981e-05 1
-19.8441 -7.77682 -2.61697 0.000204473 10
-19.8412 -7.77568 -1.86442 0.000207539 10
-19.8265 -7.76994 -1.11601 0.000209585 10
-19.8547 -7.78097 1.11759 0.000209427 10
-19.8314 -7.77182 1.8635 0.000207278 10
-18.8449 -7.38525 2.48521 0.000102462 10
-19.8585 -7.78247 3.37819 0.000171324 10
-8.89415 -3.52144 -2.56317 0.00143431 4
-10.3069 -4.0808 -2.55926 0.000267225 4
-13.1804 -5.21849 -2.75551 0.000161679 1
-16.1881 -6.40931 -2.75759 7.48004e-05 1
-19.8386 -7.85466 -2.61985 0.000204918 10
-19.8518 -7.85986 -1.86798 0.000207992 10
-19.8339 -7.85279 -1.11796 0.000210044 10
-19.8572 -7.86203 1.11927 0.000209886 10
-19.843 -7.85639 1.86715 0.000207731 10
-18.8547 -7.4651 2.48992 0.000102695 10
-19.8625 -7.86411 3.38351 0.000171695 10
-8.88364 -3.5532 -2.56371 0.00127003 4
-10.2963 -4.1182 -2.56016 0.000361417 4
-13.163 -5.26484 -2.75571 0.000161683 1
-16.1812 -6.472 -2.76024 7.48028e-05 1
-19.8514 -7.94 -2.62519 0.000205341 10
-19.8477 -7.93852 -1.8702 0.000208423 10
-19.8544 -7.94119 -1.12067 0.000210479 10
-19.8594 -7.9432 1.12095 0.000210321 10
-19.8609 -7.94377 1.87143 0.00020816 10
-18.8734 -7.5488 2.49584 0.000102916 10
-19.8653 -7.94553 3.38869 0.000172048 10
-8.89066 -3.59206 -2.56933 0.00116961 4
-10.2825 -4.1544 -2.56034 0.000269426 4
-13.1451 -5.31098 -2.75583 0.000161687 1
-16.1383 -6.5203 -2.7568 7.48052e-05 1
-19.8622 -8.02485 -2.6303 0.000205741 10
-19.8666 -8.02662 -1.8746 0.00020883 10
-19.8658 -8.02631 -1.12289 0.000210892 10
-19.8702 -8.02806 1.12313 0.000210733 10
-19.8743 -8.02973 1.87533 0.000208567 10
-18.8846 -7.62986 2.50083 0.000103126 10
-19.8705 -8.02821 3.39434 0.000172381 10
-8.89725 -3.6309 -2.57488 0.00121432 4
-10.2605 -4.18721 -2.55847 0.000227812 4
-13.1142 -5.35181 -2.75324 0.000161691 1
-16.1405 -6.58683 -2.76109 7.48076e-05 1
-19.8456 -8.09884 -2.63183 0.000206118 10
-19.8598 -8.10463 -1.87662 0.000209214 10
-19.8531 -8.10188 -1.12376 0.000211281 10
-19.8652 -8.10685 1.12445 0.000211121 10
-19.868 -8.10798 1.87739 0.000208951 10
-18.8843 -7.70652 2.50434 0.000103325 10
-19.8735 -8.11022 3.39967 0.000172695 10
-8.87749 -3.65904 -2.57285 0.00136071 4
-10.2448 -4.22262 -2.55824 0.000273818 4
-13.0928 -5.39648 -2.75269 0.000161695 1
-16.0947 -6.63377 -2.7572 7.48101e-05 1
-19.8554 -8.18379 -2.6369 0.000206472 10
-19.8648 -8.18767 -1.87978 0.000209575 10
-19.8724 -8.19081 -1.12646 0.000211646 10
-19.8587 -8.18515 1.12569 0.000211486 10
-19.8645 -8.18755 1.87975 0.000209311 10
-18.8871 -7.78471 2.50831 0.000103512 10
-19.8699 -8.18977 3.40392 0.000172989 10
-8.88867 -3.69999 -2.57981 0.000711954 4
-10.2389 -4.26204 -2.56045 0.000273824 4
-13.0744 -5.44234 -2.75279 0.000161699 1
-16.0886 -6.69703 -2.76013 7.48126e-05 1
-19.8714 -8.27168 -2.64285 0.000206803 10
-19.8827 -8.27636 -1.8842 0.000209913 10
-19.8693 -8.27078 -1.12792 0.000211988 10
-19.8674 -8.27001 1.12781 0.000211828 10
-19.8691 -8.2707 1.88291 0.000209648 10
-18.8944 -7.865 2.51291 0.000103688 10
-19.8752 -8.27326 3.40976 0.000173265 10
-8.90218 -3.74213 -2.58751 0.00120315 4
-10.227 -4.29905 -2.56122 0.000306689 4
-13.0665 -5.49267 -2.75516 0.000161704 1
-16.0547 -6.74877 -2.75834 7.48152e-05 1
-19.8869 -8.35966 -2.64876 0.000207112 10
-19.8856 -8.35914 -1.88723 0.000210228 10
-19.8695 -8.35238 -1.12958 0.000212307 10
-19.8753 -8.3548 1.12991 0.000212147 10
-19.8772 -8.35559 1.88643 0.000209962 10
-19.8809 -8.35716 2.64797 0.000177132 10
-19.8846 -8.35874 3.41636 0.000173522 10
-8.89001 -3.77358 -2.58779 0.000924601 4
-10.2071 -4.33264 -2.56 0.000282598 4
-13.0314 -5.53148 -2.75179 0.000161708 1
-16.0346 -6.8063 -2.75896 7.48178e-05 1
-19.8715 -8.43495 -2.65063 0.000207398 10
-19.8786 -8.43798 -1.88935 0.00021052 10
-19.8937 -8.44437 -1.13262 0.000212603 10
-19.8805 -8.43875 1.13187 0.000212442 10
-19.8772 -8.43736 1.88921 0.000210253 10
-19.8921 -8.44371 2.65338 0.000177376 10
-19.8833 -8.43997 3.42118 0.000173759 10
-8.88461 -3.80795 -2.59007 0.000369607 4
-10.1808 -4.3635 -2.55722 0.000293558 4
-13.0317 -5.58539 -2.75597 0.000161712 1
-16.0188 -6.86568 -2.76035 7.48204e-05 1
-19.8831 -8.52191 -2.65613 0.000207662 10
-19.8855 -8.52291 -1.89281 0.000210789 10
-19.8806 -8.52081 -1.13356 0.000212875 10
-19.8919 -8.52567 1.13421 0.000212714 10
-19.9063 -8.53183 1.89479 0.000210522 10
-19.9043 -8.531 2.65896 0.000177601 10
-19.8895 -8.52463 3.42733 0.000173978 10
-8.88118 -3.84323 -2.59297 0.00139 4
-10.1704 -4.40111 -2.55844 0.000291374 4
-12.994 -5.62299 -2.75212 0.000161717 1
-15.9743 -6.91271 -2.75682 7.48231e-05 1
-19.899 -8.61107 -2.66225 0.000207902 10
-19.8882 -8.6064 -1.89592 0.000211034 10
-19.9074 -8.6147 -1.1368 0.000213125 10
-19.9059 -8.61405 1.13671 0.000212963 10
-19.8952 -8.60941 1.89659 0.000210767 10
-19.9088 -8.61529 2.66355 0.000177807 10
-19.9093 -8.61551 3.43591 0.000174177 10
-8.89091 -3.88434 -2.59975 0.00126305 4
-10.1476 -4.43339 -2.55659 0.000319861 4
-12.9748 -5.66854 -2.75223 0.000161721 1
-15.9666 -6.97563 -2.75967 7.48258e-05 1
-19.8954 -8.6921 -2.66581 0.00020812 10
-19.898 -8.69322 -1.89974 0.000211257 10
-19.914 -8.7002 -1.1389 0.000213351 10
-19.9055 -8.69651 -0.379165 0.000214376 10
-19.8956 -8.69218 0.378975 0.000214322 10
-19.9109 -8.69887 1.13873 0.000213188 10
-19.8968 -8.69269 1.89962 0.000210989 10
-19.9209 -8.70324 2.66923 0.000177993 10
-19.8983 -8.69335 3.43923 0.000174358 10
-19.9196 -8.70265 4.22537 0.000169906 10
-19.9155 -8.70085 5.0175 0.000164688 10
-19.9097 -8.69834 5.8217 0.000158766 10
-8.90607 -3.92804 -2.60817 0.00101987 4
-10.1487 -4.4761 -2.56078 0.000326441 4
-12.9474 -5.71047 -2.75063 0.000161726 1
-15.9385 -7.02973 -2.75905 7.48286e-05 1
-19.8919 -8.77339 -2.66943 0.000208315 10
-19.8939 -8.77426 -1.90226 0.000211457 10
-19.9037 -8.77856 -1.14006 0.000213553 10
-19.8961 -8.77523 -0.379566 0.000214581 10
-19.8983 -8.77619 0.379608 0.000214526 10
-19.9146 -8.78337 1.14068 0.000213391 10
-19.913 -8.7827 1.90409 0.000211188 10
-19.9211 -8.78625 2.67335 0.000178159 10
-19.9055 -8.77939 3.44576 0.000174519 10
-19.9071 -8.78009 4.22921 0.000170061 10
-19.9297 -8.79006 5.02879 0.000164836 10
-19.9181 -8.78495 5.8331 0.000158905 10
-8.9055 -3.96498 -2.61205 0.00111095 4
-10.123 -4.50705 -2.55825 0.000284821 4
-12.9479 -5.76479 -2.75501 0.000161731 1
-15.9144 -7.08554 -2.75913 7.48314e-05 1
-19.9053 -8.86241 -2.67536 0.000208488 10
-19.9209 -8.86935 -1.90779 0.000211634 10
-19.9133 -8.86597 -1.14238 0.000213733 10
-19.918 -8.86805 -0.380572 0.000214762 10
-19.9221 -8.86987 0.38065 0.000214707 10
-19.9061 -8.86277 1.14196 0.00021357 10
-19.9289 -8.87291 1.90855 0.000211365 10
-19.9257 -8.8715 2.67811 0.000178307 10
-19.9254 -8.87134 3.45452 0.000174661 10
-19.9225 -8.87006 4.23902 0.000170197 10
-19.9299 -8.87337 5.03662 0.000164965 10
-19.9228 -8.87019 5.84349 0.000159027 10
-8.90688 -4.00291 -2.61653 0.00115237 4
-10.1105 -4.54384 -2.55909 0.00031112 4
-12.9236 -5.80809 -2.75412 0.000161736 1
-15.8994 -7.14546 -2.76084 7.48343e-05 1
-19.9067 -8.94641 -2.67973 0.000208638 10
-19.9077 -8.94685 -1.9095 0.000211788 10
-19.9102 -8.94798 -1.14398 0.00021389 10
-19.9075 -8.9468 -0.380967 0.000214919 10
-19.9353 -8.95929 0.381498 0.000214865 10
-19.9193 -8.9521 1.14451 0.000213727 10
-19.9359 -8.95955 1.91221 0.000211518 10
-19.9272 -8.95563 2.68249 0.000178435 10
-19.9277 -8.95585 3.46033 0.000174785 10
-19.9413 -8.962 4.24967 0.000170315 10
-19.9355 -8.95936 5.0459 0.000165077 10
-19.9278 -8.95593 5.85411 0.000159131 10
-8.88875 -4.03212 -2.61532 0.00111618 4
-10.0921 -4.57797 -2.55845 0.000243205 4
-12.8994 -5.85143 -2.7533 0.00016174 1
-15.8749 -7.20115 -2.76093 7.48372e-05 1
-19.919 -9.03564 -2.68561 0.000208766 10
-19.9333 -9.04215 -1.91498 0.000211919 10
-19.9269 -9.03924 -1.14675 0.000214023 10
-19.9326 -9.04183 -0.382048 0.000215054 10
-19.931 -9.04112 0.382018 0.000214999 10
-19.9159 -9.03424 1.14611 0.00021386 10
-19.9392 -9.04481 1.91554 0.000211649 10
-19.9265 -9.03908 2.68663 0.000178543 10
-19.9222 -9.03711 3.46483 0.000174889 10
-19.9336 -9.04229 4.25472 0.000170415 10
-19.9456 -9.04774 5.05644 0.000165171 10
-19.9478 -9.04873 5.86922 0.000159218 10
-8.90056 -4.07499 -2.62297 0.00129068 4
-10.0799 -4.61495 -2.55944 0.000291415 4
-12.8856 -5.89949 -2.75474 0.000161745 1
-15.8379 -7.25117 -2.75889 7.48401e-05 1
-19.9414 -9.12988 -2.69291 0.000208871 10
-19.9396 -9.12906 -1.91863 0.000212028 10
-19.9235 -9.12169 -1.14838 0.000214134 10
-19.9443 -9.13123 -0.382882 0.000215166 10
-19.9249 -9.12235 0.382509 0.000215111 10
-19.94 -9.12924 1.14933 0.00021397 10
-19.9499 -9.13375 1.91962 0.000211757 10
-19.9308 -9.12502 2.69148 0.000178633 10
-19.9342 -9.12658 3.47244 0.000174975 10
-19.9451 -9.13158 4.26395 0.000170496 10
-19.9317 -9.12543 5.06094 0.000165247 10
-19.9368 -9.1278 5.87533 0.000159288 10
-8.89815 -4.11152 -2.62647 0.00112085 4
-10.0539 -4.64553 -2.55692 0.00028704 4
-12.861 -5.94264 -2.75391 0.00016175 1
-15.8042 -7.30257 -2.75744 7.48431e-05 1
-19.9363 -9.21185 -2.69655 0.000208954 10
-19.9388 -9.21301 -1.92164 0.000212113 10
-19.9335 -9.21056 -1.1508 0.000214221 10
-19.9418 -9.21438 -0.383447 0.000215254 10
-19.9521 -9.21918 0.383646 0.000215199 10
-19.9497 -9.21806 1.15174 0.000214057 10
-19.9466 -9.21662 1.92239 0.000211842 10
-19.9564 -9.22115 2.69927 0.000178703 10
-19.9402 -9.21364 3.47906 0.000175042 10
-19.9335 -9.21057 4.26832 0.000170559 10
-19.9527 -9.21943 5.07441 0.000165305 10
-19.9617 -9.22358 5.8921 0.000159341 10
-8.89619 -4.14836 -2.63015 0.00114186 4
-10.0359 -4.67982 -2.5565 0.000306768 4
-12.8322 -5.98376 -2.75219 0.000161755 1
-15.7914 -7.36363 -2.75967 7.48461e-05 1
-19.9343 -9.29553 -2.70066 0.000209014 10
-19.9291 -9.29308 -1.92381 0.000212176 10
-19.9426 -9.2994 -1.15319 0.000214286 10
-19.9426 -9.2994 -0.384086 0.00021532 10
-19.9402 -9.29825 0.384038 0.000215265 10
-19.9336 -9.29518 1.15267 0.000214122 10
-19.9612 -9.30805 1.92691 0.000211904 10
-19.9372 -9.29688 2.70105 0.000178754 10
-19.9635 -9.30913 3.48878 0.00017509 10
-19.9508 -9.30319 4.27894 0.000170603 10
-19.9436 -9.29984 5.08033 0.000165345 10
-19.9662 -9.31037 5.90298 0.000159377 10
-8.89664 -4.18644 -2.63459 0.00106873 4
-10.0186 -4.71437 -2.55625 0.000335262 4
-12.8168 -6.03113 -2.75338 0.000161761 1
-15.7704 -7.42096 -2.7605 7.48491e-05 1
-19.9351 -9.38074 -2.70518 0.000209053 10
-19.9377 -9.38195 -1.92779 0.000212216 10
-19.9544 -9.38982 -1.15576 0.000214328 10
-19.9402 -9.38315 -0.384668 0.000215362 10
-19.9564 -9.39077 0.38498 0.000215307 10
-19.9517 -9.38858 1.15561 0.000214163 10
-19.9463 -9.386 1.92862 0.000211944 10
-19.9428 -9.38439 2.70623 0.000178786 10
-19.958 -9.39152 3.49353 0.00017512 10
-19.9454 -9.38559 4.28479 0.000170629 10
-19.9726 -9.39838 5.09604 0.000165368 10
-19.951 -9.38823 5.90816 0.000159395 10
-8.89565 -4.22396 -2.63865 0.00114545 4
-10.0051 -4.75076 -2.55703 0.000341845 4
-12.7901 -6.07317 -2.75218 0.000161766 1
-15.7277 -7.46806 -2.75759 7.48522e-05 1
-19.9508 -9.47332 -2.71178 0.000209068 10
-19.9581 -9.47678 -1.93295 0.000212234 10
-19.9513 -9.47359 -1.15749 0.000214347 10
-19.9555 -9.47556 -0.385598 0.000215382 10
-19.9482 -9.47211 0.385457 0.000215327 10
-19.9604 -9.47791 1.15802 0.000214182 10
-19.9498 -9.47284 1.93215 0.000211961 10
-19.9703 -9.48261 2.71444 0.000178799 10
-19.9569 -9.47623 3.4991 0.00017513 10
-19.9726 -9.48367 4.29771 0.000170637 10
-19.9538 -9.47474 5.09965 0.000165372 10
-19.9643 -9.47976 5.92186 0.000159396 10
-8.90885 -4.26841 -2.64697 0.000971288 4
-9.97951 -4.78138 -2.55474 0.000317749 4
-12.7734 -6.12001 -2.75318 0.000161771 1
-15.7154 -7.52955 -2.76002 7.48553e-05 1
-19.9636 -9.56493 -2.71804 0.000209062 10
-19.9726 -9.56927 -1.93758 0.000212229 10
-19.9662 -9.56618 -1.16028 0.000214343 10
-19.9486 -9.55778 -0.386108 0.000215379 10
-19.9627 -9.5645 0.386379 0.000215323 10
-19.9668 -9.56647 1.16032 0.000214178 10
-19.9691 -9.56757 1.93724 0.000211956 10
-19.9551 -9.56086 2.71688 0.000178793 10
-19.9658 -9.56602 3.5065 0.000175122 10
-19.9584 -9.56246 4.30182 0.000170627 10
-19.9669 -9.56655 5.11152 0.00016536 10
-19.9617 -9.56406 5.93096 0.000159381 10
-8.90901 -4.30679 -2.65146 0.001075 4
-9.98574 -4.8273 -2.56064 0.000308992 4
-12.7436 -6.1605 -2.75137 0.000161776 1
-15.6928 -7.58621 -2.76069 7.48585e-05 1
-19.9589 -9.6485 -2.72197 0.000209033 10
-19.9582 -9.64819 -1.93945 0.000212202 10
-19.9647 -9.65129 -1.16215 0.000214317 10
-19.9581 -9.64814 -0.386941 0.000215353 10
-19.9767 -9.6571 0.387301 0.000215297 10
-19.961 -9.64951 1.16193 0.000214151 10
-19.9623 -9.65013 1.93984 0.000211928 10
-19.9796 -9.6585 2.72479 0.000178769 10
-19.9884 -9.66277 3.51637 0.000175096 10
-19.9864 -9.66179 4.31509 0.000170599 10
-19.9848 -9.66101 5.12468 0.000165329 10
-19.9768 -9.65718 5.94542 0.000159348 10
-8.91914 -4.35016 -2.65898 0.00108594 4
-9.95209 -4.85396 -2.55634 0.000317766 4
-12.7343 -6.21094 -2.75403 0.000161782 1
-15.658 -7.6369 -2.75923 7.48617e-05 1
-19.9576 -9.73396 -2.72641 0.000208983 10
-19.9836 -9.74667 -1.94521 0.000212153 10
-19.983 -9.74635 -1.16519 0.000214268 10
-19.9824 -9.74607 -0.388069 0.000215304 10
-19.9721 -9.74104 0.387869 0.000215249 10
-19.973 -9.74147 1.1646 0.000214102 10
-19.9871 -9.74834 1.94554 0.000211879 10
-19.9772 -9.74353 2.72909 0.000178725 10
-19.9893 -9.74944 3.52249 0.000175051 10
-19.9899 -9.74971 4.32317 0.000170552 10
-19.9778 -9.74384 5.13159 0.000165281 10
-19.9921 -9.75081 5.96007 0.000159298 10
-8.91041 -4.38447 -2.66093 0.0012235 4
-9.9354 -4.88882 -2.55642 0.000273944 4
-12.6969 -6.24767 -2.75064 0.000161787 1
-15.6364 -7.69408 -2.76015 7.4865e-05 1
-19.9834 -9.83306 -2.73461 0.00020891 10
-19.9817 -9.83219 -1.94834 0.000212081 10
-19.9697 -9.82632 -1.16641 0.000214196 10
-19.9742 -9.82852 -0.388574 0.000215233 10
-19.9717 -9.82728 0.388524 0.000215177 10
-19.9864 -9.83451 1.16738 0.00021403 10
-19.9818 -9.83224 1.94835 0.000211806 10
-19.9771 -9.82994 2.73375 0.000178662 10
-19.9946 -9.83857 3.52946 0.000174988 10
-19.9881 -9.83537 4.33019 0.000170488 10
-19.9963 -9.83938 5.14512 0.000165216 10
-19.9884 -9.83551 5.96916 0.000159232 10
-8.91153 -4.42372 -2.66586 0.00126905 4
-9.92146 -4.92505 -2.55724 0.000333125 4
-12.6814 -6.29512 -2.75202 0.000161793 1
-15.6127 -7.7502 -2.76071 7.48683e-05 1
-19.9854 -9.92082 -2.7396 0.000208816 10
-19.9851 -9.9207 -1.95205 0.000211987 10
-19.9811 -9.91868 -1.16908 0.000214103 10
-19.9973 -9.92673 -0.389694 0.000215139 10
-19.9865 -9.92138 0.389484 0.000215083 10
-19.9842 -9.92025 1.16927 0.000213936 10
-19.9807 -9.91852 1.95162 0.000211712 10
-19.9953 -9.92576 2.74097 0.000178581 10
-19.9944 -9.92533 3.53552 0.000174906 10
-19.9839 -9.92011 4.33676 0.000170406 10
-19.9971 -9.92665 5.15422 0.000165133 10
-20.0031 -9.92963 5.98386 0.000159149 10
-8.91694 -4.46527 -2.67212 0.00129596 4
-9.91793 -4.96653 -2.56078 0.000238892 4
-12.6496 -6.33446 -2.74991 0.000161798 1
-15.573 -7.79839 -2.7585 7.48716e-05 1
-19.9888 -10.0096 -2.74484 0.0002087 10
-19.9882 -10.0093 -1.95575 0.00021187 10
-19.9874 -10.0089 -1.17149 0.000213986 10
-19.9964 -10.0134 -0.390355 0.000215023 10
-19.9885 -10.0095 0.390201 0.000214967 10
-19.9883 -10.0094 1.17155 0.00021382 10
-20.006 -10.0182 1.95748 0.000211595 10
-20.0001 -10.0153 2.74639 0.000178481 10
-19.9979 -10.0142 3.54228 0.000174806 10
-20.0087 -10.0196 4.34969 0.000170306 10
-19.9989 -10.0147 5.16366 0.000165033 10
-20.0086 -10.0196 5.99593 0.000159049 10
-8.91446 -4.50302 -2.67607 0.0011981 4
-9.88976 -4.99567 -2.558 0.000282733 4
-12.6442 -6.38706 -2.75356 0.000161804 1
-15.544 -7.85185 -2.7582 7.4875e-05 1
-20.0009 -10.1032 -2.75134 0.000208562 10
-20.0052 -10.1054 -1.96085 0.000211732 10
-20.0099 -10.1077 -1.17488 0.000213848 10
-19.9946 -10.1 -0.391007 0.000214884 10
-20.0007 -10.1031 0.391125 0.000214828 10
-19.9976 -10.1015 1.17415 0.000213681 10
-20.0034 -10.1045 1.96068 0.000211457 10
-19.9964 -10.1009 2.75071 0.000178362 10
-20.0119 -10.1087 3.551 0.000174687 10
-20.0145 -10.1101 4.3586 0.000170188 10
-20.0044 -10.105 5.17417 0.000164915 10
-20.0084 -10.107 6.0064 0.000158932 10
-8.91646 -4.54316 -2.68142 0.0011015 4
-9.8919 -5.04017 -2.56309 0.000744413 4
-12.6248 -6.43268 -2.75421 0.00016181 1
-15.5283 -7.91207 -2.7603 7.48784e-05 1
-20.0109 -10.1961 -2.75759 0.000208402 10
-20.0067 -10.1939 -1.96448 0.000211572 10
-20.0097 -10.1954 -1.17694 0.000213687 10
-19.9973 -10.1891 -0.391753 0.000214723 10
-20.0034 -10.1923 0.391873 0.000214667 10
-20.0129 -10.1971 1.17713 0.000213521 10
-20.0123 -10.1968 1.96503 0.000211296 10
-20.0199 -10.2007 2.75884 0.000178225 10
-20.0008 -10.1909 3.55532 0.000174551 10
-20.0006 -10.1908 4.36329 0.000170052 10
-20.0032 -10.1921 5.18302 0.000164781 10
-20.0143 -10.1978 6.01884 0.000158799 10
-8.90849 -4.57834 -2.68381 0.00114613 4
-9.87535 -5.07524 -2.56337 0.000755767 4
-12.583 -6.46677 -2.74999 0.000161816 1
-15.4851 -7.95828 -2.75754 7.48819e-05 1
-20.0137 -10.2856 -2.76291 0.000208221 10
-20.0028 -10.28 -1.9676 0.00021139 10
-20.0154 -10.2865 -1.17939 0.000213505 10
-20.0069 -10.2822 -0.392642 0.00021454 10
-20.0235 -10.2907 0.392967 0.000214484 10
-20.0007 -10.279 1.17852 0.000213338 10
-20.0045 -10.2809 1.96777 0.000211114 10
-20.0078 -10.2826 2.76209 0.00017807 10
-20.0179 -10.2878 3.56473 0.000174396 10
-20.0109 -10.2842 4.37334 0.000169899 10
-20.0234 -10.2906 5.19752 0.000164629 10
-20.0174 -10.2875 6.03051 0.000158649 10
-8.90216 -4.61444 -2.68674 0.00124211 4
-9.89872 -5.13101 -2.57407 0.000595847 4
-12.5754 -6.51846 -2.75328 0.000161822 1
-15.4664 -8.01704 -2.75918 7.48853e-05 1
-20.0254 -10.3802 -1.97338 0.00022791 10
-20.023 -10.379 -1.18196 0.000230189 10
-20.0163 -10.3755 -0.393534 0.000231305 10
-20.0299 -10.3825 0.393802 0.000231243 10
-20.035 -10.3852 1.18267 0.000230004 10
-20.0258 -10.3804 1.97341 0.000227603 10
-22.7649 -11.8002 5.9198 0.000125693 10
-22.6237 -11.727 6.82799 6.42811e-05 10
-8.9055 -4.65568 -2.69263 0.00119861 4
-9.87575 -5.16292 -2.57277 0.000712016 4
-12.5564 -6.56433 -2.75413 0.000161827 1
-15.4299 -8.06656 -2.75767 7.48889e-05 1
-20.0357 -10.4744 -1.97799 0.000227357 10
-20.0269 -10.4698 -1.18434 0.000229632 10
-20.0231 -10.4678 -0.394384 0.000230746 10
-20.0414 -10.4774 0.394744 0.000230684 10
-20.0466 -10.4801 1.18551 0.000229447 10
-20.0366 -10.4749 1.97807 0.00022705 10
-22.7851 -11.9117 5.93582 0.000125506 10
-22.5789 -11.804 6.82687 6.42791e-05 10
-8.92093 -4.70347 -2.70225 0.000796078 4
-9.89291 -5.21594 -2.58197 0.000772049 4
-12.5152 -6.59854 -2.75013 0.000161834 1
-15.3947 -8.1167 -2.75642 7.48925e-05 1
-20.0432 -10.5676 -1.98235 0.000226783 10
-20.0524 -10.5724 -1.18802 0.000229054 10
-20.0508 -10.5716 -0.395654 0.000230165 10
-20.0326 -10.562 0.395294 0.000230103 10
-20.0507 -10.5715 1.18792 0.000228868 10
-20.0476 -10.5699 1.98279 0.000226476 10
-22.7971 -12.0195 5.94985 0.000125307 10
-22.5481 -11.8882 6.83006 6.42771e-05 10
-8.91602 -4.74073 -2.70576 0.00089217 4
-9.89529 -5.26142 -2.58736 0.00065302 4
-12.5015 -6.64717 -2.7522 0.00016184 1
-15.378 -8.17662 -2.75853 7.48961e-05 1
-20.0566 -10.6643 -1.98735 0.000226186 10
-20.0437 -10.6574 -1.1897 0.000228453 10
-20.0444 -10.6578 -0.396259 0.000229562 10
-20.0474 -10.6594 0.396319 0.0002295 10
-20.0477 -10.6595 1.18994 0.000228268 10
-20.0673 -10.67 1.98841 0.00022588 10
-22.7852 -12.1151 5.95774 0.000125094 10
-22.4857 -11.9559 6.82376 6.42751e-05 10
-8.92329 -4.78463 -2.71301 0.00105421 4
-9.89507 -5.30569 -2.59213 0.000642808 4
-12.4712 -6.68698 -2.75064 0.000161846 1
-15.3486 -8.22987 -2.7584 7.48997e-05 1
-20.0694 -10.7611 -1.99233 0.000225569 10
-20.0755 -10.7644 -1.19381 0.000227831 10
-20.0599 -10.7561 -0.397307 0.000228937 10
-20.0584 -10.7552 0.397275 0.000228875 10
-20.0748 -10.764 1.19377 0.000227645 10
-20.0577 -10.7548 1.99116 0.000225263 10
-22.8113 -12.2313 5.9757 0.000124868 10
-22.4639 -12.045 6.82986 6.4273e-05 10
-8.92101 -4.82357 -2.71742 0.00105468 4
-9.8918 -5.34847 -2.59615 0.000584824 4
-12.4545 -6.7341 -2.75213 0.000161852 1
-15.3118 -8.27906 -2.75696 7.49034e-05 1
-20.0828 -10.8587 -1.99741 0.00022493 10
-20.0863 -10.8606 -1.1967 0.000227187 10
-20.0729 -10.8534 -0.39831 0.000228291 10
-20.0783 -10.8563 0.398419 0.000228229 10
-20.0738 -10.8539 1.19596 0.000227002 10
-20.0928 -10.8641 1.99841 0.000224624 10
-22.7952 -12.3253 5.98271 0.000124629 10
-22.4021 -12.1128 6.82389 6.4271e-05 10
-8.92109 -4.86393 -2.7226 0.00100518 4
-9.87826 -5.3858 -2.59752 0.000622617 4
-12.4203 -6.77177 -2.74978 0.000161858 1
-15.2768 -8.32916 -2.75586 7.49072e-05 1
-20.0877 -10.9522 -2.00169 0.000224269 10
-20.0827 -10.9495 -1.19876 0.000226521 10
-20.0829 -10.9496 -0.399266 0.000227623 10
-20.0927 -10.9549 0.39946 0.000227561 10
-20.0835 -10.9499 1.19881 0.000226336 10
-20.1038 -10.961 2.00329 0.000223964 10
-22.8265 -12.4454 6.0023 0.000124377 10
-22.366 -12.1943 6.82581 6.42689e-05 10
-8.909 -4.89777 -2.72412 0.00103875 4
-9.88953 -5.43681 -2.60546 0.000727837 4
-12.3978 -6.81573 -2.75004 0.000161865 1
-15.2648 -8.3919 -2.75898 7.4911e-05 1
-20.1024 -11.0514 -2.00698 0.000223588 10
-20.0852 -11.0419 -1.2012 0.000225835 10
-20.1047 -11.0526 -0.400463 0.000226934 10
-20.1124 -11.0569 0.400616 0.000226872 10
-20.1097 -11.0554 1.20267 0.00022565 10
-20.0971 -11.0485 2.00645 0.000223283 10
-22.819 -12.5448 6.0118 0.000124112 10
-22.3232 -12.2723 6.82578 6.42668e-05 10
-8.91575 -4.94208 -2.73144 0.00146437 4
-9.88246 -5.47794 -2.60862 0.000478036 4
-12.3786 -6.86155 -2.75108 0.000161871 1
-15.2305 -8.4424 -2.75808 7.49147e-05 1
-20.1166 -11.1508 -2.01228 0.000222886 10
-20.1017 -11.1425 -1.20451 0.000225128 10
-20.1001 -11.1416 -0.401143 0.000226224 10
-20.1211 -11.1533 0.401562 0.000226162 10
-20.1002 -11.1417 1.20442 0.000224943 10
-20.1257 -11.1559 2.01319 0.000222581 10
-22.8269 -12.6531 6.02547 0.000123834 10
-22.2856 -12.3531 6.82742 6.42647e-05 10
-8.9244 -4.98768 -2.7394 0.00129069 4
-9.88457 -5.5243 -2.61424 0.000304195 4
-12.3711 -6.91398 -2.75477 0.000161878 1
-15.2032 -8.49675 -2.75849 7.49186e-05 1
-20.1115 -11.2399 -2.01568 0.000222164 10
-20.1123 -11.2404 -1.20749 0.000224399 10
-20.1168 -11.2429 -0.402259 0.000225493 10
-20.1203 -11.2449 0.402328 0.000225431 10
-20.1191 -11.2442 1.20789 0.000224215 10
-20.1129 -11.2407 2.01581 0.000221859 10
-22.8262 -12.7571 6.03702 0.000123544 10
-22.2413 -12.4303 6.82712 6.42626e-05 10
-8.93198 -5.03291 -2.74711 0.000902081 4
-9.8794 -5.56676 -2.618 0.000450178 4
-11.4708 -6.46345 -2.5593 0.000131581 4
-15.1594 -8.54186 -2.75593 7.49225e-05 1
-20.1168 -11.3352 -2.02016 0.000200148 10
-20.1353 -11.3457 -1.21124 0.000202166 10
-20.1309 -11.3432 -0.403329 0.000203153 10
-20.1413 -11.3491 0.403538 0.0002031 10
-20.1256 -11.3402 1.21065 0.000202006 10
-20.1351 -11.3456 2.022 0.000199884 10
-22.8436 -12.8717 6.05346 0.000123241 10
-22.1867 -12.5016 6.82371 6.42604e-05 10
-8.91531 -5.0646 -2.7474 0.000497375 1
-9.88808 -5.61721 -2.62548 0.000735941 4
-11.4596 -6.50997 -2.56186 0.000200968 4
-15.1387 -8.59997 -2.75762 7.49265e-05 1
-20.1212 -11.4304 -2.0246 0.000199836 10
-20.1383 -11.4402 -1.21381 0.000201851 10
-20.1288 -11.4348 -0.404085 0.000202838 10
-20.1388 -11.4405 0.404286 0.000202784 10
-20.1274 -11.434 1.21316 0.000201691 10
-20.1391 -11.4406 2.02639 0.000199571 10
-22.8539 -12.9828 6.06817 0.000122926 10
-22.1465 -12.581 6.82482 6.42582e-05 10
-8.88907 -5.09082 -2.74477 0.00049739 1
-9.89289 -5.66571 -2.63199 0.000725078 4
-11.4345 -6.54858 -2.56133 0.000166284 4
-15.0995 -8.64754 -2.75595 7.49304e-05 1
-20.1237 -11.5249 -2.02888 0.000199503 10
-20.1425 -11.5357 -1.21648 0.000201516 10
-20.1394 -11.5339 -0.405103 0.000202502 10
-20.1519 -11.5411 0.405354 0.000202449 10
-20.155 -11.5429 1.21724 0.000201356 10
-20.1537 -11.5421 2.03191 0.000199239 10
-22.8564 -13.09 6.08093 0.000122599 10
-22.1214 -12.669 6.83065 6.4256e-05 10
-8.87653 -5.12487 -2.74641 0.000497404 1
-9.87432 -5.70094 -2.63233 0.000489517 4
-11.4054 -6.58492 -2.55996 0.000177058 4
-15.0739 -8.70292 -2.75681 7.49344e-05 1
-20.13 -11.622 -2.03359 0.00019915 10
-20.1449 -11.6306 -1.21907 0.000201161 10
-20.1341 -11.6244 -0.405811 0.000202146 10
-20.1381 -11.6267 0.40589 0.000202092 10
-20.1373 -11.6263 1.21861 0.000201001 10
-22.8643 -13.2007 6.09524 0.000122259 10
-22.065 -12.7392 6.82694 6.42537e-05 10
-8.84813 -5.14973 -2.74317 0.000497418 1
-9.88674 -5.75422 -2.64098 0.000520264 4
-11.3851 -6.6263 -2.56058 0.000162709 4
-15.0395 -8.75322 -2.7561 7.49385e-05 1
-20.1538 -11.7298 -2.04012 0.000198778 10
-20.1498 -11.7275 -1.22184 0.000200786 10
-20.1527 -11.7291 -0.407008 0.000201769 10
-20.1385 -11.7209 0.40672 0.000201716 10
-20.1525 -11.729 1.222 0.000200626 10
-22.8632 -13.3067 6.10729 0.000121907 10
-22.0341 -12.8242 6.83119 6.42515e-05 10
-8.83832 -5.18541 -2.74572 0.000497432 1
-9.89025 -5.80258 -2.64731 0.000668404 4
-11.3722 -6.67202 -2.56289 0.000153144 4
-15.0107 -8.80674 -2.75644 7.49426e-05 1
-20.1627 -11.8294 -2.0452 0.000198385 10
-20.1551 -11.8249 -1.22466 0.000200391 10
-20.155 -11.8249 -0.407886 0.000201373 10
-20.1516 -11.8229 0.407816 0.000201319 10
-20.1583 -11.8268 1.22485 0.000200231 10
-22.8857 -13.4269 6.12578 0.000121543 10
-21.9818 -12.8966 6.82887 6.42492e-05 10
-8.82926 -5.22161 -2.74855 0.000497447 1
-9.87925 -5.84257 -2.64981 0.000550828 4
-11.3425 -6.70793 -2.56146 0.000162722 4
-14.9855 -8.86242 -2.75748 7.49467e-05 1
-20.1453 -11.9139 -2.04763 0.000197973 10
-20.1591 -11.922 -1.22742 0.000199976 10
-20.1623 -11.9239 -0.408872 0.000200956 10
-20.158 -11.9214 0.408785 0.000200903 10
-20.168 -11.9273 1.22796 0.000199816 10
-22.8893 -13.5367 6.13938 0.000121166 10
-21.9312 -12.9701 6.82719 6.42469e-05 10
-8.79744 -5.24432 -2.74433 0.000497462 1
-9.88386 -5.89196 -2.65655 0.000696162 4
-11.3141 -6.74453 -2.56034 0.000168712 4
-14.9478 -8.9107 -2.75625 7.49508e-05 1
-20.1523 -12.0132 -2.05259 0.000197541 10
-20.1609 -12.0183 -1.23008 0.000199541 10
-20.1504 -12.012 -0.409479 0.00020052 10
-20.1594 -12.0174 0.409661 0.000200466 10
-20.1664 -12.0216 1.23042 0.000199381 10
-22.9083 -13.6561 6.15722 0.000120779 10
-21.8869 -13.0472 6.82755 6.42446e-05 10
-8.78044 -5.27582 -2.74475 0.000497477 1
-9.87556 -5.93383 -2.65987 0.000580117 4
-11.3046 -6.79249 -2.56355 0.000140001 4
-14.9236 -8.967 -2.75753 7.49551e-05 1
-20.157 -12.1115 -2.05736 0.00019709 10
-20.1635 -12.1154 -1.23281 0.000199087 10
-20.1745 -12.1221 -0.410827 0.000200064 10
-20.1693 -12.1189 0.410721 0.00020001 10
-20.1826 -12.1269 1.23398 0.000198926 10
-22.9099 -13.7657 6.17052 0.000120379 10
-21.843 -13.1246 6.82808 6.42423e-05 10
-8.76901 -5.3107 -2.74696 0.000497492 1
-9.87209 -5.97875 -2.66454 0.000561005 4
-11.2767 -6.82943 -2.56262 0.000150777 4
-14.8886 -9.01687 -2.75687 7.49593e-05 1
-20.1544 -12.2059 -2.06144 0.000171695 10
-20.1624 -12.2108 -1.23534 0.000173438 10
-20.1713 -12.2162 -0.411628 0.000174293 10
-20.1535 -12.2054 0.411265 0.000174249 10
-20.1751 -12.2185 1.23612 0.000173306 10
-22.9166 -13.8788 6.18534 0.000119967 10
-21.7889 -13.1958 6.82554 6.42399e-05 10
-8.73395 -5.33122 -2.74179 0.000497507 1
-9.87095 -6.02525 -2.66989 0.000372137 4
-11.2524 -6.8685 -2.56253 0.000135227 4
-14.8583 -9.06954 -2.7571 7.49636e-05 1
-20.1552 -12.3028 -2.06591 0.000171676 10
-20.1521 -12.3009 -1.23734 0.00017342 10
-20.1664 -12.3096 -0.412401 0.000174274 10
-20.1632 -12.3077 0.412337 0.00017423 10
-20.1546 -12.3024 1.23748 0.000173287 10
-22.9203 -13.9906 6.19948 0.000119545 10
-21.7521 -13.2775 6.82849 6.42375e-05 10
-8.723 -5.36642 -2.74421 0.000497522 1
-9.85936 -6.06551 -2.67247 0.000362357 4
-11.227 -6.90692 -2.56222 0.00015079 4
-14.819 -9.11672 -2.7557 7.49679e-05 1
-20.1652 -12.4057 -2.07136 0.000171638 10
-20.1645 -12.4053 -1.24074 0.000173382 10
-20.1659 -12.4061 -0.413274 0.000174237 10
-20.158 -12.4013 0.413113 0.000174193 10
-20.1639 -12.4049 1.24071 0.00017325 10
-22.9195 -14.1001 5.23065 0.000123142 10
-22.9178 -14.0991 6.21208 0.00011911 10
-21.7146 -13.3589 6.83131 6.42351e-05 10
-8.69832 -5.39319 -2.74236 0.000497538 1
-9.8426 -6.10267 -2.67368 0.000229175 4
-11.2042 -6.94692 -2.56254 0.000156781 4
-14.7885 -9.16927 -2.75596 7.49723e-05 1
-20.1438 -12.4897 -2.07362 0.000171582 10
-20.1632 -12.5017 -1.24334 0.000173327 10
-20.1546 -12.4964 -0.413934 0.000174182 10
-20.1604 -12.5 0.414053 0.000174137 10
-20.1552 -12.4968 1.24285 0.000173194 10
-22.9406 -14.2237 5.24677 0.000122685 10
-22.9394 -14.223 6.23134 0.000118665 10
-21.6568 -13.4278 6.82783 6.42327e-05 10
-8.69972 -5.43619 -2.74876 0.000497553 1
-11.1644 -6.97626 -2.55897 0.000179528 4
-14.7747 -9.23223 -2.75937 7.49767e-05 1
-20.1607 -12.5978 -2.07988 0.000171508 10
-20.1598 -12.5972 -1.24584 0.000173252 10
-20.1596 -12.5971 -0.414939 0.000174108 10
-20.1486 -12.5902 0.41471 0.000174063 10
-20.1642 -12.6 1.24611 0.000173119 10
-22.9424 -14.336 5.25861 0.000122216 10
-22.9347 -14.3312 6.24363 0.000118208 10
-21.6045 -13.5 6.82617 6.42302e-05 10
-8.67336 -5.46191 -2.74644 0.000497569 1
-9.78559 -6.16231 -2.66982 0.00026837 4
-11.1499 -7.02146 -2.56126 0.000174749 4
-14.725 -9.27284 -2.75613 7.49812e-05 1
-20.1402 -12.6829 -2.08231 0.000171415 10
-20.1337 -12.6788 -1.24695 0.000173159 10
-20.1591 -12.6948 -0.415837 0.000174015 10
-20.1577 -12.694 0.415808 0.00017397 10
-20.1538 -12.6915 1.2482 0.000173026 10
-22.9499 -14.4523 5.27185 0.000121736 10
-22.959 -14.458 6.26393 0.00011774 10
-21.5727 -13.5851 6.83105 6.42277e-05 10
-8.66203 -5.49709 -2.74891 0.000497585 1
-9.75627 -6.19152 -2.6677 0.000148882 4
-11.1144 -7.05339 -2.55874 0.000171166 4
-14.7067 -9.33313 -2.75877 7.49857e-05 1
-20.1482 -12.7864 -2.08774 0.000171304 10
-20.1552 -12.7908 -1.25104 0.000173048 10
-20.1503 -12.7878 -0.416575 0.000173903 10
-20.1489 -12.7868 0.416544 0.000173859 10
-20.1422 -12.7826 1.25024 0.000172915 10
-22.9567 -14.5688 5.28507 0.000121244 10
-22.9569 -14.5689 6.2772 0.000117261 10
-21.5216 -13.658 6.82993 6.42253e-05 10
-8.62812 -5.51791 -2.74425 0.000497601 1
-9.74631 -6.23302 -2.67091 0.000340875 4
-11.097 -7.09685 -2.56043 0.000161598 4
-14.6697 -9.38167 -2.75796 7.49902e-05 1
-20.1401 -12.8801 -2.09155 0.000141829 10
-20.1313 -12.8745 -1.25234 0.000143277 10
-20.1344 -12.8765 -0.417173 0.000143988 10
-20.1446 -12.883 0.417383 0.000143954 10
-20.1357 -12.8773 1.25261 0.000143175 10
-22.9633 -14.6857 5.29836 0.000120741 10
-22.9611 -14.6842 6.29233 0.000116771 10
-21.4726 -13.7323 6.82954 6.42227e-05 10
-8.60394 -5.54486 -2.7427 0.000497617 1
-9.73486 -6.27369 -2.67376 0.000262523 4
-11.0686 -7.13322 -2.5596 0.000149635 4
-14.6443 -9.43759 -2.75936 7.49947e-05 1
-20.1222 -12.9679 -2.09438 0.000142139 10
-20.11 -12.96 -1.25382 0.000143591 10
-20.1173 -12.9647 -0.417753 0.000144304 10
-20.1329 -12.9748 0.418076 0.00014427 10
-20.1158 -12.9638 1.25419 0.000143489 10
-22.9832 -14.8117 5.31485 0.000120227 10
-22.9707 -14.8036 6.30907 0.000116271 10
-21.4329 -13.8126 6.83222 6.42202e-05 10
-8.57278 -5.56723 -2.73894 0.000238238 4
-11.0474 -7.17426 -2.56047 0.000149642 4
-14.6079 -9.48648 -2.75873 7.49994e-05 1
-20.1104 -13.0598 -2.09788 0.000142433 10
-20.1209 -13.0666 -1.25733 0.000143888 10
-20.1121 -13.061 -0.41859 0.000144603 10
-20.1221 -13.0675 0.418797 0.000144569 10
-20.1081 -13.0584 1.25654 0.000143786 10
-22.9859 -14.9272 5.32749 0.000119702 10
-22.9931 -14.9319 6.32952 0.00011576 10
-21.3798 -13.8842 6.83068 6.42176e-05 10
-8.51842 -5.5743 -2.72777 0.000541386 4
-9.67173 -6.329 -2.66849 0.000411449 4
-11.0299 -7.21774 -2.56224 9.33808e-05 4
-14.577 -9.53894 -2.75917 7.5004e-05 1
-20.0846 -13.143 -2.09996 0.00014271 10
-20.0904 -13.1468 -1.25829 0.000144169 10
-20.1006 -13.1535 -0.419303 0.000144886 10
-20.0939 -13.1491 0.419163 0.000144852 10
-20.1115 -13.1606 1.25961 0.000144066 10
-22.985 -15.0409 5.33941 0.000119167 10
-23.0036 -15.0531 6.34682 0.000115238 10
-21.3199 -13.9513 6.82707 6.42151e-05 10
-8.46267 -5.5801 -2.71614 0.000474436 4
-9.65254 -6.36467 -2.6693 0.000160667 4
-10.9886 -7.24565 -2.55851 0.000154445 4
-14.5289 -9.58005 -2.75637 7.50087e-05 1
-20.08 -13.2403 -2.1043 0.000142971 10
-20.0888 -13.2461 -1.26108 0.000144434 10
-20.0803 -13.2405 -0.41984 0.000145152 10
-20.0895 -13.2466 0.420032 0.000145117 10
-20.0793 -13.2399 1.26048 0.000144331 10
-22.9864 -15.1567 5.352 0.00011862 10
-23.0054 -15.1693 6.36191 0.000114706 10
-21.2746 -14.028 6.82822 6.42125e-05 10
-8.4343 -5.60373 -2.7133 0.000463785 4
-9.63933 -6.40435 -2.67182 0.000264524 4
-10.9647 -7.28495 -2.55886 9.09952e-05 4
-14.506 -9.63775 -2.75839 7.50134e-05 1
-20.0689 -13.3337 -2.108 0.000143216 10
-20.0761 -13.3385 -1.2632 0.000144682 10
-20.0696 -13.3342 -0.420588 0.000145401 10
-20.0633 -13.33 0.420456 0.000145367 10
-20.0673 -13.3327 1.26264 0.000144578 10
-23.0018 -15.2824 5.36797 0.000118063 10
-23.0141 -15.2905 6.37903 0.000114164 10
-21.219 -14.0979 6.82611 6.42098e-05 10
-8.3672 -5.60135 -2.69799 0.00041921 4
-9.19642 -6.15647 -2.555 0.000309404 4
-10.9411 -7.32443 -2.5593 0.000148473 4
-14.4646 -9.68321 -2.75694 7.50181e-05 1
-20.0467 -13.4201 -2.11058 0.000110494 10
-20.0595 -13.4287 -1.26509 0.000111629 10
-20.0685 -13.4347 -0.421545 0.000112188 10
-20.0545 -13.4253 0.421249 0.000112164 10
-20.0701 -13.4358 1.26576 0.000111558 10
-23.0207 -15.411 5.38489 0.000117496 10
-23.0186 -15.4096 6.39514 0.000113612 10
-21.1866 -14.1832 6.83156 6.42072e-05 10
-8.32405 -5.61464 -2.69038 0.000529303 4
-9.17797 -6.19062 -2.55586 0.000340139 4
-10.9197 -7.36542 -2.56028 5.50814e-05 4
-14.4311 -9.7339 -2.75701 7.50229e-05 1
-20.0218 -13.5049 -2.11291 0.000111105 10
-20.0224 -13.5053 -1.26572 0.000112246 10
-20.023 -13.5057 -0.421577 0.000112808 10
-20.0452 -13.5207 0.422045 0.000112785 10
-20.0389 -13.5164 1.26676 0.000112176 10
-23.0149 -15.5238 6.40913 0.00011305 10
-21.1303 -14.2526 6.82942 6.42045e-05 10
-8.28368 -5.62958 -2.68366 0.000381714 4
-9.1528 -6.22023 -2.55488 0.000285289 4
-10.8922 -7.4023 -2.55987 0.000162857 4
-14.4079 -9.7916 -2.75909 7.50278e-05 1
-20.0205 -13.6059 -2.11778 0.000111703 10
-20.0239 -13.6082 -1.26881 0.00011285 10
-20.0046 -13.5951 -0.422186 0.000113416 10
-20.0087 -13.5979 0.422271 0.000113392 10
-20.0111 -13.5995 1.268 0.000112779 10
-23.0294 -15.6508 6.42835 0.000112478 10
-21.0825 -14.3276 6.83008 6.42019e-05 10
-8.22343 -5.6307 -2.6705 0.00016275 4
-9.13905 -6.25764 -2.55712 0.000263355 4
-10.8636 -7.43845 -2.55925 0.000156878 4
-14.3522 -9.82713 -2.75497 7.50327e-05 1
-19.9964 -13.6918 -2.12026 0.000112286 10
-19.9902 -13.6876 -1.2697 0.000113441 10
-19.9951 -13.6909 -0.42299 0.000114009 10
-19.9832 -13.6828 0.42274 0.000113985 10
-20.0058 -13.6983 1.27069 0.000113369 10
-23.0535 -15.7851 6.45042 0.000111897 10
-21.0177 -14.3911 6.82533 6.41992e-05 10
-8.1973 -5.65494 -2.6684 0.000136514 4
-9.11929 -6.29098 -2.55772 0.000287507 4
-10.8321 -7.47256 -2.55795 0.000148503 4
-14.3382 -9.89125 -2.75889 7.50376e-05 1
-19.9564 -13.767 -2.1211 0.000112857 10
-19.9672 -13.7745 -1.27128 0.000114017 10
-19.9654 -13.7732 -0.423378 0.000114589 10
-19.9718 -13.7776 0.423512 0.000114564 10
-19.9617 -13.7706 1.27093 0.000113945 10
-19.1214 -13.191 2.03235 7.15796e-05 10
-23.0533 -15.9034 6.46585 0.000111306 10
-20.9778 -14.4716 6.82874 6.41964e-05 10
-8.16292 -5.67337 -2.66364 6.50089e-05 4
-9.09411 -6.32057 -2.55683 0.000272155 4
-10.8057 -7.51014 -2.55789 0.000160487 4
-14.2812 -9.92566 -2.75457 7.50425e-05 1
-19.9443 -13.8617 -2.12495 0.000113413 10
-19.9573 -13.8707 -1.27373 0.00011458 10
-19.9517 -13.8668 -0.42411 0.000115154 10
-19.9397 -13.8585 0.423856 0.00011513 10
-19.9611 -13.8733 1.27396 0.000114507 10
-19.1183 -13.2876 2.03694 5.5869e-05 10
-23.0691 -16.0335 6.48594 0.000110706 10
-20.9299 -14.5466 6.82963 6.41937e-05 10
-8.15948 -5.71333 -2.66901 7.47628e-05 4
-9.07915 -6.35729 -2.55885 0.000815947 4
-10.783 -7.5503 -2.55874 0.00016289 4
-14.2658 -9.98904 -2.75832 7.50475e-05 1
-19.9134 -13.9435 -2.12683 8.05518e-05 10
-19.9185 -13.9471 -1.27435 8.13841e-05 10
-19.9128 -13.9431 -0.424316 8.17959e-05 10
-19.9313 -13.956 0.424709 8.1782e-05 10
-19.9181 -13.9468 1.27432 8.13428e-05 10
-19.0818 -13.3612 2.03801 5.61402e-05 10
-23.07 -16.1538 6.50199 0.000110096 10
-20.8799 -14.6203 6.82993 6.41909e-05 10
-8.13063 -5.73553 -2.66611 0.000659887 4
-9.08708 -6.41023 -2.56738 0.000631236 4
-10.7625 -7.5921 -2.56015 0.000152119 4
-14.2125 -10.0258 -2.75477 7.50525e-05 1
-19.8938 -14.0335 -2.12995 8.13809e-05 10
-19.8813 -14.0247 -1.27509 8.22219e-05 10
-19.8963 -14.0353 -0.425005 8.26379e-05 10
-19.8888 -14.03 0.424844 8.26239e-05 10
-19.8909 -14.0315 1.27571 8.21799e-05 10
-19.0785 -13.4584 2.04267 5.64046e-05 10
-23.0749 -16.2776 6.51937 0.000109477 10
-20.8202 -14.687 6.82712 6.41881e-05 10
-8.12575 -5.77467 -2.6711 0.000604647 4
-9.0736 -6.44827 -2.56991 0.000875041 4
-10.7362 -7.62979 -2.56021 0.00013895 4
-14.189 -10.0836 -2.75702 7.50576e-05 1
-19.8482 -14.1054 -2.13033 8.21997e-05 10
-19.8677 -14.1192 -1.27737 8.30494e-05 10
-19.8604 -14.1141 -0.425289 8.34697e-05 10
-19.8702 -14.121 0.425499 8.34554e-05 10
-19.8716 -14.122 1.27762 8.30067e-05 10
-19.0433 -13.5333 2.04394 5.66624e-05 10
-23.0737 -16.3976 6.53516 0.00010885 10
-20.764 -14.7562 6.82554 6.41853e-05 10
-8.08618 -5.78914 -2.66472 0.000559156 4
-9.07101 -6.4942 -2.57558 0.000866372 4
-10.7028 -7.66248 -2.55863 0.000141353 4
-14.1536 -10.133 -2.75699 7.50626e-05 1
-19.8209 -14.1903 -2.1327 8.30081e-05 10
-19.8325 -14.1986 -1.27829 8.38663e-05 10
-19.8349 -14.2004 -0.425801 8.42907e-05 10
-19.8339 -14.1997 0.425779 8.42763e-05 10
-19.8321 -14.1983 1.27826 8.3823e-05 10
-19.0156 -13.6139 2.04606 4.05411e-05 10
-23.1011 -16.5387 6.55921 0.000108213 10
-20.7328 -14.8432 6.83229 6.41824e-05 10
-8.07576 -5.82442 -2.66797 0.00069572 4
-9.07138 -6.54248 -2.58215 0.000839345 4
-10.6764 -7.70009 -2.55873 0.000144955 4
-14.1072 -10.1744 -2.75486 7.50678e-05 1
-19.785 -14.2694 -2.13419 8.3806e-05 10
-19.7891 -14.2723 -1.27869 8.46726e-05 10
-19.7866 -14.2705 -0.425831 8.51012e-05 10
-19.7901 -14.2731 0.425907 8.50865e-05 10
-19.8028 -14.2823 1.27958 8.46287e-05 10
-18.9827 -13.6908 2.04765 4.09354e-05 10
-23.0971 -16.6581 6.57455 0.000107568 10
-20.679 -14.9142 6.83167 6.41796e-05 10
-8.06308 -5.85817 -2.67052 0.000627471 4
-9.07278 -6.59176 -2.58909 0.000824841 4
-10.6505 -7.73805 -2.55897 0.000164131 4
-14.0892 -10.2364 -2.75829 7.5073e-05 1
-19.7511 -14.35 -2.13592 5.54737e-05 10
-19.7547 -14.3526 -1.2797 5.60511e-05 10
-19.7576 -14.3548 -0.426284 5.63384e-05 10
-19.7544 -14.3524 0.426213 5.63323e-05 10
-19.7529 -14.3513 1.27959 5.60327e-05 10
-18.9589 -13.7745 2.05026 4.13246e-05 10
-23.1025 -16.7849 6.59272 0.000106914 10
-20.6234 -14.9838 6.83053 6.41767e-05 10
-8.02671 -5.87466 -2.66525 0.000702273 4
-9.07072 -6.63876 -2.5951 0.000810482 4
-10.6202 -7.77284 -2.5582 0.000130593 4
-14.0509 -10.2837 -2.7578 7.50782e-05 1
-19.722 -14.4344 -2.13822 5.64339e-05 10
-19.7168 -14.4305 -1.2805 5.70212e-05 10
-19.7182 -14.4315 -0.426517 5.73135e-05 10
-19.7217 -14.4341 0.426593 5.73072e-05 10
-19.7145 -14.4289 1.28035 5.70022e-05 10
-18.9267 -13.8522 2.05199 4.17086e-05 10
-23.1281 -16.9272 6.61685 0.000106252 10
-20.579 -15.0616 6.83321 6.41739e-05 10
-8.01448 -5.90878 -2.66802 0.000630769 4
-9.09371 -6.70446 -2.60835 0.000790327 4
-10.6088 -7.82145 -2.562 0.000154563 4
-13.9973 -10.3197 -2.75435 7.50835e-05 1
-19.6779 -14.5078 -2.13891 5.73868e-05 10
