VERSION 0.7
FIELDS x y z intensity label
SIZE 4 4 4 4 4
TYPE F F F F F
COUNT 1 1 1 1 1
WIDTH 1167
HEIGHT 1
VIEWPOINT 5.32736 45.9802 2.7287 0.808809 0.00051379 0.00054089 -0.588071
POINTS 1167
DATA ascii
-21.5763 14.2269 5.96668 6.28624e-05 10
-21.292 14.0395 6.8338 6.38673e-05 10
-8.32997 5.45098 -2.66743 0.000202326 4
-9.93425 6.50079 -2.74092 0.000300868 1
-11.0147 7.2078 -2.55871 0.00013733 4
-14.5453 9.51816 -2.75316 7.56209e-05 1
-17.6304 11.537 -2.58704 0.000100607 10
-17.6292 11.5362 -1.84323 0.000102127 10
-17.6169 11.5282 -1.10337 0.000103146 10
-17.6386 11.5424 -0.367946 0.000103654 10
-17.6153 11.5271 0.367458 0.000103644 10
-17.6402 11.5434 1.10483 0.000103116 10
-17.6386 11.5424 1.84422 0.000102076 10
-16.8008 10.9942 2.46531 4.96932e-05 10
-21.6088 14.1404 5.01972 6.43398e-05 10
-21.591 14.1288 5.95709 6.22698e-05 10
-21.3605 13.978 6.84009 6.38697e-05 10
-8.34275 5.41785 -2.66545 0.000372007 4
-9.97527 6.47801 -2.74598 0.000300858 1
-11.0314 7.16386 -2.55676 0.000134915 4
-14.5707 9.4623 -2.75169 7.56166e-05 1
-17.6593 11.4681 -2.58538 9.91314e-05 10
-17.6426 11.4572 -1.84044 0.000100628 10
-17.6462 11.4596 -1.1027 0.000101633 10
-17.6485 11.4611 -0.367315 0.000102133 10
-17.6572 11.4667 0.367496 0.000102123 10
-17.6464 11.4597 1.10271 0.000101603 10
-17.6468 11.46 1.84088 0.000100579 10
-16.8348 10.9326 2.46467 4.89586e-05 10
-21.6198 14.0401 5.01087 6.37184e-05 10
-21.6289 14.046 5.95398 6.16691e-05 10
-21.3902 13.8909 6.834 6.38721e-05 10
-8.35399 5.38378 -2.66302 0.00010442 4
-9.98068 6.43211 -2.74127 0.000300847 1
-11.0649 7.13085 -2.55875 0.000136113 4
-14.6054 9.41255 -2.75204 7.56124e-05 1
-17.6744 11.3904 -2.58176 9.76434e-05 10
-17.6788 11.3932 -1.84007 9.91178e-05 10
-17.6827 11.3957 -1.10248 0.000100107 10
-17.6807 11.3945 -0.367155 0.0001006 10
-17.6734 11.3897 0.367002 0.00010059 10
-17.676 11.3914 1.10206 0.000100078 10
-17.6738 11.39 1.83954 9.90702e-05 10
-16.8646 10.8685 2.46347 4.82183e-05 10
-21.6566 13.9567 5.00807 6.30888e-05 10
-21.6699 13.9653 5.95182 6.10604e-05 10
-21.4407 13.8176 6.83471 6.38744e-05 10
-8.38741 5.36397 -2.66769 0.000123995 4
-10.0055 6.39875 -2.74193 0.000300837 1
-11.0875 7.09076 -2.55824 0.000152971 4
-14.645 9.36587 -2.75332 7.56082e-05 1
-17.7104 11.3263 -2.58123 9.61431e-05 10
-17.7039 11.3221 -1.83855 9.75948e-05 10
-17.7053 11.323 -1.10142 9.85688e-05 10
-17.7164 11.3301 -0.367072 9.90539e-05 10
-17.7219 11.3336 0.367187 9.90445e-05 10
-17.7118 11.3271 1.10182 9.85408e-05 10
-17.7104 11.3263 1.83923 9.75485e-05 10
-21.6849 13.8681 5.00339 6.24509e-05 10
-21.694 13.8739 5.94508 6.04436e-05 10
-21.4985 13.7489 6.83778 6.38767e-05 10
-8.38476 5.32113 -2.66092 0.000114203 4
-10.0395 6.37125 -2.74514 0.000300826 1
-11.0998 7.04415 -2.55539 0.000180666 4
-14.667 9.30794 -2.75132 7.56041e-05 1
-21.7171 13.7821 4.99968 6.1805e-05 10
-21.7179 13.7826 5.93842 5.98191e-05 10
-21.5331 13.6653 6.83356 6.3879e-05 10
-8.42477 5.30536 -2.66772 4.89426e-05 4
-10.0615 6.33608 -2.7451 0.000300816 1
-11.1175 7.00109 -2.55382 0.000139709 4
-14.6979 9.25575 -2.75104 7.55999e-05 1
-21.7452 13.6937 4.99513 6.11511e-05 10
-21.7419 13.6916 5.93187 5.91867e-05 10
-21.5877 13.5945 6.83582 6.38813e-05 10
-8.4362 5.27153 -2.6655 9.78824e-05 4
-10.091 6.30556 -2.74712 0.000300805 1
-11.1543 6.96996 -2.55666 0.000137295 4
-14.7386 9.20969 -2.75263 7.55958e-05 1
-18.9594 11.8472 4.34567 0.000353151 10
-18.9622 11.8489 5.16217 0.000342195 10
-18.9539 11.8437 5.98869 0.000329765 10
-8.45566 5.24273 -2.66585 0.000130506 4
-10.1 6.2623 -2.74362 0.000300795 1
-11.168 6.92446 -2.55425 0.000162579 4
-14.7654 9.15493 -2.75165 7.55918e-05 1
-18.9268 11.7351 4.32877 0.000275615 10
-18.9223 11.7323 5.14014 0.000267098 10
-18.9155 11.7281 5.96358 0.000257431 10
-8.47332 5.21282 -2.66566 5.2201e-05 4
-10.1195 6.22557 -2.74298 0.000300785 1
-11.1986 6.88941 -2.55573 0.000154143 4
-14.7858 9.09631 -2.74953 7.55878e-05 1
-18.9164 11.6375 4.31709 0.000160691 10
-18.9331 11.6477 5.13197 0.000155738 10
-18.9118 11.6346 5.94957 0.000150115 10
-8.492 5.18354 -2.66583 6.85118e-05 4
-10.1297 6.18322 -2.73989 0.000793108 4
-11.2159 6.84623 -2.55422 0.000154137 4
-14.8275 9.05075 -2.75138 7.55838e-05 1
-8.4951 5.14482 -2.66115 0.000202267 4
-10.1652 6.15628 -2.74366 0.000713847 4
-11.2429 6.80896 -2.55494 0.000146906 4
-14.8617 9.00056 -2.75188 7.55798e-05 1
-8.53314 5.12723 -2.66745 0.000123967 4
-10.1626 6.1063 -2.73718 0.000715903 4
-11.2774 6.77614 -2.55738 0.000151716 4
-14.8843 8.94339 -2.75027 7.55759e-05 1
-19.0233 11.4304 4.31393 0.000117165 10
-19.0151 11.4254 5.1215 0.000113547 10
-19.0287 11.4336 5.94835 0.000109441 10
-8.53091 5.08544 -2.66118 0.000101128 4
-10.189 6.07387 -2.73857 0.00101194 4
-11.2918 6.73126 -2.5553 0.000161343 4
-14.9306 8.90042 -2.75307 7.5572e-05 1
-19.0914 11.3808 4.32034 0.00024182 10
-19.0881 11.3788 5.13043 0.000234368 10
-19.0749 11.371 5.95036 0.000225906 10
-8.56305 5.06418 -2.66568 3.91453e-05 4
-10.2026 6.0338 -2.73654 0.000939345 4
-11.3291 6.69999 -2.55843 0.00016254 4
-14.9657 8.85072 -2.75383 7.55681e-05 1
-19.1809 11.3436 4.3316 0.000240883 10
-19.1719 11.3382 5.14228 0.000233454 10
-19.176 11.3406 5.96948 0.000225019 10
-8.57299 5.02975 -2.66329 0.000293582 4
-10.2012 5.98502 -2.73055 0.000859418 4
-11.3384 6.65218 -2.55527 0.000122803 4
-14.9919 8.79571 -2.75298 7.55642e-05 1
-19.3067 11.3272 4.35104 0.000329988 10
-19.3183 11.334 5.17092 0.00031982 10
-19.3056 11.3265 5.9975 0.00030827 10
-8.59088 5.00001 -2.66341 0.000189192 4
-10.2285 5.95311 -2.73226 0.000834162 4
-11.3593 6.61127 -2.55477 0.00011076 4
-15.014 8.73834 -2.75142 7.55604e-05 1
-18.146 10.5612 -2.57794 7.28119e-05 10
-18.1491 10.563 -1.83719 7.38937e-05 10
-18.1534 10.5655 -1.10078 7.46136e-05 10
-18.1489 10.5629 -0.366539 7.49634e-05 10
-18.1554 10.5667 0.366671 7.4939e-05 10
-18.1336 10.554 1.09958 7.45409e-05 10
-18.1514 10.5643 1.83742 7.37733e-05 10
-17.3183 10.0795 2.46036 3.58404e-05 10
-22.0221 12.8172 5.88263 5.24504e-05 10
-22.0368 12.8257 6.83202 5.04812e-05 10
-8.61318 4.97283 -2.66493 0.000195711 4
-10.2221 5.90171 -2.72503 0.000995356 4
-11.4011 6.58242 -2.55898 0.000145667 4
-15.0457 8.68667 -2.75167 7.55567e-05 1
-18.1943 10.5045 -2.57958 7.44234e-05 10
-18.1926 10.5035 -1.83787 7.55296e-05 10
-18.1995 10.5075 -1.10135 7.62658e-05 10
-18.1895 10.5017 -0.366617 7.66238e-05 10
-18.1858 10.4996 0.366542 7.65992e-05 10
-18.1866 10.5 1.10057 7.61924e-05 10
-18.1887 10.5012 1.83748 7.54081e-05 10
-17.3499 10.017 2.45986 3.664e-05 10
-22.0574 12.7349 5.88014 5.17374e-05 10
-22.0512 12.7313 6.82267 4.97955e-05 10
-8.63929 4.94777 -2.66765 4.89264e-05 4
-10.2428 5.86611 -2.72509 0.000880138 4
-11.4238 6.54249 -2.55895 0.00017335 4
-15.0702 8.63079 -2.75061 7.55529e-05 1
-18.244 10.4484 -2.58143 7.60258e-05 10
-18.2279 10.4392 -1.83775 7.71563e-05 10
-18.2383 10.4452 -1.10148 7.79088e-05 10
-18.2238 10.4369 -0.36657 7.82748e-05 10
-18.2274 10.4389 0.366642 7.82501e-05 10
-18.2491 10.4514 1.10214 7.78347e-05 10
-18.2291 10.4399 1.83787 7.70338e-05 10
-17.388 9.95821 2.46032 3.74352e-05 10
-22.0821 12.6465 6.81852 4.91031e-05 10
-8.63567 4.90575 -2.66123 0.000238102 4
-10.2625 5.82992 -2.7249 0.00113252 4
-11.4297 6.493 -2.55518 0.000143249 4
-15.1154 8.58676 -2.75338 7.55492e-05 1
-18.2758 10.3821 -2.5808 7.76185e-05 10
-18.2817 10.3855 -1.83951 7.87732e-05 10
-18.2688 10.3781 -1.10113 7.95419e-05 10
-18.2732 10.3806 -0.366834 7.9916e-05 10
-18.2939 10.3924 0.367249 7.9891e-05 10
-18.2715 10.3796 1.10129 7.94672e-05 10
-18.2885 10.3893 1.84019 7.86496e-05 10
-17.4405 9.90756 2.46283 3.82257e-05 10
-22.1178 12.5647 6.81596 4.84042e-05 10
-8.66957 4.88505 -2.6664 0.000260927 4
-10.2733 5.78868 -2.72237 0.000835856 4
-11.4595 6.45711 -2.55679 0.000161299 4
-15.1509 8.53711 -2.7544 7.55455e-05 1
-18.3345 10.3309 -2.58397 7.92019e-05 10
-18.3148 10.3199 -1.8392 8.03806e-05 10
-18.3295 10.3281 -1.10261 8.11654e-05 10
-18.3374 10.3326 -0.367396 8.15475e-05 10
-18.3185 10.322 0.367018 8.15222e-05 10
-18.3298 10.3283 1.10263 8.109e-05 10
-18.3225 10.3242 1.83997 8.02559e-05 10
-17.4976 9.85936 2.46602 3.90117e-05 10
-22.1315 12.4704 6.80672 4.76989e-05 10
-8.68849 4.85583 -2.66699 0.000150029 4
-10.2906 5.75125 -2.72164 0.000740165 4
-11.4731 6.41211 -2.55481 0.000166108 4
-15.18 8.48379 -2.75428 7.55418e-05 1
-18.3693 10.2662 -2.58381 8.07751e-05 10
-18.3793 10.2719 -1.84207 8.19777e-05 10
-18.386 10.2756 -1.10384 8.27786e-05 10
-18.3831 10.274 -0.367591 8.31686e-05 10
-18.3691 10.2662 0.367312 8.31431e-05 10
-18.3837 10.2743 1.10371 8.27026e-05 10
-18.3771 10.2706 1.84185 8.1852e-05 10
-17.5307 9.7976 2.46586 3.97927e-05 10
-22.168 12.3893 6.80462 4.69874e-05 10
-8.6897 4.81678 -2.66218 0.000198947 4
-10.3113 5.71566 -2.72182 0.000664966 4
-11.5021 6.37571 -2.55629 0.00014564 4
-15.1929 8.42154 -2.75127 7.55382e-05 1
-18.4114 10.2056 -2.58471 8.23386e-05 10
-18.4259 10.2137 -1.84315 8.35649e-05 10
-18.4244 10.2128 -1.104 8.43817e-05 10
-18.4336 10.2179 -0.367885 8.47796e-05 10
-18.4345 10.2184 0.367904 8.47539e-05 10
-18.4268 10.2142 1.10415 8.43051e-05 10
-18.425 10.2132 1.84306 8.34382e-05 10
-17.5643 9.73607 2.46579 4.0569e-05 10
-22.2057 12.3088 6.80294 4.62695e-05 10
-8.72661 4.7975 -2.66835 9.45789e-05 4
-10.3211 5.67409 -2.71916 7.01631e-05 4
-11.527 6.33703 -2.5569 0.000143228 4
-15.2353 8.37566 -2.75363 7.55347e-05 1
-18.4582 10.1475 -2.58629 8.38916e-05 10
-18.4559 10.1462 -1.8426 8.51416e-05 10
-18.4672 10.1525 -1.10444 8.59742e-05 10
-18.4648 10.1511 -0.367798 8.63799e-05 10
-18.4631 10.1502 0.367765 8.63541e-05 10
-18.4579 10.1473 1.10388 8.58969e-05 10
-18.4606 10.1488 1.84307 8.50138e-05 10
-17.6121 9.68233 2.46774 4.13402e-05 10
-22.2298 12.2209 6.79722 4.55456e-05 10
-8.72081 4.75474 -2.66148 0.000166324 4
-10.3254 5.6296 -2.7151 0.000464159 4
-11.5537 6.29931 -2.55793 0.000178125 4
-15.2486 8.31382 -2.75079 7.55311e-05 1
-18.5105 10.0923 -2.58867 0.00015428 10
-18.5289 10.1023 -1.84636 0.000156589 10
-18.5095 10.0917 -1.10485 0.00015813 10
-18.5181 10.0964 -0.368157 0.000158887 10
-18.5229 10.099 0.36825 0.000158849 10
-18.5162 10.0954 1.10525 0.000158018 10
-18.5153 10.0949 1.845 0.000156402 10
-17.6628 9.6301 2.47012 4.21063e-05 10
-22.2583 12.1356 6.79295 4.48156e-05 10
-8.74436 4.72806 -2.66361 0.0002772 4
-10.3517 5.59715 -2.71686 0.000352442 4
-11.5831 6.26293 -2.55957 0.000135996 4
-15.2936 8.26921 -2.75367 7.55276e-05 1
-18.5851 10.0489 -2.59417 0.000155358 10
-18.5817 10.0471 -1.84811 0.000157684 10
-18.5705 10.041 -1.10639 0.000159237 10
-18.5791 10.0457 -0.368669 0.000159999 10
-18.5761 10.044 0.368609 0.000159961 10
-18.5889 10.051 1.10749 0.000159124 10
-18.5907 10.0519 1.849 0.000157497 10
-17.7086 9.57503 2.47184 4.28674e-05 10
-22.2778 12.0455 6.78601 4.40796e-05 10
-8.75698 4.69546 -2.66245 0.000163055 4
-10.364 5.55713 -2.71497 0.000430945 4
-11.6013 6.22058 -2.55879 0.000167281 4
-15.3114 8.20989 -2.7517 7.55241e-05 1
-18.6226 9.98534 -2.59453 0.000156417 10
-18.642 9.99575 -1.85063 0.00015876 10
-18.636 9.99253 -1.10821 0.000160324 10
-18.6213 9.98464 -0.368812 0.000161092 10
-18.6263 9.98734 0.368912 0.000161054 10
-18.6263 9.98732 1.10763 0.000160211 10
-18.6447 9.99722 1.8509 0.000158573 10
-17.7595 9.52255 2.47428 4.36232e-05 10
-22.3146 11.965 6.78447 4.33379e-05 10
-8.77485 4.66567 -2.66292 0.000123919 4
-10.3732 5.51554 -2.71233 0.000792987 4
-11.604 6.16994 -2.55461 0.000138393 4
-15.3341 8.15329 -2.75066 7.55206e-05 1
-18.6946 9.94012 -2.59972 0.000157458 10
-18.678 9.93127 -1.85075 0.000159818 10
-18.6945 9.94006 -1.10962 0.000161393 10
-18.686 9.93554 -0.369406 0.000162166 10
-18.6798 9.93223 0.369283 0.000162128 10
-18.6807 9.93272 1.1088 0.000161279 10
-18.6891 9.93717 1.85185 0.00015963 10
-17.7872 9.4576 2.47352 7.78183e-05 10
-22.3423 11.8796 6.78025 4.25902e-05 10
-8.79764 4.63847 -2.6649 0.000228266 4
-10.3759 5.4706 -2.70803 0.000908228 4
-11.6444 6.13938 -2.55877 0.000182914 4
-15.3747 8.10615 -2.75284 7.55172e-05 1
-18.7567 9.8893 -2.60353 0.000158481 10
-18.7475 9.88443 -1.8542 0.000160856 10
-18.7378 9.87934 -1.11014 0.000162442 10
-18.7593 9.89064 -0.370169 0.000163221 10
-18.7439 9.88253 0.369865 0.000163183 10
-18.7434 9.88228 1.11047 0.000162328 10
-18.7575 9.88972 1.85519 0.000160667 10
-17.8546 9.41368 2.47832 7.83376e-05 10
-22.3613 11.7898 6.77349 4.1837e-05 10
-8.81469 4.60821 -2.66518 0.000198913 4
-10.3973 5.43559 -2.70864 0.00100258 4
-11.6707 6.10129 -2.55986 6.61836e-05 4
-15.4011 8.0515 -2.75252 7.55138e-05 1
-18.7935 9.825 -2.60386 0.000159484 10
-18.8032 9.83007 -1.85631 0.000161876 10
-18.8163 9.83692 -1.11275 0.000163473 10
-18.7962 9.8264 -0.370218 0.000164257 10
-18.8126 9.83497 0.370541 0.000164218 10
-18.8021 9.8295 1.11191 0.000163358 10
-18.7937 9.82512 1.85537 0.000161687 10
-17.912 9.36416 2.48173 7.88479e-05 10
-22.3821 11.7011 6.76737 4.10782e-05 10
-10.4012 5.39146 -2.70473 0.000940533 4
-11.67 6.04917 -2.55506 0.000101077 4
-15.4313 7.99883 -2.75291 7.55104e-05 1
-18.8495 9.77067 -2.60688 0.000160469 10
-18.8478 9.76977 -1.85733 0.000162876 10
-18.8602 9.77619 -1.11332 0.000164484 10
-18.8631 9.77773 -0.370863 0.000165273 10
-18.8588 9.77549 0.370777 0.000165234 10
-18.858 9.77504 1.11319 0.000164369 10
-18.8622 9.77724 1.85875 0.000162686 10
-17.9535 9.30619 2.48296 7.93489e-05 10
-22.4076 11.615 6.76278 4.03139e-05 10
-8.84501 4.54572 -2.66468 0.000254335 4
-10.4228 5.35661 -2.70548 0.000871041 4
-11.7004 6.0132 -2.5571 9.50572e-05 4
-15.4611 7.94591 -2.75326 7.55071e-05 1
-18.9075 9.71714 -2.61019 0.00019933 10
-18.9099 9.71837 -1.8601 0.000202325 10
-18.9246 9.72592 -1.11511 0.000204326 10
-18.9253 9.72631 -0.371416 0.00020531 10
-18.9281 9.72772 0.371469 0.000205266 10
-18.9158 9.72142 1.11459 0.000204193 10
-18.9303 9.72888 1.86211 0.000202106 10
-18.0247 9.26344 2.48832 7.98407e-05 10
-22.4396 11.5324 6.76025 3.95443e-05 10
-8.86316 4.51601 -2.66539 7.49946e-05 4
-10.4225 5.31053 -2.70057 0.000865612 4
-11.7289 5.97616 -2.55875 0.000126338 4
-15.488 7.89152 -2.75313 7.55038e-05 1
-18.9819 9.67175 -2.61578 0.000199858 10
-18.9957 9.67882 -1.86521 0.000202862 10
-18.9885 9.6751 -1.11688 0.000204869 10
-18.9846 9.67314 -0.371914 0.000205856 10
-18.9901 9.67594 0.372021 0.000205812 10
-18.9931 9.67748 1.11715 0.000204737 10
-18.9773 9.66944 1.8634 0.000202643 10
-18.0592 9.20162 2.48864 8.03232e-05 10
-22.4726 11.4504 6.75811 3.87693e-05 10
-8.88605 4.48867 -2.66754 0.000189112 4
-10.442 5.27463 -2.70083 0.000917463 4
-11.7299 5.92522 -2.55445 0.000164835 4
-15.5019 7.83057 -2.75072 7.55005e-05 1
-19.0505 9.62311 -2.6206 0.000200363 10
-19.0486 9.62215 -1.86709 0.000203376 10
-19.058 9.6269 -1.11898 0.00020539 10
-19.0476 9.62164 -0.372488 0.00020638 10
-19.0549 9.62535 0.372631 0.000206336 10
-19.0642 9.63005 1.11935 0.000205257 10
-19.0656 9.63072 1.86875 0.000203157 10
-18.1134 9.14975 2.49169 8.07963e-05 10
-22.4906 11.3608 6.75154 3.79893e-05 10
-8.88602 4.44979 -2.66285 9.45541e-05 4
-10.4554 5.23569 -2.69956 0.000947924 4
-11.762 5.88999 -2.55695 0.000139564 4
-15.534 7.77886 -2.75159 7.54973e-05 1
-19.1238 9.5765 -2.62607 0.000200846 10
-19.1221 9.57564 -1.87101 0.000203868 10
-19.1021 9.56562 -1.1196 0.000205887 10
-19.1102 9.56968 -0.373057 0.00020688 10
-19.1045 9.56683 0.372945 0.000206836 10
-19.1166 9.57289 1.12046 0.000205755 10
-19.1132 9.57116 1.87013 0.000203648 10
-18.1795 9.10363 2.4964 8.12601e-05 10
-22.5261 11.2802 6.75035 3.7204e-05 10
-8.90622 4.42109 -2.66427 0.000104333 4
-10.4745 5.19958 -2.69978 0.000899315 4
-11.7935 5.85432 -2.55932 0.000139559 4
-15.5736 7.73082 -2.75381 7.54941e-05 1
-19.1707 9.51644 -2.62793 0.000201306 10
-19.174 9.51804 -1.87282 0.000204337 10
-19.167 9.51461 -1.12146 0.000206361 10
-19.1898 9.52592 -0.373959 0.000207358 10
-19.1804 9.52125 0.373776 0.000207313 10
-19.1871 9.52455 1.12263 0.000206229 10
-19.1944 9.5282 1.87482 0.000204117 10
-18.2423 9.05554 2.50066 8.17145e-05 10
-22.5629 11.2003 6.74961 3.6414e-05 10
-8.9195 4.38894 -2.66364 7.49878e-05 4
-10.4994 5.16633 -2.70153 0.000857693 4
-11.8107 5.81161 -2.55866 0.000218957 4
-15.6053 7.67875 -2.75465 7.54909e-05 1
-19.2547 9.47448 -2.63489 0.000201744 10
-19.2346 9.46462 -1.87551 0.000204783 10
-19.2553 9.4748 -1.12468 0.000206813 10
-19.2455 9.46995 -0.374397 0.000207812 10
-19.2497 9.47205 0.37448 0.000207767 10
-19.2458 9.47012 1.12413 0.00020668 10
-19.2447 9.46957 1.87649 0.000204563 10
-18.2924 9.00095 2.5032 0.000100754 10
-22.5891 11.1152 6.74579 3.56189e-05 10
-8.94431 4.36243 -2.66648 3.26027e-05 4
-10.5087 5.12546 -2.69932 0.000815881 4
-11.8358 5.7727 -2.5597 0.000197295 4
-15.6275 7.62204 -2.75386 7.54878e-05 1
-19.3201 9.42305 -2.63933 0.000201555 10
-19.301 9.41371 -1.87876 0.000204592 10
-19.3019 9.41415 -1.12547 0.000206621 10
-19.3058 9.41609 -0.37493 0.00020762 10
-19.2994 9.41293 0.374804 0.000207576 10
-19.3051 9.41573 1.12566 0.000206489 10
-19.3161 9.42108 1.88023 0.000204373 10
-18.3446 8.94726 2.50606 0.000100976 10
-22.6211 11.0331 4.89223 3.73618e-05 10
-22.6121 11.0287 5.80824 3.61708e-05 10
-22.599 11.0223 6.73722 3.48192e-05 10
-8.95653 4.32976 -2.66561 0.000127148 4
-10.5246 5.08777 -2.69881 0.00109212 4
-11.8484 5.72772 -2.55808 0.00018165 4
-15.6392 7.5603 -2.75126 7.54847e-05 1
-19.3837 9.37044 -2.64353 0.000201956 10
-19.3861 9.37158 -1.88384 0.000205001 10
-19.3676 9.36266 -1.12739 0.000207035 10
-19.3773 9.36735 -0.37568 0.000208036 10
-19.3642 9.36102 0.375426 0.000207992 10
-19.3632 9.36055 1.12714 0.000206903 10
-19.3675 9.36261 1.88204 0.000204781 10
-18.4272 8.90804 2.51308 0.000101187 10
-22.6367 10.943 4.8873 3.6498e-05 10
-22.6434 10.9462 5.80643 3.53348e-05 10
-22.6324 10.9409 6.73576 3.40147e-05 10
-8.97241 4.29886 -2.66585 0.000215168 4
-10.5165 5.03868 -2.69222 0.000565085 4
-11.871 5.68762 -2.55866 0.000185253 4
-15.6721 7.50883 -2.75242 7.54817e-05 1
-19.4445 9.31625 -2.64737 0.000202335 10
-19.4327 9.31057 -1.8852 0.000205387 10
-19.4288 9.30871 -1.12906 0.000207426 10
-19.4432 9.31563 -0.376326 0.000208429 10
-19.4433 9.31569 0.376328 0.000208385 10
-19.4345 9.31148 1.12939 0.000207293 10
-19.4326 9.31057 1.8852 0.000205167 10
-18.4746 8.85156 2.51532 0.000101387 10
-22.6749 10.864 4.88733 3.56295e-05 10
-22.665 10.8592 5.80221 3.44942e-05 10
-22.663 10.8583 6.73355 3.32058e-05 10
-8.9881 4.26787 -2.66607 0.000303185 4
-10.5516 5.01026 -2.6967 0.00100139 4
-11.879 5.64058 -2.55614 0.000120291 4
-15.7024 7.45607 -2.75315 7.54786e-05 1
-19.5126 9.26529 -2.65223 0.000202691 10
-19.5007 9.25961 -1.88865 0.00020575 10
-19.517 9.26734 -1.13229 0.000207794 10
-19.5003 9.25945 -0.376803 0.0002088 10
-19.5158 9.26678 0.377101 0.000208755 10
-19.5064 9.26233 1.13168 0.000207661 10
-19.5001 9.25934 1.8886 0.00020553 10
-18.5316 8.79945 2.51888 0.000101576 10
-22.6978 10.7777 4.88412 3.47563e-05 10
-22.7029 10.7801 5.80224 3.3649e-05 10
-22.704 10.7806 6.7345 3.23925e-05 10
-9.01063 4.24008 -2.66835 0.000140179 4
-10.5412 4.96029 -2.68959 0.000872157 4
-11.8952 5.59746 -2.5554 0.000180431 4
-15.7377 7.40561 -2.75479 7.54756e-05 1
-19.5685 9.20823 -2.65543 0.000203025 10
-19.5744 9.21102 -1.89267 0.00020609 10
-19.5828 9.21495 -1.13424 0.000208139 10
-19.5749 9.21123 -0.37762 0.000209147 10
-19.5821 9.21462 0.377758 0.000209102 10
-19.5796 9.21346 1.13405 0.000208006 10
-19.5835 9.21532 1.89355 0.000205871 10
-22.7088 10.686 4.87844 3.38784e-05 10
-22.715 10.6889 5.79577 3.27993e-05 10
-22.7254 10.6937 6.72973 3.15746e-05 10
-9.00436 4.1988 -2.66213 0.000293393 4
-10.5554 4.92205 -2.68882 0.00061873 4
-11.929 5.56258 -2.55847 0.000141934 4
-15.7547 7.34653 -2.75325 7.54726e-05 1
-19.6258 9.15169 -2.65887 0.000203336 10
-19.6285 9.15293 -1.8948 0.000206408 10
-19.6454 9.16079 -1.13601 0.000208461 10
-19.6409 9.1587 -0.378274 0.000209471 10
-19.6514 9.16358 0.378476 0.000209426 10
-19.6262 9.15185 1.1349 0.000208328 10
-19.6513 9.16355 1.897 0.000206188 10
-22.7435 10.6055 4.8779 3.2996e-05 10
-22.7464 10.6068 5.79431 3.19452e-05 10
-22.7345 10.6013 6.72143 3.07527e-05 10
-9.03721 4.17578 -2.66752 0.00021189 4
-10.5873 4.89203 -2.69259 0.000889389 4
-11.9442 5.519 -2.55759 0.000155161 4
-15.7768 7.28988 -2.75265 7.54697e-05 1
-19.7028 9.10399 -2.66498 0.000203626 10
-19.693 9.09943 -1.89794 0.000206703 10
-19.6971 9.10131 -1.13715 0.00020876 10
-19.7133 9.10881 -0.379054 0.000209772 10
-19.6935 9.0997 0.378674 0.000209727 10
-19.7025 9.10385 1.13747 0.000208627 10
-19.6936 9.09973 1.89801 0.000206483 10
-22.7843 10.5278 4.87875 3.21091e-05 10
-22.7677 10.5202 5.79034 3.10868e-05 10
-22.7716 10.5219 6.72149 2.99266e-05 10
-9.04004 4.13886 -2.66407 9.12739e-05 4
-10.5788 4.84334 -2.6861 0.000890682 4
-11.9589 5.47523 -2.55663 0.000128696 4
-15.794 7.23104 -2.75123 7.54668e-05 1
-19.7605 9.04706 -2.66848 0.000176115 10
-19.7513 9.04288 -1.90052 0.000178776 10
-19.7569 9.04541 -1.13877 0.000180554 10
-19.7653 9.04928 -0.379445 0.000181428 10
-19.7568 9.04539 0.379282 0.000181388 10
-19.778 9.05506 1.13999 0.000180434 10
-19.7763 9.05428 1.90291 0.000178577 10
-22.8007 10.439 4.87443 3.12181e-05 10
-22.8084 10.4425 5.7914 3.02243e-05 10
-22.7935 10.4357 6.71718 2.90965e-05 10
-9.0493 4.10494 -2.66256 0.000133648 4
-10.6105 4.81312 -2.68987 0.00123555 4
-11.9754 5.4323 -2.55609 0.000170787 4
-15.8282 7.17999 -2.75281 7.54639e-05 1
-19.8269 8.99386 -2.67319 0.000176725 10
-19.8287 8.99469 -1.90493 0.000179396 10
-19.8199 8.99072 -1.14059 0.000181181 10
-19.8364 8.99818 -0.380204 0.000182058 10
-19.8402 8.99991 0.380276 0.000182018 10
-19.84 8.9998 1.14174 0.000181061 10
-19.8238 8.99248 1.90446 0.000179197 10
-22.8376 10.3596 4.87455 3.03228e-05 10
-22.8214 10.3523 5.78548 2.93577e-05 10
-9.07756 4.07962 -2.66667 0.000195579 4
-10.6066 4.76678 -2.68464 0.000834589 4
-11.9886 5.38791 -2.55488 0.000144323 4
-15.8626 7.12894 -2.75445 7.54611e-05 1
-19.8974 8.94225 -2.67848 0.000177314 10
-19.875 8.9322 -1.90637 0.000179995 10
-19.8891 8.93853 -1.14277 0.000181787 10
-19.8834 8.93594 -0.380504 0.000182668 10
-19.879 8.93398 0.38042 0.000182627 10
-19.9038 8.94514 1.14362 0.000181666 10
-19.8925 8.94004 1.90805 0.000179796 10
-22.865 10.2759 4.87272 2.94236e-05 10
-9.09182 4.04794 -2.66669 6.51918e-05 4
-10.6364 4.73562 -2.68799 0.000564459 4
-12.0166 5.35015 -2.55685 0.000108239 4
-15.8851 7.07251 -2.75406 7.54583e-05 1
-19.945 8.88009 -2.6807 0.000177883 10
-19.9433 8.8793 -1.90993 0.000180574 10
-19.9564 8.88515 -1.14485 0.000182372 10
-19.9568 8.88533 -0.381313 0.000183256 10
-19.9385 8.87721 0.380964 0.000183216 10
-19.9578 8.88579 1.14493 0.000182252 10
-19.9494 8.88206 1.91052 0.000180374 10
-9.11481 4.02011 -2.66931 0.000162976 4
-10.6506 4.69749 -2.68743 0.000778042 4
-12.0337 5.3075 -2.55652 0.000134694 4
-15.8967 7.01128 -2.75181 7.54555e-05 1
-20.0028 8.82227 -2.6843 0.000178431 10
-20.0106 8.82571 -1.91341 0.000181132 10
-20.0079 8.82455 -1.14603 0.000182937 10
-20.0221 8.8308 -0.38197 0.000183824 10
-19.9991 8.82065 0.381531 0.000183784 10
-20.004 8.82284 1.14581 0.000182816 10
-20.0147 8.82752 1.91381 0.000180932 10
-9.11842 3.98375 -2.66627 3.58541e-05 4
-10.6643 4.65911 -2.68675 0.00088924 4
-12.0609 5.26927 -2.55837 0.000132285 4
-15.9358 6.96217 -2.75434 7.54528e-05 1
-20.0524 8.76068 -2.68684 0.000140096 10
-20.0609 8.76442 -1.9153 0.000142215 10
-20.0634 8.76548 -1.14745 0.000143631 10
-20.0765 8.77119 -0.382421 0.000144325 10
-20.0777 8.77174 0.382444 0.000144291 10
-20.0761 8.77102 1.14817 0.000143529 10
-20.0576 8.76296 1.91498 0.000142048 10
-9.13711 3.95398 -2.66769 0.000254233 4
-10.6759 4.61987 -2.6856 0.00119933 4
-12.0835 5.229 -2.55929 0.000139497 4
-15.9472 6.90097 -2.75214 7.54501e-05 1
-20.1171 8.70544 -2.69142 0.000141022 10
-20.1242 8.70851 -1.91842 0.000143156 10
-20.1065 8.70084 -1.14817 0.000144581 10
-20.1343 8.71291 -0.382942 0.000145281 10
-20.1219 8.70751 0.382704 0.000145247 10
-20.126 8.7093 1.14928 0.000144479 10
-20.1132 8.70378 1.91738 0.000142988 10
-9.13236 3.91414 -2.66229 8.47428e-05 4
-10.6824 4.57849 -2.6832 0.00075873 4
-12.0885 5.18115 -2.5565 0.00012867 4
-15.9798 6.84896 -2.75362 7.54474e-05 1
-20.1795 8.64897 -2.69573 0.000141931 10
-20.1774 8.64806 -1.9206 0.000144079 10
-20.1664 8.64333 -1.14986 0.000145514 10
-20.1782 8.64839 -0.383199 0.000146219 10
-20.1746 8.64687 0.383131 0.000146185 10
-20.189 8.65303 1.15115 0.000145412 10
-20.1779 8.64828 1.92065 0.00014391 10
-9.15802 3.88735 -2.6658 0.000140149 4
-10.6964 4.54036 -2.68272 0.00117991 4
-12.0995 5.13595 -2.55502 0.000159932 4
-15.9921 6.78823 -2.75164 7.54447e-05 1
-20.2303 8.58725 -2.69849 0.000142823 10
-20.2372 8.59018 -1.92343 0.000144986 10
-20.2282 8.58638 -1.15167 0.00014643 10
-20.2323 8.5881 -0.383655 0.00014714 10
-20.2394 8.59112 0.38379 0.000147105 10
-20.2367 8.58998 1.15215 0.000146328 10
-20.2298 8.58704 1.92272 0.000144816 10
-9.17219 3.85564 -2.66599 8.14805e-05 4
-10.6962 4.49626 -2.67871 0.00112211 4
-12.1217 5.09549 -2.55593 0.000169547 4
-16.0189 6.73372 -2.75219 7.54422e-05 1
-20.2853 8.52716 -2.70183 0.000143697 10
-20.2737 8.52227 -1.92405 0.000145875 10
-20.2888 8.52865 -1.15342 0.000147329 10
-20.2861 8.52749 -0.384108 0.000148043 10
-20.299 8.53291 0.384352 0.000148008 10
-20.2876 8.52812 1.15335 0.000147226 10
-20.2764 8.52344 1.92432 0.000145704 10
-9.19007 3.82546 -2.66729 9.77747e-05 4
-10.7224 4.46329 -2.68135 0.000894167 4
-12.1551 5.0597 -2.55925 0.000144291 4
-16.0532 6.68231 -2.75407 7.54396e-05 1
-20.3453 8.46892 -2.70587 9.8882e-05 10
-20.3469 8.46961 -1.92819 0.000100378 10
-20.3309 8.46295 -1.15412 0.000101377 10
-20.3343 8.46436 -0.38446 0.000101866 10
-20.3366 8.46529 0.384502 0.000101839 10
-20.3371 8.46551 1.15447 0.000101298 10
-20.3419 8.46751 1.92771 0.000100249 10
-9.20676 3.79475 -2.66828 7.49593e-05 4
-10.7402 4.42681 -2.68194 0.00108736 4
-12.1689 5.01564 -2.55843 0.000164729 4
-16.0666 6.62219 -2.75238 7.5437e-05 1
-20.3877 8.40322 -2.7076 0.000100084 10
-20.372 8.39673 -1.92778 0.000101598 10
-20.3832 8.40135 -1.15542 0.000102609 10
-20.3948 8.40613 -0.385046 0.000103105 10
-20.378 8.39923 0.384729 0.000103078 10
-20.389 8.40372 1.15575 0.000102531 10
-20.3971 8.40709 1.93015 0.000101469 10
-9.21051 3.75874 -2.66554 0.000149916 4
-10.7383 4.38222 -2.67762 0.000947702 4
-12.1871 4.97344 -2.55859 0.000144284 4
-16.0933 6.56753 -2.753 7.54345e-05 1
-20.4306 8.33756 -2.70941 0.000101273 10
-20.4277 8.33637 -1.93028 0.000102806 10
-20.4406 8.34165 -1.15702 0.00010383 10
-20.4302 8.33741 -0.385163 0.000104331 10
-20.4192 8.33292 0.384955 0.000104305 10
-20.4443 8.34316 1.15722 0.000103751 10
-20.4222 8.33415 1.92976 0.000102676 10
-9.22394 3.72672 -2.66565 0.000182503 4
-10.7456 4.34149 -2.67564 0.000993008 4
-12.2088 4.9327 -2.55954 0.00018035 4
-16.1217 6.5136 -2.75396 7.5432e-05 1
-20.461 8.2668 -2.7096 0.00010245 10
-20.4619 8.26716 -1.93078 0.000104002 10
-20.4883 8.27782 -1.15807 0.000105037 10
-20.466 8.2688 -0.385291 0.000105545 10
-20.4769 8.2732 0.385495 0.000105518 10
-20.4823 8.2754 1.15773 0.000104958 10
-20.4844 8.27624 1.9329 0.00010387 10
-9.23164 3.6924 -2.66413 0.000234643 4
-10.7681 4.30695 -2.6775 0.000726844 4
-12.2299 4.89162 -2.56036 0.000167121 4
-16.129 6.45115 -2.75134 7.54296e-05 1
-20.5163 8.20596 -2.71312 0.000103614 10
-20.5212 8.20791 -1.93366 0.000105184 10
-20.5275 8.2104 -1.15866 0.000106232 10
-20.5245 8.20921 -0.38585 0.000106745 10
-20.5319 8.2122 0.38599 0.000106718 10
-20.5282 8.21072 1.1587 0.000106151 10
-20.5235 8.20884 1.93388 0.000105051 10
-9.24525 3.66045 -2.66436 3.25888e-05 4
-10.7869 4.27085 -2.67845 0.000801656 4
-12.2243 4.83993 -2.55562 0.000192364 4
-16.1638 6.39969 -2.75345 7.54272e-05 1
-20.5723 8.14517 -2.71675 0.000104765 10
-20.5805 8.14841 -1.93656 0.000106353 10
-20.5658 8.14258 -1.15921 0.000107413 10
-20.5645 8.14208 -0.386066 0.000107933 10
-20.5616 8.1409 0.38601 0.000107906 10
-20.5727 8.1453 1.1596 0.000107332 10
-20.5589 8.13983 1.93452 0.00010622 10
-9.25008 3.62507 -2.66209 0.000182494 4
-10.7996 4.23231 -2.6779 0.000742838 4
-12.2571 4.80353 -2.55897 0.000193562 4
-16.1871 6.34367 -2.75364 7.54248e-05 1
-20.609 8.0766 -2.71785 0.000105904 10
-20.6141 8.07859 -1.93705 0.000107509 10
-20.6048 8.07492 -1.15981 0.000108581 10
-20.6104 8.07711 -0.386395 0.000109107 10
-20.6177 8.07999 0.386532 0.000109079 10
-20.6077 8.07606 1.15998 0.0001085 10
-20.6196 8.08075 1.93757 0.000107375 10
-9.28029 3.59959 -2.66715 0.000257443 4
-10.8085 4.19235 -2.67648 0.000832575 4
-12.2622 4.75619 -2.55654 0.000144266 4
-16.2137 6.28888 -2.75441 7.54224e-05 1
-20.6534 8.01091 -2.71999 6.15534e-05 10
-20.6578 8.01264 -1.93852 6.24842e-05 10
-20.6571 8.01238 -1.16118 6.31047e-05 10
-20.6476 8.00869 -0.386567 6.34075e-05 10
-20.6687 8.01684 0.386961 6.33892e-05 10
-20.6458 8.00799 1.16054 6.30499e-05 10
-20.648 8.00882 1.93759 6.23937e-05 10
-9.28169 3.56291 -2.66396 0.000407339 4
-10.8241 4.155 -2.67674 0.000900084 4
-12.2964 4.72015 -2.56023 0.000159891 4
-16.2191 6.22594 -2.75162 7.54202e-05 1
-20.6995 7.94578 -2.72239 6.29121e-05 10
-20.6907 7.94241 -1.93899 6.38638e-05 10
-20.6805 7.93851 -1.16093 6.44982e-05 10
-20.6865 7.9408 -0.386773 6.4808e-05 10
-20.6822 7.93916 0.386693 6.47895e-05 10
-20.7053 7.94801 1.16232 6.44429e-05 10
-20.6846 7.94007 1.93841 6.37722e-05 10
-9.29631 3.53134 -2.6646 3.25866e-05 4
-10.8298 4.11384 -2.67456 0.00102719 4
-12.3123 4.67698 -2.56011 0.00016109 4
-16.2393 6.16873 -2.75137 7.54179e-05 1
-20.7158 7.8692 -2.72092 6.4263e-05 10
-20.7291 7.87426 -1.94 6.52355e-05 10
-20.7327 7.8756 -1.16231 6.58839e-05 10
-20.732 7.87533 -0.387107 6.62006e-05 10
-20.7421 7.87919 0.387296 6.61819e-05 10
-20.7335 7.87592 1.16235 6.58279e-05 10
-20.7265 7.87326 1.93976 6.5143e-05 10
-9.311 3.49978 -2.6653 9.44997e-05 4
-10.8544 4.0799 -2.67711 0.000700091 4
-12.3299 4.63451 -2.5604 0.000132235 4
-16.2756 6.11761 -2.75389 7.54156e-05 1
-20.7708 7.80723 -2.72454 6.56057e-05 10
-20.7564 7.80183 -1.94 6.65988e-05 10
-20.7659 7.8054 -1.16264 6.7261e-05 10
-20.7582 7.80249 -0.387086 6.75845e-05 10
-20.7687 7.80644 0.387282 6.75655e-05 10
-20.7727 7.80795 1.16301 6.72044e-05 10
-20.7827 7.8117 1.94245 6.65052e-05 10
-9.31406 3.46387 -2.66269 0.000280236 4
-10.8577 4.03795 -2.67444 0.00104326 4
-12.3407 4.58947 -2.5593 0.000129828 4
-16.2829 6.05556 -2.75153 7.54134e-05 1
-20.8055 7.7375 -2.72554 6.69402e-05 10
-20.8151 7.74106 -1.94294 6.79539e-05 10
-20.7939 7.73318 -1.16268 6.86298e-05 10
-20.7951 7.73362 -0.387268 6.89602e-05 10
-20.811 7.73955 0.387565 6.8941e-05 10
-20.7988 7.73501 1.16296 6.85726e-05 10
-20.8229 7.74397 1.94367 6.78592e-05 10
-9.34226 3.43728 -2.66731 4.56191e-05 4
-10.8779 4.00228 -2.67594 0.000887213 4
-12.3566 4.54635 -2.5593 0.00017911 4
-16.3021 5.99802 -2.75123 7.54112e-05 1
-20.8548 7.67309 -2.72847 6.82661e-05 10
-20.8434 7.66887 -1.94307 6.93002e-05 10
-20.8579 7.67421 -1.16476 6.99898e-05 10
-20.8422 7.66846 -0.387646 7.03269e-05 10
-20.8427 7.66861 0.387653 7.03076e-05 10
-20.8383 7.667 1.16366 6.9932e-05 10
-20.8402 7.6677 1.94277 6.92045e-05 10
-9.35324 3.4043 -2.66704 0.000355172 4
-10.8963 3.96593 -2.67706 0.00105172 4
-12.3638 4.50006 -2.55752 7.21234e-05 4
-16.3374 5.94633 -2.75366 7.54091e-05 1
-20.8699 7.59604 -2.72696 6.95833e-05 10
-20.8779 7.59895 -1.94381 7.06377e-05 10
-20.8861 7.60193 -1.16484 7.13409e-05 10
-20.8777 7.59888 -0.38781 7.16848e-05 10
-20.8942 7.60488 0.388116 7.16653e-05 10
-20.8834 7.60093 1.16469 7.12825e-05 10
-20.8855 7.60171 1.94451 7.05411e-05 10
-9.35545 3.36817 -2.6643 0.000202022 4
-10.9 3.92424 -2.67458 0.00111931 4
-12.3765 4.45581 -2.55691 0.000134627 4
-16.3481 5.88567 -2.75198 7.5407e-05 1
-20.9192 7.53139 -2.72995 2.98237e-05 10
-20.913 7.52914 -1.94461 3.02728e-05 10
-20.9307 7.53552 -1.16586 3.05714e-05 10
-20.9247 7.53336 -0.388192 3.07159e-05 10
-20.9197 7.53157 0.388099 3.07048e-05 10
-20.9192 7.53137 1.16522 3.05379e-05 10
-20.9358 7.53736 1.94674 3.02175e-05 10
-9.36425 3.33446 -2.66347 0.000355162 4
-10.9014 3.88182 -2.67159 0.00064198 4
-12.3922 4.41267 -2.55696 0.000167079 4
-16.3901 5.83624 -2.7556 7.54049e-05 1
-20.9566 7.46232 -2.73141 3.12555e-05 10
-20.9385 7.45587 -1.94455 3.17266e-05 10
-20.9608 7.46381 -1.16607 3.20398e-05 10
-20.965 7.46531 -0.388454 3.21916e-05 10
-20.9651 7.46535 0.388456 3.21802e-05 10
-20.95 7.45998 1.16548 3.20056e-05 10
-20.9527 7.46094 1.94588 3.167e-05 10
-9.3953 3.30861 -2.669 0.000136849 4
-10.9105 3.84218 -2.6705 0.000694463 4
-12.4039 4.36809 -2.5562 0.000162267 4
-16.3935 5.77306 -2.75277 7.54029e-05 1
-20.9811 7.38861 -2.73123 3.26835e-05 10
-20.9899 7.39171 -1.94692 3.31764e-05 10
-20.9894 7.39155 -1.16622 3.35043e-05 10
-20.9843 7.38974 -0.388331 3.36634e-05 10
-20.9735 7.38594 0.388131 3.36517e-05 10
-20.9787 7.38776 1.16563 3.34695e-05 10
-20.9889 7.39136 1.94683 3.31188e-05 10
-9.3893 3.2697 -2.66404 6.84237e-05 4
-10.9454 3.81159 -2.67578 0.000448169 4
-12.424 4.32651 -2.55723 0.000100964 4
-16.4165 5.71684 -2.75327 7.54009e-05 1
-21.0077 7.31567 -2.73135 3.41072e-05 10
-20.9999 7.31295 -1.94547 3.46219e-05 10
-21.0136 7.31772 -1.16614 3.49644e-05 10
-21.0224 7.32078 -0.388561 3.51307e-05 10
-21.009 7.31612 0.388313 3.51188e-05 10
-21.0161 7.31858 1.16628 3.49289e-05 10
-21.0105 7.31664 1.94645 3.45631e-05 10
-9.39771 3.23589 -2.6632 0.000127071 4
-10.9541 3.7718 -2.67468 0.00028391 4
-12.45 4.28688 -2.55948 9.73565e-05 4
-16.4288 5.65688 -2.75199 7.53989e-05 1
-21.0432 7.24577 -2.73266 3.55267e-05 10
-21.035 7.24294 -1.94637 3.60631e-05 10
-21.0469 7.24701 -1.16658 3.64202e-05 10
-21.0497 7.24801 -0.388596 3.65937e-05 10
-21.0588 7.25111 0.388762 3.65816e-05 10
-21.0456 7.24659 1.16651 3.6384e-05 10
-21.0539 7.24943 1.94811 3.60032e-05 10
-9.42957 3.21009 -2.66904 0.00010752 4
-10.9597 3.73099 -2.67285 0.000919156 4
-12.4586 4.24124 -2.55818 0.000144229 4
-16.4679 5.60613 -2.75525 7.53969e-05 1
-21.0688 7.17241 -2.73272 3.69415e-05 10
-21.0741 7.17422 -1.94766 3.74996e-05 10
-21.0848 7.17785 -1.16728 3.78711e-05 10
-21.0755 7.1747 -0.388607 3.80518e-05 10
-21.0893 7.17939 0.388861 3.80395e-05 10
-21.0742 7.17424 1.16669 3.78342e-05 10
-21.0686 7.17235 1.94715 3.74386e-05 10
-9.4426 3.17779 -2.66957 0.000276942 4
-10.9678 3.69108 -2.67166 0.000881932 4
-12.4841 4.20136 -2.56039 0.000183888 4
-16.488 5.54883 -2.75536 7.53951e-05 1
-21.1191 7.10738 -2.73601 3.83515e-05 10
-21.0962 7.09966 -1.94739 3.89313e-05 10
-21.1037 7.10218 -1.16695 3.93172e-05 10
-21.0978 7.1002 -0.388559 3.95051e-05 10
-21.1033 7.10205 0.388659 3.94925e-05 10
-21.1266 7.10989 1.16821 3.92796e-05 10
-21.101 7.10126 1.94783 3.88691e-05 10
-9.4403 3.14037 -2.66581 0.00015313 4
-10.9863 3.65466 -2.67305 0.00104648 4
-12.4924 4.15567 -2.55911 0.000153838 4
-16.5046 5.49036 -2.75492 7.53932e-05 1
-21.1454 7.03413 -2.73621 3.97569e-05 10
-21.1429 7.03331 -1.94943 4.03581e-05 10
-21.1366 7.0312 -1.1674 4.07586e-05 10
-21.1364 7.03115 -0.388815 4.09535e-05 10
-21.1449 7.03396 0.38897 4.09407e-05 10
-21.1572 7.03807 1.16854 4.07203e-05 10
-21.1446 7.03388 1.94958 4.02948e-05 10
-9.44074 3.10396 -2.66286 0.000130322 4
-10.99 3.61333 -2.67086 0.00103908 4
-12.5105 4.11323 -2.55985 0.000152634 4
-16.5214 5.43196 -2.75453 7.53913e-05 1
-21.1775 6.96281 -2.73721 4.11569e-05 10
-21.1585 6.95658 -1.94862 4.17797e-05 10
-21.1717 6.96092 -1.168 4.21945e-05 10
-21.1673 6.95946 -0.388934 4.23966e-05 10
-21.1784 6.96312 0.389138 4.23835e-05 10
-21.1711 6.96072 1.16796 4.21555e-05 10
-21.1716 6.96087 1.94982 4.17153e-05 10
-9.45688 3.07273 -2.66437 0.000244351 4
-11.0156 3.5792 -2.67404 0.00100921 4
-12.5129 4.06569 -2.55743 0.000139411 4
-16.5443 5.37557 -2.75521 7.53896e-05 1
-9.48304 3.04467 -2.66873 8.47072e-05 4
-11.0116 3.53544 -2.67005 0.0010092 4
-12.5433 4.02721 -2.56075 0.000177866 4
-16.5542 5.31496 -2.75374 7.53878e-05 1
-9.4713 3.00447 -2.66245 0.000325793 4
-11.0422 3.50278 -2.67447 0.000904488 4
-12.5483 3.98056 -2.55893 0.000111765 4
-16.578 5.25885 -2.75464 7.5386e-05 1
-9.48338 2.97191 -2.66292 0.000267147 4
-11.0529 3.46376 -2.67412 0.000979142 4
-12.5533 3.93397 -2.55713 0.000159833 4
-16.5777 5.19513 -2.75156 7.53843e-05 1
-9.49578 2.93943 -2.6635 0.000107509 4
-11.0463 3.41941 -2.66964 0.00104626 4
-12.5688 3.8907 -2.55751 0.000147813 4
-16.61 5.14165 -2.75393 7.53827e-05 1
-9.50321 2.90543 -2.66273 0.000153117 4
-11.0788 3.38713 -2.67461 0.000986295 4
-12.5925 3.84991 -2.55957 0.00011897 4
-16.6301 5.08432 -2.75429 7.5381e-05 1
-9.52975 2.8772 -2.66733 0.000136827 4
-11.0979 3.35065 -2.67637 0.000918838 4
-12.5979 3.80354 -2.55797 0.00014901 4
-16.6476 5.02622 -2.75428 7.53794e-05 1
-9.54228 2.84468 -2.66804 0.000270393 4
-11.1015 3.30949 -2.67444 0.00104555 4
-12.617 3.76128 -2.55915 0.000162226 4
-16.6576 4.96586 -2.75305 7.53779e-05 1
-9.55118 2.81107 -2.66777 0.000136824 4
-11.1115 3.27031 -2.6741 0.000754053 4
-12.6219 3.71484 -2.55751 0.000163425 4
-16.6665 4.90521 -2.75166 7.53763e-05 1
-9.56114 2.77777 -2.66783 7.49265e-05 4
-11.126 3.2324 -2.67484 0.000806027 4
-12.6366 3.67126 -2.55786 0.000161019 4
-16.7058 4.85349 -2.75534 7.53748e-05 1
-9.5702 2.74421 -2.66767 0.000201974 4
-11.1438 3.19543 -2.67642 0.000925069 4
-12.6613 3.63056 -2.56028 0.000173033 4
-16.7116 4.79199 -2.75353 7.53733e-05 1
-9.58014 2.7109 -2.66778 9.1213e-05 4
-11.1466 3.15416 -2.67443 0.000842633 4
-12.665 3.58382 -2.55848 0.0001502 4
-16.7215 4.73171 -2.75242 7.53719e-05 1
-9.57945 2.67463 -2.66498 4.5606e-05 4
-11.1503 3.11322 -2.6727 0.000961478 4
-12.6745 3.53879 -2.5579 0.000159811 4
-16.7456 4.67545 -2.75368 7.53705e-05 1
-9.57976 2.6387 -2.66248 0.000114014 4
-11.159 3.07369 -2.67219 0.000879027 4
-12.68 3.49265 -2.55653 0.000185041 4
-16.7689 4.61891 -2.75484 7.53691e-05 1
-9.59929 2.60807 -2.66536 0.00011727 4
-11.1852 3.03895 -2.67592 0.00110932 4
-12.7142 3.45437 -2.56098 0.000142985 4
-16.7684 4.55586 -2.75213 7.53678e-05 1
-9.61169 2.57545 -2.6663 0.000208479 4
-11.184 2.99676 -2.67313 0.000766378 4
-12.7132 3.4065 -2.55837 0.000159804 4
-16.8087 4.50388 -2.75615 7.53665e-05 1
-9.61257 2.53975 -2.66406 0.000140071 4
-11.2019 2.95966 -2.6749 0.000803053 4
-12.7275 3.36275 -2.55887 0.000169414 4
-16.8009 4.439 -2.75232 7.53652e-05 1
-9.64193 2.51154 -2.66976 8.46931e-05 4
-11.2094 2.91983 -2.67425 0.00103284 4
-12.7331 3.31674 -2.55766 0.000146584 4
-16.8239 4.38231 -2.75357 7.5364e-05 1
-9.64793 2.47717 -2.66901 0.000130296 4
-11.225 2.88208 -2.67554 0.000772195 4
-12.7539 3.27463 -2.55951 0.000140574 4
-16.8509 4.32657 -2.75549 7.53629e-05 1
-9.64566 2.44073 -2.66601 0.000221501 4
-11.2468 2.84589 -2.67837 0.00107577 4
-12.7701 3.23134 -2.5605 0.000158595 4
-16.8645 4.26737 -2.75525 7.53617e-05 1
-9.64818 2.40556 -2.66437 0.000156353 4
-11.2605 2.80755 -2.67927 0.00103782 4
-12.7642 3.18247 -2.55707 0.000174212 4
-16.8851 4.20992 -2.7562 7.53605e-05 1
-9.66341 2.37356 -2.66627 0.000214983 4
-11.2703 2.76826 -2.6793 0.000999878 4
-12.7767 3.13827 -2.55736 0.000151383 4
-16.8905 4.14871 -2.75471 7.53595e-05 1
-23.138 5.68325 4.63126 0.000272745 10
-23.1548 5.68736 5.5046 0.000264086 10
-23.1437 5.68464 6.38566 0.000254276 10
-9.68126 2.34214 -2.66892 0.000289899 4
-11.2938 2.73226 -2.6826 0.00102116 4
-12.7808 3.092 -2.556 6.36761e-05 4
-16.889 4.08589 -2.75213 7.53584e-05 1
-22.0982 5.34612 4.41937 0.000317523 10
-22.1044 5.34762 5.25042 0.000307585 10
-22.1146 5.35008 6.09653 0.00029632 10
-9.67104 2.30397 -2.66387 0.000100975 4
-11.3032 2.6928 -2.68258 0.000835367 4
-12.8051 3.0506 -2.55871 0.000116538 4
-16.9089 4.02828 -2.75306 7.53574e-05 1
-21.7147 5.17317 -2.74085 3.28453e-05 10
-21.707 5.17133 -1.95226 3.33433e-05 10
-21.7293 5.17665 -1.17065 3.36754e-05 10
-21.7175 5.17385 -0.38969 3.38377e-05 10
-21.7197 5.17437 0.389729 3.38282e-05 10
-21.7098 5.17201 1.1696 3.3647e-05 10
-21.721 5.17468 1.95352 3.32962e-05 10
-9.67491 2.26923 -2.66274 0.000136804 4
-11.3074 2.65214 -2.68137 0.000827146 4
-12.8225 3.00749 -2.56008 0.000158586 4
-16.9257 3.96989 -2.75352 7.53564e-05 1
-21.7465 5.1006 -2.7426 3.42511e-05 10
-21.7401 5.09911 -1.95363 3.47707e-05 10
-21.7415 5.09942 -1.17034 3.51172e-05 10
-21.7516 5.1018 -0.38998 3.52866e-05 10
-21.7478 5.10091 0.389911 3.52768e-05 10
-21.7373 5.09845 1.17012 3.5088e-05 10
-21.7558 5.10278 1.95504 3.47224e-05 10
-21.7431 5.09982 2.74217 2.9288e-05 10
-21.7454 5.10034 3.5376 2.86846e-05 10
-9.68563 2.2361 -2.66352 0.00015309 4
-11.3067 2.61037 -2.67903 0.000863169 4
-12.8309 2.96224 -2.55968 0.000152578 4
-16.9462 3.91234 -2.75462 7.53555e-05 1
-21.7756 5.02731 -2.74404 3.56527e-05 10
-21.7738 5.02689 -1.95507 3.61938e-05 10
-21.7698 5.02595 -1.17092 3.65546e-05 10
-21.7818 5.02872 -0.390204 3.67311e-05 10
-21.7628 5.02433 0.389862 3.67211e-05 10
-21.7737 5.02685 1.17113 3.65248e-05 10
-21.77 5.026 1.95473 3.61443e-05 10
-21.764 5.02461 2.74257 3.04875e-05 10
-21.7714 5.02631 3.53895 2.98595e-05 10
-21.7815 5.02866 4.34526 2.90906e-05 10
-9.70617 2.20519 -2.66704 0.000117259 4
-11.3369 2.57568 -2.68403 0.000818013 4
-12.8316 2.91527 -2.55778 0.000157382 4
-16.9586 3.8529 -2.75442 7.53545e-05 1
-21.8035 4.95364 -2.74536 3.70496e-05 10
-21.7802 4.94835 -1.95408 3.7612e-05 10
-21.8061 4.95424 -1.17194 3.79873e-05 10
-21.7966 4.95208 -0.390157 3.81709e-05 10
-21.809 4.95489 0.390379 3.81606e-05 10
-21.8052 4.95402 1.17188 3.79567e-05 10
-21.8019 4.95328 1.95603 3.75615e-05 10
-21.7866 4.94981 2.74323 3.16829e-05 10
-21.7979 4.95237 3.54043 3.10303e-05 10
-21.8019 4.95327 4.34586 3.02313e-05 10
-21.794 4.95149 5.15978 2.92952e-05 10
-9.7183 2.1723 -2.66827 0.000162859 4
-11.3526 2.5376 -2.68562 0.000927505 4
-12.8471 2.87166 -2.55885 0.000168193 4
-16.9795 3.79536 -2.75565 7.53536e-05 1
-21.829 4.87936 -2.74641 3.84419e-05 10
-21.8154 4.87632 -1.9557 3.90257e-05 10
-21.8089 4.87487 -1.17116 3.94152e-05 10
-21.8186 4.87705 -0.390244 3.96059e-05 10
-21.8254 4.87856 0.390365 3.95954e-05 10
-21.8103 4.87517 1.17123 3.93839e-05 10
-21.8088 4.87485 1.95511 3.8974e-05 10
-21.8365 4.88103 2.74735 3.28744e-05 10
-21.8144 4.87611 3.54033 3.21974e-05 10
-21.8308 4.87977 4.3482 3.13684e-05 10
-21.8346 4.88062 5.16532 3.03971e-05 10
-21.8418 4.88222 5.99692 2.92948e-05 10
-9.70408 2.13358 -2.66231 0.000371317 4
-11.3476 2.49493 -2.68237 0.000882301 4
-12.8531 2.82594 -2.55806 0.000152574 4
-16.9735 3.73187 -2.75255 7.53528e-05 1
-21.825 4.79853 -2.74378 3.98291e-05 10
-21.834 4.80052 -1.95585 4.04342e-05 10
-21.838 4.80139 -1.17182 4.08379e-05 10
-21.8326 4.80022 -0.390192 4.10356e-05 10
-21.8428 4.80245 0.390374 4.1025e-05 10
-21.8579 4.80578 1.17288 4.08059e-05 10
-21.8441 4.80275 1.95676 4.03813e-05 10
-21.8567 4.80551 2.74776 3.40616e-05 10
-21.8618 4.80664 3.54527 3.33601e-05 10
-21.8518 4.80444 4.34902 3.25012e-05 10
-21.8469 4.80335 5.16421 3.14949e-05 10
-21.8496 4.80395 5.99441 3.03528e-05 10
-9.73766 2.10536 -2.66949 9.77144e-05 4
-11.3657 2.45735 -2.68461 0.00099138 4
-12.8703 2.78265 -2.55953 0.00016819 4
-17.0084 3.67734 -2.7561 7.53519e-05 1
-21.8756 4.72967 -2.74805 4.12114e-05 10
-21.8772 4.73001 -1.95823 4.18377e-05 10
-21.8606 4.72643 -1.17214 4.22556e-05 10
-21.8643 4.72722 -0.39046 4.24604e-05 10
-21.866 4.7276 0.390491 4.24494e-05 10
-21.8619 4.72671 1.17221 4.2223e-05 10
-21.8651 4.72741 1.95715 4.17836e-05 10
-21.8673 4.72787 2.747 3.52445e-05 10
-21.8696 4.72837 3.54384 3.45188e-05 10
-21.8832 4.73131 4.35194 3.36301e-05 10
-21.8724 4.72898 5.16632 3.25888e-05 10
-21.8631 4.72698 5.99357 3.14071e-05 10
-9.72394 2.06689 -2.66373 0.000270342 4
-11.3915 2.42133 -2.68868 0.00111481 4
-12.88 2.73774 -2.55956 0.000164585 4
-17.0094 3.61546 -2.75421 7.53511e-05 1
-21.8852 4.65185 -2.7472 4.25882e-05 10
-21.8925 4.65339 -1.95813 4.32357e-05 10
-21.8936 4.65364 -1.17303 4.36678e-05 10
-21.8901 4.65288 -0.390629 4.38795e-05 10
-21.8836 4.65151 0.390513 4.38683e-05 10
-21.8913 4.65313 1.1729 4.36344e-05 10
-21.905 4.65606 1.95926 4.31805e-05 10
-21.8878 4.6524 2.74752 3.64228e-05 10
-21.8843 4.65165 3.54356 3.56728e-05 10
-21.9068 4.65644 4.35338 3.47544e-05 10
-21.9063 4.65633 5.17045 3.36783e-05 10
-21.9045 4.65594 6.00041 3.24571e-05 10
-9.75142 2.03718 -2.66929 0.000110742 4
-11.3911 2.37973 -2.68662 0.00101814 4
-12.895 2.6939 -2.56064 0.000165785 4
-17.0258 3.55689 -2.75485 7.53504e-05 1
-21.9211 4.57956 -2.74968 4.39596e-05 10
-21.9166 4.57862 -1.95885 4.46281e-05 10
-21.9277 4.58094 -1.17399 4.50743e-05 10
-21.9235 4.58007 -0.390939 4.5293e-05 10
-21.9128 4.57784 0.390748 4.52816e-05 10
-21.9142 4.57813 1.17327 4.50402e-05 10
-21.9105 4.57735 1.9583 4.45718e-05 10
-21.9209 4.57953 2.74966 3.75964e-05 10
-21.9089 4.57703 3.54495 3.68223e-05 10
-21.9157 4.57843 4.35194 3.58743e-05 10
-21.9147 4.57822 5.16863 3.47635e-05 10
-21.9199 4.57932 6.00023 3.35029e-05 10
-9.7374 1.9988 -2.66353 4.23422e-05 4
-11.4194 2.34407 -2.69135 0.000943617 4
-12.9001 2.64801 -2.5598 0.000176595 4
-17.0325 3.49627 -2.75393 7.53497e-05 1
-21.9427 4.50418 -2.7504 4.53256e-05 10
-21.9471 4.50509 -1.96016 4.60151e-05 10
-21.928 4.50117 -1.17316 4.64753e-05 10
-21.9311 4.50182 -0.390792 4.67009e-05 10
-21.9382 4.50328 0.390918 4.66893e-05 10
-21.9486 4.5054 1.17426 4.64406e-05 10
-21.9481 4.50529 1.96024 4.59576e-05 10
-21.9541 4.50653 2.75183 3.87654e-05 10
-21.9449 4.50464 3.5482 3.79672e-05 10
-21.9478 4.50523 4.35517 3.69898e-05 10
-21.9342 4.50246 5.16951 3.58444e-05 10
-21.9458 4.50483 6.00297 3.45445e-05 10
-9.76173 1.96831 -2.66829 0.000198682 4
-11.4255 2.3038 -2.69088 0.000920389 4
-12.89 2.59908 -2.55598 0.000180198 4
-17.0474 3.43736 -2.75438 7.5349e-05 1
-21.9667 4.42926 -2.75145 4.66856e-05 10
-21.976 4.43115 -1.96135 4.7396e-05 10
-21.9703 4.43 -1.17459 4.78702e-05 10
-21.9767 4.43129 -0.391326 4.81027e-05 10
-21.967 4.42934 0.391153 4.80908e-05 10
-21.9659 4.42911 1.17435 4.78348e-05 10
-21.9764 4.43122 1.96138 4.73374e-05 10
-21.9604 4.42801 2.75067 3.99293e-05 10
-21.9664 4.4292 3.54915 3.91071e-05 10
-21.9569 4.42729 4.35388 3.81003e-05 10
-21.9778 4.4315 5.17609 3.69206e-05 10
-21.9853 4.43302 6.00951 3.55816e-05 10
-9.75893 1.93232 -2.66566 0.000169367 4
-11.4261 2.26242 -2.68913 0.000926364 4
-12.9233 2.55889 -2.56081 0.000139352 4
-17.0535 3.37668 -2.75344 7.53484e-05 1
-21.9875 4.35364 -2.75214 4.80398e-05 10
-21.9952 4.35516 -1.96169 4.8771e-05 10
-21.9921 4.35456 -1.17493 4.92591e-05 10
-21.9775 4.35166 -0.391066 4.94986e-05 10
-21.9931 4.35475 0.391344 4.94865e-05 10
-21.998 4.35572 1.17525 4.9223e-05 10
-21.9826 4.35267 1.96057 4.87112e-05 10
-21.9851 4.35318 2.75184 4.10882e-05 10
-21.9949 4.35511 3.55128 4.02422e-05 10
-22.0024 4.35659 4.35987 3.92061e-05 10
-21.9836 4.35287 5.17384 3.79921e-05 10
-22.011 4.3583 6.01234 3.66142e-05 10
-9.77775 1.9006 -2.66898 0.000172624 4
-11.4349 2.22273 -2.68938 0.000924994 4
-12.9188 2.51116 -2.55816 8.6494e-05 4
-17.0767 3.31937 -2.7553 7.53478e-05 1
-22.0002 4.27641 -2.75184 4.93877e-05 10
-22.0194 4.28015 -1.96251 5.01396e-05 10
-22.0182 4.27991 -1.17552 5.06416e-05 10
-22.0123 4.27877 -0.391418 5.08879e-05 10
-22.0001 4.27639 0.3912 5.08756e-05 10
-22.0109 4.27849 1.17513 5.06048e-05 10
-22.0077 4.27787 1.96146 5.00787e-05 10
