VERSION 0.7
FIELDS x y z intensity label
SIZE 4 4 4 4 4
TYPE F F F F F
COUNT 1 1 1 1 1
WIDTH 1178
HEIGHT 1
VIEWPOINT 1.55432 44.1268 2.72629 0.877484 0.000751772 0.00115683 -0.479604
POINTS 1178
DATA ascii
3.69565 9.14705 -2.64343 0.000235655 4
4.20349 10.404 -2.59059 0.00105664 4
5.08513 12.5861 -2.63863 7.94674e-05 4
6.17441 15.2822 -2.61055 0.000118835 4
8.07942 19.9972 -2.64818 3.08547e-05 4
3.65997 9.15057 -2.64074 6.39558e-05 4
4.16863 10.4223 -2.59151 0.00125233 4
5.0375 12.5947 -2.63672 0.000151074 4
6.05655 15.1424 -2.58305 0.000120007 4
7.97851 19.9477 -2.63792 2.94083e-05 4
3.62765 9.16238 -2.64048 0.000212038 4
4.1379 10.4511 -2.59507 0.00102005 4
4.99933 12.6269 -2.63979 0.000151047 4
5.93636 14.9935 -2.5541 0.000116438 4
3.59948 9.18479 -2.6433 4.71139e-05 4
4.09911 10.4597 -2.59363 0.00112802 4
4.956 12.6462 -2.6402 0.000164445 4
5.81188 14.8302 -2.5228 0.000120713 4
7.82491 19.9668 -2.63316 3.59195e-05 4
3.56743 9.19738 -2.64332 0.000228811 4
4.06819 10.4884 -2.59721 0.00116458 4
4.90546 12.647 -2.63678 0.000164416 4
5.76161 14.8543 -2.52347 6.44964e-05 4
7.74562 19.9694 -2.62992 4.31292e-05 4
3.53524 9.20963 -2.64328 0.000198503 4
4.03211 10.504 -2.59757 0.00111457 4
4.85885 12.6578 -2.63546 0.000104 4
5.70979 14.8745 -2.5235 7.5229e-05 4
7.68326 20.0156 -2.63245 3.99944e-05 4
3.49636 9.20422 -2.63821 0.000299401 4
3.99711 10.5225 -2.59867 0.000923828 4
4.81782 12.683 -2.63721 0.000133052 4
6.07972 16.005 -2.71167 7.99156e-05 1
3.46872 9.22838 -2.64164 0.000218637 4
3.96234 10.5416 -2.59997 0.000983899 4
4.77949 12.7156 -2.6405 0.000149796 4
6.02886 16.0395 -2.71394 7.98974e-05 1
3.43736 9.24278 -2.64232 0.000158072 4
3.93047 10.5687 -2.60325 0.00103582 4
4.73568 12.7339 -2.64084 0.000134122 4
5.96553 16.0408 -2.71062 7.98793e-05 1
3.40284 9.24865 -2.64058 0.000211858 4
3.89496 10.5862 -2.60419 0.00107187 4
4.68465 12.7325 -2.63715 0.000136333 4
5.91155 16.0671 -2.71156 9.42002e-05 4
3.37058 9.2606 -2.64062 9.07852e-05 4
3.86158 10.6096 -2.60662 0.0010612 4
4.64041 12.7494 -2.63728 0.000216754 4
5.83081 16.02 -2.70016 5.22387e-05 4
3.33993 9.27701 -2.64196 0.000326114 4
3.83448 10.6507 -2.6134 0.000934661 4
4.60081 12.7792 -2.64011 0.000208896 4
5.7607 16.0009 -2.69354 7.31741e-05 4
3.30473 9.28077 -2.63973 4.70623e-05 4
3.79532 10.6585 -2.61205 0.000901214 4
4.52749 12.7147 -2.62349 6.04732e-05 4
5.68753 15.9724 -2.68538 8.46529e-05 4
3.27895 9.31107 -2.64508 7.05849e-05 4
3.75764 10.6704 -2.61174 0.00111369 4
4.44339 12.6177 -2.60026 7.02077e-05 4
5.61085 15.9329 -2.67542 8.50556e-05 4
3.2447 9.3175 -2.64367 0.000645268 4
3.72512 10.6971 -2.61507 0.000949623 4
4.35851 12.5159 -2.57615 6.75954e-05 4
5.53971 15.9079 -2.66796 8.67264e-05 4
3.2093 9.32048 -2.64132 0.000608225 4
3.6892 10.7142 -2.6161 0.000839917 4
4.27008 12.4012 -2.54945 6.48761e-05 4
5.46727 15.8781 -2.65975 9.03563e-05 4
3.17369 9.32264 -2.63877 0.00066191 4
3.65552 10.738 -2.61878 0.00101249 4
4.19319 12.3174 -2.52919 0.000126801 4
5.39761 15.8554 -2.65277 8.75243e-05 4
3.14905 9.3572 -2.64543 0.000638312 4
3.62371 10.7676 -2.6229 0.00119914 4
4.14844 12.3268 -2.52815 0.000165691 4
5.32307 15.8172 -2.64326 8.92335e-05 4
3.115 9.36403 -2.64427 0.000597924 4
3.58407 10.7741 -2.62142 0.000953317 4
4.10705 12.3462 -2.52916 0.000186997 4
5.25974 15.8114 -2.6392 4.04766e-05 4
3.07552 9.35425 -2.63846 6.38154e-05 4
3.55707 10.8189 -2.62927 0.00101066 4
4.06059 12.3504 -2.52709 0.000156849 4
5.20318 15.8256 -2.63852 9.14457e-05 4
3.04513 9.37194 -2.64043 0.000292172 4
3.51957 10.8321 -2.62949 0.00105255 4
4.32211 13.3021 -2.71873 0.000169874 1
5.14226 15.8262 -2.63563 0.000106662 4
3.01616 9.39423 -2.64373 0.000342504 4
3.48262 10.8471 -2.63015 0.000839322 4
4.27359 13.3107 -2.71742 0.000169844 1
5.09498 15.869 -2.63977 8.98279e-05 4
2.98136 9.39842 -2.64197 0.000214878 4
3.44587 10.8628 -2.63102 0.000709592 4
4.23001 13.3347 -2.71928 0.000169813 1
5.03442 15.8705 -2.63708 9.55844e-05 4
2.95182 9.41924 -2.64491 0.000124211 4
3.41173 10.8868 -2.63395 0.00111669 4
4.17978 13.3377 -2.71691 8.13253e-05 4
2.92081 9.43561 -2.64662 0.000181258 4
3.37753 10.911 -2.63694 0.000816144 4
4.12128 13.3137 -2.70907 0.000118259 4
2.88272 9.42894 -2.64192 8.39056e-05 4
3.34142 10.9293 -2.63852 0.000939058 4
4.06912 13.3095 -2.70531 7.44782e-05 4
4.8713 15.9333 -2.63889 4.30359e-05 4
2.84898 9.43629 -2.64117 0.000261753 4
3.30514 10.9472 -2.64003 0.00113476 4
4.00843 13.2766 -2.69576 7.99957e-05 4
2.8177 9.45177 -2.64274 0.000134216 4
3.27059 10.971 -2.643 0.00100595 4
3.95627 13.271 -2.69182 0.000105393 4
2.78684 9.46886 -2.64478 7.04545e-05 4
3.2371 10.9987 -2.64695 0.00103164 4
3.89972 13.2501 -2.68479 9.26305e-05 4
2.74955 9.464 -2.64072 0.000214692 4
3.20208 11.0216 -2.64976 0.000991474 4
3.8406 13.2194 -2.67584 0.000100521 4
4.64977 16.0046 -2.63969 4.50936e-05 4
2.72213 9.4932 -2.6462 6.37287e-05 4
3.16804 11.0483 -2.65349 0.000690046 4
3.78306 13.1931 -2.66783 0.000116903 4
2.68226 9.4789 -2.63959 0.000221346 4
3.20584 11.3292 -2.71825 0.000310711 1
3.73118 13.1857 -2.66368 0.000103292 4
2.65478 9.50835 -2.6452 0.000204552 4
3.16651 11.3411 -2.71845 0.000310665 1
3.67205 13.1518 -2.65423 9.42495e-05 4
2.62178 9.5183 -2.6454 0.000137468 4
3.12628 11.3499 -2.71791 0.000310619 1
3.62052 13.1442 -2.65013 8.20663e-05 4
2.59064 9.53514 -2.64755 0.000140804 4
3.09051 11.375 -2.72132 0.000310572 1
3.56714 13.1292 -2.64458 0.00010474 4
2.55099 9.52041 -2.64098 0.00013073 4
3.04921 11.3798 -2.71991 0.000310526 1
3.52127 13.1415 -2.64457 5.11656e-05 4
2.5187 9.53289 -2.64198 7.3736e-05 4
3.00664 11.3797 -2.71736 0.00031048 1
3.47004 13.1335 -2.64051 0.000103425 4
4.25784 16.1153 -2.63999 3.92623e-05 4
2.48575 9.54295 -2.64235 9.38341e-05 4
2.96918 11.3989 -2.71945 0.000310434 1
3.42575 13.1517 -2.64173 0.000181239 4
4.20258 16.134 -2.64064 3.03558e-05 4
2.45698 9.5693 -2.64725 0.000117278 4
2.92776 11.4029 -2.71795 0.000177042 4
3.38371 13.1787 -2.64476 0.000233455 4
4.14679 16.1507 -2.64099 3.19185e-05 4
2.42238 9.57316 -2.64597 0.000197672 4
2.88469 11.4002 -2.71489 0.000188462 4
3.3366 13.1861 -2.64391 0.000174504 4
4.08983 16.1628 -2.64063 3.40036e-05 4
5.26907 20.8232 -2.63735 3.24278e-05 4
2.38919 9.58253 -2.64623 8.0399e-05 4
2.83334 11.3639 -2.70388 0.000142996 4
3.28811 13.1879 -2.64194 0.00023337 4
4.03226 16.1725 -2.63989 3.39957e-05 4
2.35281 9.57889 -2.64295 0.000251216 4
2.79261 11.3695 -2.70287 0.000179419 4
3.2436 13.2056 -2.6432 4.22212e-05 4
3.97481 16.1825 -2.63924 3.55565e-05 4
2.73556 11.1372 -1.00334 0.00109405 9
2.3211 9.59426 -2.64494 0.000170805 4
2.74729 11.3559 -2.69735 0.000111467 4
3.19894 13.2228 -2.6444 7.10965e-05 4
2.67117 11.0413 -0.993853 0.00112395 9
2.2844 9.58891 -2.64125 0.000298035 4
2.61993 10.9973 -2.60999 0.000203585 9
2.62277 11.0092 -2.19986 0.000343598 9
2.62431 11.0157 -1.79354 0.000183322 9
2.61963 10.996 -1.38793 0.000513212 9
2.60734 10.9444 -0.984312 0.000918725 9
2.25245 9.60337 -2.64305 0.000210942 4
2.65292 11.3108 -2.68217 0.000197147 4
3.10512 13.2387 -2.64319 7.99545e-05 4
3.81029 16.2453 -2.64282 3.44867e-05 4
2.22278 9.6279 -2.64765 0.000602615 4
2.61223 11.3148 -2.68094 0.000184877 4
3.06129 13.2599 -2.64526 3.10878e-05 4
3.75212 16.2522 -2.64181 3.08218e-05 4
2.18723 9.62713 -2.64532 0.000538938 4
2.56773 11.3019 -2.67574 0.0001922 4
3.00964 13.247 -2.64057 4.99534e-05 4
2.15015 9.61921 -2.64106 0.000642628 4
2.51804 11.265 -2.66492 0.000186895 4
2.96563 13.2675 -2.64257 5.88232e-05 4
2.11948 9.63994 -2.64471 0.000622468 4
2.47619 11.2623 -2.66222 0.000197048 4
2.92163 13.2883 -2.64469 4.43868e-05 4
3.58311 16.2969 -2.64283 6.42107e-05 4
2.08895 9.66176 -2.64868 0.00062239 4
2.4324 11.2503 -2.65735 0.000211457 4
2.87575 13.3009 -2.64517 6.76775e-05 4
2.05472 9.66668 -2.64805 0.000505209 4
2.38988 11.2435 -2.65375 0.00019343 4
2.83086 13.3181 -2.64662 7.21022e-05 4
2.02092 9.67359 -2.64799 0.000123778 4
2.34421 11.2211 -2.64652 0.000203623 4
4.39826 21.0533 -2.64082 3.65338e-05 4
1.98504 9.67032 -2.64518 0.000137142 4
2.30211 11.215 -2.64318 0.000129736 4
2.73623 13.3299 -2.64509 4.87898e-05 4
1.95153 9.67852 -2.64555 9.03014e-05 4
2.2661 11.2386 -2.64686 5.8778e-05 4
2.68588 13.3205 -2.64135 9.86703e-05 4
1.91799 9.68656 -2.6459 0.000150483 4
2.64104 13.3382 -2.64303 9.20016e-05 4
1.88628 9.70409 -2.64887 0.000103653 4
2.18629 11.2475 -2.64529 6.07866e-05 4
2.59584 13.3545 -2.64443 3.1031e-05 4
3.18251 16.3726 -2.6417 5.15972e-05 4
1.85155 9.70618 -2.64766 0.000117013 4
2.14634 11.2515 -2.64446 3.64665e-05 4
2.54793 13.3567 -2.6431 2.88092e-05 4
1.81618 9.70465 -2.6455 0.000407823 4
2.10626 11.2547 -2.64347 3.03842e-05 4
2.5025 13.372 -2.64437 0.000249265 4
3.06809 16.3942 -2.64166 3.02145e-05 4
1.78286 9.71404 -2.64634 8.02173e-05 4
2.06878 11.2719 -2.64579 0.000125569 4
2.4585 13.3953 -2.64728 0.000208236 4
1.75012 9.72673 -2.64812 0.000317487 4
2.02904 11.2769 -2.64529 5.26501e-05 4
2.40886 13.3879 -2.64413 0.000209306 4
1.71612 9.7326 -2.64807 0.000230566 4
1.98928 11.2817 -2.64477 0.000107309 4
2.36408 13.4074 -2.64633 0.000225876 4
3.73691 21.1931 -2.64232 3.02929e-05 4
1.68302 9.7436 -2.64945 0.000377547 4
1.95052 11.2923 -2.64564 0.000149805 4
2.31605 13.4085 -2.64494 0.000183767 4
3.66314 21.2073 -2.64249 3.98664e-05 4
1.6466 9.73531 -2.64562 0.000207123 4
1.91292 11.3099 -2.64818 6.67951e-05 4
2.26988 13.4204 -2.6457 4.98072e-05 4
3.59229 21.2389 -2.64485 3.56383e-05 4
1.61302 9.74345 -2.64628 0.00012693 4
1.87006 11.2961 -2.6434 0.000202379 4
2.22234 13.4241 -2.64489 8.29968e-05 4
2.72767 16.4765 -2.64514 3.12123e-05 4
1.57923 9.75046 -2.64667 0.000320626 4
1.83063 11.3027 -2.64343 0.000119386 4
2.17429 13.4245 -2.64345 6.85981e-05 4
1.54433 9.75048 -2.6452 0.000464181 4
1.79409 11.3274 -2.64774 6.87882e-05 4
2.1283 13.4375 -2.64455 0.000111728 4
2.61144 16.4879 -2.64399 4.88763e-05 4
1.51153 9.76387 -2.64739 0.000123543 4
1.75525 11.3382 -2.64881 4.85491e-05 4
2.08381 13.4605 -2.64763 5.19827e-05 4
1.71202 11.3202 -2.64319 8.29255e-05 4
2.03459 13.4531 -2.64476 0.000113898 4
1.44508 9.78601 -2.65059 0.000183599 4
1.67613 11.3507 -2.64894 0.000256828 4
1.98887 13.4686 -2.64642 0.000152574 4
1.41007 9.7852 -2.64902 0.000186913 4
1.63651 11.3566 -2.64897 9.90763e-05 4
1.94041 13.4655 -2.64446 7.84836e-05 4
1.37644 9.79383 -2.65004 6.3409e-05 4
1.59397 11.3417 -2.64417 9.70397e-05 4
1.55488 11.3509 -2.64504 9.0961e-05 4
1.30478 9.77884 -2.64345 0.000236889 4
1.51637 11.3646 -2.64699 0.000187958 4
1.79954 13.4869 -2.64483 3.42486e-05 4
1.27382 9.80785 -2.65008 7.6729e-05 4
1.47779 11.3783 -2.64896 0.000131349 4
1.75352 13.5014 -2.64644 5.6334e-05 4
1.23788 9.79882 -2.64645 8.33905e-05 4
1.4374 11.3781 -2.64773 0.000145472 4
2.09452 16.5798 -2.64686 5.18859e-05 4
1.20481 9.81239 -2.64897 0.000123402 4
1.39854 11.3902 -2.64938 3.03021e-05 4
1.65964 13.5167 -2.64711 7.72927e-05 4
3.76995 30.7037 -2.7064 2.9053e-05 4
1.17065 9.81734 -2.64918 5.00216e-05 4
1.35719 11.3817 -2.64629 0.000153507 4
1.61318 13.5285 -2.64831 0.000131373 4
1.13577 9.81615 -2.64778 0.000120037 4
1.31802 11.3913 -2.64743 0.000185797 4
1.56642 13.5381 -2.6491 7.06416e-05 4
3.50707 30.3106 -2.66953 2.93943e-05 4
1.1008 9.81389 -2.64612 0.000380068 4
1.27688 11.3836 -2.6446 9.49036e-05 4
1.51904 13.5426 -2.64891 4.63499e-05 4
1.06851 9.83579 -2.651 0.000493358 4
1.23931 11.408 -2.64924 4.64352e-05 4
1.46944 13.5264 -2.64474 4.08246e-05 4
1.03278 9.8262 -2.64743 0.000136656 4
1.19981 11.4154 -2.64997 0.000264439 4
1.42487 13.5567 -2.64967 5.84676e-05 4
3.12832 29.764 -2.61836 3.00448e-05 4
0.999218 9.8371 -2.64941 0.000346596 4
1.16051 11.425 -2.65124 0.000125135 4
1.37523 13.5388 -2.64523 0.000241548 4
1.11898 11.4122 -2.64735 0.000106954 4
1.33001 13.5645 -2.64932 0.000207318 4
2.88298 29.403 -2.58476 3.44006e-05 4
0.931484 9.85406 -2.65216 0.000176586 4
1.0799 11.4241 -2.64922 4.64072e-05 4
1.28277 13.5703 -2.64956 0.000176408 4
2.76356 29.2354 -2.56917 3.30709e-05 4
0.894994 9.83429 -2.64598 0.000196552 4
1.04052 11.4334 -2.65051 0.00025621 4
1.23609 13.5823 -2.65104 0.000205037 4
0.862292 9.85603 -2.651 0.000149893 4
1.00019 11.4322 -2.64941 5.44615e-05 4
1.18774 13.5759 -2.64897 0.000208305 4
1.4574 16.6581 -2.64846 3.00157e-05 4
0.826719 9.8451 -2.64727 0.00018318 4
0.959979 11.4321 -2.64859 0.000139158 4
1.14061 13.5831 -2.64959 0.000197247 4
0.793824 9.86631 -2.65221 0.000189817 4
0.918993 11.422 -2.6455 0.000135105 4
1.09163 13.5677 -2.64582 0.000250094 4
1.34182 16.6773 -2.64996 7.03484e-05 4
0.757708 9.84727 -2.64637 0.000156496 4
0.880189 11.439 -2.64872 0.00015323 4
1.04634 13.5983 -2.65106 0.000207088 4
0.724404 9.86451 -2.65031 0.000279659 4
0.997623 13.5851 -2.64778 0.000188327 4
1.22418 16.6702 -2.64741 2.99873e-05 4
2.19768 29.9268 -2.6253 2.87618e-05 4
0.689534 9.86078 -2.64864 0.000262979 4
0.799913 11.4393 -2.64741 0.000183417 4
0.951353 13.6049 -2.65099 0.000222428 4
1.16736 16.6939 -2.65052 3.67e-05 4
2.0815 29.7668 -2.61062 2.99979e-05 4
0.656051 9.87734 -2.65246 7.32253e-05 4
0.761287 11.4617 -2.65198 6.24733e-05 4
0.902392 13.5862 -2.64671 0.000222387 4
1.10938 16.7026 -2.65125 4.34094e-05 4
1.96658 29.6084 -2.59611 3.37146e-05 4
0.621289 9.87509 -2.65126 0.000156416 4
0.720035 11.4446 -2.64742 6.24639e-05 4
0.85603 13.6062 -2.65 0.000195928 4
0.585548 9.85584 -2.64552 0.00023293 4
0.808959 13.6163 -2.6514 0.000214601 4
1.74037 29.2937 -2.56738 3.05918e-05 4
0.551135 9.85776 -2.6455 0.000206283 4
0.639903 11.4455 -2.64653 0.00021755 4
0.760395 13.6006 -2.64783 0.000161746 4
1.62817 29.122 -2.55182 3.45331e-05 4
0.517613 9.87659 -2.65006 0.000166336 4
0.600784 11.4636 -2.65021 9.06323e-05 4
0.712932 13.6035 -2.64788 0.000158416 4
0.876237 16.7195 -2.65175 0.000104291 4
0.483401 9.88386 -2.65154 0.000156336 4
0.56019 11.4539 -2.64751 0.00011277 4
0.817426 16.7135 -2.65032 8.3103e-05 4
0.449007 9.88785 -2.65217 0.00016962 4
0.52086 11.4702 -2.65083 0.000106712 4
0.618932 13.6299 -2.65211 4.39881e-05 4
0.758783 16.7096 -2.64927 0.00010837 4
0.414022 9.87828 -2.6492 0.000332546 4
0.480904 11.474 -2.65132 8.85781e-05 4
0.570547 13.6129 -2.6484 4.06815e-05 4
0.700657 16.7172 -2.65007 9.59618e-05 4
0.379598 9.88119 -2.64961 0.000275978 4
0.441001 11.4795 -2.65222 6.44107e-05 4
0.523567 13.6288 -2.65112 4.61705e-05 4
0.642953 16.7365 -2.65275 3.04323e-05 4
0.345244 9.8864 -2.65067 0.000212775 4
0.400784 11.4768 -2.65125 0.000106664 4
0.475877 13.6272 -2.65047 6.37475e-05 4
0.583774 16.7169 -2.64932 7.78676e-05 4
0.310603 9.88353 -2.64959 0.00026926 4
0.360574 11.4736 -2.6502 0.000114697 4
0.428185 13.625 -2.64974 7.58235e-05 4
0.525632 16.7258 -2.65042 3.86668e-05 4
0.275776 9.87282 -2.64645 0.000172836 4
0.320662 11.4797 -2.65134 0.000221312 4
0.381085 13.6429 -2.65295 6.48226e-05 4
0.467319 16.7301 -2.65082 3.45342e-05 4
0.241299 9.87331 -2.64633 0.000122964 4
0.28063 11.4826 -2.65176 5.02905e-05 4
0.333214 13.6343 -2.65102 4.94318e-05 4
0.409284 16.7468 -2.65323 4.07098e-05 4
0.207405 9.90129 -2.65363 0.000116302 4
0.240223 11.468 -2.64818 4.82716e-05 4
0.285501 13.6295 -2.64989 3.29485e-05 4
0.350361 16.7259 -2.6497 3.55482e-05 4
0.172785 9.89888 -2.6528 6.645e-05 4
0.200195 11.4692 -2.64827 5.02753e-05 4
0.237926 13.6308 -2.64996 3.95309e-05 4
0.292101 16.7345 -2.65089 3.14193e-05 4
0.138054 9.88663 -2.64937 0.000172748 4
0.160223 11.4742 -2.64929 9.65141e-05 4
0.1906 13.6496 -2.65348 2.96427e-05 4
0.485102 34.7401 -1.82083 8.44067e-05 10
0.48523 34.7493 -0.606611 8.48279e-05 10
0.485318 34.7556 0.606721 8.47511e-05 10
0.485648 34.7792 1.82288 8.41772e-05 10
0.485968 34.8022 5.51266 7.9586e-05 10
0.486174 34.8169 6.76838 7.71689e-05 10
0.103567 9.88965 -2.65007 0.000132866 4
0.120093 11.4677 -2.64768 0.000108562 4
0.142807 13.6367 -2.65085 4.17116e-05 4
0.362534 34.6185 -1.81438 4.31624e-05 10
0.362668 34.6312 -0.604523 4.3415e-05 10
0.362652 34.6297 0.604496 4.34131e-05 10
0.362809 34.6447 1.81575 4.31568e-05 10
0.362793 34.6432 5.48724 4.09139e-05 10
0.362626 34.6273 6.73123 3.97091e-05 10
0.0690965 9.897 -2.65196 0.000342087 4
0.080229 11.4916 -2.6531 0.000144728 4
0.0953093 13.6516 -2.65366 8.77977e-05 4
0.0345369 9.89308 -2.65086 0.000119549 4
0.0401283 11.4947 -2.65379 7.23528e-05 4
0.0476265 13.6426 -2.65187 4.71826e-05 4
0.0584493 16.7428 -2.65181 4.27104e-05 4
7.4676e-07 9.89114 -2.65032 0.000275593 4
8.67705e-07 11.4931 -2.65339 6.63134e-05 4
1.03029e-06 13.6467 -2.65264 2.96208e-05 4
2.61286e-06 34.6083 -1.81375 4.98358e-05 10
2.61264e-06 34.6055 -0.604041 5.0132e-05 10
2.61348e-06 34.6166 0.604235 5.01345e-05 10
2.61263e-06 34.6054 1.81359 4.98433e-05 10
2.6129e-06 34.6089 5.48151 4.72673e-05 10
2.6122e-06 34.5996 6.72548 4.58805e-05 10
-0.0344837 9.87961 -2.64725 0.000159359 4
-0.0400889 11.4855 -2.65165 0.000122561 4
-0.121199 34.7237 -1.8198 7.26657e-05 10
-0.121274 34.7452 -0.606483 7.3122e-05 10
-0.121172 34.716 0.605973 7.31495e-05 10
-0.12125 34.7383 1.82057 7.27477e-05 10
-0.121199 34.7238 5.49974 6.90522e-05 10
-0.12118 34.7183 6.74859 6.70466e-05 10
-0.110763 31.7338 7.32636 8.49069e-05 10
-0.0689925 9.88231 -2.64802 0.000112865 4
-0.080241 11.4935 -2.65355 6.83024e-05 4
-0.220585 31.596 7.29469 8.58664e-05 10
-0.10369 9.90154 -2.65326 0.000255573 4
-0.120277 11.4855 -2.65178 7.8335e-05 4
-0.142884 13.6442 -2.65232 4.16655e-05 4
-0.315705 30.1472 -2.63768 8.5173e-05 10
-0.32969 31.4826 7.26872 8.68239e-05 10
-0.138261 9.90156 -2.65337 0.000228991 4
-0.160382 11.4857 -2.65194 5.62321e-05 4
-0.190338 13.6311 -2.64987 6.35829e-05 4
-0.419586 30.0486 -2.62917 8.57468e-05 10
-0.437715 31.3469 7.23771 8.77792e-05 10
-0.172869 9.90377 -2.65411 8.62755e-05 4
-0.200423 11.4823 -2.65131 8.23274e-05 4
-0.238042 13.6375 -2.65127 4.38422e-05 4
-0.292317 16.747 -2.65287 5.13855e-05 4
-0.523405 29.9862 -2.62385 7.21569e-05 10
-0.545698 31.2633 7.2188 7.81812e-05 10
-0.207012 9.88263 -2.64862 5.64038e-05 4
-0.240328 11.4731 -2.64935 6.82613e-05 4
-0.28579 13.6434 -2.65259 3.39715e-05 4
-0.626119 29.8905 -2.61565 7.23443e-05 10
-0.652659 31.1575 7.19484 7.87156e-05 10
-0.280476 11.4764 -2.65033 0.000184679 4
-0.333262 13.6363 -2.65142 4.16348e-05 4
-0.729396 29.8452 -2.61189 7.25242e-05 10
-0.759052 31.0586 7.17258 7.92439e-05 10
-0.276338 9.89316 -2.6519 0.000162534 4
-0.320438 11.472 -2.64955 9.63398e-05 4
-0.380935 13.6379 -2.65196 4.81998e-05 4
-0.831752 29.7775 -2.60621 7.26964e-05 10
-0.864897 30.9641 7.15142 7.97662e-05 10
-0.36041 11.4684 -2.64901 8.02711e-05 4
-0.932824 29.683 -2.59821 7.28608e-05 10
-0.970649 30.8866 7.13425 8.02824e-05 10
-0.345083 9.88195 -2.64948 0.00025203 4
-0.400735 11.4756 -2.65098 0.000100324 4
-1.03485 29.6345 -2.59426 7.30176e-05 10
-1.07531 30.7931 7.11348 8.07923e-05 10
-0.380399 9.90208 -2.65521 0.000238735 4
-0.440596 11.469 -2.64979 8.82717e-05 4
-1.13555 29.5591 -2.58799 7.31666e-05 10
-1.17943 30.7015 7.09322 6.73399e-05 10
-0.414415 9.88769 -2.65173 0.000139245 4
-0.48069 11.469 -2.65015 0.000128376 4
-0.571364 13.6324 -2.6522 5.36376e-05 4
-0.905692 21.6093 -2.65561 3.49514e-05 4
-1.23609 29.4924 -2.58252 5.63319e-05 10
-1.2842 30.6402 7.08007 6.74847e-05 10
-0.449239 9.893 -2.65355 8.28732e-05 4
-0.521734 11.4895 -2.65529 0.000112312 4
-0.619177 13.6353 -2.65317 8.31777e-05 4
-0.981499 21.6143 -2.65663 4.33933e-05 4
-1.33729 29.4494 -2.57914 5.61847e-05 10
-1.38768 30.5591 7.06238 6.76222e-05 10
-0.484114 9.89846 -2.65545 0.000125951 4
-0.561759 11.486 -2.65493 4.81265e-05 4
-0.667256 13.6431 -2.65512 4.59582e-05 4
-1.05684 21.6087 -2.65638 3.71822e-05 4
-1.43843 29.4108 -2.57619 5.60306e-05 10
-1.49188 30.5038 7.05077 6.77521e-05 10
-0.517311 9.87087 -2.64852 0.000159076 4
-0.600822 11.4643 -2.65039 7.0174e-05 4
-0.715187 13.6465 -2.65626 3.17272e-05 4
-1.53782 29.3433 -2.57073 5.58694e-05 10
-1.59436 30.4221 7.03314 6.78747e-05 10
-0.552732 9.88635 -2.65318 0.000238585 4
-0.642017 11.4833 -2.65528 4.41027e-05 4
-0.761868 13.627 -2.65296 5.14105e-05 4
-1.63887 29.3134 -2.5686 5.57012e-05 10
-1.69781 30.3675 7.02185 6.79897e-05 10
-0.587381 9.88679 -2.65383 0.000119277 4
-0.680861 11.4603 -2.65047 0.000100218 4
-0.810256 13.6382 -2.65568 6.56184e-05 4
-0.993652 16.7252 -2.65368 4.5604e-05 4
-1.73717 29.24 -2.56268 5.5526e-05 10
-1.80097 30.314 7.01087 5.18844e-05 10
-0.621498 9.87843 -2.65215 0.000122575 4
-0.722289 11.4805 -2.65572 0.000154313 4
-0.857247 13.6256 -2.65378 0.000231809 4
-1.8381 29.2158 -2.5611 5.53438e-05 10
-1.9025 30.2394 6.99511 5.17252e-05 10
-0.655955 9.87591 -2.65207 0.000162309 4
-0.761509 11.4651 -2.65276 0.000140264 4
-0.904249 13.6142 -2.65216 0.000217554 4
-1.93602 29.1484 -2.55577 5.51546e-05 10
-2.00614 30.204 6.9885 5.15595e-05 10
-0.689882 9.86578 -2.64998 0.000139104 4
-0.802333 11.4739 -2.65543 5.40937e-05 4
-0.952818 13.6259 -2.65508 0.00020877 4
-1.16992 16.7306 -2.65634 9.11438e-05 4
-2.03666 29.1256 -2.55438 3.10613e-05 10
-2.10798 30.1456 6.97665 5.1387e-05 10
-0.725185 9.87517 -2.65317 0.000274862 4
-0.841815 11.4634 -2.65365 8.01268e-05 4
-1.00054 13.6249 -2.65554 0.000181411 4
-1.22844 16.7282 -2.65662 0.000120302 4
-2.13557 29.081 -2.55111 3.06434e-05 10
-2.20959 30.089 6.96529 5.1208e-05 10
-0.759947 9.87639 -2.65419 0.000145691 4
-0.881791 11.4599 -2.65354 9.41349e-05 4
-1.04864 13.6283 -2.6569 0.000209786 4
-1.28662 16.721 -2.65618 0.000106967 4
-1.70477 22.1554 -2.72839 0.000125492 4
-2.23502 29.0467 -2.54877 3.02213e-05 10
-2.31179 30.0444 6.95679 5.10224e-05 10
-0.794783 9.87824 -2.65542 9.60118e-05 4
-0.92069 11.4431 -2.65039 0.000120154 4
-1.09558 13.6169 -2.6554 0.00022395 4
-1.34552 16.7233 -2.65727 0.000113082 4
-1.77608 22.0747 -2.71919 8.9262e-05 4
-2.33587 29.0322 -2.54819 2.9795e-05 10
-0.82955 9.87889 -2.65636 0.000122482 4
-0.961362 11.4486 -2.65242 5.20591e-05 4
-1.14265 13.6075 -2.65434 0.000220632 4
-1.40409 16.7209 -2.65765 9.00352e-05 4
-1.84538 21.9761 -2.70783 9.35394e-05 4
-2.43652 29.0158 -2.54749 2.93646e-05 10
-0.863777 9.87303 -2.65558 0.000238314 4
-1.00253 11.459 -2.65562 6.60651e-05 4
-1.1915 13.6189 -2.65735 4.58656e-05 4
-1.91231 21.8578 -2.69406 0.000116969 4
-2.53575 28.9838 -2.54544 2.89302e-05 10
-0.898086 9.86834 -2.65514 7.61186e-05 4
-1.04259 11.4562 -2.6558 8.00669e-05 4
-1.2378 13.6012 -2.65473 3.71225e-05 4
-1.51975 16.6992 -2.65583 7.46533e-05 4
-1.98068 21.764 -2.68333 7.10537e-05 4
-1.28439 13.5874 -2.6529 5.34903e-05 4
-1.57898 16.7039 -2.65743 0.000118599 4
-2.04846 21.6705 -2.67266 0.000102347 4
-0.966055 9.85262 -2.65266 0.000165434 4
-1.12319 11.4552 -2.65732 7.40398e-05 4
-1.33203 13.5852 -2.65335 3.16517e-05 4
-1.63562 16.6814 -2.65474 9.25064e-05 4
-2.11639 21.5847 -2.66297 0.000130877 4
-1.00201 9.8646 -2.65681 0.000291127 4
-1.38184 13.604 -2.65795 4.03759e-05 4
-1.69456 16.6827 -2.65587 0.000100149 4
-2.18018 21.4635 -2.64895 0.000130221 4
-1.03466 9.84411 -2.65225 0.000175316 4
-1.2024 11.4401 -2.65571 7.00168e-05 4
-1.42694 13.5765 -2.65354 4.03685e-05 4
-1.75492 16.697 -2.65911 0.000118005 4
-2.24748 21.3834 -2.64002 0.000146288 4
-1.07016 9.85103 -2.6551 0.00021829 4
-1.24204 11.4332 -2.65508 8.20075e-05 4
-1.47455 13.5734 -2.65393 5.67238e-05 4
-1.81287 16.6877 -2.65862 9.60166e-05 4
-2.31225 21.2846 -2.6288 0.000130679 4
-1.10565 9.85708 -2.65776 0.000109131 4
-1.28294 11.4377 -2.65716 0.000265985 4
-1.52143 13.5638 -2.65308 4.79883e-05 4
-1.86897 16.6622 -2.65559 0.000121014 4
-2.37571 21.18 -2.61688 0.000105282 4
-1.14 9.85279 -2.65766 0.000198396 4
-1.32292 11.4337 -2.65728 0.000303937 4
-2.44025 21.0905 -2.60686 0.00012263 4
-4.02849 34.8173 -1.83687 6.81605e-05 10
-4.02903 34.822 -0.611876 6.85329e-05 10
-4.0283 34.8157 0.611764 6.85017e-05 10
-4.02823 34.8151 1.83675 6.80673e-05 10
-4.03154 34.8437 5.55551 6.44329e-05 10
-4.03355 34.8611 6.82151 6.24998e-05 10
-1.17218 9.83022 -2.65266 0.00018184 4
-1.36196 11.4218 -2.6556 7.19745e-05 4
-1.61677 13.5587 -2.65421 5.99636e-05 4
-1.98768 16.6692 -2.65884 7.96176e-05 4
-2.50444 21.0028 -2.59709 0.000141567 4
-4.13292 34.6597 -1.82931 6.90842e-05 10
-4.131 34.6436 -0.608991 6.94612e-05 10
-4.13391 34.668 0.609419 6.94297e-05 10
-4.13356 34.6651 1.82959 6.89904e-05 10
-4.13635 34.6885 5.53304 6.5313e-05 10
-4.13567 34.6828 6.78942 6.33569e-05 10
-1.20858 9.84315 -2.65727 4.95866e-05 4
-1.40289 11.4256 -2.65762 6.39678e-05 4
-1.66424 13.5542 -2.65446 3.05213e-05 4
-2.56873 20.9206 -2.58802 0.000128861 4
-4.23464 34.4885 -1.82104 7.00084e-05 10
-4.23727 34.5099 -0.606896 7.039e-05 10
-4.23649 34.5035 0.606784 7.03584e-05 10
-4.23538 34.4945 1.82136 6.9914e-05 10
-4.23806 34.5163 5.5079 6.61938e-05 10
-4.24014 34.5333 6.763 6.42146e-05 10
-1.24303 9.83959 -2.65747 0.000115688 4
-1.44037 11.4017 -2.65322 0.000105931 4
-2.63002 20.8188 -2.57654 0.000129873 4
-4.33683 34.3296 -1.81344 7.09333e-05 10
-4.33865 34.3439 -0.60424 7.13194e-05 10
-4.33803 34.339 0.604154 7.12877e-05 10
-4.33718 34.3323 1.81358 7.08384e-05 10
-4.34219 34.372 5.48725 6.70753e-05 10
-4.34193 34.3699 6.73393 6.5073e-05 10
-1.27583 9.8234 -2.65428 0.000198297 4
-1.48062 11.4002 -2.65404 0.000135891 4
-1.75866 13.541 -2.65421 4.35861e-05 4
-2.16157 16.6432 -2.65816 3.57009e-05 4
-2.69346 20.7386 -2.56776 0.000128648 4
-3.74131 28.8065 -2.54141 3.07921e-05 10
-4.4378 34.1692 -1.80577 7.18583e-05 10
-4.43751 34.167 -0.601395 7.22491e-05 10
-4.43975 34.1843 0.6017 7.22171e-05 10
-4.44062 34.191 1.80692 7.17629e-05 10
-4.44392 34.2163 5.46485 6.7957e-05 10
-4.44341 34.2125 6.70608 6.59318e-05 10
-3.86829 29.7842 6.93398 2.87286e-05 10
-1.30849 9.80671 -2.65099 0.000310626 4
-1.52246 11.4103 -2.65763 0.000137869 4
-1.80944 13.5611 -2.65937 5.88306e-05 4
-2.22009 16.6388 -2.65868 3.26332e-05 4
-2.75541 20.6508 -2.55807 0.000122826 4
-3.8449 28.8162 -2.54343 3.12187e-05 10
-4.53808 34.0113 -1.79825 7.27835e-05 10
-4.54026 34.0277 -0.599219 7.31789e-05 10
-4.53927 34.0203 0.599088 7.31468e-05 10
-4.54205 34.0411 1.79983 7.26876e-05 10
-4.54073 34.0312 5.43778 6.88391e-05 10
-4.54342 34.0514 6.67757 6.67909e-05 10
-3.97657 29.803 6.94154 2.91258e-05 10
-1.34439 9.81432 -2.6543 0.000115644 4
-1.56161 11.4 -2.65648 8.79036e-05 4
-1.85319 13.5286 -2.65426 3.26777e-05 4
-2.27831 16.6321 -2.65886 4.07821e-05 4
-3.949 28.8284 -2.54571 3.16399e-05 10
-4.63907 33.8661 -1.79142 7.37086e-05 10
-4.63777 33.8566 -0.596488 7.41086e-05 10
-4.64174 33.8856 0.596998 7.40763e-05 10
-4.63925 33.8674 1.79149 7.36122e-05 10
-4.64356 33.8989 5.41919 6.97211e-05 10
-4.64169 33.8852 6.64813 6.76501e-05 10
-4.08257 29.8035 6.94494 2.9519e-05 10
-1.38046 9.82245 -2.65778 0.0001784 4
-1.6009 11.391 -2.65567 0.000131836 4
-1.90411 13.5484 -2.65942 9.1481e-05 4
-4.05457 28.8498 -2.54883 3.20569e-05 10
-4.7377 33.7105 -1.78405 7.46336e-05 10
-4.73826 33.7145 -0.594272 7.50381e-05 10
-4.7382 33.714 0.594263 7.50057e-05 10
-4.74004 33.7271 1.78493 7.45366e-05 10
-4.74248 33.7444 5.39712 7.06031e-05 10
-4.74132 33.7362 6.62211 6.85092e-05 10
-4.19094 29.8201 6.95217 2.9908e-05 10
-1.41231 9.80079 -2.65324 0.000142042 4
-1.64053 11.3845 -2.65547 4.99305e-05 4
-1.9505 13.5355 -2.65822 6.20652e-05 4
-2.95868 20.5318 -2.54703 3.17647e-05 4
-4.15684 28.8465 -2.54981 3.24694e-05 10
-4.83556 33.5565 -1.77679 7.5558e-05 10
-4.83479 33.5512 -0.591687 7.59671e-05 10
-4.83814 33.5744 0.592096 7.59344e-05 10
-4.83599 33.5595 1.77694 7.54605e-05 10
-4.83755 33.5703 5.37193 7.14847e-05 10
-4.83873 33.5785 6.59442 6.9368e-05 10
-4.29518 29.8065 6.95245 3.02928e-05 10
-1.44858 9.8098 -2.65703 7.92693e-05 4
-1.68156 11.3875 -2.65753 5.192e-05 4
-2.45457 16.6224 -2.66127 5.34892e-05 4
-3.16588 21.4393 -2.66096 2.92187e-05 4
-4.25976 28.8471 -2.55116 3.28775e-05 10
-4.93588 33.4258 1.77077 7.63838e-05 10
-4.93623 33.4282 6.56824 7.02263e-05 10
-4.40395 29.8236 6.95998 5.47787e-05 10
-1.48122 9.79412 -2.65417 0.000112284 4
-1.71878 11.3649 -2.65364 9.38416e-05 4
-2.04509 13.5225 -2.6584 6.63966e-05 4
-3.23789 21.4096 -2.65866 8.47809e-05 4
-4.36607 28.8693 -2.55446 3.32812e-05 10
-5.03299 33.2791 1.76392 7.73064e-05 10
-5.03521 33.2938 6.54525 7.10842e-05 10
-4.51361 29.8449 6.96858 5.49134e-05 10
-1.51372 9.77803 -2.65122 0.000211332 4
-1.7579 11.3554 -2.65282 0.000173681 4
-2.09313 13.5208 -2.65949 0.000102298 4
-3.30236 21.332 -2.65044 0.000151979 4
-4.46933 28.8702 -2.5559 3.36802e-05 10
-5.12854 33.1284 1.75687 7.82279e-05 10
-5.13009 33.1384 6.51819 7.19411e-05 10
-4.62543 29.8785 6.98017 5.5041e-05 10
-1.54869 9.77807 -2.65268 0.000359881 4
-1.80123 11.3725 -2.65828 0.000185632 4
-2.13987 13.5106 -2.65893 5.33157e-05 4
-3.36581 21.2509 -2.6418 0.00012704 4
-4.57427 28.8808 -2.55824 5.94097e-05 10
-5.22378 32.9817 1.75004 7.91483e-05 10
-5.223 32.9767 6.48993 7.27971e-05 10
-4.73809 29.9151 6.99254 5.51617e-05 10
-1.58451 9.7831 -2.65553 0.00010564 4
-1.83783 11.3471 -2.65383 0.000117749 4
-2.18739 13.5054 -2.65939 4.56909e-05 4
-2.68254 16.5625 -2.65743 3.96981e-05 4
-3.42665 21.1568 -2.63158 0.00012691 4
-4.68523 28.9275 -2.56381 5.95402e-05 10
-5.31473 32.8142 1.74213 8.00672e-05 10
-5.31912 32.8413 6.46688 7.3652e-05 10
-4.84841 29.9351 7.00111 5.52755e-05 10
-1.61696 9.76725 -2.65275 0.000250864 4
-1.87732 11.34 -2.65367 9.77772e-05 4
-3.49056 21.0848 -2.62412 0.000133722 4
-4.79354 28.9554 -2.56775 5.96633e-05 10
-5.40821 32.6683 1.73538 8.09847e-05 10
-5.41126 32.6867 6.44014 7.45056e-05 10
-4.96132 29.9689 7.01304 5.53824e-05 10
-1.6545 9.78198 -2.6583 0.000171622 4
-1.92075 11.3561 -2.65901 2.99274e-05 4
-2.27828 13.47 -2.65549 4.4587e-05 4
-3.55118 20.9958 -2.61458 0.00014676 4
-4.90283 28.9873 -2.57208 5.97792e-05 10
-5.50163 32.5276 1.72891 8.19003e-05 10
-5.50612 32.5542 6.41776 7.53576e-05 10
-5.07692 30.0166 7.0283 5.54823e-05 10
-1.68584 9.75995 -2.6539 0.000122101 4
-1.95894 11.3411 -2.65706 0.000117697 4
-2.32897 13.4833 -2.6597 3.26187e-05 4
-2.85646 16.5371 -2.65801 9.15476e-05 4
-3.61101 20.9055 -2.60488 0.000131386 4
-5.01141 29.0129 -2.57589 5.98877e-05 10
-5.5936 32.3834 1.72228 8.28142e-05 10
-5.59946 32.4174 6.39462 7.6208e-05 10
-5.19171 30.0568 7.04191 7.59819e-05 10
-1.72161 9.76372 -2.65654 0.000184778 4
-1.99938 11.339 -2.65821 7.77884e-05 4
-2.37598 13.4749 -2.65965 3.58742e-05 4
-2.91852 16.5518 -2.66198 9.05095e-05 4
-3.67172 20.8234 -2.59623 0.000130106 4
-5.12074 29.0412 -2.57997 5.99889e-05 10
-5.68543 32.2437 1.71589 8.37257e-05 10
-5.68848 32.261 6.36764 7.70565e-05 10
-5.30686 30.0967 7.05557 7.56717e-05 10
-1.75723 9.7663 -2.65889 0.000191354 4
-2.03752 11.3241 -2.65636 0.000101708 4
-2.42085 13.4546 -2.6573 3.47808e-05 4
-2.97709 16.546 -2.66271 9.40472e-05 4
-3.73137 20.7381 -2.58721 0.000153025 4
-5.22741 29.0528 -2.5826 6.00828e-05 10
-5.77615 32.1026 1.70944 8.46349e-05 10
-5.7801 32.1245 6.34464 7.79029e-05 10
-5.42823 30.1689 7.07689 7.53543e-05 10
-1.7878 9.74094 -2.65367 0.000204526 4
-2.08009 11.3335 -2.66025 4.58617e-05 4
-3.03303 16.5257 -2.66113 9.96163e-05 4
-3.79014 20.6508 -2.57796 4.49372e-05 4
-5.3396 29.0932 -2.58784 6.01694e-05 10
-5.8664 31.9635 1.70312 8.55418e-05 10
-5.86782 31.9713 6.31839 7.87472e-05 10
-5.54639 30.2199 7.09335 7.50297e-05 10
-1.82076 9.72915 -2.65218 0.000151726 4
-2.11576 11.3055 -2.65539 0.000311017 4
-2.51767 13.4531 -2.66041 7.17097e-05 4
-3.08816 16.5015 -2.65895 0.000101118 4
-3.85148 20.5802 -2.57081 0.000132322 4
-5.45332 29.1396 -2.59365 8.15859e-05 10
-5.95375 31.8137 1.69623 8.64458e-05 10
-5.96038 31.8491 6.29831 7.95891e-05 10
-5.66597 30.2759 7.11108 7.46979e-05 10
-1.8587 9.74362 -2.65787 0.000112132 4
-2.1592 11.3189 -2.6603 8.57164e-05 4
-2.56383 13.4401 -2.65959 5.75747e-05 4
-3.9109 20.5016 -2.56268 0.000144018 4
-5.56865 29.1919 -2.60001 8.12365e-05 10
-6.04186 31.6725 1.68982 8.7347e-05 10
-6.05012 31.7158 6.2761 8.04285e-05 10
-5.78778 30.3406 7.13099 7.43591e-05 10
-1.89209 9.73398 -2.65703 0.000342948 4
-2.1969 11.3021 -2.65813 0.000131545 4
-2.60849 13.4195 -2.65731 3.5842e-05 4
-3.97042 20.426 -2.55494 5.57114e-05 4
-5.6845 29.2443 -2.60643 8.08796e-05 10
-6.13165 31.5446 1.68413 8.82451e-05 10
-6.13633 31.5687 6.25119 8.1265e-05 10
-5.91067 30.4078 7.15159 8.9728e-05 10
-1.92373 9.71552 -2.65381 0.000204425 4
-2.23584 11.2918 -2.65753 0.000113591 4
-2.65882 13.428 -2.66082 5.53823e-05 4
-5.80302 29.3074 -2.61384 8.05151e-05 10
-6.21944 31.4104 -1.67811 8.92437e-05 10
-6.21892 31.4078 -0.558869 8.97199e-05 10
-6.22025 31.4146 0.558989 8.96852e-05 10
-6.22161 31.4214 1.6787 8.91399e-05 10
-6.21987 31.4126 5.07186 8.45476e-05 10
-6.22269 31.4268 6.22736 8.20988e-05 10
-6.03775 30.4928 7.1765 8.88325e-05 10
-1.96148 9.72786 -2.65903 6.59354e-05 4
-2.27394 11.2775 -2.65602 0.000115567 4
-2.705 13.4153 -2.66016 6.94869e-05 4
-3.31858 16.4584 -2.65921 3.35058e-05 4
-4.10834 20.3751 -2.5521 2.96967e-05 4
-5.92016 29.3607 -2.62043 8.01433e-05 10
-6.30509 31.2698 -1.67176 9.01354e-05 10
-6.30628 31.2757 -0.556906 9.06159e-05 10
-6.30557 31.2722 0.556843 9.05811e-05 10
-6.30745 31.2815 1.67239 9.00313e-05 10
-6.30671 31.2778 5.05362 8.53994e-05 10
-6.31175 31.3028 6.20711 8.29294e-05 10
-6.16991 30.5993 7.20659 8.79338e-05 10
-1.99568 9.7222 -2.65937 0.000220857 4
-2.31412 11.2735 -2.65696 7.37129e-05 4
-2.75331 13.4131 -2.6616 0.000136778 4
-3.37925 16.4624 -2.66175 0.0001076 4
-6.03565 29.4034 -2.6261 7.97642e-05 10
-6.39171 31.138 -1.6659 9.10236e-05 10
-6.39279 31.1432 -0.554942 9.15083e-05 10
-6.39149 31.1369 0.554828 9.14734e-05 10
-6.39311 31.1448 1.66626 9.09192e-05 10
-6.39806 31.1689 5.0396 8.6248e-05 10
-6.39748 31.1661 6.18438 8.37567e-05 10
-6.29587 30.6711 7.22861 8.70318e-05 10
-2.02705 9.70293 -2.65602 0.000257085 4
-2.35376 11.2668 -2.6573 0.000296801 4
-2.79862 13.3963 -2.66019 4.55845e-05 4
-3.43834 16.4584 -2.66303 0.000115694 4
-6.15247 29.4502 -2.63219 7.93779e-05 10
-6.47804 31.0086 -1.66018 9.19078e-05 10
-6.47928 31.0146 -0.553049 9.23968e-05 10
-6.47549 30.9964 0.552725 9.23618e-05 10
-6.47626 31.0001 1.65972 9.1803e-05 10
-6.47789 31.0079 5.0172 8.70929e-05 10
-6.48318 31.0332 6.16248 8.45806e-05 10
-6.42601 30.7596 7.25473 8.6127e-05 10
-2.06218 9.70182 -2.65767 0.00020762 4
-2.39445 11.265 -2.65884 8.76331e-05 4
-2.84485 13.384 -2.65971 6.4024e-05 4
-3.49463 16.441 -2.66217 0.000107044 4
-6.27354 29.5147 -2.63989 7.89846e-05 10
-6.56207 30.8722 -1.65409 9.27879e-05 10
-6.56384 30.8805 -0.551063 9.32812e-05 10
-6.56126 30.8683 0.550846 9.32461e-05 10
-6.56215 30.8725 1.65411 9.26829e-05 10
-6.56666 30.8938 2.76324 9.15992e-05 10
-6.56249 30.8741 3.87555 9.00091e-05 10
-6.56643 30.8927 5.00223 8.7934e-05 10
-6.56927 30.9061 6.14174 8.54008e-05 10
-6.56093 30.8668 7.28536 8.52194e-05 10
-6.56912 30.9053 8.46606 7.90988e-05 10
-2.09648 9.6966 -2.65823 0.000355877 4
-2.43361 11.2559 -2.65867 8.96117e-05 4
-2.8913 13.3728 -2.65947 8.89666e-05 4
-3.55098 16.4239 -2.6614 9.73823e-05 4
-4.3956 20.3305 -2.55395 3.17784e-05 4
-6.40087 29.6052 -2.64997 9.42785e-05 10
-6.64686 30.743 -1.6484 9.3664e-05 10
-6.64781 30.7474 -0.549098 9.41616e-05 10
-6.64478 30.7333 0.548847 9.41263e-05 10
-6.64737 30.7453 1.64852 9.35587e-05 10
-6.648 30.7482 2.75228 9.24662e-05 10
-6.64991 30.7571 3.86375 9.08634e-05 10
-6.65225 30.7679 4.98575 8.87713e-05 10
-6.64895 30.7526 6.11583 8.62174e-05 10
-6.64875 30.7517 7.26363 8.32351e-05 10
-6.65038 30.7592 8.43235 7.98633e-05 10
-2.13033 9.68931 -2.65825 8.89583e-05 4
-2.47073 11.2376 -2.65636 6.96879e-05 4
-2.94052 13.3743 -2.66179 5.42383e-05 4
-3.61153 16.4262 -2.6638 0.000120179 4
-6.52845 29.6931 -2.65986 9.33019e-05 10
-6.73077 30.6133 -1.6427 9.45356e-05 10
-6.73029 30.6111 -0.547082 9.50373e-05 10
-6.73182 30.6181 0.547206 9.5002e-05 10
-6.72862 30.6035 1.64217 9.44299e-05 10
-6.73378 30.627 2.74352 9.33289e-05 10
-6.73231 30.6203 3.84951 9.17133e-05 10
-6.73252 30.6213 4.96578 8.96044e-05 10
-6.73437 30.6297 6.09602 8.70299e-05 10
-6.73607 30.6374 7.24215 8.40235e-05 10
-6.73881 30.6499 8.40878 8.0624e-05 10
-2.16421 9.6821 -2.65833 0.000115302 4
-2.51068 11.2322 -2.65714 7.76409e-05 4
-2.98714 13.3637 -2.66174 4.22983e-05 4
-3.66885 16.4135 -2.66379 6.3878e-05 4
-6.65884 29.7899 -2.6706 9.23223e-05 10
-6.80998 30.4661 -1.63606 9.54027e-05 10
-6.81175 30.474 -0.545053 9.59086e-05 10
-6.81393 30.4838 0.545227 9.58732e-05 10
-6.81518 30.4894 1.63731 9.52968e-05 10
-6.81752 30.4998 2.73424 9.41872e-05 10
-6.81751 30.4998 3.83732 9.25588e-05 10
-6.81921 30.5074 4.95113 9.04334e-05 10
-6.81671 30.4962 6.07415 8.78383e-05 10
-6.81702 30.4976 7.21467 8.48078e-05 10
-6.8187 30.5051 8.37553 8.13811e-05 10
-2.19822 9.6755 -2.65861 0.000118582 4
-2.55117 11.229 -2.65849 4.77721e-05 4
-3.02997 13.3365 -2.65841 6.61472e-05 4
-4.60961 20.2893 -2.5547 3.49237e-05 4
-6.78882 29.8811 -2.68088 9.134e-05 10
-6.89449 30.3462 -1.63091 9.62649e-05 10
-6.89359 30.3423 -0.543123 9.67749e-05 10
-6.89808 30.3621 0.543477 9.67394e-05 10
-6.89559 30.3511 1.63117 9.61587e-05 10
-6.90031 30.3719 2.72491 9.50406e-05 10
-6.89661 30.3556 3.82218 9.33997e-05 10
-6.89972 30.3693 4.9326 9.12577e-05 10
-6.89809 30.3621 6.05219 8.86424e-05 10
-6.90022 30.3714 7.19049 8.55881e-05 10
-6.89998 30.3704 8.34511 8.21341e-05 10
-2.23286 9.67157 -2.65966 0.000187732 4
-2.59141 11.2246 -2.65957 8.75695e-05 4
-3.07868 13.3352 -2.66029 7.4809e-05 4
-6.91662 29.9592 -2.69003 9.03551e-05 10
-6.97328 30.2046 -1.62459 9.71223e-05 10
-6.97701 30.2207 1.62546 9.70159e-05 10
-6.97831 30.2264 2.71403 9.58894e-05 10
-6.98395 30.2508 6.03483 8.94422e-05 10
-6.98229 30.2436 7.16595 8.63642e-05 10
-6.98558 30.2579 8.32083 8.28832e-05 10
-2.26187 9.64352 -2.6541 0.00011526 4
-2.63069 11.216 -2.65969 0.000123376 4
-3.12699 13.332 -2.66181 4.44438e-05 4
-7.05011 30.0583 -2.70113 8.9368e-05 10
-7.05754 30.09 -1.61974 9.79744e-05 10
-7.05904 30.0964 1.62009 9.78677e-05 10
-7.06222 30.1099 2.70577 9.67329e-05 10
-7.06356 30.1157 6.01276 9.02371e-05 10
-7.06332 30.1146 7.14119 8.71356e-05 10
-7.06525 30.1229 8.29044 8.3628e-05 10
-2.29669 9.64052 -2.65546 0.000220614 4
-2.67182 11.2152 -2.66169 9.35132e-05 4
-3.16894 13.3018 -2.65797 3.03465e-05 4
-3.89468 16.3482 -2.66176 3.69751e-05 4
-7.13835 29.9637 -2.69485 9.77478e-05 10
-7.14024 29.9716 -1.61471 9.88212e-05 10
-7.1433 29.9845 1.6154 9.87144e-05 10
-7.14455 29.9897 2.69719 9.75712e-05 10
-7.14336 29.9847 5.99156 9.10272e-05 10
-7.14871 30.0072 7.12158 8.79024e-05 10
-7.14879 30.0075 8.26551 8.43682e-05 10
-2.3312 9.63605 -2.65645 0.000105355 4
-2.70491 11.1808 -2.65575 6.76381e-05 4
-3.21895 13.3055 -2.66094 4.00937e-05 4
-7.21982 29.8432 -2.68626 9.85812e-05 10
-7.21817 29.8364 -1.60877 9.96626e-05 10
-7.22533 29.8659 1.61036 9.95556e-05 10
-7.22277 29.8554 2.68736 9.84042e-05 10
-7.22217 29.8529 5.97021 9.18124e-05 10
-7.22631 29.87 7.09496 8.86645e-05 10
-7.22754 29.8751 8.23593 8.5104e-05 10
-2.36251 9.61843 -2.65386 7.90067e-05 4
-3.2655 13.2947 -2.66105 2.92524e-05 4
-4.00997 16.3257 -2.6626 5.72095e-05 4
-4.96158 20.2 -2.55396 3.00092e-05 4
-7.30105 29.7246 -2.67786 9.94089e-05 10
-7.2972 29.7089 -1.60326 0.000100498 10
-7.29912 29.7168 1.60368 0.000100391 10
-7.30111 29.7248 2.67788 9.92315e-05 10
-7.30344 29.7343 5.95156 9.25923e-05 10
-7.3044 29.7382 7.06968 8.94216e-05 10
-7.30847 29.7548 8.20976 8.5835e-05 10
-2.40078 9.62901 -2.65907 0.000207368 4
-2.78861 11.1845 -2.6612 5.96635e-05 4
-3.311 13.2797 -2.66033 8.66584e-05 4
-7.37927 29.5967 -2.66864 0.000100231 10
-7.37756 29.5898 -1.59821 0.000101328 10
-7.3837 29.6144 1.59954 0.000101221 10
-7.38008 29.5999 2.66893 0.000100053 10
-7.38793 29.6314 5.93608 9.3367e-05 10
-7.38511 29.6201 7.04768 9.01736e-05 10
-7.38746 29.6295 8.18224 8.65612e-05 10
-2.43502 9.6231 -2.65977 0.000190887 4
-2.8271 11.1726 -2.66069 8.74938e-05 4
-3.35848 13.2726 -2.66124 3.68233e-05 4
-7.45968 29.4804 -2.66049 0.000101047 10
-7.45527 29.463 -1.59276 0.000102152 10
-7.46259 29.4919 1.59432 0.000102044 10
-7.45924 29.4787 2.66033 0.000100869 10
-7.46255 29.4918 5.9133 9.41361e-05 10
-7.46625 29.5064 7.02678 9.09202e-05 10
-7.46192 29.4892 8.15066 8.72822e-05 10
-2.46342 9.59439 -2.6542 9.54318e-05 4
-2.86365 11.1532 -2.65844 0.000119293 4
-3.40139 13.2475 -2.65858 5.63081e-05 4
-5.17719 20.1638 -2.55611 3.04039e-05 4
-7.53684 29.354 -2.65145 0.000101856 10
-7.53426 29.344 -1.58774 0.00010297 10
-7.53606 29.351 1.58811 0.000102862 10
-7.53741 29.3563 2.65165 0.000101678 10
-7.53727 29.3557 3.72134 9.99405e-05 10
-7.54446 29.3837 5.89688 9.48996e-05 10
-7.5426 29.3765 7.00208 9.16615e-05 10
-7.54183 29.3735 8.12589 8.79981e-05 10
-2.50029 9.59876 -2.6578 0.000164518 4
-2.90061 11.1356 -2.65665 0.000125239 4
-3.44866 13.2396 -2.6594 6.17115e-05 4
-4.23749 16.268 -2.66257 3.74308e-05 4
-7.61118 29.2198 -2.6417 0.00010266 10
-7.60958 29.2136 -1.58211 0.000103781 10
-7.6192 29.2506 1.58411 0.000103673 10
-7.6176 29.2444 2.64393 0.000102481 10
-7.61966 29.2523 3.71159 0.000100732 10
-7.62297 29.2651 6.98182 9.2397e-05 10
-7.61776 29.2451 8.09767 8.87086e-05 10
-2.53587 9.59788 -2.65999 0.000138178 4
-2.94352 11.1408 -2.66031 0.000162986 4
-4.29642 16.2613 -2.66392 3.74224e-05 4
-7.69177 29.1122 -2.63438 0.000103457 10
-7.68911 29.1021 -1.57751 0.000104585 10
-7.69374 29.1196 1.57846 0.000104477 10
-7.69462 29.123 2.63536 0.000103278 10
-7.69561 29.1267 3.69903 0.000101517 10
-7.70118 29.1478 6.96021 9.31268e-05 10
-7.70044 29.145 8.07735 8.94136e-05 10
-2.57046 9.59307 -2.66113 0.000177636 4
-2.98216 11.1296 -2.6601 0.000115267 4
-3.54238 13.2203 -2.66043 6.06076e-05 4
-4.35619 16.2575 -2.66578 8.29174e-05 4
-5.38268 20.0884 -2.55356 3.67043e-05 4
-7.76677 28.986 -2.62541 0.000104247 10
-7.76838 28.992 -1.57301 0.000105383 10
-7.76955 28.9964 1.57324 0.000105275 10
-7.77189 29.0051 2.62713 0.000104068 10
-7.76861 28.9929 3.68546 0.000102296 10
-7.77627 29.0214 6.93648 9.38507e-05 10
-7.77384 29.0124 8.04807 9.01128e-05 10
-2.60336 9.58198 -2.66056 0.000328916 4
-3.01986 11.1149 -2.65911 4.37156e-05 4
-3.59233 13.222 -2.66326 4.8694e-05 4
-4.40757 16.2226 -2.66255 0.000103118 4
-5.45682 20.0845 -2.55546 3.20537e-05 4
-7.84217 28.864 -2.61682 0.00010503 10
-7.84245 28.8651 -1.56759 0.000106174 10
-7.84449 28.8726 1.568 0.000106065 10
-7.84303 28.8672 2.61711 0.000104851 10
-7.84421 28.8715 3.67349 0.000103068 10
-7.84955 28.8912 6.91185 9.45684e-05 10
-7.85445 28.9092 8.02701 9.08062e-05 10
-2.63801 9.57723 -2.66178 0.000154572 4
-3.06129 11.1139 -2.66141 9.73526e-05 4
-3.63654 13.2024 -2.66186 3.35389e-05 4
-4.4693 16.2257 -2.6656 8.89446e-05 4
-7.91567 28.7377 -2.60785 0.000105807 10
-7.92084 28.7564 -1.56319 0.000106958 10
-7.91961 28.752 1.56295 0.000106849 10
-7.92183 28.76 2.60988 0.000105627 10
-7.92499 28.7715 3.66426 0.000103833 10
-7.92795 28.7823 6.89237 9.52799e-05 10
-7.92482 28.7709 7.99624 9.14937e-05 10
-2.66721 9.55288 -2.65759 4.93256e-05 4
-3.09658 11.0907 -2.65842 0.000105285 4
-3.68429 13.1957 -2.66308 4.8677e-05 4
-4.52162 16.1947 -2.66308 9.44824e-05 4
-5.59679 20.0455 -2.55541 3.16126e-05 4
-7.99179 28.6234 -2.6 0.000106576 10
-7.99651 28.6403 -1.55838 0.000107734 10
-7.99751 28.6439 1.55858 0.000107626 10
-7.99535 28.6362 2.60116 0.000106396 10
-7.99529 28.6359 3.65053 0.000104591 10
-7.99956 28.6512 6.86764 9.5985e-05 10
-8.00479 28.67 7.9759 9.2175e-05 10
-2.7047 9.55821 -2.66168 0.000256462 4
-3.13954 11.0949 -2.66203 0.000260195 4
-4.58499 16.203 -2.66707 4.44524e-05 4
-8.06902 28.5153 -2.59272 0.000107338 10
-8.0675 28.51 -1.55281 0.000108503 10
-8.07601 28.54 1.55445 0.000108395 10
-8.07528 28.5374 2.59474 0.000107158 10
-8.07357 28.5314 3.64077 0.000105342 10
-8.07965 28.5529 6.85079 9.66835e-05 10
-8.08037 28.5554 7.95184 9.28501e-05 10
-2.73578 9.5408 -2.65947 0.000121641 4
-3.1786 11.0851 -2.66233 5.56062e-05 4
-3.77442 13.163 -2.66174 4.10906e-05 4
-5.7363 20.0049 -2.55528 3.15934e-05 4
-8.14265 28.3968 -2.58452 0.000108092 10
-8.14543 28.4065 -1.54872 0.000109265 10
-8.14979 28.4217 1.54955 0.000109156 10
-8.14792 28.4152 2.58619 0.000107912 10
-8.14976 28.4216 3.63037 0.000106085 10
-8.14829 28.4165 6.82485 9.73753e-05 10
-8.15381 28.4357 7.92639 9.35186e-05 10
-2.76608 9.52091 -2.65661 0.000154498 4
-3.21404 11.0628 -2.65965 0.00019658 4
-4.80827 16.5502 -2.72967 0.000105501 4
-8.21252 28.2677 -2.57536 0.000108839 10
-8.22009 28.2937 -1.54412 0.000110018 10
-8.21904 28.2901 1.54393 0.000109909 10
-8.22195 28.3001 2.57832 0.000108659 10
-8.22249 28.302 3.61873 0.000106821 10
-8.22768 28.3199 6.80849 9.80602e-05 10
-8.227 28.3175 7.90139 9.41806e-05 10
-2.80519 9.53122 -2.6622 0.000213642 4
-3.2569 11.066 -2.66314 5.36051e-05 4
-3.86961 13.1478 -2.66407 0.0001135 4
-4.88976 16.614 -2.743 7.65126e-05 1
-5.88068 19.9809 -2.55739 2.90483e-05 4
-8.289 28.1636 -2.5685 0.000109578 10
-8.2927 28.1762 -1.53928 0.000110764 10
-8.29564 28.1862 -0.512858 0.000111343 10
-8.29289 28.1768 0.512687 0.000111306 10
-8.29229 28.1748 1.5392 0.000110655 10
-8.29126 28.1713 2.5692 0.000109398 10
-8.29476 28.1832 3.60722 0.00010755 10
-8.30053 28.2028 4.65633 0.000105135 10
-8.29428 28.1815 5.71027 0.000102186 10
-8.30262 28.2099 6.78899 9.87379e-05 10
-8.29825 28.195 7.87525 9.48358e-05 10
-2.83663 9.51527 -2.66049 0.000111738 4
-3.28965 11.0349 -2.65841 8.7344e-05 4
-3.91633 13.1371 -2.66464 7.99769e-05 4
-4.94367 16.5832 -2.74075 7.64954e-05 1
-8.36053 28.0448 -2.56031 0.000110308 10
-8.36772 28.069 -1.53501 0.000111502 10
-8.36516 28.0604 -0.511097 0.000112084 10
-8.36485 28.0593 0.511077 0.000112047 10
-8.36589 28.0628 1.53467 0.000111393 10
-8.36517 28.0604 2.56173 0.000110128 10
-8.37192 28.083 3.59812 0.00010827 10
-8.37251 28.085 4.64169 0.000105842 10
-8.37158 28.0819 5.69596 0.000102876 10
-8.37225 28.0842 6.76572 9.94084e-05 10
-8.37498 28.0933 7.85495 9.54842e-05 10
-2.86648 9.49423 -2.65739 0.000131441 4
-3.32876 11.0254 -2.6589 0.000184587 4
-3.95981 13.1155 -2.66306 5.9432e-05 4
-5.00993 16.5937 -2.74536 7.64783e-05 1
-8.43559 27.94 -2.55342 0.000111031 10
-8.43927 27.9522 -1.53022 0.000112231 10
-8.4408 27.9573 -0.509753 0.000112817 10
-8.43766 27.9469 0.509563 0.00011278 10
-8.43796 27.9479 1.52999 0.000112122 10
-8.44067 27.9569 2.55496 0.000110851 10
-8.4395 27.953 3.58522 0.000108982 10
-8.44576 27.9737 4.62813 0.000106541 10
-8.43975 27.9538 5.67592 0.000103558 10
-8.4428 27.9639 6.74381 0.000100072 10
-8.44847 27.9827 7.83222 9.61255e-05 10
-2.89848 9.48051 -2.65637 0.000193852 4
-3.36749 11.0146 -2.6591 0.000138917 4
-4.00255 13.0918 -2.66106 6.5904e-05 4
-5.06635 16.5713 -2.74456 7.64612e-05 1
-8.5104 27.8363 -2.54664 0.000111745 10
-8.51135 27.8394 -1.52567 0.000112952 10
-8.51377 27.8473 -0.508287 0.000113541 10
-8.50668 27.8241 0.507863 0.000113504 10
-8.50942 27.8331 1.52532 0.000112843 10
-8.51353 27.8465 2.54757 0.000111565 10
-8.51556 27.8532 3.5762 0.000109687 10
-8.5139 27.8477 4.61218 0.000107232 10
-8.51547 27.8529 5.66143 0.000104233 10
-8.5147 27.8504 6.72355 0.000100727 10
-8.51974 27.8668 7.80808 9.67596e-05 10
-2.93064 9.46738 -2.65554 0.000259533 4
-3.41022 11.0166 -2.66246 9.32597e-05 4
-4.05042 13.0848 -2.6625 0.0001037 4
-5.1247 16.5552 -2.74485 7.64441e-05 1
-8.58084 27.7202 -2.53874 0.000112451 10
-8.58032 27.7185 -1.52067 0.000113664 10
-8.57879 27.7136 -0.506389 0.000114256 10
-8.58672 27.7392 0.506857 0.00011422 10
