VERSION 0.7
FIELDS x y z intensity label
SIZE 4 4 4 4 4
TYPE F F F F F
COUNT 1 1 1 1 1
WIDTH 1174
HEIGHT 1
VIEWPOINT 11.1014 5.10737 2.72754 0.999988 0.000666174 0.000134978 -0.00485348
POINTS 1174
DATA ascii
7.27307 -9.24242 -2.71523 0.000313614 1
7.97036 -10.1285 -2.50527 0.00201031 10
7.97613 -10.1359 -2.04282 0.00205693 10
8.08195 -10.2703 -1.60467 0.00103042 10
8.07993 -10.2678 -1.1431 0.00104453 10
8.08601 -10.2755 -0.685259 0.00105403 10
8.08763 -10.2775 -0.22828 0.00105884 10
8.07958 -10.2673 0.228052 0.0010589 10
8.0861 -10.2756 0.685267 0.00105421 10
7.97412 -10.1333 1.12813 0.00165779 10
7.96963 -10.1276 1.58236 0.00163591 10
7.97372 -10.1328 2.0422 0.00160697 10
7.96828 -10.1259 2.50462 0.00157125 10
7.97437 -10.1336 2.97704 0.00152913 10
7.97208 -10.1307 3.45421 0.00148104 10
6.28996 -7.93596 -2.71335 0.000517594 1
7.30251 -9.21348 -2.7142 0.000313604 1
8.02413 -10.1239 -2.51105 0.00199035 10
8.03291 -10.135 -2.04828 0.00203653 10
8.07655 -10.1901 -1.59652 0.00104771 10
8.07378 -10.1866 -1.13719 0.00106204 10
8.07793 -10.1918 -0.681555 0.0010717 10
8.07013 -10.182 -0.226781 0.00107658 10
8.07185 -10.1841 0.22683 0.00107664 10
8.08571 -10.2016 0.682212 0.00107187 10
8.03283 -10.1349 1.13142 0.00164139 10
8.03538 -10.1381 1.58838 0.00161972 10
8.02877 -10.1298 2.04723 0.00159104 10
8.02424 -10.1241 2.51108 0.00155566 10
8.01728 -10.1153 2.97986 0.00151395 10
8.03363 -10.1359 3.46553 0.00146631 10
6.32109 -7.91829 -2.71484 0.00051758 1
7.32646 -9.1777 -2.71118 0.000313593 1
8.09527 -10.1408 -2.52222 0.00197044 10
8.09332 -10.1383 -2.05465 0.00201618 10
8.07884 -10.1202 -1.58998 0.00135636 10
8.08733 -10.1308 -1.13411 0.00137512 10
8.07913 -10.1205 -0.678671 0.00138784 10
8.07932 -10.1208 -0.226045 0.00139439 10
8.08151 -10.1235 0.226106 0.00139469 10
8.08504 -10.128 0.679168 0.00138875 10
8.07952 -10.121 1.13302 0.00162502 10
8.07912 -10.1205 1.59004 0.00160356 10
8.08617 -10.1294 2.05284 0.00157515 10
8.07504 -10.1154 2.51592 0.00154011 10
8.07636 -10.1171 2.98868 0.00149879 10
8.08259 -10.1249 3.47138 0.00145161 10
6.35519 -7.90426 -2.71761 0.000517565 1
7.35586 -9.14884 -2.71022 0.000313583 1
8.14012 -10.1243 -2.52517 0.00195057 10
8.15458 -10.1422 -2.0612 0.00199588 10
8.13658 -10.1199 -1.59438 0.00134271 10
8.14126 -10.1257 -1.13671 0.0013613 10
8.14534 -10.1308 -0.681258 0.0013739 10
8.14273 -10.1275 -0.226829 0.00138039 10
8.14151 -10.126 0.226795 0.00138069 10
8.13727 -10.1207 0.680583 0.0013748 10
8.14377 -10.1288 1.13706 0.0016087 10
8.13833 -10.122 1.59473 0.00158743 10
8.14636 -10.132 2.05913 0.00155931 10
8.13437 -10.1171 2.52338 0.0015246 10
8.14796 -10.134 3.00206 0.00148367 10
8.13216 -10.1144 3.47749 0.00143695 10
6.37934 -7.87783 -2.71617 0.00051755 1
7.40252 -9.14136 -2.71564 0.000313572 1
8.20902 -10.1373 -2.53555 0.00193076 10
8.2051 -10.1325 -2.06502 0.00197563 10
12.9224 -15.9578 -2.52124 8.61861e-05 10
15.7303 -19.4253 0.436302 0.000300523 10
12.9358 -15.9744 1.07726 3.6751e-05 10
8.20457 -10.1318 1.14061 0.00159241 10
8.20902 -10.1373 1.60163 0.00157135 10
8.19159 -10.1158 2.06162 0.0015435 10
8.19739 -10.1229 2.53196 0.00150913 10
8.19717 -10.1227 3.00716 0.0014686 10
8.20055 -10.1268 3.49159 0.00142232 10
6.40827 -7.85732 -2.71679 0.000517535 1
7.4219 -9.10015 -2.71108 0.000313561 1
8.26484 -10.1337 -2.54185 0.001911 10
8.2564 -10.1234 -2.06903 0.00195543 10
8.34889 -10.2368 -1.62194 0.00102265 10
8.35684 -10.2465 -1.1568 0.00103668 10
8.34272 -10.2292 -0.691777 0.00104613 10
8.34576 -10.2329 -0.230489 0.00105091 10
8.34658 -10.2339 0.230512 0.00105097 10
8.34656 -10.2339 0.692095 0.0010463 10
8.25053 -10.1162 1.14208 0.00157616 10
8.2496 -10.115 1.60265 0.00155531 10
8.25671 -10.1237 2.0691 0.00152772 10
8.25769 -10.1249 2.53965 0.00149369 10
8.25951 -10.1272 3.01704 0.00145355 10
8.25628 -10.1232 3.50025 0.00140773 10
6.42613 -7.82331 -2.71277 0.00051752 1
7.46711 -9.09062 -2.71599 0.000313551 1
8.32872 -10.1396 -2.55059 0.00189128 10
8.32029 -10.1293 -2.07616 0.00193529 10
8.35429 -10.1707 -1.61608 0.00103924 10
8.35342 -10.1696 -1.1514 0.00105348 10
8.34525 -10.1597 -0.689042 0.00106308 10
8.34299 -10.1569 -0.229432 0.00106793 10
8.35511 -10.1717 0.229765 0.00106799 10
8.34076 -10.1542 0.688671 0.00106325 10
8.32336 -10.133 1.14726 0.00155996 10
8.31397 -10.1216 1.60829 0.00153931 10
8.31319 -10.1206 2.07439 0.001512 10
8.31067 -10.1176 2.54507 0.00147829 10
8.32149 -10.1308 3.02675 0.00143855 10
8.30711 -10.1132 3.50682 0.00139318 10
6.45948 -7.80817 -2.71532 0.000517505 1
7.49936 -9.06518 -2.71619 0.00031354 1
8.37279 -10.121 -2.55325 0.00187163 10
8.38821 -10.1396 -2.08427 0.0019152 10
8.37312 -10.1214 -1.61288 0.00128849 10
8.37557 -10.1243 -1.14958 0.00130636 10
8.38431 -10.1349 -0.689342 0.00131849 10
8.37658 -10.1256 -0.229382 0.00132472 10
8.37652 -10.1255 0.229381 0.00132502 10
8.3788 -10.1282 0.688889 0.00131936 10
8.37969 -10.1293 1.15014 0.0015438 10
8.38123 -10.1312 1.61444 0.00152335 10
8.38148 -10.1315 2.08259 0.00149631 10
8.36617 -10.113 2.55124 0.00146294 10
8.37935 -10.1289 3.03491 0.00142359 10
8.3699 -10.1175 3.51839 0.00137867 10
6.4819 -7.77982 -2.71332 0.00051749 1
7.52675 -9.03389 -2.71467 0.000313529 1
8.43456 -10.1235 -2.5613 0.00185202 10
8.43466 -10.1236 -2.08702 0.00189516 10
8.49866 -10.2004 -1.6302 0.000302502 10
8.43648 -10.1258 -0.690721 0.00130472 10
8.44607 -10.1373 -0.230315 0.0013109 10
8.44194 -10.1323 0.230202 0.00131119 10
8.43218 -10.1206 0.690369 0.00130559 10
8.4427 -10.1332 1.15393 0.00152768 10
8.44323 -10.1339 1.61956 0.00150744 10
8.43984 -10.1298 2.0883 0.00148067 10
8.44045 -10.1305 2.56309 0.00144763 10
8.43882 -10.1286 3.04363 0.00140867 10
8.42369 -10.1104 3.52615 0.00136419 10
6.51757 -7.76734 -2.71688 0.000517475 1
7.547 -8.99416 -2.71063 0.000313518 1
8.50287 -10.1333 -2.57129 0.00183248 10
8.48906 -10.1169 -2.09173 0.00187519 10
8.53605 -10.1729 -1.63055 0.000302482 10
8.6277 -10.2821 -1.1743 0.00101282 10
8.61775 -10.2702 -0.702623 0.00102208 10
8.62543 -10.2794 -0.234226 0.00102676 10
8.61515 -10.2671 0.233947 0.00102682 10
8.60923 -10.2601 0.701928 0.00102224 10
8.50121 -10.1314 1.15708 0.00151161 10
8.48884 -10.1166 1.62153 0.00149158 10
8.49268 -10.1212 2.09262 0.00146507 10
8.49438 -10.1232 2.56872 0.00143236 10
8.49257 -10.1211 3.05025 0.0013938 10
8.48918 -10.117 3.53876 0.00134977 10
6.54287 -7.74244 -2.71614 0.000517459 1
7.59414 -8.98645 -2.71628 0.000313507 1
8.56108 -10.1307 -2.57818 0.00181299 10
8.55822 -10.1273 -2.10004 0.00185527 10
8.5695 -10.1406 -1.63016 0.000302462 10
8.61861 -10.1987 -1.16821 0.00102881 10
8.6104 -10.189 -0.699119 0.00103821 10
8.6117 -10.1906 -0.232886 0.00104296 10
8.6203 -10.2008 0.233118 0.00104302 10
8.61936 -10.1996 0.699847 0.00103838 10
8.55341 -10.1216 1.15937 0.00149559 10
8.54543 -10.1122 1.62559 0.00147576 10
8.56118 -10.1308 2.10077 0.00144952 10
8.55365 -10.1219 2.57594 0.00141714 10
8.55729 -10.1262 3.06078 0.00137897 10
8.54835 -10.1156 3.54868 0.00133538 10
6.57593 -7.72669 -2.71866 0.000517444 1
7.61481 -8.94738 -2.71249 0.000313496 1
8.61711 -10.1251 -2.58439 0.00179356 10
8.62015 -10.1286 -2.10655 0.00183541 10
8.61696 -10.1249 -1.63246 0.00186951 10
8.61882 -10.1271 -1.16344 0.00125204 10
8.62397 -10.1331 -0.697345 0.00105447 10
8.61112 -10.118 -0.231913 0.00105929 10
8.61106 -10.118 0.231912 0.00105935 10
8.61127 -10.1182 0.696318 0.00105464 10
8.61262 -10.1198 1.1626 0.00147962 10
8.61971 -10.1281 1.63298 0.00145999 10
8.60894 -10.1155 2.10381 0.00143401 10
8.62164 -10.1304 2.58575 0.00140197 10
8.61998 -10.1284 3.07054 0.00136418 10
8.61798 -10.1261 3.56289 0.00132104 10
6.59536 -7.69494 -2.71557 0.000517428 1
7.64984 -8.92522 -2.71385 0.000313485 1
8.67687 -10.1235 -2.5917 0.00177419 10
8.68664 -10.1349 -2.11414 0.00181562 10
8.67053 -10.1161 -1.63591 0.00184937 10
8.683 -10.1306 -1.16732 0.00123856 10
8.6839 -10.1317 -0.699327 0.00125009 10
8.68255 -10.1301 -0.232884 0.00125602 10
8.68256 -10.1301 0.232883 0.0012563 10
8.67006 -10.1155 0.698212 0.00125093 10
8.67649 -10.123 1.16645 0.0014637 10
8.67059 -10.1162 1.63592 0.00144427 10
8.67881 -10.1257 2.11224 0.00141856 10
8.68299 -10.1306 2.59353 0.00138684 10
8.67623 -10.1227 3.07797 0.00134944 10
8.66966 -10.1151 3.56964 0.00130675 10
6.61355 -7.66188 -2.71203 0.000517413 1
7.68703 -8.90551 -2.716 0.000313473 1
8.74745 -10.134 -2.6022 0.00175489 10
8.74335 -10.1293 -2.11932 0.00179589 10
8.74869 -10.1355 -1.64397 0.0018293 10
8.88728 -10.296 -1.18995 0.000990274 10
8.89618 -10.3063 -0.713521 0.000999352 10
8.88993 -10.2991 -0.23748 0.00100394 10
8.89025 -10.2995 0.237488 0.00100399 10
8.89678 -10.307 0.713569 0.00099951 10
8.72862 -10.1122 1.1687 0.00144782 10
8.74427 -10.1303 1.64314 0.0014286 10
8.73023 -10.1141 2.11614 0.00140316 10
8.74145 -10.1271 2.60042 0.00137177 10
8.72655 -10.1098 3.08329 0.00133475 10
8.73913 -10.1244 3.58367 0.0012925 10
6.64163 -7.64032 -2.71259 0.000517397 1
7.7124 -8.87211 -2.71401 0.000313462 1
8.79674 -10.1195 -2.60634 0.00173565 10
8.79972 -10.1229 -2.12441 0.00177622 10
8.79294 -10.1151 -1.64564 0.00180929 10
8.88163 -10.2172 -1.18441 0.00100551 10
8.89697 -10.2348 -0.710714 0.00101472 10
8.88047 -10.2158 -0.236273 0.00101938 10
8.88293 -10.2186 0.236338 0.00101943 10
8.89214 -10.2292 0.710329 0.00101488 10
8.80008 -10.1233 1.17353 0.00143201 10
8.79263 -10.1148 1.64558 0.00141298 10
8.80608 -10.1302 2.12595 0.0013878 10
8.7903 -10.1121 2.60443 0.00135674 10
8.78994 -10.1117 3.09319 0.00132011 10
8.78859 -10.1101 3.58946 0.0012783 10
6.68289 -7.6338 -2.71854 0.000517381 1
7.73898 -8.84016 -2.71248 0.000313451 1
8.86314 -10.1243 -2.61553 0.00171648 10
8.86181 -10.1228 -2.13086 0.00175663 10
8.85339 -10.1131 -1.65034 0.00178934 10
8.88267 -10.1466 -1.17982 0.00102087 10
8.88399 -10.1481 -0.706843 0.00103021 10
8.89444 -10.16 -0.2357 0.00103493 10
8.89662 -10.1625 0.235757 0.00103499 10
8.87831 -10.1416 0.706391 0.00103037 10
8.85042 -10.1097 1.17553 0.00141624 10
8.85775 -10.1181 1.65115 0.00139741 10
8.86422 -10.1255 2.13144 0.0013725 10
8.84946 -10.1087 2.61149 0.00134176 10
8.86396 -10.1252 3.10679 0.00130552 10
8.85631 -10.1165 3.60267 0.00126414 10
6.70362 -7.60377 -2.71616 0.000517365 1
7.77154 -8.81508 -2.71309 0.000313439 1
8.93542 -10.1353 -2.6264 0.00169737 10
8.9275 -10.1263 -2.13814 0.0017371 10
8.92925 -10.1283 -1.65788 0.00176947 10
8.9333 -10.1328 -1.18184 0.00118509 10
8.91944 -10.1171 -0.70685 0.00119614 10
8.91635 -10.1136 -0.235344 0.00120184 10
8.92244 -10.1205 0.235504 0.00120212 10
8.92959 -10.1286 0.707654 0.00119697 10
8.91728 -10.1147 1.17972 0.00140053 10
8.91499 -10.1121 1.65523 0.0013819 10
8.91088 -10.1074 2.13416 0.00135725 10
8.92473 -10.1231 2.62326 0.00132684 10
8.92145 -10.1194 3.11453 0.00129098 10
8.91254 -10.1093 3.61117 0.00125004 10
6.72317 -7.57249 -2.71336 0.000517349 1
7.8034 -8.78919 -2.71349 0.000313427 1
8.98459 -10.1196 -2.63046 0.00167833 10
8.99787 -10.1345 -2.14651 0.00171764 10
8.97943 -10.1138 -1.66063 0.00174967 10
17.2279 -19.4042 0.452932 0.00025514 10
13.6434 -15.3669 1.07696 3.68375e-05 10
8.98457 -10.1196 1.18394 0.00138487 10
8.97711 -10.1112 1.6602 0.00136644 10
8.97965 -10.114 2.14216 0.00134206 10
8.98994 -10.1256 2.63202 0.00131197 10
8.99088 -10.1267 3.12641 0.00127649 10
8.97302 -10.1066 3.62136 0.00123599 10
6.75837 -7.55883 -2.7169 0.000517333 1
7.83113 -8.75865 -2.71249 0.000313416 1
9.04324 -10.1143 -2.63727 0.00165936 10
9.05857 -10.1315 -2.15254 0.00169825 10
9.05799 -10.1308 -1.66861 0.00172994 10
9.16359 -10.2489 -1.20281 0.000983426 10
9.16728 -10.253 -0.720801 0.000992457 10
9.15646 -10.2409 -0.239788 0.000997023 10
9.16392 -10.2493 0.239983 0.000997075 10
9.16685 -10.2526 0.720767 0.000992612 10
9.0473 -10.1189 1.18754 0.00136927 10
9.04074 -10.1115 1.66543 0.00135104 10
9.05376 -10.1261 2.1514 0.00132692 10
9.03577 -10.106 2.63509 0.00129715 10
9.04136 -10.1122 3.13167 0.00126206 10
9.05362 -10.1259 3.6396 0.00122199 10
6.77206 -7.52114 -2.71183 0.000517316 1
7.86513 -8.73512 -2.71368 0.000313404 1
9.1088 -10.1164 -2.64608 0.00164047 10
9.10527 -10.1124 -2.15523 0.00167893 10
9.11531 -10.1236 -1.67265 0.00171028 10
9.1619 -10.1753 -1.19792 0.00099806 10
9.15706 -10.1699 -0.717201 0.00100722 10
9.16664 -10.1806 -0.239123 0.00101185 10
9.15207 -10.1644 0.238742 0.0010119 10
9.15703 -10.1699 0.717199 0.00100737 10
9.11825 -10.1268 1.19221 0.00135373 10
9.10283 -10.1097 1.67036 0.0013357 10
9.11217 -10.1201 2.15687 0.00131184 10
9.11765 -10.1262 2.64865 0.00128239 10
9.10438 -10.1114 3.14126 0.00124768 10
9.10113 -10.1078 3.64449 0.00120804 10
6.80508 -7.50495 -2.71454 0.0005173 1
7.89756 -8.7098 -2.71437 0.000313392 1
9.18444 -10.129 -2.65776 0.00162164 10
9.17983 -10.1239 -2.16451 0.00165969 10
9.1828 -10.1272 -1.67854 0.0016907 10
9.18496 -10.1296 -1.1963 0.00113237 10
9.18325 -10.1277 -0.716479 0.00114297 10
9.18407 -10.1286 -0.238654 0.00114843 10
9.16965 -10.1127 0.238279 0.00114869 10
9.16894 -10.1119 0.715362 0.00114376 10
9.18174 -10.126 1.19588 0.00133825 10
9.17529 -10.1189 1.67716 0.00132041 10
9.1632 -10.1056 2.16058 0.00129681 10
9.17753 -10.1214 2.65576 0.00126769 10
9.17485 -10.1184 3.15337 0.00123335 10
9.16148 -10.1037 3.65451 0.00119415 10
6.82392 -7.47315 -2.71164 0.000517283 1
7.91685 -8.67006 -2.71058 0.00031338 1
9.23529 -10.1139 -2.66225 0.00160289 10
9.24277 -10.1221 -2.171 0.00164053 10
9.23299 -10.1114 -1.68125 0.0016712 10
9.23055 -10.1088 -1.19764 0.00111932 10
9.23037 -10.1086 -0.717398 0.0011298 10
9.23467 -10.1133 -0.23905 0.0011352 10
9.239 -10.118 0.239162 0.00113546 10
9.23524 -10.1139 0.717777 0.00113059 10
9.24567 -10.1253 1.1996 0.00132283 10
9.2412 -10.1204 1.68274 0.00130519 10
9.24085 -10.12 2.17055 0.00128185 10
9.23187 -10.1102 2.66126 0.00125304 10
9.23355 -10.112 3.16139 0.00121908 10
9.23525 -10.1139 3.66984 0.00118032 10
6.86499 -7.46562 -2.71759 0.000517267 1
7.96243 -8.65909 -2.71582 0.000313369 1
9.31143 -10.1261 -2.67399 0.00158422 10
9.30461 -10.1187 -2.17722 0.00162144 10
9.31121 -10.1259 -1.68904 0.00165177 10
9.42846 -10.2534 -1.21866 0.00096241 10
9.43236 -10.2576 -0.73031 0.000971271 10
9.42981 -10.2548 -0.243173 0.000975751 10
9.41942 -10.2435 0.242905 0.000975801 10
9.43732 -10.263 0.730694 0.000971421 10
9.30088 -10.1146 1.20217 0.00130748 10
9.29702 -10.1104 1.68647 0.00129003 10
9.29493 -10.1082 2.17495 0.00126694 10
9.30032 -10.114 2.6708 0.00123846 10
9.30292 -10.1169 3.17303 0.00120487 10
9.30853 -10.123 3.68489 0.00116653 10
6.88217 -7.43207 -2.7141 0.00051725 1
7.98614 -8.62425 -2.71362 0.000313357 1
9.36958 -10.1182 -2.68053 0.00156562 10
9.3727 -10.1216 -2.18487 0.00160243 10
9.3671 -10.1155 -1.69277 0.00163243 10
9.43366 -10.1874 -1.21473 0.000976369 10
9.43749 -10.1916 -0.727948 0.000985352 10
9.42741 -10.1807 -0.242193 0.000989893 10
9.42654 -10.1797 0.242171 0.000989944 10
9.4321 -10.1857 0.727532 0.000985503 10
9.37647 -10.1257 1.20737 0.00129218 10
9.36726 -10.1157 1.6928 0.00127493 10
9.36183 -10.1099 2.18233 0.0012521 10
9.37224 -10.1211 2.68129 0.00122393 10
9.36601 -10.1144 3.18249 0.00119072 10
9.36728 -10.1157 3.69415 0.00115281 10
6.91885 -7.41956 -2.71834 0.000517234 1
8.0241 -8.6048 -2.7163 0.000313345 1
9.44205 -10.1254 -2.69113 0.0015471 10
9.44008 -10.1233 -2.19233 0.0015835 10
9.43318 -10.1159 -1.69832 0.00161316 10
9.43847 -10.1215 -1.21079 0.00108048 10
9.42637 -10.1085 -0.724364 0.00109062 10
9.44223 -10.1256 -0.241664 0.00109584 10
9.42424 -10.1063 0.241204 0.0010961 10
9.43837 -10.1214 0.725286 0.00109139 10
9.43202 -10.1146 1.20997 0.00127695 10
9.43589 -10.1188 1.6988 0.00125989 10
9.43508 -10.1179 2.19116 0.00123732 10
9.42633 -10.1085 2.68665 0.00120947 10
9.42993 -10.1124 3.1922 0.00117663 10
9.4228 -10.1047 3.70211 0.00113914 10
6.9372 -7.38737 -2.7154 0.000517217 1
8.04249 -8.56438 -2.71238 0.000313332 1
9.49888 -10.1153 -2.69725 0.00152866 10
9.49689 -10.1132 -2.19731 0.00156465 10
9.49625 -10.1125 -1.70331 0.00159398 10
9.49534 -10.1115 -1.21355 0.00106764 10
9.51028 -10.1274 -0.728091 0.00107766 10
9.50888 -10.1259 -0.242464 0.00108283 10
9.48995 -10.1058 0.241981 0.00108309 10
9.49706 -10.1133 0.727079 0.00107843 10
9.49524 -10.1114 1.21354 0.00126178 10
9.50247 -10.1191 1.70442 0.00124491 10
9.49296 -10.109 2.1964 0.0012226 10
9.5048 -10.1216 2.69893 0.00119506 10
9.49654 -10.1128 3.20277 0.0011626 10
9.49896 -10.1154 3.71814 0.00112553 10
6.96351 -7.36371 -2.71562 0.0005172 1
8.07766 -8.54189 -2.71417 0.00031332 1
9.55929 -10.1087 -2.70437 0.0015103 10
9.57436 -10.1246 -2.20704 0.00154588 10
9.5759 -10.1262 -1.71124 0.00157488 10
9.70455 -10.2623 -1.23571 0.000942348 10
9.68953 -10.2464 -0.739072 0.000951046 10
9.69947 -10.2569 -0.24641 0.000955443 10
9.698 -10.2553 0.246372 0.000955492 10
9.69346 -10.2506 0.739372 0.000951191 10
9.56476 -10.1144 1.21791 0.00124668 10
9.56651 -10.1163 1.70956 0.00123 10
9.55355 -10.1026 2.20224 0.0011252 10
9.55485 -10.104 2.70311 0.00109964 10
9.53754 -10.0857 3.20471 0.00106955 10
9.53817 -10.0863 3.71968 0.00103524 10
6.97888 -7.32855 -2.71162 0.000517183 1
8.1062 -8.51235 -2.71376 0.000313308 1
9.61683 -10.0987 -2.71066 0.00017131 1
9.64037 -10.1234 -2.2141 0.0015272 10
9.62676 -10.1091 -1.71401 0.00155587 10
9.69778 -10.1837 -1.23031 0.000955671 10
9.70248 -10.1886 -0.737342 0.000964486 10
9.70816 -10.1946 -0.245725 0.000968942 10
9.68847 -10.1739 0.245226 0.000968991 10
9.70018 -10.1862 0.737167 0.000964632 10
9.61999 -10.102 1.22044 0.00123165 10
9.63849 -10.1214 1.7161 0.00121516 10
9.53893 -10.0169 2.1908 0.00114109 10
9.55201 -10.0306 2.69239 0.00111518 10
9.54309 -10.0212 3.1948 0.00108469 10
9.55131 -10.0299 3.71113 0.00104992 10
7.01163 -7.31166 -2.71441 0.000517166 1
8.12737 -8.47514 -2.71093 0.000313296 1
9.65694 -10.0702 -2.71204 0.000171302 1
9.69477 -10.1096 -2.21847 0.0015086 10
9.70121 -10.1163 -1.72097 0.00153694 10
9.69812 -10.1131 -1.22587 0.00102946 10
9.69411 -10.1089 -0.73402 0.00103915 10
9.69386 -10.1087 -0.244468 0.00104415 10
9.69958 -10.1146 0.244612 0.00104439 10
9.68947 -10.1041 0.733668 0.0010399 10
9.69843 -10.1134 1.22591 0.00121668 10
9.70499 -10.1203 1.72164 0.00120039 10
9.54655 -9.95505 2.18455 0.00115707 10
9.53709 -9.94519 2.67838 0.00113082 10
9.54089 -9.94915 3.18242 0.00109992 10
9.55412 -9.96294 3.69868 0.00106469 10
7.03245 -7.28232 -2.71261 0.000517148 1
8.16151 -8.45149 -2.71246 0.000313283 1
9.69755 -10.0421 -2.71358 0.000171293 1
9.76085 -10.1077 -2.22551 0.00149009 10
9.77334 -10.1206 -1.72749 0.0015181 10
9.76778 -10.1148 -1.2302 0.00101686 10
9.75998 -10.1068 -0.736332 0.00102643 10
9.75752 -10.1042 -0.245183 0.00103137 10
9.77312 -10.1204 0.245574 0.00103162 10
9.76542 -10.1124 0.736742 0.00102717 10
9.76964 -10.1168 1.23044 0.00120178 10
9.7662 -10.1132 1.72623 0.00118568 10
9.54349 -9.88258 2.17595 0.00117315 10
9.54324 -9.88232 2.6704 0.00114656 10
9.53673 -9.87558 3.16951 0.00111525 10
9.53945 -9.8784 3.67964 0.00107955 10
7.06738 -7.26755 -2.71628 0.000517131 1
8.20122 -8.4335 -2.71586 0.000313271 1
9.7159 -9.99108 -2.70894 0.000171285 1
9.82686 -10.1052 -2.2325 0.00147166 10
9.83857 -10.1172 -1.73277 0.00149935 10
9.95871 -10.2408 -1.24974 0.000923133 10
9.96595 -10.2482 -0.749168 0.000931676 10
9.96901 -10.2514 -0.249596 0.000935994 10
9.97011 -10.2525 0.249623 0.000936041 10
9.95852 -10.2406 0.748609 0.000931816 10
9.8245 -10.1028 1.2329 0.00118696 10
9.83109 -10.1095 1.73145 0.00117104 10
9.54619 -9.81656 2.16874 0.00118933 10
9.54321 -9.81351 2.66079 0.00116239 10
9.54644 -9.81682 3.16133 0.00113067 10
9.53857 -9.80873 3.66606 0.0010945 10
7.08052 -7.23039 -2.71162 0.000517114 1
8.22436 -8.39844 -2.71379 0.000313258 1
9.76847 -9.97524 -2.71388 0.000171277 1
9.91011 -10.1199 -2.24338 0.00145333 10
9.90409 -10.1137 -1.73808 0.00148069 10
9.96936 -10.1804 -1.24661 0.000935855 10
9.96484 -10.1758 -0.746409 0.000944509 10
9.95884 -10.1696 -0.248451 0.000948883 10
9.95742 -10.1682 0.248416 0.00094893 10
9.97783 -10.189 0.747382 0.00094465 10
9.90344 -10.1131 1.23837 0.0011722 10
9.89101 -10.1004 1.73578 0.00115648 10
9.54882 -9.75093 2.16159 0.00125304 10
9.54919 -9.75132 2.65295 0.00122491 10
9.55885 -9.76118 3.15414 0.00119175 10
9.5444 -9.74643 3.65521 0.00115388 10
7.10763 -7.20757 -2.71235 0.000517096 1
8.24607 -8.36202 -2.71131 0.000313246 1
9.80246 -9.9403 -2.71366 0.000171268 1
9.96429 -10.1044 -2.24764 0.00143508 10
9.96786 -10.108 -1.74307 0.00146212 10
9.96514 -10.1053 -1.24166 0.000979388 10
9.96669 -10.1068 -0.743901 0.000988631 10
9.98112 -10.1215 -0.248124 0.000993398 10
9.96532 -10.1054 0.247731 0.000993639 10
9.96151 -10.1016 0.743514 0.000989351 10
9.97811 -10.1184 1.24328 0.00115752 10
9.96627 -10.1064 1.74279 0.00114198 10
9.61117 -9.74631 2.16799 0.00123743 10
9.61989 -9.75516 2.66312 0.00120964 10
9.61725 -9.75248 3.16216 0.00117687 10
9.6073 -9.74239 3.66625 0.00113945 10
7.13857 -7.18858 -2.71456 0.000517078 1
8.27543 -8.33341 -2.71138 0.000313233 1
9.8268 -9.89565 -2.71082 0.00017126 1
10.0501 -10.1205 -2.25901 0.00141693 10
10.0329 -10.1032 -1.74826 0.00144364 10
10.0503 -10.1207 -1.24786 0.000967022 10
10.0387 -10.109 -0.746637 0.000976155 10
10.0308 -10.101 -0.24848 0.000980865 10
10.0308 -10.1011 0.248482 0.000981104 10
10.0473 -10.1177 0.747274 0.000976869 10
10.0324 -10.1027 1.24564 0.00114291 10
10.0403 -10.1106 1.74954 0.00112756 10
9.90766 -9.97707 3.76756 0.000392692 10
7.16533 -7.16533 -2.71521 0.000517061 1
8.30912 -8.30913 -2.7129 0.00031322 1
9.85334 -9.85334 -2.70864 0.000171251 1
10.1202 -10.1202 -2.26682 0.00139886 10
10.1132 -10.1132 -1.75609 0.00142526 10
10.2294 -10.2294 -1.26566 0.000904676 10
10.234 -10.234 -0.758501 0.000913069 10
10.2352 -10.2352 -0.252658 0.00091731 10
10.2383 -10.2383 0.252735 0.000917356 10
10.2333 -10.2333 0.75845 0.000913204 10
10.1146 -10.1146 1.25145 0.00112837 10
10.1132 -10.1132 1.75609 0.00111321 10
10.1767 -10.1767 2.27948 0.00067178 10
10.1764 -10.1764 2.79746 0.000656412 10
10.1743 -10.1743 3.32189 0.000638323 10
9.93459 -9.93459 3.76459 0.000392706 10
7.18584 -7.13585 -2.71353 0.000517043 1
8.34831 -8.29024 -2.71623 0.000313207 1
9.88855 -9.81976 -2.70888 0.000171243 1
10.1911 -10.1202 -2.27477 0.0013809 10
10.1781 -10.1073 -1.76123 0.00140697 10
10.235 -10.1637 -1.26195 0.000916829 10
10.2403 -10.169 -0.756331 0.000925328 10
10.2429 -10.1716 -0.25197 0.000929624 10
10.2447 -10.1734 0.252014 0.000929669 10
10.2449 -10.1736 0.756672 0.000925464 10
10.176 -10.1052 1.25468 0.00111391 10
10.178 -10.1072 1.76121 0.00109893 10
9.9735 -9.90412 3.76621 0.000392721 10
7.21908 -7.11898 -2.71668 0.000517025 1
8.37381 -8.2577 -2.71513 0.000313194 1
9.92112 -9.78356 -2.70843 0.000171234 1
10.2564 -10.1142 -2.28146 0.00136302 10
10.2617 -10.1195 -1.76957 0.00138878 10
10.2433 -10.1013 -1.25863 0.000930301 10
10.2501 -10.108 -0.754448 0.000939108 10
10.2472 -10.1052 -0.251207 0.000943653 10
10.26 -10.1177 0.25152 0.000943885 10
10.2472 -10.1052 0.754236 0.000939804 10
10.2436 -10.1016 1.25866 0.00109953 10
10.2566 -10.1144 1.76869 0.00108473 10
10.0182 -9.87928 3.77004 0.000392735 10
7.23424 -7.08429 -2.71306 0.000517007 1
8.39411 -8.22012 -2.7124 0.000313181 1
9.9731 -9.76638 -2.71329 0.000171225 1
10.3166 -10.1028 -2.28699 0.00134525 10
10.3251 -10.1111 -1.7744 0.00137068 10
10.3324 -10.1182 -1.26522 0.000918191 10
10.3293 -10.1152 -0.757672 0.00092689 10
10.3119 -10.0982 -0.251927 0.000931379 10
10.3155 -10.1016 0.252014 0.000931609 10
10.3173 -10.1035 0.756792 0.00092758 10
10.3232 -10.1092 1.2641 0.00108522 10
10.3118 -10.0981 1.77212 0.00107061 10
10.0402 -9.83208 3.76538 0.00039275 10
7.27186 -7.07157 -2.7179 0.000516989 1
8.42914 -8.19699 -2.71445 0.000313169 1
9.9971 -9.72176 -2.71057 0.000171217 1
10.3885 -10.1024 -2.2951 0.00132757 10
10.3969 -10.1106 -1.78067 0.00135269 10
10.3994 -10.113 -1.2691 0.00137186 10
10.3859 -10.0999 -0.759233 0.00138487 10
10.3934 -10.1072 -0.253056 0.00139158 10
10.398 -10.1116 0.253167 0.00139192 10
10.397 -10.1107 0.760047 0.0013859 10
10.3887 -10.1026 1.2678 0.00107099 10
10.3802 -10.0943 1.7778 0.00105656 10
10.0911 -9.81319 3.77161 0.000392765 10
7.28498 -7.03502 -2.7136 0.000516971 1
8.45187 -8.16188 -2.71258 0.000313156 1
10.0369 -9.6925 -2.71217 0.000171208 1
10.4614 -10.1025 -2.30341 0.00130998 10
10.4601 -10.1012 -1.78544 0.00133479 10
10.4617 -10.1027 -1.27239 0.00135372 10
10.4658 -10.1067 -0.762488 0.00136657 10
10.4744 -10.115 -0.254165 0.0013732 10
10.4674 -10.1082 0.253995 0.00137354 10
10.4603 -10.1014 0.762087 0.0013676 10
10.4638 -10.1048 1.27264 0.00105684 10
10.472 -10.1127 1.78748 0.00104259 10
10.1179 -9.77077 3.76886 0.000392779 10
7.31267 -7.0126 -2.71479 0.000516952 1
8.49186 -8.1434 -2.71628 0.000313142 1
10.0701 -9.65691 -2.71203 0.000171199 1
10.5503 -10.1174 -2.31518 0.0012925 10
10.5347 -10.1025 -1.79215 0.001317 10
10.5491 -10.1162 -1.27871 0.00133569 10
10.5324 -10.1002 -0.764772 0.00134838 10
10.5334 -10.1012 -0.254741 0.00135493 10
10.5484 -10.1156 0.255103 0.00135526 10
10.5441 -10.1114 0.765616 0.00134939 10
10.5372 -10.1049 1.27728 0.00104277 10
10.5249 -10.093 1.79048 0.0010287 10
10.1702 -9.75286 3.77562 0.00102664 10
7.34828 -6.99767 -2.71892 0.000516934 1
8.50429 -8.09853 -2.7112 0.000313129 1
10.0965 -9.61473 -2.71007 0.00017119 1
10.6161 -10.1095 -2.32185 0.00127512 10
10.6139 -10.1074 -1.7996 0.00129931 10
10.6211 -10.1143 -1.28316 0.00131776 10
10.6053 -10.0993 -0.767497 0.00133029 10
10.6024 -10.0966 -0.255556 0.00133676 10
10.6141 -10.1077 0.255837 0.00133709 10
10.6031 -10.0972 0.767341 0.0013313 10
10.6164 -10.1098 1.28258 0.00102877 10
10.615 -10.1086 1.7998 0.00101489 10
10.6856 -10.1757 2.33705 0.0006246 10
10.6699 -10.1608 2.864 0.000610368 10
10.6662 -10.1573 3.40041 0.00059359 10
10.2347 -9.74642 3.78693 0.00101289 10
7.35837 -6.95847 -2.71365 0.000516916 1
8.5436 -8.07929 -2.71472 0.000313116 1
10.146 -9.59455 -2.71434 0.000171181 1
10.6834 -10.1028 -2.32884 0.00125784 10
10.683 -10.1024 -1.80533 0.00128172 10
10.6914 -10.1103 -1.28737 0.00129994 10
10.6827 -10.1021 -0.77054 0.00131231 10
10.6841 -10.1035 -0.256673 0.00131869 10
10.6758 -10.0956 0.256473 0.00131902 10
10.6735 -10.0935 0.769881 0.0013133 10
10.6861 -10.1053 1.28674 0.00101487 10
10.6854 -10.1047 1.80574 0.00100115 10
10.7254 -10.1425 2.338 0.000644722 10
10.7179 -10.1354 2.86736 0.000629898 10
10.7249 -10.142 3.40783 0.000612451 10
10.3053 -9.7452 3.80041 0.000999213 10
7.38762 -6.93744 -2.71549 0.000516897 1
8.57868 -8.05592 -2.71691 0.000313103 1
10.1595 -9.54036 -2.70903 0.000171172 1
10.7633 -10.1074 -2.33855 0.00124066 10
10.7567 -10.1012 -1.81182 0.00126423 10
19.8414 -18.6323 -2.38131 0.000204622 10
27.2107 -25.5525 -1.95626 6.44311e-05 10
27.222 -25.5632 -0.651829 6.48262e-05 10
27.2138 -25.5555 0.65163 6.48303e-05 10
14.9523 -14.0411 1.07496 3.70321e-05 10
10.7566 -10.1011 1.29097 0.00104817 10
10.7559 -10.1004 1.81168 0.00103379 10
10.7478 -10.0929 2.3352 0.00101483 10
10.7512 -10.096 2.86681 0.000991499 10
10.7426 -10.088 3.40225 0.000964038 10
10.3667 -9.73497 3.81051 0.000985619 10
7.4128 -6.91255 -2.71586 0.000516878 1
8.59269 -8.01281 -2.71247 0.000313089 1
10.208 -9.51915 -2.71311 0.000171163 1
10.8426 -10.1109 -2.34811 0.00122359 10
10.8257 -10.0951 -1.81748 0.00124685 10
19.8384 -18.4996 -2.37318 0.000207665 10
27.2159 -25.3792 -1.95025 6.55046e-05 10
27.222 -25.3849 -0.649702 6.59057e-05 10
27.218 -25.3812 0.649606 6.59099e-05 10
15.0128 -13.9997 1.0758 3.70402e-05 10
10.7518 -10.0262 1.28619 0.00106143 10
10.7505 -10.025 1.80487 0.00104688 10
10.738 -10.0133 2.32545 0.0010277 10
10.7481 -10.0227 2.85664 0.00100408 10
10.7544 -10.0287 3.39488 0.000976296 10
10.4467 -9.7417 3.8274 0.000972105 10
7.42693 -6.87742 -2.71222 0.00051686 1
8.62565 -7.98744 -2.71406 0.000313076 1
10.2386 -9.48106 -2.71242 0.000171154 1
10.9016 -10.095 -2.35325 0.00120662 10
10.9082 -10.1012 -1.82542 0.00122958 10
19.8374 -18.3696 -2.36537 0.000210728 10
27.2235 -25.2092 -1.94448 6.65868e-05 10
27.2693 -25.2517 -0.648724 6.28224e-05 10
27.2527 -25.2362 0.648327 6.28435e-05 10
15.047 -13.9337 1.07476 3.70483e-05 10
10.7433 -9.94839 1.28101 0.00107476 10
10.7469 -9.95171 1.79841 0.00106004 10
10.7436 -9.94872 2.31914 0.00104063 10
10.7515 -9.95599 2.84829 0.00101673 10
10.7355 -9.94119 3.37793 0.000988611 10
10.5226 -9.74405 3.84273 0.000958675 10
7.46092 -6.86067 -2.71587 0.000516841 1
8.64771 -7.95198 -2.71225 0.000313062 1
10.2651 -9.43924 -2.71069 0.000171145 1
10.9965 -10.1118 -2.36609 0.00118976 10
10.9813 -10.0979 -1.83174 0.00121242 10
19.8163 -18.222 -2.35526 0.000213811 10
27.2085 -25.0195 -1.93716 6.76777e-05 10
27.4621 -25.2527 -0.651208 6.1678e-05 10
27.4574 -25.2484 0.651098 6.16988e-05 10
15.1072 -13.8918 1.07559 3.70564e-05 10
10.739 -9.875 1.27638 0.00108816 10
10.7487 -9.88392 1.79293 0.00107326 10
10.7439 -9.87956 2.31175 0.00105361 10
10.744 -9.87965 2.83716 0.00102944 10
10.7341 -9.87055 3.36664 0.00100099 10
10.5958 -9.74338 3.85703 0.000945329 10
7.47569 -6.82624 -2.71256 0.000516822 1
8.67086 -7.91758 -2.71083 0.000313049 1
10.293 -9.39877 -2.70937 0.000171136 1
11.062 -10.101 -2.37259 0.001173 10
11.0703 -10.1086 -1.84068 0.00119536 10
19.8277 -18.1052 -2.34909 0.000216915 10
19.8331 -18.1101 -1.40755 0.000144838 10
19.8198 -18.0979 -0.468485 0.000145627 10
19.8323 -18.1094 0.468781 0.000145635 10
15.1586 -13.8417 1.0758 3.70646e-05 10
10.7459 -9.81237 1.27312 0.00110161 10
10.7457 -9.81216 1.78671 0.00108654 10
10.7532 -9.81901 2.30635 0.00106667 10
10.7364 -9.80366 2.82609 0.00104221 10
10.7398 -9.80678 3.35765 0.00101342 10
10.6651 -9.73855 3.86983 0.000932066 10
7.51028 -6.80991 -2.71647 0.000516803 1
8.70271 -7.89114 -2.71216 0.000313035 1
10.3252 -9.36233 -2.70924 0.000171127 1
11.1345 -10.0962 -2.38056 0.00115635 10
11.139 -10.1002 -1.84622 0.00117841 10
19.8157 -17.9678 -2.34023 0.000220038 10
19.8709 -18.0179 -1.40576 0.000134513 10
19.8743 -18.0209 -0.468285 0.00013528 10
19.8779 -18.0242 0.468368 0.00013532 10
15.2045 -13.7866 1.07564 3.70728e-05 10
10.7445 -9.74255 1.26892 0.00103107 10
10.7394 -9.73788 1.78 0.00109988 10
10.747 -9.7448 2.29772 0.00107978 10
10.7449 -9.74288 2.81936 0.00105504 10
10.7472 -9.74501 3.34933 0.00102591 10
10.7309 -9.73021 3.88138 0.000918888 10
7.53622 -6.78564 -2.71727 0.000516784 1
8.73167 -7.86203 -2.71261 0.000313021 1
10.3703 -9.33749 -2.71251 0.000171118 1
11.2093 -10.0929 -2.389 0.00113981 10
11.2203 -10.1028 -1.85386 0.00116158 10
19.817 -17.8433 -2.33301 0.00022318 10
27.2024 -24.4931 -1.91835 7.10023e-05 10
28.5328 -25.691 -0.670181 3.90303e-05 10
28.5291 -25.6877 0.670093 3.90327e-05 10
15.2489 -13.7302 1.07538 3.70811e-05 10
10.8127 -9.73584 1.27296 0.00101647 10
10.8175 -9.74015 1.7873 0.00100277 10
10.8269 -9.74859 2.30751 0.00098464 10
10.814 -9.73702 2.82857 0.000962272 10
10.8217 -9.74389 3.36191 0.000935899 10
10.8247 -9.74661 3.90297 0.000905795 10
7.56142 -6.76069 -2.71783 0.000516765 1
8.76902 -7.84041 -2.7157 0.000313007 1
10.3954 -9.29456 -2.71056 0.000171109 1
11.2982 -10.1017 -2.40042 0.00112338 10
11.2989 -10.1024 -1.86101 0.00114485 10
19.8204 -17.7214 -2.32611 0.000226342 10
19.8675 -17.7636 -1.39671 0.000136868 10
19.8525 -17.7502 -0.46484 0.000137646 10
19.8481 -17.7462 0.464736 0.000137688 10
15.2904 -13.6712 1.07494 3.70893e-05 10
10.8836 -9.73106 1.27729 0.00100196 10
10.8851 -9.73237 1.79284 0.000988445 10
10.882 -9.72964 2.312 0.000970563 10
10.8895 -9.73637 2.83941 0.000948498 10
10.8905 -9.73728 3.37272 0.000922483 10
10.886 -9.73319 3.91279 0.000892789 10
7.57068 -6.72157 -2.71271 0.000516745 1
8.80052 -7.81347 -2.71699 0.000312993 1
10.4229 -9.2539 -2.7093 0.000171099 1
11.3716 -10.0962 -2.40852 0.00110706 10
11.3672 -10.0923 -1.86643 0.00112824 10
19.812 -17.5899 -2.31791 0.000229522 10
20.0055 -17.7617 -1.40204 0.000134572 10
19.9939 -17.7514 -0.466697 0.000135338 10
19.997 -17.7541 0.466768 0.000135379 10
15.344 -13.6231 1.07535 3.70977e-05 10
10.9778 -9.74655 1.28435 0.000987542 10
10.9585 -9.72941 1.79933 0.000974216 10
10.9676 -9.73751 2.32295 0.000956578 10
10.9721 -9.74151 2.85206 0.000934816 10
10.9672 -9.73709 3.3859 0.000909156 10
10.9744 -9.74353 3.93232 0.000879869 10
7.60152 -6.70164 -2.71536 0.000516726 1
8.81299 -7.7697 -2.71245 0.00031298 1
10.464 -9.22523 -2.71159 0.00017109 1
11.4625 -10.1055 -2.42028 0.00109085 10
11.4552 -10.0991 -1.87508 0.00111174 10
19.8204 -17.4741 -2.31174 0.000232722 10
19.8279 -17.4806 -1.38531 0.000139295 10
19.8278 -17.4805 -0.461392 0.000140086 10
19.8262 -17.4791 0.461355 0.000140128 10
15.3855 -13.5642 1.07494 3.71061e-05 10
11.0467 -9.739 1.28843 0.000973225 10
11.0381 -9.73141 1.80681 0.000960082 10
11.0523 -9.7439 2.33367 0.000942688 10
11.047 -9.73922 2.86266 0.000921225 10
11.0375 -9.73083 3.39709 0.00089592 10
11.0364 -9.72993 3.94236 0.000867037 10
7.61789 -6.66896 -2.71288 0.000516706 1
8.85336 -7.75054 -2.71653 0.000312965 1
10.4894 -9.18282 -2.70986 0.000171081 1
11.5303 -10.094 -2.42714 0.00107476 10
11.5451 -10.107 -1.88402 0.00109535 10
19.8199 -17.351 -2.3046 0.000235939 10
19.9785 -17.4898 -1.39156 0.000136931 10
19.9834 -17.4941 -0.463589 0.000137709 10
19.965 -17.4781 0.463163 0.000137751 10
15.4351 -13.5124 1.07509 3.71145e-05 10
11.1194 -9.73429 1.29293 0.000959006 10
11.1216 -9.73621 1.8149 0.000946045 10
11.1119 -9.72777 2.33908 0.000928893 10
11.1181 -9.7332 2.87228 0.000907728 10
11.1204 -9.7352 3.41215 0.000882775 10
11.1091 -9.72532 3.95618 0.000854293 10
7.64555 -6.64617 -2.71445 0.000516687 1
8.87849 -7.71795 -2.71596 0.000312951 1
10.5242 -9.14857 -2.71058 0.000171071 1
11.6097 -10.0921 -2.43642 0.00105878 10
11.6256 -10.106 -1.89139 0.00107908 10
19.8123 -17.2226 -2.29672 0.000239175 10
19.8274 -17.2357 -1.37683 0.00015969 10
19.8173 -17.2269 -0.458338 0.000160553 10
19.8058 -17.2169 0.458072 0.000160562 10
15.4672 -13.4454 1.07406 3.71229e-05 10
11.1945 -9.73123 1.29771 0.000944884 10
11.2088 -9.74363 1.82357 0.000932106 10
11.2049 -9.74028 2.35148 0.000915194 10
11.2101 -9.74482 2.88724 0.000894325 10
11.199 -9.73512 3.4258 0.000869721 10
11.1874 -9.72506 3.97193 0.000841638 10
7.68392 -6.63258 -2.71983 0.000516667 1
8.89966 -7.68199 -2.71422 0.000312937 1
10.5699 -9.12367 -2.71412 0.000171062 1
11.7086 -10.1066 -2.44976 0.00104291 10
11.6957 -10.0955 -1.89704 0.00106293 10
19.8267 -17.114 -2.29144 0.000242429 10
19.9506 -17.2209 -1.38121 0.000139363 10
19.9383 -17.2103 -0.459744 0.000140154 10
19.9409 -17.2125 0.459804 0.000140197 10
15.5281 -13.4035 1.07503 3.71314e-05 10
11.2793 -9.736 1.30358 0.000930863 10
11.2693 -9.72739 1.82788 0.000918265 10
11.2834 -9.73954 2.36079 0.000901592 10
11.2783 -9.73516 2.89602 0.000881017 10
11.2856 -9.74146 3.44188 0.000856761 10
11.285 -9.74093 3.99448 0.000829075 10
7.68986 -6.59101 -2.71378 0.000516648 1
8.93115 -7.65493 -2.71566 0.000312923 1
10.5871 -9.07425 -2.7104 0.000171052 1
11.7756 -10.0929 -2.4564 0.00102715 10
11.7686 -10.0869 -1.90315 0.00104689 10
19.8123 -16.9812 -2.28291 0.000245701 10
19.8115 -16.9805 -1.36746 0.000164043 10
19.8249 -16.992 -0.45576 0.000164929 10
19.8146 -16.9832 0.455522 0.000164938 10
15.5631 -13.3392 1.07423 3.714e-05 10
11.3692 -9.74458 1.31004 0.000916941 10
11.3523 -9.7301 1.83582 0.000904523 10
11.3521 -9.72993 2.36806 0.000888086 10
11.3674 -9.74307 2.91017 0.000867804 10
11.3456 -9.72434 3.4498 0.000843892 10
11.3515 -9.72938 4.00597 0.000816601 10
7.71992 -6.57017 -2.71628 0.000516628 1
8.94273 -7.61086 -2.71108 0.000312909 1
10.6312 -9.04786 -2.71358 0.000171043 1
11.8678 -10.1003 -2.46826 0.00101152 10
11.8687 -10.1011 -1.91362 0.00103097 10
19.8154 -16.8642 -2.27648 0.000248991 10
19.9174 -16.951 -1.37068 0.000141874 10
19.9062 -16.9415 -0.456266 0.000142677 10
19.9025 -16.9384 0.456182 0.000142721 10
15.6188 -13.2927 1.07486 3.71486e-05 10
11.4455 -9.74089 1.31491 0.00090312 10
11.4486 -9.74348 1.84588 0.000890879 10
11.446 -9.74131 2.38053 0.000874678 10
11.4455 -9.7409 2.92143 0.000854687 10
11.4282 -9.72617 3.46458 0.000831118 10
11.4409 -9.73695 4.0255 0.000804217 10
7.74598 -6.54586 -2.71739 0.000516608 1
8.97814 -7.58712 -2.71377 0.000312895 1
10.6574 -9.00621 -2.71223 0.000171033 1
11.935 -10.0859 -2.47491 0.000995995 10
11.9434 -10.0929 -1.91996 0.00101517 10
19.813 -16.7433 -2.26947 0.000252298 10
19.8227 -16.7515 -1.36013 0.000168444 10
19.8147 -16.7447 -0.452827 0.000169351 10
19.8197 -16.7489 0.45294 0.00016936 10
15.6583 -13.2323 1.07439 3.71572e-05 10
11.5141 -9.73017 1.31888 0.0008894 10
11.5221 -9.73696 1.85225 0.000877336 10
11.5194 -9.73462 2.38871 0.000861368 10
11.5073 -9.72444 2.92853 0.000841666 10
11.5221 -9.7369 3.48271 0.000818437 10
11.5092 -9.72602 4.03757 0.000791926 10
7.75795 -6.5097 -2.7136 0.000516588 1
9.00524 -7.55629 -2.71397 0.00031288 1
10.6978 -8.97652 -2.71452 0.000171024 1
12.0193 -10.0854 -2.48507 0.000980591 10
12.0215 -10.0873 -1.92686 0.000999486 10
19.8209 -16.6317 -2.26371 0.000255622 10
19.8697 -16.6727 -1.35936 0.000144467 10
19.8763 -16.6782 -0.452901 0.000145284 10
19.8618 -16.666 0.452569 0.000145329 10
15.7029 -13.1763 1.07429 3.71658e-05 10
11.6039 -9.7368 1.32526 0.000875782 10
11.6077 -9.74003 1.86053 0.000863893 10
11.5976 -9.73157 2.39788 0.000848158 10
11.5867 -9.72243 2.94008 0.000828742 10
11.5888 -9.72417 3.4926 0.000805852 10
11.604 -9.73695 4.05889 0.000779726 10
7.79424 -6.49391 -2.71834 0.000516568 1
9.02732 -7.52128 -2.7127 0.000312866 1
10.7238 -8.93475 -2.71319 0.000171014 1
12.1244 -10.1017 -2.49949 0.000965305 10
12.108 -10.088 -1.93506 0.000983924 10
19.8148 -16.5091 -2.25642 0.000258962 10
27.1931 -22.6565 -1.85496 8.38254e-05 10
27.2753 -22.7249 -0.619683 4.67642e-05 10
27.2788 -22.7279 0.619763 4.67805e-05 10
15.7479 -13.1207 1.07423 3.71745e-05 10
11.6763 -9.72833 1.32964 0.000862267 10
11.6824 -9.73341 1.86704 0.000850552 10
11.6885 -9.73849 2.40963 0.000835047 10
11.6774 -9.72928 2.95446 0.000815917 10
11.669 -9.72221 3.50651 0.000793361 10
11.6856 -9.7361 4.07552 0.00076762 10
7.81032 -6.46126 -2.71607 0.000516548 1
9.06874 -7.50232 -2.71726 0.000312851 1
10.7579 -8.89968 -2.71393 0.000171004 1
12.1934 -10.0873 -2.50645 0.000950138 10
12.189 -10.0837 -1.94238 0.000968483 10
19.8055 -16.3845 -2.24883 0.000262319 10
19.8299 -16.4047 -1.34877 0.000147149 10
19.8421 -16.4148 -0.449499 0.000147978 10
19.8336 -16.4078 0.449306 0.000148025 10
15.7861 -13.0594 1.07372 3.71833e-05 10
11.7627 -9.73092 1.3356 0.000848855 10
11.758 -9.72709 1.87369 0.000837314 10
11.7706 -9.73749 2.41953 0.000822038 10
11.7698 -9.73679 2.9692 0.000803189 10
11.7663 -9.73391 3.52552 0.000780968 10
11.7535 -9.72331 4.08732 0.000755607 10
7.83828 -6.43844 -2.71796 0.000516527 1
9.08409 -7.46175 -2.71404 0.000312837 1
10.773 -8.84903 -2.70993 0.000170995 1
12.2902 -10.0953 -2.51908 0.00093509 10
12.2783 -10.0855 -1.95098 0.000953162 10
19.7993 -16.2633 -2.24167 0.000265693 10
19.9778 -16.41 -1.35492 0.000144511 10
19.9764 -16.4088 -0.451242 0.000145327 10
19.9815 -16.413 0.451356 0.000145372 10
15.8379 -13.0094 1.07415 3.7192e-05 10
11.847 -9.73122 1.34131 0.000835547 10
11.8502 -9.73386 1.88295 0.000824178 10
11.8429 -9.72789 2.4274 0.000809129 10
11.8505 -9.73407 2.98097 0.00079056 10
11.854 -9.73701 3.54161 0.000768671 10
11.8341 -9.72068 4.10355 0.000743688 10
7.84976 -6.40211 -2.71418 0.000516507 1
9.10645 -7.42704 -2.71295 0.000312822 1
10.8168 -8.82194 -2.71318 0.000170985 1
12.3758 -10.0934 -2.52938 0.000920163 10
12.3667 -10.0861 -1.95942 0.000937964 10
19.7986 -16.1474 -2.2352 0.000269082 10
27.197 -22.1814 -1.83927 8.74853e-05 10
27.1958 -22.1803 -0.612566 4.82443e-05 10
27.204 -22.187 0.612749 4.82613e-05 10
15.8794 -12.9509 1.07389 3.72008e-05 10
11.9258 -9.72648 1.34639 0.000822343 10
11.9372 -9.73577 1.89137 0.000811145 10
11.9318 -9.73132 2.43864 0.000796322 10
11.9204 -9.72205 2.99001 0.000778033 10
11.9353 -9.73418 3.55571 0.00075647 10
11.9345 -9.73354 4.12654 0.000731864 10
7.87965 -6.38082 -2.7168 0.000516486 1
9.13254 -7.39539 -2.71302 0.000312808 1
10.8409 -8.77882 -2.71154 0.000170975 1
12.4633 -10.0926 -2.54005 0.000905358 10
12.4549 -10.0857 -1.9678 0.000922889 10
19.7952 -16.0298 -2.22848 0.000272487 10
27.1923 -22.0199 -1.83375 8.87197e-05 10
31.7857 -25.7396 -0.713922 3.94915e-05 10
31.4708 -25.4846 0.706849 4.97935e-05 10
15.9246 -12.8955 1.07389 3.72097e-05 10
12.0246 -9.73732 1.35369 0.000809245 10
12.0167 -9.73093 1.89857 0.000798217 10
12.0024 -9.71939 2.44613 0.000783619 10
12.0217 -9.73499 3.00688 0.000765606 10
12.0086 -9.72441 3.56743 0.00074437 10
12.009 -9.72474 4.14055 0.000720136 10
7.89599 -6.34854 -2.71477 0.000516466 1
9.16228 -7.36667 -2.7142 0.000312793 1
10.8693 -8.73914 -2.71099 0.000170965 1
12.5518 -10.0919 -2.5509 0.000890672 10
12.552 -10.0921 -1.97757 0.000907936 10
19.8054 -15.9239 -2.22335 0.000275908 10
27.1768 -21.8507 -1.82755 8.99613e-05 10
27.2662 -21.9226 -0.61069 4.85134e-05 10
27.2636 -21.9205 0.61063 4.85306e-05 10
15.9645 -12.8358 1.07356 3.72186e-05 10
12.109 -9.73586 1.35935 0.000796253 10
12.1054 -9.73298 1.9072 0.000785392 10
12.1013 -9.72969 2.45934 0.000771017 10
12.0978 -9.72688 3.0174 0.000753278 10
12.0973 -9.72651 3.58367 0.000732367 10
12.1025 -9.73064 4.16103 0.000708502 10
7.92183 -6.32392 -2.71605 0.000516445 1
9.1819 -7.32982 -2.71242 0.000312778 1
10.9079 -8.70763 -2.71301 0.000170955 1
12.6323 -10.0842 -2.56008 0.000876109 10
12.643 -10.0928 -1.98634 0.000893109 10
19.8128 -15.8163 -2.21797 0.000279343 10
27.176 -21.6943 -1.82239 9.121e-05 10
27.1879 -21.7039 -0.607236 6.06057e-05 10
27.1721 -21.6912 0.606881 6.06091e-05 10
16.013 -12.783 1.07381 3.72275e-05 10
12.1754 -9.71953 1.363 0.000783367 10
12.1949 -9.73507 1.91594 0.000772673 10
12.1795 -9.7228 2.46833 0.000758518 10
12.1937 -9.73414 3.03284 0.000741052 10
12.1797 -9.7229 3.59798 0.000720462 10
12.1822 -9.72493 4.17675 0.000696965 10
7.94468 -6.29688 -2.71633 0.000516425 1
9.22501 -7.31166 -2.7176 0.000312763 1
10.9423 -8.67278 -2.71404 0.000170945 1
12.7343 -10.0931 -2.57361 0.000861669 10
12.7163 -10.0788 -1.99232 0.000878406 10
12.914 -10.2355 -1.44167 0.000698974 10
12.918 -10.2387 -0.863863 0.000705637 10
12.9181 -10.2387 -0.287722 0.000709003 10
12.8993 -10.2238 0.287303 0.000709035 10
12.9015 -10.2256 0.862757 0.000705734 10
12.2778 -9.73123 1.37064 0.000770588 10
12.2609 -9.71784 1.92096 0.00076006 10
12.2759 -9.72975 2.48096 0.000746124 10
12.2618 -9.71861 3.04131 0.000728928 10
12.2657 -9.72168 3.61335 0.000708657 10
12.2602 -9.71732 4.19183 0.000685524 10
7.95929 -6.26334 -2.71383 0.000516404 1
9.24312 -7.27362 -2.71543 0.000312748 1
10.9614 -8.62574 -2.71127 0.000170935 1
12.8255 -10.0927 -2.5849 0.000847352 10
12.8192 -10.0877 -2.00291 0.000863828 10
12.9037 -10.1542 -1.43655 0.000706618 10
12.9111 -10.16 -0.861025 0.000713349 10
12.8982 -10.1499 -0.286489 0.00071675 10
12.8963 -10.1484 0.286445 0.000716782 10
12.9092 -10.1585 0.860895 0.000713447 10
12.3655 -9.73072 1.37664 0.000757916 10
12.3579 -9.72471 1.93083 0.000747552 10
12.3593 -9.7258 2.49094 0.000733833 10
12.3542 -9.72179 3.05579 0.000716907 10
12.3653 -9.73054 3.63267 0.000696952 10
12.3549 -9.72233 4.21257 0.000674181 10
7.99319 -6.24496 -2.71794 0.000516383 1
9.27711 -7.24807 -2.71797 0.000312733 1
10.9952 -8.59036 -2.7122 0.000170925 1
12.9026 -10.0806 -2.59334 0.000833159 10
12.9042 -10.0818 -2.01067 0.000849376 10
12.9165 -10.0915 -1.43405 0.000569215 10
12.9008 -10.0792 -0.857985 0.000721085 10
12.9002 -10.0788 -0.285751 0.00072452 10
12.915 -10.0903 0.286077 0.000724553 10
12.9159 -10.091 0.85899 0.000721183 10
12.4544 -9.73046 1.38275 0.000745352 10
12.4369 -9.71675 1.93786 0.000735151 10
12.4543 -9.73033 2.50322 0.000721648 10
12.4332 -9.71388 3.06693 0.000704988 10
12.4503 -9.72724 3.64764 0.000685347 10
12.4486 -9.72595 4.23294 0.000662935 10
8.00261 -6.20746 -2.71376 0.000516362 1
9.28827 -7.20472 -2.71385 0.000312718 1
11.0174 -8.54595 -2.7103 0.000170915 1
12.9998 -10.0837 -2.60578 0.000819091 10
13.0047 -10.0875 -2.02085 0.000835051 10
13.1803 -10.2237 -1.45936 0.000680014 10
13.172 -10.2172 -0.873643 0.000686514 10
13.1711 -10.2165 -0.290958 0.000689797 10
12.9851 -10.0723 0.286849 0.000568094 10
12.9882 -10.0747 0.861454 0.000565587 10
12.548 -9.7332 1.38935 0.000732896 10
12.5394 -9.72658 1.94854 0.000722858 10
12.5457 -9.73146 2.51476 0.000709569 10
12.542 -9.72857 3.08537 0.000693173 10
12.536 -9.72389 3.66277 0.000673843 10
12.5286 -9.71818 4.24857 0.000651787 10
8.02142 -6.17733 -2.71281 0.000516341 1
9.31928 -7.17682 -2.71558 0.000312703 1
11.0496 -8.50937 -2.71092 0.000170905 1
13.0849 -10.0767 -2.61577 0.000805148 10
13.0991 -10.0877 -2.03002 0.000820853 10
13.1739 -10.1453 -1.45473 0.000687312 10
13.1801 -10.1501 -0.871829 0.000693877 10
13.1857 -10.1544 -0.290497 0.000697194 10
13.1845 -10.1534 0.29047 0.000697226 10
13.1697 -10.142 0.871141 0.000693972 10
12.6317 -9.7277 1.39485 0.00072055 10
12.6275 -9.72446 1.95693 0.000710672 10
12.632 -9.72794 2.52523 0.000697596 10
12.6212 -9.71967 3.0965 0.000681461 10
12.6328 -9.72853 3.68111 0.000662441 10
12.6143 -9.71429 4.26609 0.000640738 10
8.05103 -6.15548 -2.71554 0.00051632 1
9.34083 -7.14161 -2.71458 0.000312688 1
11.0965 -8.48394 -2.71514 0.000170895 1
13.1956 -10.0888 -2.63084 0.00079133 10
13.1959 -10.089 -2.03956 0.000806783 10
13.1891 -10.0838 -1.45251 0.000540697 10
13.1967 -10.0897 -0.870593 0.000545995 10
13.1795 -10.0765 -0.289583 0.00054874 10
13.1928 -10.0867 0.289875 0.000548901 10
13.1922 -10.0862 0.870294 0.000546476 10
12.718 -9.72363 1.40063 0.000708314 10
12.7155 -9.72177 1.96531 0.000698595 10
12.7257 -9.72953 2.53715 0.000685729 10
12.7063 -9.7147 3.10903 0.000669855 10
12.7068 -9.7151 3.69278 0.000651141 10
12.7165 -9.72251 4.28917 0.000629788 10
8.08479 -6.13669 -2.71969 0.000516299 1
9.36452 -7.10806 -2.71424 0.000312672 1
11.1184 -8.43935 -2.71328 0.000170885 1
13.2824 -10.0819 -2.64112 0.000777639 10
13.2884 -10.0864 -2.04839 0.000792841 10
13.4572 -10.2145 -1.4781 0.000661832 10
13.4604 -10.217 -0.885628 0.000668176 10
13.4494 -10.2086 -0.294729 0.000671381 10
13.4422 -10.2032 0.29457 0.000671411 10
13.4445 -10.2049 0.884581 0.000668267 10
12.8181 -9.72949 1.40791 0.000696187 10
12.8016 -9.71698 1.97336 0.000686626 10
12.7993 -9.71518 2.54505 0.000673969 10
12.8011 -9.71656 3.1239 0.000658352 10
12.8098 -9.72318 3.71283 0.000639943 10
12.7931 -9.71048 4.30354 0.000618937 10
8.09714 -6.10164 -2.71666 0.000516277 1
9.39346 -7.07848 -2.71545 0.000312657 1
11.1498 -8.40196 -2.71375 0.000170875 1
13.3875 -10.0882 -2.655 0.000764074 10
13.3671 -10.0729 -2.0551 0.000779027 10
13.4563 -10.14 -1.47411 0.000668802 10
13.4425 -10.1297 -0.88212 0.000675209 10
13.4523 -10.137 -0.294015 0.000678445 10
13.4433 -10.1302 0.293818 0.000678475 10
13.4512 -10.1362 0.882688 0.0006753 10
12.8905 -9.71367 1.41212 0.000684171 10
12.8875 -9.71144 1.98136 0.000674766 10
12.8994 -9.72039 2.55819 0.000662316 10
12.8979 -9.71927 3.13923 0.000646955 10
12.8862 -9.71042 3.72511 0.000628847 10
12.894 -9.7163 4.32604 0.000608185 10
8.12197 -6.07601 -2.71786 0.000516256 1
9.41997 -7.04704 -2.71598 0.000312642 1
11.1763 -8.36097 -2.71309 0.000170864 1
