VERSION 0.7
FIELDS x y z intensity label
SIZE 4 4 4 4 4
TYPE F F F F F
COUNT 1 1 1 1 1
WIDTH 1135
HEIGHT 1
VIEWPOINT 1.59596 10.9209 2.73032 0.880291 0.000055 0.000133932 0.474434
POINTS 1135
DATA ascii
-5.43075 -22.11 3.60598 0.000261909 10
-5.42892 -22.1026 4.42401 0.000255219 10
-5.42625 -22.0917 5.25187 0.000247363 10
-5.42736 -22.0962 6.09665 0.000238433 10
-2.35852 -9.74894 -2.68758 9.92124e-05 4
-2.73885 -11.321 -2.68907 0.000118103 4
-3.2512 -13.4388 -2.6876 8.45195e-05 4
-3.79168 -15.6729 -2.55396 0.000235946 4
-5.33066 -22.0343 -1.98336 0.000353609 10
-5.38811 -22.2718 -1.20089 0.000244431 10
-5.38764 -22.2698 -0.399935 0.000245685 10
-5.38672 -22.266 0.399866 0.000245684 10
-5.33032 -22.0329 1.188 0.00027862 10
-5.32911 -22.0279 1.98278 0.000275799 10
-5.32983 -22.0309 2.78309 0.000271601 10
-5.3314 -22.0374 3.59107 0.000266075 10
-5.33359 -22.0464 4.40901 0.000259285 10
-5.32728 -22.0203 5.23045 0.000251313 10
-5.32767 -22.0219 6.07098 0.00024225 10
-2.32804 -9.77209 -2.6917 0.000172823 4
-2.7029 -11.3456 -2.69264 0.000214912 4
-3.2082 -13.4666 -2.6909 9.82555e-05 4
-3.72403 -15.6318 -2.54513 0.00031268 4
-5.23107 -21.9577 -1.97481 0.000359175 10
-5.23534 -21.9756 -1.18393 0.000362889 10
-5.23451 -21.9722 -0.394259 0.000364769 10
-5.23273 -21.9647 0.394124 0.000364791 10
-5.233 -21.9658 1.1834 0.000283002 10
-5.23578 -21.9775 1.97659 0.00028014 10
-5.23474 -21.9731 2.77346 0.00027588 10
-5.23328 -21.967 3.5766 0.000270273 10
-5.23113 -21.958 4.38765 0.000263383 10
-5.23077 -21.9565 5.21091 0.000255293 10
-5.23287 -21.9653 6.0503 0.000246096 10
-2.29419 -9.78132 -2.69202 0.000294443 4
-2.66326 -11.3549 -2.69262 0.000435638 4
-3.16012 -13.4732 -2.69001 9.72004e-05 4
-3.66101 -15.6088 -2.53928 6.79295e-05 4
-5.1355 -21.8953 -1.96758 0.000364783 10
-5.14061 -21.9171 -1.1798 0.000368551 10
-5.13793 -21.9057 -0.392742 0.000370458 10
-5.13907 -21.9105 0.392828 0.000370481 10
-5.13632 -21.8988 1.17881 0.000287417 10
-5.13511 -21.8936 1.96743 0.000284513 10
-5.13947 -21.9122 2.7635 0.000280191 10
-5.13906 -21.9105 3.56445 0.000274502 10
-5.13514 -21.8938 4.37121 0.000267512 10
-5.13618 -21.8982 5.1928 0.000259304 10
-5.13914 -21.9108 6.03032 0.000249972 10
-2.25842 -9.78227 -2.6901 0.000160025 4
-2.62105 -11.353 -2.68999 0.000294301 4
-3.11373 -13.487 -2.69057 5.49402e-05 4
-3.60712 -15.6241 -2.53971 7.14445e-05 4
-5.04275 -21.8425 -1.96124 0.000370432 10
-5.0431 -21.8441 -1.17491 0.000374255 10
-5.04345 -21.8456 -0.391346 0.000376189 10
-5.04639 -21.8583 0.391574 0.000376212 10
-5.04367 -21.8465 1.17504 0.000291865 10
-5.0433 -21.8449 1.96145 0.000288919 10
-5.04077 -21.834 2.75139 0.000284535 10
-5.04014 -21.8312 3.54868 0.000278763 10
-5.04211 -21.8398 4.35689 0.000271672 10
-5.04612 -21.8572 5.17885 0.000263345 10
-5.04089 -21.8345 6.00442 0.000253878 10
-2.22228 -9.7814 -2.68771 0.000140824 4
-2.58173 -11.3635 -2.69033 0.000346583 4
-3.06766 -13.5024 -2.69148 9.08641e-05 4
-3.55092 -15.6294 -2.53855 7.02746e-05 4
-4.94832 -21.7801 -1.95407 0.000376123 10
-4.95169 -21.7949 -1.17133 0.00038 10
-4.94748 -21.7764 -0.389795 0.000381962 10
-4.94778 -21.7777 0.389819 0.000381985 10
-4.94595 -21.7697 1.16997 0.000296345 10
-4.94815 -21.7794 1.95401 0.000293357 10
-4.94616 -21.7706 2.74122 0.00028891 10
-4.94594 -21.7696 3.53584 0.000283056 10
-4.94724 -21.7754 4.34057 0.000275863 10
-4.94556 -21.7679 5.15359 0.000267416 10
-4.94568 -21.7685 5.98149 0.000257812 10
-2.19307 -9.81123 -2.69379 0.000150427 4
-2.54276 -11.3756 -2.69108 0.00031948 4
-3.01973 -13.5095 -2.69078 4.01499e-05 4
-3.49695 -15.6444 -2.53898 7.26185e-05 4
-4.8641 -21.7607 -1.9508 0.000393136 10
-4.86276 -21.7547 -1.16825 0.00039716 10
-4.86388 -21.7597 -0.38919 0.000399182 10
-4.86458 -21.7629 0.389246 0.00039918 10
-4.85513 -21.7206 1.16642 0.000300858 10
-4.85708 -21.7293 1.94798 0.000297827 10
-4.85829 -21.7347 2.73455 0.000293317 10
-4.85786 -21.7328 3.52708 0.000287379 10
-4.85763 -21.7318 4.32848 0.000280084 10
-4.85282 -21.7103 5.1359 0.000271516 10
-4.85775 -21.7323 5.96686 0.000261775 10
-2.15657 -9.80863 -2.69099 0.000124824 4
-2.50551 -11.3957 -2.69374 0.000375636 4
-2.971 -13.5129 -2.68937 3.90939e-05 4
-3.59146 -16.3349 -2.64899 3.6717e-05 4
-4.80525 -21.8555 -1.95778 0.000387612 10
-4.80201 -21.8408 -1.17197 0.000391582 10
-4.80021 -21.8326 -0.390192 0.000393578 10
-4.80209 -21.8412 0.390344 0.000393576 10
-4.76016 -21.6504 1.16175 0.000305402 10
-4.76395 -21.6677 1.94095 0.000302329 10
-4.76497 -21.6723 2.72458 0.000297755 10
-4.76276 -21.6623 3.51291 0.000291733 10
-4.76111 -21.6548 4.3098 0.000284335 10
-4.7598 -21.6488 5.11739 0.000275646 10
-4.75949 -21.6474 5.93894 0.000265766 10
-2.12251 -9.817 -2.69124 0.000294459 4
-2.46201 -11.3872 -2.68969 0.000342723 4
-3.53366 -16.3438 -2.64842 8.01583e-05 4
-4.73929 -21.9201 -1.96207 0.000382121 10
-4.74076 -21.9269 -1.17569 0.00038604 10
-4.7454 -21.9484 -0.391962 0.000388009 10
-4.74105 -21.9282 0.391603 0.000388007 10
-4.66797 -21.5902 1.15764 0.000309978 10
-4.66696 -21.5855 1.93212 0.000306862 10
-4.66796 -21.5901 2.71219 0.000302224 10
-4.67027 -21.6009 3.50029 0.000296118 10
-4.66887 -21.5944 4.29451 0.000288616 10
-4.66855 -21.5929 5.1003 0.000279804 10
-4.66993 -21.5993 5.92123 0.000269786 10
-2.08647 -9.81607 -2.68897 0.000115224 4
-2.42515 -11.4094 -2.69292 0.000338855 4
-2.88064 -13.5524 -2.69316 6.97372e-05 4
-3.47974 -16.3709 -2.65082 6.92995e-05 4
-4.68068 -22.0209 -1.96962 0.000376666 10
-4.68378 -22.0354 -1.18063 0.000380532 10
-4.68325 -22.0329 -0.393178 0.000382476 10
-4.68375 -22.0353 0.39322 0.000382473 10
-4.58055 -21.5498 1.15461 0.000314586 10
-4.57694 -21.5328 1.92596 0.000311426 10
-4.57852 -21.5402 2.70389 0.000306724 10
-4.57605 -21.5286 3.48597 0.000300533 10
-4.579 -21.5425 4.28099 0.000292926 10
-4.57604 -21.5286 5.0813 0.000283992 10
-4.58015 -21.5479 5.90273 0.000273833 10
-2.05521 -9.83771 -2.69292 7.36162e-05 4
-2.38502 -11.4164 -2.69259 0.000348541 4
-2.83317 -13.5616 -2.69302 3.8039e-05 4
-3.41926 -16.3671 -2.64825 7.08524e-05 4
-4.61782 -22.1042 -1.97562 0.000371246 10
-7.31898 -35.034 0.624722 7.50677e-05 10
-4.51807 -21.6268 1.15788 0.000314316 10
-4.51873 -21.6299 1.93323 0.000311136 10
-4.51762 -21.6246 2.71249 0.000306414 10
-4.51934 -21.6328 3.50028 0.000300204 10
-4.51956 -21.6339 4.29599 0.000292579 10
-4.51793 -21.6261 5.10057 0.000283628 10
-4.51742 -21.6237 5.91913 0.000273454 10
-2.02174 -9.84916 -2.6941 0.000121628 4
-2.34355 -11.4169 -2.69076 0.000139418 4
-2.78299 -13.5577 -2.6903 4.33229e-05 4
-3.36137 -16.3753 -2.64767 0.000225474 4
-4.56196 -22.2241 -1.9849 0.000365861 10
-7.22418 -35.1935 0.627112 7.38011e-05 10
-4.56007 -22.2149 1.18851 0.000288195 10
-4.55718 -22.2009 1.98282 0.000285258 10
-4.55801 -22.2049 4.40619 0.00026812 10
-4.55873 -22.2084 5.23412 0.000259857 10
-1.98323 -9.8357 -2.68851 0.000134432 4
-2.30507 -11.4319 -2.69238 0.000102628 4
-2.73678 -13.5729 -2.6914 6.23436e-05 4
-3.29735 -16.353 -2.64219 0.000160858 4
-4.49557 -22.2956 -1.98987 0.000360512 10
-7.14572 -35.4388 -1.89465 7.13725e-05 10
-7.14427 -35.4316 -0.630908 7.17996e-05 10
-7.124 -35.3311 0.629118 7.25456e-05 10
-4.49548 -22.2951 1.19195 0.000283984 10
-4.49546 -22.295 1.98981 0.000281087 10
-4.49479 -22.2917 4.42027 0.000264184 10
-4.49837 -22.3094 5.2542 0.000256034 10
-1.9487 -9.84167 -2.68827 0.000108827 4
-2.26196 -11.4237 -2.68857 4.45374e-05 4
-2.687 -13.5703 -2.68902 3.3814e-05 4
-3.23008 -16.3131 -2.6339 0.000206103 4
-4.43806 -22.4139 -1.99903 0.0003552 10
-7.02646 -35.4862 0.63144 7.13012e-05 10
-4.43651 -22.406 1.19705 0.000279803 10
-4.43475 -22.3971 1.99754 0.000276945 10
-4.434 -22.3933 4.43733 0.000260274 10
-4.43532 -22.4 5.27185 0.000252237 10
-1.91801 -9.86732 -2.69343 0.000124833 4
-2.22423 -11.4427 -2.6912 6.19659e-05 4
-2.63868 -13.5748 -2.68807 9.72167e-05 4
-3.16287 -16.2716 -2.6254 0.000195421 4
-4.37057 -22.4846 -2.00397 0.000349924 10
-6.92822 -35.6426 0.633788 7.00681e-05 10
-4.37309 -22.4976 1.20112 0.00027565 10
-4.37031 -22.4833 2.00385 0.000272832 10
-4.37527 -22.5088 4.45716 0.000256392 10
-4.37213 -22.4927 5.29003 0.000248466 10
-1.87988 -9.85468 -2.68817 0.000118432 4
-2.18298 -11.4436 -2.6896 0.000143298 4
-2.59237 -13.5897 -2.6892 0.000183869 4
-3.0937 -16.2178 -2.61496 0.000216225 4
-4.31081 -22.5981 -2.01273 0.000344685 10
-6.82471 -35.7764 0.635739 6.88461e-05 10
-4.30983 -22.5929 1.2054 0.000271526 10
-4.31036 -22.5957 2.01251 0.000268747 10
-4.30926 -22.5899 4.47021 0.000252537 10
-4.3119 -22.6038 5.31259 0.000244722 10
-1.84869 -9.87839 -2.69286 0.000137639 4
-2.14322 -11.4522 -2.68984 0.000108443 4
-2.5456 -13.6023 -2.68992 0.000234595 4
-3.03199 -16.2013 -2.61058 0.000193755 4
-4.24433 -22.6793 -2.01863 0.000339483 10
-6.72923 -35.9573 0.638533 6.76354e-05 10
-4.24701 -22.6937 1.20997 0.000267431 10
-4.2342 -22.6253 2.01382 3.35807e-05 10
-4.26646 -22.7976 2.8478 0.000164138 10
-4.26166 -22.772 3.66934 0.000160765 10
-4.24648 -22.6908 4.48723 0.00024871 10
-4.24771 -22.6975 5.33109 0.000241006 10
-4.26392 -22.7841 6.21096 0.000146249 10
-1.81328 -9.8798 -2.6915 0.000144042 4
-2.10614 -11.4755 -2.69357 0.000100698 4
-2.50043 -13.6238 -2.69243 0.000225088 4
-2.96312 -16.1448 -2.59979 0.000219713 4
-4.17959 -22.7728 -2.02564 0.000334319 10
-6.62696 -36.1075 0.640785 6.6436e-05 10
-4.18139 -22.7826 1.21393 0.000263365 10
-4.15732 -22.6515 2.01485 3.35795e-05 10
-4.18224 -22.7872 2.84465 0.000163843 10
-4.18193 -22.7855 3.66916 0.000160477 10
-4.1836 -22.7946 4.50484 0.00024491 10
-4.18158 -22.7836 5.34787 0.000237316 10
-4.18132 -22.7822 6.20643 0.000238904 10
-1.77721 -9.87729 -2.68911 8.32251e-05 4
-2.0632 -11.4668 -2.68983 0.000112319 4
-2.44873 -13.6095 -2.68789 0.000194445 4
-2.8974 -16.103 -2.59143 0.00025428 4
-4.11789 -22.8862 -2.03444 0.000329193 10
-4.14115 -23.0155 -1.22556 0.000226929 10
-4.14131 -23.0164 -0.408205 0.000228116 10
-4.14092 -23.0142 0.408166 0.000228129 10
-4.1171 -22.8819 1.21845 0.00025933 10
-4.07546 -22.6504 2.01348 3.35782e-05 10
-4.08843 -22.7225 2.83478 0.000271845 10
-4.08965 -22.7293 3.65778 0.000266284 10
-4.11833 -22.8887 4.52056 0.000241139 10
-4.11653 -22.8787 5.36677 0.000233653 10
-4.08738 -22.7167 6.18467 0.000242315 10
-1.74316 -9.88593 -2.68979 0.000176055 4
-2.02432 -11.4805 -2.69136 5.42234e-05 4
-2.40232 -13.6242 -2.68914 0.000209243 4
-2.83373 -16.0709 -2.58464 0.000236685 4
-4.05421 -22.9925 -2.04262 0.000324105 10
-4.05384 -22.9905 -1.22347 0.000216299 10
-4.05186 -22.9792 -0.407291 0.000217416 10
-4.04993 -22.9683 0.407097 0.000217414 10
-4.0499 -22.9681 1.22228 0.000255324 10
-3.99997 -22.6849 2.01529 3.3577e-05 10
-3.995 -22.6567 2.82481 0.000275666 10
-3.99381 -22.65 3.64275 0.000270032 10
-4.05419 -22.9924 4.53822 0.000237396 10
-4.05191 -22.9795 5.38708 0.000230018 10
-3.99667 -22.6662 6.16709 0.000245748 10
-1.71024 -9.90123 -2.69231 8.00258e-05 4
-1.98324 -11.4817 -2.69001 4.64778e-05 4
-2.35425 -13.6297 -2.68857 0.000206075 4
-2.77 -16.0366 -2.57755 0.000261354 4
-3.98502 -23.0708 -2.04832 0.000319054 10
-4.01874 -23.266 -1.23738 0.000221718 10
-4.01396 -23.2383 -0.411633 0.00022288 10
-4.01532 -23.2462 0.411773 0.000222893 10
-3.98621 -23.0777 1.22736 0.000251349 10
-3.91943 -22.6911 2.01461 3.35757e-05 10
-3.90373 -22.6002 2.81605 0.000279509 10
-3.90451 -22.6047 3.63325 0.000273802 10
-3.98617 -23.0774 4.55223 0.000233681 10
-3.98874 -23.0923 5.41023 0.000226411 10
-3.90487 -22.6068 6.14717 0.000249201 10
-1.67448 -9.90011 -2.6904 0.000182461 4
-1.94169 -11.48 -2.688 8.71469e-05 4
-2.31035 -13.6596 -2.69287 2.95908e-05 4
-2.70533 -15.9948 -2.56931 0.000190789 4
-3.92226 -23.1898 -2.05766 0.000314043 10
-3.9247 -23.2042 -1.23335 0.000224805 10
-3.92471 -23.2043 -0.410785 0.000225982 10
-3.92112 -23.183 0.410408 0.000225995 10
-3.92126 -23.1838 1.23227 0.000247403 10
-3.83828 -22.6932 2.0136 3.35745e-05 10
-3.83266 -22.66 2.82182 0.000259436 10
-3.83331 -22.6639 3.64059 0.000254119 10
-3.92226 -23.1898 4.57166 0.000229995 10
-3.92116 -23.1833 5.4283 0.000222832 10
-3.83317 -22.6631 6.1588 0.000231228 10
-1.63968 -9.90451 -2.69003 0.000304104 4
-1.90448 -11.504 -2.69207 8.1338e-05 4
-2.25959 -13.649 -2.68922 5.91824e-05 4
-2.64183 -15.958 -2.5619 0.000188067 4
-3.8545 -23.2832 -2.06474 0.000309071 10
-3.88786 -23.4846 -1.24753 0.000216693 10
-3.88726 -23.481 -0.415441 0.000217832 10
-3.89068 -23.5017 0.415807 0.000217844 10
-3.85573 -23.2906 1.23722 0.000243489 10
-3.85419 -23.2813 2.06457 0.000240978 10
-3.85207 -23.2685 2.8959 0.000237251 10
-3.85507 -23.2866 3.73843 0.000232351 10
-3.8568 -23.2971 4.59012 0.000226337 10
-3.85257 -23.2715 5.44578 0.000219281 10
-3.85266 -23.272 6.32059 0.000211264 10
-1.60752 -9.92512 -2.69408 0.000160056 4
-1.86252 -11.4995 -2.68947 8.71489e-05 4
-2.22147 -13.7158 -2.70082 4.05931e-05 4
-2.58054 -15.9327 -2.55638 0.000159588 4
-3.78831 -23.3897 -2.073 0.000304138 10
-3.79453 -23.4281 -1.24382 0.000219675 10
-3.79502 -23.4311 -0.414322 0.000220829 10
-3.79242 -23.4151 0.414038 0.000220841 10
-3.78558 -23.3729 1.24088 0.000239605 10
-3.78515 -23.3702 2.07127 0.000237132 10
-3.78687 -23.3808 2.90822 0.00023346 10
-3.78586 -23.3746 3.75041 0.000228633 10
-3.78665 -23.3795 4.60373 0.000222709 10
-3.78925 -23.3955 5.47167 0.000215758 10
-3.78816 -23.3888 6.34868 0.000207862 10
-1.57043 -9.91531 -2.68992 0.000147253 4
-1.8245 -11.5195 -2.69263 0.000108453 4
-2.19157 -13.837 -2.72318 3.9418e-05 4
-2.53663 -16.0156 -2.56825 9.76559e-05 4
-3.72022 -23.4886 -2.0806 0.000299244 10
-3.72122 -23.4948 -1.24666 0.00019972 10
-3.7185 -23.4777 -0.414913 0.000200756 10
-3.72003 -23.4873 0.415083 0.000200754 10
-3.71966 -23.485 1.24614 0.000235753 10
-3.71971 -23.4853 2.08031 0.000233317 10
-3.72034 -23.4893 2.92008 0.0002297 10
-3.72129 -23.4953 3.76767 0.000224945 10
-3.71872 -23.4791 4.62076 0.00021911 10
-3.72029 -23.489 5.49046 0.000212263 10
-3.71896 -23.4805 6.37002 0.000204486 10
-1.53704 -9.92869 -2.69207 7.04262e-05 4
-1.78386 -11.523 -2.69199 0.000110391 4
-2.14518 -13.857 -2.72561 0.000167707 1
-2.48887 -16.0771 -2.57669 8.06765e-05 4
-3.65123 -23.5855 -2.08804 0.00029439 10
-3.66403 -23.6682 -1.25517 0.000214725 10
-3.66439 -23.6705 -0.418091 0.000215855 10
-3.66324 -23.6631 0.417961 0.000215868 10
-3.65227 -23.5922 1.25115 0.000231931 10
-3.65275 -23.5953 2.08891 0.000229532 10
-3.64979 -23.5762 2.92928 0.00022597 10
-3.65115 -23.585 3.78 0.000221287 10
-3.65389 -23.6027 4.64254 0.00021554 10
-3.65272 -23.5951 5.51225 0.000208798 10
-3.65225 -23.5921 6.39678 0.000201139 10
-1.50025 -9.91992 -2.68826 0.00015686 4
-2.09697 -13.8656 -2.72585 0.000167709 1
-2.43169 -16.0788 -2.57559 7.45151e-05 4
-3.58313 -23.6924 -2.09638 0.000289576 10
-3.58414 -23.699 -1.25614 0.000193272 10
-3.58395 -23.6978 -0.41835 0.000194277 10
-3.58365 -23.6958 0.418314 0.000194275 10
-3.58179 -23.6835 1.25531 0.000228141 10
-3.58413 -23.6989 2.09697 0.000225778 10
-3.58163 -23.6824 2.9409 0.00022227 10
-3.5832 -23.6928 3.79524 0.000217659 10
-3.58393 -23.6976 4.65873 0.000212 10
-3.58523 -23.7062 5.53525 0.000205361 10
-3.58429 -23.7 6.4226 0.000197819 10
-1.46733 -9.93676 -2.69142 0.00023049 4
-1.70163 -11.5234 -2.68924 7.35959e-05 4
-2.05086 -13.8884 -2.72891 0.000167712 1
-2.3769 -16.0963 -2.57706 7.7878e-05 4
-3.51304 -23.7902 -2.10395 0.000284802 10
-3.53159 -23.9158 -1.26697 0.000209945 10
-3.52736 -23.8872 -0.421474 0.000211053 10
-3.53067 -23.9096 0.421869 0.000211065 10
-3.51222 -23.7847 1.26002 0.000224383 10
-3.51423 -23.7983 2.10466 0.000222056 10
-3.51273 -23.7881 2.95249 0.000218602 10
-3.51582 -23.8091 3.81188 0.000214062 10
-3.51371 -23.7948 4.67539 0.00020849 10
-3.51592 -23.8097 5.55651 0.000201953 10
-3.51399 -23.7967 6.44545 0.000194528 10
-1.43136 -9.93294 -2.68901 0.000176071 4
-1.6625 -11.537 -2.69103 8.13438e-05 4
-2.00145 -13.8891 -2.72765 0.000167714 1
-2.3204 -16.1025 -2.57672 7.95603e-05 4
-3.44628 -23.9155 -2.11395 0.000280069 10
-3.44583 -23.9123 -1.26614 0.000186931 10
-3.44435 -23.9021 -0.421523 0.000187905 10
-3.44399 -23.8996 0.421478 0.000187904 10
-3.44675 -23.9188 1.26648 0.000220656 10
-3.44586 -23.9126 2.11369 0.000218366 10
-3.44444 -23.9027 2.9652 0.000214965 10
-3.44568 -23.9114 3.82631 0.000210495 10
-3.44539 -23.9093 4.69551 0.00020501 10
-3.44465 -23.9042 5.57572 0.000198574 10
-3.44631 -23.9157 6.47439 0.000191265 10
-1.3961 -9.93373 -2.68789 6.72277e-05 4
-1.62389 -11.5546 -2.6938 9.87758e-05 4
-1.95398 -13.9033 -2.72909 0.000167716 1
-2.26545 -16.1195 -2.57817 8.0122e-05 4
-3.37512 -24.0152 -2.12171 0.000275376 10
-3.39389 -24.1488 -1.27802 0.000205325 10
-3.39051 -24.1247 -0.425237 0.000206411 10
-3.39381 -24.1482 0.425651 0.000206423 10
-3.37459 -24.0115 1.27075 0.000216962 10
-3.37464 -24.0118 2.1214 0.000214707 10
-3.37611 -24.0223 2.97855 0.000211359 10
-3.37552 -24.0181 3.84147 0.000206959 10
-3.37489 -24.0136 4.71364 0.000201559 10
-3.37357 -24.0042 5.59626 0.000195225 10
-3.37574 -24.0196 6.49929 0.00018803 10
-1.36133 -9.93796 -2.68773 0.000192081 4
-1.58177 -11.5472 -2.69078 7.74721e-05 4
-1.90459 -13.9038 -2.72787 0.000167719 1
-2.20825 -16.1206 -2.5771 8.18044e-05 4
-3.01274 -21.9935 -2.72568 2.86483e-05 1
-3.30542 -24.1301 -2.13083 0.000270724 10
-3.30464 -24.1244 -1.27612 0.000180698 10
-3.30357 -24.1166 -0.424888 0.000181642 10
-3.30273 -24.1105 0.424781 0.000181641 10
-3.30286 -24.1115 1.27543 0.000213299 10
-3.30508 -24.1277 2.13061 0.00021108 10
-3.30572 -24.1323 2.99075 0.000207785 10
-3.30456 -24.1239 3.85653 0.000203454 10
-3.30325 -24.1143 4.73112 0.000198139 10
-3.30573 -24.1324 5.62344 0.000191905 10
-3.30351 -24.1162 6.52226 0.000184824 10
-1.32698 -9.94527 -2.68844 0.00020809 4
-1.54133 -11.5518 -2.69057 4.4547e-05 4
-1.85372 -13.893 -2.72445 0.000167721 1
-2.15321 -16.1376 -2.57859 7.90043e-05 4
-2.93431 -21.9916 -2.72416 2.8649e-05 1
-3.23093 -24.2147 -2.13729 0.000266113 10
-3.2495 -24.3538 -1.28764 0.000200856 10
-3.25146 -24.3685 -0.429124 0.000201922 10
-3.25179 -24.371 0.429167 0.000201933 10
-3.23332 -24.2326 1.28123 0.000209669 10
-3.2339 -24.237 2.13925 0.000207485 10
-3.23154 -24.2193 3.00011 0.000204242 10
-3.23262 -24.2273 3.87124 0.00019998 10
-3.23273 -24.2282 4.75121 0.00019475 10
-3.23443 -24.2409 5.64605 0.000188615 10
-3.23341 -24.2333 6.55083 0.000181647 10
-1.29514 -9.97201 -2.69443 0.000243307 4
-1.50048 -11.553 -2.68963 4.84212e-05 4
-1.80846 -13.9244 -2.72936 0.000167724 1
-2.09676 -16.1442 -2.57846 7.28422e-05 4
-2.85997 -22.0205 -2.72649 2.86497e-05 1
-3.15923 -24.3247 -2.14601 0.000261544 10
-3.16002 -24.3308 -1.28583 0.000174575 10
-3.16108 -24.339 -0.428406 0.000175489 10
-3.16231 -24.3484 0.428572 0.000175488 10
-3.16155 -24.3425 1.28645 0.000206071 10
-3.16262 -24.3508 2.14831 0.000203922 10
-3.15964 -24.3279 3.01218 0.000200731 10
-3.16133 -24.3409 3.8876 0.000196537 10
-3.15994 -24.3302 4.76902 0.000191391 10
-3.16127 -24.3404 5.66662 0.000185354 10
-3.16076 -24.3365 6.57572 0.000178499 10
-1.4624 -11.5761 -2.6938 7.55379e-05 4
-1.75922 -13.9257 -2.72839 0.000167726 1
-2.03979 -16.1466 -2.57769 6.83608e-05 4
-2.78034 -22.0086 -2.7238 2.86504e-05 1
-3.08971 -24.4576 -2.15677 0.000257015 10
-3.10588 -24.5856 -1.29872 0.000196532 10
-3.1086 -24.6071 -0.432932 0.000197577 10
-3.10789 -24.6015 0.432834 0.000197588 10
-3.08701 -24.4361 1.29082 0.000202506 10
-3.08738 -24.4391 2.15514 0.000200391 10
-3.08664 -24.4332 3.02387 0.000197252 10
-3.08812 -24.445 3.90247 0.000193125 10
-3.08764 -24.4411 4.78863 0.000188062 10
-3.08976 -24.458 5.69144 0.000182123 10
-3.08797 -24.4438 6.60174 0.000175379 10
-1.22298 -9.96034 -2.68891 0.000112052 4
-1.41935 -11.5597 -2.6888 0.000182068 4
-1.70898 -13.9185 -2.72581 0.000167728 1
-1.98395 -16.158 -2.57839 6.89223e-05 4
-2.70569 -22.0361 -2.72601 2.86511e-05 1
-3.01707 -24.5721 -2.16592 0.000252529 10
-3.01599 -24.5632 -1.29697 0.000168562 10
-3.01581 -24.5618 -0.431947 0.000169447 10
-3.01677 -24.5696 0.432085 0.000169446 10
-3.01511 -24.5561 1.2966 0.000198973 10
-3.01487 -24.5541 2.16434 0.000196893 10
-3.01386 -24.5459 3.0365 0.000193805 10
-3.01365 -24.5442 3.91661 0.000189745 10
-3.0155 -24.5593 4.80969 0.000184765 10
-3.01486 -24.5541 5.71132 0.000178923 10
-3.01483 -24.5538 6.62858 0.000172289 10
-1.19001 -9.97971 -2.693 0.000172881 4
-1.381 -11.5814 -2.69273 0.000149142 4
-1.66251 -13.9422 -2.72929 0.000167731 1
-1.92526 -16.1457 -2.57535 5.60354e-05 4
-2.62706 -22.0312 -2.72425 2.86518e-05 1
-2.9415 -24.6681 -2.17347 0.000248084 10
-2.95879 -24.8131 -1.30961 0.000192343 10
-2.96022 -24.8251 -0.436393 0.000193369 10
-2.96046 -24.8272 0.43643 0.00019338 10
-2.94133 -24.6667 1.30189 0.000195474 10
-2.93594 -24.6215 2.16936 0.000230667 10
-2.93665 -24.6274 3.04529 0.000227061 10
-2.94305 -24.6811 3.93679 0.000186397 10
-2.94254 -24.6768 4.83067 0.000181498 10
-2.93636 -24.625 5.72541 0.000209656 10
-2.93592 -24.6214 6.64401 0.000201891 10
-1.15285 -9.96381 -2.68761 0.000131263 4
-1.33898 -11.5724 -2.68953 8.52252e-05 4
-1.61097 -13.9232 -2.72445 0.000167733 1
-1.87111 -16.1715 -2.5784 8.01321e-05 4
-2.55269 -22.0622 -2.72697 2.86525e-05 1
-2.86833 -24.7902 -2.18333 0.000243682 10
-2.86628 -24.7725 -1.30694 0.000162661 10
-2.86735 -24.7818 -0.435454 0.000163517 10
-2.86601 -24.7702 0.435249 0.000163516 10
-2.86843 -24.7911 1.30791 0.000192008 10
-2.84209 -24.5634 2.16336 0.0002336 10
-2.84348 -24.5755 3.03762 0.000229952 10
-2.86909 -24.7968 3.95363 0.00018308 10
-2.86792 -24.7867 4.85018 0.000178263 10
-2.8417 -24.56 5.70796 0.00021234 10
-2.843 -24.5713 6.6278 0.000204483 10
-1.11889 -9.97512 -2.68959 0.000176086 4
-1.30052 -11.5944 -2.69356 6.77935e-05 4
-1.565 -13.9523 -2.72906 0.000167735 1
-1.81429 -16.1748 -2.57789 7.3409e-05 4
-2.47365 -22.0531 -2.72476 2.86532e-05 1
-2.79328 -24.9026 -2.19236 0.000239321 10
-2.80841 -25.0375 -1.32039 0.000188284 10
-2.80813 -25.0351 -0.439729 0.000189291 10
-2.81069 -25.0579 0.440129 0.000189301 10
-2.79249 -24.8955 1.3129 0.000188574 10
-2.74658 -24.4863 2.1557 0.000236547 10
-2.74842 -24.5027 3.02742 0.000232856 10
-2.79184 -24.8898 3.96688 0.000179796 10
-2.79234 -24.8942 4.86929 0.000175058 10
-2.74784 -24.4975 5.69117 0.000215036 10
-2.74798 -24.4988 6.60559 0.000207086 10
-1.0834 -9.97285 -2.68794 5.76288e-05 4
-1.25917 -11.5908 -2.6917 4.06766e-05 4
-1.51596 -13.9547 -2.72847 0.000167738 1
-1.7573 -16.1762 -2.57714 7.56518e-05 4
-2.39718 -22.0664 -2.72536 2.86539e-05 1
-2.71608 -25.0019 -2.20025 0.000235003 10
-2.71826 -25.022 -1.31906 0.000156872 10
-2.71735 -25.0136 -0.439183 0.000157699 10
-2.71677 -25.0082 0.439088 0.000157698 10
-2.71765 -25.0164 1.31877 0.000185174 10
-2.65687 -24.4568 2.15228 0.000197551 10
-2.65651 -24.4536 3.02018 0.000194457 10
-2.71831 -25.0225 3.98649 0.000176543 10
-2.71566 -24.9981 4.88772 0.000171886 10
-2.65578 -24.4468 5.6772 0.000179552 10
-2.65486 -24.4384 6.58678 0.000172907 10
-1.05118 -10.0013 -2.6946 4.48228e-05 4
-1.21872 -11.5953 -2.69174 5.22991e-05 4
-1.46576 -13.9458 -2.72572 0.00016774 1
-1.70069 -16.181 -2.57693 6.78076e-05 4
-2.3207 -22.08 -2.72601 2.86546e-05 1
-2.64132 -25.1305 -2.21075 0.000230727 10
-2.65525 -25.263 -1.33127 0.000184348 10
-2.65549 -25.2653 -0.443437 0.000185336 10
-2.65487 -25.2594 0.443332 0.000185346 10
-2.64042 -25.1219 1.32383 0.000181807 10
-2.65136 -25.226 2.21915 0.000113243 10
-2.6518 -25.2302 3.11494 0.000111453 10
-2.63945 -25.1127 3.99937 0.000173322 10
-2.64002 -25.1181 4.90937 0.000168744 10
-2.58069 -24.5536 5.69987 0.000176285 10
-2.65099 -25.2224 6.79556 9.89887e-05 10
-1.01414 -9.98396 -2.68896 6.40332e-05 4
-1.17705 -11.5878 -2.68902 0.000135592 4
-1.41661 -13.9462 -2.72482 0.000167742 1
-1.64413 -16.1861 -2.57682 7.73357e-05 4
-2.24326 -22.0845 -2.72558 2.86553e-05 1
-2.56469 -25.2489 -2.22036 0.000226494 10
-2.56347 -25.2369 -1.32942 0.000151196 10
-2.56381 -25.2402 -0.442837 0.000151996 10
-2.5631 -25.2332 0.442713 0.000151995 10
-2.56323 -25.2345 1.32929 0.000178474 10
-2.56481 -25.25 4.01979 0.000170134 10
-2.56354 -25.2376 4.93093 0.000165634 10
-2.50635 -24.6746 5.72589 0.000173052 10
-0.979207 -9.98672 -2.68877 0.000281749 4
-1.13723 -11.5984 -2.69054 4.4552e-05 4
-1.36823 -13.9543 -2.72544 0.000167745 1
-1.58754 -16.191 -2.5767 7.34141e-05 4
-2.16656 -22.0963 -2.7261 2.8656e-05 1
-2.487 -25.3644 -2.22974 0.000222303 10
-2.48666 -25.3609 -1.33548 0.000224671 10
-2.48805 -25.375 -0.445047 0.000225861 10
-2.48556 -25.3497 0.444602 0.000225859 10
-2.48718 -25.3662 1.33576 0.000175175 10
-2.48649 -25.3592 4.03576 0.000166978 10
-2.4876 -25.3705 4.95518 0.000162555 10
-0.945704 -10.0045 -2.69265 0.000233726 4
-1.09748 -11.6101 -2.69235 0.00021114 4
-1.31937 -13.9574 -2.72514 0.000167747 1
-1.53155 -16.2021 -2.5776 6.83716e-05 4
-2.08966 -22.1062 -2.7264 2.86567e-05 1
-2.40708 -25.4642 -2.23776 0.000218156 10
-2.40941 -25.4889 -1.34177 0.000220482 10
-2.4084 -25.4782 -0.446707 0.000221651 10
-2.4089 -25.4835 0.446799 0.00022165 10
-2.4097 -25.492 1.34193 0.000171908 10
-2.40874 -25.4818 4.05392 0.000163854 10
-2.40945 -25.4893 4.97671 0.000159509 10
-0.909425 -9.99289 -2.68865 0.000204912 4
-1.0563 -11.6068 -2.69071 4.4553e-05 4
-1.26912 -13.9453 -2.72189 0.000599155 4
-1.47531 -16.211 -2.57817 6.44497e-05 4
-2.01054 -22.0921 -2.72378 2.86574e-05 1
-2.32905 -25.5919 -2.24825 0.000214051 10
-1.18804 -13.0543 -0.686974 0.00108822 8
-3.37789 -37.1167 -0.650552 4.664e-05 10
-3.37867 -37.1253 0.650702 4.66429e-05 10
-2.32914 -25.5929 1.34681 0.000168676 10
-2.33147 -25.6186 2.25059 0.000133191 10
-2.33181 -25.6223 3.15902 0.000131085 10
-2.3288 -25.5892 4.06968 0.000160763 10
-2.32996 -25.602 4.99709 0.000156494 10
-2.33305 -25.6359 5.94297 0.000120925 10
-2.33188 -25.6231 6.89405 0.000116395 10
-0.87497 -10.0009 -2.68998 0.000140878 4
-1.01675 -11.6215 -2.69329 7.94215e-05 4
-1.21719 -13.9126 -2.71466 0.000626234 4
-1.41715 -16.1981 -2.57533 6.333e-05 4
-1.93447 -22.1111 -2.72527 2.86581e-05 1
-2.25138 -25.7333 -2.25997 0.000209989 10
-1.14871 -13.1298 -0.690731 0.0011013 8
-1.15209 -13.1684 -0.230734 0.00142064 8
-2.23972 -25.6001 1.34677 0.000212354 10
-2.24099 -25.6146 2.24954 0.000210121 10
-2.23916 -25.5937 3.15451 0.0002068 10
-2.24111 -25.6159 4.07266 0.000202431 10
-2.24094 -25.6141 4.99789 0.000197068 10
-2.23978 -25.6007 5.93297 0.000190777 10
-2.2387 -25.5884 6.88259 0.000183633 10
-0.839797 -10.0009 -2.68915 0.00023053 4
-0.974841 -11.6091 -2.68959 0.000108479 4
-1.16745 -13.9028 -2.71195 0.000602123 4
-1.36197 -16.2192 -2.57791 8.07051e-05 4
-1.85798 -22.1261 -2.7263 2.86588e-05 1
-2.17049 -25.8476 -2.26933 0.000205971 10
-1.10724 -13.1857 -0.693465 0.00112557 8
-1.10621 -13.1735 -0.230753 0.00126365 8
-3.10776 -37.0093 0.648272 3.73636e-05 10
-2.14371 -25.5287 1.34261 0.000214912 10
-2.14473 -25.5408 2.2424 0.000212654 10
-2.14471 -25.5407 3.14704 0.000209295 10
-2.14554 -25.5505 4.06105 0.000204878 10
-2.14395 -25.5316 4.98031 0.000199455 10
-2.14426 -25.5352 5.91602 0.000193093 10
-2.14361 -25.5276 6.86416 0.000185868 10
-0.805137 -10.0069 -2.69 0.000108862 4
-0.935523 -11.6274 -2.69308 0.000139475 4
-1.11524 -13.8611 -2.70304 0.000594819 4
-1.30371 -16.2036 -2.57469 7.286e-05 4
-1.78099 -22.1356 -2.72669 2.86595e-05 1
-2.09022 -25.979 -2.28021 0.000201996 10
-1.06595 -13.2485 -0.69657 0.00113676 8
-1.06589 -13.2477 -0.231987 0.00120731 8
-2.96615 -36.8657 0.645572 4.8589e-05 10
-2.04922 -25.4693 1.33911 0.000217479 10
-2.05011 -25.4804 2.23645 0.000215196 10
-2.04965 -25.4748 3.13802 0.000211801 10
-2.05008 -25.48 4.04868 0.000207334 10
-2.05059 -25.4864 4.97007 0.00020185 10
-2.04954 -25.4734 5.89999 0.000195417 10
-2.04974 -25.4758 6.84828 0.000188112 10
-0.769758 -10.0039 -2.68846 0.000128075 4
-0.895111 -11.633 -2.69363 0.00011623 4
-1.06305 -13.8155 -2.6934 0.000666168 4
-1.24888 -16.2306 -2.57828 7.79055e-05 4
-1.70323 -22.1354 -2.72592 2.86602e-05 1
-2.00788 -26.0947 -2.28974 0.000198064 10
-1.02327 -13.2985 -0.699007 0.00115296 8
-1.02375 -13.3048 -0.232923 0.00114647 8
-2.84108 -36.9232 0.646401 3.74548e-05 10
-1.96196 -25.4979 1.34024 0.000168477 10
-1.96262 -25.5065 2.23812 0.000166698 10
-1.96216 -25.5006 3.14033 0.000164056 10
-1.96151 -25.4921 4.04948 0.000160585 10
-1.96195 -25.4978 4.97093 0.000156327 10
-1.96132 -25.4896 5.90214 0.000151333 10
-1.96122 -25.4883 6.84975 0.000145665 10
-0.735919 -10.0213 -2.69243 0.000121672 4
-0.981003 -13.3587 -2.60366 0.00113823 8
-0.982628 -13.3808 -2.12502 0.00116462 8
-0.982527 -13.3794 -1.64721 0.00118608 8
-0.982155 -13.3744 -1.17326 0.00120239 8
-0.981248 -13.362 -0.70216 0.00116817 8
-0.981214 -13.3616 -0.233855 0.00109292 8
-2.69385 -36.6831 0.64203 4.99035e-05 10
-1.88141 -25.6199 1.3463 0.000165195 10
-1.88223 -25.6311 2.24847 0.000163448 10
-1.88146 -25.6206 3.15428 0.000160854 10
-1.88094 -25.6135 4.0677 0.000157446 10
-1.88085 -25.6123 4.99193 0.000153266 10
-1.88272 -25.6377 5.93487 0.000148363 10
-1.88167 -25.6234 6.88425 0.000142798 10
-0.70133 -10.0295 -2.69395 0.000160096 4
-0.813405 -11.6322 -2.69207 6.39282e-05 4
-0.935972 -13.385 -2.60813 0.000871106 8
-0.934957 -13.3705 -2.12285 0.000891253 8
-0.934944 -13.3703 -1.64568 0.000907625 8
-0.934533 -13.3644 -1.17209 0.000920053 8
-0.935903 -13.384 -0.703139 0.000928409 8
-0.936241 -13.3888 -0.234274 0.000932606 8
-1.79967 -25.7364 1.35208 0.00016195 10
-1.80021 -25.7442 2.25783 0.000160234 10
-1.79946 -25.7334 3.16738 0.000157688 10
-1.79979 -25.7381 4.08647 0.000154342 10
-1.8015 -25.7626 5.01997 0.000150238 10
-1.80011 -25.7427 5.95768 0.000145426 10
-1.80141 -25.7613 6.91957 0.000139963 10
-0.66481 -10.0092 -2.68786 0.000192117 4
-0.772392 -11.6289 -2.69066 0.000172414 4
-0.929135 -13.9888 -2.72514 0.000398689 4
-1.07812 -16.2318 -2.57653 6.66994e-05 4
-1.47035 -22.1371 -2.72408 2.86622e-05 1
-1.7577 -26.4634 -2.32035 0.00018653 10
-0.897496 -13.5124 -0.709717 0.00111814 8
-0.897431 -13.5115 -0.236363 0.000989755 8
-1.7184 -25.8718 1.35887 0.000158741 10
-1.71849 -25.8731 2.26859 0.000157057 10
-1.71752 -25.8585 3.18202 0.000154558 10
-1.71937 -25.8863 4.10902 0.000151273 10
-1.71922 -25.8841 5.04245 0.000147245 10
-1.71893 -25.8797 5.98796 0.000142522 10
-1.71895 -25.8799 6.94979 0.000137161 10
-0.629635 -10.0077 -2.68687 0.000227341 4
-0.731327 -11.6241 -2.68894 0.000127859 4
-0.881651 -14.0134 -2.72932 0.000167767 1
-1.02168 -16.2391 -2.57711 8.18343e-05 4
-1.39333 -22.1463 -2.7246 2.86629e-05 1
-1.67374 -26.6034 -2.3321 0.000182772 10
-0.853809 -13.5709 -0.712626 0.0010719 8
-0.852939 -13.5571 -0.237107 0.000945583 8
-1.63626 -26.0076 1.36569 0.000155568 10
-1.63623 -26.0071 2.27982 0.000153915 10
-1.63602 -26.0038 3.19918 0.000151463 10
-1.6355 -25.9955 4.12542 0.00014824 10
-1.63551 -25.9957 5.06304 0.000144286 10
-1.63529 -25.9922 6.01264 0.000139651 10
-1.63562 -25.9974 6.97975 0.000134391 10
-0.595434 -10.0223 -2.6902 0.000153697 4
-0.690275 -11.6186 -2.6871 8.52403e-05 4
-0.832788 -14.0174 -2.72951 0.00016777 1
-0.96527 -16.2473 -2.57786 6.44596e-05 4
-1.31573 -22.1462 -2.72401 2.86635e-05 1
-1.58864 -26.7398 -2.34356 0.000179058 10
-0.810543 -13.643 -0.716259 0.00101608 8
-0.810604 -13.644 -0.238577 0.00089713 8
-1.55188 -26.1211 1.37136 0.000152432 10
-1.55159 -26.1163 2.28891 0.00015081 10
-1.55268 -26.1345 3.21458 0.000148403 10
-1.55179 -26.1196 4.14424 0.000145241 10
-1.55146 -26.1141 5.08501 0.000141362 10
-1.55255 -26.1323 6.04375 0.000136814 10
-1.55299 -26.1398 7.0165 0.000131653 10
-0.560543 -10.026 -2.69066 0.000259365 4
-0.650065 -11.6272 -2.68855 5.42444e-05 4
-0.782441 -13.9949 -2.72459 0.000167772 1
-0.908217 -16.2446 -2.57691 7.23081e-05 4
-1.23816 -22.146 -2.72344 2.86642e-05 1
-1.50074 -26.8427 -2.3521 0.000175388 10
-0.765134 -13.6854 -0.718341 0.000972225 8
-1.46753 -26.2487 1.37778 0.000149332 10
-1.46859 -26.2676 2.30171 0.000147741 10
-1.46838 -26.2638 3.22982 0.000145379 10
-1.46807 -26.2582 4.16539 0.000142277 10
-1.46797 -26.2566 5.11173 0.000138472 10
-1.46802 -26.2574 6.07147 0.00013401 10
-1.46797 -26.2566 7.04642 0.000128947 10
-0.526058 -10.0378 -2.6933 0.00026257 4
-0.609123 -11.6227 -2.687 7.36182e-05 4
-0.733677 -13.9994 -2.72493 0.000167774 1
-0.850919 -16.2365 -2.57513 7.95962e-05 4
-1.16203 -22.1728 -2.72622 2.86648e-05 1
-1.41434 -26.9871 -2.36431 0.000171762 10
-0.72114 -13.7601 -0.722128 0.000919125 8
-1.38237 -26.3771 1.38426 0.000146269 10
-1.38231 -26.376 2.31077 0.000144708 10
-1.38321 -26.3931 3.24511 0.000142392 10
-1.38317 -26.3924 4.18588 0.000139348 10
-1.38278 -26.3849 5.13574 0.000135616 10
-1.3827 -26.3834 6.09945 0.00013124 10
-1.38343 -26.3973 7.08285 0.000126274 10
-0.490701 -10.0331 -2.69157 0.000153701 4
-0.568722 -11.6283 -2.68782 6.58696e-05 4
-0.68547 -14.0154 -2.72758 0.000167776 1
-0.795427 -16.2637 -2.57899 6.6705e-05 4
-1.08371 -22.1581 -2.72392 2.86655e-05 1
-1.3263 -27.1181 -2.37536 0.000168179 10
-1.75295 -35.8416 -1.88063 8.41711e-05 10
-1.75296 -35.8418 -0.62637 8.46792e-05 10
-1.75277 -35.8379 0.6263 8.46843e-05 10
-1.29619 -26.5025 1.3906 0.000143242 10
-1.2971 -26.5211 2.32307 0.000141711 10
-1.29671 -26.5131 3.25929 0.000139439 10
-1.2974 -26.5272 4.20652 0.000136455 10
-1.29637 -26.5061 5.15843 0.000132794 10
-1.29689 -26.5167 6.12918 0.000128503 10
-1.29612 -26.5011 7.10945 0.000123633 10
-0.455394 -10.0285 -2.68991 0.000284989 4
-0.528556 -11.6397 -2.69 4.2622e-05 4
-0.636974 -14.0272 -2.72943 0.000167778 1
-0.737755 -16.2466 -2.57586 6.89483e-05 4
-1.00636 -22.1617 -2.72392 2.86662e-05 1
-1.23775 -27.2573 -2.38716 0.00016464 10
-1.25037 -27.5353 -1.44455 0.000146308 10
-1.25091 -27.5471 -0.481332 0.000147112 10
-1.2511 -27.5514 0.481406 0.00014712 10
-1.20988 -26.6437 1.39778 0.000140252 10
-1.21005 -26.6474 2.33375 0.000138751 10
-1.21009 -26.6482 3.27536 0.000136523 10
-1.20956 -26.6365 4.22316 0.000133596 10
-1.20971 -26.6399 5.18361 0.000130007 10
-1.21007 -26.6478 6.15846 0.000125799 10
-1.21007 -26.6479 7.14764 0.000121025 10
-0.420299 -10.028 -2.68935 8.96604e-05 4
-0.587551 -14.0185 -2.72731 0.000167781 1
-0.680806 -16.2435 -2.57497 8.40847e-05 4
-0.929461 -22.1762 -2.72529 2.86668e-05 1
-1.14805 -27.3917 -2.39856 0.000161145 10
-1.15118 -27.4663 -1.44071 0.000147959 10
-1.15173 -27.4793 -0.480074 0.000148771 10
-1.15163 -27.477 0.480033 0.000148779 10
-1.12247 -26.7812 1.40477 0.000137298 10
-1.12227 -26.7764 2.34468 0.000135826 10
-1.12263 -26.785 3.29167 0.000133642 10
-1.12291 -26.7917 4.24712 0.000130773 10
-1.12268 -26.7862 5.21127 0.000127254 10
-1.12258 -26.7839 6.18897 0.000123129 10
-1.12287 -26.7907 7.18485 0.000118449 10
-0.385317 -10.03 -2.68952 0.00020494 4
-0.44767 -11.6531 -2.69232 0.000131743 4
-0.537977 -14.0039 -2.72409 0.000167783 1
-0.62453 -16.2569 -2.57674 6.33448e-05 4
-0.852451 -22.1899 -2.72658 2.86675e-05 1
-1.05797 -27.5396 -2.41118 0.000157694 10
-1.06537 -27.7323 -1.45446 0.000143531 10
-1.06572 -27.7414 -0.484585 0.000144322 10
-1.06578 -27.7431 0.484614 0.000144329 10
-1.03354 -26.9036 1.411 0.000134381 10
-1.03337 -26.8993 2.35512 0.000132939 10
-1.03432 -26.9241 3.3083 0.000130798 10
-1.0336 -26.9053 4.26452 0.000127985 10
-1.03384 -26.9116 5.23495 0.000124536 10
-1.03416 -26.9198 6.21952 0.000120493 10
-1.03362 -26.9058 7.21469 0.000115905 10
-0.350301 -10.0313 -2.68952 0.00033303 4
-0.406735 -11.6473 -2.69064 8.71841e-05 4
-0.489573 -14.0195 -2.72678 0.000167785 1
-0.567684 -16.2563 -2.57631 0.000253155 4
-0.774728 -22.1853 -2.72567 2.86681e-05 1
-0.966705 -27.6827 -2.4234 0.000154286 10
-0.966395 -27.6739 -1.45121 0.000145131 10
-0.965966 -27.6616 -0.483129 0.000145929 10
-0.966537 -27.6779 0.483414 0.000145937 10
-0.944158 -27.0371 1.41782 0.000131501 10
-0.944933 -27.0593 2.36882 0.000130087 10
-0.944418 -27.0445 3.32267 0.000127989 10
-0.944323 -27.0418 4.28561 0.000125232 10
-0.944197 -27.0382 5.2589 0.000121852 10
-0.944799 -27.0554 6.25005 0.000117889 10
-0.944906 -27.0585 7.25472 0.000113394 10
-0.315649 -10.0441 -2.69263 0.000217753 4
-0.366268 -11.6548 -2.69206 6.00608e-05 4
-0.440774 -14.0256 -2.72765 0.000167787 1
-0.513595 -16.3428 -2.58973 0.000268872 4
-0.696907 -22.1759 -2.7242 2.86688e-05 1
-0.874267 -27.8196 -2.4351 0.000150923 10
-0.877746 -27.9303 -1.46449 0.00014082 10
-0.87771 -27.9291 -0.487745 0.000141598 10
-0.878006 -27.9386 0.48791 0.000141605 10
-0.854637 -27.195 1.42593 0.000128657 10
-0.854483 -27.19 2.37999 0.000127271 10
-0.854411 -27.1878 3.33988 0.000125215 10
-0.854385 -27.1869 4.30811 0.000122514 10
-0.854612 -27.1941 5.28861 0.000119202 10
-0.854466 -27.1895 6.28029 0.00011532 10
-0.854258 -27.1829 7.28723 0.000110915 10
-0.280448 -10.0401 -2.6913 0.000224159 4
-0.391895 -14.03 -2.72822 0.000167789 1
-0.456953 -16.3591 -2.59204 8.22587e-05 4
-0.619761 -22.1877 -2.72536 2.86694e-05 1
-0.780675 -27.9485 -2.44613 0.000147603 10
-0.780563 -27.9444 -1.46508 9.85651e-05 10
-0.780777 -27.9521 -0.488096 9.9103e-05 10
-0.781049 -27.9618 0.488266 9.91022e-05 10
-0.763511 -27.334 1.43307 0.00012585 10
-0.763014 -27.3162 2.39079 0.000124492 10
-0.763649 -27.3389 3.35811 0.000122478 10
-0.763001 -27.3157 4.32807 0.000119832 10
-0.763519 -27.3343 5.31532 0.000116587 10
-0.763056 -27.3177 6.30925 0.000112784 10
-0.762837 -27.3098 7.3205 0.000108469 10
-0.245007 -10.025 -2.68699 0.00039068 4
-0.284605 -11.6452 -2.68932 0.000143374 4
-0.342635 -14.0197 -2.72596 0.000167791 1
-0.402148 -16.4548 -2.60696 0.000252401 4
-0.542376 -22.1925 -2.72571 2.867e-05 1
-0.686673 -28.0967 -2.45888 0.000144327 10
-0.687365 -28.1251 -1.47441 0.000138173 10
-0.68793 -28.1482 -0.491475 0.000138938 10
-0.687756 -28.1411 0.491351 0.000138945 10
-0.671342 -27.4694 1.44004 0.000123079 10
-0.671293 -27.4675 2.40381 0.000121749 10
-0.671437 -27.4733 3.37431 0.000119776 10
-0.671385 -27.4712 4.35231 0.000117184 10
-0.671477 -27.475 5.34219 0.000114006 10
-0.671165 -27.4622 6.34204 0.000110281 10
-0.671106 -27.4598 7.36002 0.000106055 10
-0.210592 -10.0535 -2.69443 0.000150509 4
-0.243855 -11.6415 -2.68824 6.20001e-05 4
-0.294041 -14.0373 -2.72918 0.000167793 1
-0.345731 -16.505 -2.6147 0.000265326 4
-0.464904 -22.1942 -2.7257 2.86707e-05 1
-0.591275 -28.227 -2.47009 0.000141094 10
-0.594856 -28.398 -1.4886 0.000134136 10
-0.59518 -28.4135 -0.496068 0.00013488 10
-0.594995 -28.4046 0.495913 0.000134888 10
-0.57819 -27.6024 1.4469 0.000120345 10
-0.578396 -27.6122 2.41629 0.000119043 10
-0.578155 -27.6007 3.38968 0.00011711 10
-0.578183 -27.602 4.37269 0.000114571 10
-0.578435 -27.6141 5.36881 0.000111459 10
-0.578233 -27.6044 6.37438 0.000107811 10
-0.57797 -27.5919 7.39484 0.000103674 10
-0.175331 -10.0447 -2.69187 8.00589e-05 4
-0.244564 -14.011 -2.72388 0.000167796 1
-0.289576 -16.5897 -2.62796 0.000266542 4
-0.38721 -22.1832 -2.72417 2.86713e-05 1
-0.495282 -28.3746 -2.48283 0.000137906 10
-0.495455 -28.3845 -1.4878 9.20947e-05 10
-0.495422 -28.3826 -0.495496 9.25997e-05 10
-0.495406 -28.3817 0.495479 9.25989e-05 10
-0.484416 -27.7521 1.45465 0.000117648 10
-0.484567 -27.7607 2.42912 0.000116372 10
-0.484494 -27.7566 3.4086 0.00011448 10
-0.484361 -27.7489 4.39567 0.000111994 10
-0.484176 -27.7383 5.39261 0.000108947 10
-0.484595 -27.7623 6.41041 0.000105375 10
-0.484403 -27.7513 7.43707 0.000101324 10
-0.140139 -10.0359 -2.68938 0.00014731 4
-0.162507 -11.6378 -2.68706 4.06884e-05 4
-0.195431 -13.9957 -2.72075 4.99924e-05 4
-0.232461 -16.6475 -2.63696 0.000258447 4
-0.310045 -22.2036 -2.72653 2.8672e-05 1
-0.398624 -28.5472 -2.4978 0.000134761 10
-0.399277 -28.5939 -1.49869 0.000131653 10
-0.399349 -28.5991 -0.499248 0.000132385 10
-0.399411 -28.6035 0.499324 0.000132392 10
-0.389554 -27.8976 1.4622 0.000114986 10
-0.389649 -27.9045 2.44156 0.000113738 10
-0.389481 -27.8924 3.42509 0.000111885 10
-0.389621 -27.9024 4.41974 0.000109452 10
-0.389309 -27.8801 5.41987 0.000106468 10
-0.389401 -27.8867 6.43877 0.000102972 10
-0.389339 -27.8822 7.47175 9.90072e-05 10
-0.105297 -10.0547 -2.69429 0.000192145 4
-0.121892 -11.6392 -2.68728 0.000211194 4
-0.1457 -13.9126 -2.70448 5.68225e-05 4
-0.17522 -16.7314 -2.65015 6.21218e-05 4
-0.232319 -22.1838 -2.72398 2.86726e-05 1
-0.300418 -28.6864 -2.50988 0.000131659 10
-0.304567 -29.0826 -1.52424 0.000188538 10
-0.304571 -29.083 -0.507673 0.000189592 10
-0.304399 -29.0665 0.507385 0.000189603 10
-0.293629 -28.0381 1.4695 0.000112362 10
-0.293567 -28.0322 2.45263 0.00011114 10
-0.29348 -28.0239 3.44109 0.000109326 10
-0.293477 -28.0236 4.43875 0.000106944 10
-0.293658 -28.041 5.45091 0.000104024 10
-0.29354 -28.0297 6.47152 0.000100603 10
-0.293722 -28.047 7.51559 9.67223e-05 10
-0.0701626 -10.0497 -2.69289 0.000166527 4
-0.0965048 -13.8229 -2.68696 3.06667e-05 4
-0.116831 -16.7343 -2.65052 3.8309e-05 4
-0.154927 -22.191 -2.72478 2.86732e-05 1
-0.201324 -28.8366 -2.52294 0.000128601 10
-0.202495 -29.0044 -1.52009 0.000190548 10
-0.202544 -29.0114 -0.506408 0.000191612 10
-0.202399 -28.9906 0.506045 0.000191623 10
-0.201354 -28.8409 1.51152 0.000101381 10
-0.202227 -28.966 2.53426 6.30682e-05 10
-0.20219 -28.9608 3.55602 6.20281e-05 10
-0.201322 -28.8364 4.56735 9.64482e-05 10
-0.20122 -28.8217 5.60251 9.37903e-05 10
-0.202079 -28.9448 6.68259 5.70272e-05 10
-0.20139 -28.8461 7.72949 8.71463e-05 10
-0.0350707 -10.0468 -2.69204 0.000172933 4
-0.0406926 -11.6573 -2.69131 8.52545e-05 4
-0.0482797 -13.8308 -2.68845 4.97018e-05 4
-0.0583773 -16.7235 -2.64875 8.07609e-05 4
-0.0774593 -22.1899 -2.72459 2.86739e-05 1
-0.101125 -28.9693 -2.5345 0.000125587 10
-0.101136 -28.9725 -1.51839 0.000126981 10
-0.101141 -28.9741 -0.505748 0.000127682 10
-0.101146 -28.9755 0.505773 0.000127681 10
-0.101194 -28.9894 1.51928 9.9006e-05 10
-0.101006 -28.9354 2.53154 0.000148526 10
-0.100979 -28.9276 3.55188 0.000146087 10
-0.101154 -28.9779 4.58968 9.41807e-05 10
-0.100838 -28.8874 5.61517 3.25353e-05 10
-0.101029 -28.9419 6.68179 0.000134338 10
-0.101225 -28.998 7.77004 8.50821e-05 10
-4.38607e-07 -10.0342 -2.68865 0.000172935 4
-5.09338e-07 -11.6523 -2.69014 7.36297e-05 4
-6.05448e-07 -13.851 -2.69237 8.35423e-05 4
-7.31595e-07 -16.7369 -2.65087 4.91821e-05 4
-9.69853e-07 -22.1877 -2.7243 2.86745e-05 1
-1.27366e-06 -29.1379 -2.54924 0.000122615 10
-1.27367e-06 -29.1382 -1.52707 0.000123979 10
-1.27314e-06 -29.1261 -0.508399 0.000124665 10
-1.27311e-06 -29.1255 0.508387 0.000124664 10
-1.27328e-06 -29.1293 1.5266 9.66654e-05 10
-1.26149e-06 -28.8594 2.52487 0.000150084 10
-1.26229e-06 -28.8779 3.54576 0.000147621 10
-1.27321e-06 -29.1277 4.61337 9.19459e-05 10
-1.26299e-06 -28.8937 5.61637 3.25349e-05 10
-1.26206e-06 -28.8726 6.66576 0.000135757 10
-1.27363e-06 -29.1372 7.80728 8.30479e-05 10
0.0350184 -10.0324 -2.68818 0.000128101 4
0.0406932 -11.6581 -2.69151 0.00013951 4
0.0482498 -13.823 -2.68694 3.91279e-05 4
0.0584304 -16.7397 -2.65132 7.19623e-05 4
0.0774786 -22.1967 -2.72543 2.86751e-05 1
0.102256 -29.2952 -2.56301 0.000119687 10
0.121508 -34.8106 -1.82436 9.79937e-05 10
0.102253 -29.2945 1.53527 9.4359e-05 10
0.100531 -28.8011 2.51978 0.000151645 10
0.100523 -28.7987 3.53605 0.000149158 10
0.102272 -29.2998 4.64066 8.97439e-05 10
0.100827 -28.8858 5.61486 3.25344e-05 10
0.10051 -28.7949 6.64786 0.00013718 10
0.10222 -29.285 7.84694 8.10439e-05 10
0.0700613 -10.0355 -2.68908 0.000140912 4
0.0813247 -11.6489 -2.68942 0.000187953 4
0.0965236 -13.826 -2.68756 5.07611e-05 4
0.116676 -16.7126 -2.64708 8.64596e-05 4
0.154966 -22.1973 -2.72555 2.86757e-05 1
0.205524 -29.4391 -2.57565 0.000116802 10
0.242538 -34.7409 -1.82074 9.90749e-05 10
0.205541 -29.4415 1.543 9.20865e-05 10
0.201055 -28.799 2.51965 9.86877e-05 10
0.20089 -28.7754 3.53326 9.70632e-05 10
0.205679 -29.4613 4.66632 8.75745e-05 10
0.205602 -29.4503 5.72471 8.51438e-05 10
0.201055 -28.799 6.64893 8.92521e-05 10
0.205678 -29.4611 7.89428 7.90698e-05 10
0.105216 -10.0471 -2.69227 0.00022418 4
0.122115 -11.6608 -2.69225 8.13825e-05 4
0.144909 -13.8374 -2.68986 3.06686e-05 4
0.167869 -16.0299 -2.53902 7.09431e-05 4
0.23252 -22.2034 -2.72638 2.86763e-05 1
0.310182 -29.6193 -2.5915 0.00011396 10
0.362918 -34.6551 -1.8163 0.000100159 10
0.310184 -29.6195 1.55238 8.98476e-05 10
0.310206 -29.6217 2.5917 8.88524e-05 10
0.310213 -29.6223 3.63736 8.7376e-05 10
0.310073 -29.6089 4.68985 8.54374e-05 10
0.310159 -29.6171 5.7573 8.30617e-05 10
0.310207 -29.6218 6.8391 8.02792e-05 10
0.310208 -29.6218 7.93759 7.71255e-05 10
0.140129 -10.0354 -2.68924 0.00016013 4
0.162701 -11.6519 -2.69031 0.000153078 4
0.19321 -13.8368 -2.68986 5.92228e-05 4
0.22349 -16.0053 -2.53524 7.09441e-05 4
0.309645 -22.1753 -2.72305 2.8677e-05 1
0.415543 -29.7593 -2.60385 0.000111161 10
0.482835 -34.5784 -1.81235 0.000101245 10
0.415581 -29.762 1.55991 8.76427e-05 10
0.41568 -29.7691 2.60471 8.667e-05 10
0.415794 -29.7772 3.65654 8.52272e-05 10
0.415801 -29.7777 4.71678 8.33328e-05 10
0.415529 -29.7582 5.78498 8.10113e-05 10
0.415606 -29.7638 6.87217 7.82925e-05 10
0.415856 -29.7817 7.98075 7.52111e-05 10
0.175343 -10.0455 -2.69209 0.000131308 4
0.203425 -11.6543 -2.69102 0.000118201 4
0.241278 -13.8229 -2.68731 6.13386e-05 4
0.279359 -16.0046 -2.53526 6.3323e-05 4
0.387402 -22.1944 -2.72555 2.86776e-05 1
0.52239 -29.9279 -2.61875 0.000108405 10
0.602323 -34.5073 -1.80873 0.000102333 10
0.522521 -29.9354 1.56909 8.54715e-05 10
0.522524 -29.9356 2.61942 8.45211e-05 10
0.522391 -29.928 3.67526 8.31114e-05 10
0.522243 -29.9195 4.73951 8.12606e-05 10
0.522697 -29.9455 5.82171 7.89926e-05 10
0.522469 -29.9324 6.9115 7.63365e-05 10
0.522334 -29.9247 8.01953 7.33264e-05 10
0.210384 -10.0437 -2.69178 0.000172943 4
0.244292 -11.6624 -2.69308 0.000226715 4
0.289754 -13.8328 -2.68941 6.34545e-05 4
0.335567 -16.0199 -2.53786 7.79823e-05 4
0.464866 -22.1926 -2.72551 2.86782e-05 1
0.630325 -30.0916 -2.63325 0.000105692 10
0.72118 -34.4289 -1.80474 0.000103424 10
0.722315 -34.4832 -0.602038 4.29017e-05 10
0.722408 -34.4876 0.602115 4.29013e-05 10
0.630637 -30.1065 1.57816 8.33338e-05 10
0.630343 -30.0924 2.63332 8.24054e-05 10
0.630569 -30.1032 3.69702 8.10284e-05 10
0.63019 -30.0851 4.76606 7.92206e-05 10
0.63072 -30.1104 5.85416 7.70053e-05 10
0.630235 -30.0873 6.94771 7.44112e-05 10
0.630283 -30.0896 8.06425 7.14713e-05 10
0.245524 -10.0463 -2.69269 0.000105688 4
0.284621 -11.646 -2.68949 4.65061e-05 4
0.338289 -13.842 -2.69141 5.18218e-05 4
0.392863 -16.075 -2.54679 0.000241683 4
0.542455 -22.1959 -2.72613 2.86788e-05 1
0.739448 -30.2564 -2.64788 0.000103021 10
0.839804 -34.3627 -1.80141 0.000104517 10
0.739472 -30.2574 1.5862 8.12296e-05 10
0.739807 -30.2711 2.64917 8.03229e-05 10
0.739233 -30.2476 3.71505 7.89781e-05 10
0.739915 -30.2755 4.7966 7.72126e-05 10
0.739596 -30.2624 5.88418 7.50493e-05 10
0.739378 -30.2536 6.98667 7.25162e-05 10
0.739517 -30.2592 8.11036 6.96457e-05 10
0.28053 -10.0432 -2.6921 0.000243405 4
0.325333 -11.6471 -2.69 0.000110453 4
0.386433 -13.8345 -2.69021 6.98016e-05 4
0.451635 -16.1688 -2.56189 0.000252766 4
0.576774 -20.6489 -2.53635 2.94443e-05 4
0.850143 -30.4357 -2.66381 0.000100392 10
0.957499 -34.2791 -1.79719 0.000105612 10
0.959816 -34.362 -0.600025 4.30136e-05 10
0.959889 -34.3646 0.60007 4.30132e-05 10
0.850342 -30.4428 1.59606 7.91587e-05 10
0.850322 -30.4421 2.66437 7.82734e-05 10
0.850124 -30.435 3.7384 7.69604e-05 10
0.850169 -30.4366 4.82256 7.52367e-05 10
