VERSION 0.7
FIELDS x y z intensity label
SIZE 4 4 4 4 4
TYPE F F F F F
COUNT 1 1 1 1 1
WIDTH 1186
HEIGHT 1
VIEWPOINT 1.37808 15.9501 2.72854 0.826317 -0.000362562 0.000745003 0.563205
POINTS 1186
DATA ascii
24.871 -7.98522 2.28533 0.000196587 10
24.859 -7.98135 3.20576 0.000193509 10
25.1221 -8.06582 4.179 0.00014951 10
24.8491 -7.97816 5.07301 0.000184445 10
24.8733 -7.98594 6.03116 0.00017857 10
24.8598 -7.98162 6.99608 0.000171892 10
9.37138 -2.97278 -2.63437 0.000597474 4
10.8558 -3.44366 -2.62933 0.000163031 4
12.888 -4.0883 -2.62819 0.000100909 4
12.8068 -4.06257 -2.12802 9.84187e-05 6
12.9817 -4.11804 -1.67223 0.00159233 6
13.2477 -4.20241 -1.21594 0.000104642 6
29.1682 -9.25269 -1.60371 0.000146878 10
29.1671 -9.25236 -0.534116 9.75925e-05 10
29.1602 -9.25017 0.533989 9.76216e-05 10
24.8388 -7.87935 1.36568 0.000201125 10
24.819 -7.87305 2.27801 0.000199046 10
24.8135 -7.87131 3.19634 0.000195932 10
25.2415 -8.00709 4.19419 0.000146712 10
24.8206 -7.87355 5.06156 0.000186762 10
24.8276 -7.87579 6.01339 0.000180818 10
24.8104 -7.87032 6.97439 0.000174062 10
9.3924 -2.9434 -2.63737 0.000597482 4
10.875 -3.40802 -2.63109 3.09557e-05 4
12.905 -4.0442 -2.62878 3.06134e-05 4
12.785 -4.00658 -2.12205 9.56648e-05 6
12.9754 -4.06625 -1.66958 0.00159748 6
13.233 -4.14699 -1.21326 0.000101056 6
29.1225 -9.12644 -1.59944 0.0001488 10
29.2783 -9.17525 -0.535561 7.81389e-05 10
29.2735 -9.17374 0.535473 7.81554e-05 10
24.842 -7.78502 1.36435 0.000162578 10
24.8397 -7.78429 2.27741 0.000160884 10
24.8314 -7.78169 3.19512 0.000158354 10
25.394 -7.95801 4.21489 0.000143943 10
24.8507 -7.78775 5.06214 0.000150918 10
24.8475 -7.78675 6.0116 0.000146102 10
24.8425 -7.78516 6.97572 0.000140631 10
9.39223 -2.90738 -2.63446 0.000743466 4
10.8902 -3.37109 -2.63191 5.5721e-05 4
12.9075 -3.99554 -2.62642 8.05032e-05 4
12.7503 -3.94689 -2.114 0.000115475 6
12.9549 -4.01021 -1.66513 0.00160251 6
13.2135 -4.09027 -1.21015 9.93853e-05 6
29.0775 -9.001 -1.59523 9.95618e-05 10
29.0708 -8.99891 -0.531188 0.000100151 10
29.0668 -8.99768 0.531115 0.000100181 10
25.5376 -7.90522 4.23412 0.000141203 10
9.39381 -2.87198 -2.63207 0.000648419 4
10.8995 -3.33232 -2.63133 6.39768e-05 4
12.9299 -3.95306 -2.62815 5.66934e-05 4
12.742 -3.89562 -2.11034 0.000112632 6
12.9144 -3.94833 -1.65814 0.00160743 6
13.1889 -4.03227 -1.20661 9.61146e-05 6
29.175 -8.91969 -0.53252 7.89833e-05 10
29.1875 -8.92354 0.532749 7.90001e-05 10
25.6611 -7.8454 4.25003 0.000138493 10
9.4267 -2.84609 -2.63849 0.000797802 4
10.9076 -3.29321 -2.6305 4.95311e-05 4
12.9578 -3.9122 -2.63104 3.06149e-05 4
12.7358 -3.84516 -2.10708 0.000109395 6
12.9014 -3.89515 -1.65471 0.00161222 6
13.1717 -3.97678 -1.20375 9.52645e-05 6
28.9789 -8.74925 -1.58643 0.000102131 10
28.982 -8.75019 -0.528437 0.000102734 10
28.9631 -8.74448 0.528092 0.000102765 10
25.8031 -7.79041 4.26901 0.000135812 10
9.43707 -2.81331 -2.63863 0.000611089 4
12.9726 -3.8673 -2.63128 5.44274e-05 4
12.7201 -3.79202 -2.10228 0.000106844 6
12.888 -3.84209 -1.65127 0.000206977 6
13.1419 -3.91779 -1.19977 9.29278e-05 6
26.2035 -7.81159 -1.43299 0.000146647 10
26.1934 -7.80861 -0.477092 0.000147484 10
26.1732 -7.80257 0.476723 0.000147526 10
26.0607 -7.76905 1.42518 8.7979e-05 10
26.0533 -7.76682 2.37849 8.70503e-05 10
26.0616 -7.7693 3.33913 8.56626e-05 10
25.9601 -7.73904 4.29049 0.00013316 10
26.0538 -7.76699 5.2846 8.15854e-05 10
26.053 -7.76674 6.27639 7.89465e-05 10
26.0647 -7.77024 7.28776 7.59493e-05 10
9.43499 -2.77687 -2.63532 0.000665415 4
10.9293 -3.21667 -2.63025 8.04901e-05 4
12.9661 -3.81615 -2.62726 0.000134937 4
12.7046 -3.73917 -2.09755 0.000100536 6
12.8873 -3.79295 -1.64948 0.000537226 6
13.1184 -3.86095 -1.19639 9.21602e-05 6
26.1567 -7.69834 -1.42895 0.000148428 10
26.1436 -7.69448 -0.475692 0.000149275 10
26.1381 -7.69286 0.475592 0.000149317 10
26.1051 -7.68315 4.31 0.000130538 10
26.2041 -7.71228 7.31914 7.44412e-05 10
9.44442 -2.74386 -2.63526 0.000118825 4
10.9438 -3.17948 -2.63105 3.3022e-05 4
12.9793 -3.77084 -2.62724 5.10272e-05 4
12.6978 -3.68904 -2.09428 9.95603e-05 6
12.8041 -3.71995 -1.63716 0.000431375 6
13.121 -3.81201 -1.19541 9.05138e-05 6
26.415 -7.67427 -1.44159 0.000143912 10
26.4264 -7.6776 -0.480348 0.000144735 10
26.4375 -7.6808 0.480548 0.000144776 10
26.2328 -7.62135 4.32667 0.000127946 10
26.3506 -7.65555 7.35256 7.29502e-05 10
9.45144 -2.71016 -2.63457 0.000291974 4
10.9584 -3.14227 -2.6319 0.000154793 4
12.988 -3.72425 -2.62635 6.00996e-05 4
12.6834 -3.63692 -2.08982 0.00010013 6
12.7906 -3.66765 -1.63378 0.000642036 6
13.0993 -3.75618 -1.19223 8.60897e-05 6
26.3806 -7.56451 -1.43826 0.000111414 10
26.3903 -7.56731 -0.479209 0.000112043 10
26.3765 -7.56333 0.478957 0.000112066 10
26.3831 -7.56525 4.34708 0.000125382 10
26.4138 -7.57405 7.36279 3.15463e-05 10
9.46339 -2.67787 -2.63527 0.000101852 4
10.9757 -3.1058 -2.63343 0.000134155 4
13.0029 -3.67946 -2.62676 9.07178e-05 4
12.6779 -3.58748 -2.08682 8.06906e-05 6
12.7746 -3.61483 -1.63011 0.000592143 6
13.0867 -3.70315 -1.18989 8.40794e-05 6
26.679 -7.54939 -1.45309 0.000141244 10
26.6588 -7.54368 -0.483603 0.000142054 10
26.6736 -7.54788 0.483871 0.000142094 10
26.5282 -7.50671 4.36663 0.000122849 10
26.5388 -7.50972 7.39027 7.10171e-05 10
9.4794 -2.6467 -2.63714 0.000376857 4
10.9757 -3.06448 -2.63087 5.77905e-05 4
13.0292 -3.63781 -2.62947 5.55654e-05 4
12.6622 -3.53536 -2.08221 9.39094e-05 6
12.7757 -3.56703 -1.62865 0.000540024 6
13.0749 -3.65057 -1.18765 8.29592e-05 6
26.6831 -7.45007 -1.45189 0.000106952 10
26.6807 -7.44938 -0.483525 0.000107557 10
26.6741 -7.44753 0.483405 0.00010758 10
26.6869 -7.45111 4.38845 0.000120345 10
26.5915 -7.42449 7.39769 4.87131e-05 10
9.47147 -2.60888 -2.63239 0.000183338 4
10.9905 -3.0273 -2.63186 0.000125902 4
13.0426 -3.59252 -2.62964 3.62881e-05 4
12.6659 -3.48878 -2.0808 6.63225e-05 6
12.7658 -3.5163 -1.62582 0.000334081 6
13.0499 -3.59453 -1.18424 7.80272e-05 6
26.8903 -7.40682 -1.46174 0.00013864 10
26.898 -7.40894 -0.486992 0.000139436 10
26.9067 -7.41135 0.487149 0.000139475 10
26.8217 -7.38792 4.40635 0.00011787 10
26.6268 -7.33424 7.40034 4.87125e-05 10
9.48928 -2.57818 -2.63482 0.000244453 4
10.9941 -2.98702 -2.63019 0.000107328 4
13.0438 -3.54393 -2.62738 5.8969e-05 4
12.6648 -3.44095 -2.07863 5.61185e-05 6
12.7781 -3.47174 -1.62583 0.000100344 6
13.0502 -3.54566 -1.18313 7.62978e-05 6
27.1745 -7.38316 -1.47578 0.000134529 10
27.1856 -7.38616 -0.491729 0.000135304 10
27.1696 -7.38181 0.491438 0.000135342 10
27.0347 -7.34518 1.46819 0.000103359 10
27.0427 -7.34735 2.4517 0.000102264 10
27.033 -7.34471 3.43956 0.000100626 10
26.9749 -7.32891 4.42728 0.000115426 10
27.0155 -7.33997 5.44166 9.58044e-05 10
27.0224 -7.34184 6.46478 9.26825e-05 10
26.6351 -7.23661 7.39558 4.87119e-05 10
9.50857 -2.54782 -2.63769 0.000264826 4
11.0084 -2.94969 -2.63114 7.84326e-05 4
13.0563 -3.49844 -2.62742 8.27844e-05 4
12.6516 -3.38998 -2.0745 4.16831e-05 6
12.7776 -3.42376 -1.62424 0.000696357 6
13.0348 -3.49267 -1.18063 7.21087e-05 6
27.1325 -7.27014 -1.47212 0.000100455 10
27.154 -7.2759 -0.490695 0.000101026 10
27.1414 -7.27253 0.490467 0.000101048 10
27.0127 -7.23804 1.46562 0.000163035 10
27.0294 -7.24251 2.44818 0.00016131 10
27.0303 -7.24276 3.43599 0.000158726 10
27.1378 -7.27155 4.44983 0.000113011 10
27.0319 -7.24318 5.43983 0.000151123 10
27.0045 -7.23585 6.45442 0.000146201 10
26.6513 -7.1412 7.39311 4.87114e-05 10
9.51691 -2.51448 -2.63755 0.000186738 4
11.0261 -2.91323 -2.63294 6.60492e-05 4
13.0757 -3.45474 -2.62887 6.23726e-05 4
12.7759 -3.37555 -1.62252 0.000477697 6
13.0391 -3.44508 -1.17992 7.1889e-05 6
27.429 -7.24705 -1.48682 0.000132093 10
27.425 -7.24599 -0.495131 0.000132855 10
27.4104 -7.24215 0.494868 0.000132892 10
26.9703 -7.12586 1.46195 0.000164917 10
26.9884 -7.13065 2.4422 0.000163173 10
26.9758 -7.12731 3.42587 0.000160562 10
27.2826 -7.20838 4.46942 0.000110625 10
26.9651 -7.12448 5.42134 0.000152878 10
26.9848 -7.1297 6.44372 0.000147902 10
26.6872 -7.05106 7.39619 0.000108081 10
9.51561 -2.47863 -2.63478 0.000166368 4
11.0397 -2.87562 -2.63375 4.95374e-05 4
13.0897 -3.40963 -2.62929 6.23734e-05 4
12.7644 -3.32488 -1.61957 0.000150944 6
13.0149 -3.39013 -1.17665 6.84346e-05 6
27.4487 -7.14985 -1.48653 9.62537e-05 10
27.4551 -7.15152 -0.495222 9.68034e-05 10
27.4647 -7.15402 0.495394 9.68246e-05 10
26.9433 -7.01821 1.45916 0.000166806 10
26.9284 -7.01432 2.43454 0.000165043 10
26.9221 -7.01269 3.41592 0.000162404 10
27.4396 -7.14749 4.49103 0.00010827 10
26.9417 -7.01779 5.41169 0.000154638 10
26.9215 -7.01253 6.42272 0.000149609 10
26.8476 -6.99328 7.43384 0.00010578 10
9.53818 -2.44899 -2.63865 0.000244461 4
11.0495 -2.83703 -2.63372 7.63709e-05 4
13.1126 -3.36674 -2.6315 6.124e-05 4
12.6839 -3.25666 -2.07409 4.04305e-05 6
12.7962 -3.28552 -1.62214 0.000339719 6
12.9922 -3.33584 -1.17354 0.000204727 6
27.6508 -7.09953 -1.49612 0.000129711 10
27.638 -7.09623 -0.498071 0.000130461 10
27.6493 -7.09915 0.498275 0.000130498 10
27.0159 -6.93651 1.46177 0.000120041 10
26.9977 -6.93183 2.4386 0.000118765 10
27.0023 -6.93301 3.423 0.000116858 10
27.6042 -7.08755 4.51388 0.000105944 10
27.0174 -6.93689 5.42199 0.000111253 10
26.9916 -6.93027 6.43363 0.000107626 10
26.9914 -6.93023 7.46692 0.000103508 10
9.52683 -2.41066 -2.63316 0.000247858 4
13.1023 -3.3154 -2.6271 5.89726e-05 4
12.7334 -3.22206 -2.08034 0.000143993 6
12.8245 -3.24509 -1.62428 0.000679381 6
13.052 -3.30266 -1.17789 0.000603523 6
27.9314 -7.06773 -1.50996 0.000190692 10
27.938 -7.0694 -0.503029 0.000191798 10
27.9305 -7.06751 0.502894 0.000191851 10
27.7687 -7.02656 1.50116 0.000108859 10
27.7549 -7.02308 2.50477 0.000107692 10
27.7749 -7.02814 3.51782 0.000105947 10
27.7519 -7.02231 4.534 0.000103647 10
27.7532 -7.02264 5.5647 0.000100822 10
27.7639 -7.02534 6.61182 9.75059e-05 10
27.7578 -7.02379 7.67209 9.37417e-05 10
9.53734 -2.37793 -2.63376 0.000112046 4
11.0594 -2.75742 -2.63143 0.000189899 4
13.1291 -3.27345 -2.63016 3.06207e-05 4
12.8077 -3.19331 -2.09064 0.000680319 6
12.8493 -3.2037 -1.626 0.000732917 6
13.0954 -3.26504 -1.18077 0.000637124 6
27.925 -6.96247 -1.50829 0.00013648 10
27.9218 -6.9617 -0.502298 0.000137264 10
27.9337 -6.96465 0.502511 0.000137295 10
27.925 -6.9625 1.50829 0.000106487 10
27.925 -6.96248 2.51791 0.000105343 10
27.9192 -6.96103 3.53299 0.000103634 10
27.925 -6.96249 4.55829 0.000101381 10
27.9212 -6.96155 5.59349 9.86123e-05 10
27.9073 -6.95807 6.64014 9.5364e-05 10
27.9245 -6.96236 7.7114 9.16767e-05 10
9.55218 -2.34624 -2.63558 0.000196931 4
11.0779 -2.721 -2.63356 4.12827e-05 4
13.1386 -3.22714 -2.62979 8.50584e-05 4
12.8561 -3.15775 -2.09672 0.000680538 6
12.9039 -3.16951 -1.6315 0.000879627 6
13.1664 -3.23398 -1.18615 0.000629256 6
28.0821 -6.89762 -1.51546 0.000133479 10
28.078 -6.89663 -0.504672 0.000134246 10
28.0963 -6.90112 0.505 0.000134277 10
28.0879 -6.89905 1.51578 0.000104145 10
28.0926 -6.9002 2.53084 0.000103025 10
28.0871 -6.89884 3.55116 0.000101351 10
28.0754 -6.89598 4.57888 9.91436e-05 10
28.0874 -6.89893 5.62192 9.6432e-05 10
28.0814 -6.89745 6.6758 9.32504e-05 10
28.0894 -6.89942 7.75025 8.96389e-05 10
9.54414 -2.30897 -2.63112 0.00012563 4
13.1351 -3.17772 -2.62686 7.59863e-05 4
12.9044 -3.12192 -2.10283 0.00069298 6
12.9612 -3.13565 -1.63735 0.000739177 6
13.2512 -3.20582 -1.19278 0.00012872 6
28.2534 -6.83522 -1.52341 0.000130517 10
28.2614 -6.83715 -0.507535 0.000131269 10
28.2425 -6.83258 0.507195 0.000131299 10
28.2587 -6.8365 1.5237 0.000101835 10
28.2528 -6.83507 2.5431 0.000100738 10
28.2551 -6.83563 3.56937 9.90977e-05 10
28.255 -6.8356 4.60425 9.69364e-05 10
28.2393 -6.83181 5.64751 9.42808e-05 10
28.2344 -6.83063 6.70647 9.11652e-05 10
28.2339 -6.83052 7.7835 8.76286e-05 10
9.56532 -2.27878 -2.63475 0.000196934 4
11.1023 -2.64495 -2.6349 9.28875e-05 4
13.1456 -3.13173 -2.62676 5.55726e-05 4
12.9812 -3.09255 -2.11356 0.000670557 6
13.0427 -3.1072 -1.64626 0.000732952 6
13.3114 -3.17122 -1.19719 0.00012782 6
28.4175 -6.77 1.53098 9.95549e-05 10
28.4209 -6.77081 2.55609 9.84806e-05 10
28.4265 -6.77216 3.58802 9.68749e-05 10
28.4212 -6.77088 4.62745 9.47585e-05 10
28.3978 -6.76531 5.67445 9.21585e-05 10
28.3978 -6.76532 6.73963 8.91078e-05 10
28.4055 -6.76715 7.82423 8.56454e-05 10
9.57074 -2.2448 -2.63407 0.000220703 4
11.0896 -2.60105 -2.62972 0.000119723 4
13.1562 -3.08576 -2.62671 5.33049e-05 4
13.0419 -3.05896 -2.1217 0.000754583 6
13.1052 -3.0738 -1.65279 0.000712755 6
13.378 -3.13779 -1.20219 0.000127843 6
28.5988 -6.70779 1.53947 9.73058e-05 10
28.5887 -6.70543 2.56907 9.62541e-05 10
28.5748 -6.70217 3.60376 9.46822e-05 10
28.5755 -6.70232 4.64873 9.26103e-05 10
28.5793 -6.70323 5.70602 9.0065e-05 10
28.5775 -6.70281 6.77669 8.70787e-05 10
28.5667 -6.70025 7.86214 8.36895e-05 10
9.56978 -2.20936 -2.63167 0.000213914 4
11.0978 -2.56213 -2.62952 7.2247e-05 4
13.1723 -3.04107 -2.62778 7.03177e-05 4
13.129 -3.03108 -2.13413 9.39817e-05 6
13.1714 -3.04087 -1.65979 0.00069577 6
13.4508 -3.10537 -1.20775 0.000128768 6
9.5986 -2.18075 -2.63748 3.39548e-05 4
11.1093 -2.52398 -2.63015 0.000152752 4
13.1873 -2.99607 -2.62867 0.000121356 4
13.157 -2.98921 -2.13698 0.000179803 6
13.2505 -3.01044 -1.66842 0.000668699 6
13.5194 -3.07153 -1.21294 0.000128409 6
9.5867 -2.14288 -2.63214 0.000363318 4
11.1276 -2.48732 -2.63241 0.000278671 4
13.2551 -2.96287 -2.15121 0.00142299 6
13.3138 -2.97599 -1.67507 0.000606005 6
13.5979 -3.03948 -1.21902 0.000127742 6
9.6158 -2.11417 -2.63809 0.000207127 4
11.149 -2.45128 -2.63544 5.77987e-05 4
13.1991 -2.902 -2.62692 4.19648e-05 4
13.3866 -2.94324 -2.17087 4.77483e-05 6
13.3813 -2.94206 -1.68225 0.000606459 6
13.6685 -3.00522 -1.2244 0.000139907 6
9.61139 -2.07806 -2.63487 0.000275038 4
11.1328 -2.407 -2.6296 5.77991e-05 4
13.2124 -2.85663 -2.62758 3.62942e-05 4
13.4189 -2.90127 -2.17445 0.00138946 6
13.455 -2.90908 -1.69024 0.000622654 6
13.7683 -2.97681 -1.2324 0.000125223 6
9.615 -2.04373 -2.63389 0.000159591 4
11.1659 -2.37338 -2.63544 0.00011147 4
13.2208 -2.81017 -2.62727 6.80521e-05 4
13.5415 -2.87832 -2.19267 0.000182404 6
13.5095 -2.87153 -1.69582 0.00065603 6
13.8251 -2.93862 -1.23656 0.00012399 6
9.63612 -2.01309 -2.63773 0.000183361 4
11.1609 -2.33163 -2.63232 5.1607e-05 4
13.2349 -2.76492 -2.62815 4.08315e-05 4
13.6169 -2.84473 -2.20327 0.000314679 6
13.5907 -2.83925 -1.70475 0.000661445 6
13.923 -2.90866 -1.2444 0.000122745 6
9.63337 -1.97745 -2.63507 0.000142615 4
11.1575 -2.29031 -2.62962 0.0001156 4
13.6488 -2.8017 -2.20684 0.000155512 6
13.6794 -2.80798 -1.71464 0.000679374 6
13.9852 -2.87075 -1.24906 0.000121666 6
9.65167 -1.94612 -2.6382 0.000105264 4
11.1653 -2.25132 -2.62959 6.60576e-05 4
13.2608 -2.67384 -2.62951 0.000149718 4
13.8228 -2.78718 -2.23339 9.65481e-05 6
13.774 -2.77734 -1.72528 0.000676506 6
14.0794 -2.83891 -1.25658 0.00012041 6
9.65123 -1.911 -2.63625 0.00033277 4
11.1936 -2.2164 -2.63443 3.92219e-05 4
13.2649 -2.62653 -2.6285 6.91881e-05 4
13.8257 -2.73757 -2.23229 0.000119093 6
13.8619 -2.74473 -1.73507 0.000664303 6
14.1645 -2.80465 -1.26329 0.000118882 6
9.64961 -1.8757 -2.634 7.13081e-05 4
11.1958 -2.17625 -2.63314 0.000233268 4
13.2702 -2.57947 -2.62775 6.80542e-05 4
13.8942 -2.70075 -2.24181 0.000152604 6
13.9227 -2.70629 -1.74148 0.000656495 6
14.2453 -2.76901 -1.26963 0.000117569 6
9.65277 -1.84137 -2.63309 0.000152804 4
11.1913 -2.13486 -2.63031 7.43157e-05 4
13.2873 -2.53469 -2.62936 6.12491e-05 4
14.0078 -2.67214 -2.25863 0.000136688 6
14.0273 -2.67586 -1.7534 0.000651885 6
14.3296 -2.73352 -1.27629 0.000116 6
9.65608 -1.80709 -2.63226 0.000190156 4
11.2143 -2.09871 -2.63398 0.000152761 4
13.2877 -2.48672 -2.62771 5.89809e-05 4
14.0835 -2.63566 -2.26934 0.000125254 6
14.0968 -2.63814 -1.76091 0.000643931 6
14.3771 -2.6906 -1.27967 0.000128879 6
9.66391 -1.77366 -2.63269 9.84741e-05 4
11.2038 -2.05627 -2.62979 5.78016e-05 4
13.3117 -2.44316 -2.63075 9.41429e-05 4
14.1857 -2.60356 -2.28432 0.000124279 6
14.1936 -2.60501 -1.77186 0.000636023 6
14.496 -2.66051 -1.28942 0.000113474 6
9.66466 -1.73895 -2.63122 0.000105266 4
11.2219 -2.01914 -2.63238 4.33513e-05 4
13.3068 -2.39428 -2.62812 5.44443e-05 4
14.2898 -2.57113 -2.29962 0.000120848 6
14.2602 -2.56582 -1.77905 0.000628331 6
14.5833 -2.62395 -1.29636 0.000112385 6
9.67901 -1.70667 -2.63349 8.82875e-05 4
11.2296 -1.98009 -2.63255 9.9089e-05 4
13.3061 -2.34623 -2.62635 4.53704e-05 4
14.3688 -2.53361 -2.3109 0.000115559 6
14.3652 -2.53297 -1.79103 0.000619864 6
14.6506 -2.58329 -1.30153 0.00011166 6
9.69839 -1.67521 -2.63716 7.4705e-05 4
13.3389 -2.30402 -2.63121 3.40279e-05 4
14.4627 -2.49815 -2.32459 0.000135108 6
14.4553 -2.49686 -1.80117 0.000621952 6
14.7679 -2.55087 -1.31116 0.000110703 6
11.2469 -1.90228 -2.63344 0.000117669 4
13.3266 -2.25402 -2.62721 3.62965e-05 4
16.3426 -2.76415 -2.62518 4.67314e-05 4
14.5538 -2.46159 -1.81236 0.000616677 6
14.8587 -2.51316 -1.31843 0.000109667 6
9.68993 -1.60416 -2.63175 8.8288e-05 4
11.2352 -1.85998 -2.62916 0.000132119 4
16.3442 -2.70577 -2.6239 7.03659e-05 4
14.6442 -2.42434 -1.82256 0.000611065 6
14.9622 -2.47698 -1.32684 0.000108632 6
9.7079 -1.57234 -2.63512 0.000285239 4
11.2485 -1.82186 -2.63076 0.000125927 4
14.7251 -2.38494 -1.83157 0.000601652 6
15.0485 -2.43732 -1.33373 0.000107346 6
9.69923 -1.53621 -2.6313 0.000156202 4
11.2473 -1.7814 -2.62901 3.303e-05 4
13.3615 -2.11625 -2.62959 5.55794e-05 4
14.8437 -2.35101 -1.84529 0.000593201 6
15.163 -2.40158 -1.34313 0.000105981 6
11.2755 -1.74554 -2.63416 0.000117669 4
13.3689 -2.06961 -2.6296 0.000136113 4
14.9445 -2.31354 -1.85682 0.000585069 6
15.2592 -2.36225 -1.35091 0.000104057 6
9.72642 -1.47098 -2.63582 6.11227e-05 4
11.2867 -1.70695 -2.63537 4.74806e-05 4
13.3748 -2.02275 -2.62936 5.89823e-05 4
16.3909 -2.47889 -2.62558 3.00803e-05 4
15.0224 -2.27192 -1.86549 0.000579091 6
15.3388 -2.31977 -1.35723 0.000491517 6
9.71766 -1.43498 -2.63207 0.000108663 4
11.2678 -1.66389 -2.62959 0.000282819 4
13.3902 -1.9773 -2.63103 3.74311e-05 4
16.3807 -2.41889 -2.62258 3.65261e-05 4
15.1383 -2.23543 -1.8789 0.000570943 6
9.71851 -1.40046 -2.63097 0.000129037 4
11.271 -1.62418 -2.62899 4.9545e-05 4
15.259 -2.19885 -1.89292 0.000562558 6
9.74026 -1.36891 -2.63554 0.000159598 4
11.3038 -1.58865 -2.63534 6.606e-05 4
13.3783 -1.8802 -2.62603 6.80565e-05 4
15.7121 -2.20819 -2.51301 8.51999e-05 6
15.3439 -2.15644 -1.90251 0.000551026 6
9.74437 -1.33481 -2.63538 0.000281843 4
13.3847 -1.83348 -2.62603 0.00010889 4
15.4417 -2.11525 -1.91371 8.14777e-05 6
9.74906 -1.3008 -2.6354 0.000342966 4
11.3109 -1.5092 -2.63447 0.000185793 4
13.4048 -1.78858 -2.62871 4.19681e-05 4
15.4997 -2.0681 -1.91999 0.000422591 6
9.75691 -1.2672 -2.63631 0.000146015 4
11.2923 -1.46662 -2.62893 8.46391e-05 4
13.4151 -1.74232 -2.62954 3.85652e-05 4
15.631 -2.03011 -2.4965 0.000106279 6
9.74428 -1.23099 -2.63172 0.000132432 4
11.3243 -1.43059 -2.63519 5.36735e-05 4
13.404 -1.69332 -2.62618 8.0533e-05 4
15.7089 -1.9845 -2.50782 0.00015269 6
9.77187 -1.19983 -2.63803 9.50791e-05 4
11.3205 -1.38999 -2.63318 4.12872e-05 4
13.4134 -1.64696 -2.62688 4.31021e-05 4
15.8402 -1.94493 -2.52768 0.000120952 6
15.8306 -1.94375 -1.95835 0.000111281 6
9.7539 -1.16308 -2.63207 0.000261467 4
11.3306 -1.35109 -2.6344 8.25743e-05 4
13.4302 -1.60145 -2.62906 0.00011456 4
15.9398 -1.90071 -2.54251 0.000130201 6
15.9448 -1.90131 -1.97165 0.00012686 6
9.76919 -1.13034 -2.63511 0.000152805 4
11.3292 -1.31083 -2.63299 3.71583e-05 4
13.4455 -1.5557 -2.63098 5.78472e-05 4
16.2584 -1.88117 -2.0096 3.65627e-05 6
9.76161 -1.09494 -2.63202 0.000122244 4
11.3257 -1.27039 -2.63115 0.000125925 4
13.4366 -1.50716 -2.62819 0.000100949 4
16.1797 -1.81485 -1.99908 0.000179872 6
9.76367 -1.06067 -2.63156 0.000142617 4
11.338 -1.2317 -2.63297 0.000140375 4
13.4312 -1.4591 -2.62612 4.65043e-05 4
16.4658 -1.78876 -2.03364 0.000483068 6
9.78681 -1.02864 -2.63681 9.84737e-05 4
11.3409 -1.19198 -2.63267 0.000156889 4
13.4411 -1.41272 -2.62708 6.69205e-05 4
9.7906 -0.994493 -2.63688 0.000115451 4
11.3515 -1.15304 -2.63418 7.43157e-05 4
13.4607 -1.36729 -2.62997 0.000193955 4
16.4793 -1.67391 -2.6235 3.86732e-05 4
9.79692 -0.960598 -2.63767 0.000179968 4
11.3389 -1.11179 -2.63034 0.000212624 4
13.4609 -1.31985 -2.62908 0.000203028 4
9.80039 -0.92641 -2.63771 5.77253e-05 4
11.3641 -1.07423 -2.63531 0.000109408 4
13.4649 -1.27281 -2.62898 0.000201893 4
9.80381 -0.892217 -2.63778 0.000108659 4
13.4608 -1.22503 -2.62733 0.000229113 4
16.4914 -1.50084 -2.62278 5.42487e-05 4
9.80589 -0.857907 -2.63752 0.000108659 4
11.3452 -0.992581 -2.62926 7.84429e-05 4
13.4605 -1.17764 -2.62644 0.000225709 4
9.79713 -0.82269 -2.63437 3.05601e-05 4
11.353 -0.953336 -2.63026 0.000220877 4
9.7881 -0.787534 -2.63119 0.000359928 4
11.3704 -0.914843 -2.63355 0.000167205 4
13.4825 -1.08478 -2.6292 7.82598e-05 4
9.81735 -0.755405 -2.63833 0.000105261 4
11.3816 -0.875771 -2.63543 0.000191975 4
13.4866 -1.03774 -2.62928 6.35147e-05 4
16.5089 -1.27029 -2.62248 3.8671e-05 4
9.79273 -0.719135 -2.63102 8.82834e-05 4
11.3569 -0.833999 -2.629 0.000225002 4
13.4741 -0.989476 -2.62615 5.21724e-05 4
16.5184 -1.21304 -2.62331 3.75965e-05 4
9.81719 -0.686485 -2.63693 0.000220707 4
11.379 -0.795695 -2.63345 0.000167202 4
9.80057 -0.650954 -2.63184 0.000146005 4
11.3669 -0.754992 -2.63005 0.000522245 4
13.4922 -0.896149 -2.62839 4.08299e-05 4
9.806 -0.616941 -2.6327 0.000118841 4
11.3855 -0.716316 -2.63375 5.57333e-05 4
13.5017 -0.849454 -2.62965 2.9488e-05 4
28.5531 -1.79641 -2.50301 6.47649e-05 4
9.81869 -0.583338 -2.63555 6.79086e-05 4
11.3859 -0.676445 -2.63327 0.000148621 4
13.5135 -0.802848 -2.63138 6.01096e-05 4
28.7663 -1.70903 -2.52116 5.37046e-05 4
9.81402 -0.548691 -2.63377 0.000268237 4
11.3832 -0.636421 -2.63212 0.000125914 4
13.5083 -0.755236 -2.62986 5.21701e-05 4
28.9622 -1.61924 -2.53782 5.06495e-05 4
11.3716 -0.595963 -2.62895 0.000113528 4
13.5018 -0.707602 -2.62809 5.89743e-05 4
16.537 -0.86667 -2.6228 3.70568e-05 4
29.1422 -1.52728 -2.55311 5.46331e-05 4
9.81186 -0.479881 -2.63222 0.000349722 4
11.3944 -0.55728 -2.63374 8.66934e-05 4
13.5137 -0.660933 -2.62994 0.000133825 4
16.5396 -0.808923 -2.62274 3.49081e-05 4
29.365 -1.43619 -2.57217 6.83615e-05 4
9.8276 -0.44627 -2.63601 0.000329348 4
11.3863 -0.517048 -2.63143 7.63721e-05 4
13.5181 -0.613854 -2.63036 4.87662e-05 4
29.5513 -1.34192 -2.58807 5.48773e-05 4
9.82051 -0.411602 -2.63371 9.50687e-05 4
11.4054 -0.478028 -2.63545 7.22432e-05 4
13.5218 -0.566734 -2.63069 0.000110006 4
9.83797 -0.377937 -2.63802 0.000176555 4
9.81668 -0.342806 -2.63197 4.41383e-05 4
11.4027 -0.39819 -2.63412 0.000177509 4
13.51 -0.471782 -2.62769 0.000137221 4
9.83974 -0.309227 -2.63785 3.0557e-05 4
11.4076 -0.358499 -2.63495 0.000109394 4
13.5243 -0.425018 -2.63015 8.05171e-05 4
9.81713 -0.274219 -2.63152 0.000213897 4
11.3949 -0.318291 -2.63175 5.77923e-05 4
13.5076 -0.377304 -2.62663 3.62889e-05 4
28.64 -0.799993 -2.50665 8.7764e-05 4
9.82347 -0.240082 -2.63298 0.000118831 4
11.3949 -0.278488 -2.63151 9.90714e-05 4
13.5323 -0.330725 -2.6312 3.85565e-05 4
28.8582 -0.705285 -2.52552 8.01718e-05 4
9.82953 -0.205901 -2.63439 0.000302167 4
11.4028 -0.238858 -2.63313 6.19189e-05 4
13.5292 -0.283399 -2.6304 3.969e-05 4
16.5515 -0.346708 -2.62208 3.06079e-05 4
29.1047 -0.609662 -2.54689 5.76754e-05 4
9.83791 -0.171723 -2.63646 0.000135804 4
11.4133 -0.199221 -2.63536 9.28774e-05 4
13.5204 -0.236001 -2.6285 3.62875e-05 4
16.5737 -0.289297 -2.62541 5.47711e-05 4
29.3183 -0.511757 -2.56541 6.33324e-05 4
9.83474 -0.137329 -2.63547 9.50619e-05 4
11.4149 -0.159394 -2.6356 0.000169241 4
13.5098 -0.188646 -2.62629 7.71098e-05 4
29.5734 -0.412952 -2.58759 5.37125e-05 4
9.81876 -0.102826 -2.63107 5.09255e-05 4
11.4072 -0.119462 -2.63371 0.000140345 4
13.5224 -0.141613 -2.62864 0.000198441 4
16.5519 -0.173339 -2.62171 4.34931e-05 4
29.7838 -0.311909 -2.60589 6.34171e-05 4
9.82677 -0.0686055 -2.63314 0.00012901 4
11.4098 -0.0796575 -2.63423 5.57244e-05 4
13.5241 -0.094418 -2.62887 9.97862e-05 4
16.566 -0.115655 -2.62386 0.000102556 4
30.0379 -0.209709 -2.62804 6.17056e-05 4
9.82151 -0.034284 -2.63168 0.000108639 4
11.4161 -0.0398501 -2.63562 0.000210512 4
13.5356 -0.0472487 -2.63107 8.05081e-05 4
16.581 -0.0578792 -2.62618 9.55738e-05 4
30.2944 -0.105749 -2.65043 5.95587e-05 4
9.82302 0 -2.63207 0.00024783 4
11.4072 0 -2.63356 0.000171297 4
16.558 0 -2.62253 0.000102015 4
30.5435 0 -2.67221 5.38967e-05 4
9.82622 0.0342981 -2.63294 0.000183324 4
11.4036 0.0398037 -2.63274 7.42964e-05 4
13.5193 0.0471887 -2.62791 7.82378e-05 4
9.83091 0.068632 -2.63425 0.000247824 4
11.3979 0.0795712 -2.63147 0.000165101 4
16.5698 0.115678 -2.62447 3.65091e-05 4
9.83406 0.102984 -2.63517 0.000251216 4
11.4043 0.119428 -2.63303 0.000125888 4
13.5326 0.141716 -2.63062 0.000108849 4
9.84292 0.137441 -2.63766 0.000105238 4
11.4103 0.159327 -2.63454 7.6357e-05 4
13.5313 0.188943 -2.63048 0.000128122 4
9.83641 0.171694 -2.63606 0.000247815 4
11.3877 0.198773 -2.62947 8.87379e-05 4
16.5643 0.289129 -2.62392 5.69075e-05 4
9.83916 0.2061 -2.63697 8.14725e-05 4
11.4131 0.23907 -2.6355 0.000125882 4
9.82754 0.240179 -2.63407 0.000268177 4
11.4049 0.27873 -2.63382 0.000270333 4
13.5321 0.330717 -2.63116 5.66881e-05 4
16.5558 0.404614 -2.62296 8.21362e-05 4
9.84138 0.274894 -2.63802 0.000105233 4
11.3892 0.31813 -2.63043 3.71444e-05 4
13.5211 0.37768 -2.62927 9.29668e-05 4
9.82683 0.308818 -2.63439 0.000319088 4
11.3875 0.357864 -2.63031 6.397e-05 4
13.5236 0.424995 -2.63003 8.61627e-05 4
16.5685 0.520684 -2.6255 3.86504e-05 4
9.82538 0.343108 -2.63431 0.000108624 4
11.4094 0.398424 -2.63568 0.000130001 4
13.5096 0.471763 -2.6276 8.95621e-05 4
16.5599 0.578281 -2.62443 3.65023e-05 4
9.81338 0.37699 -2.63143 0.000213851 4
11.3966 0.437809 -2.63304 5.36505e-05 4
13.5016 0.518678 -2.62639 9.52286e-05 4
16.5421 0.63548 -2.62194 5.95831e-05 4
9.82407 0.411749 -2.63466 3.39441e-05 4
11.3996 0.477782 -2.63411 3.92055e-05 4
13.5147 0.56643 -2.62929 3.28759e-05 4
9.81546 0.445716 -2.63275 9.84366e-05 4
11.3902 0.517223 -2.63234 7.22194e-05 4
13.5046 0.613239 -2.62774 8.72893e-05 4
16.5565 0.751825 -2.62499 4.93816e-05 4
9.81124 0.479849 -2.63206 0.000254574 4
11.3905 0.557087 -2.63284 0.00013412 4
16.5343 0.808661 -2.62191 3.16678e-05 4
9.81486 0.514374 -2.63349 0.000291907 4
11.3745 0.596114 -2.62963 5.57102e-05 4
13.51 0.708027 -2.62968 9.40871e-05 4
9.81198 0.548575 -2.63322 0.000224018 4
11.3799 0.636236 -2.63136 8.66587e-05 4
13.5178 0.755759 -2.63169 6.34791e-05 4
16.5368 0.92455 -2.62326 3.05926e-05 4
9.82078 0.583462 -2.63611 7.46716e-05 4
11.3797 0.676079 -2.63184 7.84041e-05 4
13.4886 0.801372 -2.62655 0.000105418 4
9.8234 0.618034 -2.63738 0.000373352 4
11.3712 0.715411 -2.63043 9.90349e-05 4
13.4965 0.849127 -2.62865 5.66752e-05 4
9.80926 0.651529 -2.63418 0.000156127 4
11.3644 0.754824 -2.62947 0.000150613 4
13.4995 0.896636 -2.62983 6.68753e-05 4
9.80693 0.685765 -2.63417 0.000190064 4
11.3741 0.795354 -2.63233 2.88841e-05 4
13.4838 0.942877 -2.62738 0.000105411 4
9.80295 0.719883 -2.63377 0.000122182 4
11.3682 0.834828 -2.63163 0.000175364 4
16.5175 1.21297 -2.62316 4.66872e-05 4
9.79806 0.753919 -2.63314 0.000461569 4
11.3582 0.873967 -2.63 8.25228e-05 4
13.4918 1.03814 -2.6303 8.50049e-05 4
9.80289 0.788722 -2.63517 7.46644e-05 4
11.3542 0.913538 -2.6298 5.36387e-05 4
21.2444 1.70928 -2.61692 3.30001e-05 4
9.79671 0.822653 -2.63426 0.00012557 4
11.3628 0.954163 -2.63255 0.000134094 4
13.4749 1.13152 -2.62848 7.14006e-05 4
16.4977 1.38535 -2.62217 3.2195e-05 4
21.23 1.78273 -2.61589 4.03984e-05 4
9.79773 0.85719 -2.63532 0.000244348 4
11.3696 0.99471 -2.6349 0.000115525 4
13.4757 1.17897 -2.62941 8.49985e-05 4
16.5023 1.44376 -2.62369 5.41933e-05 4
21.2367 1.85797 -2.6175 3.47971e-05 4
9.8009 0.89195 -2.637 0.000427601 4
11.3658 1.03436 -2.63484 4.53838e-05 4
13.4567 1.22465 -2.62653 4.19315e-05 4
9.78958 0.925386 -2.6348 0.000352934 4
11.341 1.07204 -2.62994 0.00011552 4
9.777 0.958642 -2.6323 0.000213793 4
11.3625 1.1141 -2.63582 0.000247538 4
13.4725 1.32099 -2.63135 8.0459e-05 4
9.78212 0.99363 -2.6346 0.000162887 4
11.3475 1.15263 -2.63325 0.000173273 4
13.4495 1.36614 -2.62776 3.73955e-05 4
9.77942 1.02786 -2.63482 6.44748e-05 4
11.3365 1.19152 -2.63166 0.000177394 4
16.4922 1.7334 -2.6265 5.20383e-05 4
9.78589 1.06309 -2.63755 0.000424168 4
11.3327 1.23113 -2.63176 3.71282e-05 4
16.4591 1.78802 -2.6222 6.92031e-05 4
9.76038 1.0948 -2.63169 0.000234136 4
11.3218 1.26994 -2.63024 6.60041e-05 4
13.4292 1.50633 -2.62675 7.47848e-05 4
9.76329 1.12965 -2.63352 0.000271457 4
11.3332 1.3113 -2.63394 7.83781e-05 4
16.4626 1.90479 -2.62481 5.20327e-05 4
9.75718 1.16347 -2.63295 5.42904e-05 4
11.3185 1.34965 -2.63159 0.000150565 4
13.4318 1.60164 -2.62937 9.97074e-05 4
16.4431 1.96072 -2.62278 3.11112e-05 4
9.77389 1.20008 -2.63857 0.000183226 4
11.3149 1.3893 -2.63187 7.83744e-05 4
13.435 1.6496 -2.6311 5.43843e-05 4
9.74912 1.2316 -2.63303 6.44672e-05 4
11.3154 1.42946 -2.63313 0.000148495 4
13.4275 1.69629 -2.63079 6.68454e-05 4
16.4472 2.07776 -2.62569 5.04179e-05 4
9.76549 1.26831 -2.63863 9.16095e-05 4
11.297 1.46722 -2.63001 5.15597e-05 4
13.418 1.74269 -2.6301 4.87164e-05 4
16.4462 2.13599 -2.62671 4.66616e-05 4
9.75876 1.30209 -2.63803 0.000251073 4
11.3129 1.50946 -2.63493 7.4244e-05 4
13.4105 1.78934 -2.62983 6.23098e-05 4
16.4133 2.19 -2.62265 3.8615e-05 4
9.73276 1.33322 -2.63224 0.000105177 4
11.3058 1.54871 -2.63453 9.07405e-05 4
13.4111 1.83709 -2.63119 3.85176e-05 4
16.4109 2.24801 -2.6235 3.5932e-05 4
9.72991 1.36745 -2.63274 0.000264633 4
11.2921 1.587 -2.63261 3.29957e-05 4
16.408 2.306 -2.62432 3.00316e-05 4
9.73628 1.40302 -2.63578 7.12458e-05 4
11.2962 1.62781 -2.63487 0.000121669 4
13.3944 1.93016 -2.6305 8.26945e-05 4
9.72411 1.43593 -2.63382 0.000162844 4
11.2756 1.66504 -2.63142 6.39259e-05 4
13.3799 1.97577 -2.62899 6.11693e-05 4
16.3997 2.4217 -2.62563 4.66525e-05 4
9.71481 1.46922 -2.63268 0.000315503 4
11.2675 1.70405 -2.63089 8.04208e-05 4
13.3756 2.02287 -2.62952 0.000228811 4
9.70979 1.50315 -2.63272 7.8026e-05 4
13.3775 2.07094 -2.63129 0.000108739 4
9.72233 1.53986 -2.63756 0.000342628 4
11.268 1.78467 -2.63384 0.000280427 4
13.3486 2.11421 -2.62705 4.64389e-05 4
9.71048 1.57275 -2.63582 0.00065471 4
11.2651 1.82454 -2.63464 0.0001732 4
13.3574 2.16343 -2.63025 6.56919e-05 4
9.69745 1.6054 -2.63379 0.000634342 4
11.2489 1.86224 -2.63236 6.18556e-05 4
13.3552 2.21093 -2.63132 0.00010533 4
9.7022 1.641 -2.63662 0.000675033 4
11.2362 1.90046 -2.63092 0.000111337 4
13.3355 2.25553 -2.62898 6.22899e-05 4
16.3346 2.76279 -2.6239 2.94855e-05 4
9.6983 1.67519 -2.63713 0.00063092 4
11.2508 1.94335 -2.63592 9.89634e-05 4
13.3326 2.30294 -2.62998 5.66252e-05 4
16.3377 2.82202 -2.62596 3.21646e-05 4
9.6896 1.70854 -2.63637 0.000678393 4
11.2195 1.9783 -2.63019 0.000158749 4
13.3332 2.351 -2.63169 3.51064e-05 4
9.69051 1.7436 -2.63826 0.000678377 4
11.2166 2.01818 -2.63113 6.80335e-05 4
13.3218 2.39696 -2.63107 0.000101918 4
9.66188 1.77328 -2.63213 0.000257777 4
11.2186 2.05899 -2.63328 0.000206156 4
13.3078 2.44244 -2.62999 4.30307e-05 4
9.65847 1.80753 -2.63291 0.000301863 4
11.2139 2.09863 -2.63389 9.68906e-05 4
13.2948 2.48805 -2.62912 3.96321e-05 4
9.68774 1.84803 -2.64263 0.000720247 4
11.1935 2.13527 -2.63082 3.29831e-05 4
13.2883 2.53488 -2.62957 4.98214e-05 4
9.69221 1.88397 -2.64563 0.000866541 4
11.1898 2.17508 -2.63173 0.000362803 4
13.2741 2.58022 -2.62852 7.6994e-05 4
9.70601 1.92184 -2.65121 0.000602357 4
11.1863 2.21494 -2.63269 0.000387528 4
13.2846 2.63043 -2.63241 4.18923e-05 4
9.72639 1.96118 -2.65863 0.000703704 4
11.1738 2.25303 -2.63159 0.000389577 4
13.2666 2.67501 -2.63066 6.45343e-05 4
9.75079 2.00155 -2.66719 0.000601611 4
11.1625 2.29132 -2.63079 0.000441096 4
13.2582 2.72151 -2.63086 7.35891e-05 4
16.2428 3.33416 -2.62624 2.89363e-05 4
9.75584 2.0381 -2.67051 0.00068009 4
11.1679 2.33309 -2.63397 0.000373065 4
13.2456 2.76716 -2.63028 8.83035e-05 4
9.77682 2.07813 -2.67822 0.000801016 4
11.1658 2.37336 -2.63542 9.68701e-05 4
13.231 2.81234 -2.6293 0.000105281 4
9.78966 2.1166 -2.68374 0.000683749 4
11.1647 2.4139 -2.63714 0.000493438 4
13.2349 2.86149 -2.63205 5.20724e-05 4
9.79725 2.15406 -2.68787 0.000583745 4
11.1786 2.45778 -2.64243 0.000497587 4
16.1939 3.56046 -2.62613 5.51825e-05 4
9.81161 2.19315 -2.69389 0.000527383 4
11.19 2.50126 -2.64717 0.000515985 4
13.2103 2.95284 -2.63118 0.000243363 4
9.81842 2.23069 -2.69788 0.00068354 4
11.2128 2.54749 -2.65465 0.000491388 4
13.2039 2.99985 -2.63198 0.000201474 4
9.8267 2.26867 -2.70232 0.000627184 4
11.2421 2.59544 -2.66371 0.000445836 4
13.1964 3.04664 -2.6326 0.000198071 4
16.1484 3.72816 -2.62494 3.4283e-05 4
9.85676 2.31188 -2.71279 0.00065003 4
11.2552 2.63988 -2.66898 0.000421921 4
13.1865 3.09288 -2.63277 0.000232016 4
9.86047 2.34909 -2.71605 0.000519328 1
11.2815 2.68763 -2.67743 0.000496103 4
13.1592 3.13496 -2.62947 0.000259169 4
9.84332 2.38135 -2.7136 0.000519314 1
11.2829 2.72961 -2.68 0.000475581 4
13.1426 3.17954 -2.62836 0.000294543 4
16.0987 3.89469 -2.62334 3.48132e-05 4
9.83023 2.41453 -2.71229 0.000519299 1
11.3123 2.77856 -2.68928 0.000451838 4
13.1701 3.23488 -2.6361 0.000292256 4
16.097 3.95379 -2.62529 2.89202e-05 4
9.8102 2.44596 -2.70911 0.000519284 1
11.3291 2.82467 -2.69561 0.000428367 4
13.2016 3.29153 -2.64469 0.00031343 4
9.81509 2.4836 -2.71283 0.000519269 1
11.3558 2.87345 -2.70431 0.000388144 4
13.233 3.34846 -2.6533 0.000175583 4
16.0724 4.06694 -2.62585 9.85325e-05 4
9.81043 2.51889 -2.71396 0.000519253 1
11.3641 2.91781 -2.70872 0.000524311 4
13.2757 3.40861 -2.66423 0.000352595 4
16.0493 4.12075 -2.62441 0.000126907 4
9.79223 2.55068 -2.71137 0.000519238 1
11.3699 2.96165 -2.71255 0.000314831 1
13.2893 3.46159 -2.66937 0.000241529 4
16.0484 4.18029 -2.62663 0.00010227 4
9.77745 2.58331 -2.70976 0.000519223 1
11.3608 3.00165 -2.71285 0.00031482 1
13.318 3.51875 -2.67758 0.000225147 4
16.0408 4.23816 -2.62779 0.000102264 4
9.76603 2.6168 -2.70911 0.000519207 1
11.3339 3.03691 -2.70894 0.000314809 1
13.3349 3.57309 -2.68349 0.000190561 4
9.77124 2.65479 -2.71311 0.000519191 1
11.3294 3.07813 -2.71042 0.000314798 1
13.361 3.6301 -2.69126 0.000266265 4
16.0307 4.35544 -2.63106 0.000164981 4
9.07124 2.49863 -2.52115 0.000491586 4
11.3223 3.11869 -2.71132 0.000314786 1
13.4125 3.6944 -2.70421 0.000292338 4
16.0904 4.43203 -2.64338 0.000165531 4
20.5761 5.6676 -2.62051 3.14974e-05 4
9.07367 2.53341 -2.52427 0.000510478 4
11.319 3.16031 -2.71313 0.000314775 1
13.423 3.74775 -2.70895 0.000172321 1
16.1403 4.50645 -2.65414 0.000117337 4
9.07138 2.56694 -2.52611 0.000453744 4
11.2973 3.19681 -2.7106 0.000314763 1
13.4002 3.79188 -2.70702 0.000172314 1
16.1677 4.57499 -2.66126 0.000151179 4
20.5208 5.80679 -2.61857 4.10598e-05 4
9.06901 2.6005 -2.52796 0.000518008 4
11.2965 3.23922 -2.71311 0.000314751 1
13.3772 3.83584 -2.70505 0.000172306 1
16.2241 4.65218 -2.6732 0.000134428 4
20.4912 5.87575 -2.6174 4.42454e-05 4
9.09305 2.64178 -2.53722 0.00182885 4
10.4895 3.04748 -2.52183 0.00030664 4
13.3814 3.88766 -2.70864 0.000172298 1
16.2522 4.7217 -2.68053 0.000155549 4
20.4897 5.95281 -2.61985 3.6669e-05 4
9.19115 2.7051 -2.56721 0.00184944 4
10.4688 3.08115 -2.51943 0.000246687 4
13.373 3.93588 -2.70969 0.00017229 1
16.3001 4.79737 -2.69117 0.000148603 4
9.31874 2.77803 -2.60554 0.00173895 4
10.4585 3.1178 -2.51953 0.000133713 4
13.3491 3.97953 -2.70765 0.000172282 1
16.36 4.87713 -2.70386 0.00014703 4
20.5018 6.11184 -2.62678 6.75012e-05 4
9.41037 2.84116 -2.63392 0.000359205 4
10.4647 3.15947 -2.52367 0.000318133 4
13.3427 4.0284 -2.70919 0.000172274 1
16.3438 4.93449 -2.70401 8.11425e-05 1
20.5851 6.215 -2.64022 6.46138e-05 4
9.40877 2.87655 -2.63627 0.000338862 4
10.5561 3.22732 -2.54842 0.00130351 4
12.3942 3.7893 -2.51928 0.000125907 4
16.3167 4.98851 -2.70239 8.11377e-05 1
9.40433 2.91112 -2.63785 0.000535384 4
10.7012 3.31258 -2.58623 0.0013336 4
12.3868 3.83435 -2.52047 0.000157695 4
16.3138 5.04995 -2.70481 8.11327e-05 1
20.7342 6.41831 -2.66503 6.36742e-05 4
9.39933 2.94557 -2.63932 0.000477764 4
10.8577 3.40258 -2.62689 0.00120465 4
12.3783 3.87912 -2.52148 0.000150057 4
16.2837 5.10301 -2.70277 8.11278e-05 1
20.7945 6.5166 -2.67568 6.4568e-05 4
9.38615 2.97746 -2.63852 0.000559067 4
12.3704 3.92411 -2.52264 0.000527348 4
16.2523 5.15552 -2.70051 8.11228e-05 1
20.88 6.62353 -2.68964 5.50384e-05 4
9.35441 3.00337 -2.63253 0.000708128 4
10.8742 3.49133 -2.63674 0.000319137 4
12.5942 4.04354 -2.57114 0.00075114 4
15.1163 4.85333 -2.51457 6.96506e-05 4
20.8907 6.70726 -2.69402 2.99837e-05 1
9.35441 3.03943 -2.6355 0.000135522 4
10.8628 3.52953 -2.63693 0.0002903 4
12.8124 4.16299 -2.61864 0.000770224 4
15.0936 4.90422 -2.51362 5.08721e-05 4
20.8918 6.78817 -2.69721 2.99811e-05 1
9.34595 3.07279 -2.63612 8.13106e-05 4
10.8354 3.56248 -2.63328 0.000240878 4
12.8537 4.22609 -2.63009 0.000127749 4
15.0872 4.96043 -2.51543 7.14587e-05 4
20.8409 6.85213 -2.6937 2.99785e-05 1
9.32746 3.10283 -2.63394 0.000762261 4
10.832 3.60333 -2.63551 0.000107052 4
12.8483 4.27406 -2.63201 9.4959e-05 4
15.2591 5.07603 -2.54702 0.000353355 4
20.8433 6.93363 -2.69712 2.9976e-05 1
9.3202 3.13659 -2.63497 7.45297e-05 4
10.8018 3.63519 -2.63121 0.000158513 4
12.8382 4.32053 -2.63302 8.25198e-05 4
15.5603 5.23661 -2.60032 0.000394919 4
9.32217 3.17353 -2.63864 0.000447163 4
10.8025 3.67748 -2.63451 0.000205853 4
12.8009 4.35778 -2.62847 0.000134512 4
15.6997 5.34461 -2.62672 5.88255e-05 4
9.30485 3.20391 -2.63689 0.000447147 4
10.7999 3.71869 -2.63702 0.000302592 4
12.7902 4.404 -2.62941 0.000132245 4
15.6894 5.40229 -2.62814 0.000107483 4
19.344 6.66067 -2.512 0.000256544 4
9.29242 3.23596 -2.63655 0.000375997 4
10.7869 3.75639 -2.63703 0.000296404 4
12.7693 4.44673 -2.62829 7.79864e-05 4
19.8625 6.91686 -2.58246 0.00016728 4
9.29054 3.27171 -2.63924 0.000304852 4
10.7511 3.78607 -2.6315 0.000300508 4
12.7668 4.49591 -2.631 0.000148054 4
15.6375 5.50682 -2.62582 8.1805e-05 4
9.28007 3.30448 -2.63953 0.000382745 4
10.7415 3.82489 -2.63241 0.000384881 4
12.7522 4.54086 -2.63124 0.000158217 4
15.6331 5.56669 -2.62833 7.69879e-05 4
9.25729 3.33283 -2.63634 0.000359022 4
10.739 3.86629 -2.63509 0.000228449 4
12.7381 4.58599 -2.63161 0.00017516 4
20.0876 7.23198 -2.62142 4.35772e-05 4
9.24558 3.36512 -2.63634 0.000548674 4
10.7109 3.89845 -2.6315 0.000325166 4
12.7242 4.63124 -2.63207 0.000140121 4
15.5988 5.67748 -2.62916 8.87382e-05 4
9.22361 3.39363 -2.63343 0.000392864 4
10.6994 3.93661 -2.63204 0.000259299 4
12.6923 4.66987 -2.62883 3.72882e-05 4
15.5687 5.72817 -2.62745 8.76632e-05 4
20.0311 7.37002 -2.62071 4.31713e-05 4
9.10597 3.38648 -2.6032 0.00115939 4
10.691 3.97595 -2.63337 9.46605e-05 4
12.6777 4.71481 -2.6292 7.90921e-05 4
15.5341 5.77707 -2.62499 9.88817e-05 4
8.90818 3.34836 -2.54999 0.00119564 4
10.4703 3.93551 -2.58237 0.00103486 4
12.6799 4.76607 -2.63309 0.000214667 4
15.5217 5.83423 -2.62633 4.22223e-05 4
19.9668 7.50501 -2.61908 3.58037e-05 4
8.81797 3.34963 -2.5275 0.000366467 4
10.2249 3.88407 -2.52518 0.000283322 4
12.2917 4.66916 -2.55583 0.000587345 4
15.3738 5.83994 -2.60473 0.000338121 4
8.78784 3.37333 -2.52222 0.000472234 4
10.2148 3.92109 -2.52605 0.000287916 4
12.0957 4.64309 -2.51843 0.000185496 4
19.4976 7.48443 -2.56433 0.00016046 4
8.77924 3.40524 -2.52315 0.000411772 4
10.1804 3.94873 -2.52095 0.000315542 4
12.0898 4.68931 -2.5206 0.00017024 4
14.8201 5.74833 -2.51766 4.53742e-05 4
19.0394 7.38489 -2.50744 2.93496e-05 4
8.76271 3.43407 -2.52183 0.00042309 4
10.1686 3.98504 -2.52145 0.000333953 4
12.0581 4.72551 -2.51742 0.000170231 4
14.7961 5.79851 -2.517 4.23463e-05 4
19.0322 7.45863 -2.5099 3.34417e-05 4
8.75139 3.46492 -2.52203 0.000358857 4
10.155 4.02065 -2.52154 0.000322423 4
12.0406 4.76722 -2.51723 0.000174033 4
14.7593 5.84363 -2.5142 3.02453e-05 4
18.9953 7.52077 -2.50848 3.4121e-05 4
8.75655 3.50237 -2.52703 0.000577927 4
10.1585 4.06311 -2.52591 0.00035465 4
12.047 4.81846 -2.52206 0.000142267 4
14.7374 5.89455 -2.51396 5.02037e-05 4
18.9845 7.59325 -2.51054 3.18432e-05 4
8.7358 3.52949 -2.52458 0.000355053 4
10.1286 4.09224 -2.52203 0.000223373 4
12.0069 4.85109 -2.51719 0.00014988 4
14.7261 5.94974 -2.51556 3.32652e-05 4
18.9397 7.65213 -2.50813 3.11579e-05 4
8.72296 3.55977 -2.52445 0.000245506 4
10.1306 4.1342 -2.52608 0.000230271 4
12.0108 4.9015 -2.52158 0.000157493 4
14.7203 6.00722 -2.51813 5.92683e-05 4
18.9165 7.71969 -2.50862 3.16097e-05 4
8.72325 3.59546 -2.52815 0.000600523 4
10.094 4.16045 -2.52057 0.0002648 4
11.9958 4.94432 -2.52205 0.000158754 4
14.6978 6.058 -2.51789 3.50747e-05 4
18.885 7.78385 -2.50803 2.95602e-05 4
8.71319 3.62695 -2.52888 0.000483421 4
10.0779 4.19504 -2.5202 0.000273998 4
11.966 4.98097 -2.51943 0.000187954 4
14.6746 6.10845 -2.51755 4.35379e-05 4
18.8783 7.85827 -2.51076 3.38772e-05 4
8.68717 3.65175 -2.52502 0.000464519 4
10.0765 4.23579 -2.52353 0.000333848 4
11.9549 5.02536 -2.52075 0.000181594 4
14.644 6.15578 -2.51598 4.17208e-05 4
18.8383 7.91891 -2.50911 3.09184e-05 4
8.67093 3.68059 -2.52402 0.000502265 4
10.0629 4.27145 -2.52384 0.000253252 4
11.9211 5.06019 -2.51733 0.000146029 4
14.6361 6.21265 -2.51832 4.595e-05 4
18.8066 7.98294 -2.50858 3.50071e-05 4
8.65987 3.71162 -2.52455 0.000279445 4
10.0444 4.30505 -2.52296 0.000255543 4
11.9176 5.1079 -2.52036 0.000171416 4
14.6062 6.26021 -2.51692 3.02281e-05 4
8.64895 3.74274 -2.52516 0.00049845 4
10.0197 4.33593 -2.52054 0.000322291 4
11.8995 5.14936 -2.52031 0.000172675 4
14.5791 6.30893 -2.51603 4.11072e-05 4
8.64177 3.7755 -2.5269 0.00046067 4
10.0223 4.37862 -2.52501 0.00029235 4
11.8708 5.18622 -2.51805 0.000144734 4
14.5456 6.35482 -2.51407 4.04997e-05 4
18.7212 8.17908 -2.50847 2.99971e-05 4
8.61095 3.79788 -2.52175 0.000468203 4
9.99341 4.40762 -2.5216 0.000336071 4
11.8668 5.23389 -2.52107 0.000156152 4
14.5265 6.40695 -2.51462 6.89049e-05 4
18.6947 8.24536 -2.50877 3.11303e-05 4
8.60317 3.83038 -2.52337 0.000468184 4
9.98709 4.44654 -2.5239 0.000296926 4
11.8345 5.26907 -2.5181 0.000157412 4
14.5229 6.466 -2.51788 3.44499e-05 4
18.6619 8.30881 -2.50824 3.22631e-05 4
8.60844 3.86878 -2.52886 0.000532349 4
9.96034 4.47635 -2.52108 0.000232465 4
11.8144 5.30959 -2.51774 0.000149787 4
14.4873 6.51086 -2.51564 5.98295e-05 4
18.6579 8.38517 -2.51162 3.20327e-05 4
8.59495 3.89884 -2.52888 0.000592734 4
9.94798 4.5126 -2.52192 0.000250867 4
11.812 5.35814 -2.5212 0.000154855 4
14.4657 6.56191 -2.51584 4.29048e-05 4
18.6215 8.44707 -2.51067 2.99849e-05 4
26.5007 12.0212 -2.5459 7.83294e-05 4
8.5806 3.92851 -2.52868 0.00052098 4
9.93884 4.55036 -2.52362 0.000285376 4
11.7935 5.39948 -2.52126 0.000158654 4
14.4592 6.61996 -2.51873 5.49865e-05 4
18.577 8.50519 -2.50866 3.33889e-05 4
26.4529 12.1111 -2.54536 7.88429e-05 4
8.56199 3.9562 -2.52725 0.000373731 4
9.91726 4.58241 -2.52218 0.000294567 4
11.7792 5.44275 -2.52225 0.000182758 4
14.4183 6.66217 -2.51562 8.39841e-05 4
18.5456 8.56925 -2.50844 2.88432e-05 4
26.4225 12.2089 -2.54651 9.15145e-05 4
8.5494 3.98665 -2.52762 0.000490738 4
9.90544 4.61898 -2.52326 0.000324468 4
11.7429 5.4758 -2.51856 0.000157366 4
14.41 6.71947 -2.51825 8.76026e-05 4
18.5406 8.64562 -2.51184 3.0884e-05 4
26.377 12.2998 -2.54626 6.13371e-05 4
8.5352 4.01636 -2.52755 0.000468069 4
9.8895 4.65364 -2.52332 0.000294538 4
11.7402 5.52453 -2.5221 0.000153549 4
14.3829 6.76809 -2.51764 9.00123e-05 4
18.5088 8.70958 -2.51164 3.22431e-05 4
26.3469 12.3979 -2.54751 6.70558e-05 4
8.52031 4.04574 -2.52731 0.000366136 4
9.88296 4.69277 -2.52582 0.000266912 4
11.7106 5.56061 -2.5199 0.000145926 4
14.3482 6.81303 -2.51571 6.40307e-05 4
19.8569 9.42875 -2.69902 2.98738e-05 1
26.3024 12.4893 -2.54741 5.7745e-05 4
8.50986 4.07724 -2.52842 0.000479353 4
9.84941 4.71905 -2.52144 0.000303712 4
11.6888 5.60032 -2.51939 0.000154799 4
14.3232 6.86255 -2.51552 7.67101e-05 4
19.8018 9.48745 -2.69602 2.98706e-05 1
26.2811 12.5918 -2.54958 7.78684e-05 4
8.4959 4.10708 -2.52851 0.000486882 4
9.84022 4.75695 -2.52332 0.000308298 4
11.6658 5.63944 -2.51866 0.00014464 4
14.3092 6.91735 -2.51729 8.87834e-05 4
19.7738 9.55902 -2.69673 2.98673e-05 1
26.2281 12.6791 -2.54872 7.83528e-05 4
8.46931 4.13076 -2.52488 0.000471764 4
9.82714 4.79301 -2.52424 0.000347393 4
11.6616 5.68775 -2.52203 0.000172542 4
14.2813 6.96547 -2.51664 7.42824e-05 4
19.7455 9.63054 -2.69745 2.98641e-05 1
26.2085 12.7827 -2.55114 6.32954e-05 4
8.46841 4.16697 -2.52893 0.000483066 4
9.81462 4.82939 -2.52534 0.000335873 4
11.647 5.73102 -2.52318 0.000147159 4
14.2655 7.01951 -2.51816 8.09191e-05 4
19.7291 9.70792 -2.69981 2.98608e-05 1
26.1516 12.8682 -2.54996 7.29832e-05 4
8.44979 4.19451 -2.52773 0.000445307 4
9.79264 4.86111 -2.52404 0.00029675 4
11.6033 5.75994 -2.51806 0.000161104 4
14.2286 7.06314 -2.51598 8.03089e-05 4
19.6708 9.76465 -2.69648 2.98575e-05 1
26.111 12.9616 -2.55039 8.20674e-05 4
8.42184 4.21734 -2.52375 0.000532082 4
9.76853 4.89172 -2.52221 0.000296735 4
11.5886 5.80313 -2.51924 0.000162362 4
15.2748 7.64902 -2.70567 8.08619e-05 1
19.6547 9.84232 -2.69896 2.98542e-05 1
26.0875 13.0636 -2.55253 8.13794e-05 4
8.41706 4.25176 -2.52675 0.00046791 4
9.75812 4.92918 -2.52395 0.000328921 4
11.5746 5.84677 -2.52064 0.000147132 4
15.2508 7.70375 -2.70618 8.08554e-05 1
19.6214 9.91148 -2.69913 2.98509e-05 1
26.0387 13.1531 -2.55224 6.52376e-05 4
19.985 10.0952 1.17341 3.96624e-05 10
20.1723 10.1897 1.97722 0.000405957 10
20.1845 10.1959 2.77659 0.000399843 10
20.1689 10.1881 3.57887 0.000391774 10
20.1774 10.1923 5.2189 0.000370172 10
20.1646 10.1859 6.05331 0.000356891 10
8.40553 4.28283 -2.52776 0.000520716 4
9.73501 4.96024 -2.52243 0.000310504 4
11.5473 5.88362 -2.51913 0.000200391 4
15.2092 7.74948 -2.70357 8.08488e-05 1
19.5789 9.97597 -2.69806 2.98475e-05 1
26.0009 13.2481 -2.55305 8.45664e-05 4
20.1473 10.2656 1.97828 0.00040539 10
20.1464 10.2651 2.77626 0.000399284 10
20.1343 10.2589 3.57905 0.000391226 10
20.1391 10.2614 5.21824 0.000369652 10
20.1435 10.2636 6.05769 0.000356388 10
8.37316 4.30322 -2.52253 0.000430138 4
9.73115 5.00113 -2.52594 0.00026679 4
11.5461 5.93389 -2.52338 0.000190232 4
15.1836 7.80333 -2.70385 8.08422e-05 1
19.5339 10.0391 -2.69667 2.98442e-05 1
25.9729 13.3482 -2.55486 5.70498e-05 4
20.1103 10.3353 1.97817 0.000404804 10
20.1204 10.3405 2.77763 0.000398705 10
20.108 10.3341 3.58077 0.000390658 10
18.5484 9.53258 4.81466 4.79627e-05 10
20.1181 10.3393 6.06086 0.000355868 10
8.35774 4.33224 -2.52243 0.000464076 4
9.71673 5.03667 -2.52675 0.000296673 4
11.5134 5.96799 -2.52077 0.000164858 4
15.1744 7.86564 -2.70708 8.08355e-05 1
19.5105 10.1133 -2.6983 2.98408e-05 1
20.9386 10.8535 -2.06337 4.74105e-05 10
20.9463 10.8575 -1.23646 4.78475e-05 10
20.9432 10.8559 -0.411758 4.8039e-05 10
20.9512 10.86 0.411914 4.79826e-05 10
18.3686 9.52137 1.81011 0.000534852 10
18.3866 9.53072 2.54286 0.000526989 10
18.3626 9.51828 3.27586 0.000516608 10
20.9884 10.8794 4.59525 3.43924e-05 10
18.3684 9.52126 4.77653 0.000488794 10
