VERSION 0.7
FIELDS x y z intensity label
SIZE 4 4 4 4 4
TYPE F F F F F
COUNT 1 1 1 1 1
WIDTH 1140
HEIGHT 1
VIEWPOINT 5.18852 11.0369 2.7291 0.766984 -0.000510246 0.0002735 0.641666
POINTS 1140
DATA ascii
-18.7659 -15.4145 3.84638 0.000272366 10
-18.7533 -15.4041 4.71737 0.000265206 10
-18.7659 -15.4145 5.60666 0.000256817 10
-18.7665 -15.415 6.50739 0.0002473 10
-7.76978 -6.42772 -2.70197 0.000129159 4
-9.016 -7.45869 -2.70146 9.11891e-05 4
-10.7918 -8.92773 -2.72248 0.000263352 4
-12.9319 -10.6982 -2.65825 0.000264012 4
-18.622 -15.4055 -2.11445 0.000206742 10
-18.6367 -15.4176 -1.26761 0.000208895 10
-18.6253 -15.4082 -0.421934 0.000209971 10
-18.6329 -15.4144 0.422105 0.000209956 10
-18.6319 -15.4136 1.26728 0.000162843 10
-18.6314 -15.4132 2.11552 0.000161142 10
-18.6402 -15.4205 2.97039 0.000158621 10
-18.6306 -15.4126 3.82965 0.000155311 10
-18.6399 -15.4203 4.70236 0.000151252 10
-18.643 -15.4229 5.586 0.000146492 10
-18.6425 -15.4224 6.483 0.000141088 10
-7.74232 -6.45066 -2.70024 0.000201618 4
-8.99915 -7.49781 -2.70423 5.88941e-05 4
-10.8184 -9.01359 -2.73713 0.000235515 4
-12.8217 -10.6826 -2.64323 0.0002882 4
-18.4722 -15.3904 -2.10353 0.000212255 10
-18.4513 -15.3731 -1.25864 0.000214461 10
-18.4674 -15.3864 -0.419571 0.000215564 10
-18.459 -15.3795 0.419381 0.000215548 10
-18.463 -15.3828 1.25944 0.000167182 10
-18.4724 -15.3906 2.10355 0.000165439 10
-18.4587 -15.3792 2.95001 0.000162856 10
-18.4648 -15.3843 3.80659 0.000159464 10
-18.4739 -15.3918 4.674 0.000155304 10
-18.4667 -15.3859 5.54921 0.000150426 10
-18.4623 -15.3822 6.43898 0.000144887 10
-7.73604 -6.49131 -2.70593 0.000157516 4
-8.96446 -7.52207 -2.70168 0.000172886 4
-10.8057 -9.06707 -2.7419 0.000163758 1
-12.722 -10.675 -2.63035 0.000310793 4
-18.2876 -15.3452 -2.0886 0.000217858 10
-18.3891 -15.4303 -1.25806 0.000378066 10
-18.3892 -15.4303 -0.419015 0.000379961 10
-18.3928 -15.4334 0.419098 0.000379887 10
-18.2937 -15.3502 1.25153 0.000171593 10
-18.3034 -15.3584 2.0904 0.000169807 10
-18.2867 -15.3443 2.93106 0.00016716 10
-18.2959 -15.3521 3.7828 0.000163685 10
-18.2874 -15.3449 4.64034 0.000159423 10
-18.2969 -15.3529 5.51426 0.000154424 10
-18.3037 -15.3586 6.40232 0.000148749 10
-7.70699 -6.51291 -2.70371 0.000173271 4
-8.94763 -7.56133 -2.70455 6.26962e-05 4
-10.7777 -9.10787 -2.74285 0.000163762 1
-12.6214 -10.6659 -2.61723 0.000282491 4
-18.1333 -15.3238 -2.07707 0.000223551 10
-18.354 -15.5103 -1.25936 0.00037484 10
-18.3553 -15.5114 -0.419475 0.000376721 10
-18.36 -15.5154 0.419583 0.000376647 10
-18.1428 -15.3319 1.24487 0.000176074 10
-18.1307 -15.3216 2.07677 0.000174245 10
-18.1238 -15.3158 2.9135 0.000171534 10
-18.1422 -15.3313 3.76205 0.000167974 10
-18.1248 -15.3166 4.61261 0.000163608 10
-18.1383 -15.328 5.48255 0.000158488 10
-18.1319 -15.3226 6.36088 0.000152673 10
-7.68187 -6.53778 -2.70289 0.000113416 4
-8.91358 -7.58605 -2.70224 0.000208992 4
-10.7518 -9.15051 -2.74437 0.000163766 1
-12.5317 -10.6653 -2.60633 0.000262078 4
-17.9701 -15.2938 -2.06448 0.000229336 10
-18.3445 -15.6124 -1.26244 0.000371615 10
-18.3385 -15.6073 -0.420334 0.00037348 10
-18.3552 -15.6215 0.420716 0.000373407 10
-17.4375 -14.8405 1.20002 0.000199454 10
-17.4378 -14.8408 2.00333 0.000197403 10
-17.436 -14.8392 2.81124 0.000194364 10
-17.416 -14.8222 3.62218 0.000190374 10
-17.9822 -15.3041 4.58991 0.000167861 10
-17.4298 -14.8339 5.28402 0.000179735 10
-17.4211 -14.8265 6.12965 0.000173211 10
-7.66424 -6.56905 -2.70473 0.000157524 4
-8.88827 -7.61817 -2.70262 7.97984e-05 4
-10.722 -9.18984 -2.74492 0.00016377 1
-12.4307 -10.6544 -2.59305 0.000258631 4
-17.8143 -15.2687 -2.05269 0.000235211 10
-18.3414 -15.7204 -1.26599 0.000368389 10
-18.3214 -15.7034 -0.421195 0.000370239 10
-18.3405 -15.7197 0.421634 0.000370166 10
-17.2667 -14.7994 1.19181 0.000204515 10
-17.3917 -14.9065 2.004 0.000337547 10
-17.3827 -14.8988 2.81102 0.000332308 10
-17.3905 -14.9055 3.62768 0.000325443 10
-17.8165 -15.2706 4.56119 0.000172181 10
-17.3757 -14.8928 5.28335 0.000307173 10
-17.3886 -14.9038 6.13649 0.000295982 10
-7.62448 -6.58128 -2.69879 0.000204785 4
-8.85792 -7.64595 -2.70149 0.0001653 4
-10.6769 -9.21607 -2.74161 0.000163774 1
-12.3217 -10.6358 -2.57804 0.000317124 4
-17.6401 -15.2265 -2.03873 0.000241178 10
-30.7486 -26.5415 -2.12877 3.22914e-05 10
-30.7595 -26.5509 -0.709263 3.24915e-05 10
-30.7612 -26.5524 0.709303 3.24888e-05 10
-17.1124 -14.771 1.18471 0.000209654 10
-17.3707 -14.994 2.0076 0.000334634 10
-17.3579 -14.9829 2.81545 0.000329438 10
-17.3661 -14.99 3.63348 0.000322628 10
-17.6501 -15.2352 4.53217 0.000176569 10
-17.3768 -14.9993 5.29958 0.000304505 10
-17.37 -14.9934 6.14837 0.000293405 10
-7.62033 -6.62425 -2.70549 0.000170132 4
-8.83237 -7.67786 -2.70185 0.000121603 4
-10.6637 -9.26982 -2.74651 0.000163779 1
-12.2341 -10.6349 -2.56747 0.000235568 4
-17.4989 -15.2116 -2.02854 0.000247237 10
-30.4899 -26.5044 -2.11725 3.3279e-05 10
-30.4915 -26.5059 -0.705213 3.34847e-05 10
-30.4895 -26.5041 0.705167 3.3482e-05 10
-16.9621 -14.7449 1.17787 0.00021487 10
-17.3393 -15.0728 2.01003 0.000331723 10
-17.3393 -15.0728 2.82095 0.000326568 10
-17.3505 -15.0825 3.64119 0.000319813 10
-17.5064 -15.2181 4.50889 0.000181025 10
-17.3445 -15.0774 5.30574 0.000301838 10
-17.3525 -15.0843 6.16076 0.000290828 10
-7.59916 -6.65256 -2.70621 0.000116574 4
-8.81621 -7.71801 -2.70513 9.69041e-05 4
-10.6203 -9.2974 -2.74368 0.000163783 1
-12.1395 -10.6273 -2.55539 7.6748e-05 4
-17.3342 -15.1749 -2.01557 0.000253388 10
-30.2243 -26.4594 -2.1052 3.42861e-05 10
-30.21 -26.4468 -0.700833 3.44976e-05 10
-30.222 -26.4573 0.701111 3.44948e-05 10
-16.8094 -14.7155 1.17082 0.000220165 10
-17.3327 -15.1736 2.0154 0.000328811 10
-17.3238 -15.1659 2.82703 0.000323699 10
-17.335 -15.1756 3.64904 0.000316999 10
-17.3465 -15.1857 4.48133 0.000185549 10
-17.3448 -15.1842 5.322 0.000299171 10
-17.3354 -15.176 6.17346 0.000288252 10
-7.57631 -6.67941 -2.70635 0.000157535 4
-8.77799 -7.73884 -2.70168 6.46041e-05 4
-10.5989 -9.34415 -2.74654 0.000163787 1
-12.1182 -10.6836 -2.55873 4.71874e-05 4
-17.1883 -15.1535 -2.00474 0.000259631 10
-29.9516 -26.4059 -2.09262 3.53129e-05 10
-29.9537 -26.4077 -0.697022 3.55302e-05 10
-29.9374 -26.3933 0.696641 3.55274e-05 10
-16.6723 -14.6986 1.16484 0.000225539 10
-17.2924 -15.2453 2.01689 0.000126859 10
-17.2796 -15.2341 2.82848 0.000124902 10
-17.2881 -15.2415 3.65035 0.000122333 10
-17.1886 -15.1538 4.45418 0.000190141 10
-17.2853 -15.2391 5.32005 0.000115483 10
-17.2899 -15.2431 6.17618 0.000111283 10
-7.54034 -6.69463 -2.70184 0.000132332 4
-8.76672 -7.78345 -2.70655 8.1707e-05 4
-10.5318 -9.35053 -2.73759 0.0005068 4
-12.0795 -10.7247 -2.55846 7.4479e-05 4
-17.0419 -15.1305 -1.99381 0.000265966 10
-29.6768 -26.3482 -2.07983 3.63595e-05 10
-29.6959 -26.3653 -0.693161 3.65828e-05 10
-29.6877 -26.3579 0.692967 3.65798e-05 10
-16.5227 -14.6695 1.15795 0.00023099 10
-17.0333 -15.1229 4.42759 0.000194801 10
-7.52948 -6.73213 -2.70635 0.000170144 4
-8.7386 -7.81321 -2.70628 0.000228024 4
-10.4433 -9.33737 -2.72305 0.000497071 4
-12.0332 -10.7589 -2.55659 6.76587e-05 4
-16.8925 -15.1037 -1.9825 0.000272395 10
-29.431 -26.3143 -2.06903 3.74262e-05 10
-29.4292 -26.3128 -0.689075 3.76555e-05 10
-29.417 -26.3019 0.68879 3.76525e-05 10
-16.3715 -14.6378 1.15094 0.000236521 10
-16.8858 -15.0977 4.40292 0.000199531 10
-7.49683 -6.75018 -2.70307 0.000658534 4
-8.70973 -7.84228 -2.7058 8.17105e-05 4
-10.3656 -9.33326 -2.71128 0.000490935 4
-11.9927 -10.7983 -2.55598 7.67583e-05 4
-16.7403 -15.073 -1.9708 0.000278916 10
-22.738 -20.4734 -1.60352 9.98219e-05 10
-22.7537 -20.4875 -0.534442 0.000100377 10
-22.7436 -20.4784 0.534204 0.00010037 10
-16.241 -14.6235 1.14534 0.00024213 10
-16.7369 -15.07 4.37778 0.000204328 10
-7.47799 -6.78062 -2.70479 0.000538811 4
-8.66799 -7.85965 -2.70134 0.000172926 4
-10.2877 -9.32828 -2.69939 0.0005526 4
-11.9688 -10.8526 -2.55893 8.13097e-05 4
-16.5886 -15.0416 -2.74947 0.000281198 10
-16.5995 -15.0515 -1.96039 0.000285529 10
-22.5525 -20.4494 -1.59547 0.00010243 10
-22.538 -20.4362 -0.531048 0.000102999 10
-22.5396 -20.4377 0.531085 0.000102991 10
-16.097 -14.5958 1.13877 0.000247819 10
-16.5936 -15.0462 4.35401 0.000209195 10
-7.45103 -6.80373 -2.70361 0.000655408 4
-8.64028 -7.88965 -2.70127 5.32092e-05 4
-10.1908 -9.3055 -2.68249 0.000429249 4
-11.9174 -10.8821 -2.55606 6.93715e-05 4
-16.4493 -15.0203 -2.73506 0.00028781 10
-16.4473 -15.0185 -1.9486 0.000292237 10
-22.3428 -20.4018 -1.58566 0.00010508 10
-22.3407 -20.3999 -0.528074 0.000105663 10
-22.3395 -20.3988 0.528044 0.000105655 10
-15.9597 -14.5732 1.13265 0.000253586 10
-16.4521 -15.0228 4.33062 0.000214131 10
-7.41367 -6.81722 -2.69868 0.00053568 4
-8.6315 -7.93707 -2.70717 9.12178e-05 4
-10.1098 -9.29645 -2.66969 0.000474979 4
-11.8782 -10.9226 -2.55581 7.44917e-05 4
-16.3129 -15.0005 -2.72107 0.000294515 10
-16.3123 -14.9999 -1.9388 0.000299037 10
-22.2253 -20.4372 -1.58237 0.000167421 10
-22.2381 -20.449 -0.527332 0.000168324 10
-22.2344 -20.4456 0.527245 0.000168288 10
-15.8235 -14.5505 1.12659 0.000259433 10
-16.31 -14.9978 4.30696 0.000219135 10
-7.39225 -6.8453 -2.69956 0.000630224 4
-8.59416 -7.95828 -2.70415 7.41161e-05 4
-10.0276 -9.28566 -2.65652 0.000409833 4
-11.8336 -10.9581 -2.55443 7.5063e-05 4
-16.1675 -14.9712 -2.70551 0.000301311 10
-16.1664 -14.9702 -1.92765 0.000305931 10
-16.1684 -14.9721 -1.15485 0.000204125 10
-16.1722 -14.9756 -0.384728 0.000205149 10
-16.1678 -14.9715 0.384623 0.000205136 10
-15.68 -14.5198 1.11997 0.000265359 10
-16.2658 -15.0623 1.93951 0.000149523 10
-16.2507 -15.0484 2.71945 0.000147243 10
-16.2654 -15.0619 3.51108 0.000144248 10
-16.1671 -14.9709 4.28301 0.000224209 10
-16.2641 -15.0608 5.11751 0.000136259 10
-16.2633 -15.06 5.93915 0.000131359 10
-7.38501 -6.88663 -2.70568 0.00050734 4
-8.56788 -7.98967 -2.70464 0.000368689 4
-9.95156 -9.27998 -2.64494 0.000468693 4
-11.8033 -11.0068 -2.55617 8.58705e-05 4
-16.0293 -14.9476 -2.69111 0.0003082 10
-16.0217 -14.9405 -1.91661 0.000312918 10
-16.0743 -14.9895 -1.15186 0.000320145 10
-16.0891 -15.0033 -0.383995 0.000321708 10
-16.075 -14.9902 0.383659 0.000321645 10
-15.551 -14.5015 1.11436 0.000271365 10
-16.0311 -14.9493 4.26078 0.000229352 10
-7.34786 -6.9001 -2.70087 0.000658609 4
-8.54077 -8.02031 -2.70491 0.000382001 4
-9.88524 -9.28286 -2.63591 0.000596392 4
-11.7671 -11.05 -2.55666 6.76752e-05 4
-15.8936 -14.9251 -2.67706 0.000315182 10
-15.8958 -14.9272 -1.90777 0.000319999 10
-15.8862 -14.9181 -1.14211 0.000213505 10
-15.8974 -14.9287 -0.380662 0.000214574 10
-15.8849 -14.9169 0.380361 0.00021456 10
-15.4014 -14.4629 1.10726 0.00027745 10
-15.8837 -14.9158 4.23541 0.000234565 10
-7.32458 -6.92651 -2.70119 0.000614504 4
-8.51408 -8.05137 -2.70534 0.000435225 4
-9.79761 -9.26514 -2.62115 0.000465935 4
-11.7351 -11.0973 -2.5581 7.39336e-05 4
-15.7486 -14.8927 -2.66137 0.000322255 10
-15.7423 -14.8868 -1.89557 0.000327174 10
-15.8111 -14.9518 -1.14045 0.000329085 10
-15.8194 -14.9597 -0.380042 0.000330686 10
-15.8208 -14.961 0.380076 0.000330622 10
-15.2696 -14.4397 1.10139 0.000283614 10
-15.7439 -14.8883 4.21197 0.000239847 10
-7.31187 -6.963 -2.70545 0.00060191 4
-8.47858 -8.07404 -2.703 0.000283188 4
-9.70665 -9.24352 -2.60543 0.000717033 4
-11.6798 -11.1225 -2.5545 8.53111e-05 4
-15.6162 -14.8711 -2.64775 0.000329422 10
-15.6099 -14.8651 -1.88586 0.000334443 10
-15.6153 -14.8702 -1.13007 0.000223136 10
-15.6228 -14.8774 -0.376565 0.000224249 10
-15.6069 -14.8622 0.376179 0.000224235 10
-15.1579 -14.4347 1.09697 0.000438563 10
-15.1568 -14.4336 1.83112 0.000434108 10
-15.1575 -14.4343 2.56998 0.000427534 10
-15.1589 -14.4356 3.31542 0.000418916 10
-15.6182 -14.873 4.19219 0.000245198 10
-15.1623 -14.4388 4.83378 0.000395965 10
-15.1509 -14.428 5.60595 0.000381894 10
-7.27493 -6.9764 -2.70077 0.00057356 4
-8.45497 -8.10803 -2.70448 0.000380127 4
-9.64139 -9.24575 -2.59656 0.000593534 4
-11.6433 -11.1655 -2.55502 5.74449e-05 4
-15.4871 -14.8516 -2.63464 0.000336681 10
-15.4779 -14.8428 -1.87617 0.000341805 10
-15.5389 -14.9013 -1.1283 0.000338369 10
-15.5573 -14.9189 -0.376238 0.000340011 10
-15.5546 -14.9164 0.376174 0.000339945 10
-15.1434 -14.522 1.09958 0.000434421 10
-15.1374 -14.5162 1.83489 0.000430006 10
-15.141 -14.5197 2.57575 0.00042349 10
-15.1347 -14.5137 3.3212 0.000414948 10
-15.4918 -14.8561 4.17215 0.000250619 10
-15.1346 -14.5135 4.84107 0.0003922 10
-15.137 -14.5158 5.61951 0.000378253 10
-7.25596 -7.007 -2.7028 0.000642904 4
-8.42484 -8.13577 -2.70391 7.03252e-05 4
-9.56583 -9.23762 -2.58488 0.000149902 4
-11.615 -11.2164 -2.55739 6.31349e-05 4
-15.3489 -14.8223 -2.61992 0.000344033 10
-15.3439 -14.8175 -1.86618 0.000349262 10
-15.3486 -14.822 -1.11823 0.000233016 10
-15.3615 -14.8345 -0.372754 0.000234175 10
-15.3442 -14.8177 0.372333 0.000234161 10
-15.1104 -14.592 1.10088 0.000430285 10
-15.1213 -14.6024 1.8391 0.000425909 10
-15.1222 -14.6034 2.58122 0.00041945 10
-15.1268 -14.6077 3.33062 0.000410984 10
-15.3588 -14.8318 4.15025 0.000256109 10
-15.1302 -14.6111 4.85596 0.000388439 10
-15.1242 -14.6053 5.63367 0.000374618 10
-7.23337 -7.03414 -2.70351 0.000122911 4
-8.38903 -8.15798 -2.70154 0.000144455 4
-9.54267 -9.27983 -2.58736 8.44571e-05 4
-11.5727 -11.254 -2.55672 7.33758e-05 4
-15.222 -14.8028 -2.60706 0.000351477 10
-15.2109 -14.792 -1.85627 0.000356811 10
-15.2801 -14.8593 -1.11701 0.000348019 10
-15.2836 -14.8626 -0.372119 0.000349703 10
-15.2853 -14.8643 0.372159 0.000349634 10
-15.0977 -14.6818 1.10367 0.000426154 10
-15.0968 -14.681 1.84234 0.000421817 10
-15.1129 -14.6966 2.58837 0.000415417 10
-15.1062 -14.6902 3.33736 0.000407027 10
-15.2238 -14.8045 4.12772 0.000261669 10
-15.1015 -14.6856 4.86318 0.000384684 10
-15.0973 -14.6815 5.6427 0.000370988 10
-7.20554 -7.05618 -2.7023 0.000104003 4
-8.38212 -8.20838 -2.70852 0.000133246 4
-9.5404 -9.34264 -2.59557 0.000154323 4
-11.5395 -11.3003 -2.55808 6.82591e-05 4
-15.0857 -14.773 -2.59253 0.000359015 10
-15.0816 -14.769 -1.84677 0.000364456 10
-15.0887 -14.7759 -1.10678 0.000243146 10
-15.0988 -14.7859 -0.368875 0.000244353 10
-15.0886 -14.7759 0.368626 0.000244338 10
-15.0887 -14.776 1.10678 0.00042203 10
-15.0921 -14.7793 1.84806 0.000417733 10
-15.0799 -14.7674 2.59154 0.00041139 10
-15.0904 -14.7776 3.34525 0.000403075 10
-15.0902 -14.7774 4.10546 0.000267299 10
-15.0966 -14.7837 4.87817 0.000380936 10
-15.0826 -14.77 5.65645 0.000367364 10
-7.1737 -7.07423 -2.6996 0.000283652 4
-8.38377 -8.26752 -2.71836 0.000116255 4
-9.50482 -9.37302 -2.59478 0.00013112 4
-11.4851 -11.3258 -2.55476 3.29931e-05 4
-14.9544 -14.747 -2.57879 0.000366645 10
-14.9678 -14.7602 -1.83913 0.000372194 10
-15.0233 -14.815 -1.10577 0.000358055 10
-15.0223 -14.814 -0.368267 0.000359783 10
-15.0261 -14.8178 0.36836 0.000359712 10
-14.9618 -14.7543 1.10124 0.000293058 10
-14.9559 -14.7485 1.83767 0.000290117 10
-14.9535 -14.7462 2.57864 0.000285758 10
-14.9708 -14.7632 3.33012 0.000280029 10
-14.9626 -14.7551 4.08472 0.000272998 10
-14.9611 -14.7536 4.85099 0.000264744 10
-14.9546 -14.7472 5.6277 0.000255362 10
-7.16022 -7.11041 -2.70385 4.72763e-05 4
-8.39173 -8.33335 -2.73036 0.00013399 4
-9.73733 -9.66958 -2.66745 0.000188299 4
-11.4622 -11.3824 -2.55849 7.05398e-05 4
-14.8375 -14.7342 -2.56748 0.000374368 10
-14.8297 -14.7265 -1.82847 0.000380026 10
-14.8408 -14.7376 -1.09612 0.000253527 10
-14.8453 -14.742 -0.365186 0.000254782 10
-14.8311 -14.728 0.364838 0.000254767 10
-14.8418 -14.7385 1.09619 0.000299221 10
-14.8265 -14.7234 1.82808 0.000296223 10
-14.8251 -14.7219 2.56534 0.000291777 10
-14.8372 -14.734 3.31184 0.000285936 10
-14.8337 -14.7305 4.06355 0.000278767 10
-14.8377 -14.7345 4.82764 0.00027035 10
-14.8349 -14.7317 5.60198 0.000260783 10
-7.13829 -7.13829 -2.70497 6.30363e-05 4
-8.39877 -8.39877 -2.74217 0.000132843 4
-9.69309 -9.69309 -2.66459 0.000158176 4
-11.4077 -11.4077 -2.55521 6.59914e-05 4
-14.7032 -14.7032 -2.55311 0.000382183 10
-14.7106 -14.7106 -1.82011 0.000387952 10
-14.7618 -14.7618 -1.09408 0.000368502 10
-14.7533 -14.7533 -0.364187 0.000370274 10
-14.7572 -14.7572 0.364283 0.000370201 10
-14.7056 -14.7056 1.08992 0.000305458 10
-14.7159 -14.7159 1.82076 0.000302401 10
-14.7171 -14.7171 2.55553 0.000297869 10
-14.7161 -14.7161 3.29624 0.000291915 10
-14.7149 -14.7149 4.04506 0.000284605 10
-14.7083 -14.7083 4.80221 0.000276024 10
-14.715 -14.715 5.57608 0.000266269 10
-7.10902 -7.15882 -2.70332 0.000154442 4
-8.36836 -8.42698 -2.74183 0.000302096 1
-9.66089 -9.72856 -2.66505 0.000156029 4
-11.3686 -11.4483 -2.55539 7.56655e-05 4
-14.5887 -14.6909 -2.54212 0.000390091 10
-14.5809 -14.6831 -1.8104 0.00039597 10
-14.7401 -14.8433 -1.0963 0.000364838 10
-14.7332 -14.8364 -0.364968 0.000366594 10
-14.7486 -14.8519 0.365349 0.000366521 10
-14.5759 -14.678 1.0841 0.000311768 10
-14.5747 -14.6768 1.80962 0.000308653 10
-14.5767 -14.6788 2.54002 0.000304033 10
-14.579 -14.6811 3.27699 0.000297963 10
-14.5886 -14.6908 4.02441 0.000290512 10
-14.5838 -14.686 4.77828 0.000281765 10
-14.587 -14.6892 5.54697 0.00027182 10
-7.08294 -7.18254 -2.70293 0.000296283 4
-8.32837 -8.44548 -2.73837 0.000302104 1
-9.63768 -9.7732 -2.66804 4.51959e-05 4
-11.3363 -11.4957 -2.55712 8.70472e-05 4
-14.4598 -14.6631 -2.52856 0.000398092 10
-14.4539 -14.6571 -1.80096 0.000404084 10
-14.4886 -14.6923 -1.08141 0.000379383 10
-14.481 -14.6847 -0.359989 0.000381202 10
-14.4921 -14.6959 0.360264 0.000381126 10
-14.4666 -14.67 1.07977 0.000318153 10
-14.4586 -14.6619 1.80154 0.000314978 10
-14.4719 -14.6754 2.53068 0.00031027 10
-14.4524 -14.6556 3.26002 0.000304084 10
-14.4564 -14.6597 4.00204 0.00029649 10
-14.4688 -14.6723 4.75735 0.000287574 10
-14.4686 -14.672 5.52137 0.000277438 10
-7.04636 -7.1955 -2.69854 8.82565e-05 4
-8.30086 -8.47656 -2.73904 0.000302111 1
-9.5885 -9.79145 -2.66388 0.000160343 4
-11.2865 -11.5254 -2.55495 8.42059e-05 4
-14.3446 -14.6482 -2.51735 0.000406184 10
-14.3374 -14.6409 -1.79281 0.000412291 10
-14.4714 -14.7777 -1.08397 0.000375567 10
-14.485 -14.7916 -0.361369 0.000377368 10
-14.4666 -14.7728 0.360909 0.000377293 10
-14.3303 -14.6336 1.0734 0.00032461 10
-14.3485 -14.6522 1.79419 0.000321375 10
-14.3474 -14.6511 2.51783 0.000316578 10
-14.334 -14.6374 3.24483 0.000310274 10
-14.3506 -14.6543 3.98688 0.000302536 10
-14.3396 -14.6431 4.73163 0.00029345 10
-14.3477 -14.6513 5.49471 0.000283121 10
-7.03415 -7.23338 -2.70351 0.000144996 4
-8.26856 -8.50274 -2.73816 0.000302119 1
-9.55674 -9.8274 -2.66456 0.000214156 4
-11.259 -11.5779 -2.55786 5.91741e-05 4
-14.224 -14.6269 -2.50513 0.000414369 10
-14.2079 -14.6103 -1.78298 0.000420591 10
-14.2093 -14.6117 -1.06815 0.00042477 10
-14.2147 -14.6173 -0.355896 0.000426859 10
-14.2158 -14.6184 0.355923 0.000426835 10
-14.2238 -14.6266 1.06924 0.000331142 10
-14.2278 -14.6308 1.78548 0.000327846 10
-14.2145 -14.6171 2.50346 0.000322959 10
-14.2108 -14.6133 3.22847 0.000316536 10
-14.2283 -14.6312 3.96706 0.000308651 10
-14.2175 -14.6201 4.70816 0.000299394 10
-14.2106 -14.6131 5.46172 0.000288869 10
-7.00597 -7.25489 -2.7024 0.000132391 4
-8.24276 -8.53562 -2.73946 0.000302127 1
-9.52634 -9.86481 -2.66567 0.000146363 4
-11.2063 -11.6045 -2.55508 7.56776e-05 4
-14.0903 -14.591 -2.49054 0.000422647 10
-14.0928 -14.5936 -1.77492 0.000428984 10
-14.0946 -14.5954 -1.06336 0.000433242 10
-14.0902 -14.5908 -0.354053 0.000435371 10
-14.0929 -14.5936 0.354119 0.000435346 10
-14.1071 -14.6083 1.06429 0.000337746 10
-14.103 -14.6041 1.77621 0.000334389 10
-14.1007 -14.6017 2.49237 0.000329411 10
-14.1035 -14.6046 3.21565 0.000322868 10
-14.1074 -14.6086 3.94754 0.000314837 10
-14.0954 -14.5963 4.68459 0.000305406 10
-14.1041 -14.6052 5.44035 0.000294683 10
-6.97856 -7.27717 -2.70161 0.000151307 4
-8.21261 -8.56403 -2.73936 0.000302135 1
-9.49907 -9.90554 -2.6677 9.68607e-05 4
-11.1629 -11.6405 -2.55442 7.68187e-05 4
-13.9698 -14.5675 -2.4782 0.000431016 10
-13.9885 -14.5871 -1.76818 0.000437471 10
-13.9858 -14.5843 -1.05898 0.000441808 10
-13.985 -14.5835 -0.352687 0.000443976 10
-13.9717 -14.5695 0.35235 0.00044395 10
-13.9754 -14.5735 1.05819 0.000344424 10
-13.9869 -14.5854 1.76798 0.000341005 10
-13.9854 -14.5839 2.48099 0.000335935 10
-13.9816 -14.5799 3.19944 0.000329271 10
-13.9852 -14.5836 3.92757 0.000321091 10
-13.9743 -14.5723 4.66121 0.000311485 10
-13.9739 -14.5719 5.40973 0.000300563 10
-6.96409 -7.31301 -2.70587 0.000148158 4
-8.18905 -8.59935 -2.7415 0.000302143 1
-9.46817 -9.94256 -2.66876 9.14825e-05 4
-11.1355 -11.6935 -2.55749 5.00765e-05 4
-13.8655 -14.5602 -2.46871 0.000439478 10
-13.8596 -14.554 -1.7583 0.000446052 10
-13.8725 -14.5676 -1.05425 0.000450467 10
-13.8582 -14.5526 -0.350768 0.000452675 10
-13.8613 -14.5558 0.350844 0.00045265 10
-13.8573 -14.5516 1.05309 0.000351176 10
-13.859 -14.5534 1.75822 0.000347694 10
-13.8724 -14.5674 2.46993 0.000342531 10
-13.8542 -14.5483 3.18188 0.000335745 10
-13.8642 -14.5588 3.90784 0.000327414 10
-13.8679 -14.5628 4.64265 0.000317631 10
-13.8638 -14.5585 5.38674 0.000306508 10
-6.93335 -7.33181 -2.70386 0.000141856 4
-8.1511 -8.61955 -2.73885 0.000302151 1
-9.41629 -9.95745 -2.66391 0.000115164 4
-11.0833 -11.7203 -2.55488 6.31673e-05 4
-13.773 -14.5645 -2.46127 0.00060265 10
-13.7879 -14.5803 -1.75566 0.00061157 10
-13.7869 -14.5793 -1.0516 0.000617532 10
-13.7809 -14.5729 -0.350097 0.000620468 10
-13.7872 -14.5796 0.350257 0.000620344 10
-13.7555 -14.546 1.0492 0.000358 10
-13.7409 -14.5306 1.74967 0.000354455 10
-13.7482 -14.5384 2.45685 0.000349198 10
-13.7559 -14.5465 3.17096 0.000342289 10
-13.7536 -14.5441 3.89097 0.000333806 10
-13.7376 -14.5272 4.61598 0.000323845 10
-13.7547 -14.5451 5.36402 0.000312518 10
-6.90143 -7.34928 -2.7014 0.000327853 4
-8.1341 -8.66194 -2.74328 0.000302159 1
-9.40438 -10.0146 -2.67042 0.000250765 4
-11.0461 -11.7629 -2.55575 3.75605e-05 4
-13.7728 -14.6665 -2.47037 0.000596353 10
-13.7627 -14.6558 -1.75895 0.000605185 10
-13.764 -14.6571 -1.05375 0.000611088 10
-13.7552 -14.6478 -0.35074 0.000613996 10
-13.7735 -14.6673 0.351206 0.000613873 10
-13.6366 -14.5215 1.044 0.000364898 10
-13.6269 -14.5111 1.74158 0.000361289 10
-13.6239 -14.508 2.44367 0.000355937 10
-13.6346 -14.5194 3.15465 0.000348903 10
-13.6285 -14.5129 3.86988 0.000340267 10
-13.6256 -14.5097 4.59531 0.000330125 10
-13.6292 -14.5137 5.33483 0.000318593 10
-6.86793 -7.36495 -2.69833 0.000258506 4
-8.09292 -8.67859 -2.73959 0.000302168 1
-9.3966 -10.0766 -2.67818 0.00046389 4
-13.741 -14.7354 -2.47388 0.000590072 10
-13.7534 -14.7487 -1.76433 0.000598817 10
-13.7468 -14.7416 -1.05637 0.000604662 10
-13.7504 -14.7455 -0.351928 0.00060754 10
-13.7404 -14.7348 0.351672 0.000607418 10
-13.5083 -14.4859 1.03804 0.000371868 10
-13.5094 -14.4871 1.73303 0.000368194 10
-13.5079 -14.4854 2.43191 0.000362747 10
-13.5092 -14.4868 3.13732 0.000355587 10
-13.5261 -14.505 3.85515 0.000346796 10
-13.5248 -14.5036 4.57837 0.000336473 10
-13.525 -14.5038 5.31381 0.000324733 10
-6.86137 -7.4096 -2.7059 0.000400378 4
-8.07053 -8.71537 -2.74229 0.000302176 1
-9.31396 -10.0582 -2.66462 0.000355463 4
-10.9612 -11.837 -2.55516 5.97603e-05 4
-13.7369 -14.8345 -2.48245 0.000583808 10
-13.74 -14.8379 -1.76924 0.000592466 10
-13.737 -14.8346 -1.05958 0.000598252 10
-13.7369 -14.8345 -0.352905 0.000601101 10
-13.7334 -14.8307 0.352814 0.000600981 10
-13.4319 -14.5052 1.03605 0.000499408 10
-13.4249 -14.4976 1.72867 0.000494407 10
-13.4275 -14.5003 2.42653 0.000487025 10
-13.4342 -14.5076 3.13163 0.000477349 10
-13.4348 -14.5083 3.84355 0.000465486 10
-13.4314 -14.5046 4.56386 0.00045157 10
-13.4265 -14.4993 5.29496 0.000435757 10
-6.81876 -7.41534 -2.69928 0.000239602 4
-8.04476 -8.74861 -2.7439 0.000302184 1
-9.25397 -10.0636 -2.65749 0.000133915 4
-10.9165 -11.8716 -2.55439 5.3502e-05 4
-13.7144 -14.9143 -2.48778 0.00057756 10
-13.7271 -14.9281 -1.77428 0.000586131 10
-18.0551 -19.6348 -1.39794 0.000185253 10
-18.0622 -19.6425 -0.465782 0.000186238 10
-18.0528 -19.6323 0.465541 0.000186227 10
-13.4041 -14.5768 1.03782 0.000494102 10
-13.411 -14.5844 1.73343 0.00048915 10
-13.4221 -14.5964 2.43475 0.000481842 10
-13.4125 -14.586 3.13844 0.000472261 10
-13.4118 -14.5853 3.85151 0.000460516 10
-13.4163 -14.5901 4.57603 0.000446739 10
-13.4114 -14.5847 5.30904 0.000431085 10
-6.79464 -7.44107 -2.7 0.000167095 4
-8.0048 -8.76637 -2.74069 0.000302192 1
-9.1814 -10.0549 -2.64671 0.000396997 4
-10.8757 -11.9104 -2.55456 5.5781e-05 4
-13.7001 -15.0035 -2.49467 0.000571331 10
-13.7078 -15.012 -1.77855 0.000579815 10
-17.9104 -19.6144 -1.39202 0.000189021 10
-17.8969 -19.5996 -0.463281 0.000190025 10
-17.9115 -19.6156 0.463659 0.000190014 10
-13.7107 -15.0151 1.06562 0.000456232 10
-13.6994 -15.0028 1.77745 0.000451629 10
-13.697 -15.0001 3.94841 0.000425022 10
-13.7019 -15.0055 4.69128 0.000412223 10
-13.7038 -15.0076 5.44552 0.000397682 10
-6.78289 -7.48048 -2.70569 0.000255377 4
-7.96701 -8.78638 -2.73823 0.000302201 1
-9.10418 -10.0405 -2.63454 0.000483811 4
-11.6554 -12.8541 -2.74822 7.61625e-05 1
-13.6898 -15.0978 -2.50238 0.00056512 10
-13.6813 -15.0884 -1.78193 0.000573518 10
-17.7488 -19.5742 -1.38477 0.000192833 10
-17.7509 -19.5765 -0.461267 0.000193856 10
-17.7487 -19.5741 0.46121 0.000193845 10
-13.6956 -15.1042 1.06854 0.000451279 10
-13.6842 -15.0916 1.7823 0.000446723 10
-13.6942 -15.1026 3.96278 0.000420385 10
-13.6878 -15.0955 4.70445 0.000407716 10
-13.6967 -15.1053 5.4636 0.000393324 10
-6.75428 -7.50139 -2.70471 0.000195478 4
-7.94881 -8.82804 -2.74255 0.000302209 1
-9.04227 -10.0425 -2.62675 0.000486994 4
-11.608 -12.892 -2.74763 7.61659e-05 1
-13.6632 -15.1745 -2.50718 0.000558928 10
-13.6775 -15.1904 -1.78833 0.000567239 10
-17.644 -19.5956 -1.38192 0.000252028 10
-17.6386 -19.5896 -0.460123 0.000253324 10
-17.6309 -19.5811 0.459923 0.000253268 10
-13.6624 -15.1736 1.07007 0.000446341 10
-13.6709 -15.1831 1.78747 0.000441831 10
-13.7363 -15.2557 2.52058 0.000274257 10
-13.7289 -15.2475 3.24966 0.000268754 10
-13.6796 -15.1927 3.97387 0.000415763 10
-13.6832 -15.1967 4.72107 0.000403224 10
-13.6828 -15.1963 5.47921 0.000388981 10
-7.90548 -8.84179 -2.73824 0.000302218 1
-8.97478 -10.0377 -2.61731 0.000471971 4
-11.5654 -12.9352 -2.74822 7.61693e-05 1
-13.6546 -15.2718 -2.51537 0.000552755 10
-13.6535 -15.2706 -1.79215 0.000560981 10
-17.6103 -19.696 -1.38465 0.000249037 10
-17.6228 -19.71 -0.461504 0.000250318 10
-17.6084 -19.6939 0.461126 0.000250263 10
-13.6517 -15.2686 1.0734 0.000441418 10
-13.6522 -15.2692 1.79198 0.000436954 10
-13.6618 -15.2799 3.98418 0.000411155 10
-13.6643 -15.2826 4.73292 0.000398747 10
-13.6559 -15.2733 5.48975 0.00038465 10
-6.69292 -7.53842 -2.70115 0.000113509 4
-7.87366 -8.86831 -2.73792 0.000302226 1
-8.9151 -10.0413 -2.61011 0.000478475 4
-11.5064 -12.96 -2.74494 7.61727e-05 1
-13.6277 -15.3493 -2.52027 0.000546603 10
-13.6302 -15.3521 -1.79612 0.000554742 10
-17.5946 -19.8173 -1.38885 0.000246058 10
-17.5941 -19.8167 -0.462561 0.000247325 10
-17.5915 -19.8137 0.462491 0.00024727 10
-13.6357 -15.3582 1.07635 0.000436511 10
-13.643 -15.3664 1.7978 0.000432093 10
-13.643 -15.3664 3.9943 0.000406562 10
-13.6535 -15.3783 4.74774 0.000394283 10
-13.6417 -15.365 5.50556 0.000380334 10
-6.65937 -7.55358 -2.69823 0.000113512 4
-7.8349 -8.88695 -2.73521 0.000734083 4
-8.84757 -10.0356 -2.60058 0.000470098 4
-11.4642 -13.0036 -2.74568 7.61761e-05 1
-13.624 -15.4534 -2.52954 0.00054047 10
-13.6209 -15.4499 -1.80199 0.000548524 10
-21.823 -24.7533 -1.72943 8.90471e-05 10
-21.8238 -24.7543 -0.576032 8.9557e-05 10
-21.8414 -24.7742 0.576495 8.95514e-05 10
-13.6282 -15.4581 1.08001 0.00043162 10
-13.6338 -15.4645 1.8037 0.000427248 10
-13.6344 -15.4652 4.00757 0.000401985 10
-13.632 -15.4624 4.75901 0.000389835 10
-13.6223 -15.4515 5.51947 0.000376034 10
-7.77147 -8.87728 -2.72387 0.00069602 4
-8.79296 -10.0441 -2.59482 0.000156756 4
-11.4197 -13.0447 -2.74592 7.61796e-05 1
-13.6052 -15.5411 -2.5361 0.000534359 10
-13.6069 -15.543 -1.8073 0.000542328 10
-6.9915 -7.98632 -0.55627 0.00194683 8
-21.6513 -24.7321 -0.573752 9.14334e-05 10
-21.652 -24.7329 0.573772 9.14276e-05 10
-13.6162 -15.5537 1.08336 0.000426746 10
-13.6178 -15.5555 1.80875 0.000422421 10
-13.6142 -15.5514 4.01758 0.000397424 10
-13.6033 -15.5389 4.7679 0.000385403 10
-13.6049 -15.5408 5.53437 0.000371747 10
-6.6089 -7.60267 -2.69922 0.000104057 4
-7.70777 -8.86677 -2.71238 0.000837231 4
-8.74691 -10.0622 -2.59158 0.000139343 4
-11.3822 -13.0937 -2.74786 7.61831e-05 1
-13.5893 -15.6327 -2.5433 0.000528269 10
-13.5873 -15.6303 -1.81193 0.000536153 10
-6.97003 -8.0181 -0.556785 0.00246046 8
-21.4652 -24.6929 -0.571101 0.000115909 10
-21.4738 -24.7027 0.571329 0.000115882 10
-13.5927 -15.6366 1.08582 0.000421889 10
-13.5936 -15.6377 1.81278 0.000417609 10
-13.656 -15.7094 2.55578 0.000208366 10
-13.6565 -15.71 3.29691 0.000204201 10
-13.5888 -15.6321 4.02615 0.000392878 10
-13.6007 -15.6458 4.7861 0.000380986 10
-13.5924 -15.6363 5.55144 0.000367477 10
-6.58076 -7.62389 -2.69858 6.30666e-05 4
-7.65648 -8.87011 -2.70521 0.000771339 4
-8.72273 -10.1054 -2.59485 9.98661e-05 4
-11.3267 -13.1222 -2.74552 7.61866e-05 1
-13.5678 -15.7185 -2.54954 0.000522201 10
-13.5628 -15.7127 -1.81597 0.00053 10
-6.97603 -8.08181 -0.559514 0.00248913 8
-21.456 -24.857 -0.573161 0.000114376 10
-21.441 -24.8396 0.572761 0.000114349 10
-13.5762 -15.7282 1.08888 0.000417049 10
-13.5833 -15.7364 1.81871 0.000412815 10
-13.601 -15.7569 2.55576 0.000209096 10
-13.5958 -15.7508 3.29551 0.000204917 10
-13.5732 -15.7247 4.03778 0.000388349 10
-13.5856 -15.7391 4.80011 0.000376585 10
-13.5718 -15.7231 5.5654 0.000363221 10
-6.55738 -7.65063 -2.69993 5.3608e-05 4
-7.59968 -8.86669 -2.69606 0.000635831 4
-8.67202 -10.1178 -2.59025 0.00016374 4
-11.2848 -13.1662 -2.74648 7.61901e-05 1
-13.5545 -15.8144 -2.5574 0.000516156 10
-13.5577 -15.818 -1.82266 0.000523869 10
-6.96688 -8.1284 -0.561053 0.00251679 8
-21.4279 -25.0004 -0.57474 0.000112851 10
-21.4214 -24.9928 0.574564 0.000112824 10
-13.5616 -15.8226 1.09214 0.000412227 10
-13.5634 -15.8246 1.82343 0.000408039 10
-13.5234 -15.7781 2.55153 0.000331002 10
-13.5164 -15.7698 3.28959 0.000324389 10
-13.5613 -15.8222 4.05064 0.000383838 10
-13.5677 -15.8297 4.81326 0.000372201 10
-13.5618 -15.8228 5.58391 0.000358983 10
-6.53762 -7.68168 -2.70282 0.000179749 4
-7.53906 -8.85837 -2.68551 0.000599019 4
-8.65283 -10.167 -2.59511 0.000141681 4
-11.2292 -13.1942 -2.74413 7.61937e-05 1
-13.5411 -15.9107 -2.56532 0.000510133 10
-6.9454 -8.16082 -0.937549 0.00226321 8
-6.95018 -8.16643 -0.562 0.0025304 8
-6.96105 -8.17921 -0.187474 0.00159897 8
-13.6242 -16.0084 0.366924 0.000279991 10
-13.5413 -15.911 1.09497 0.000407424 10
-13.5414 -15.9111 1.82793 0.00040328 10
-13.4153 -15.7629 2.54149 0.00033683 10
-13.4119 -15.7589 3.27752 0.000330108 10
-13.5527 -15.9243 4.06464 0.000379343 10
-13.5542 -15.9261 4.82816 0.000367833 10
-13.5223 -15.8886 5.59044 0.000124345 10
-6.51076 -7.70444 -2.70282 0.000154525 4
-7.46831 -8.83755 -2.67128 0.000879103 4
-8.61562 -10.1952 -2.5946 0.000142847 4
-11.1989 -13.2521 -2.74803 7.61973e-05 1
-13.5213 -16.0003 -2.57214 0.000504134 10
-6.94767 -8.22146 -0.941723 0.00230408 8
-6.95197 -8.22654 -0.564463 0.00254327 8
-6.94272 -8.21559 -0.187751 0.0026187 8
-13.521 -15.9999 0.365647 0.000342874 10
-13.5347 -16.0161 1.09894 0.000402639 10
-13.5301 -16.0107 1.83394 0.000398541 10
-13.302 -15.7408 2.53043 0.000342712 10
-13.306 -15.7455 3.26507 0.00033588 10
-13.5307 -16.0115 4.0748 0.000374866 10
-13.5194 -15.9981 4.83565 0.000363483 10
-13.5325 -16.0136 5.61776 0.000350554 10
-6.47522 -7.71687 -2.69923 4.09974e-05 4
-7.40652 -8.82675 -2.66018 0.000756289 4
-8.5821 -10.2277 -2.59524 0.000180017 4
-11.1498 -13.2878 -2.74733 7.62008e-05 1
-13.5087 -16.099 -2.58042 0.000498159 10
-6.93947 -8.27014 -0.944519 0.00230569 8
-6.93005 -8.25891 -0.565021 0.0025682 8
-6.94005 -8.27083 -0.188459 0.00254042 8
-21.3404 -25.4325 0.579504 0.000108298 10
-13.515 -16.1066 1.10191 0.000397873 10
-13.5041 -16.0936 1.83802 0.00039382 10
-13.2043 -15.7362 2.52226 0.000415938 10
-13.2004 -15.7316 3.25261 0.000407587 10
-13.5113 -16.1021 4.08584 0.000370407 10
-13.504 -16.0934 4.8502 0.00035915 10
-13.5175 -16.1096 5.63486 0.000346365 10
-6.45417 -7.74653 -2.70171 0.000195531 4
-7.35268 -8.82495 -2.65189 0.000986425 4
-8.5358 -10.245 -2.59204 0.000131243 4
-11.0898 -13.3104 -2.74399 7.62045e-05 1
-13.495 -16.1972 -2.58858 0.000492208 10
-6.92828 -8.31558 -0.946941 0.00233192 8
-6.93522 -8.32391 -0.567808 0.00259214 8
-6.92306 -8.30931 -0.188784 0.00247599 8
-13.5603 -16.2756 0.369773 0.000277074 10
-13.4843 -16.1843 1.104 0.000393126 10
-13.5008 -16.2041 1.84525 0.000389118 10
-13.1928 -15.8345 2.53062 0.000410997 10
-13.195 -15.8372 3.26489 0.000402738 10
-13.4855 -16.1858 4.09511 0.000365967 10
-13.4874 -16.1881 4.86449 0.000354836 10
-13.5019 -16.2055 5.65188 0.000342194 10
-6.42252 -7.76349 -2.69979 5.67685e-05 4
-7.28903 -8.81093 -2.64001 0.000632357 4
-8.50951 -10.2862 -2.59495 0.0001719 4
-11.0474 -13.354 -2.74501 7.62082e-05 1
-13.4805 -16.2951 -2.5967 0.000486282 10
-6.91725 -8.36152 -0.949416 0.00235716 8
-6.91028 -8.35309 -0.56815 0.0026151 8
-6.91388 -8.35745 -0.189328 0.00238729 8
-13.4694 -16.2817 0.368843 0.000330752 10
-13.4765 -16.2903 1.10801 0.000388399 10
-13.4807 -16.2954 1.85027 0.000384436 10
-13.472 -16.2848 2.59506 0.000378591 10
-13.4763 -16.29 3.34853 0.000370931 10
-13.4761 -16.2899 4.1095 0.000361544 10
-13.4867 -16.3026 4.88473 0.000350539 10
-13.4768 -16.2907 5.66516 0.00033804 10
-6.40161 -7.79344 -2.70242 0.000164002 4
-6.87988 -8.3757 -2.50239 0.00158872 8
-6.89154 -8.38989 -2.11047 0.00163144 8
-6.87767 -8.37301 -1.71619 0.0016677 8
-6.88133 -8.37747 -1.33115 0.00169714 8
-6.87787 -8.37326 -0.948018 0.00171946 8
-6.89117 -8.38944 -0.568983 0.00173444 8
-6.91026 -8.41269 -0.190032 0.00231243 8
-13.5868 -16.5408 0.373635 0.000269632 10
-13.4486 -16.3726 1.11041 0.000383692 10
-13.4666 -16.3946 1.85619 0.000379774 10
-13.4588 -16.385 2.60351 0.000373995 10
-13.4529 -16.3778 3.3569 0.000366422 10
-13.4565 -16.3822 4.12093 0.000357142 10
-13.4605 -16.3871 4.89594 0.000346261 10
-13.4658 -16.3936 5.68455 0.000333905 10
-6.38061 -7.8234 -2.70506 0.00024601 4
-6.87451 -8.42898 -2.51113 0.00185007 8
-6.86873 -8.4219 -2.11248 0.00189956 8
-6.87032 -8.42383 -1.72168 0.00194151 8
-6.86554 -8.41798 -1.33377 0.0019755 8
-6.87701 -8.43204 -0.95195 0.00200121 8
-6.86585 -8.41836 -0.569315 0.00201836 8
-6.90386 -8.46497 -0.190667 0.0022387 8
-13.487 -16.5367 0.372477 0.000274209 10
-13.4341 -16.4719 1.11396 0.000379006 10
-13.4359 -16.474 1.85986 0.000375132 10
-13.4343 -16.4721 2.60988 0.000369419 10
-13.4443 -16.4844 3.3691 0.000361932 10
-13.4369 -16.4752 4.13251 0.000352758 10
-13.4478 -16.4886 4.91221 0.000342002 10
-13.4408 -16.4801 5.69825 0.000329788 10
-6.33687 -7.82539 -2.69809 0.000227092 4
-7.16504 -8.84809 -2.62852 0.000921217 4
-8.39272 -10.3641 -2.59229 0.00016495 4
-10.9064 -13.4682 -2.74486 7.62192e-05 1
-13.4269 -16.5808 -2.61967 0.000468657 10
-6.89177 -8.51062 -0.9581 0.0024271 8
-6.88547 -8.50285 -0.5734 0.00239945 8
-6.89178 -8.51064 -0.191153 0.00217827 8
-13.4221 -16.5749 0.372279 0.000318785 10
-13.4135 -16.5643 1.11703 0.000374341 10
-13.426 -16.5797 1.86649 0.000370511 10
-13.4251 -16.5787 2.61933 0.000364863 10
-13.417 -16.5686 3.37672 0.000357463 10
-13.4238 -16.5771 4.14627 0.000348394 10
-13.4231 -16.5761 4.9243 0.000337763 10
-13.4231 -16.5762 5.71524 0.000325689 10
-6.30999 -7.84805 -2.69829 6.30827e-05 4
-7.15108 -8.89415 -2.63477 0.000891226 4
-8.36275 -10.4012 -2.59423 0.000153339 4
-10.8662 -13.5148 -2.74661 7.6223e-05 1
-13.4005 -16.6669 -2.62586 0.000462836 10
-6.88075 -8.55792 -0.960714 0.0024485 8
-6.8885 -8.56756 -0.576139 0.00232566 8
-6.87479 -8.55051 -0.191508 0.00209462 8
-13.522 -16.818 0.376677 0.000266943 10
-13.4109 -16.6798 1.12166 0.000369696 10
-13.4063 -16.674 1.87183 0.000365911 10
-13.403 -16.67 2.62635 0.000360328 10
-13.4064 -16.6742 3.38869 0.000353014 10
-13.4048 -16.6722 4.15833 0.00034405 10
-13.4077 -16.6758 4.93997 0.000333542 10
-13.4166 -16.6869 5.73722 0.00032161 10
-6.29697 -7.88808 -2.70448 0.000227104 4
-7.14606 -8.95171 -2.64442 0.000971971 4
-8.31396 -10.4147 -2.59036 0.000173094 4
-10.8244 -13.5595 -2.74799 7.62268e-05 1
-13.3872 -16.7699 -2.63472 0.00045704 10
-6.87662 -8.6142 -0.964331 0.00245719 8
-6.86507 -8.59973 -0.576687 0.00225299 8
-6.87019 -8.60613 -0.192216 0.00203618 8
-13.3998 -16.7856 0.374902 0.000271387 10
-13.3838 -16.7655 1.12428 0.000365073 10
-13.3957 -16.7805 1.87852 0.000361332 10
-13.3875 -16.7702 2.63477 0.000355815 10
-13.3868 -16.7693 3.3985 0.000348585 10
-13.3997 -16.7854 4.17489 0.000339727 10
-13.3845 -16.7665 4.95298 0.000329342 10
-13.3891 -16.7722 5.75046 0.00031755 10
-6.26147 -7.90001 -2.70106 7.88575e-05 4
-7.13636 -9.00384 -2.65244 0.00105094 4
-8.28812 -10.457 -2.59366 0.000149866 4
-10.7603 -13.5761 -2.74374 7.62306e-05 1
-13.3615 -16.858 -2.64121 0.000451273 10
-6.85707 -8.65146 -0.965818 0.00238381 8
-6.86484 -8.66128 -0.579204 0.00216972 8
-6.86103 -8.65646 -0.192804 0.00196681 8
-13.3623 -16.859 0.375498 0.00030698 10
-13.3792 -16.8804 1.12884 0.000360473 10
-13.3748 -16.8748 1.88384 0.000356776 10
-13.3793 -16.8805 2.64474 0.000351323 10
-13.3812 -16.8828 3.41202 0.000344178 10
-13.3728 -16.8722 4.18483 0.000335424 10
-13.3794 -16.8806 4.97286 0.000325162 10
-13.3727 -16.8721 5.76868 0.00031351 10
-6.23613 -7.92471 -2.70204 0.000283895 4
-7.12492 -9.05416 -2.65992 0.000918736 4
-8.2465 -10.4794 -2.59207 0.000162651 4
-10.7218 -13.625 -2.74604 7.62344e-05 1
-13.3424 -16.9552 -2.64912 0.000445533 10
-13.3562 -16.9728 -1.88956 0.000452254 10
-6.85685 -8.7135 -0.581092 0.00211103 8
-13.4378 -17.0763 -0.379291 0.000264303 10
-13.4295 -17.0659 0.379058 0.00026429 10
-13.3571 -16.9739 1.13197 0.000355894 10
-13.3469 -16.9608 1.88823 0.00035224 10
-13.3513 -16.9665 2.65089 0.000346852 10
-13.3552 -16.9714 3.42048 0.000339793 10
-13.3621 -16.9802 4.20002 0.000331143 10
-13.3473 -16.9614 4.98291 0.000321003 10
-13.3503 -16.9652 5.78454 0.000309489 10
-6.2032 -7.93973 -2.69977 9.14796e-05 4
-7.11365 -9.10505 -2.66756 0.000849213 4
-8.2093 -10.5074 -2.59189 0.000148716 4
-10.6775 -13.6665 -2.74687 7.62382e-05 1
-13.3268 -17.0575 -2.65784 0.000439823 10
-13.3304 -17.0621 -1.89432 0.000446462 10
-6.84525 -8.76152 -0.582698 0.00204173 8
-13.3247 -17.0548 -0.377778 0.00029927 10
-13.3417 -17.0766 0.37826 0.000299204 10
-13.331 -17.0629 1.13479 0.000351339 10
-13.3377 -17.0714 1.89535 0.000347728 10
-13.3281 -17.0591 2.65808 0.000342404 10
-13.3284 -17.0596 3.42886 0.000335429 10
-13.3296 -17.061 4.20849 0.000326883 10
-13.3408 -17.0755 5.0027 0.000316864 10
-13.3453 -17.0812 5.80816 0.000305489 10
-6.18557 -7.97438 -2.70419 0.000100946 4
-7.09903 -9.15201 -2.67404 0.000608877 4
-8.17787 -10.5428 -2.59357 0.000135941 4
-10.6187 -13.6896 -2.74404 7.62421e-05 1
-13.3088 -17.1576 -2.66617 0.00043414 10
-13.3074 -17.1557 -1.89954 0.0004407 10
-6.83707 -8.8143 -0.584617 0.00197353 8
-13.4657 -17.3599 -0.383492 0.000257522 10
-13.4497 -17.3393 0.383037 0.000257508 10
-13.3077 -17.1562 1.1379 0.000346806 10
-13.3124 -17.1622 1.90026 0.000343238 10
-13.3188 -17.1704 2.66816 0.000337978 10
-13.3103 -17.1595 3.43958 0.000331087 10
-13.3121 -17.1618 4.22186 0.000322644 10
-13.3191 -17.1708 5.01699 0.000312747 10
-13.3202 -17.1722 5.82327 0.000301509 10
-6.14528 -7.9798 -2.69874 0.000359629 4
-7.09509 -9.21316 -2.68466 0.000687745 4
-8.14157 -10.572 -2.59374 0.000147565 4
-10.5738 -13.7303 -2.74479 7.6246e-05 1
-13.2942 -17.2628 -2.67529 0.000428488 10
-13.2977 -17.2674 -1.90676 0.000434967 10
-13.35 -17.3353 -1.14668 0.000260373 10
-13.3421 -17.3251 -0.381693 0.00026168 10
-13.3447 -17.3285 0.381767 0.000261667 10
-13.303 -17.2742 1.14264 0.000342296 10
-13.3017 -17.2726 1.90733 0.000338772 10
-13.299 -17.2691 2.67627 0.000333576 10
-13.3047 -17.2765 3.4537 0.000326768 10
-13.3021 -17.2731 4.23779 0.000318428 10
-13.2976 -17.2673 5.03158 0.000308651 10
-13.3016 -17.2724 5.84147 0.000297551 10
-6.12263 -8.00806 -2.70105 0.000208212 4
-7.08603 -9.26814 -2.69345 0.0008232 4
-8.09317 -10.5854 -2.59008 0.000138275 4
-10.5222 -13.7625 -2.74387 7.62499e-05 1
-13.2846 -17.3755 -2.68556 0.000422865 10
-13.2802 -17.3698 -1.91293 0.000429264 10
-13.2808 -17.3705 -1.14594 0.000286364 10
-13.2868 -17.3784 -0.381842 0.000287752 10
-13.2729 -17.3602 0.381442 0.000287688 10
-13.2764 -17.3649 1.14557 0.00033781 10
-13.2792 -17.3684 1.91278 0.000334329 10
-13.2906 -17.3834 2.68678 0.000329196 10
-13.2764 -17.3647 3.46205 0.000322472 10
-13.2795 -17.3688 4.24987 0.000314233 10
-13.276 -17.3642 5.0463 0.000304577 10
-13.2771 -17.3657 5.8573 0.000293613 10
-6.09558 -8.03062 -2.70147 0.000157741 4
-7.0604 -9.30174 -2.69604 0.000532367 4
-8.06639 -10.6271 -2.59337 0.000128985 4
-10.4852 -13.8138 -2.74677 7.62538e-05 1
-13.2658 -17.477 -2.69407 0.000417272 10
-13.2573 -17.4659 -1.9184 0.000423592 10
-13.3611 -17.6025 -1.15816 0.000253765 10
-13.3593 -17.6002 -0.385689 0.000255043 10
-13.3706 -17.6152 0.386016 0.00025503 10
-13.2667 -17.4782 1.14998 0.000333348 10
-13.2581 -17.4669 1.91851 0.00032991 10
-13.2548 -17.4625 2.69183 0.00032484 10
-13.2697 -17.4822 3.47622 0.000318198 10
-13.2573 -17.4659 4.26226 0.000310062 10
-13.2646 -17.4754 5.06512 0.000300525 10
-13.2594 -17.4686 5.87637 0.000289697 10
-6.07083 -8.05626 -2.70295 0.000182984 4
-7.05275 -9.35932 -2.70558 0.000907543 4
-8.02269 -10.6465 -2.59125 0.000110397 4
-10.4368 -13.8501 -2.74673 7.62578e-05 1
-13.2438 -17.5751 -2.70204 0.000411709 10
-13.2399 -17.5699 -1.92474 0.00041795 10
-13.2555 -17.5906 -1.15433 0.000257786 10
-13.2464 -17.5786 -0.384199 0.000259083 10
-13.2455 -17.5774 0.384174 0.00025907 10
-13.2452 -17.577 1.15343 0.00032891 10
-13.2501 -17.5835 1.92623 0.000325514 10
-13.2492 -17.5823 2.70316 0.000320507 10
-13.2396 -17.5696 3.48437 0.000313948 10
-13.2515 -17.5853 4.2801 0.000305913 10
-13.243 -17.5741 5.08028 0.000296495 10
-13.2567 -17.5923 5.90236 0.000285803 10
-6.0382 -8.07143 -2.70095 0.000356514 4
-7.04523 -9.41755 -2.71528 0.000791164 4
-7.98192 -10.6697 -2.5901 0.00013713 4
-10.3913 -13.8904 -2.74752 7.62618e-05 1
-13.2191 -17.6704 -2.70958 0.000406177 10
-13.2249 -17.6781 -1.93152 0.00041234 10
-20.8991 -27.9364 0.608983 8.5519e-05 10
-13.2206 -17.6724 1.15666 0.000324497 10
-13.2182 -17.6691 1.93054 0.000321143 10
-13.2288 -17.6833 2.71157 0.000316199 10
-13.2336 -17.6897 3.49901 0.000309722 10
-13.2231 -17.6757 4.29084 0.000301787 10
-13.2324 -17.6881 5.09986 0.000292488 10
-13.2302 -17.6851 5.91798 0.00028193 10
-6.00845 -8.09039 -2.70026 0.000189305 4
-7.03177 -9.46829 -2.72282 0.000795128 4
-7.94376 -10.6963 -2.58981 0.000153406 4
-10.3415 -13.9249 -2.74719 7.62658e-05 1
-13.1965 -17.7691 -2.71765 0.000400677 10
-13.2121 -17.7902 -1.93872 0.000406761 10
-13.2628 -17.8584 -1.16579 0.000251316 10
-13.2583 -17.8523 -0.388149 0.000252585 10
-13.2711 -17.8696 0.388525 0.000252572 10
-13.2051 -17.7807 1.16072 0.000320109 10
-13.2002 -17.7741 1.93697 0.000316797 10
-13.2013 -17.7756 2.71864 0.000311915 10
-13.2039 -17.7791 3.50757 0.00030552 10
-13.2166 -17.7962 4.30887 0.000297685 10
-13.212 -17.79 5.11591 0.000288503 10
-13.211 -17.7886 5.93714 0.00027808 10
-5.98453 -8.11721 -2.70222 3.7862e-05 4
-7.02153 -9.52377 -2.73171 0.000798855 4
-7.90654 -10.7242 -2.58986 0.000168521 4
-10.2788 -13.9418 -2.74343 7.62698e-05 1
-13.1906 -17.8913 -2.72928 0.000395208 10
-13.1822 -17.8799 -1.94348 0.000401215 10
-13.1829 -17.8808 -1.16425 0.000267663 10
-13.1849 -17.8835 -0.387825 0.000268966 10
-13.1875 -17.8871 0.387902 0.000268904 10
-13.1848 -17.8834 1.16441 0.000315745 10
-13.184 -17.8823 1.94374 0.000312476 10
-13.1834 -17.8815 2.72778 0.000307656 10
-13.197 -17.9 3.5223 0.000301342 10
-13.199 -17.9027 4.32347 0.000293607 10
-13.1838 -17.882 5.12911 0.000284542 10
-13.1992 -17.903 5.9599 0.000274252 10
-5.96035 -8.14378 -2.70412 0.000261886 4
-7.00081 -9.56538 -2.73662 0.000735485 4
-7.87284 -10.7569 -2.59111 0.000152256 4
-10.2399 -13.9911 -2.74607 7.62738e-05 1
-13.1704 -17.995 -2.73806 0.000389772 10
-13.1699 -17.9943 -1.9509 0.000395701 10
-13.2715 -18.1332 -1.17766 0.000245116 10
-13.2822 -18.1479 -0.39255 0.000246357 10
-13.2829 -18.1488 0.39257 0.000246344 10
-13.1703 -17.9949 1.16867 0.000311408 10
-13.172 -17.9973 1.95122 0.00030818 10
-13.1505 -17.9679 2.73393 0.000290828 10
-13.1558 -17.9751 3.52802 0.000284909 10
-13.1733 -17.999 4.33559 0.000289553 10
-13.1753 -18.0017 5.15022 0.000280605 10
-13.1414 -17.9555 5.96207 0.000259431 10
-5.92625 -8.15678 -2.70155 0.000186165 4
-6.98203 -9.60994 -2.74238 0.000302492 1
-7.83584 -10.7851 -2.59131 0.000175508 4
-10.1812 -14.0132 -2.74341 7.62779e-05 1
-13.1407 -18.0866 -2.745 0.000384368 10
-13.1382 -18.0832 -1.95555 0.00039022 10
-13.1579 -18.1103 -1.17318 0.000248883 10
-13.1677 -18.1237 -0.391032 0.000250142 10
-13.1686 -18.125 0.391057 0.000250129 10
-13.1415 -18.0877 1.17171 0.000307096 10
-13.1549 -18.1061 1.95803 0.00030391 10
-13.0382 -17.9455 2.72359 0.000295294 10
-13.031 -17.9356 3.51133 0.000289289 10
-13.1545 -18.1056 4.35018 0.000285523 10
-13.1539 -18.1048 5.16656 0.000276691 10
-13.0427 -17.9518 5.94569 0.000263446 10
-5.88922 -8.1656 -2.69765 0.000126217 4
-6.94264 -9.62621 -2.74009 0.000302502 1
-7.79953 -10.8143 -2.59177 0.000168541 4
-10.1446 -14.0659 -2.74678 7.6282e-05 1
-13.1237 -18.1964 -1.96283 0.000384772 10
-13.1268 -18.2008 -1.17606 0.0002567 10
-13.1325 -18.2086 -0.391871 0.000257952 10
-13.1346 -18.2116 0.391935 0.000257893 10
-13.1372 -18.2151 1.17699 0.00030281 10
-13.1251 -18.1984 1.96304 0.000299665 10
-12.9235 -17.9188 2.71268 0.000299791 10
-12.9347 -17.9344 3.50224 0.000293702 10
-13.1269 -18.2008 4.36203 0.000281518 10
-13.1267 -18.2006 5.18077 0.000272801 10
-12.931 -17.9293 5.92325 0.00026749 10
-5.86716 -8.19516 -2.70063 0.000135688 4
-6.91708 -9.66167 -2.74329 0.000302512 1
-7.76983 -10.8528 -2.59447 0.0001546 4
-10.0899 -14.0934 -2.74526 7.62861e-05 1
-13.1025 -18.3013 -1.9692 0.000379357 10
-13.1613 -18.3836 -1.1849 0.000242803 10
-13.1761 -18.4042 -0.395088 0.000244034 10
-13.1724 -18.399 0.394977 0.000244022 10
-13.1069 -18.3075 1.18 0.000298551 10
-13.1147 -18.3184 1.97104 0.000295447 10
-12.816 -17.9012 2.70322 0.000312499 10
-12.8127 -17.8966 3.48608 0.000306101 10
-13.1183 -18.3235 4.38042 0.000277538 10
-13.1195 -18.3251 5.20313 0.000268936 10
-12.8235 -17.9117 5.90261 0.000278649 10
-5.84272 -8.2215 -2.70258 0.000227205 4
-6.87943 -9.68029 -2.74174 0.000302523 1
-7.72638 -10.8721 -2.59262 0.000542463 4
-10.0347 -14.1203 -2.74366 7.62902e-05 1
-13.0808 -18.4064 -1.97559 0.000373977 10
-13.0918 -18.4219 -1.18442 0.000249502 10
-13.0957 -18.4274 -0.394602 0.000250721 10
-13.0948 -18.4262 0.394577 0.000250663 10
-13.092 -18.4222 1.18443 0.000294318 10
-13.0875 -18.4159 1.9766 0.000291255 10
-12.7949 -18.0041 2.712 0.000308088 10
-12.8078 -18.0224 3.50186 0.000301774 10
-13.0955 -18.4272 4.39426 0.000273583 10
