VERSION 0.7
FIELDS x y z intensity label
SIZE 4 4 4 4 4
TYPE F F F F F
COUNT 1 1 1 1 1
WIDTH 1175
HEIGHT 1
VIEWPOINT 5.17721 41.0019 2.72872 0.765926 -0.00050431 0.00052858 0.642929
POINTS 1175
DATA ascii
0.724212 -12.9535 -1.13505 0.00261414 10
0.724505 -12.9587 -0.680199 0.00263781 10
0.725414 -12.975 -0.226833 0.00264973 10
0.724894 -12.9657 0.22667 0.00264979 10
0.724302 -12.9551 0.680009 0.00263797 10
0.724743 -12.963 1.13589 0.00203849 10
0.725209 -12.9713 1.59517 0.00201115 10
0.724053 -12.9507 2.05439 0.00197512 10
0.724216 -12.9536 2.52185 0.00193077 10
0.724113 -12.9517 2.99481 0.00187856 10
0.72475 -12.9631 3.47888 0.00181902 10
0.561552 -9.452 -2.53712 0.000403976 4
0.700937 -11.7981 -2.72861 0.000307297 1
0.770549 -12.9698 -2.52552 0.00247943 10
0.768918 -12.9424 -2.05348 0.00253648 10
0.769009 -12.9439 -1.59212 0.00258286 10
0.770012 -12.9608 -1.13592 0.00261808 10
0.769079 -12.9451 -0.679619 0.00264178 10
0.768937 -12.9427 -0.226314 0.00265372 10
0.768857 -12.9414 0.22629 0.00265378 10
0.770172 -12.9635 0.680586 0.00264195 10
0.769381 -12.9502 1.13499 0.00204156 10
0.769256 -12.9481 1.59262 0.00201418 10
0.769585 -12.9536 2.05527 0.0019781 10
0.769453 -12.9514 2.52193 0.00193369 10
0.770506 -12.9691 2.99943 0.0018814 10
0.77042 -12.9677 3.4808 0.00182178 10
0.594821 -9.45444 -2.53832 0.000489251 4
0.742641 -11.804 -2.73055 0.000307322 1
0.81402 -12.9385 -2.51996 0.00248306 10
0.81449 -12.946 -2.0545 0.00254019 10
0.814362 -12.9439 -1.59246 0.00258663 10
0.815121 -12.956 -1.13575 0.0026219 10
0.814171 -12.9409 -0.679546 0.00264564 10
0.815012 -12.9543 -0.226565 0.0026576 10
0.814209 -12.9415 0.226341 0.00265765 10
0.815311 -12.959 0.680497 0.00264581 10
0.814079 -12.9394 1.13429 0.00204455 10
0.81386 -12.936 1.59148 0.00201713 10
0.814568 -12.9472 2.05469 0.001981 10
0.814915 -12.9527 2.52273 0.00193652 10
0.814493 -12.946 2.99474 0.00188417 10
0.814287 -12.9428 3.47486 0.00182445 10
0.626985 -9.43972 -2.53494 0.000522644 4
0.783607 -11.7978 -2.72974 0.000307347 1
0.859384 -12.9387 -2.52056 0.00248659 10
0.859327 -12.9378 -2.05366 0.0025438 10
0.858947 -12.9321 -1.59136 0.0025903 10
0.858759 -12.9293 -1.13366 0.00262562 10
0.858998 -12.9329 -0.679276 0.00264939 10
0.859321 -12.9377 -0.226326 0.00266136 10
0.859609 -12.9421 0.226402 0.00266141 10
0.860373 -12.9536 0.680363 0.00264955 10
0.860078 -12.9491 1.1354 0.00204744 10
0.859498 -12.9404 1.59238 0.00201999 10
0.859159 -12.9353 2.05326 0.00198381 10
0.859803 -12.945 2.52179 0.00193927 10
0.858756 -12.9292 2.99152 0.00188684 10
0.858809 -12.93 3.47222 0.00182705 10
0.660485 -9.44539 -2.53707 0.000500437 4
0.824422 -11.7898 -2.72854 0.000307372 1
0.904744 -12.9385 -2.52112 0.00249 10
0.905029 -12.9425 -2.0549 0.00254729 10
0.904708 -12.9379 -1.59246 0.00259385 10
0.905301 -12.9464 -1.13543 0.00262922 10
0.904937 -12.9412 -0.679876 0.00265301 10
0.903504 -12.9207 -0.226083 0.002665 10
0.905076 -12.9432 0.226476 0.00266506 10
0.903766 -12.9245 0.678997 0.00265318 10
0.903641 -12.9227 1.13335 0.00205025 10
0.903524 -12.921 1.59038 0.00202276 10
0.903578 -12.9218 2.05161 0.00198653 10
0.90474 -12.9384 2.52111 0.00194194 10
0.903381 -12.919 2.98986 0.00188944 10
0.904036 -12.9283 3.47259 0.00182957 10
0.693549 -9.44434 -2.53742 0.000507885 4
0.864528 -11.7726 -2.72525 0.000307396 1
0.950071 -12.9375 -2.52157 0.00249331 10
0.949914 -12.9354 -2.05428 0.00255067 10
0.948754 -12.9196 -1.5906 0.00259729 10
0.94838 -12.9145 -1.13291 0.0026327 10
0.948018 -12.9096 -0.678383 0.00265653 10
0.949069 -12.9239 -0.226194 0.00266853 10
0.948829 -12.9206 0.226137 0.00266859 10
0.94919 -12.9255 0.679222 0.00265669 10
0.949982 -12.9363 1.13483 0.00205296 10
0.948188 -12.9119 1.58965 0.00202544 10
0.948527 -12.9165 2.05128 0.00198917 10
0.947975 -12.909 2.51601 0.00194452 10
0.9486 -12.9175 2.99027 0.00189195 10
0.949303 -12.9271 3.47312 0.00183201 10
0.725834 -9.43307 -2.53506 0.000404111 4
0.906518 -11.7813 -2.72796 0.000307421 1
0.994257 -12.9215 -2.51912 0.00249651 10
0.992738 -12.9018 -2.04949 0.00255394 10
0.994302 -12.9221 -1.59133 0.00260062 10
0.992849 -12.9032 -1.13222 0.00263607 10
0.994238 -12.9213 -0.679179 0.00265992 10
0.992917 -12.9041 -0.225908 0.00267194 10
0.993099 -12.9065 0.22595 0.002672 10
0.992734 -12.9018 0.678151 0.00266009 10
0.993427 -12.9108 1.13288 0.00205559 10
0.99445 -12.9241 1.59157 0.00202803 10
0.9949 -12.9299 2.05395 0.00199171 10
0.993727 -12.9147 2.51778 0.00194701 10
0.993709 -12.9144 2.99034 0.00189439 10
0.994726 -12.9276 3.47419 0.00183437 10
0.758641 -9.42904 -2.53467 0.000493122 4
0.947813 -11.7802 -2.72847 0.000307446 1
1.03969 -12.9221 -2.51992 0.0024996 10
1.03863 -12.9089 -2.05118 0.00255709 10
1.03932 -12.9176 -1.59121 0.00260383 10
1.03859 -12.9085 -1.13299 0.00263932 10
1.03888 -12.9121 -0.678883 0.0026632 10
1.03872 -12.9101 -0.226074 0.00267524 10
1.03908 -12.9146 0.226153 0.00267529 10
1.03819 -12.9035 0.678429 0.00266337 10
1.0381 -12.9024 1.13246 0.00205813 10
1.03847 -12.907 1.5899 0.00203053 10
1.03925 -12.9167 2.05242 0.00199418 10
1.03892 -12.9126 2.51806 0.00194942 10
1.03889 -12.9122 2.99065 0.00189673 10
1.03913 -12.9152 3.47181 0.00183664 10
0.792908 -9.4425 -2.53901 0.000507987 4
0.988448 -11.7711 -2.72714 0.00030747 1
1.08403 -12.9094 -2.51816 0.00250258 10
1.08259 -12.8923 -2.04912 0.00256014 10
1.08376 -12.9061 -1.59025 0.00260692 10
1.08224 -12.8881 -1.13153 0.00264246 10
1.08259 -12.8923 -0.678032 0.00266637 10
1.0824 -12.89 -0.225788 0.00267842 10
1.08341 -12.902 0.225997 0.00267847 10
1.08447 -12.9146 0.679209 0.00266654 10
1.0824 -12.8899 1.13169 0.00206057 10
1.08281 -12.8949 1.58887 0.00203295 10
1.08359 -12.9041 2.05101 0.00199655 10
1.08278 -12.8945 2.51526 0.00195174 10
1.08385 -12.9072 2.99036 0.001899 10
1.08213 -12.8868 3.46516 0.00183884 10
0.824839 -9.42796 -2.53586 0.000400484 4
1.03019 -11.7751 -2.72889 0.000307495 1
1.12672 -12.8785 -2.51288 0.00250544 10
1.1274 -12.8863 -2.04878 0.00256307 10
1.12799 -12.893 -1.58911 0.0026099 10
1.12915 -12.9063 -1.13347 0.00264548 10
1.12679 -12.8792 -0.67755 0.00266941 10
1.12712 -12.883 -0.225733 0.00268147 10
1.12793 -12.8923 0.225896 0.00268153 10
1.12723 -12.8843 0.677818 0.00266958 10
1.12849 -12.8987 1.1328 0.00206293 10
1.12737 -12.8859 1.58823 0.00203528 10
1.12725 -12.8845 2.0485 0.00199884 10
1.12722 -12.8842 2.514 0.00195398 10
1.12865 -12.9005 2.98969 0.00190118 10
1.12899 -12.9044 3.47092 0.00184095 10
0.85786 -9.42631 -2.53621 0.000515472 4
1.06985 -11.7557 -2.72523 0.00030752 1
1.19405 -13.1205 -2.5609 0.000200056 10
1.19655 -13.1479 -2.09102 0.000204195 10
1.19656 -13.148 -1.62104 0.00020746 10
1.19724 -13.1554 -1.15571 0.000209817 10
1.19885 -13.1731 -0.693227 0.000211241 10
1.1993 -13.1782 -0.230976 0.000211718 10
1.19996 -13.1854 0.231102 0.000211243 10
1.19948 -13.1801 0.693594 0.00020982 10
1.17216 -12.8799 1.1315 0.00206519 10
1.17182 -12.8761 1.58752 0.00203751 10
1.1722 -12.8804 2.04848 0.00200103 10
1.17243 -12.8828 2.51452 0.00195613 10
1.17342 -12.8937 2.98905 0.00190327 10
1.17157 -12.8735 3.46369 0.00184298 10
0.890648 -9.42209 -2.5359 0.00047842 4
1.11185 -11.7622 -2.72763 0.000307544 1
1.29554 -13.7053 -2.67593 0.00017079 10
1.29544 -13.7043 -2.18023 0.000174336 10
1.29575 -13.7077 -1.69059 0.000177128 10
1.35519 -14.3364 -1.25987 0.00130548 10
1.35588 -14.3438 -0.755077 0.00131754 10
1.35608 -14.3459 -0.251525 0.00132362 10
1.35525 -14.337 0.251369 0.00132365 10
1.35651 -14.3504 0.755424 0.00131763 10
1.21713 -12.8759 1.13152 0.00206737 10
1.21651 -12.8693 1.5872 0.00203966 10
1.21677 -12.8721 2.04782 0.00200314 10
1.21662 -12.8705 2.51292 0.0019582 10
1.21801 -12.8852 2.98805 0.00190528 10
1.21729 -12.8776 3.46592 0.00184493 10
0.92309 -9.41441 -2.53468 0.000589719 4
1.15327 -11.762 -2.72848 0.000307569 1
1.36948 -13.9671 -2.72795 0.000167511 1
1.40538 -14.3332 -2.28104 0.000147584 10
1.40605 -14.34 -1.76918 0.000149953 10
1.40646 -14.3442 -1.26098 0.000100171 10
1.40615 -14.341 -0.755185 0.000100842 10
1.4087 -14.3671 -0.251981 0.000101052 10
1.41001 -14.3804 0.252214 0.000100801 10
1.40964 -14.3766 0.75706 0.000100089 10
1.26188 -12.8697 1.13135 0.00206945 10
1.26104 -12.8611 1.58672 0.00204171 10
1.26268 -12.8778 2.04943 0.00200516 10
1.26041 -12.8547 2.51068 0.00196017 10
1.26178 -12.8687 2.98521 0.00190721 10
1.26211 -12.872 3.46558 0.0018468 10
0.95609 -9.41253 -2.53506 0.000600886 4
1.19366 -11.7514 -2.72698 0.000307594 1
1.41736 -13.9536 -2.72627 0.000167528 1
1.5245 -15.0084 -2.38933 0.000123767 10
1.5255 -15.0183 -1.8535 0.000125757 10
1.53805 -15.1418 -1.33155 0.00112303 10
1.5367 -15.1286 -0.796934 0.00113352 10
1.53831 -15.1444 -0.265707 0.00113881 10
1.53648 -15.1264 0.265391 0.00113883 10
1.5368 -15.1295 0.796983 0.0011336 10
1.30755 -12.8726 1.132 0.00207144 10
1.30561 -12.8535 1.58633 0.00204368 10
1.30508 -12.8483 2.04545 0.00200709 10
1.30571 -12.8545 2.51152 0.00196207 10
1.30745 -12.8717 2.98695 0.00190905 10
1.30488 -12.8463 3.45986 0.00184859 10
0.989466 -9.41414 -2.53641 0.000493353 4
1.23372 -11.7381 -2.72488 0.000307619 1
1.46694 -13.957 -2.72791 0.000167544 1
1.65378 -15.7347 -2.50586 0.000102708 10
1.65569 -15.7528 -1.94486 0.000104364 10
1.67571 -15.9433 -1.40254 0.000970583 10
1.6747 -15.9337 -0.839648 0.000979755 10
1.67336 -15.921 -0.279433 0.000984376 10
1.67556 -15.9419 0.279799 0.000984397 10
1.67576 -15.9438 0.840184 0.000979819 10
1.35066 -12.8507 1.13048 0.00207334 10
1.35192 -12.8626 1.58803 0.00204555 10
1.35093 -12.8533 2.04697 0.00200894 10
1.3518 -12.8615 2.5138 0.00196387 10
1.34962 -12.8408 2.98086 0.00191081 10
1.35051 -12.8493 3.46192 0.0018503 10
1.02243 -9.41163 -2.53668 0.000263386 4
1.27729 -11.7577 -2.73045 0.000307643 1
1.51639 -13.9587 -2.72925 0.000167561 1
1.79911 -16.5611 -2.63846 8.42351e-05 10
1.80236 -16.591 -2.04911 8.55954e-05 10
1.81803 -16.7353 -1.47276 0.000843135 10
1.81835 -16.7382 -0.882372 0.000851191 10
1.81706 -16.7263 -0.293677 0.00085525 10
1.81856 -16.7401 0.293919 0.000855269 10
1.81781 -16.7332 0.88211 0.000851247 10
1.39436 -12.8353 1.12955 0.00207515 10
1.39521 -12.8432 1.58622 0.00204734 10
1.39535 -12.8444 2.04633 0.00201069 10
1.39462 -12.8377 2.51009 0.00196559 10
1.39442 -12.8359 2.98083 0.00191248 10
1.39491 -12.8403 3.4608 0.00185192 10
1.05618 -9.41607 -2.53885 0.00043406 4
1.31628 -11.7349 -2.7262 0.000307668 1
1.56318 -13.936 -2.72588 0.000167577 1
1.91877 -17.1062 -2.72635 7.83256e-05 1
1.96179 -17.4897 -2.16094 6.9273e-05 10
2.09912 -18.7141 -1.64754 8.05202e-05 10
2.20457 -19.6542 -1.03649 0.000528419 10
2.20333 -19.6432 -0.345023 0.00053104 10
2.20459 -19.6544 0.34522 0.000531052 10
2.20359 -19.6454 1.03603 0.000528455 10
1.4399 -12.837 1.13013 0.00207686 10
1.43991 -12.8371 1.58608 0.00204903 10
1.43846 -12.8242 2.04388 0.00201236 10
1.43931 -12.8318 2.50989 0.00196721 10
1.43959 -12.8343 2.98161 0.00191407 10
1.43974 -12.8356 3.46085 0.00185346 10
1.08854 -9.40797 -2.53768 0.00045635 4
1.35764 -11.7338 -2.72703 0.000307693 1
1.61332 -13.9435 -2.72843 0.000167593 1
1.97855 -17.1001 -2.72646 7.83354e-05 1
2.14294 -18.5209 -2.28925 5.52211e-05 10
2.16339 -18.6977 -1.64675 8.05389e-05 10
2.27167 -19.6335 -1.03581 0.000528872 10
2.27208 -19.637 -0.345052 0.000531495 10
2.27151 -19.6321 0.344966 0.000531507 10
2.27184 -19.6349 1.03589 0.000528908 10
1.48607 -12.8437 1.13118 0.00207848 10
1.48546 -12.8385 1.58689 0.00205063 10
1.4847 -12.8319 2.04594 0.00201393 10
1.48576 -12.841 2.51269 0.00196876 10
1.48503 -12.8348 2.98291 0.00191557 10
1.48392 -12.8252 3.45942 0.00185491 10
1.12307 -9.41839 -2.54153 0.000489775 4
1.39776 -11.722 -2.72541 0.000307717 1
1.661 -13.9295 -2.72681 0.00016761 1
2.03701 -17.0829 -2.72483 7.83453e-05 1
2.34552 -19.6702 -2.4323 4.32616e-05 10
2.34663 -19.6794 -1.73392 4.37452e-05 10
2.34959 -19.7042 -1.03997 2.90738e-05 10
2.37304 -19.9009 -0.349833 0.000510359 10
2.37104 -19.8841 0.349537 0.000510371 10
2.37122 -19.8857 1.04955 0.000507866 10
2.08344 -17.4722 1.53945 0.000874458 10
1.94003 -16.2696 2.01181 0.00105815 10
1.59112 -13.3435 2.12838 0.000100133 10
1.67931 -14.0831 2.75688 0.00152825 10
1.67905 -14.081 3.27388 0.00148622 10
1.65845 -13.9082 3.75308 0.000398934 10
1.15597 -9.41465 -2.54159 0.000486097 4
1.43874 -11.7176 -2.72554 0.000307742 1
1.70825 -13.9126 -2.72464 0.000167626 1
2.0997 -17.1007 -2.72882 7.83551e-05 1
2.57693 -20.9874 -2.59628 3.32178e-05 10
2.57881 -21.0027 -1.8513 3.3587e-05 10
2.62928 -21.4138 0.376585 0.000615672 10
2.44816 -19.9387 1.05279 4.02807e-05 10
2.14358 -17.4581 1.53886 0.000875103 10
1.99789 -16.2715 2.0129 0.00105892 10
1.99861 -16.2774 2.59745 0.00103902 10
1.99632 -16.2587 3.18411 0.00101456 10
1.9985 -16.2765 3.78594 0.000985784 10
2.14435 -17.4643 4.7147 0.000774961 10
1.18809 -9.40467 -2.54 0.000463864 4
1.47973 -11.7133 -2.72572 0.000307767 1
1.7565 -13.9041 -2.72417 0.000167643 1
2.1563 -17.0689 -2.72493 7.8365e-05 1
3.10828 -24.6046 -1.29972 0.000257923 10
3.10944 -24.6138 -0.43305 0.000259286 10
3.10905 -24.6107 0.432995 0.000259293 10
2.52014 -19.949 1.05379 4.02648e-05 10
2.2046 -17.4512 1.53892 0.000875706 10
2.05431 -16.2616 2.01254 0.00013014 10
2.05503 -16.2673 2.59696 0.00103973 10
2.0554 -16.2702 3.18774 0.00101525 10
2.05547 -16.2708 3.78626 0.000986456 10
2.2034 -17.4418 4.71065 0.0007755 10
1.2217 -9.40657 -2.54165 0.000489873 4
1.52191 -11.718 -2.72804 0.000307791 1
1.80794 -13.9204 -2.72857 0.000167659 1
2.21873 -17.0833 -2.72845 7.83748e-05 1
3.19492 -24.5995 -1.30003 0.000258105 10
3.19347 -24.5884 -0.432797 0.000259469 10
3.19394 -24.592 0.432859 0.000259475 10
2.58673 -19.9167 1.05256 3.111e-05 10
2.2664 -17.4503 1.53953 0.000876268 10
2.13094 -16.4073 2.03149 4.62085e-05 10
2.26719 -17.4564 2.78804 0.000847256 10
2.26578 -17.4455 3.41955 0.000826981 10
2.13875 -16.4675 3.83375 4.24239e-05 10
2.26524 -17.4414 4.71266 0.000776001 10
1.25352 -9.39473 -2.53962 0.000482483 4
1.56166 -11.7041 -2.72606 0.000307816 1
1.85645 -13.9134 -2.72847 0.000167676 1
2.27559 -17.0547 -2.72514 7.83847e-05 1
2.65677 -19.9116 1.05277 3.10977e-05 10
2.37038 -17.7652 1.56803 3.4315e-05 10
2.37324 -17.7866 2.20327 3.36565e-05 10
2.37803 -17.8225 2.84783 3.2847e-05 10
2.38019 -17.8387 3.49822 3.18956e-05 10
2.38173 -17.8502 4.15757 3.08128e-05 10
2.38816 -17.8984 4.83837 2.96101e-05 10
1.28562 -9.38527 -2.53826 0.000534478 4
1.60414 -11.7105 -2.72884 0.00030784 1
1.90411 -13.9003 -2.72718 0.000167692 1
2.33741 -17.0635 -2.72783 7.83946e-05 1
4.46801 -32.6173 -1.72536 0.00014473 10
4.46658 -32.6068 -0.57447 0.000145571 10
4.46758 -32.6142 0.574598 0.000145575 10
2.72738 -19.9103 1.0532 3.10854e-05 10
1.31625 -9.36563 -2.53418 0.000489971 4
1.64444 -11.7008 -2.72789 0.000307865 1
1.95378 -13.9019 -2.72881 0.000167709 1
2.39711 -17.0564 -2.72801 7.84044e-05 1
4.57962 -32.5857 -1.72453 0.000144817 10
4.57931 -32.5835 -0.574337 0.000145658 10
4.57922 -32.5829 0.574325 0.000145662 10
3.70224 -26.3429 1.39414 0.000241313 10
3.30752 -23.5342 2.07921 0.000346729 10
3.69956 -26.3238 5.16711 0.000223734 10
3.38513 -24.0865 5.61545 6.75436e-05 10
3.30558 -23.5205 6.36423 0.00030394 10
1.35182 -9.38099 -2.53959 0.000649626 4
1.68562 -11.6974 -2.72845 0.00030789 1
1.99952 -13.8757 -2.72503 0.000167725 1
2.45399 -17.0295 -2.72507 7.84142e-05 1
3.79205 -26.315 1.39336 0.000241435 10
3.56067 -24.7093 3.06526 0.000290421 10
3.79002 -26.3009 5.16519 0.000223847 10
3.46996 -24.0799 5.6167 6.75371e-05 10
3.55891 -24.6971 6.68593 0.000258129 10
1.38364 -9.37 -2.53791 0.000430638 4
1.72445 -11.678 -2.72531 0.000307915 1
2.04695 -13.8619 -2.72371 0.000167742 1
2.51478 -17.0301 -2.72655 7.84241e-05 1
5.84602 -39.5892 -0.698526 4.48125e-05 10
4.80498 -32.5393 1.7238 0.000113041 10
4.80713 -32.5538 2.87897 0.000111745 10
4.80653 -32.5498 4.03995 0.000109822 10
4.80674 -32.5512 5.21151 0.000107297 10
4.80511 -32.5401 6.39375 0.000104205 10
4.80579 -32.5447 7.59502 0.000100586 10
4.80815 -32.5607 8.81923 9.6488e-05 10
1.41566 -9.36066 -2.5367 0.00050492 4
1.76755 -11.6874 -2.72893 0.000307939 1
2.09838 -13.8749 -2.72768 0.000167758 1
2.57251 -17.01 -2.72475 7.84339e-05 1
4.91843 -32.5216 1.72377 0.000113089 10
4.9205 -32.5354 2.87884 0.000111793 10
4.92051 -32.5354 4.04027 0.000109869 10
4.91943 -32.5282 5.21055 0.000107343 10
4.91823 -32.5203 6.39319 0.00010425 10
4.91906 -32.5258 7.59456 0.000100629 10
4.92168 -32.5431 8.81906 9.65298e-05 10
1.44666 -9.34487 -2.53378 0.000397279 4
1.80856 -11.6826 -2.72927 0.000307964 1
2.14724 -13.8703 -2.72823 0.000167774 1
2.63233 -17.0039 -2.72523 7.84438e-05 1
5.7496 -37.1402 1.96962 6.77794e-05 10
5.56623 -35.9557 3.18318 7.61222e-05 10
5.7504 -37.1454 4.6152 6.57505e-05 10
5.7477 -37.1279 7.3029 6.22162e-05 10
5.74867 -37.1342 8.67523 5.99437e-05 10
5.75025 -37.1444 10.0714 5.73752e-05 10
1.48277 -9.36187 -2.53977 0.000486421 4
1.84551 -11.6521 -2.72363 0.000307988 1
2.19192 -13.8392 -2.72361 0.000167791 1
2.69229 -16.9985 -2.72585 7.84536e-05 1
6.84715 -43.2313 2.2939 3.61221e-05 10
6.84496 -43.2174 3.82817 3.56585e-05 10
7.03471 -44.4154 7.1224 3.02805e-05 10
1.51255 -9.33878 -2.53493 0.00049388 4
1.89053 -11.6725 -2.72992 0.000308013 1
2.24356 -13.8521 -2.72767 0.000167807 1
2.75269 -16.9956 -2.72692 7.84635e-05 1
1.54564 -9.33646 -2.53575 0.000512481 4
1.92951 -11.6553 -2.72745 0.000308038 1
2.28859 -13.8243 -2.72374 0.000167824 1
2.8091 -16.9684 -2.72411 7.84733e-05 1
3.62461 -21.8945 -2.72489 2.86518e-05 1
1.57982 -9.34048 -2.53832 0.000490232 4
1.9697 -11.6456 -2.72678 0.000308062 1
2.33827 -13.8247 -2.72541 0.00016784 1
2.87236 -16.9824 -2.72795 7.84831e-05 1
3.69915 -21.8707 -2.72353 2.86567e-05 1
1.61049 -9.32374 -2.53528 0.000542262 4
2.01131 -11.6442 -2.72809 0.000308087 1
2.38609 -13.814 -2.72493 0.000167857 1
2.92908 -16.9576 -2.72559 7.8493e-05 1
3.77597 -21.8606 -2.72389 2.86617e-05 1
1.64436 -9.32564 -2.53734 0.000460582 4
2.05138 -11.634 -2.72735 0.000308111 1
2.43486 -13.8088 -2.72557 0.000167873 1
2.99064 -16.9608 -2.72776 7.85028e-05 1
3.85117 -21.8411 -2.72311 2.86666e-05 1
1.67735 -9.32231 -2.53802 0.000475471 4
2.09301 -11.6324 -2.72869 0.000308136 1
2.48234 -13.7963 -2.72479 0.000167889 1
3.04648 -16.9316 -2.72477 7.85126e-05 1
3.93155 -21.8507 -2.72601 2.86715e-05 1
1.71086 -9.32175 -2.53947 0.000497792 4
2.13084 -11.61 -2.72516 0.000308161 1
2.53341 -13.8035 -2.72794 0.000167906 1
3.10497 -16.9176 -2.72425 7.85224e-05 1
4.00666 -21.8306 -2.72523 2.86765e-05 1
1.74094 -9.30263 -2.53591 0.000594418 4
2.16994 -11.595 -2.72339 0.000308185 1
2.57835 -13.7773 -2.72453 0.000167922 1
3.16532 -16.9138 -2.72538 7.85323e-05 1
4.07964 -21.7994 -2.7231 2.86814e-05 1
1.77198 -9.28905 -2.53388 0.000501573 4
2.20985 -11.5844 -2.72271 0.00030821 1
2.62805 -13.7767 -2.72621 0.000167938 1
3.22332 -16.8972 -2.72451 7.85421e-05 1
4.15796 -21.7968 -2.72457 2.86863e-05 1
1.80594 -9.29074 -2.53604 0.000460735 4
2.25273 -11.5893 -2.72568 0.000308234 1
2.67808 -13.7775 -2.72821 0.000167955 1
3.28564 -16.9032 -2.7273 7.85519e-05 1
4.23297 -21.7767 -2.72389 2.86913e-05 1
1.83892 -9.28724 -2.53682 0.000312132 4
2.2954 -11.5926 -2.72833 0.000308259 1
2.72164 -13.7453 -2.72368 0.000167971 1
3.33989 -16.8677 -2.72345 7.85617e-05 1
4.30954 -21.7648 -2.72426 2.86962e-05 1
1.87374 -9.2927 -2.54009 0.000107767 4
2.33427 -11.5767 -2.72648 0.000308283 1
2.77145 -13.7449 -2.7255 0.000167988 1
3.40192 -16.8717 -2.72599 7.85715e-05 1
4.38727 -21.7584 -2.72537 2.87011e-05 1
1.90154 -9.2636 -2.53393 0.000260144 4
2.37458 -11.568 -2.72638 0.000308308 1
2.81706 -13.7236 -2.72323 0.000168004 1
3.46007 -16.8562 -2.72542 7.85813e-05 1
4.45958 -21.7254 -2.72316 2.8706e-05 1
1.93678 -9.27083 -2.53774 0.000416258 4
2.41486 -11.5593 -2.72629 0.000308332 1
2.86618 -13.7196 -2.7244 0.00016802 1
3.51715 -16.8357 -2.72407 7.85911e-05 1
4.53443 -21.7051 -2.72258 2.87109e-05 1
1.96558 -9.24733 -2.53317 0.000594694 4
2.45722 -11.5603 -2.72853 0.000308357 1
2.91646 -13.7209 -2.72666 0.000168037 1
3.57716 -16.8293 -2.72504 7.86009e-05 1
4.61412 -21.7077 -2.72492 2.87159e-05 1
1.99845 -9.24321 -2.53394 0.00042003 4
2.49269 -11.5291 -2.72321 0.000308381 1
2.9626 -13.7026 -2.72506 0.000168053 1
3.63386 -16.8073 -2.72352 7.86107e-05 1
4.68659 -21.6763 -2.72302 2.87208e-05 1
2.03387 -9.25056 -2.53788 0.000501839 4
2.53381 -11.5244 -2.72418 0.000308406 1
3.0097 -13.6889 -2.72441 0.000168069 1
3.69576 -16.8093 -2.72592 7.86205e-05 1
4.7626 -21.6616 -2.72323 2.87257e-05 1
2.06611 -9.24325 -2.53784 0.000401498 4
2.57387 -11.5149 -2.72402 0.00030843 1
3.06067 -13.6927 -2.72726 0.000168086 1
3.75496 -16.7987 -2.72631 7.86303e-05 1
4.84129 -21.6587 -2.72498 2.87306e-05 1
2.09945 -9.24077 -2.53916 0.000501905 4
2.6132 -11.5021 -2.72313 0.000308455 1
3.1075 -13.6777 -2.72644 0.000168102 1
3.80921 -16.7663 -2.7232 7.864e-05 1
4.91477 -21.6324 -2.72382 2.87355e-05 1
2.1321 -9.23514 -2.53964 0.000371806 4
2.65345 -11.4934 -2.72325 0.000308479 1
3.15616 -13.6709 -2.72724 0.000168118 1
3.86704 -16.75 -2.72272 7.86498e-05 1
4.98886 -21.6091 -2.72306 2.87404e-05 1
2.16135 -9.21497 -2.53615 0.000446197 4
2.69232 -11.4788 -2.722 0.000308504 1
3.20188 -13.6513 -2.72555 0.000168135 1
3.92573 -16.7375 -2.7229 7.86596e-05 1
5.06621 -21.5999 -2.72411 2.87453e-05 1
2.19614 -9.21844 -2.5392 0.000479693 4
2.73304 -11.4721 -2.72266 0.000308528 1
3.25014 -13.6426 -2.72608 0.000168151 1
3.98485 -16.7266 -2.72338 7.86693e-05 1
5.14079 -21.5788 -2.72369 2.87502e-05 1
2.22462 -9.1955 -2.535 0.000561539 4
2.77808 -11.4832 -2.72758 0.000308552 1
3.29852 -13.6345 -2.72672 0.000168167 1
4.04587 -16.7236 -2.72518 7.86791e-05 1
5.21578 -21.5595 -2.72353 2.87551e-05 1
2.26007 -9.20137 -2.53878 0.000442566 4
2.81636 -11.4662 -2.72586 0.000308577 1
3.34148 -13.6041 -2.72296 0.000168183 1
4.09951 -16.6902 -2.72205 7.86888e-05 1
5.28716 -21.5255 -2.72156 2.876e-05 1
2.29161 -9.19115 -2.53816 0.000513262 4
2.85503 -11.4509 -2.72459 0.000308601 1
3.39124 -13.6015 -2.72481 0.0001682 1
4.15783 -16.6761 -2.7221 7.86986e-05 1
5.36652 -21.5239 -2.72371 2.87649e-05 1
2.32262 -9.17891 -2.537 0.000509576 4
2.89336 -11.4345 -2.72306 0.000308625 1
3.437 -13.5829 -2.72346 0.000168216 1
4.21778 -16.6685 -2.72324 7.87083e-05 1
5.43843 -21.4925 -2.72212 2.87698e-05 1
2.35162 -9.15898 -2.53374 0.000554247 4
2.93461 -11.4296 -2.72431 0.00030865 1
3.48768 -13.5836 -2.72603 0.000168232 1
4.27302 -16.6423 -2.72138 7.8718e-05 1
5.51424 -21.4766 -2.72252 2.87747e-05 1
2.38812 -9.16813 -2.53857 0.000491043 4
2.97715 -11.4295 -2.72675 0.000308674 1
3.53606 -13.5751 -2.72679 0.000168248 1
4.33577 -16.6453 -2.72433 7.87278e-05 1
5.58763 -21.4512 -2.72177 2.87796e-05 1
2.41837 -9.15315 -2.53674 0.000357146 4
3.01167 -11.3987 -2.7219 0.000308698 1
3.58038 -13.5512 -2.72447 0.000168265 1
4.39512 -16.6349 -2.72512 7.87375e-05 1
5.666 -21.445 -2.72347 2.87845e-05 1
2.44931 -9.14096 -2.53571 0.000450181 4
3.05796 -11.4125 -2.72772 0.000308723 1
3.62423 -13.5258 -2.7219 0.000168281 1
4.4494 -16.6054 -2.72281 7.87472e-05 1
5.73999 -21.422 -2.72307 2.87894e-05 1
2.48511 -9.14672 -2.5397 0.000483698 4
3.09116 -11.3774 -2.72189 0.000308747 1
3.67556 -13.5283 -2.72497 0.000168297 1
4.51095 -16.603 -2.72499 7.87569e-05 1
5.80824 -21.3779 -2.72003 2.87942e-05 1
2.51416 -9.12762 -2.53682 0.000424193 4
3.13309 -11.3746 -2.72384 0.000308771 1
3.72066 -13.5078 -2.72343 0.000168313 1
4.56477 -16.5723 -2.72255 7.87666e-05 1
5.8864 -21.3705 -2.72168 2.87991e-05 1
2.54565 -9.11751 -2.53647 0.000472597 4
3.17003 -11.3538 -2.72148 0.000308795 1
3.76751 -13.4937 -2.72323 0.000168329 1
4.61974 -16.5461 -2.72087 7.87763e-05 1
5.959 -21.3428 -2.72079 2.8804e-05 1
2.57508 -9.10013 -2.53412 0.000442856 4
3.2149 -11.3612 -2.72594 0.00030882 1
3.81834 -13.4937 -2.72591 0.000168346 1
4.67926 -16.5362 -2.72191 7.8786e-05 1
6.03744 -21.3359 -2.72258 2.88089e-05 1
2.6124 -9.11052 -2.53953 0.000346121 4
3.25632 -11.3562 -2.72743 0.000308844 1
3.85851 -13.4562 -2.72104 0.000168362 1
4.73656 -16.5184 -2.72169 7.87957e-05 1
6.11299 -21.3185 -2.72307 2.88137e-05 1
2.63688 -9.0762 -2.53252 0.000483856 4
3.29509 -11.3418 -2.72673 0.000308868 1
3.90747 -13.4496 -2.72243 0.000168378 1
4.79942 -16.5197 -2.72465 7.88054e-05 1
6.18479 -21.2882 -2.72194 2.88186e-05 1
2.66948 -9.07012 -2.53341 0.000524832 4
3.33386 -11.3275 -2.72607 0.000308892 1
3.95503 -13.438 -2.72287 0.000168394 1
4.85757 -16.5046 -2.72494 7.8815e-05 1
6.26097 -21.273 -2.72277 2.88235e-05 1
2.70018 -9.05759 -2.53252 0.000442972 4
3.36948 -11.3027 -2.72292 0.000308916 1
4.00662 -13.44 -2.72608 0.00016841 1
4.90673 -16.4593 -2.72027 7.88247e-05 1
6.33391 -21.2467 -2.72222 2.88283e-05 1
2.73535 -9.05992 -2.53583 0.00048395 4
3.41148 -11.2994 -2.72497 0.000308941 1
4.05331 -13.4252 -2.72595 0.000168426 1
4.96937 -16.4593 -2.72313 7.88344e-05 1
6.4021 -21.2048 -2.7197 2.88332e-05 1
2.76929 -9.05794 -2.53796 0.000361125 4
3.4476 -11.2766 -2.72236 0.000308965 1
4.0936 -13.3895 -2.72158 0.000168442 1
5.0224 -16.4275 -2.72075 7.88441e-05 1
6.47438 -21.1768 -2.71899 2.8838e-05 1
2.80001 -9.04538 -2.53717 0.000450505 4
3.49127 -11.2785 -2.72574 0.000308989 1
4.14316 -13.3844 -2.72346 0.000168459 1
5.08425 -16.4246 -2.72318 7.88537e-05 1
6.55552 -21.1775 -2.722 2.88429e-05 1
2.83346 -9.04158 -2.53886 0.000517556 4
3.52996 -11.2641 -2.72524 0.000309013 1
4.19338 -13.3811 -2.72575 0.000168475 1
5.1355 -16.3874 -2.71997 7.88633e-05 1
6.62181 -21.1302 -2.71888 2.88477e-05 1
2.8582 -9.01019 -2.53283 0.000513866 4
3.56899 -11.2509 -2.72503 0.000309037 1
4.23765 -13.3588 -2.7242 0.000168491 1
5.19792 -16.3859 -2.72272 7.8873e-05 1
6.69555 -21.107 -2.71889 2.88526e-05 1
2.8935 -9.01221 -2.53622 0.000502727 4
3.606 -11.2314 -2.72334 0.000309061 1
4.28021 -13.3313 -2.72163 0.000168507 1
5.25103 -16.3551 -2.72062 7.88826e-05 1
6.77691 -21.1076 -2.72199 2.88574e-05 1
2.92419 -8.99972 -2.53557 0.00056607 4
3.64244 -11.2103 -2.72129 0.000309085 1
4.32817 -13.3208 -2.72254 0.000168523 1
5.30864 -16.3383 -2.72091 7.88922e-05 1
6.84214 -21.058 -2.71865 2.88622e-05 1
2.95819 -8.99739 -2.5378 0.000472997 4
3.68374 -11.2042 -2.72291 0.000309109 1
4.37782 -13.3152 -2.72452 0.000168539 1
5.36423 -16.3154 -2.72019 7.89018e-05 1
6.9153 -21.033 -2.71853 2.88671e-05 1
2.98706 -8.97944 -2.53567 0.000491651 4
3.72278 -11.1911 -2.72287 0.000309133 1
4.42392 -13.2988 -2.7243 0.000168555 1
5.42206 -16.2993 -2.72065 7.89114e-05 1
6.99182 -21.0182 -2.71975 2.88719e-05 1
3.01588 -8.96151 -2.53356 0.000387386 4
3.75897 -11.1695 -2.7208 0.000309157 1
4.46737 -13.2745 -2.72251 0.000168571 1
5.47778 -16.2769 -2.72008 7.8921e-05 1
7.0682 -21.0027 -2.72093 2.88767e-05 1
3.04689 -8.9502 -2.53335 0.000413487 4
3.80392 -11.1739 -2.72509 0.000309181 1
4.51631 -13.2666 -2.72409 0.000168587 1
5.54119 -16.2771 -2.72334 7.89306e-05 1
7.13988 -20.9733 -2.72033 2.88815e-05 1
3.07738 -8.93737 -2.53275 0.000454492 4
3.84057 -11.1538 -2.72344 0.000309205 1
4.56442 -13.256 -2.72519 0.000168603 1
5.59432 -16.2471 -2.72156 7.89401e-05 1
7.21488 -20.9536 -2.72102 2.88863e-05 1
3.11425 -8.9429 -2.53738 0.000502954 4
3.87708 -11.1335 -2.72175 0.000309229 1
4.60787 -13.232 -2.72354 0.000168619 1
5.65181 -16.2298 -2.72195 7.89497e-05 1
7.28199 -20.911 -2.71878 2.88912e-05 1
3.14623 -8.93422 -2.53802 0.000417293 4
3.91803 -11.1259 -2.72322 0.000309253 1
4.65345 -13.2142 -2.72319 0.000168635 1
5.70951 -16.213 -2.72247 7.89593e-05 1
7.35574 -20.8878 -2.71908 2.8896e-05 1
3.17118 -8.9057 -2.53305 0.000529102 4
3.95781 -11.1148 -2.72389 0.000309276 1
4.69833 -13.1945 -2.72249 0.000168651 1
5.76719 -16.1962 -2.723 7.89688e-05 1
7.42974 -20.8651 -2.71949 2.89008e-05 1
3.20461 -8.90115 -2.53492 0.000488146 4
3.99195 -11.0881 -2.72073 0.0003093 1
4.74113 -13.169 -2.72063 0.000168666 1
5.82216 -16.1717 -2.72228 7.89784e-05 1
7.49815 -20.8269 -2.71791 2.89056e-05 1
3.23538 -8.88914 -2.5347 0.000458365 4
4.03408 -11.0836 -2.72306 0.000309324 1
4.79489 -13.1739 -2.72508 0.000168682 1
5.8746 -16.1403 -2.72044 7.89879e-05 1
7.5698 -20.7979 -2.71754 2.89104e-05 1
3.26321 -8.86915 -2.53223 0.00052175 4
4.07485 -11.0751 -2.72446 0.000309348 1
4.83422 -13.139 -2.72135 0.000168698 1
5.93492 -16.1306 -2.72228 7.89974e-05 1
7.64829 -20.7875 -2.71966 2.89151e-05 1
3.29812 -8.86838 -2.53528 0.000514329 4
4.10815 -11.0465 -2.72093 0.000309372 1
4.884 -13.1327 -2.72355 0.000168714 1
5.99207 -16.1122 -2.72268 7.9007e-05 1
3.32538 -8.84703 -2.53248 0.000439817 4
4.15044 -11.0421 -2.7234 0.000309395 1
4.9263 -13.1062 -2.72161 0.00016873 1
6.04764 -16.0895 -2.7224 7.90164e-05 1
7.6367 -20.3171 -2.66503 4.15976e-05 4
3.36057 -8.84678 -2.53575 0.00046221 4
4.1872 -11.0229 -2.72225 0.000309419 1
4.97313 -13.0919 -2.72222 0.000168746 1
6.09902 -16.0558 -2.72028 7.90259e-05 1
7.57005 -19.9283 -2.61748 4.39952e-05 4
3.39213 -8.83679 -2.53627 0.000469695 4
4.22862 -11.0159 -2.72417 0.000309443 1
5.0154 -13.0656 -2.72037 0.000168762 1
6.15846 -16.0433 -2.7218 7.90354e-05 1
7.5043 -19.5494 -2.57113 3.34407e-05 4
3.42389 -8.82732 -2.53697 0.000402621 4
4.26165 -10.9872 -2.72072 0.000309467 1
5.06899 -13.0686 -2.72468 0.000168777 1
6.20757 -16.0041 -2.7188 7.90449e-05 1
3.44722 -8.79628 -2.53149 0.000451114 4
4.30167 -10.9766 -2.72179 0.00030949 1
5.11422 -13.05 -2.72449 0.000168793 1
6.27162 -16.0033 -2.72236 7.90543e-05 1
7.51559 -19.1775 -2.52907 3.34559e-05 4
3.47749 -8.78313 -2.53118 0.000466056 4
4.34144 -10.9652 -2.72272 0.000309514 1
5.1552 -13.0206 -2.72209 0.000168809 1
6.3183 -15.9582 -2.71843 7.90638e-05 1
3.51211 -8.7809 -2.53406 0.000458628 4
4.37611 -10.9411 -2.7205 0.000309537 1
5.20511 -13.0137 -2.72444 0.000168825 1
6.37534 -15.9395 -2.71901 7.90733e-05 1
3.54531 -8.77495 -2.5359 0.000354248 4
4.41869 -10.9366 -2.72322 0.000309561 1
5.24014 -12.9698 -2.71907 0.00016884 1
6.43544 -15.9283 -2.72092 7.90827e-05 1
7.71849 -19.1039 -2.52989 2.95083e-05 4
3.57413 -8.75813 -2.53463 0.000555645 4
4.45467 -10.9158 -2.72189 0.000309584 1
5.29436 -12.9734 -2.72368 0.000168856 1
6.49218 -15.9086 -2.72141 7.90922e-05 1
7.77803 -19.0595 -2.52758 3.43584e-05 4
3.60069 -8.73592 -2.53182 0.000350563 4
4.49284 -10.9004 -2.72195 0.000309608 1
5.3345 -12.9425 -2.72108 0.000168872 1
6.54239 -15.873 -2.71922 7.91015e-05 1
7.85312 -19.0531 -2.53035 3.06191e-05 4
3.63219 -8.72579 -2.53254 0.000309559 4
4.5276 -10.8769 -2.71999 0.000309631 1
5.38029 -12.9253 -2.7214 0.000168888 1
6.5994 -15.8541 -2.7199 7.91109e-05 1
7.91804 -19.0219 -2.52986 3.01834e-05 4
3.65953 -8.70568 -2.5304 5.96778e-05 4
4.57097 -10.8739 -2.72322 0.000309655 1
5.42346 -12.9019 -2.72044 0.000168903 1
6.65961 -15.8426 -2.7219 7.91203e-05 1
7.97637 -18.975 -2.52732 2.95272e-05 4
3.69047 -8.6942 -2.53079 0.000287218 4
4.60641 -10.852 -2.72175 0.000309678 1
5.46508 -12.8749 -2.71876 0.000168919 1
6.71422 -15.8177 -2.72163 7.91297e-05 1
8.04863 -18.9614 -2.52923 2.95319e-05 4
3.72952 -8.70163 -2.53673 0.000458831 4
4.64414 -10.8356 -2.72168 0.000309702 1
5.51877 -12.8763 -2.72309 0.000168935 1
6.76837 -15.7918 -2.72122 7.91391e-05 1
8.1086 -18.9188 -2.5273 2.95366e-05 4
3.76096 -8.69106 -2.53746 0.000358135 4
4.67835 -10.811 -2.7196 0.000309725 1
5.56048 -12.8495 -2.72152 0.00016895 1
6.81703 -15.7532 -2.71866 7.91485e-05 1
8.18082 -18.9048 -2.52923 3.21868e-05 4
3.78888 -8.67241 -2.53586 0.000570813 4
4.71894 -10.8012 -2.72126 0.000309748 1
5.60788 -12.8359 -2.72278 0.000168966 1
6.8002 -15.565 -2.69027 6.5271e-05 4
8.2475 -18.8778 -2.52946 3.0869e-05 4
3.81498 -8.64971 -2.5331 0.00057458 4
4.75794 -10.7877 -2.72202 0.000309772 1
5.65095 -12.8124 -2.72196 0.000168981 1
6.76359 -15.3351 -2.65459 9.53799e-05 4
8.30742 -18.8354 -2.52765 3.10944e-05 4
3.84846 -8.6438 -2.53528 0.000574616 4
4.79707 -10.7744 -2.72287 0.000309795 1
5.69392 -12.7888 -2.72114 0.000168997 1
6.71523 -15.0827 -2.61493 0.00010812 4
3.87634 -8.62525 -2.5338 0.000279863 4
4.8276 -10.7419 -2.7189 0.000309818 1
5.73544 -12.7619 -2.71968 0.000169012 1
6.67615 -14.8551 -2.57951 0.000100265 4
3.91204 -8.62405 -2.53744 0.000447808 4
4.86842 -10.7324 -2.72078 0.000309842 1
5.78568 -12.7545 -2.72237 0.000169028 1
6.63913 -14.6359 -2.54544 0.000136688 4
8.50076 -18.7398 -2.52663 2.95648e-05 4
3.94061 -8.60705 -2.53647 0.000649363 4
4.91245 -10.7297 -2.72443 0.000309865 1
5.82446 -12.7217 -2.7197 0.000169043 1
6.6489 -14.5225 -2.52974 3.60871e-05 4
8.56782 -18.7137 -2.52713 3.00108e-05 4
3.96546 -8.58204 -2.53317 0.000350827 4
4.94395 -10.6997 -2.72117 0.000309888 1
5.87107 -12.7062 -2.72074 0.000169059 1
3.99229 -8.5615 -2.5312 0.000571063 4
4.9797 -10.679 -2.72032 0.000309911 1
5.91597 -12.6868 -2.72101 0.000169074 1
6.75617 -14.4886 -2.53201 5.02969e-05 4
4.02698 -8.55777 -2.53424 0.000526306 4
5.02045 -10.669 -2.72222 0.000309934 1
5.96117 -12.6681 -2.72144 0.00016909 1
6.80092 -14.4527 -2.52986 4.67519e-05 4
4.05135 -8.53213 -2.53082 0.000459146 4
5.05702 -10.6501 -2.72187 0.000309957 1
6.00778 -12.6524 -2.72254 0.000169105 1
6.84605 -14.4178 -2.52791 4.97166e-05 4
4.08333 -8.52258 -2.5322 0.00048904 4
5.09972 -10.6439 -2.72484 0.00030998 1
6.04568 -12.6183 -2.71974 0.000169121 1
6.9028 -14.4073 -2.53028 5.74175e-05 4
4.11268 -8.50748 -2.53196 0.000380803 4
5.12678 -10.6053 -2.7195 0.000310003 1
6.09404 -12.6061 -2.72169 0.000169136 1
6.95281 -14.3826 -2.53019 9.176e-05 4
4.14391 -8.49627 -2.53291 0.000451764 4
5.17324 -10.6067 -2.72449 0.000310026 1
6.13292 -12.5743 -2.71943 0.000169151 1
7.00433 -14.361 -2.53068 6.15751e-05 4
4.17096 -8.47651 -2.53135 0.000384584 4
5.20497 -10.5779 -2.72174 0.000310049 1
6.18068 -12.5608 -2.72115 0.000169167 1
7.05533 -14.3383 -2.53101 8.23069e-05 4
4.20992 -8.48084 -2.53701 0.000351001 4
5.23949 -10.5549 -2.7205 0.000310072 1
6.21653 -12.5231 -2.71767 0.000169182 1
7.10519 -14.3133 -2.53095 7.69864e-05 4
9.55944 -19.2574 -2.63981 4.05459e-05 4
4.23246 -8.45203 -2.5328 0.000429443 4
5.27448 -10.5329 -2.71956 0.000310095 1
6.2593 -12.4995 -2.71728 0.000228986 4
7.14831 -14.2748 -2.52855 8.52869e-05 4
4.26832 -8.44983 -2.53659 0.000444407 4
5.31196 -10.5159 -2.71995 0.000310118 1
6.23246 -12.3382 -2.68691 0.000199841 4
7.20496 -14.2634 -2.53096 8.2335e-05 4
9.6406 -19.0851 -2.62536 6.34756e-05 4
4.2887 -8.41705 -2.53123 0.000541537 4
5.34732 -10.4947 -2.71928 0.000310141 1
6.20298 -12.174 -2.65587 0.000236524 4
7.25576 -14.2402 -2.53133 6.69417e-05 4
9.61308 -18.8667 -2.59992 7.91411e-05 4
4.32492 -8.41539 -2.53525 0.000366027 4
5.38961 -10.4871 -2.72215 0.000310164 1
6.17387 -12.0131 -2.62543 0.00022275 4
7.29998 -14.2042 -2.52944 8.11687e-05 4
9.60408 -18.6875 -2.57983 4.978e-05 4
4.34596 -8.38422 -2.53042 0.000515457 4
5.41882 -10.454 -2.71846 0.000310186 1
6.15177 -11.868 -2.5984 0.000267956 4
7.35194 -14.1833 -2.53028 7.46599e-05 4
9.57293 -18.4681 -2.55413 4.61179e-05 4
4.37908 -8.3764 -2.53266 0.000504282 4
5.45868 -10.4415 -2.72015 0.000310209 1
6.11995 -11.7064 -2.56769 0.000243827 4
7.39767 -14.1504 -2.529 7.05201e-05 4
9.55467 -18.2764 -2.53222 5.40489e-05 4
4.41393 -8.37176 -2.5359 0.000418393 4
5.49929 -10.4303 -2.72223 0.000310232 1
6.09189 -11.5543 -2.53897 0.000255841 4
7.44478 -14.1203 -2.52824 8.23815e-05 4
4.44039 -8.35116 -2.53434 0.000575326 4
5.53325 -10.4065 -2.72104 0.000310254 1
6.11702 -11.5044 -2.5327 0.000148775 4
7.5015 -14.1083 -2.53076 6.81651e-05 4
9.65543 -18.1592 -2.52526 3.47368e-05 4
4.4672 -8.3313 -2.53303 0.000381083 4
5.57381 -10.3951 -2.72313 0.000310277 1
6.15496 -11.479 -2.5318 0.000142536 4
7.54092 -14.0638 -2.52748 8.24001e-05 4
10.4072 -19.4094 -2.70415 3.76701e-05 4
4.50026 -8.32306 -2.53528 0.000552977 4
5.61097 -10.3773 -2.72357 0.0003103 1
6.19248 -11.4528 -2.53077 0.000157554 4
7.59435 -14.0455 -2.52894 7.35162e-05 4
10.439 -19.3066 -2.69489 4.16384e-05 4
4.51958 -8.28949 -2.52985 0.000526855 4
5.63582 -10.3368 -2.7181 0.000310322 1
6.23522 -11.4362 -2.53191 0.000145062 4
7.64115 -14.0149 -2.52822 9.60561e-05 4
10.4636 -19.1915 -2.68391 3.42153e-05 4
4.55124 -8.27867 -2.53138 0.000444677 4
5.6709 -10.3153 -2.71763 0.000310345 1
6.2751 -11.4144 -2.53191 0.000152579 4
7.69112 -13.9901 -2.52858 8.95438e-05 4
10.4978 -19.0955 -2.67559 3.6329e-05 4
4.58099 -8.26432 -2.53186 0.000444704 4
5.71559 -10.3112 -2.72179 0.000310367 1
6.31649 -11.3953 -2.53254 0.000157595 4
7.74726 -13.9764 -2.53099 7.05755e-05 4
10.5287 -18.9943 -2.66653 3.79432e-05 4
4.60874 -8.24637 -2.53128 0.00039241 4
5.75189 -10.2918 -2.72195 0.00031039 1
6.35426 -11.3696 -2.53176 0.000167616 4
7.7909 -13.9402 -2.52933 8.95638e-05 4
10.5572 -18.8899 -2.65704 4.09868e-05 4
4.63532 -8.22637 -2.53009 0.000590519 4
5.77887 -10.2558 -2.71776 0.000310412 1
6.39318 -11.3461 -2.53147 0.000175136 4
7.84071 -13.915 -2.52971 7.05913e-05 4
10.5863 -18.7877 -2.64784 3.53407e-05 4
4.66279 -8.208 -2.52943 0.000527014 4
5.82531 -10.2544 -2.72275 0.000310434 1
6.42592 -11.3117 -2.52878 0.000132615 4
7.87934 -13.8701 -2.52654 8.1278e-05 4
10.6114 -18.6794 -2.63779 4.01327e-05 4
4.69576 -8.19925 -2.53177 0.000470977 4
5.84955 -10.2139 -2.7174 0.000310457 1
6.46253 -11.2842 -2.52768 0.000146389 4
7.93384 -13.8533 -2.5285 8.18803e-05 4
10.6697 -18.6304 -2.63611 3.71688e-05 4
4.72164 -8.17813 -2.53032 0.0005196 4
5.84693 -10.1272 -2.69974 0.000386818 4
6.50422 -11.2656 -2.52859 0.000170177 4
7.97708 -13.8167 -2.52689 8.4263e-05 4
10.7439 -18.6089 -2.63837 4.00787e-05 4
4.75929 -8.17728 -2.53518 0.000564492 4
5.81915 -9.99831 -2.67078 0.000315047 4
6.54098 -11.2385 -2.52761 0.000123889 4
8.38724 -14.4107 -2.64087 0.000128923 4
10.8089 -18.5716 -2.6384 3.5631e-05 4
4.7834 -8.1531 -2.53285 0.000243008 4
5.80715 -9.89805 -2.6494 0.00042349 4
6.59237 -11.2364 -2.5323 0.000176464 4
8.43834 -14.3828 -2.64113 8.91033e-05 4
4.81281 -8.13802 -2.53337 0.000340231 4
5.78443 -9.78095 -2.62345 0.000343489 4
6.62673 -11.2052 -2.53045 0.000105136 4
8.49159 -14.3585 -2.6421 8.96374e-05 4
4.83893 -8.11738 -2.53218 0.000486073 4
5.76174 -9.66541 -2.59783 0.000443103 4
6.66937 -11.188 -2.53181 0.000141446 4
8.52906 -14.3076 -2.6382 5.81921e-05 4
4.86535 -8.0973 -2.5312 0.000385142 4
5.73862 -9.55066 -2.57236 0.000454575 4
6.69829 -11.1478 -2.528 0.000199042 4
8.58165 -14.2823 -2.63903 7.18307e-05 4
4.90311 -8.096 -2.53613 0.000512307 4
5.71989 -9.44466 -2.54917 0.000400043 4
6.7499 -11.1454 -2.53278 0.000191548 4
8.63812 -14.2632 -2.64107 4.66689e-05 4
4.92495 -8.06837 -2.53285 0.000501118 4
5.71678 -9.3656 -2.5332 0.000250341 4
6.77962 -11.1068 -2.52937 0.000171531 4
8.67811 -14.217 -2.6381 5.82114e-05 4
4.9568 -8.05717 -2.53475 0.000516107 4
5.75097 -9.34807 -2.53388 0.000243531 4
6.81597 -11.0792 -2.52849 0.000115199 4
8.73979 -14.2063 -2.64176 5.55954e-05 4
4.9809 -8.03337 -2.53271 0.000531099 4
5.77293 -9.31078 -2.52922 0.00028907 4
6.86217 -11.0675 -2.53128 0.00017657 4
8.75858 -14.1261 -2.63252 5.53942e-05 4
5.01456 -8.02497 -2.53557 0.000508687 4
5.80763 -9.29415 -2.53019 0.000275433 4
6.8993 -11.0412 -2.53074 0.000122733 4
8.74936 -14.0019 -2.61504 0.000177374 4
5.03666 -7.99809 -2.53261 0.000475052 4
5.84247 -9.27769 -2.53125 0.000245858 4
6.9321 -11.008 -2.52866 0.000121491 4
8.73727 -13.8745 -2.59694 0.000137577 4
5.06749 -7.98509 -2.53409 0.000168335 4
5.87101 -9.25124 -2.5296 0.000186683 4
6.9678 -10.9795 -2.52769 0.000159079 4
8.73022 -13.7566 -2.58056 0.000203907 4
5.08373 -7.94921 -2.52832 0.000538705 4
5.91433 -9.24798 -2.53435 0.000368838 4
7.00356 -10.9512 -2.52678 0.00013028 4
8.72089 -13.6365 -2.56371 0.000188697 4
5.11476 -7.93655 -2.52995 0.000587372 4
5.93459 -9.20869 -2.52924 0.000373417 4
7.04765 -10.9358 -2.5289 0.000151589 4
8.71862 -13.5287 -2.54915 0.00022803 4
5.15385 -7.93623 -2.53557 0.000419041 4
5.97695 -9.20369 -2.53358 0.000307408 4
7.09235 -10.9213 -2.53124 0.000195453 4
8.70133 -13.3989 -2.5304 0.000153822 4
5.17737 -7.91185 -2.53354 0.000523832 4
6.00139 -9.17109 -2.53036 0.000316538 4
7.12005 -10.8806 -2.52756 0.000172915 4
8.73497 -13.3484 -2.52662 8.976e-05 4
5.19909 -7.88484 -2.53068 0.000426574 4
6.03604 -9.15413 -2.53148 0.00029834 4
7.1661 -10.868 -2.53042 0.000174183 4
8.78983 -13.3305 -2.52901 9.80926e-05 4
5.23195 -7.87472 -2.53328 0.000475246 4
6.06271 -9.12511 -2.52929 0.000252809 4
7.20326 -10.8418 -2.53016 0.00017921 4
8.82813 -13.2874 -2.52667 7.96716e-05 4
5.26024 -7.85765 -2.53368 0.000497727 4
6.10043 -9.11272 -2.53174 0.000341658 4
7.23956 -10.8143 -2.52964 0.000150399 4
9.48297 -14.1655 -2.69992 9.95924e-05 4
5.29142 -7.84485 -2.5355 0.000426648 4
6.13353 -9.09333 -2.53229 0.000273345 4
7.27954 -10.7924 -2.53043 0.000155425 4
9.51865 -14.112 -2.69604 8.11943e-05 4
5.30507 -7.80617 -2.52896 0.000194623 4
6.15448 -9.05605 -2.52787 0.000332592 4
7.31385 -10.762 -2.52928 0.000185523 4
9.54309 -14.0422 -2.68906 4.5721e-05 4
5.33094 -7.78564 -2.52833 0.000374295 4
6.19962 -9.05433 -2.53342 0.000321224 4
7.35594 -10.7431 -2.53086 0.000156705 4
9.55999 -13.962 -2.68008 8.06262e-05 4
5.36593 -7.77836 -2.53203 0.000494098 4
6.22698 -9.02652 -2.5317 0.000291627 4
7.39591 -10.721 -2.53172 0.00019433 4
9.59475 -13.9084 -2.67619 7.03225e-05 4
5.3958 -7.76354 -2.53332 0.000419259 4
6.26183 -9.0096 -2.53307 0.000250634 4
7.4271 -10.6862 -2.52961 0.000157985 4
9.60747 -13.8233 -2.66627 9.26958e-05 4
5.42187 -7.74323 -2.53285 8.23591e-05 4
6.28357 -8.97387 -2.52918 0.000262044 4
7.78834 -11.1229 -2.63941 0.000168344 4
9.63465 -13.7597 -2.66046 0.00010493 4
5.44974 -7.7255 -2.53326 0.000610241 4
6.31757 -8.95573 -2.53027 0.000353214 4
7.83226 -11.1029 -2.64114 0.000113725 4
9.66793 -13.7052 -2.65643 6.47937e-05 4
5.4653 -7.69042 -2.528 0.000584067 4
6.35592 -8.94365 -2.53311 0.000309938 4
9.67798 -13.6182 -2.64611 0.000113146 4
5.50689 -7.69195 -2.5348 0.000569123 4
6.38121 -8.91318 -2.53077 0.000328191 4
7.90327 -11.0392 -2.63903 3.90298e-05 4
9.70899 -13.5614 -2.64163 0.000106471 4
5.52762 -7.66423 -2.53201 0.000258367 4
6.40583 -8.88191 -2.52822 0.000205133 4
7.94394 -11.0146 -2.63976 0.000108177 4
5.54461 -7.63151 -2.52758 0.000505529 4
6.44255 -8.86741 -2.53048 0.000243897 4
7.97904 -10.9822 -2.63867 0.000169529 4
9.79681 -13.4842 -2.63985 0.00011198 4
5.5877 -7.63462 -2.53506 0.000400701 4
6.47334 -8.8447 -2.53043 7.97848e-05 4
8.02791 -10.9688 -2.64215 0.000153927 4
9.84216 -13.4476 -2.6394 0.000102528 4
5.59838 -7.59346 -2.52786 0.000490605 4
6.50329 -8.82085 -2.53009 0.000234811 4
8.06808 -10.9433 -2.64278 5.35442e-05 4
9.8911 -13.416 -2.63995 0.000102539 4
5.63772 -7.5912 -2.53365 0.000554302 4
6.52653 -8.78798 -2.52718 0.000291823 4
8.10445 -10.9127 -2.6422 9.48256e-05 4
9.93796 -13.3815 -2.63997 9.72904e-05 4
5.66673 -7.57488 -2.53478 0.000397023 4
6.55816 -8.76647 -2.52756 0.000255362 4
8.12827 -10.8653 -2.63758 0.00012942 4
5.67867 -7.53584 -2.52834 0.000468213 4
6.59608 -8.7533 -2.53039 0.000394469 4
8.17663 -10.8508 -2.64097 5.24416e-05 4
5.71444 -7.5285 -2.53255 0.00051319 4
6.62421 -8.72707 -2.52948 0.000307843 4
8.17698 -10.7728 -2.62892 0.000362041 4
5.74237 -7.51071 -2.5333 0.000531949 4
6.66307 -8.71494 -2.53268 0.000332949 4
8.17352 -10.6905 -2.6158 0.000380752 4
10.1087 -13.2217 -2.63604 2.94623e-05 4
5.76833 -7.49033 -2.5332 0.000400857 4
6.67887 -8.67269 -2.52717 0.000319287 4
8.15789 -10.5932 -2.59894 0.000329411 4
5.78533 -7.45841 -2.52922 0.000434598 4
6.72031 -8.66378 -2.53139 0.000250885 4
8.15308 -10.5109 -2.58571 0.000278861 4
5.81132 -7.43816 -2.52921 0.000487076 4
6.7548 -8.64575 -2.533 0.000266867 4
8.15574 -10.4389 -2.57498 0.000244519 4
28.9187 -37.0142 -2.46169 2.99506e-05 10
28.9275 -37.0255 -0.820145 3.01657e-05 10
28.9271 -37.0251 0.820134 3.01804e-05 10
5.84973 -7.43368 -2.53462 0.000968704 4
6.7692 -8.60213 -2.52712 0.000237231 4
8.14647 -10.3523 -2.56063 0.000476612 4
28.8703 -36.6876 -2.44665 3.07792e-05 10
28.8661 -36.6823 -0.81477 3.09996e-05 10
28.8589 -36.6731 0.814565 3.10146e-05 10
5.88064 -7.41952 -2.53678 0.000946452 4
6.79812 -8.57709 -2.52673 0.00024409 4
8.14153 -10.2721 -2.54779 0.000415844 4
28.8089 -36.3479 -2.43068 3.16194e-05 10
28.8053 -36.3433 -0.809467 3.1845e-05 10
28.7968 -36.3325 0.809226 3.18602e-05 10
5.91678 -7.41182 -2.54119 0.00097262 4
6.84184 -8.57062 -2.53184 0.00028517 4
8.13613 -10.192 -2.53495 0.000316962 4
10.3971 -13.0242 -2.6395 3.26391e-05 4
5.95527 -7.40686 -2.5466 0.000926483 4
6.8577 -8.52925 -2.52667 0.000289752 4
8.15244 -10.1396 -2.52899 0.000167031 4
10.4338 -12.9771 -2.63733 3.42219e-05 4
5.97656 -7.38044 -2.54467 0.000920526 4
6.89897 -8.51952 -2.53091 0.000280644 4
8.19222 -10.1166 -2.53036 0.000156997 4
6.01609 -7.37646 -2.55053 0.00100917 4
6.92476 -8.4906 -2.52948 0.000312607 4
8.22449 -10.0842 -2.52944 0.000143192 4
6.06058 -7.37827 -2.55845 0.000932073 4
6.94797 -8.4586 -2.52716 0.000314909 4
8.25393 -10.0485 -2.52769 0.000194706 4
6.08436 -7.35473 -2.55764 0.00108154 4
6.97982 -8.43716 -2.52802 0.00027157 4
8.86079 -10.7109 -2.70207 0.000171091 4
6.13077 -7.35839 -2.56634 0.00107435 4
7.00641 -8.40936 -2.527 0.000294409 4
8.89574 -10.677 -2.70135 0.000195249 4
10.6655 -12.8012 -2.63901 4.05603e-05 4
6.16886 -7.35176 -2.57152 0.000706316 4
7.04316 -8.39371 -2.52967 0.000321817 4
8.91009 -10.6186 -2.69443 0.000195164 4
6.20425 -7.34174 -2.57557 0.00107519 4
7.38629 -8.74049 -2.64194 0.000191654 4
8.93641 -10.5748 -2.69121 0.000207445 4
10.7432 -12.7128 -2.63619 4.79445e-05 4
6.22869 -7.31869 -2.5751 0.00103757 4
7.4078 -8.70414 -2.63875 0.000236524 4
8.93805 -10.5022 -2.68065 0.000205855 4
10.7958 -12.685 -2.63822 7.37682e-05 4
13.9026 -16.3355 -2.63381 3.58957e-05 4
30.4037 -35.7242 -2.45848 2.94637e-05 10
30.3933 -35.712 -0.818548 2.96741e-05 10
6.26033 -7.30405 -2.57762 0.0010154 4
7.44093 -8.68149 -2.63974 0.000236539 4
8.96033 -10.4542 -2.67637 0.000119392 4
10.8331 -12.6392 -2.63655 3.74147e-05 4
30.3503 -35.4103 -2.44415 3.01899e-05 10
30.3346 -35.392 -0.813636 3.04049e-05 10
6.29565 -7.29359 -2.58167 0.000903791 4
7.47626 -8.66133 -2.64153 0.00038542 4
8.97793 -10.401 -2.67076 0.000161407 4
6.3419 -7.29552 -2.59017 0.000860393 4
7.49894 -8.62654 -2.63889 0.000220254 4
9.00998 -10.3648 -2.66952 7.96962e-05 4
10.9266 -12.5697 -2.63789 3.05702e-05 4
6.36967 -7.27602 -2.59113 0.000743861 4
7.52979 -8.60121 -2.63916 0.000358955 4
9.02601 -10.3103 -2.66359 4.81639e-05 4
6.40829 -7.26878 -2.5965 0.00076052 4
7.55559 -8.57013 -2.6377 0.000244758 4
9.03768 -10.2512 -2.65646 0.000118043 4
6.44404 -7.2581 -2.6007 0.00106727 4
7.59397 -8.55329 -2.64066 0.000161142 4
9.05498 -10.1989 -2.65106 0.000172635 4
6.49217 -7.26109 -2.60988 0.000728008 4
7.62217 -8.52494 -2.64011 0.000173392 4
9.07819 -10.1534 -2.64746 0.000247681 4
11.1004 -12.4151 -2.63773 3.90187e-05 4
6.51576 -7.23649 -2.6092 0.00103041 4
7.64828 -8.49427 -2.63886 0.000171362 4
9.09724 -10.1035 -2.64272 0.000208144 4
6.55321 -7.22718 -2.61407 0.00105837 4
7.68672 -8.47727 -2.6419 0.000150972 4
9.11271 -10.0499 -2.63701 3.3542e-05 4
11.177 -12.3266 -2.63543 3.21704e-05 4
6.59845 -7.22623 -2.62204 0.000987098 4
7.722 -8.45668 -2.64387 0.000165263 4
9.14757 -10.0179 -2.63696 0.000254938 4
20.8007 -22.7797 -2.69883 3.03259e-05 4
6.63145 -7.21165 -2.62514 0.000776801 4
7.74987 -8.42792 -2.64332 0.000326466 4
9.18336 -9.98684 -2.63721 0.000205755 4
20.7696 -22.5868 -2.68455 3.13217e-05 4
