VERSION 0.7
FIELDS x y z intensity label
SIZE 4 4 4 4 4
TYPE F F F F F
COUNT 1 1 1 1 1
WIDTH 1173
HEIGHT 1
VIEWPOINT 5.18316 36.0176 2.72866 0.766107 -0.00047106 0.000596032 0.642713
POINTS 1173
DATA ascii
1.9282 -12.7497 -2.50647 0.0025407 10
1.92851 -12.7517 -2.04264 0.00259914 10
3.09671 -20.4761 -2.54274 8.34379e-05 10
3.97484 -26.2824 -2.32556 0.000306765 10
4.92154 -32.5422 -1.72486 0.000145111 10
4.91923 -32.5269 -0.574216 0.000145957 10
4.92125 -32.5403 0.574451 0.000145965 10
3.01716 -19.9501 1.05743 3.96972e-05 10
1.92953 -12.7584 1.12891 0.00209219 10
1.92681 -12.7405 1.58212 0.0020642 10
1.92969 -12.7595 2.04388 0.00202731 10
1.92931 -12.757 2.5079 0.00198189 10
1.92727 -12.7435 2.97552 0.0019284 10
1.92813 -12.7492 3.45498 0.0018674 10
1.44924 -9.36154 -2.5383 0.000386898 4
1.80473 -11.6578 -2.72348 0.000308685 1
1.97209 -12.739 -2.5057 0.00254145 10
1.97274 -12.7432 -2.04236 0.0025999 10
3.17046 -20.4799 -2.54457 8.34524e-05 10
4.06489 -26.2576 -2.32461 0.000306873 10
5.03291 -32.5107 -1.72411 0.000145165 10
6.35633 -41.0594 -0.725233 5.81555e-05 10
6.35251 -41.0348 0.724796 5.81587e-05 10
3.08752 -19.9442 1.05768 3.96811e-05 10
1.97127 -12.7336 1.12732 0.0020928 10
1.97024 -12.727 1.58129 0.00206481 10
1.96973 -12.7237 2.03924 0.00202791 10
1.97139 -12.7344 2.50481 0.00198247 10
1.97153 -12.7353 2.9752 0.00192897 10
1.97035 -12.7277 3.45101 0.00186795 10
1.48283 -9.36226 -2.53988 0.00043157 4
1.84445 -11.6454 -2.72207 0.00030871 1
2.01524 -12.7238 -2.50408 0.00254208 10
2.01657 -12.7321 -2.04171 0.00260055 10
3.23988 -20.4558 -2.54296 8.34669e-05 10
4.15684 -26.2453 -2.32478 0.000306964 10
5.14751 -32.5001 -1.72449 0.000145212 10
7.25577 -45.8112 -0.809605 3.61161e-05 10
7.25757 -45.8225 0.809804 3.61182e-05 10
3.15714 -19.9334 1.05769 3.9665e-05 10
2.01588 -12.7278 1.12742 0.00209332 10
2.01695 -12.7345 1.58309 0.00206532 10
2.01574 -12.7269 2.04087 0.00202841 10
2.01678 -12.7335 2.50599 0.00198297 10
2.01823 -12.7426 2.97853 0.00192946 10
2.01575 -12.727 3.45269 0.00186842 10
1.51386 -9.34688 -2.53712 0.000342302 4
1.88679 -11.6494 -2.72452 0.000308736 1
2.06302 -12.7375 -2.50818 0.0025426 10
2.06036 -12.7211 -2.04107 0.00260108 10
3.30877 -20.429 -2.54105 8.34814e-05 10
4.24673 -26.2201 -2.32385 0.000307039 10
5.2563 -32.4534 -1.72297 0.00014525 10
3.22515 -19.9127 1.05718 3.96489e-05 10
2.05989 -12.7181 1.12719 0.00209375 10
2.06227 -12.7328 1.58377 0.00206575 10
2.06064 -12.7228 2.04135 0.00202883 10
2.06072 -12.7232 2.50538 0.00198337 10
2.06184 -12.7302 2.97729 0.00192985 10
2.05841 -12.709 3.44974 0.0018688 10
1.54529 -9.33432 -2.53517 0.00047628 4
1.92945 -11.6548 -2.72735 0.000308761 1
2.10401 -12.7093 -2.50406 0.00254301 10
2.10311 -12.7039 -2.03948 0.0026015 10
3.38369 -20.4392 -2.54378 8.34958e-05 10
4.33729 -26.1994 -2.32335 0.000307098 10
5.36957 -32.4349 -1.72298 0.00014528 10
3.2931 -19.892 1.05669 3.96328e-05 10
2.10601 -12.7214 1.12813 0.00209408 10
2.10414 -12.7101 1.58184 0.00206607 10
2.10708 -12.7279 2.04333 0.00202915 10
2.10487 -12.7145 2.50509 0.00198369 10
2.10323 -12.7046 2.973 0.00193016 10
2.10647 -12.7241 3.45583 0.0018691 10
1.57922 -9.33693 -2.53736 0.000558178 4
1.96655 -11.627 -2.72242 0.000308786 1
2.15127 -12.7191 -2.50745 0.0025433 10
2.15043 -12.7141 -2.04232 0.0026018 10
3.45432 -20.4232 -2.54327 8.35103e-05 10
4.43188 -26.2029 -2.32501 0.00030714 10
5.48443 -32.4259 -1.72351 0.000145301 10
3.36659 -19.9045 1.05797 3.96167e-05 10
2.1495 -12.7086 1.12765 0.00209432 10
2.15124 -12.7189 1.58387 0.00206631 10
2.14676 -12.6924 2.03883 0.00202938 10
2.15066 -12.7155 2.50674 0.00198392 10
2.15095 -12.7172 2.9777 0.00193038 10
2.14868 -12.7038 3.45232 0.00186932 10
1.61155 -9.32986 -2.53695 0.000494952 4
2.00889 -11.6302 -2.72481 0.000308811 1
2.19609 -12.714 -2.50795 0.00254348 10
2.19527 -12.7092 -2.04275 0.00260198 10
3.52585 -20.4125 -2.54345 8.35248e-05 10
4.52367 -26.1892 -2.32519 0.000307165 10
5.59862 -32.4126 -1.72383 0.000145314 10
3.43227 -19.8708 1.0568 3.96007e-05 10
2.19188 -12.6896 1.12664 0.00209447 10
2.19589 -12.7129 1.58406 0.00206646 10
2.19332 -12.698 2.04094 0.00202953 10
2.1922 -12.6915 2.5035 0.00198406 10
2.19517 -12.7087 2.97748 0.00193052 10
2.19466 -12.7057 3.45491 0.00186945 10
1.64239 -9.31444 -2.5343 0.000480099 4
2.04756 -11.6123 -2.72227 0.000308837 1
2.23706 -12.687 -2.50414 0.00254354 10
2.23893 -12.6976 -2.04213 0.00260204 10
3.59685 -20.3987 -2.54329 8.35392e-05 10
4.61398 -26.1672 -2.32465 0.000307175 10
5.71011 -32.3837 -1.72334 0.000145319 10
3.50282 -19.8655 1.05717 3.95846e-05 10
2.23539 -12.6775 1.12625 0.00209452 10
2.23642 -12.6834 1.58135 0.00206651 10
2.23618 -12.682 2.03962 0.00202958 10
2.23629 -12.6826 2.50328 0.00198411 10
2.23728 -12.6883 2.97451 0.00193057 10
2.2354 -12.6776 3.44936 0.0018695 10
1.67791 -9.32545 -2.53887 0.000450356 4
2.08904 -11.6104 -2.72351 0.000308862 1
2.28334 -12.6903 -2.50635 0.00254349 10
2.27976 -12.6704 -2.03902 0.00260199 10
3.66457 -20.3668 -2.54089 8.35536e-05 10
4.70436 -26.1458 -2.32419 0.000307167 10
5.82308 -32.3633 -1.72333 0.000145315 10
3.57624 -19.8759 1.05838 3.95686e-05 10
2.28427 -12.6954 1.12854 0.00209448 10
2.27968 -12.6699 1.58065 0.00206647 10
2.28219 -12.6839 2.04119 0.00202954 10
2.28262 -12.6863 2.50556 0.00198407 10
2.28144 -12.6797 2.97435 0.00193053 10
2.2822 -12.684 3.45323 0.00186946 10
1.70963 -9.31503 -2.53765 0.000554608 4
2.13242 -11.6186 -2.72718 0.000308887 1
2.32818 -12.6852 -2.50695 0.00254332 10
2.32657 -12.6765 -2.0413 0.00260182 10
3.73853 -20.3696 -2.54285 8.3568e-05 10
4.79871 -26.1461 -2.3257 0.000307143 10
5.93675 -32.3468 -1.72354 0.000145303 10
3.64501 -19.8601 1.05821 3.95526e-05 10
2.32595 -12.6731 1.12727 0.00209435 10
2.32867 -12.6879 1.5839 0.00206633 10
2.32737 -12.6808 2.042 0.0020294 10
2.32387 -12.6618 2.50231 0.00198394 10
2.32781 -12.6833 2.97707 0.0019304 10
2.32468 -12.6662 3.45058 0.00186934 10
1.73966 -9.29578 -2.53404 0.000442972 4
2.16949 -11.5926 -2.72282 0.000308912 1
2.36894 -12.6584 -2.50325 0.00254305 10
2.37306 -12.6804 -2.04324 0.00260154 10
3.80724 -20.3438 -2.54127 8.35825e-05 10
4.88769 -26.1171 -2.32462 0.000307103 10
6.04738 -32.3139 -1.7229 0.000145283 10
3.71053 -19.827 1.05713 3.95366e-05 10
2.37252 -12.6775 1.12839 0.00209412 10
2.36984 -12.6631 1.58183 0.00206611 10
2.3693 -12.6602 2.04 0.00202918 10
2.36868 -12.6569 2.50297 0.00198372 10
2.37168 -12.673 2.97658 0.00193019 10
2.37215 -12.6755 3.45535 0.00186913 10
1.77197 -9.28898 -2.53386 0.000506288 4
2.20961 -11.5832 -2.72241 0.000308938 1
2.41428 -12.6561 -2.50446 0.00254265 10
2.41634 -12.6669 -2.04242 0.00260114 10
3.88124 -20.3462 -2.54324 8.35969e-05 10
4.98094 -26.111 -2.32561 0.000307047 10
6.16493 -32.3177 -1.72424 0.000145254 10
3.78421 -19.8375 1.05839 3.95206e-05 10
2.39175 -12.538 1.11671 0.000187809 10
2.34471 -12.2914 1.53641 0.00222828 10
2.34635 -12.3 1.98326 0.00218866 10
2.34936 -12.3158 2.43711 0.00213988 10
2.34743 -12.3057 2.89222 0.00208244 10
2.3487 -12.3123 3.35857 0.0020169 10
1.80561 -9.28907 -2.53559 0.000517491 4
2.24966 -11.5735 -2.72196 0.000308963 1
2.45724 -12.6414 -2.50323 0.00254214 10
2.45971 -12.6541 -2.04172 0.00260062 10
3.94971 -20.3195 -2.54162 8.36113e-05 10
5.07189 -26.0926 -2.32553 0.000306973 10
6.27634 -32.289 -1.72387 0.000145216 10
3.85457 -19.83 1.0587 3.95047e-05 10
2.43577 -12.5309 1.11683 0.000187768 10
2.39255 -12.3086 1.53959 0.00222784 10
2.38773 -12.2838 1.98198 0.00218823 10
2.39224 -12.307 2.43702 0.00213946 10
2.39314 -12.3116 2.89557 0.00208202 10
2.38972 -12.294 3.35583 0.0020165 10
1.83984 -9.2919 -2.53809 0.000435616 4
2.29309 -11.581 -2.72559 0.000308988 1
2.50315 -12.6418 -2.50503 0.00254152 10
2.50357 -12.6439 -2.04148 0.00259998 10
4.02317 -20.3185 -2.54324 8.36256e-05 10
5.1632 -26.0761 -2.32565 0.000306884 10
6.3885 -32.2643 -1.72373 0.000145171 10
3.92119 -19.8035 1.05801 3.94888e-05 10
2.47877 -12.5187 1.11651 0.000187728 10
2.43637 -12.3046 1.54014 0.0022273 10
2.43287 -12.2869 1.98384 0.0021877 10
2.43347 -12.2899 2.4353 0.00213894 10
2.43558 -12.3006 2.89495 0.00208151 10
2.43543 -12.2998 3.35972 0.00201601 10
1.86865 -9.26748 -2.53319 0.000562243 4
2.3346 -11.5783 -2.72687 0.000309013 1
2.55074 -12.6503 -2.50846 0.00254079 10
2.54779 -12.6356 -2.04156 0.00259923 10
4.0899 -20.2837 -2.54065 8.36401e-05 10
5.25412 -26.0576 -2.32562 0.000306778 10
6.5041 -32.2568 -1.72453 0.000145117 10
3.99383 -19.8072 1.05894 3.94728e-05 10
2.52262 -12.5108 1.11658 0.000187687 10
2.55906 -12.6915 1.58969 0.00129943 10
2.5634 -12.713 2.05407 0.00127619 10
2.561 -12.7012 2.51854 0.00124757 10
2.55949 -12.6937 2.98954 0.00121387 10
2.56121 -12.7022 3.47204 0.00117543 10
1.90344 -9.27286 -2.53646 0.000472912 4
2.37288 -11.5598 -2.72444 0.000309038 1
2.59129 -12.6238 -2.50498 0.00253994 10
2.59251 -12.6297 -2.04206 0.00259836 10
4.16391 -20.285 -2.54262 8.36544e-05 10
5.34356 -26.0318 -2.32497 0.000306655 10
6.61512 -32.2264 -1.72413 0.000145055 10
4.05822 -19.7701 1.05771 3.94569e-05 10
2.56457 -12.4936 1.11584 0.000187646 10
2.60399 -12.6856 1.59008 0.001299 10
2.60607 -12.6958 2.05274 0.00127576 10
2.60498 -12.6905 2.51821 0.00124715 10
2.60822 -12.7063 2.99464 0.00121346 10
2.60336 -12.6826 3.46914 0.00117504 10
1.93448 -9.25982 -2.53473 0.000484116 4
2.41289 -11.5498 -2.72406 0.000309063 1
2.63485 -12.6123 -2.50452 0.00253897 10
2.63603 -12.618 -2.04163 0.00259737 10
4.22997 -20.2477 -2.53978 8.36687e-05 10
5.43569 -26.0192 -2.32553 0.000306516 10
6.73038 -32.2165 -1.72485 0.000144984 10
4.13277 -19.7825 1.05914 3.94411e-05 10
2.60845 -12.4859 1.11596 0.000187605 10
1.96986 -9.26747 -2.53869 0.000446906 4
2.45219 -11.5366 -2.72295 0.000309088 1
2.68136 -12.6148 -2.50685 0.00253789 10
2.68088 -12.6126 -2.04226 0.00259627 10
4.30393 -20.2484 -2.54174 8.36831e-05 10
5.52445 -25.9905 -2.32468 0.000306361 10
6.84212 -32.1897 -1.72468 0.000144905 10
4.20092 -19.7638 1.05892 3.94252e-05 10
2.64922 -12.4636 1.11479 0.000187564 10
2.00106 -9.25528 -2.53725 0.000592191 4
2.49527 -11.5411 -2.72604 0.000309113 1
2.72299 -12.5943 -2.50466 0.0025367 10
2.72713 -12.6135 -2.04394 0.00259505 10
4.37156 -20.2193 -2.53998 8.36975e-05 10
5.61601 -25.9751 -2.32503 0.000306189 10
6.95256 -32.1569 -1.72421 0.000144818 10
4.26798 -19.7402 1.05844 3.94093e-05 10
2.6978 -12.4778 1.11689 0.000187524 10
2.03425 -9.25233 -2.53837 0.00040227 4
2.53538 -11.5316 -2.72586 0.000309138 1
2.76764 -12.588 -2.5053 0.00253539 10
2.76939 -12.5959 -2.04265 0.00259372 10
4.44518 -20.2179 -2.54173 8.37117e-05 10
5.71155 -25.9776 -2.32703 0.000306001 10
7.07134 -32.1623 -1.72581 0.000144722 10
4.34114 -19.7447 1.05949 3.93935e-05 10
2.74207 -12.4716 1.11719 0.000187483 10
2.06433 -9.23529 -2.53565 0.000476796 4
2.57213 -11.5071 -2.72217 0.000309163 1
2.81263 -12.583 -2.50624 0.00253397 10
2.81728 -12.6038 -2.04551 0.00259227 10
4.51442 -20.1964 -2.541 8.37261e-05 10
5.79884 -25.9425 -2.32569 0.000305797 10
7.1847 -32.1425 -1.72609 0.000144619 10
7.17842 -32.1144 -0.574392 9.60817e-05 10
7.18125 -32.1271 0.574619 9.60866e-05 10
4.40512 -19.7074 1.05831 3.93777e-05 10
2.77971 -12.4357 1.11483 0.000187442 10
2.09411 -9.21728 -2.5327 0.000361347 4
2.61059 -11.4905 -2.72041 0.000309188 1
2.85886 -12.5833 -2.50828 0.00253244 10
2.85871 -12.5827 -2.04369 0.0025907 10
4.58263 -20.1705 -2.53974 8.37404e-05 10
5.8911 -25.9298 -2.32637 0.000305576 10
7.29295 -32.1 -1.72516 0.000144506 10
4.47875 -19.7133 1.05946 3.93619e-05 10
2.82655 -12.4411 1.11619 0.000187402 10
2.13059 -9.22862 -2.53785 0.000543919 4
2.6522 -11.4879 -2.72196 0.000309213 1
2.90179 -12.5691 -2.50744 0.0025308 10
2.90358 -12.5768 -2.04436 0.00258902 10
4.655 -20.1631 -2.54083 8.37546e-05 10
5.98132 -25.9079 -2.32627 0.00030534 10
7.40767 -32.0862 -1.7258 0.000144386 10
4.54679 -19.6943 1.05929 3.93461e-05 10
2.87303 -12.4445 1.11739 0.000187361 10
2.15856 -9.20305 -2.53287 0.000458264 4
2.69673 -11.4976 -2.72646 0.000309238 1
2.9447 -12.5548 -2.50663 0.00252904 10
2.94626 -12.5614 -2.04353 0.00258722 10
4.72478 -20.1442 -2.54052 8.3769e-05 10
6.07781 -25.9129 -2.32861 0.000305086 10
6.07546 -25.9029 -1.39435 0.000203704 10
6.07896 -25.9178 -0.464674 0.000204809 10
6.07456 -25.8991 0.464338 0.000204819 10
4.61219 -19.6642 1.05852 3.93304e-05 10
2.91519 -12.429 1.11691 0.000187321 10
2.1933 -9.20653 -2.53592 0.000521636 4
2.73125 -11.4646 -2.72089 0.000309263 1
2.99444 -12.5694 -2.51161 0.00252717 10
2.99286 -12.5627 -2.04542 0.00258531 10
4.7932 -20.1198 -2.53953 8.37832e-05 10
6.1666 -25.8847 -2.32799 0.000304817 10
7.63528 -32.0496 -1.72665 0.00014412 10
4.68743 -19.6758 1.06002 3.93146e-05 10
2.95902 -12.4207 1.11708 0.00018728 10
2.22453 -9.19509 -2.53489 0.000540302 4
2.77512 -11.471 -2.72468 0.000309288 1
3.03796 -12.5574 -2.51133 0.00252518 10
3.03753 -12.5557 -2.04599 0.00258328 10
4.86467 -20.1082 -2.5402 8.37975e-05 10
6.25694 -25.8631 -2.328 0.000304531 10
7.74966 -32.0333 -1.72722 0.000143975 10
7.74794 -32.0262 -0.575145 9.56546e-05 10
7.74833 -32.0277 0.575173 9.56594e-05 10
4.75571 -19.6577 1.05994 3.92989e-05 10
3.00336 -12.4144 1.11745 0.00018724 10
2.25508 -9.18107 -2.53318 0.000402459 4
2.81585 -11.4641 -2.72537 0.000309313 1
3.08421 -12.5567 -2.51332 0.00252308 10
3.07805 -12.5316 -2.04381 0.00258114 10
4.93563 -20.0943 -2.54061 8.38117e-05 10
6.34905 -25.8487 -2.32869 0.00030423 10
6.35323 -25.8657 -1.39586 0.000203132 10
6.35069 -25.8554 -0.464722 0.000204235 10
6.35264 -25.8633 0.464864 0.000204244 10
4.82172 -19.6305 1.05937 3.92832e-05 10
3.04418 -12.3937 1.11654 0.000187199 10
2.2875 -9.17467 -2.53361 0.000477021 4
2.85589 -11.4543 -2.7254 0.000309338 1
3.12732 -12.543 -2.51275 0.00252088 10
3.12587 -12.5372 -2.04648 0.00257888 10
5.00396 -20.0698 -2.5397 8.3826e-05 10
6.4456 -25.8519 -2.33099 0.000303912 10
7.97509 -31.9864 -1.72765 0.000143661 10
7.97554 -31.9881 -0.575449 9.54456e-05 10
7.97853 -32.0001 0.575664 9.54504e-05 10
4.89031 -19.614 1.05939 3.92675e-05 10
3.08951 -12.3914 1.11729 0.000187159 10
2.3177 -9.15947 -2.53163 0.00040624 4
2.89593 -11.4446 -2.72547 0.000309362 1
3.16724 -12.5168 -2.50971 0.00251855 10
3.1668 -12.5151 -2.04467 0.00257651 10
5.077 -20.0641 -2.54121 8.38402e-05 10
6.53317 -25.8189 -2.33005 0.000303578 10
8.09062 -31.9738 -1.72849 0.000143491 10
11.4091 -45.0884 -0.811827 3.56245e-05 10
11.4076 -45.0823 0.811715 3.56266e-05 10
4.95683 -19.5892 1.05898 3.92519e-05 10
3.12972 -12.3685 1.11621 0.000187119 10
2.35316 -9.16497 -2.5354 0.000506902 4
2.93613 -11.4355 -2.72572 0.000309387 1
3.21485 -12.521 -2.51278 0.00251612 10
3.21679 -12.5286 -2.04869 0.00257403 10
5.14537 -20.0399 -2.5404 8.38544e-05 10
6.62792 -25.814 -2.33169 0.000303228 10
6.62936 -25.8197 -1.39704 0.000202464 10
6.6275 -25.8124 -0.465172 0.000203563 10
6.62985 -25.8216 0.465336 0.000203573 10
5.02903 -19.5868 1.0598 3.92362e-05 10
3.1717 -12.3529 1.1158 0.000187078 10
2.38543 -9.15782 -2.53571 0.000540483 4
2.97544 -11.4229 -2.72518 0.000309412 1
3.26064 -12.5178 -2.51441 0.00251358 10
3.26092 -12.5189 -2.04896 0.00257143 10
5.2169 -20.028 -2.54119 8.38686e-05 10
6.71803 -25.7909 -2.33171 0.000302862 10
8.3157 -31.9245 -1.72892 0.000143127 10
5.09704 -19.5679 1.05973 3.92206e-05 10
3.21798 -12.354 1.1169 0.000187038 10
2.41778 -9.15095 -2.53613 0.000529336 4
3.01046 -11.3941 -2.72081 0.000309437 1
3.30409 -12.5055 -2.51424 0.00251092 10
3.3003 -12.4911 -2.04629 0.00256871 10
5.28289 -19.995 -2.53932 8.38828e-05 10
6.81266 -25.7849 -2.3333 0.000302481 10
8.42722 -31.8958 -1.72895 0.000142933 10
10.6457 -40.2925 -0.727442 5.71765e-05 10
10.6483 -40.3022 0.727616 5.71797e-05 10
5.16536 -19.5501 1.05974 3.9205e-05 10
3.25831 -12.3322 1.11595 0.000186998 10
2.45079 -9.14649 -2.53725 0.000663578 4
3.05105 -11.3867 -2.72156 0.000309462 1
3.34951 -12.5005 -2.51557 0.00250815 10
3.35202 -12.5099 -2.05127 0.00256588 10
5.35491 -19.9848 -2.54038 8.38969e-05 10
6.90197 -25.7585 -2.33307 0.000302083 10
6.90129 -25.756 -1.39743 0.0002017 10
6.8985 -25.7456 -0.465244 0.000202795 10
6.90323 -25.7632 0.465562 0.000202805 10
5.23391 -19.5332 1.0598 3.91894e-05 10
3.3011 -12.3199 1.11587 0.000186958 10
2.47646 -9.11489 -2.53087 0.000574145 4
3.09012 -11.3735 -2.72098 0.000309486 1
3.3952 -12.4964 -2.51712 0.00250528 10
3.39632 -12.5005 -2.05166 0.00256295 10
5.42065 -19.9513 -2.53852 8.39111e-05 10
6.99066 -25.7299 -2.33268 0.000301669 10
8.66029 -31.8752 -1.73106 0.000142521 10
9.78331 -36.0086 -0.651317 8.97446e-05 10
9.78176 -36.0028 0.651213 8.97494e-05 10
5.30647 -19.531 1.06069 3.91739e-05 10
3.35006 -12.3303 1.11787 0.000186918 10
2.51473 -9.12966 -2.53739 0.000521985 4
3.12971 -11.3624 -2.7209 0.000309511 1
3.43372 -12.4661 -2.5134 0.00250229 10
3.43406 -12.4673 -2.04816 0.00255989 10
5.49118 -19.9356 -2.53895 8.39253e-05 10
7.09025 -25.741 -2.33592 0.00030124 10
8.77316 -31.8508 -1.73139 0.000142304 10
8.77406 -31.854 -0.576721 9.45443e-05 10
8.76954 -31.8376 0.576424 9.45491e-05 10
5.37284 -19.506 1.06034 3.91583e-05 10
3.39033 -12.3085 1.11696 0.000186878 10
2.54549 -9.11692 -2.5363 0.000380328 4
3.17496 -11.3714 -2.72571 0.000309535 1
3.48399 -12.4782 -2.51829 0.00249919 10
3.48425 -12.4792 -2.0521 0.00255673 10
5.5597 -19.9126 -2.53847 8.39394e-05 10
7.17512 -25.6984 -2.33431 0.000300795 10
7.17986 -25.7154 -1.39923 0.000200841 10
7.17657 -25.7036 -0.465818 0.000201932 10
7.18142 -25.721 0.466132 0.000201941 10
5.44404 -19.4984 1.06095 3.91428e-05 10
3.43701 -12.31 1.11818 0.000186838 10
2.57513 -9.10033 -2.53417 0.000495951 4
3.20985 -11.3434 -2.72165 0.00030956 1
3.52442 -12.455 -2.51608 0.00249598 10
3.5258 -12.4599 -2.05095 0.00255345 10
5.62801 -19.889 -2.53795 8.39535e-05 10
7.27435 -25.707 -2.33738 0.000300334 10
9.00253 -31.8143 -1.73278 0.000141844 10
5.51254 -19.4809 1.06104 3.91273e-05 10
3.47966 -12.2968 1.11808 0.000186798 10
2.60682 -9.09105 -2.53411 0.000544464 4
3.25311 -11.3449 -2.72474 0.000309585 1
3.57218 -12.4577 -2.51911 0.00249267 10
3.57329 -12.4616 -2.05326 0.00255006 10
5.70198 -19.8852 -2.53999 8.39676e-05 10
7.3627 -25.6768 -2.33696 0.000299858 10
5.58173 -19.4658 1.06127 3.91118e-05 10
3.52097 -12.2791 1.11757 0.000186758 10
3.5868 -12.5087 1.59777 0.00127485 10
3.59011 -12.5202 2.06292 0.00125203 10
3.58752 -12.5112 2.52993 0.00122392 10
3.58655 -12.5078 3.00402 0.00119083 10
3.58877 -12.5155 3.48867 0.00115309 10
2.63761 -9.07871 -2.53322 0.000391592 4
3.29312 -11.335 -2.72509 0.000309609 1
3.61538 -12.4442 -2.51893 0.00248924 10
3.6136 -12.4381 -2.05145 0.00254656 10
5.77283 -19.8702 -2.54063 8.39817e-05 10
7.45223 -25.6507 -2.33694 0.000299366 10
7.45204 -25.6501 -1.39985 0.000199888 10
7.45514 -25.6607 -0.46643 0.000200973 10
7.45131 -25.6476 0.46619 0.000200983 10
5.64715 -19.4376 1.0608 3.90964e-05 10
3.56249 -12.2622 1.11716 0.000186718 10
2.67029 -9.07288 -2.53418 0.000268538 4
3.33226 -11.322 -2.72476 0.000309634 1
3.66188 -12.442 -2.52105 0.00248571 10
3.66222 -12.4432 -2.05439 0.00254295 10
3.68923 -12.5349 -1.60437 0.000187058 10
3.68723 -12.5281 -1.14256 0.000189939 10
3.6854 -12.5219 -0.684079 0.000191989 10
3.68369 -12.5161 -0.227736 0.000193186 10
3.6865 -12.5257 0.227909 0.000193519 10
3.68391 -12.5169 0.683802 0.000192983 10
3.60396 -12.2452 1.11675 0.000186679 10
2.7027 -9.06605 -2.53489 0.00061171 4
3.3731 -11.3148 -2.72585 0.000309658 1
3.70726 -12.4358 -2.52239 0.00248206 10
3.70225 -12.419 -2.05251 0.00253922 10
3.71028 -12.4459 -1.59462 0.00170792 10
3.70881 -12.441 -1.13578 0.00173124 10
3.70514 -12.4287 -0.679686 0.00174695 10
3.70378 -12.4241 -0.226295 0.00175488 10
3.70364 -12.4236 0.226286 0.00175495 10
3.70381 -12.4242 0.679442 0.00174716 10
3.6477 -12.236 1.11707 0.000186639 10
2.73524 -9.05955 -2.53572 0.000458813 4
3.40515 -11.2784 -2.71991 0.000309683 1
3.74912 -12.4177 -2.52137 0.00247831 10
3.75319 -12.4312 -2.05668 0.00253539 10
3.75088 -12.4235 -1.59342 0.00170534 10
3.75139 -12.4252 -1.13553 0.00172863 10
3.7489 -12.417 -0.679757 0.00174431 10
3.75392 -12.4336 -0.226705 0.00175223 10
3.75206 -12.4274 0.226592 0.0017523 10
3.75166 -12.4261 0.680258 0.00174452 10
3.69265 -12.2306 1.11775 0.000186599 10
2.76146 -9.03234 -2.53079 0.000455113 4
3.4514 -11.289 -2.72536 0.000309707 1
3.79986 -12.4288 -2.5263 0.00247445 10
3.79355 -12.4082 -2.05506 0.00253145 10
6.04086 -19.7588 -2.53692 8.40379e-05 10
7.83011 -25.6111 -2.34307 0.000297244 10
5.92404 -19.3767 1.06189 3.90348e-05 10
3.73395 -12.2132 1.11734 0.00018656 10
2.7972 -9.03629 -2.53462 0.000417836 4
3.49126 -11.2784 -2.72573 0.000309732 1
3.84104 -12.4084 -2.52487 0.00247049 10
3.84466 -12.4201 -2.05924 0.0025274 10
6.11071 -19.7405 -2.53731 8.40519e-05 10
7.91017 -25.5536 -2.34032 3.7576e-05 10
7.90613 -25.5406 -1.40119 3.80525e-05 10
7.90135 -25.5252 -0.466402 3.83274e-05 10
7.89701 -25.5111 0.466145 3.83976e-05 10
5.98614 -19.3381 1.06091 3.90194e-05 10
3.77629 -12.1992 1.11726 0.00018652 10
2.83215 -9.03741 -2.53769 0.000507406 4
3.52535 -11.2494 -2.72168 0.000309756 1
3.8844 -12.3952 -2.52491 0.00246641 10
3.8822 -12.3881 -2.05617 0.00252323 10
6.17821 -19.7147 -2.53674 8.40659e-05 10
7.95788 -25.3937 -2.32819 0.000303032 10
7.95619 -25.3882 -1.39435 0.00030632 10
7.95722 -25.3915 -0.464465 0.000307982 10
7.9575 -25.3924 0.464481 0.000307996 10
6.05814 -19.3316 1.06171 3.90041e-05 10
3.81914 -12.1869 1.11734 0.000186481 10
2.85948 -9.01423 -2.53397 0.000477589 4
3.56326 -11.2328 -2.72065 0.000309781 1
3.93218 -12.3958 -2.52783 0.00246223 10
3.9313 -12.393 -2.05926 0.00251896 10
3.94798 -12.4456 -1.60317 0.00022268 10
3.95024 -12.4527 -1.14298 0.000226048 10
3.95019 -12.4526 -0.684661 0.000228425 10
3.94615 -12.4398 -0.227801 0.000229787 10
3.94443 -12.4344 0.227702 0.00023012 10
3.94259 -12.4286 0.683343 0.000229421 10
3.86215 -12.175 1.11749 0.000186441 10
2.89437 -9.01492 -2.53699 0.000630609 4
3.60763 -11.2365 -2.72457 0.000309805 1
3.9774 -12.3882 -2.52908 0.00245795 10
3.97858 -12.3918 -2.06135 0.00251458 10
3.97482 -12.3801 -1.59651 0.00169136 10
3.97775 -12.3892 -1.13842 0.00171447 10
3.97975 -12.3955 -0.682281 0.00173003 10
3.98069 -12.3984 -0.227296 0.00173789 10
3.97409 -12.3779 0.226919 0.00173796 10
3.97875 -12.3924 0.682109 0.00173024 10
3.90556 -12.1644 1.11776 0.000186402 10
2.92054 -8.98851 -2.53241 0.000447799 4
3.64307 -11.2122 -2.72176 0.000309829 1
4.01974 -12.3715 -2.52853 0.00245356 10
4.02525 -12.3885 -2.06311 0.0025101 10
4.02485 -12.3872 -1.59923 0.00168835 10
4.02493 -12.3875 -1.13954 0.00171141 10
4.02321 -12.3822 -0.682318 0.00172695 10
4.0208 -12.3748 -0.227118 0.00173479 10
4.02409 -12.3849 0.227304 0.00173486 10
4.02432 -12.3856 0.682506 0.00172716 10
3.9493 -12.1547 1.11812 0.000186362 10
2.95378 -8.98399 -2.53402 0.00052993 4
3.68243 -11.2002 -2.72194 0.000309854 1
4.06301 -12.3577 -2.5286 0.00244906 10
4.0673 -12.3708 -2.06252 0.0025055 10
6.45718 -19.6396 -2.53844 8.41218e-05 10
8.12892 -24.7243 -2.27701 4.69231e-05 10
8.15871 -24.8149 -1.36898 0.000215198 10
8.15479 -24.8029 -0.455737 0.000216358 10
8.15694 -24.8095 0.455857 0.000216369 10
6.32966 -19.2518 1.06208 3.89431e-05 10
3.99369 -12.1469 1.11868 0.000186323 10
2.98244 -8.96556 -2.53175 0.000384411 4
3.71857 -11.1784 -2.71979 0.000309878 1
4.11046 -12.3565 -2.53127 0.00244446 10
4.11044 -12.3564 -2.06251 0.0025008 10
6.52481 -19.6143 -2.53809 8.41357e-05 10
8.01549 -24.0955 -2.22166 5.209e-05 10
8.01294 -24.0878 -1.3304 3.48271e-05 10
8.0144 -24.0922 -0.443188 3.50657e-05 10
8.00796 -24.0728 0.442832 3.51199e-05 10
6.39365 -19.22 1.06155 3.89278e-05 10
4.03549 -12.1311 1.11852 0.000186284 10
3.01586 -8.96145 -2.53355 0.000182887 4
3.75934 -11.1706 -2.72107 0.000309902 1
4.15451 -12.3449 -2.53185 0.00243976 10
4.15408 -12.3436 -2.06278 0.002496 10
6.59014 -19.5822 -2.5369 8.41496e-05 10
7.91891 -23.5306 -2.17211 5.76386e-05 10
7.99233 -23.7487 -1.31321 0.00024712 10
7.98836 -23.7369 -0.437163 0.000248436 10
7.98448 -23.7254 0.436951 0.000248448 10
6.46279 -19.2038 1.06189 3.89127e-05 10
4.08014 -12.1239 1.11916 0.000186245 10
3.04906 -8.95656 -2.53516 0.000220225 4
3.79778 -11.1559 -2.7207 0.000309926 1
4.20545 -12.3534 -2.53659 0.00243495 10
4.202 -12.3433 -2.06516 0.00249108 10
4.20423 -12.3499 -1.60183 0.000257943 10
4.20332 -12.3472 -1.14112 0.000261791 10
4.20893 -12.3637 -0.68447 0.000264491 10
4.19934 -12.3355 -0.227451 0.000266016 10
4.20014 -12.3378 0.227495 0.00172175 10
4.20237 -12.3444 0.683401 0.0017141 10
4.12224 -12.109 1.11911 0.000186206 10
4.23062 -12.4274 2.07923 0.00019477 10
3.07832 -8.9401 -2.53352 0.000347157 4
3.8418 -11.1574 -2.72431 0.000309951 1
4.24984 -12.3424 -2.53737 0.00243004 10
4.24669 -12.3333 -2.06596 0.00248606 10
4.24547 -12.3298 -1.60114 0.0016722 10
4.24938 -12.3411 -1.14192 0.00169505 10
4.24565 -12.3303 -0.683436 0.00171045 10
4.24904 -12.3401 -0.227809 0.00171822 10
4.24699 -12.3342 0.227699 0.00171829 10
4.25222 -12.3494 0.684495 0.00171065 10
4.15827 -12.0765 1.11744 0.000186166 10
4.27632 -12.4193 2.08037 0.000194747 10
3.10861 -8.92671 -2.53279 0.000261318 4
3.87382 -11.1241 -2.71947 0.000309975 1
4.29798 -12.3421 -2.54037 0.00242502 10
4.29118 -12.3226 -2.06666 0.00248094 10
4.29143 -12.3233 -1.60224 0.00166875 10
7.17339 -20.5992 -1.90834 0.000578483 10
7.16957 -20.5882 -1.14253 0.000584398 10
7.1738 -20.6004 -0.38076 0.000587386 10
7.17432 -20.6018 0.380787 0.000587413 10
6.66694 -19.1449 1.06244 3.88672e-05 10
4.20594 -12.0778 1.11891 0.000186127 10
4.31807 -12.3998 2.07961 0.000194725 10
3.13671 -8.90716 -2.53033 0.000496536 4
3.91152 -11.1074 -2.7187 0.000309999 1
4.34167 -12.3289 -2.54074 0.00241991 10
4.33781 -12.3179 -2.0684 0.00247571 10
6.86476 -19.4935 -2.53758 8.4205e-05 10
7.24507 -20.5735 -1.9083 0.000577114 10
7.24912 -20.585 -1.14375 0.000583016 10
7.25208 -20.5934 -0.381097 0.000585998 10
7.24772 -20.581 0.380868 0.000586024 10
6.73625 -19.1286 1.06283 3.88522e-05 10
4.24811 -12.0632 1.11892 0.000186089 10
4.36409 -12.3925 2.08093 0.00121549 10
3.17221 -8.9086 -2.53387 0.000418163 4
3.94974 -11.0922 -2.71834 0.000310023 1
4.38182 -12.3056 -2.53908 0.00241469 10
4.38472 -12.3137 -2.07026 0.00247038 10
6.92957 -19.4605 -2.53641 8.42189e-05 10
7.32031 -20.5578 -1.9092 0.000575718 10
7.32692 -20.5764 -1.14469 0.000581607 10
7.32697 -20.5765 -0.381256 0.000584582 10
7.32262 -20.5643 0.381029 0.000584608 10
6.79687 -19.0878 1.06188 3.88371e-05 10
4.28612 -12.0368 1.11786 0.00018605 10
4.40624 -12.3742 2.08042 0.00121287 10
3.20692 -8.90755 -2.53674 0.000481665 4
3.99464 -11.0955 -2.72256 0.000310047 1
4.4293 -12.3029 -2.5417 0.00240937 10
4.42966 -12.3039 -2.07119 0.00246495 10
7.00339 -19.4527 -2.53857 8.42327e-05 10
7.37878 -20.4953 -1.90578 9.97552e-05 10
7.39506 -20.5406 -1.14413 0.00058017 10
7.40008 -20.5545 -0.381324 0.000583138 10
7.4043 -20.5663 0.381541 0.000583165 10
6.86918 -19.0799 1.06277 3.8822e-05 10
4.32897 -12.0242 1.11808 0.000186011 10
4.45619 -12.3776 2.08359 0.0012102 10
3.23545 -8.88933 -2.53475 0.000403281 4
4.0312 -11.0756 -2.72112 0.000310071 1
4.47179 -12.2861 -2.54145 0.00240395 10
4.47996 -12.3086 -2.0746 0.00245941 10
4.47332 -12.2903 -1.60591 0.00165428 10
4.47838 -12.3043 -1.14557 0.00167691 10
4.48032 -12.3096 -0.686519 0.00169215 10
4.47677 -12.2998 -0.228473 0.00169984 10
4.47114 -12.2844 0.228185 0.00169991 10
4.47376 -12.2916 0.685515 0.00169235 10
4.37205 -12.0121 1.11837 0.000185972 10
4.49508 -12.3501 2.0816 0.00120748 10
3.26233 -8.86676 -2.53155 0.000463056 4
4.07403 -11.0729 -2.72392 0.000310095 1
4.52476 -12.2979 -2.54715 0.00239844 10
4.52625 -12.302 -2.07614 0.00245377 10
4.5241 -12.2961 -1.60872 0.00165049 10
4.51948 -12.2836 -1.14511 0.00167307 10
4.51964 -12.284 -0.685971 0.00168828 10
4.52037 -12.286 -0.228508 0.00169595 10
4.52272 -12.2924 0.228626 0.00169602 10
4.52544 -12.2998 0.68685 0.00168848 10
4.41857 -12.0093 1.11954 0.000185933 10
4.54623 -12.3563 2.08531 0.00120471 10
3.29061 -8.84818 -2.52951 0.000433209 4
4.11358 -11.0611 -2.72453 0.000310119 1
4.56307 -12.2697 -2.54459 0.00239282 10
4.56265 -12.2686 -2.07318 0.00244803 10
7.16783 -19.2737 -2.52487 0.000125091 10
7.16536 -19.2671 -1.79844 0.000127132 10
7.18107 -19.3093 -1.07967 0.000458923 10
7.18412 -19.3175 -0.359751 0.000461234 10
7.17734 -19.2993 0.359412 0.000461255 10
7.06744 -19.0038 1.06259 3.87771e-05 10
4.4533 -11.9746 1.11774 0.000185895 10
4.58621 -12.332 1.61549 0.00122385 10
4.59273 -12.3495 2.08685 0.00120189 10
4.58638 -12.3324 2.55759 0.00117485 10
4.59304 -12.3503 3.04209 0.00114302 10
4.58632 -12.3322 3.52553 0.00110672 10
3.32459 -8.84492 -2.53188 0.000534077 4
4.1428 -11.0218 -2.71839 0.000310143 1
4.61778 -12.2854 -2.55117 0.0023871 10
4.61483 -12.2776 -2.0774 0.00244218 10
7.10086 -18.8916 -2.47804 0.000135098 10
7.09233 -18.8688 -1.76357 0.000137287 10
7.09012 -18.863 -1.05609 9.16911e-05 10
7.0854 -18.8504 -0.351511 9.22519e-05 10
7.08699 -18.8546 0.35159 9.23578e-05 10
7.08909 -18.8602 1.05594 9.20075e-05 10
4.49514 -11.9591 1.11776 0.000185856 10
4.61357 -12.2742 1.61003 0.000231436 10
4.60997 -12.2646 2.07522 0.000227519 10
4.61346 -12.2739 2.54878 0.00118872 10
4.61744 -12.2845 3.02983 0.00115654 10
4.60866 -12.2611 3.50978 0.00111984 10
3.35757 -8.83887 -2.53349 0.00045941 4
4.18301 -11.0119 -2.71953 0.000310167 1
4.6559 -12.2568 -2.54857 0.00238128 10
4.6635 -12.2768 -2.08001 0.00243624 10
7.02973 -18.5059 -2.43066 0.000145636 10
7.02737 -18.4997 -1.73135 0.000147983 10
7.12655 -18.7608 -1.05176 0.000495953 10
7.13443 -18.7815 -0.350689 0.000498434 10
7.12957 -18.7687 0.35045 0.000498456 10
7.12816 -18.765 1.052 0.000496019 10
4.54311 -11.9598 1.1193 0.000185818 10
4.62793 -12.1831 1.60019 0.000375429 10
4.63241 -12.1949 2.06614 0.000369075 10
4.62805 -12.1834 2.53333 0.000361156 10
4.62888 -12.1856 3.00941 0.000351753 10
4.62038 -12.1632 3.48635 0.000340961 10
3.39175 -8.83582 -2.53599 0.000519204 4
4.22282 -11.0008 -2.72043 0.000310191 1
4.70679 -12.2616 -2.55298 0.00237537 10
4.70913 -12.2677 -2.08125 0.0024302 10
4.76918 -12.4242 -1.63403 0.000306288 10
4.76874 -12.423 -1.1642 0.000310794 10
4.76021 -12.4008 -0.696133 0.000313932 10
4.76424 -12.4113 -0.232053 0.00031567 10
4.76281 -12.4076 0.231983 0.000315988 10
4.75966 -12.3993 0.696054 0.000314884 10
4.57981 -11.9308 1.11807 0.000185779 10
4.58562 -11.9459 1.57113 0.000401356 10
4.58723 -11.9502 2.02738 0.000394579 10
4.5879 -11.9519 2.4885 0.000386134 10
4.58838 -11.9531 2.95593 0.000376107 10
4.58645 -11.9481 3.42926 0.0003646 10
3.41683 -8.80913 -2.53174 0.00050056 4
4.25896 -10.9803 -2.71901 0.000310214 1
4.74853 -12.2425 -2.55243 0.00236936 10
4.74711 -12.2388 -2.07914 0.00242406 10
4.75086 -12.2484 -1.61309 0.00163053 10
4.75484 -12.2587 -1.15035 0.00165285 10
4.75103 -12.2489 -0.688535 0.00166788 10
4.75584 -12.2613 -0.229557 0.00167547 10
4.74695 -12.2384 0.229128 0.00167553 10
4.75482 -12.2587 0.689084 0.00166808 10
4.62041 -11.9121 1.11783 0.000185741 10
4.61972 -11.9104 1.56856 0.0020775 10
4.61503 -11.8983 2.02129 0.00204044 10
4.61621 -11.9013 2.48131 0.0019948 10
4.61395 -11.8955 2.94564 0.00194107 10
4.61591 -11.9005 3.4202 0.00187977 10
3.45229 -8.80922 -2.53521 0.000422141 4
4.30281 -10.9795 -2.72252 0.000310238 1
4.79406 -12.233 -2.55394 0.00236325 10
4.79473 -12.2347 -2.08128 0.00241782 10
4.79864 -12.2447 -1.61479 0.00162633 10
4.80069 -12.2499 -1.15109 0.0016486 10
4.79834 -12.2439 -0.689193 0.00166359 10
4.8008 -12.2502 -0.229662 0.00167116 10
4.792 -12.2278 0.229241 0.00167123 10
4.79915 -12.246 0.689309 0.00166379 10
4.67203 -11.9216 1.12024 0.000185702 10
4.66596 -11.9061 1.57014 0.00207219 10
4.65868 -11.8875 2.02222 0.00203521 10
4.66244 -11.8971 2.48381 0.00198969 10
4.66668 -11.908 2.95274 0.00193608 10
4.66148 -11.8947 3.42319 0.00187494 10
3.48127 -8.79268 -2.53393 0.000470736 4
4.33743 -10.9551 -2.72021 0.000310262 1
4.84697 -12.2421 -2.55934 0.00235705 10
4.84669 -12.2413 -2.08527 0.00241148 10
6.44252 -16.272 -2.14885 0.00110192 10
6.44713 -16.2836 -1.53223 0.00111795 10
6.44314 -16.2735 -0.917274 0.00112875 10
6.44119 -16.2686 -0.305417 0.00113421 10
6.44699 -16.2832 0.305692 0.00113426 10
6.44241 -16.2717 0.91717 0.0011289 10
4.84045 -12.2256 1.15038 0.00194138 10
4.8468 -12.2416 1.61661 0.00191531 10
4.84252 -12.2308 2.08348 0.00188096 10
4.83933 -12.2228 2.55531 0.00183866 10
4.84604 -12.2397 3.03918 0.00178885 10
4.84567 -12.2388 3.52705 0.00173205 10
3.51128 -8.77884 -2.53346 0.000452084 4
4.37549 -10.9395 -2.72011 0.000310286 1
4.88834 -12.2217 -2.55864 0.00235075 10
4.88651 -12.2171 -2.08404 0.00240505 10
6.50559 -16.2651 -2.15093 0.00109879 10
6.49999 -16.2511 -1.5313 0.00111478 10
6.49995 -16.251 -0.917279 0.00112556 10
6.49958 -16.2501 -0.305494 0.001131 10
6.50638 -16.2671 0.305814 0.00113105 10
6.50968 -16.2754 0.918652 0.0011257 10
4.89239 -12.2318 1.15257 0.00193621 10
4.89162 -12.2299 1.61731 0.00191021 10
4.88799 -12.2208 2.08467 0.00187594 10
4.89186 -12.2305 2.56048 0.00183374 10
4.88341 -12.2094 3.03587 0.00178406 10
4.88365 -12.21 3.52365 0.00172741 10
3.54053 -8.76311 -2.53247 0.000437167 4
4.41891 -10.9372 -2.72335 0.000310309 1
4.9376 -12.221 -2.56208 0.00234436 10
4.9331 -12.2098 -2.08572 0.00239851 10
6.56786 -16.256 -2.15274 0.00109563 10
6.57192 -16.2661 -1.53486 0.00111157 10
6.56134 -16.2399 -0.917937 0.00112232 10
6.56471 -16.2482 -0.305887 0.00112775 10
6.56854 -16.2577 0.306066 0.00112779 10
6.56927 -16.2595 0.919047 0.00112246 10
4.93148 -12.2058 1.15174 0.00193096 10
4.93431 -12.2128 1.61732 0.00190503 10
4.9331 -12.2099 2.08573 0.00187084 10
4.9397 -12.2262 2.56317 0.00182876 10
4.93758 -12.221 3.04301 0.00177921 10
4.93138 -12.2056 3.52732 0.0017227 10
3.5703 -8.74876 -2.53191 0.000437195 4
4.4491 -10.9022 -2.71849 0.000310333 1
4.97731 -12.1965 -2.56058 0.00233788 10
4.98663 -12.2194 -2.09031 0.00239189 10
5.01984 -12.3008 -1.63127 0.000340215 10
5.01654 -12.2926 -1.16157 0.000345185 10
5.01201 -12.2815 -0.695182 0.000348635 10
5.01348 -12.2852 -0.231607 0.00035053 10
5.01297 -12.2839 0.231583 0.000350849 10
5.0097 -12.2759 0.694862 0.000349589 10
4.97604 -12.1934 1.1522 0.00192563 10
4.97872 -12.2 1.6179 0.00189977 10
4.98562 -12.2169 2.08989 0.00186567 10
4.98431 -12.2137 2.56418 0.0018237 10
4.98209 -12.2082 3.04415 0.00177428 10
4.97864 -12.1998 3.53064 0.00171792 10
3.60506 -8.74654 -2.5349 0.000560542 4
4.49129 -10.8967 -2.72101 0.000310357 1
5.0316 -12.2076 -2.56657 0.0023313 10
5.03197 -12.2085 -2.09144 0.00238516 10
5.03078 -12.2056 -1.62097 0.00160439 10
5.02314 -12.187 -1.15325 0.00162637 10
5.03052 -12.205 -0.691837 0.00164117 10
5.0267 -12.1957 -0.23025 0.00164864 10
5.02286 -12.1864 0.230074 0.00164871 10
5.0258 -12.1935 0.691188 0.00164137 10
5.02558 -12.193 1.15381 0.00192023 10
5.02844 -12.1999 1.62021 0.00189443 10
5.02311 -12.187 2.08776 0.00186043 10
5.02546 -12.1927 2.56344 0.00181857 10
5.02218 -12.1847 3.04265 0.00176928 10
5.02379 -12.1886 3.53247 0.00171307 10
3.63087 -8.72261 -2.53162 0.000381193 4
4.5294 -10.8812 -2.72107 0.00031038 1
5.07381 -12.189 -2.56638 0.00232463 10
5.07723 -12.1973 -2.09254 0.00237834 10
5.07818 -12.1995 -1.62251 0.00159981 10
5.06972 -12.1792 -1.15417 0.00162173 10
5.07013 -12.1802 -0.691433 0.00163649 10
5.07054 -12.1812 -0.230309 0.00164394 10
5.07927 -12.2022 0.230705 0.00164401 10
5.06982 -12.1795 0.691391 0.00163669 10
5.07975 -12.2033 1.15646 0.00191475 10
5.07902 -12.2016 1.62278 0.00188902 10
5.06879 -12.177 2.08907 0.00185511 10
5.07741 -12.1977 2.56821 0.00181337 10
5.07253 -12.186 3.04736 0.00176421 10
5.07609 -12.1945 3.53929 0.00170815 10
3.66496 -8.71859 -2.53415 0.000441016 4
4.57004 -10.8717 -2.72267 0.000310404 1
5.12398 -12.1895 -2.57022 0.00231786 10
5.12676 -12.1961 -2.0954 0.00237143 10
5.17737 -12.3165 -1.64045 0.000296836 10
6.48893 -15.4366 -1.46499 0.000189971 10
6.48399 -15.4248 -0.876898 0.000191955 10
6.48167 -15.4193 -0.291957 0.000193041 10
6.48218 -15.4205 0.29198 0.000193217 10
6.48094 -15.4175 0.876485 0.000192481 10
5.12223 -12.1853 1.15644 0.00190919 10
5.12019 -12.1804 1.62234 0.00188354 10
5.12498 -12.1918 2.09467 0.00184972 10
5.12386 -12.1892 2.57016 0.00180809 10
5.12334 -12.1879 3.05231 0.00175907 10
5.11976 -12.1794 3.54008 0.00170317 10
3.69781 -8.71149 -2.53582 0.000437306 4
4.60753 -10.8547 -2.72242 0.000310427 1
5.16295 -12.1632 -2.56846 0.00231101 10
5.16216 -12.1613 -2.0925 0.00236443 10
5.22051 -12.2987 -1.64051 0.000296879 10
6.44575 -15.1852 -1.44327 0.000201549 10
6.44231 -15.1771 -0.864091 0.000203644 10
6.43655 -15.1636 -0.287539 0.000204789 10
6.44109 -15.1742 0.287741 0.000204972 10
6.43093 -15.1503 0.862564 0.000204191 10
5.17099 -12.1821 1.15784 0.00190356 10
5.16622 -12.1709 1.62345 0.00187798 10
5.16861 -12.1765 2.09512 0.00184426 10
5.17279 -12.1863 2.57335 0.00180274 10
5.16348 -12.1644 3.0509 0.00175386 10
5.17247 -12.1856 3.54709 0.00169812 10
3.72196 -8.68399 -2.53158 0.00047845 4
4.6478 -10.8441 -2.72382 0.000310451 1
5.2163 -12.1706 -2.57385 0.00230406 10
5.21395 -12.1651 -2.09627 0.00235733 10
5.25914 -12.2705 -1.63918 0.000296922 10
6.45884 -15.0696 -1.43441 0.000884624 10
6.46673 -15.088 -0.860297 0.000893046 10
6.46339 -15.0802 -0.286385 0.0008973 10
6.46354 -15.0806 0.286391 0.000897339 10
6.39253 -14.9149 0.850427 0.000216369 10
5.21391 -12.165 1.15793 0.00189786 10
5.21055 -12.1571 1.62403 0.00187235 10
5.21841 -12.1755 2.09807 0.00183873 10
5.21925 -12.1774 2.5753 0.00179733 10
5.21013 -12.1561 3.05338 0.00174859 10
5.21703 -12.1723 3.54849 0.001693 10
3.75246 -8.67142 -2.53172 0.000482218 4
4.68101 -10.8172 -2.72114 0.000310474 1
5.26054 -12.1564 -2.57472 0.00229703 10
5.25957 -12.1542 -2.09754 0.00235014 10
5.27043 -12.1792 -1.62944 0.000373589 10
5.27371 -12.1868 -1.16176 0.000379016 10
5.27 -12.1783 -0.695431 0.000382773 10
5.26593 -12.1688 -0.231443 0.000384822 10
5.26917 -12.1763 0.231585 0.000385142 10
5.26378 -12.1639 0.69461 0.000383728 10
5.25717 -12.1486 1.15812 0.00189208 10
5.2566 -12.1473 1.62516 0.00186665 10
5.2634 -12.163 2.09907 0.00183312 10
5.25735 -12.149 2.57316 0.00179184 10
5.26625 -12.1696 3.06135 0.00174324 10
5.25956 -12.1541 3.54854 0.00168781 10
3.78346 -8.66 -2.53223 0.000429911 4
4.72265 -10.8097 -2.7234 0.000310498 1
5.31298 -12.1609 -2.5796 0.00228991 10
5.30697 -12.1472 -2.09952 0.00234286 10
5.30991 -12.1539 -1.62852 0.00157596 10
5.30202 -12.1359 -1.15866 0.00159757 10
5.30991 -12.1539 -0.695095 0.00161213 10
5.31175 -12.1581 -0.231591 0.00161948 10
5.3103 -12.1548 0.231527 0.00161954 10
5.30895 -12.1517 0.69497 0.00161233 10
5.31125 -12.157 1.16067 0.00188623 10
5.31169 -12.158 1.62906 0.00186087 10
5.30682 -12.1468 2.09946 0.00182744 10
5.30184 -12.1354 2.57419 0.00178629 10
5.30417 -12.1408 3.05874 0.00173783 10
5.30482 -12.1422 3.55045 0.00168256 10
3.81165 -8.64218 -2.53089 0.000411246 4
4.75148 -10.773 -2.71832 0.000310521 1
5.35254 -12.1358 -2.57822 0.00228269 10
5.35884 -12.1501 -2.10325 0.00233549 10
5.35077 -12.1318 -1.62805 0.00157101 10
5.3598 -12.1523 -1.16201 0.00159256 10
5.35475 -12.1408 -0.695413 0.00160707 10
5.36049 -12.1538 -0.231864 0.00161439 10
6.30495 -14.2952 0.272716 0.0010303 10
6.29694 -14.2771 0.817774 0.00102555 10
5.35831 -12.1489 1.16168 0.00188031 10
5.35854 -12.1494 1.63041 0.00185502 10
5.34926 -12.1284 2.09949 0.00182169 10
5.35101 -12.1324 2.57748 0.00178066 10
5.35739 -12.1468 3.06496 0.00173235 10
5.34905 -12.1279 3.5517 0.00167725 10
3.84907 -8.64515 -2.53568 0.000400055 4
4.79503 -10.7698 -2.72171 0.000310544 1
5.40439 -12.1385 -2.58277 0.0022754 10
5.40532 -12.1405 -2.10485 0.00232803 10
5.43752 -12.2129 -1.64147 0.000297093 10
6.24266 -14.0212 -1.34279 0.00106506 10
6.24275 -14.0215 -0.804375 0.00107505 10
6.24277 -14.0215 -0.267908 0.0010801 10
6.24797 -14.0332 0.268131 0.00108014 10
6.24703 -14.0311 0.804926 0.00107519 10
5.40331 -12.136 1.16225 0.00187431 10
5.39784 -12.1237 1.62948 0.00184911 10
5.40091 -12.1307 2.10313 0.00181588 10
5.39729 -12.1225 2.57938 0.00177497 10
5.40301 -12.1354 3.06681 0.0017268 10
5.40223 -12.1336 3.55887 0.00167187 10
3.8684 -8.60758 -2.52861 0.000568338 4
4.82484 -10.7358 -2.71734 0.000310568 1
5.44886 -12.1243 -2.58378 0.00226801 10
5.44447 -12.1145 -2.10361 0.00232049 10
5.47972 -12.1929 -1.64135 0.000297136 10
5.59215 -12.4431 -1.19352 0.000564137 10
5.59456 -12.4485 -0.715253 0.000569732 10
5.5936 -12.4463 -0.238183 0.000572771 10
5.58556 -12.4284 0.23784 0.000573222 10
5.58636 -12.4302 0.714204 0.000571081 10
5.44638 -12.1187 1.1624 0.00186825 10
5.44567 -12.1172 1.63115 0.00184312 10
5.44457 -12.1147 2.10365 0.00180999 10
5.45097 -12.129 2.58478 0.00176921 10
5.44394 -12.1133 3.06602 0.00172119 10
5.44504 -12.1158 3.55919 0.00166643 10
3.89957 -8.59655 -2.52935 0.000564634 4
4.86154 -10.7172 -2.71693 0.000310591 1
5.49626 -12.1164 -2.58619 0.00226054 10
5.49031 -12.1033 -2.10499 0.00231285 10
5.51735 -12.1629 -1.63989 0.000297178 10
5.55887 -12.2545 -1.17728 0.000593617 10
5.55482 -12.2455 -0.704703 0.000599483 10
5.56157 -12.2604 -0.234995 0.000602665 10
5.55501 -12.246 0.234718 0.000603132 10
5.55153 -12.2383 0.704285 0.000600879 10
5.49293 -12.1091 1.16331 0.00186211 10
5.50025 -12.1252 1.63481 0.00183706 10
5.50047 -12.1257 2.10888 0.00180403 10
5.49287 -12.109 2.58459 0.00176338 10
5.49616 -12.1162 3.07159 0.00171551 10
5.49392 -12.1113 3.56349 0.00166092 10
3.92903 -8.58174 -2.52901 0.000456222 4
4.90501 -10.7135 -2.72031 0.000310614 1
5.54492 -12.1112 -2.58918 0.00225298 10
5.54298 -12.1069 -2.10896 0.00230513 10
5.54264 -12.1062 -1.63483 0.00234753 10
5.54379 -12.1087 -1.16512 0.00237975 10
5.5473 -12.1164 -0.698379 0.00240145 10
5.53877 -12.0977 -0.232246 0.0024124 10
5.54365 -12.1084 0.232451 0.0024125 10
5.5414 -12.1035 0.697636 0.00240174 10
5.53879 -12.0978 1.16407 0.0018559 10
5.54074 -12.102 1.63427 0.00183093 10
5.53903 -12.0983 2.10746 0.00179801 10
5.54569 -12.1129 2.58954 0.00175748 10
5.54854 -12.1191 3.07721 0.00170977 10
5.54127 -12.1032 3.56677 0.00165535 10
3.96345 -8.57769 -2.53188 0.000504868 4
4.94045 -10.6921 -2.71924 0.000310637 1
5.59707 -12.1132 -2.59376 0.00224534 10
5.59452 -12.1076 -2.11248 0.00229732 10
5.59675 -12.1125 -1.63832 0.00233958 10
5.58909 -12.0959 -1.16576 0.0023717 10
5.58763 -12.0927 -0.698138 0.00239333 10
5.58914 -12.096 -0.232586 0.00240425 10
5.5848 -12.0866 0.232406 0.00240435 10
5.59536 -12.1095 0.699104 0.00239362 10
5.59535 -12.1095 1.16707 0.00184963 10
5.59529 -12.1093 1.63789 0.00182473 10
5.59457 -12.1078 2.1125 0.00179192 10
5.58519 -12.0875 2.58826 0.00175152 10
5.58936 -12.0965 3.07641 0.00170396 10
5.59352 -12.1055 3.57318 0.00164972 10
3.99471 -8.56669 -2.53274 0.000430099 4
4.98429 -10.6888 -2.72282 0.00031066 1
5.64213 -12.0996 -2.59506 0.00223761 10
5.64003 -12.0951 -2.11371 0.00228942 10
5.63271 -12.0794 -1.63649 0.00233155 10
5.64433 -12.1043 -1.16847 0.00236356 10
5.6428 -12.101 -0.699749 0.00238512 10
5.63282 -12.0796 -0.232648 0.002396 10
5.63611 -12.0867 0.232784 0.0023961 10
5.64063 -12.0964 0.699479 0.00238541 10
5.63546 -12.0853 1.16663 0.00184328 10
5.64267 -12.1007 1.63938 0.00181847 10
5.63593 -12.0863 2.11218 0.00178576 10
5.63856 -12.0919 2.59342 0.0017455 10
5.6352 -12.0847 3.0784 0.00169809 10
5.64063 -12.0964 3.57628 0.00164403 10
4.02445 -8.55239 -2.53265 0.000403944 4
5.02263 -10.6736 -2.7234 0.000310683 1
5.6885 -12.0887 -2.59696 0.0022298 10
5.67973 -12.07 -2.11279 0.00228144 10
5.69024 -12.0924 -1.64093 0.00232343 10
5.69085 -12.0937 -1.16935 0.00235534 10
5.68763 -12.0868 -0.700072 0.00237682 10
5.69173 -12.0955 -0.233336 0.00238767 10
5.68388 -12.0789 0.233014 0.00238777 10
5.68357 -12.0782 0.699573 0.00237712 10
5.68902 -12.0898 1.16897 0.00183687 10
5.6855 -12.0823 1.63956 0.00181214 10
5.68541 -12.0821 2.1149 0.00177954 10
5.68348 -12.078 2.59467 0.00173941 10
5.6809 -12.0725 3.08033 0.00169216 10
5.68567 -12.0827 3.57808 0.00163827 10
4.05455 -8.53887 -2.53282 0.00040771 4
5.05766 -10.6514 -2.72221 0.000310706 1
5.73001 -12.0674 -2.59666 0.00222191 10
5.72933 -12.0659 -2.11556 0.00227338 10
5.73521 -12.0783 -1.64173 0.00231523 10
5.72746 -12.062 -1.16821 0.00234702 10
5.7298 -12.0669 -0.700074 0.00236844 10
5.72756 -12.0622 -0.233077 0.00237925 10
5.73818 -12.0846 0.233509 0.00237935 10
5.73398 -12.0757 0.700585 0.00236873 10
5.73423 -12.0763 1.16959 0.00183038 10
5.73451 -12.0769 1.64153 0.00180574 10
5.72809 -12.0633 2.1151 0.00177325 10
5.73187 -12.0713 2.59751 0.00173325 10
5.7374 -12.0829 3.08807 0.00168616 10
5.73544 -12.0788 3.58284 0.00163246 10
4.08253 -8.52089 -2.5317 0.000430179 4
5.09243 -10.6287 -2.72094 0.000310729 1
5.78477 -12.0737 -2.60237 0.00221394 10
5.77698 -12.0575 -2.1176 0.00226523 10
5.78067 -12.0652 -1.64268 0.00230694 10
5.78405 -12.0722 -1.17115 0.00233863 10
5.78009 -12.064 -0.701068 0.00235997 10
5.78132 -12.0665 -0.233549 0.00237075 10
5.78564 -12.0756 0.233724 0.00237085 10
5.77842 -12.0605 0.700867 0.00236026 10
5.78478 -12.0738 1.1713 0.00182384 10
5.7843 -12.0728 1.64371 0.00179927 10
5.78682 -12.078 2.12121 0.0017669 10
5.77819 -12.06 2.59941 0.00172704 10
5.78048 -12.0648 3.08857 0.0016801 10
5.77488 -12.0531 3.58118 0.00162658 10
4.11661 -8.51561 -2.53438 0.000463874 4
5.12344 -10.5984 -2.71773 0.000310752 1
5.82726 -12.0543 -2.60254 0.00220589 10
5.82844 -12.0567 -2.12102 0.002257 10
5.82627 -12.0522 -1.64367 0.00229857 10
5.8227 -12.0448 -1.17046 0.00233015 10
5.82828 -12.0564 -0.701804 0.00235142 10
5.82389 -12.0473 -0.233569 0.00236216 10
5.83513 -12.0705 0.234019 0.00236225 10
5.82747 -12.0547 0.701707 0.00235171 10
5.83083 -12.0616 1.17209 0.00181722 10
5.83285 -12.0658 1.64553 0.00179274 10
5.82783 -12.0554 2.1208 0.00176048 10
5.82894 -12.0577 2.60329 0.00172075 10
5.82462 -12.0488 3.08967 0.00167399 10
5.82962 -12.0592 3.589 0.00162065 10
4.14087 -8.49004 -2.53106 0.000486349 4
5.15985 -10.5793 -2.71744 0.000310775 1
5.87857 -12.0529 -2.60665 0.00219776 10
5.87296 -12.0414 -2.12191 0.00224869 10
5.87194 -12.0393 -1.64469 0.00229011 10
5.87118 -12.0377 -1.17175 0.00232158 10
5.87099 -12.0373 -0.701883 0.00234278 10
5.87808 -12.0518 -0.234053 0.00235348 10
5.87625 -12.0481 0.233981 0.00235358 10
5.87364 -12.0428 0.702201 0.00234307 10
5.87069 -12.0367 1.17165 0.00181054 10
5.87605 -12.0477 1.64584 0.00178615 10
5.88241 -12.0607 2.12533 0.001754 10
5.87782 -12.0513 2.60631 0.00171441 10
5.8773 -12.0503 3.09528 0.00166781 10
5.87185 -12.0391 3.5891 0.00161466 10
4.17103 -8.47666 -2.53139 0.000493862 4
5.20478 -10.5775 -2.72164 0.000310798 1
5.92821 -12.0477 -2.60999 0.00218954 10
5.92407 -12.0393 -2.12518 0.0022403 10
5.91989 -12.0308 -1.64635 0.00228157 10
5.92178 -12.0346 -1.17346 0.00231293 10
5.93118 -12.0538 -0.704045 0.00233405 10
5.92056 -12.0322 -0.234071 0.00234472 10
5.92805 -12.0474 0.234367 0.00234481 10
5.92823 -12.0478 0.703695 0.00233434 10
5.92373 -12.0386 1.17385 0.0018038 10
5.92336 -12.0379 1.64731 0.00177949 10
5.91816 -12.0273 2.12306 0.00174745 10
5.92169 -12.0345 2.60712 0.00170801 10
5.92739 -12.046 3.0995 0.00166157 10
5.92558 -12.0424 3.59622 0.00160861 10
4.20117 -8.46321 -2.53174 0.000568724 4
5.24083 -10.5576 -2.7212 0.000310821 1
5.97362 -12.0338 -2.61147 0.00218125 10
