VERSION 0.7
FIELDS x y z intensity label
SIZE 4 4 4 4 4
TYPE F F F F F
COUNT 1 1 1 1 1
WIDTH 1207
HEIGHT 1
VIEWPOINT 12.7702 36.0133 2.72875 0.622465 -0.00058656 0.000418256 0.782648
POINTS 1207
DATA ascii
8.67106 7.432 -2.63657 0.00011261 4
9.86349 8.45403 -2.52514 0.000171766 4
7.46702 6.44536 -2.64306 0.000360804 4
8.64001 7.45786 -2.63503 0.00014741 4
9.84019 8.49383 -2.52675 0.000180597 4
12.0426 10.3949 -2.51965 8.28614e-05 4
7.44163 6.46891 -2.64205 0.000121387 4
9.80893 8.52677 -2.52635 0.0001869 4
12.0089 10.4392 -2.52021 6.24416e-05 4
7.40617 6.48361 -2.63748 7.41779e-05 4
8.59557 7.52485 -2.63743 9.82637e-05 4
10.2042 8.93311 -2.63617 6.96115e-05 4
11.9707 10.4796 -2.51986 8.52505e-05 4
7.38427 6.51011 -2.63775 0.000262984 4
8.56942 7.55496 -2.63748 0.000438071 4
10.1735 8.9691 -2.6363 0.00012462 4
11.9391 10.5257 -2.52092 7.86406e-05 4
16.0587 14.1576 -2.62862 2.97086e-05 4
7.37887 6.55127 -2.64398 9.77719e-05 4
8.53649 7.57904 -2.63547 0.000401204 4
11.907 10.5716 -2.52192 5.82257e-05 4
16.0044 14.2093 -2.62783 3.42302e-05 4
7.34235 6.56481 -2.63909 3.70844e-05 4
8.5152 7.61346 -2.63709 0.000431888 4
10.109 9.0385 -2.63589 0.000108889 4
11.8609 10.6049 -2.51998 7.80285e-05 4
15.9466 14.2579 -2.6265 3.9931e-05 4
7.32336 6.59398 -2.64052 0.000148331 4
8.49633 7.65013 -2.6395 0.000415492 4
10.0834 9.07911 -2.63745 0.00010776 4
11.8383 10.6592 -2.52306 8.6425e-05 4
15.8951 14.312 -2.62624 3.26495e-05 4
7.30046 6.61966 -2.64058 0.000128099 4
8.46248 7.67331 -2.63729 0.000339745 4
10.0387 9.10255 -2.63407 9.98963e-05 4
11.7945 10.6946 -2.52167 9.54203e-05 4
15.8552 14.3766 -2.62792 4.93101e-05 4
7.26725 6.63591 -2.63693 0.000141577 4
8.44533 7.71165 -2.64032 0.000411358 4
10.0189 9.14851 -2.63723 0.000171721 4
11.7482 10.7276 -2.51977 8.46115e-05 4
15.8367 14.4609 -2.6332 4.49129e-05 4
7.25771 6.6738 -2.6419 3.70782e-05 4
8.40411 7.72798 -2.63585 0.000439988 4
9.98285 9.1797 -2.63616 0.00016161 4
11.7245 10.7812 -2.52274 8.22048e-05 4
15.8367 14.5626 -2.64165 5.33015e-05 4
7.24067 6.70493 -2.6442 0.000124712 4
8.37864 7.7587 -2.63634 0.000411317 4
9.93551 9.20038 -2.63212 0.000275303 4
11.7345 10.8662 -2.53302 0.000279182 4
15.8164 14.6461 -2.64676 4.89362e-05 4
7.20979 6.72323 -2.64148 0.000158412 4
8.35809 7.79405 -2.63842 0.000419481 4
9.88421 9.21717 -2.62704 0.000272915 4
11.7557 10.9624 -2.54586 0.000302281 4
15.8014 14.7351 -2.65285 4.46486e-05 4
7.17357 6.73643 -2.63681 0.000141553 4
8.33312 7.82531 -2.63914 0.000396952 4
9.82138 9.22289 -2.61888 0.000299413 4
11.776 11.0584 -2.55859 0.000224212 4
15.794 14.8315 -2.66028 4.35226e-05 4
7.15868 6.76962 -2.64001 0.000306685 4
8.30979 7.85818 -2.64043 5.72892e-05 4
9.77326 9.24211 -2.61464 0.000259823 4
11.8048 11.1632 -2.57329 0.000151059 4
7.13338 6.79303 -2.63941 0.000165131 4
8.27188 7.8772 -2.6371 8.38835e-05 4
9.73306 9.26866 -2.61252 0.000253262 4
11.8321 11.2676 -2.58781 0.000259495 4
7.1089 6.81719 -2.63914 6.06578e-05 4
8.27404 7.93452 -2.6466 0.000381654 4
9.66736 9.27067 -2.60356 0.000252861 4
11.8532 11.3668 -2.60108 0.000286219 4
14.8051 14.1976 -2.51862 0.000116438 4
7.09706 6.85355 -2.64361 0.000208924 4
8.28874 8.00434 -2.66022 0.00039605 4
9.63064 9.3002 -2.6024 0.000295531 4
11.881 11.4734 -2.61597 0.00026927 4
14.8252 14.3166 -2.53053 0.000148607 4
7.07391 6.87907 -2.64391 0.000198806 4
8.31312 8.08415 -2.67709 0.000393222 4
9.56552 9.30206 -2.59356 0.000256076 4
11.8909 11.5634 -2.62701 0.000216729 4
14.8586 14.4493 -2.54481 0.000113891 4
7.04721 6.90114 -2.64292 0.000148255 4
8.31506 8.1427 -2.68685 0.000310662 4
9.52649 9.32903 -2.59179 0.000192202 4
11.9196 11.6725 -2.64234 0.000180366 4
14.8809 14.5724 -2.55733 0.000123326 4
7.02497 6.92756 -2.64363 0.000225743 4
8.32506 8.20962 -2.69933 0.000417364 4
9.47543 9.34404 -2.58675 0.000130597 4
11.9464 11.7808 -2.65739 0.000245799 4
14.9028 14.6961 -2.5699 0.000146357 4
6.9942 6.94554 -2.64116 0.000252686 4
8.33913 8.28111 -2.71324 0.000285862 4
9.41853 9.353 -2.58012 0.000138465 4
11.9683 11.8851 -2.67147 0.000201601 4
14.903 14.7993 -2.57883 0.000107414 4
6.96573 6.96572 -2.63957 0.000114546 4
8.31216 8.31216 -2.71389 0.000312533 1
9.37897 9.37897 -2.57823 0.000306785 4
12.0073 12.0073 -2.68952 0.000235398 4
14.9248 14.9248 -2.59159 6.31821e-05 4
6.9437 6.99234 -2.64046 0.000111172 4
8.28196 8.33997 -2.71352 0.000312516 1
9.31745 9.38272 -2.57031 0.000299984 4
12.0258 12.11 -2.70309 0.000197859 4
14.9534 15.0582 -2.60567 0.000104043 4
6.91411 7.01133 -2.6385 0.000390769 4
8.25775 8.37387 -2.71515 0.000312499 1
9.26137 9.3916 -2.56387 0.000222413 4
12.0141 12.1831 -2.71003 8.02627e-05 1
14.9757 15.1863 -2.61878 0.000102774 4
6.90255 7.04866 -2.64346 0.000303169 4
8.23801 8.41238 -2.7183 0.000312483 1
9.2211 9.41628 -2.56181 0.000193606 4
11.9631 12.2163 -2.70811 8.0256e-05 1
14.9759 15.2929 -2.62814 3.19963e-05 4
6.87864 7.07346 -2.64374 0.000242525 4
8.19924 8.43147 -2.7152 0.000312466 1
9.17449 9.43433 -2.55799 0.00024739 4
11.9337 12.2717 -2.71115 8.02494e-05 1
14.9174 15.3399 -2.62724 3.10113e-05 4
6.84917 7.09252 -2.64192 0.000195358 4
8.1622 8.45221 -2.71269 0.000312449 1
9.11637 9.44028 -2.55096 0.000268759 4
11.8929 12.3155 -2.71163 8.02426e-05 1
14.8756 15.4041 -2.62933 3.08115e-05 4
6.83031 7.12258 -2.64421 0.000124619 4
8.13269 8.48068 -2.7127 0.000312433 1
9.07462 9.46293 -2.5485 0.000297972 4
11.853 12.3602 -2.71235 8.02358e-05 1
6.79666 7.1372 -2.64082 0.00013135 4
8.10665 8.51282 -2.71391 0.000312416 1
9.02688 9.47915 -2.54437 0.000251211 4
11.8014 12.3927 -2.71043 8.02291e-05 1
6.76655 7.15542 -2.63881 0.000171757 4
8.08993 8.55486 -2.7183 0.000312399 1
8.97339 9.48909 -2.53861 0.000292154 4
11.7622 12.4382 -2.71137 8.02222e-05 1
6.75419 7.19248 -2.64376 0.000400748 4
8.04804 8.57029 -2.71426 0.000312382 1
8.91264 9.491 -2.53079 0.000269407 4
11.7192 12.4797 -2.71148 8.02154e-05 1
6.71928 7.20555 -2.63993 0.000148169 4
8.03026 8.6114 -2.71838 0.000312365 1
8.86912 9.51097 -2.52784 0.000298105 4
11.671 12.5156 -2.71041 8.02086e-05 1
13.9735 14.9847 -2.51573 2.91776e-05 4
6.70459 7.2403 -2.64407 5.38772e-05 4
7.9843 8.62226 -2.713 0.000312348 1
8.81835 9.52294 -2.52283 0.000175195 4
11.6214 12.5499 -2.70905 8.02017e-05 1
13.9213 15.0336 -2.51577 3.27649e-05 4
6.67222 7.25599 -2.64128 0.000111117 4
7.9698 8.66709 -2.71833 0.00031233 1
8.79311 9.56244 -2.52514 0.000117209 4
11.5913 12.6054 -2.71228 8.01948e-05 1
13.8703 15.0838 -2.51605 3.29855e-05 4
6.64163 7.27352 -2.6392 9.09093e-05 4
7.93919 8.69452 -2.71823 0.000312313 1
8.76166 9.59524 -2.52571 0.000178953 4
11.5461 12.6446 -2.71202 8.01878e-05 1
13.8167 15.1313 -2.51591 3.20842e-05 4
6.6304 7.31231 -2.64486 0.000218846 4
7.90018 8.71269 -2.71527 0.000312296 1
8.73555 9.63397 -2.52786 0.0001739 4
11.4934 12.6754 -2.71001 8.01809e-05 1
13.7813 15.1986 -2.51909 2.9164e-05 4
6.60473 7.33529 -2.64482 0.000107734 4
7.87658 8.74783 -2.71763 0.000312278 1
8.70076 9.66317 -2.52754 0.000195309 4
11.4613 12.729 -2.71291 8.01739e-05 1
13.7257 15.2439 -2.51865 3.25253e-05 4
6.57212 7.35051 -2.64202 0.000286156 4
7.84467 8.77379 -2.71717 0.000470283 4
8.65436 9.67938 -2.52386 0.000131038 4
11.4027 12.7532 -2.70956 8.01669e-05 1
6.54291 7.36946 -2.64061 0.000141388 4
7.78672 8.77039 -2.70769 0.000418868 4
8.62314 9.71248 -2.52463 0.000153707 4
11.3589 12.7939 -2.70975 8.01599e-05 1
6.51196 7.38637 -2.6385 0.000127916 4
7.75681 8.79837 -2.70795 0.000264878 4
8.58387 9.73649 -2.52307 0.00013102 4
11.3284 12.8495 -2.71315 8.01528e-05 1
13.566 15.3876 -2.51877 2.93745e-05 4
6.49491 7.41908 -2.64207 6.39552e-05 4
7.70455 8.80084 -2.70042 0.000372748 4
8.55779 9.77549 -2.52542 0.000148647 4
11.2777 12.8824 -2.71176 8.01457e-05 1
6.45826 7.42938 -2.6377 0.000198588 4
7.66228 8.81445 -2.69637 0.000479869 4
8.53337 9.81652 -2.52831 0.00013856 4
11.2392 12.9292 -2.71334 8.01386e-05 1
6.44827 7.47039 -2.64425 0.000137995 4
7.61495 8.82201 -2.69053 0.000373321 4
8.49543 9.84205 -2.52723 0.000142329 4
11.1814 12.9537 -2.71028 8.01315e-05 1
6.42442 7.49549 -2.64518 0.000161548 4
7.56787 8.82959 -2.68477 0.000458078 4
8.45047 9.85933 -2.52408 0.000149876 4
11.1426 13.0003 -2.71187 8.01244e-05 1
6.38729 7.50504 -2.64067 0.000454332 4
7.53122 8.84916 -2.68271 0.000367569 4
8.42754 9.90233 -2.52754 0.000182609 4
11.0928 13.034 -2.7108 8.01172e-05 1
6.35971 7.5257 -2.64011 0.000215377 4
7.48474 8.85699 -2.67715 0.000415002 4
8.39467 9.93374 -2.52806 0.000198967 4
11.0435 13.0682 -2.7099 8.011e-05 1
6.34378 7.56022 -2.64443 5.38415e-05 4
7.45177 8.88067 -2.67643 0.000261403 4
8.35553 9.95774 -2.52673 0.000113328 4
11.0015 13.1111 -2.7108 8.01028e-05 1
6.31566 7.58029 -2.64373 0.000215356 4
7.39565 8.87653 -2.66738 7.56835e-05 4
8.32232 9.98875 -2.52721 0.000154871 4
10.9658 13.1616 -2.71331 8.00955e-05 1
13.1256 15.7539 -2.51774 3.13625e-05 4
6.29324 7.60722 -2.64544 0.000323018 4
7.36107 8.898 -2.6661 0.000250227 4
8.28668 10.0169 -2.527 0.000156119 4
10.9072 13.1846 -2.71018 8.00883e-05 1
6.2506 7.6096 -2.63867 0.000218699 4
7.32464 8.91716 -2.66417 0.000351224 4
8.2561 10.0511 -2.52835 0.000125894 4
10.8699 13.2333 -2.71238 8.00809e-05 1
6.23605 7.64615 -2.64378 0.000174951 4
7.28091 8.92727 -2.65957 0.00044532 4
8.21931 10.0779 -2.52784 0.000162391 4
10.8163 13.2621 -2.71054 8.00737e-05 1
6.20687 7.66484 -2.64273 0.000201857 4
7.23248 8.93137 -2.65326 0.000455208 4
8.17006 10.0892 -2.52351 0.000171191 4
10.7801 13.3123 -2.71309 8.00663e-05 1
6.1846 7.69209 -2.64467 0.000127836 4
7.19804 8.95255 -2.65207 0.000337598 4
8.13817 10.1218 -2.52456 0.000177472 4
10.7201 13.3331 -2.70969 8.0059e-05 1
12.9412 16.0956 -2.53585 0.000106246 4
6.15633 7.71191 -2.64408 0.000245568 4
7.14419 8.94937 -2.64373 0.000306514 4
8.10569 10.1538 -2.52547 0.000135927 4
10.6807 13.3795 -2.71152 8.00516e-05 1
12.9795 16.2592 -2.55448 0.000123311 4
6.13151 7.73604 -2.645 0.000225373 4
7.0965 8.95356 -2.63763 0.000369531 4
8.08076 10.1954 -2.52877 0.000151019 4
10.631 13.413 -2.71077 8.00442e-05 1
13.0297 16.4394 -2.57563 9.06505e-05 4
6.08859 7.73722 -2.63812 0.000178271 4
7.05423 8.96433 -2.63353 0.000405604 4
8.03955 10.2164 -2.52702 0.00014975 4
10.5849 13.451 -2.71096 8.00368e-05 1
13.0531 16.5876 -2.59169 8.58255e-05 4
6.07334 7.77352 -2.64325 0.000393523 4
7.02806 8.9955 -2.63547 0.000345448 4
7.99594 10.2343 -2.52453 0.000143447 4
10.5455 13.4976 -2.71293 8.00293e-05 1
13.0949 16.7607 -2.61159 6.41262e-05 4
6.0493 7.7987 -2.64462 0.00019507 4
6.97071 8.98658 -2.62571 0.000334953 4
7.96168 10.2641 -2.52501 0.000163568 4
10.4954 13.5306 -2.71217 8.00218e-05 1
13.1379 16.9372 -2.63193 9.85361e-05 4
6.00967 7.80372 -2.63919 4.70835e-05 4
6.93631 9.00698 -2.62458 0.000390566 4
7.93565 10.3047 -2.52814 0.000196268 4
10.4478 13.5667 -2.71208 8.00144e-05 1
13.1791 17.1135 -2.65215 7.75427e-05 4
5.98521 7.82833 -2.64043 9.41623e-05 4
6.89192 9.01425 -2.61967 0.000414089 4
7.89618 10.3278 -2.52704 0.000187448 4
10.4059 13.6103 -2.71352 8.00069e-05 1
13.2279 17.3013 -2.67409 9.00154e-05 4
5.96946 7.86448 -2.64558 0.000285835 4
6.85388 9.02966 -2.61718 0.000420238 4
7.86082 10.3562 -2.52728 0.000143406 4
10.3617 13.6511 -2.71442 7.99993e-05 1
13.2596 17.4688 -2.69281 5.47044e-05 4
5.93279 7.87307 -2.64149 0.000282458 4
6.8103 9.03757 -2.61257 0.000318977 4
7.82285 10.3813 -2.5267 0.000143395 4
10.2993 13.6676 -2.71054 7.99918e-05 1
13.2797 17.6228 -2.70938 2.94164e-05 1
5.91306 7.90415 -2.64497 0.000205108 4
6.76749 9.04629 -2.60824 0.00028339 4
7.78134 10.4015 -2.52501 7.54658e-05 4
10.2639 13.7201 -2.71383 7.99842e-05 1
13.2071 17.6543 -2.70712 2.94125e-05 1
5.87673 7.91301 -2.64106 9.07809e-05 4
6.7286 9.06006 -2.60543 0.000298378 4
7.75392 10.4407 -2.52792 4.27608e-05 4
10.2053 13.7415 -2.711 7.99766e-05 1
13.1437 17.698 -2.70677 2.94087e-05 1
5.845 7.92797 -2.63922 0.000147932 4
6.68284 9.06438 -2.59994 0.000423965 4
7.70768 10.4544 -2.52473 0.000182349 4
10.1594 13.7798 -2.71155 7.9969e-05 1
13.0958 17.7627 -2.70965 2.94049e-05 1
5.83013 7.96586 -2.64504 9.74955e-05 4
6.65187 9.08863 -2.60022 0.000357908 4
7.68066 10.4943 -2.52786 0.000162216 4
10.1144 13.8196 -2.71241 7.99614e-05 1
13.0287 17.8015 -2.70862 2.9401e-05 1
5.78866 7.9674 -2.63883 5.71496e-05 4
6.61156 9.10002 -2.59686 0.00033093 4
7.64321 10.52 -2.5276 0.000159689 4
10.0726 13.8637 -2.71415 7.99537e-05 1
12.9655 17.8454 -2.7084 2.93971e-05 1
16.9143 23.2805 -2.5176 2.93842e-05 4
5.77262 8.00394 -2.64424 0.000164717 4
6.57538 9.11699 -2.59514 0.000312394 4
7.60193 10.5403 -2.52611 0.000167221 4
10.0111 13.8807 -2.71063 7.9946e-05 1
12.8969 17.882 -2.70711 2.93933e-05 1
5.73712 8.01352 -2.64078 0.000164708 4
6.52117 9.10866 -2.58627 0.000418142 4
7.5676 10.5703 -2.52694 0.000178523 4
9.97021 13.9262 -2.7127 7.99383e-05 1
12.8449 17.9415 -2.70931 2.93894e-05 1
16.9953 23.7388 -2.55427 2.96422e-05 4
5.71613 8.04337 -2.64402 0.000322677 4
6.48073 9.11928 -2.58285 0.000326789 4
7.52522 10.589 -2.52512 9.55406e-05 4
9.91592 13.953 -2.71117 7.99306e-05 1
12.7844 17.9894 -2.70978 2.93855e-05 1
5.68518 8.05925 -2.6427 0.000114276 4
6.44721 9.1395 -2.58219 0.000311128 4
7.49282 10.6217 -2.52667 0.000196095 4
9.8772 14.0018 -2.71393 7.99228e-05 1
12.708 18.0147 -2.7069 2.93816e-05 1
5.66355 8.08838 -2.64576 6.72174e-05 4
6.40722 9.15045 -2.57895 0.000290349 4
7.45259 10.6434 -2.52562 0.000160886 4
9.83288 14.0428 -2.7152 7.99151e-05 1
12.6492 18.0649 -2.70779 2.93777e-05 1
6.37291 9.16942 -2.57801 0.000361499 4
7.41991 10.6759 -2.52716 0.000194809 4
9.77779 14.0684 -2.71353 7.99073e-05 1
12.5947 18.1213 -2.70964 2.93737e-05 1
5.60082 8.11886 -2.64287 7.05709e-05 4
6.3221 9.16441 -2.57038 0.000332708 4
7.38592 10.7065 -2.5283 0.000159605 4
9.72202 14.0929 -2.71169 7.98995e-05 1
12.5298 18.163 -2.70931 2.93698e-05 1
5.57611 8.1437 -2.6446 6.72069e-05 4
6.27871 9.16982 -2.56573 0.000211454 4
7.33867 10.7179 -2.52491 0.000178443 4
9.68518 14.1448 -2.71517 7.98917e-05 1
12.4695 18.2112 -2.71 2.93658e-05 1
5.54582 8.16042 -2.64373 0.000117606 4
6.23716 9.17769 -2.56183 0.000378562 4
7.30089 10.7429 -2.5248 0.000153298 4
9.63641 14.1795 -2.71536 7.98838e-05 1
12.3942 18.2375 -2.70745 2.93619e-05 1
5.51481 8.17605 -2.64254 9.74397e-05 4
6.21088 9.20801 -2.56422 0.000352601 4
7.27347 10.7834 -2.52832 0.000139466 4
9.57592 14.1969 -2.71226 7.98759e-05 1
12.3345 18.2867 -2.70835 2.93579e-05 1
5.4811 8.18757 -2.64006 0.000131033 4
6.17286 9.22091 -2.5618 0.000271648 4
7.2349 10.8074 -2.52801 0.000178402 4
9.52348 14.226 -2.71145 7.9868e-05 1
12.2691 18.3274 -2.70802 2.93539e-05 1
5.45761 8.21436 -2.64254 4.03156e-05 4
6.13238 9.22998 -2.55836 0.000311692 4
7.19979 10.8366 -2.52895 0.000136932 4
9.47972 14.2681 -2.71316 7.98601e-05 1
12.2092 18.3763 -2.70892 2.93499e-05 1
5.42254 8.22371 -2.63945 0.0001243 4
6.08576 9.22953 -2.55233 0.000336127 4
7.15469 10.8507 -2.52639 0.000160789 4
9.43286 14.3057 -2.71402 7.98522e-05 1
12.1539 18.4323 -2.71091 2.93459e-05 1
5.403 8.25665 -2.64395 0.000389676 4
6.05143 9.24756 -2.55146 0.000323298 4
7.12371 10.8862 -2.52886 0.000190922 4
9.38579 14.343 -2.71487 7.98442e-05 1
12.0898 18.4752 -2.71099 2.93419e-05 1
5.36478 8.26103 -2.63934 0.000329191 4
5.99959 9.23855 -2.54318 0.000380984 4
7.08818 10.9148 -2.52975 0.000153228 4
9.3395 14.3816 -2.71598 7.98363e-05 1
12.0232 18.5142 -2.71055 2.93379e-05 1
5.34483 8.29355 -2.64375 0.000120921 4
5.96971 9.26318 -2.54421 0.000312492 4
7.04671 10.9344 -2.52856 0.000165775 4
9.28034 14.4003 -2.71338 7.98283e-05 1
11.9565 18.5529 -2.71008 2.93339e-05 1
5.30903 8.3015 -2.64036 0.00061129 4
5.93416 9.27899 -2.54284 0.000357097 4
7.007 10.9565 -2.52802 0.000134368 4
9.23726 14.4439 -2.71551 7.98203e-05 1
11.8933 18.597 -2.71045 2.93299e-05 1
5.29303 8.34047 -2.64687 0.000685145 4
5.88491 9.27313 -2.53559 0.000287583 4
6.96806 10.9799 -2.52778 0.000151937 4
9.17834 14.4627 -2.71301 7.98122e-05 1
11.8176 18.6216 -2.70801 2.93258e-05 1
5.25364 8.34263 -2.64172 0.000591074 4
5.8436 9.27948 -2.53173 0.00033603 4
6.93202 11.0079 -2.52863 0.00017327 4
9.12763 14.4944 -2.71296 7.98042e-05 1
11.7628 18.679 -2.71037 2.93217e-05 1
5.22055 8.35463 -2.63973 0.000648131 4
5.8159 9.30738 -2.53379 0.000295627 4
6.88561 11.0193 -2.52572 0.000151913 4
9.08494 14.5389 -2.71534 7.97961e-05 1
11.6918 18.7108 -2.70905 2.93177e-05 1
5.19712 8.3821 -2.64266 0.000537281 4
5.77891 9.32043 -2.53184 0.00032615 4
6.84792 11.0446 -2.52602 0.000177009 4
9.02644 14.5582 -2.71303 7.9788e-05 1
11.6278 18.7538 -2.70937 2.93136e-05 1
5.1616 8.39005 -2.63947 0.00058762 4
5.73503 9.32215 -2.52685 0.000321568 4
6.81038 11.0701 -2.52641 0.000159421 4
8.97723 14.5923 -2.71353 7.978e-05 1
11.5682 18.8039 -2.71076 2.93095e-05 1
5.14571 8.43003 -2.64638 0.000648025 4
5.71381 9.36073 -2.53189 0.000253133 4
6.77668 11.102 -2.52827 0.000154388 4
8.9265 14.624 -2.71361 7.97718e-05 1
11.5039 18.8464 -2.71108 2.93054e-05 1
5.10455 8.42861 -2.64033 0.000570768 4
5.67079 9.36359 -2.52729 0.000166464 4
6.73618 11.1228 -2.52763 0.000151866 4
8.87489 14.6542 -2.71346 7.97637e-05 1
11.4339 18.8796 -2.7101 2.93013e-05 1
5.08433 8.46175 -2.64513 0.000681527 4
5.63692 9.3814 -2.52677 0.000139091 4
6.70284 11.1554 -2.52972 0.000160639 4
8.82756 14.6915 -2.71465 7.97555e-05 1
11.3654 18.9152 -2.7095 2.92972e-05 1
5.05745 8.48395 -2.64653 0.000533777 4
5.60657 9.40511 -2.52787 0.000155042 4
6.66149 11.1747 -2.52882 0.000164391 4
8.77728 14.724 -2.71498 7.97473e-05 1
11.3098 18.9723 -2.71201 2.92931e-05 1
5.02331 8.49395 -2.64417 0.000644526 4
5.58045 9.43602 -2.53093 0.000287266 4
6.61507 11.1855 -2.526 0.000114186 4
8.732 14.765 -2.7169 7.97392e-05 1
11.2324 18.993 -2.70935 2.92889e-05 1
4.98896 8.50348 -2.6417 0.000698198 4
5.5512 9.46179 -2.53263 0.000273569 4
6.58463 11.2232 -2.52932 0.000160601 4
8.67125 14.7798 -2.71403 7.97309e-05 1
11.1688 19.0368 -2.71002 2.92848e-05 1
4.96307 8.5274 -2.64373 0.000694803 4
5.50701 9.46198 -2.52752 0.000257594 4
6.54693 11.2487 -2.52991 0.000155569 4
8.62403 14.8176 -2.71542 7.97227e-05 1
11.1033 19.0774 -2.71026 2.92806e-05 1
4.92959 8.53831 -2.64176 0.000590717 4
5.47309 9.47966 -2.52712 0.000335078 4
6.50443 11.266 -2.52866 0.00012294 4
8.5691 14.8421 -2.71443 7.97144e-05 1
11.0332 19.11 -2.7094 2.92765e-05 1
7.24268 12.5447 1.2673 0.00146098 10
7.23611 12.5333 1.77697 0.00144101 10
7.2397 12.5395 2.29331 0.0014147 10
7.23286 12.5277 2.81185 0.00138231 10
7.23036 12.5234 3.33852 0.00134418 10
7.23674 12.5344 3.87816 0.00130071 10
4.89869 8.5536 -2.64119 0.000624246 4
5.44961 9.51555 -2.5316 0.000298587 4
6.46546 11.2893 -2.52882 0.00016558 4
8.51202 14.8628 -2.71276 7.97062e-05 1
10.9776 19.168 -2.71217 2.92723e-05 1
7.18067 12.5381 1.2641 0.00146681 10
7.18421 12.5443 1.77496 0.00144678 10
7.18191 12.5403 2.28886 0.00142036 10
7.19133 12.5568 2.81273 0.00138785 10
7.18151 12.5396 3.33615 0.00134957 10
7.18288 12.542 3.87273 0.00130594 10
4.87716 8.58536 -2.64572 0.000667839 4
5.40879 9.5212 -2.52807 0.000335034 4
6.41903 11.2995 -2.52607 0.000169329 4
8.47138 14.9123 -2.71638 7.96979e-05 1
10.9072 19.2002 -2.71133 2.92681e-05 1
7.13521 12.5602 1.26381 0.0014726 10
7.13744 12.5642 1.77423 0.00145249 10
7.13903 12.567 2.28916 0.00142598 10
7.13937 12.5676 2.80955 0.00139334 10
7.13693 12.5633 3.3358 0.00135492 10
7.13646 12.5624 3.87132 0.00131112 10
4.84019 8.58994 -2.64191 0.000802034 4
5.37914 9.54644 -2.52977 0.0002279 4
6.3824 11.3269 -2.5272 0.000181858 4
8.4178 14.9392 -2.7159 7.96896e-05 1
10.845 19.2468 -2.71255 2.92639e-05 1
7.08486 12.5736 1.26266 0.00147834 10
7.07454 12.5553 1.76948 0.00145815 10
7.08632 12.5762 2.28632 0.00143154 10
7.07499 12.5561 2.80144 0.00139878 10
7.08732 12.578 3.33311 0.00136022 10
7.08594 12.5755 3.86771 0.00131626 10
4.80947 8.60552 -2.64152 0.00070132 4
5.57761 9.97995 -2.63947 0.000339937 4
6.34448 11.3521 -2.52786 0.000166794 4
8.36838 14.9734 -2.71681 7.96812e-05 1
10.773 19.276 -2.71135 2.92597e-05 1
7.02616 12.5718 1.26001 0.00148402 10
7.02842 12.5759 1.76891 0.00146376 10
7.03217 12.5826 2.283 0.00143705 10
7.03091 12.5803 2.80136 0.00140417 10
7.02854 12.5761 3.32609 0.00136547 10
7.02777 12.5747 3.85989 0.00132135 10
4.77865 8.62092 -2.64111 0.000556998 4
5.55597 10.0232 -2.64578 0.000346021 4
6.30364 11.3721 -2.52739 0.000156748 4
8.31192 14.9951 -2.71545 7.96729e-05 1
10.7092 19.3199 -2.71224 2.92555e-05 1
6.97467 12.5826 1.25865 0.00148965 10
6.9827 12.5971 1.76846 0.00146932 10
6.98383 12.5992 2.28157 0.00144251 10
6.98272 12.5972 2.79966 0.00140952 10
6.97326 12.5801 3.32069 0.00137068 10
6.98242 12.5966 3.85911 0.0013264 10
4.7594 8.65731 -2.64716 0.000728084 4
5.51509 10.0319 -2.64297 0.000339892 4
6.26289 11.3921 -2.52698 0.000159244 4
8.26547 15.0348 -2.71741 7.96646e-05 1
10.6424 19.3584 -2.71242 2.92513e-05 1
6.93065 12.6068 1.25864 0.00149522 10
6.92842 12.6027 1.76584 0.00147482 10
6.93425 12.6134 2.27975 0.00144792 10
6.92266 12.5923 2.79319 0.00141481 10
6.93487 12.6145 3.32336 0.00137583 10
6.92765 12.6013 3.85313 0.00133139 10
4.71996 8.65703 -2.64201 0.000261693 4
5.48225 10.0552 -2.64403 0.000242182 4
6.23422 11.4344 -2.5315 0.000150454 4
6.87484 12.6093 -2.27467 0.00186294 10
6.87387 12.6076 -1.76315 0.00189776 10
6.87637 12.6122 -1.25677 0.00192422 10
6.88163 12.6218 -0.753409 0.00194205 10
6.87267 12.6054 -0.250606 0.00195107 10
6.87557 12.6107 0.250711 0.00195117 10
6.8772 12.6137 0.752924 0.00194237 10
6.87225 12.6046 1.25601 0.00150074 10
6.87143 12.6031 1.76252 0.00148027 10
6.87362 12.6071 2.27427 0.00145328 10
6.87707 12.6134 2.79254 0.00142005 10
6.87685 12.613 3.31664 0.00138093 10
6.8826 12.6236 3.85256 0.00133634 10
4.69388 8.68114 -2.64436 0.000201291 4
5.4413 10.0635 -2.64121 0.000417177 4
6.19505 11.4575 -2.53182 0.000150442 4
6.83352 12.6383 -2.27558 0.00186974 10
6.82956 12.631 -1.76308 0.00190467 10
6.83369 12.6386 -1.25702 0.00193123 10
6.82749 12.6272 -0.752302 0.00194912 10
6.82093 12.615 -0.250323 0.00195817 10
6.8251 12.6228 0.250476 0.00195827 10
6.82547 12.6234 0.75208 0.00194944 10
6.82869 12.6294 1.2561 0.00150621 10
6.82977 12.6314 1.76314 0.00148566 10
6.82556 12.6236 2.27293 0.00145858 10
6.82916 12.6303 2.79097 0.00142523 10
6.82054 12.6143 3.31069 0.00138598 10
6.82028 12.6138 3.84229 0.00134123 10
4.66008 8.69102 -2.6424 0.000214698 4
6.15191 11.4733 -2.53054 0.000126612 4
6.78193 12.6482 -2.27309 0.00187647 10
6.77385 12.6332 -1.76007 0.00191152 10
6.77762 12.6402 -1.25482 0.00193817 10
6.78021 12.645 -0.751953 0.00195612 10
6.77495 12.6352 -0.250253 0.0019652 10
6.77167 12.6291 0.250132 0.0019653 10
6.7798 12.6443 0.751907 0.00195644 10
6.77354 12.6326 1.25406 0.00151162 10
6.78359 12.6513 1.7626 0.001491 10
6.77856 12.642 2.27196 0.00146382 10
6.77185 12.6295 2.78555 0.00143037 10
6.77863 12.6421 3.31175 0.00139098 10
6.77417 12.6338 3.84114 0.00134608 10
4.63424 8.71574 -2.64498 0.000171078 4
5.37925 10.1169 -2.64531 0.000384565 4
6.10367 11.4793 -2.52717 4.88857e-05 4
6.72978 12.6569 -2.27041 0.00188313 10
6.73265 12.6623 -1.76084 0.0019183 10
6.72556 12.6489 -1.25335 0.00194503 10
6.72151 12.6413 -0.750331 0.00196305 10
6.72829 12.6541 -0.250159 0.00197215 10
6.72739 12.6524 0.250126 0.00197226 10
6.72739 12.6524 0.750988 0.00196336 10
6.72458 12.6471 1.25316 0.00151697 10
6.72095 12.6403 1.75778 0.00149629 10
6.72537 12.6486 2.26892 0.00146902 10
6.72905 12.6555 2.7861 0.00143545 10
6.73104 12.6592 3.31007 0.00139593 10
6.72544 12.6487 3.83852 0.00135088 10
4.60626 8.73654 -2.64639 0.000137525 4
5.33815 10.1247 -2.64246 0.000215668 4
6.07046 11.5137 -2.53004 0.00010403 4
6.67492 12.6601 -2.2668 0.00188972 10
6.67881 12.6675 -1.75832 0.001925 10
6.68005 12.6698 -1.2531 0.00195182 10
6.67678 12.6637 -0.750269 0.0019699 10
6.67375 12.6579 -0.249773 0.00197904 10
6.66925 12.6494 0.249604 0.00197914 10
6.67708 12.6642 0.750302 0.00197022 10
6.66995 12.6507 1.25121 0.00152227 10
6.67668 12.6635 1.75776 0.00150152 10
6.66906 12.649 2.26481 0.00147416 10
6.67101 12.6527 2.78034 0.00144048 10
6.67955 12.6689 3.30648 0.00140083 10
6.67285 12.6562 3.8337 0.00135563 10
4.57961 8.75999 -2.64864 0.000479769 4
5.30005 10.1381 -2.6411 0.000124102 4
6.02287 11.5207 -2.52695 0.000189244 4
6.62488 12.6722 -2.26481 0.00189623 10
6.62134 12.6654 -1.75481 0.00193163 10
6.62609 12.6745 -1.25127 0.00195854 10
6.62739 12.677 -0.749686 0.00197668 10
6.62541 12.6732 -0.249618 0.00198584 10
6.62271 12.6681 0.249516 0.00198595 10
6.62309 12.6688 0.7492 0.00197699 10
6.62157 12.6659 1.25041 0.00152751 10
6.63167 12.6852 1.75755 0.00150669 10
6.631 12.6839 2.2669 0.00147924 10
6.62878 12.6797 2.78117 0.00144545 10
6.63141 12.6847 3.30454 0.00140567 10
6.62538 12.6732 3.83182 0.00136032 10
4.55073 8.77925 -2.64964 0.000576366 4
5.26646 10.16 -2.64202 0.000506547 4
5.98341 11.5432 -2.52729 0.000199254 4
6.5819 12.6978 -2.26526 0.00190268 10
6.57384 12.6822 -1.75395 0.00193819 10
6.57785 12.6899 -1.25051 0.00196519 10
6.57615 12.6867 -0.748895 0.00198338 10
6.57828 12.6908 -0.24951 0.00199258 10
6.57117 12.6771 0.24924 0.00199268 10
6.57145 12.6776 0.74836 0.0019837 10
6.57221 12.6791 1.24944 0.00153269 10
6.5691 12.6731 1.75268 0.0015118 10
6.57763 12.6895 2.26378 0.00148427 10
6.58087 12.6958 2.77964 0.00145037 10
6.58126 12.6965 3.30162 0.00141046 10
6.57566 12.6857 3.82864 0.00136496 10
4.53708 8.82819 -2.65962 0.000511362 4
5.23721 10.1905 -2.64518 0.000207487 4
5.95287 11.583 -2.53145 0.000121548 4
6.52033 12.6872 -2.25929 0.00190905 10
6.52922 12.7045 -1.75386 0.00194468 10
6.53041 12.7068 -1.24992 0.00197176 10
6.52989 12.7058 -0.748673 0.00199001 10
6.52773 12.7016 -0.249273 0.00199923 10
6.52517 12.6966 0.249175 0.00199934 10
6.51916 12.6849 0.747443 0.00199033 10
6.52319 12.6928 1.24854 0.00153782 10
6.52508 12.6964 1.75275 0.00151686 10
6.52437 12.6951 2.2607 0.00148924 10
6.52711 12.7004 2.77565 0.00145523 10
6.51913 12.6849 3.29264 0.0014152 10
6.52027 12.6871 3.82216 0.00136956 10
4.50707 8.84561 -2.66011 0.000549578 4
5.19277 10.1914 -2.64068 0.00024612 4
5.90145 11.5822 -2.52676 0.000156621 4
6.47972 12.7172 -2.26059 0.00191535 10
6.47965 12.717 -1.75246 0.00195109 10
6.47856 12.7149 -1.24849 0.00197825 10
6.47338 12.7047 -0.747274 0.00199656 10
6.47953 12.7168 -0.249125 0.00200581 10
6.47466 12.7072 0.248938 0.00200592 10
6.47785 12.7135 0.74779 0.00199688 10
6.4713 12.7006 1.24709 0.00154288 10
6.47397 12.7059 1.75092 0.00152186 10
6.47511 12.7081 2.25898 0.00149415 10
6.47551 12.7089 2.77255 0.00146004 10
6.47733 12.7125 3.29392 0.00141988 10
6.47609 12.71 3.82224 0.0013741 10
4.48361 8.87604 -2.66454 0.000414106 4
5.15741 10.2099 -2.64081 6.50851e-05 4
5.86114 11.6031 -2.52683 0.000154102 4
6.4196 12.7087 -2.25508 0.00192157 10
6.41982 12.7091 -1.74827 0.00195742 10
6.43137 12.7319 -1.24795 0.00198467 10
6.42311 12.7156 -0.746591 0.00200303 10
6.42871 12.7267 -0.248878 0.00201232 10
6.42893 12.7271 0.248887 0.00201242 10
6.42389 12.7171 0.746682 0.00200335 10
6.42789 12.7251 1.24727 0.00154789 10
6.42268 12.7147 1.74905 0.0015268 10
6.4291 12.7274 2.25842 0.00149901 10
6.42284 12.7151 2.76899 0.00146479 10
6.42477 12.7189 3.28975 0.00142451 10
6.42975 12.7287 3.8211 0.00137858 10
4.45917 8.90475 -2.66847 0.000362719 4
5.13059 10.2456 -2.64537 0.000181006 4
5.82756 11.6374 -2.52985 0.000162858 4
6.3823 12.7452 -2.25759 0.00192772 10
6.38027 12.7411 -1.7496 0.00196368 10
6.38433 12.7492 -1.24745 0.000480443 10
6.37335 12.7273 -0.745966 0.000485237 10
6.37587 12.7323 -0.248551 0.000487837 10
6.38134 12.7432 0.248764 0.00201885 10
6.3779 12.7364 0.746499 0.00200975 10
6.37876 12.7381 1.24636 0.00155283 10
6.37904 12.7386 1.74926 0.00153168 10
6.3803 12.7412 2.25688 0.0015038 10
6.38053 12.7416 2.7699 0.00146948 10
6.37627 12.7331 3.28765 0.00142908 10
6.37625 12.7331 3.81569 0.00138301 10
4.43553 8.93531 -2.67297 0.00035659 4
5.09242 10.2586 -2.64414 0.000284708 4
5.78054 11.6448 -2.52707 0.000179129 4
6.3263 12.7443 -2.25351 0.0019338 10
6.32965 12.751 -1.74791 0.00196986 10
6.42284 12.9387 -1.26379 0.000454874 10
6.42296 12.939 -0.757055 0.000459432 10
6.43003 12.9532 -0.252424 0.000461906 10
6.42689 12.9469 0.252301 0.000462269 10
6.42851 12.9502 0.757709 0.000460516 10
6.32948 12.7507 1.24542 0.00155772 10
6.32011 12.7318 1.74528 0.00153651 10
6.32981 12.7513 2.25475 0.00150854 10
6.33181 12.7553 2.76806 0.00147412 10
6.32281 12.7372 3.283 0.00143359 10
6.32945 12.7506 3.8143 0.00138739 10
4.41613 8.97476 -2.68014 0.000549803 4
5.05608 10.2753 -2.64388 0.000309091 4
5.7508 11.6872 -2.53188 0.000159074 4
6.28237 12.7675 -2.25372 0.0019398 10
6.28267 12.7681 -1.74724 0.00197597 10
7.17864 14.5889 -0.852121 0.000215354 10
7.16646 14.5642 -0.283328 0.000216545 10
7.17039 14.5722 0.283483 0.000216721 10
7.17011 14.5716 0.851109 0.000215882 10
6.27361 12.7497 1.24318 0.00156254 10
6.27733 12.7572 1.74575 0.00154127 10
6.2734 12.7492 2.2505 0.00151322 10
6.27664 12.7558 2.7634 0.0014787 10
6.27929 12.7612 3.28351 0.00143805 10
6.27225 12.7469 3.80662 0.00139171 10
4.39204 9.00502 -2.68458 0.000549863 4
5.01857 10.2896 -2.64303 0.000219602 4
5.70051 11.6878 -2.52769 0.000134012 4
6.2222 12.7574 -2.2481 0.00194573 10
6.22228 12.7576 -1.74282 0.001982 10
6.21981 12.7525 1.24133 0.00156731 10
6.22362 12.7603 1.74319 0.00154597 10
6.22992 12.7732 2.25089 0.00151784 10
6.23068 12.7748 2.76278 0.00148322 10
6.23015 12.7737 3.28111 0.00144246 10
6.22181 12.7566 3.80301 0.00139598 10
4.3707 9.04123 -2.69081 0.000484373 4
4.97998 10.3016 -2.64163 0.000243985 4
5.65849 11.7051 -2.52716 0.000142767 4
6.17153 12.7664 -2.24587 0.00195157 10
6.1735 12.7705 -1.74163 0.00198795 10
6.171 12.7653 -1.24047 0.00133135 10
6.17345 12.7704 -0.743368 0.00134366 10
6.17993 12.7838 -0.247848 0.00134989 10
6.17468 12.7729 0.247637 0.00134996 10
6.1705 12.7643 0.743012 0.00134388 10
6.1829 12.7899 1.24286 0.00157201 10
6.17936 12.7826 1.74328 0.00155061 10
6.17583 12.7753 2.24744 0.0015224 10
6.18226 12.7886 2.76109 0.00148768 10
6.17048 12.7642 3.27313 0.0014468 10
6.18163 12.7873 3.80571 0.0014002 10
4.34295 9.06442 -2.69319 0.000575324 4
4.94652 10.3242 -2.64298 0.00039035 4
5.61751 11.7246 -2.52712 0.000166547 4
6.12519 12.7842 -2.24523 0.00195734 10
6.12381 12.7814 -1.74018 0.00199382 10
6.12843 12.791 -1.24088 0.00133528 10
6.12129 12.7761 -0.742452 0.00134763 10
6.12138 12.7763 -0.247287 0.00135387 10
6.1325 12.7995 0.247736 0.00135394 10
6.12853 12.7912 0.74333 0.00134784 10
6.12998 12.7942 1.2412 0.00157665 10
6.13072 12.7958 1.74215 0.00155519 10
6.12097 12.7754 2.24369 0.0015269 10
6.12913 12.7925 2.75728 0.00149208 10
6.12862 12.7914 3.27459 0.00145109 10
6.1311 12.7966 3.80207 0.00140435 10
4.31735 9.09232 -2.69698 0.000391878 4
4.90608 10.3322 -2.64063 0.000211425 4
5.58418 11.7603 -2.53058 0.000172794 4
6.07426 12.7924 -2.24292 0.00196303 10
6.07599 12.796 -1.73928 0.00199961 10
6.1525 12.9571 -1.25491 0.000284422 10
6.15347 12.9592 -0.751838 0.000287286 10
6.14392 12.9391 -0.25002 0.000288848 10
6.14515 12.9417 0.25007 0.000289093 10
6.1455 12.9424 0.750864 0.000288016 10
6.07175 12.7871 1.23844 0.00158122 10
6.08349 12.8118 1.74142 0.00155971 10
6.08278 12.8103 2.24607 0.00153134 10
6.08087 12.8063 2.75567 0.00149643 10
6.08303 12.8108 3.2741 0.00145532 10
6.07605 12.7961 3.79561 0.00140845 10
4.29169 9.12029 -2.70082 0.000471552 4
4.87494 10.3598 -2.64331 0.000410624 4
5.54641 11.7867 -2.53209 0.000166519 4
6.03021 12.8148 -2.24316 0.00196865 10
6.02641 12.8068 -1.73787 0.00200532 10
6.03198 12.8186 1.23944 0.00158574 10
6.02707 12.8082 1.73806 0.00156416 10
6.02783 12.8098 2.24227 0.00153572 10
6.03216 12.819 2.75385 0.00150071 10
6.02357 12.8007 3.26613 0.00145949 10
6.02286 12.7992 3.79027 0.0014125 10
4.27142 9.1601 -2.70817 0.00044728 4
4.84001 10.3794 -2.644 3.33856e-05 4
5.50164 11.7983 -2.53044 0.000160246 4
5.97945 12.823 -2.24092 0.00197418 10
5.98427 12.8333 -1.73863 0.00201095 10
7.90414 16.9505 -1.63628 8.27631e-05 10
8.59305 18.4278 1.0656 2.97329e-05 10
5.98051 12.8253 1.23806 0.00159018 10
5.98072 12.8257 1.7376 0.00156855 10
5.97671 12.8171 2.23989 0.00154004 10
5.98114 12.8266 2.75098 0.00150493 10
5.97886 12.8217 3.26613 0.00146361 10
5.98336 12.8313 3.79358 0.00141649 10
4.24876 9.19516 -2.71414 0.000567953 4
4.7952 10.3778 -2.6393 4.6574e-05 4
5.46045 11.8175 -2.53045 0.000187772 4
5.929 12.8315 -2.23878 0.00197963 10
5.93289 12.8399 -1.73671 0.0020165 10
5.93037 12.8345 -1.23695 0.00135046 10
5.93371 12.8417 -0.741378 0.00136294 10
5.92593 12.8249 -0.246601 0.00136924 10
5.92578 12.8246 0.246595 0.00136932 10
5.93521 12.845 0.741566 0.00136315 10
5.93372 12.8417 1.23764 0.00159457 10
5.92509 12.8231 1.73443 0.00157288 10
5.93258 12.8393 2.24013 0.00154429 10
5.92454 12.8219 2.74552 0.00150909 10
5.9356 12.8458 3.26697 0.00146766 10
5.92467 12.8221 3.78472 0.00142042 10
4.22685 9.23225 -2.72072 0.000522362 4
4.76078 10.3984 -2.64032 3.02067e-05 4
5.41808 11.8341 -2.52995 0.000204029 4
5.87968 12.8423 -2.23707 0.00198501 10
5.88702 12.8584 -1.73641 0.00202197 10
5.8816 12.8465 -1.23612 0.00135412 10
5.87936 12.8416 -0.740184 0.00136663 10
5.88059 12.8443 -0.246579 0.00137295 10
5.87971 12.8424 0.246542 0.00137303 10
5.87874 12.8403 0.740105 0.00136685 10
5.87994 12.8429 1.23577 0.00159889 10
5.88153 12.8464 1.73479 0.00157714 10
5.87742 12.8374 2.23621 0.00154848 10
5.88673 12.8577 2.74878 0.00151319 10
5.87912 12.8411 3.26054 0.00147165 10
5.87854 12.8399 3.78387 0.00142429 10
4.19617 9.25041 -2.72174 0.000463404 4
4.72108 10.4076 -2.63843 4.18735e-05 4
5.37926 11.8585 -2.53113 0.000180231 4
5.83116 12.8547 -2.23567 0.0019903 10
5.83224 12.8571 -1.73348 0.00202736 10
5.87789 12.9577 -1.24484 0.000268252 10
5.8721 12.945 -0.744954 0.000270968 10
5.8671 12.9339 -0.247905 0.000272458 10
5.8679 12.9357 0.247939 0.000272708 10
5.86422 12.9276 0.743954 0.000271715 10
5.83827 12.8704 1.23645 0.00160314 10
5.82917 12.8503 1.73257 0.00158134 10
5.83158 12.8557 2.23583 0.00155261 10
5.83772 12.8692 2.74685 0.00151723 10
5.83756 12.8688 3.26238 0.00147559 10
5.83741 12.8685 3.78628 0.0014281 10
4.16543 9.2685 -2.72276 0.000513226 1
4.68526 10.4252 -2.63873 4.12043e-05 4
5.33658 11.8744 -2.53054 0.000165198 4
5.78638 12.8753 -2.23572 0.00199551 10
5.77766 12.8559 -1.73059 0.00203266 10
7.81582 17.391 -1.66811 0.000869339 10
7.80901 17.3758 -0.998364 0.000877927 10
7.81724 17.3941 -0.332868 0.000882271 10
7.81588 17.3911 0.33281 0.000882321 10
7.80895 17.3757 0.998357 0.000878077 10
5.78446 12.871 1.23456 0.00160733 10
5.77929 12.8595 1.73107 0.00158548 10
5.78788 12.8786 2.2363 0.00155667 10
5.78665 12.8759 2.74396 0.00152121 10
5.77915 12.8592 3.25481 0.00147946 10
5.78044 12.862 3.77842 0.00143186 10
4.12907 9.27403 -2.72014 0.000513195 1
4.63821 10.4176 -2.6327 3.84825e-05 4
5.6925 12.7856 -2.72046 0.000169467 1
5.7396 12.8913 -2.23502 0.00200064 10
5.73679 12.885 -1.73181 0.00203788 10
7.74981 17.4063 -1.66698 0.000871725 10
7.7483 17.403 -0.998363 0.000880335 10
7.75208 17.4114 -0.33268 0.000884691 10
7.75222 17.4118 0.332685 0.000884741 10
7.75006 17.4069 0.998591 0.000880485 10
5.73943 12.891 1.23454 0.00161146 10
5.73916 12.8904 1.73252 0.00158955 10
5.7322 12.8747 2.23213 0.00156067 10
5.73242 12.8752 2.73954 0.00152512 10
5.73789 12.8875 3.25689 0.00148327 10
5.729 12.8676 3.77414 0.00143555 10
4.09408 9.28253 -2.71842 0.000513165 1
4.60594 10.4431 -2.63506 2.91034e-05 4
5.64391 12.7965 -2.71857 0.000169452 1
5.68564 12.8911 -2.23151 0.00200568 10
5.68507 12.8898 -1.72976 0.00204301 10
7.68052 17.414 -1.66514 0.000874073 10
7.6835 17.4208 -0.997844 0.000882704 10
7.68553 17.4254 -0.332432 0.000887071 10
7.67899 17.4106 0.332149 0.000887121 10
7.68397 17.4219 0.997904 0.000882855 10
5.68538 12.8905 1.23259 0.00161551 10
5.68575 12.8913 1.72997 0.00159356 10
5.68927 12.8993 2.23294 0.00156461 10
5.68906 12.8988 2.74031 0.00152897 10
5.68213 12.8831 3.25074 0.00148702 10
5.68786 12.8961 3.77667 0.00143919 10
4.06341 9.30077 -2.71959 0.000513134 1
5.59504 12.8065 -2.71654 0.000169437 1
5.64219 12.9145 -2.23214 0.00201065 10
5.63823 12.9054 -1.72921 0.00204806 10
5.63427 12.8963 -1.23126 0.00137158 10
5.63848 12.906 -0.738107 0.00138424 10
5.63877 12.9066 -0.245848 0.00139064 10
5.63233 12.8919 0.245567 0.00139071 10
5.64122 12.9123 0.738466 0.00138446 10
5.49132 12.5691 1.20002 0.00174045 10
5.48878 12.5633 1.68337 0.00171691 10
5.48669 12.5585 2.17062 0.00168589 10
5.49562 12.579 2.66827 0.0016477 10
5.48485 12.5543 3.16293 0.00160273 10
5.49126 12.569 3.67524 0.00155145 10
4.0375 9.3301 -2.72403 0.000513104 1
5.55933 12.8468 -2.72096 0.000169423 1
5.58451 12.905 -2.22713 0.00201552 10
5.58618 12.9089 -1.72705 0.00205303 10
5.58963 12.9169 -1.23135 0.00137491 10
5.59312 12.9249 -0.73807 0.00138759 10
5.58339 12.9024 -0.245396 0.00139401 10
5.58324 12.9021 0.245389 0.00139408 10
5.58421 12.9044 0.736895 0.00138781 10
5.44229 12.5764 1.1989 0.00174464 10
5.44008 12.5713 1.68189 0.00172106 10
5.43936 12.5696 2.16924 0.00168996 10
5.43861 12.5679 2.66187 0.00165168 10
5.44396 12.5802 3.16466 0.00160661 10
5.43696 12.5641 3.66823 0.00155521 10
4.00504 9.34446 -2.72413 0.000513073 1
5.50563 12.8456 -2.71661 0.000169408 1
5.53832 12.9219 -2.22668 0.00202032 10
5.54408 12.9353 -1.72799 0.00205791 10
7.48099 17.4545 -1.66142 0.000880886 10
7.48901 17.4732 -0.996295 0.000889581 10
7.49009 17.4757 -0.331876 0.000893979 10
7.48221 17.4573 0.331527 0.000894029 10
7.48117 17.4549 0.995252 0.000889731 10
5.39987 12.5988 1.19923 0.00174876 10
5.43795 12.6877 1.69491 0.000303313 10
5.44362 12.7009 2.18861 0.000298119 10
5.43615 12.6835 2.68232 0.000291646 10
5.43891 12.6899 3.18745 0.000283963 10
5.43033 12.6699 3.69357 0.000275149 10
3.96353 9.33749 -2.71805 0.000513042 1
5.46279 12.8695 -2.71762 0.000169393 1
5.48731 12.9273 -2.2243 0.00202503 10
5.49033 12.9344 -1.7253 0.0020627 10
7.53624 17.7543 -1.68744 0.000148066 10
7.53586 17.7534 -1.01077 0.000149693 10
7.54131 17.7662 -0.336892 0.000150596 10
7.53846 17.7595 0.336764 0.000150764 10
7.53289 17.7464 1.01037 0.000150196 10
5.34617 12.5948 1.19706 0.00175281 10
5.49425 12.9436 1.72653 0.0010271 10
5.48622 12.9247 2.22386 0.00100845 10
5.4928 12.9402 2.73255 0.000985492 10
5.48505 12.922 3.24091 0.000958466 10
5.48259 12.9162 3.75976 0.000395862 10
3.9335 9.35742 -2.71983 0.000513012 1
5.41871 12.8906 -2.71806 0.000169379 1
5.44806 12.9604 -2.22672 0.00202966 10
5.44401 12.9508 -1.72494 0.00206741 10
8.45639 20.117 -1.90918 9.95775e-05 10
7.86331 18.7061 1.06344 3.86168e-05 10
5.29829 12.6041 1.19618 0.00175679 10
5.4668 13.005 1.73216 0.00101579 10
5.46377 12.9978 2.23314 0.000997331 10
5.46832 13.0086 2.74294 0.000974608 10
5.46778 13.0073 3.25751 0.000947858 10
5.4354 12.9303 3.75833 0.000395888 10
3.90016 9.36952 -2.71937 0.000512981 1
5.37513 12.9129 -2.71879 0.000169364 1
5.39687 12.9651 -2.22428 0.00203419 10
5.39911 12.9705 -1.72505 0.00207203 10
5.39834 12.9687 -1.22899 0.00138762 10
5.3994 12.9712 -0.736337 0.00140042 10
5.39564 12.9622 -0.245075 0.00140689 10
5.39237 12.9543 0.244926 0.00140696 10
5.39575 12.9624 0.735838 0.00140064 10
5.25793 12.6314 1.19702 0.00176069 10
5.42372 13.0297 3.25834 0.000160486 10
5.38912 12.9465 3.75755 0.000395913 10
3.87509 9.40166 -2.72476 0.00051295 1
5.3294 12.9301 -2.71847 0.000169349 1
5.34139 12.9592 -2.22004 0.00203865 10
5.34645 12.9715 -1.72268 0.00207656 10
5.34205 12.9608 -1.22646 0.00139065 10
5.34329 12.9638 -0.73485 0.00140348 10
5.3492 12.9781 -0.245022 0.00140996 10
5.34009 12.956 0.244605 0.00141003 10
5.34945 12.9787 0.735697 0.0014037 10
5.21219 12.6457 1.19665 0.00176452 10
5.34995 12.9799 3.76181 0.000933916 10
3.83692 9.40209 -2.72099 0.00051292 1
5.28715 12.9558 -2.71998 0.000169334 1
5.29274 12.9695 -2.21863 0.00204301 10
5.3026 12.9936 -1.72315 0.002081 10
5.36584 13.1486 -1.24245 0.000217684 10
5.36605 13.1491 -0.744289 0.000219935 10
5.36447 13.1452 -0.247822 0.000221192 10
5.35986 13.1339 0.247608 0.000221443 10
5.36286 13.1413 0.743846 0.000220685 10
5.16021 12.6447 1.19484 0.00176827 10
5.29465 12.9741 3.75475 0.000935925 10
3.80216 9.41067 -2.71961 0.000512889 1
5.2409 12.9717 -2.71946 0.000169319 1
5.25118 12.9971 -2.22021 0.0020473 10
5.25499 13.0065 -1.72242 0.00208535 10
8.75744 21.6754 -2.04528 0.000464221 10
8.75704 21.6744 -1.22512 0.000469069 10
8.7555 21.6706 -0.407969 0.000471521 10
8.75268 21.6636 0.407837 0.000471549 10
7.60152 18.8144 1.06346 3.86719e-05 10
5.1076 12.6417 1.19287 0.00177195 10
5.24954 12.9931 3.7549 0.000937894 10
3.77341 9.4342 -2.72259 0.000512858 1
5.19239 12.9819 -2.71779 0.000169305 1
5.20251 13.0072 -2.21882 0.00205149 10
5.20009 13.0011 -1.71929 0.00208962 10
8.67266 21.6832 -2.04315 0.000465296 10
8.6684 21.6725 -1.22329 0.000470153 10
8.67351 21.6853 -0.407673 0.000472611 10
8.67757 21.6955 0.407864 0.000472639 10
7.53858 18.8478 1.06385 3.86857e-05 10
5.06444 12.662 1.19311 0.00177555 10
5.19525 12.989 3.74847 0.000939823 10
3.74225 9.45183 -2.72389 0.000512826 1
5.15475 13.0194 -2.72185 0.00016929 1
5.1499 13.0072 -2.21573 0.00205559 10
5.15762 13.0267 -1.72028 0.0020938 10
8.59838 21.717 -2.04349 0.000466348 10
8.59835 21.7169 -1.2241 0.000471216 10
8.59024 21.6965 -0.407317 0.000473678 10
8.59298 21.7034 0.407446 0.000473706 10
7.47066 18.8687 1.06355 3.86996e-05 10
5.01553 12.6678 1.19199 0.00177908 10
5.14967 13.0066 3.74832 0.000941711 10
3.70497 9.45397 -2.72077 0.000512796 1
5.10769 13.0333 -2.72101 0.00201254 10
5.1022 13.0193 -2.21474 0.00205961 10
5.10619 13.0295 -1.71828 0.00209789 10
5.10426 13.0245 -1.22388 0.00140492 10
5.10282 13.0209 -0.732926 0.00141787 10
5.10874 13.036 -0.244393 0.00142442 10
5.1058 13.0285 0.244252 0.00142449 10
5.10273 13.0206 0.732912 0.0014181 10
4.96633 12.6726 1.19081 0.00178253 10
5.10242 13.0198 3.74699 0.000943558 10
3.67068 9.46356 -2.71982 0.000512765 1
5.05482 13.0321 -2.71706 0.00201639 10
5.06113 13.0484 -2.21667 0.00206353 10
5.06117 13.0485 -1.71845 0.00210188 10
5.06586 13.0606 -1.2256 0.000200909 10
5.06821 13.0666 -0.734501 0.000203009 10
5.0697 13.0705 -0.244707 0.000204195 10
5.06309 13.0534 0.244387 0.000204454 10
5.06562 13.0599 0.734126 0.000203783 10
4.92973 12.7096 1.19266 0.0017859 10
5.05358 13.0289 3.74449 0.000945365 10
3.64311 9.49063 -2.72393 0.000512734 1
5.01059 13.053 -2.71776 0.00202014 10
5.00675 13.043 -2.21279 0.00206737 10
5.0107 13.0533 -1.71678 0.00210579 10
9.55776 24.8988 -2.33335 4.20599e-05 10
9.89507 25.7776 -1.44706 0.000269539 10
9.89274 25.7715 -0.481847 0.000271022 10
9.89237 25.7705 0.481829 0.000271039 10
7.27277 18.9462 1.06357 3.87414e-05 10
4.87717 12.7055 1.19067 0.0017892 10
5.00947 13.0501 3.74554 0.000947131 10
3.60839 9.49916 -2.72274 0.000512702 1
4.96315 13.0656 -2.71675 0.00202381 10
4.96137 13.0609 -2.21286 0.00207112 10
4.9566 13.0483 -1.71383 0.0021096 10
9.71531 25.5757 -2.39359 3.76218e-05 10
9.79606 25.7883 -1.44573 0.00027012 10
9.79943 25.7972 -0.481685 0.000271607 10
9.79458 25.7844 0.481446 0.000271624 10
7.19991 18.9539 1.06259 3.87554e-05 10
4.82749 12.7084 1.18936 0.00179243 10
4.95658 13.0483 3.74003 0.000948856 10
3.57408 9.50867 -2.72188 0.000512671 1
4.91236 13.0691 -2.71391 0.00202739 10
4.91081 13.065 -2.21064 0.00207478 10
4.91154 13.0669 -1.71401 0.00211332 10
9.70468 25.8189 -2.41316 0.000267744 10
9.70341 25.8155 -1.44535 0.000270688 10
9.69981 25.8059 -0.481213 0.000272177 10
9.70701 25.8251 0.48157 0.000272194 10
7.13335 18.9779 1.06253 3.87694e-05 10
4.78346 12.7262 1.18945 0.00179557 10
4.91076 13.0649 3.73985 0.000950538 10
3.54572 9.53415 -2.72561 0.00051264 1
4.86373 13.0782 -2.71224 0.00203088 10
4.8687 13.0915 -2.21224 0.00207835 10
4.86201 13.0735 -1.71264 0.00211695 10
4.86443 13.0801 -1.22093 0.00141768 10
4.86516 13.082 -0.731476 0.00143074 10
4.86735 13.0879 -0.243737 0.00143735 10
4.86606 13.0844 0.243672 0.00143742 10
4.86579 13.0837 0.731571 0.00143097 10
4.73698 12.7373 1.18894 0.00179864 10
4.86219 13.074 3.73759 0.00095218 10
3.51282 9.54756 -2.72592 0.000512608 1
4.82205 13.1059 -2.7145 0.00203428 10
4.81586 13.0891 -2.20898 0.00208182 10
4.81447 13.0853 -1.71198 0.00212049 10
4.8136 13.083 -1.21963 0.00142005 10
4.81593 13.0893 -0.730939 0.00143313 10
4.82143 13.1043 -0.243727 0.00143975 10
4.81588 13.0892 0.243446 0.00143982 10
4.81631 13.0903 0.730997 0.00143336 10
4.68875 12.7436 1.18799 0.00180162 10
4.81993 13.1002 3.74024 0.000953781 10
3.47816 9.55616 -2.7249 0.000512577 1
3.86402 10.6163 -2.60826 3.32675e-05 4
4.76787 13.0996 -2.70973 0.00203759 10
4.77281 13.1132 -2.21022 0.00208521 10
4.76529 13.0925 -1.71073 0.00212394 10
9.41973 25.8805 -2.40956 0.000269347 10
9.41875 25.8778 -1.44324 0.000272307 10
9.42509 25.8952 -0.481012 0.000273805 10
9.41975 25.8806 0.480739 0.000273821 10
6.9335 19.0496 1.06242 3.88116e-05 10
4.64401 12.7593 1.18794 0.00180453 10
4.76371 13.0882 3.73204 0.000955339 10
3.44506 9.56901 -2.72512 0.000512546 1
3.82746 10.6312 -2.60862 3.90043e-05 4
4.71988 13.11 -2.70844 0.00204082 10
4.71865 13.1066 -2.20631 0.00208851 10
4.72658 13.1286 -1.71327 0.00212729 10
9.38636 26.0716 -2.42429 0.000263802 10
6.86916 19.0798 1.06276 3.88257e-05 10
4.59581 12.7653 1.187 0.00180737 10
4.72157 13.1146 3.73486 0.000956855 10
3.40537 9.56339 -2.72011 0.000512514 1
3.78774 10.6372 -2.60684 3.43308e-05 4
4.6702 13.1155 -2.70619 0.00204395 10
4.67685 13.1341 -2.20819 0.00209171 10
4.67208 13.1207 -1.71011 0.00213055 10
9.29362 26.0995 -2.42386 0.000264284 10
11.0901 31.1445 -1.73261 0.00014157 10
11.0873 31.1368 -0.576924 0.000142399 10
11.09 31.1444 0.577064 0.000142409 10
6.80303 19.1051 1.06284 3.88398e-05 10
4.547 12.7695 1.1859 0.00181012 10
4.67628 13.1325 3.73528 0.000958328 10
3.37836 9.59338 -2.72527 0.000512483 1
3.74727 10.641 -2.60454 4.68557e-05 4
4.62461 13.1323 -2.70632 0.00204699 10
4.62157 13.1237 -2.20371 0.00209482 10
4.62684 13.1386 -1.71033 0.00213372 10
9.19637 26.1145 -2.42225 0.000264753 10
9.19765 26.1181 -1.45119 0.000176801 10
9.2014 26.1288 -0.483533 0.000177775 10
9.20307 26.1335 0.483621 0.000177786 10
6.73765 19.1326 1.06305 3.8854e-05 10
4.50438 12.7909 1.18642 0.00181279 10
4.65159 13.2089 1.71948 0.0010484 10
4.64681 13.1953 2.21574 0.00102938 10
4.65217 13.2106 2.72245 0.00100596 10
4.64414 13.1878 3.22791 0.000978399 10
4.62986 13.1472 3.73483 0.00095976 10
3.34266 9.59881 -2.72348 0.000512451 1
3.71635 10.6719 -2.60892 4.46328e-05 4
4.58312 13.1609 -2.70891 0.00204995 10
4.57937 13.1502 -2.20545 0.00209784 10
4.57576 13.1398 -1.70839 0.00213679 10
4.57752 13.1448 -1.21776 0.00143096 10
4.58263 13.1595 -0.730282 0.00144413 10
4.57703 13.1434 -0.242933 0.00145079 10
4.57975 13.1513 0.243077 0.00145087 10
4.57704 13.1435 0.729392 0.00144436 10
4.46098 12.8102 1.18676 0.00181539 10
4.57639 13.1416 3.72869 0.000961149 10
3.30802 9.60717 -2.72256 0.00051242 1
3.67058 10.6601 -2.6029 5.44596e-05 4
4.53175 13.1612 -2.70568 0.00205281 10
4.5272 13.1479 -2.20242 0.00210076 10
4.5333 13.1656 -1.70968 0.00213976 10
4.54729 13.2063 -1.22198 0.000148724 10
4.54973 13.2134 -0.732384 0.000150348 10
4.5419 13.1906 -0.24351 0.000151296 10
4.54274 13.1931 0.243555 0.000151558 10
