VERSION 0.7
FIELDS x y z intensity label
SIZE 4 4 4 4 4
TYPE F F F F F
COUNT 1 1 1 1 1
WIDTH 1169
HEIGHT 1
VIEWPOINT 12.7667 43.0361 2.72855 0.622971 -0.000564332 0.000597259 0.782245
POINTS 1169
DATA ascii
-0.148896 14.2184 -1.24401 0.00199448 10
-0.149122 14.2399 -0.746323 0.00201285 10
-0.149171 14.2446 -0.248653 0.00202211 10
-0.149041 14.2322 0.248438 0.00202215 10
-0.149165 14.244 0.746539 0.00201297 10
-0.149113 14.239 1.24582 0.00155526 10
-0.148958 14.2242 1.74661 0.00153403 10
-0.149104 14.2382 2.25523 0.00150605 10
-0.148922 14.2208 2.76439 0.00147163 10
-0.148983 14.2266 3.28464 0.00143112 10
-0.1489 14.2187 3.81009 0.00138494 10
-0.140511 10.0627 -2.69655 0.000267472 4
-0.160671 11.5064 -2.65673 0.000378688 4
-0.182712 13.0849 -2.54369 0.00015747 4
-0.198831 14.2393 -2.2555 0.00192509 10
-0.198719 14.2312 -1.74755 0.00196093 10
-0.198932 14.2465 -1.24653 0.00198815 10
-0.198767 14.2347 -0.74608 0.00200647 10
-0.198716 14.231 -0.248427 0.0020157 10
-0.199013 14.2523 0.248798 0.00201574 10
-0.198975 14.2496 0.74686 0.00200659 10
-0.198712 14.2307 1.24515 0.00155033 10
-0.198745 14.2331 1.74777 0.00152916 10
-0.198853 14.2408 2.25574 0.00150127 10
-0.198682 14.2286 2.76603 0.00146695 10
-0.19879 14.2363 3.28704 0.00142656 10
-0.199036 14.254 3.81971 0.00138052 10
-0.175462 10.0523 -2.69392 0.000356337 4
-0.200854 11.5071 -2.65702 0.000190329 4
-0.22806 13.0657 -2.5401 0.000190666 4
-0.249013 14.2661 -2.25987 0.00191888 10
-0.248913 14.2603 -1.75122 0.00195461 10
-0.248998 14.2652 -1.24823 0.00198175 10
-0.248671 14.2465 -0.746739 0.00200002 10
-0.248698 14.248 -0.248738 0.00200922 10
-0.248846 14.2565 0.248887 0.00200926 10
-0.248643 14.2449 0.746656 0.00200013 10
-0.248551 14.2396 1.24599 0.00154534 10
-0.248762 14.2517 1.75016 0.00152424 10
-0.248977 14.264 2.25954 0.00149643 10
-0.248935 14.2616 2.7726 0.00146222 10
-0.248827 14.2554 3.29162 0.00142195 10
-0.248686 14.2474 3.81815 0.00137605 10
-0.210322 10.0406 -2.69096 0.000388193 4
-0.240536 11.483 -2.65164 0.000240394 4
-0.27404 13.0825 -2.54353 0.000177116 4
-0.298888 14.2687 -2.26043 0.0019126 10
-0.298829 14.2659 -1.75202 0.00194822 10
-0.298667 14.2582 -1.2477 0.00197528 10
-0.299048 14.2764 -0.748357 0.00199349 10
-0.299115 14.2795 -0.249305 0.00200266 10
-0.298923 14.2704 0.249145 0.0020027 10
-0.299023 14.2752 0.748293 0.0019936 10
-0.298528 14.2515 1.24712 0.00154029 10
-0.298848 14.2668 1.75213 0.00151925 10
-0.299036 14.2758 2.26156 0.00149153 10
-0.29881 14.265 2.77344 0.00145742 10
-0.298635 14.2566 3.29213 0.00141728 10
-0.298684 14.259 3.82152 0.00137153 10
-0.244868 10.0194 -2.68549 0.0003471 4
-0.280815 11.4903 -2.65353 0.000130202 4
-0.319196 13.0607 -2.53951 0.000119294 4
-0.348592 14.2635 -2.2598 0.00190624 10
-0.348904 14.2763 -1.75343 0.00194175 10
-0.348616 14.2645 -1.24836 0.00196872 10
-0.349034 14.2816 -0.748692 0.00198688 10
-0.349056 14.2825 -0.249377 0.00199602 10
-0.349116 14.285 0.24942 0.00199606 10
-0.348602 14.264 0.747766 0.00198699 10
-0.348694 14.2677 1.24864 0.00153518 10
-0.348849 14.2741 1.75316 0.00151421 10
-0.348984 14.2796 2.26234 0.00148658 10
-0.349207 14.2887 2.77828 0.00145258 10
-0.348863 14.2746 3.29654 0.00141256 10
-0.348872 14.275 3.82612 0.00136695 10
-0.279634 10.0112 -2.68353 0.000305881 4
-0.320815 11.4855 -2.65267 0.000310454 4
-0.365147 13.0726 -2.54205 0.000141416 4
-0.399067 14.287 -2.26372 0.00189982 10
-0.399383 14.2983 -1.7563 0.00193521 10
-0.398778 14.2766 -1.24953 0.0019621 10
-0.398874 14.2801 -0.74868 0.00198019 10
-0.399413 14.2994 -0.249694 0.00198931 10
-0.399094 14.288 0.249494 0.00198934 10
-0.39919 14.2914 0.749273 0.0019803 10
-0.399079 14.2874 1.25047 0.00153002 10
-0.398886 14.2805 1.75411 0.00150911 10
-0.399162 14.2904 2.26426 0.00148156 10
-0.399318 14.296 2.77994 0.00144767 10
-0.399302 14.2954 3.30164 0.00140779 10
-0.398747 14.2755 3.8266 0.00136232 10
-0.313736 9.98325 -2.67633 0.000398103 4
-0.361038 11.4884 -2.65362 0.000238327 4
-0.410775 13.0711 -2.54202 0.000164763 4
-0.449324 14.2977 -2.26566 0.00189331 10
-0.448942 14.2856 -1.75492 0.00192859 10
-0.449598 14.3065 -1.25227 0.00195539 10
-0.449079 14.29 -0.749275 0.00197343 10
-0.449519 14.304 -0.2498 0.00198251 10
-0.449855 14.3147 0.249986 0.00198255 10
-0.449214 14.2943 0.7495 0.00197354 10
-0.44895 14.2858 1.25047 0.00152479 10
-0.449249 14.2954 1.75612 0.00150395 10
-0.449797 14.3128 2.26805 0.00147649 10
-0.449355 14.2987 2.78076 0.00144271 10
-0.449838 14.3141 3.3063 0.00140295 10
-0.449033 14.2885 3.83048 0.00135764 10
-0.347847 9.96112 -2.6707 0.00030438 4
-0.40103 11.4841 -2.65293 0.000130167 4
-0.456922 13.0846 -2.54495 0.000146303 4
-0.499749 14.3111 -2.26803 0.00188674 10
-0.499708 14.3099 -1.7581 0.00192191 10
-0.994141 28.4687 -2.49221 0.000233539 10
-1.18615 33.9671 -1.78123 0.000124116 10
-0.696396 19.9423 1.04577 4.14383e-05 10
-0.499481 14.3034 1.25214 0.00151951 10
-0.499414 14.3015 1.75707 0.00149873 10
-0.499541 14.3051 2.26709 0.00147137 10
-0.4993 14.2982 2.78098 0.0014377 10
-0.499407 14.3013 3.30372 0.00139807 10
-0.499451 14.3025 3.83468 0.0013529 10
-0.382268 9.95072 -2.66825 0.000312847 4
-0.4411 11.4822 -2.65282 0.0003344 4
-0.502269 13.0744 -2.54329 0.000131536 4
-0.549981 14.3164 -2.26917 0.0018801 10
-0.550665 14.3342 -1.76132 0.00191515 10
-1.09405 28.4788 -2.49341 0.000232556 10
-1.30616 34.0004 -1.7832 0.00012356 10
-1.84231 47.9568 -0.837706 2.99361e-05 10
-1.84296 47.9736 0.838 2.99369e-05 10
-0.766095 19.942 1.04589 4.14562e-05 10
-0.549888 14.314 1.25324 0.00151416 10
-0.550482 14.3295 1.76073 0.00149346 10
-0.54989 14.3141 2.2688 0.00146619 10
-0.550493 14.3297 2.78747 0.00143263 10
-0.550767 14.3369 3.31237 0.00139314 10
-0.550552 14.3313 3.84288 0.00134812 10
-0.415838 9.92165 -2.66083 0.000334531 4
-0.481464 11.4875 -2.65442 0.000376417 4
-0.547327 13.0589 -2.54062 0.000168397 4
-0.600573 14.3293 -2.27153 0.00187339 10
-0.600598 14.3299 -1.76103 0.00190832 10
-1.19446 28.499 -2.49553 0.000231562 10
-1.42592 34.0215 -1.78456 0.000122999 10
-2.01227 48.0115 -0.83878 2.97793e-05 10
-2.01183 48.001 0.838596 2.97802e-05 10
-0.835601 19.9369 1.04577 4.14742e-05 10
-0.600865 14.3363 1.25536 0.00150877 10
-0.600815 14.3351 1.76167 0.00148814 10
-0.600334 14.3236 2.27063 0.00146095 10
-0.601386 14.3487 2.79156 0.00142751 10
-0.600304 14.3229 3.3096 0.00138815 10
-0.601216 14.3447 3.84702 0.00134328 10
-0.449884 9.90719 -2.65736 0.000409103 4
-0.521128 11.4761 -2.6522 0.000346353 4
-0.592761 13.0536 -2.53998 0.000147485 4
-0.651983 14.3578 -2.27639 0.00186661 10
-0.651282 14.3423 -1.76283 0.00190141 10
-0.653252 14.3857 -1.25988 0.000352076 10
-0.653394 14.3888 -0.754864 0.000355034 10
-0.653734 14.3963 -0.251548 0.000356378 10
-0.652683 14.3732 0.251143 0.000356092 10
-0.653031 14.3809 0.754445 0.00035418 10
-0.651933 14.3567 1.25734 0.00150332 10
-0.651999 14.3581 1.76477 0.00148275 10
-0.651612 14.3496 2.27509 0.00145567 10
-0.6519 14.3559 2.79339 0.00142233 10
-0.651132 14.339 3.31384 0.00138311 10
-0.652016 14.3585 3.85131 0.0013384 10
-0.483979 9.89569 -2.65471 0.000251472 4
-0.561773 11.4863 -2.655 0.000406379 4
-0.638784 13.0609 -2.54182 0.000167132 4
-0.701518 14.3436 -2.27452 0.00185976 10
-0.702397 14.3616 -1.76549 0.00189444 10
-0.702576 14.3653 -1.2583 0.00126873 10
-0.702173 14.357 -0.753319 0.00128045 10
-0.70273 14.3684 -0.251101 0.00128635 10
-0.702909 14.3721 0.251165 0.00128637 10
-0.701969 14.3528 0.7531 0.00128052 10
-0.702124 14.356 1.25749 0.00149781 10
-0.702549 14.3647 1.76587 0.00147732 10
-0.701686 14.3471 2.27507 0.00145032 10
-0.702365 14.3609 2.79482 0.00141711 10
-0.701722 14.3478 3.31641 0.00137802 10
-0.702887 14.3716 3.85546 0.00133346 10
-0.518339 9.89048 -2.65378 0.000142269 4
-0.601281 11.4731 -2.65241 0.000224189 4
-0.68419 13.0551 -2.54114 0.000137623 4
-0.752544 14.3594 -2.27742 0.00185284 10
-0.75307 14.3694 -1.76676 0.0018874 10
-1.48995 28.4298 -2.4907 6.65608e-05 10
-1.48967 28.4245 -1.49171 6.72325e-05 10
-1.48997 28.4302 -0.496933 6.75388e-05 10
-1.49004 28.4317 0.496958 6.74756e-05 10
-1.04437 19.9278 1.0458 4.15281e-05 10
-0.752962 14.3673 1.2587 0.00149225 10
-0.753292 14.3736 1.76728 0.00147183 10
-0.753707 14.3816 2.28094 0.00144493 10
-0.753301 14.3738 2.79782 0.00141183 10
-0.752409 14.3568 3.31908 0.00137288 10
-0.753513 14.3779 3.85782 0.00132848 10
-0.553342 9.89726 -2.6561 0.000224967 4
-0.642021 11.4834 -2.65529 0.000406307 4
-0.729872 13.0547 -2.54155 8.60054e-05 4
-0.80364 14.3742 -2.2802 0.00184585 10
-0.804081 14.3821 -1.76865 0.00188029 10
-1.58924 28.4258 -2.49082 0.000232787 10
-1.58851 28.4126 -1.49137 0.000235363 10
-1.58919 28.4248 -0.496932 0.000236662 10
-1.58865 28.4152 0.496763 0.000236667 10
-1.11356 19.9176 1.04547 4.15461e-05 10
-0.804253 14.3852 1.2605 0.00148663 10
-0.804125 14.3829 1.76875 0.00146628 10
-0.804362 14.3871 2.28225 0.00143948 10
-0.803993 14.3805 2.79965 0.0014065 10
-0.803412 14.3701 3.32278 0.00136769 10
-0.803504 14.3717 3.85691 0.00132345 10
-0.586767 9.87646 -2.65106 0.000396972 4
-0.682282 11.4842 -2.65601 0.00036024 4
-0.776109 13.0635 -2.54376 0.000130223 4
-0.85512 14.3934 -2.28371 0.0018388 10
-0.854885 14.3894 -1.76992 0.00187312 10
-1.68902 28.4296 -2.49166 0.000231725 10
-1.68968 28.4407 -1.49314 0.00023429 10
-1.68989 28.4443 -0.497372 0.000235583 10
-1.69021 28.4496 0.497466 0.000235589 10
-1.18159 19.8886 1.04415 4.1564e-05 10
-0.855761 14.4042 1.26242 0.00148096 10
-0.854396 14.3812 1.7689 0.00146069 10
-0.854274 14.3791 2.28145 0.00143398 10
-0.855133 14.3936 2.80277 0.00140112 10
-0.854465 14.3824 3.32628 0.00136245 10
-0.855695 14.4031 3.86609 0.00131837 10
-0.622166 9.88904 -2.655 0.000651647 4
-0.721495 11.4678 -2.6528 0.000372215 4
-0.820772 13.0458 -2.54086 0.000143721 4
-0.906477 14.408 -2.28652 0.00183168 10
-0.907014 14.4166 -1.77363 0.00186587 10
-0.910523 14.4724 -1.26867 0.000367001 10
-0.909641 14.4583 -0.759228 0.000370107 10
-0.911064 14.481 -0.253266 0.000371528 10
-0.91084 14.4774 0.253203 0.000371247 10
-0.911173 14.4827 0.760506 0.000369268 10
-0.90558 14.3938 1.26178 0.00147524 10
-0.90719 14.4194 1.77398 0.00145504 10
-0.906265 14.4047 2.28599 0.00142843 10
-0.906603 14.4101 2.80657 0.00139569 10
-0.905437 14.3915 3.32911 0.00135716 10
-0.906897 14.4147 3.87005 0.00131324 10
-0.656159 9.87899 -2.6529 0.000628445 4
-0.763101 11.4891 -2.65831 0.000206101 4
-0.867475 13.0605 -2.5443 0.000169499 4
-0.958548 14.4317 -2.29079 0.0018245 10
-0.957859 14.4213 -1.77462 0.00185856 10
-0.956658 14.4032 -1.2629 0.00124472 10
-0.958164 14.4259 -0.757696 0.00125623 10
-0.958008 14.4236 -0.252319 0.00126202 10
-0.956607 14.4025 0.25195 0.00126204 10
-0.958017 14.4237 0.757579 0.0012563 10
-0.958295 14.4279 1.26506 0.00146946 10
-0.957768 14.4199 1.77445 0.00144934 10
-0.956867 14.4064 2.28677 0.00142283 10
-0.957695 14.4188 2.80892 0.00139021 10
-0.957698 14.4189 3.3362 0.00135182 10
-0.958321 14.4283 3.87456 0.00130807 10
-0.691862 9.89408 -2.65759 0.000711082 4
-0.802785 11.4804 -2.65692 0.000318128 4
-0.913426 13.0626 -2.54531 0.000147375 4
-1.00944 14.4356 -2.29196 0.00181725 10
-1.00962 14.4382 -1.77712 0.00185119 10
-1.00978 14.4406 -1.26647 0.00123979 10
-1.00803 14.4155 -0.75733 0.00125125 10
-1.00985 14.4415 -0.252694 0.00125702 10
-1.00852 14.4225 0.25236 0.00125704 10
-1.00904 14.4299 0.758087 0.00125132 10
-1.00811 14.4166 1.26437 0.00146363 10
-1.00899 14.4293 1.77602 0.00144359 10
-1.00814 14.4171 2.28901 0.00141718 10
-1.00815 14.4172 2.80927 0.00138468 10
-1.00982 14.4411 3.34213 0.00134644 10
-1.00867 14.4247 3.87452 0.00130285 10
-0.72661 9.89458 -2.65838 0.000654809 4
-0.84182 11.4634 -2.65367 0.000204064 4
-0.95899 13.059 -2.54525 0.000163323 4
-1.05953 14.4281 -2.29134 0.00180994 10
-1.06023 14.4376 -1.77749 0.00184375 10
-2.10996 28.7323 -2.52052 0.0002222 10
-2.51704 34.2757 -1.80115 0.000117716 10
-2.5173 34.2793 -0.599958 7.82133e-05 10
-2.51659 34.2696 0.599788 7.82152e-05 10
-1.46015 19.8835 1.04486 4.16357e-05 10
-1.06091 14.4469 1.26734 0.00145776 10
-1.06091 14.4468 1.77862 0.00143779 10
-1.06065 14.4433 2.29376 0.00141148 10
-1.06036 14.4394 2.8143 0.0013791 10
-1.06141 14.4537 3.34589 0.00134101 10
-1.06028 14.4384 3.87916 0.00129759 10
-0.759042 9.86462 -2.65103 0.000681215 4
-0.845719 10.9911 -2.54499 0.000212786 4
-1.00436 13.0528 -2.5447 0.000141204 4
-1.11267 14.4604 -2.29708 0.00180256 10
-1.11103 14.4391 -1.77814 0.00183624 10
-2.21135 28.739 -2.52177 0.000221115 10
-2.63859 34.2915 -1.80245 0.000117105 10
-1.52786 19.8563 1.0437 4.16536e-05 10
-1.1117 14.4478 1.26776 0.00145183 10
-1.11104 14.4392 1.77816 0.00143193 10
-1.11188 14.4501 2.29544 0.00140572 10
-1.11216 14.4538 2.81785 0.00137348 10
-1.11291 14.4635 3.34904 0.00133553 10
-1.11263 14.46 3.88599 0.00129227 10
-0.793488 9.86214 -2.65109 0.000575353 4
-0.883461 10.9804 -2.54322 0.00032475 4
-1.04855 13.0323 -2.54141 0.000158377 4
-1.16351 14.4611 -2.29781 0.00179513 10
-1.16263 14.4501 -1.77998 0.00182867 10
-1.16884 14.5273 -1.27508 0.000381665 10
-1.1704 14.5467 -0.764826 0.000384915 10
-1.17042 14.547 -0.25474 0.00038641 10
-1.17019 14.5441 0.254689 0.000386134 10
-1.17165 14.5623 0.765644 0.00038409 10
-1.16351 14.4611 1.26927 0.00144585 10
-1.16486 14.4779 1.78341 0.00142603 10
-1.16452 14.4737 2.29981 0.00139993 10
-1.16299 14.4546 2.81877 0.0013678 10
-1.16436 14.4716 3.35184 0.00133 10
-1.16481 14.4772 3.89169 0.00128692 10
-0.828881 9.87092 -2.65421 0.000727404 4
-0.920966 10.9675 -2.54097 0.000313524 4
-1.09449 13.034 -2.54246 0.000138719 4
-1.21484 14.4671 -2.29944 0.00178763 10
-1.21523 14.4718 -1.78317 0.00182104 10
-1.21602 14.4813 -1.27141 0.00121961 10
-1.21574 14.4779 -0.761426 0.0012309 10
-1.21574 14.478 -0.253603 0.00123658 10
-1.21442 14.4622 0.253328 0.00123661 10
-1.21593 14.4801 0.761543 0.00123097 10
-1.21506 14.4698 1.2704 0.00143982 10
-1.21515 14.4709 1.78306 0.00142008 10
-1.21611 14.4823 2.30185 0.00139408 10
-1.21587 14.4795 2.82443 0.00136208 10
-1.21645 14.4864 3.35621 0.00132443 10
-1.21657 14.4878 3.89565 0.00128152 10
-0.862875 9.86272 -2.6528 0.000710819 4
-0.960192 10.9751 -2.54347 0.000239601 4
-1.14131 13.0453 -2.54543 0.000175528 4
-1.26649 14.4761 -2.30155 0.00178007 10
-1.26812 14.4947 -1.78653 0.00181335 10
-1.26716 14.4837 -1.272 0.00121446 10
-1.26722 14.4844 -0.761994 0.00122571 10
-1.26631 14.474 -0.25361 0.00123137 10
-1.26781 14.4911 0.25391 0.00123139 10
-1.26762 14.489 0.762235 0.00122578 10
-1.26272 14.433 1.26755 0.000469476 10
-1.26301 14.4362 1.77932 0.000462707 10
-1.26232 14.4284 2.29397 0.000453907 10
-1.26335 14.4402 2.81761 0.000443166 10
-1.26171 14.4215 3.34218 0.000430598 10
-1.26818 14.4954 3.89887 0.00127608 10
-0.89795 9.86685 -2.65474 0.000647955 4
-0.997768 10.9637 -2.54162 0.00023958 4
-1.18543 13.0257 -2.5424 0.000163236 4
-1.31878 14.491 -2.30463 0.00177245 10
-1.31854 14.4883 -1.78629 0.0018056 10
-2.62552 28.8497 -2.53446 0.000216694 10
-3.13277 34.4235 -1.81152 0.000114615 10
-1.8054 19.8381 1.04397 4.17251e-05 10
-1.29855 14.2687 1.25351 0.000488794 10
-1.29978 14.2822 1.76088 0.000481766 10
-1.29849 14.268 2.26917 0.000472626 10
-1.29824 14.2653 2.78436 0.000461471 10
-1.29989 14.2835 3.31123 0.000448415 10
-1.29865 14.2698 3.83939 0.000433596 10
-0.933609 9.87655 -2.65821 0.0005851 4
-1.03538 10.9532 -2.54001 0.000304487 4
-1.2308 13.0205 -2.54221 0.000147265 4
-1.37269 14.5216 -2.31025 0.00176477 10
-1.37317 14.5267 -1.7916 0.00179779 10
-2.72738 28.8527 -2.53553 0.000215569 10
-3.25509 34.4353 -1.81272 0.000113981 10
-3.25452 34.4293 -0.603645 7.5733e-05 10
-3.25678 34.4532 0.604063 7.57349e-05 10
-1.87506 19.8361 1.0442 4.1743e-05 10
-1.33726 14.1468 1.2432 0.00152867 10
-1.33611 14.1346 1.74324 0.00150781 10
-1.33683 14.1421 2.24988 0.00148033 10
-1.33578 14.1311 2.75906 0.00144651 10
-1.33669 14.1407 3.2792 0.00140671 10
-1.33509 14.1238 3.80133 0.00136134 10
-0.966192 9.85401 -2.65304 0.000687524 4
-1.07611 10.9751 -2.54595 0.000306699 4
-1.27612 13.0149 -2.54197 0.000157066 4
-1.42274 14.5103 -2.30923 0.00175704 10
-1.42513 14.5346 -1.79318 0.00178991 10
-1.43296 14.6145 -1.28473 0.000396032 10
-1.4309 14.5935 -0.76848 0.000399424 10
-1.43104 14.5949 -0.255976 0.000400992 10
-1.43386 14.6236 0.256481 0.00040072 10
-1.43246 14.6094 0.769316 0.000398611 10
-1.38797 14.1557 1.2444 0.00152202 10
-1.38556 14.1311 1.7434 0.00150124 10
-1.38767 14.1525 2.25229 0.00147387 10
-1.38556 14.1311 2.75998 0.00144019 10
-1.38701 14.1459 3.2815 0.00140056 10
-1.38594 14.1349 3.8056 0.00135538 10
-1.00081 9.85283 -2.65364 0.000654422 4
-1.11306 10.9579 -2.54284 0.000259664 4
-1.32268 13.0216 -2.54416 0.000179134 4
-1.47525 14.5236 -2.31214 0.00174925 10
-1.47654 14.5363 -1.79402 0.00178198 10
-1.47621 14.533 -1.27801 0.00119347 10
-1.47572 14.5282 -0.765308 0.00120453 10
-1.47561 14.5271 -0.254877 0.0012101 10
-1.47598 14.5307 0.25494 0.00121012 10
-1.47799 14.5506 0.766486 0.0012046 10
-1.43932 14.1699 1.24608 0.00151531 10
-1.43809 14.1578 1.7473 0.00149463 10
-1.43879 14.1646 2.255 0.00146737 10
-1.43871 14.1639 2.76734 0.00143383 10
-1.43898 14.1665 3.28741 0.00139436 10
-1.43905 14.1671 3.81561 0.00134937 10
-1.0346 9.84361 -2.65211 0.00061141 4
-1.15227 10.9631 -2.54497 0.00027531 4
-1.36861 13.0215 -2.54506 0.000176661 4
-1.52912 14.5487 -2.31698 0.0017414 10
-1.53006 14.5576 -1.79729 0.00177399 10
-1.53033 14.5601 -1.28086 0.00118813 10
-1.52758 14.534 -0.76589 0.00119914 10
-1.52976 14.5548 -0.255454 0.00120468 10
-1.52752 14.5334 0.255079 0.00120471 10
-1.52942 14.5515 0.766812 0.00119921 10
-1.53746 14.628 1.28683 0.000883427 10
-1.49048 14.181 3.82071 0.00134332 10
-1.07143 9.86269 -2.65825 0.000674154 4
-1.19084 10.9618 -2.54563 0.000114143 4
-1.41248 13.0021 -2.54222 0.000152109 4
-1.58265 14.5686 -2.32101 0.00173349 10
-1.58217 14.5641 -1.79877 0.00176595 10
-2.63786 24.2819 -2.13689 0.000384359 10
-2.63705 24.2745 -1.27966 0.000388411 10
-2.6365 24.2694 -0.426116 0.000390453 10
-2.63886 24.2911 0.426497 0.000390462 10
-2.15159 19.8057 1.04408 4.18143e-05 10
-1.59012 14.6373 1.28813 0.000879419 10
-1.54198 14.1942 3.82569 0.00133723 10
-1.10601 9.8603 -2.65863 0.000584884 4
-1.22891 10.956 -2.54525 0.000114133 4
-1.4592 13.0091 -2.54456 0.000174171 4
-1.6346 14.5728 -2.32259 0.00172553 10
-1.63429 14.57 -1.80019 0.00175785 10
-2.72569 24.3001 -2.13932 0.000382357 10
-2.72537 24.2972 -1.28135 0.000386389 10
-2.72756 24.3167 -0.427112 0.000388421 10
-2.72679 24.3099 0.426992 0.00038843 10
-2.21743 19.7688 1.04254 4.18321e-05 10
-1.64227 14.6412 1.28897 0.000875384 10
-1.59265 14.1988 3.82842 0.0013311 10
-1.13952 9.84859 -2.65653 0.000541887 4
-1.26772 10.9566 -2.54642 0.000145451 4
-1.50563 13.0128 -2.54631 0.000155756 4
-1.68659 14.5768 -2.32415 0.00171752 10
-1.68639 14.5751 -1.80153 0.00174969 10
-1.69504 14.6498 -1.29025 0.000410075 10
-1.69779 14.6736 -0.774142 0.000413605 10
-1.69737 14.6699 -0.257773 0.000415245 10
-1.69551 14.6539 0.257491 0.000414977 10
-1.69818 14.677 0.77432 0.000412804 10
-1.69463 14.6463 1.28993 0.000871322 10
-1.64434 14.2116 3.8334 0.00132492 10
-1.17239 9.83193 -2.65312 0.000650877 4
-1.3042 10.9374 -2.54298 0.000335627 4
-1.55124 13.0091 -2.54663 0.000192528 4
-1.73939 14.587 -2.32672 0.00170945 10
-1.74095 14.6001 -1.80536 0.00174148 10
-1.74003 14.5923 -1.28571 0.00116637 10
-1.74081 14.5989 -0.770515 0.00117718 10
-1.74073 14.5982 -0.256619 0.00118263 10
-1.74186 14.6077 0.256785 0.00118266 10
-1.7415 14.6047 0.770822 0.00117725 10
-1.74803 14.6595 1.29162 0.000867231 10
-1.69611 14.224 3.8383 0.0013187 10
-1.20739 9.83341 -2.65464 0.000604578 4
-1.34224 10.9317 -2.54274 0.00057237 4
-1.59514 12.9914 -2.54423 0.00016308 4
-1.79423 14.6129 -2.33183 0.00170133 10
-1.79282 14.6014 -1.80629 0.00173321 10
-1.79319 14.6044 -1.28731 0.00116083 10
-1.79235 14.5976 -0.770771 0.0011716 10
-1.79472 14.6169 -0.257055 0.00117703 10
-1.79376 14.609 0.256917 0.00117705 10
-1.79521 14.6209 0.772002 0.00117167 10
-1.80129 14.6704 1.29313 0.000863115 10
-1.74568 14.2175 3.83817 0.00131244 10
-1.24336 9.84221 -2.65817 0.000634265 4
-1.38531 10.9659 -2.55179 0.000486322 4
-1.6409 12.9891 -2.54489 0.000169193 4
-1.84863 14.6334 -2.33612 0.00169315 10
-1.84728 14.6227 -1.80971 0.0017249 10
-3.67158 29.0635 -1.53526 0.000136995 10
-3.67212 29.0679 -0.511414 0.000137759 10
-3.67195 29.0665 0.51139 0.000137762 10
-2.49374 19.74 1.04275 4.19033e-05 10
-1.85743 14.7031 1.29658 0.000858972 10
-1.80058 14.253 3.84944 0.00130614 10
-1.27744 9.83574 -2.65761 0.000739921 4
-1.42377 10.9624 -2.55214 0.000480832 4
-1.68441 12.9692 -2.54214 0.000154464 4
-1.9013 14.6393 -2.3381 0.00168493 10
-1.90079 14.6353 -1.81209 0.00171653 10
-4.51058 34.7296 -1.83539 0.000107433 10
-4.63146 35.6604 0.627681 3.61233e-05 10
-2.56354 19.7382 1.04312 4.1921e-05 10
-1.90795 14.6904 1.29604 0.000854803 10
-1.85218 14.261 3.85332 0.0012998 10
-1.31114 9.82654 -2.65635 0.000303874 4
-1.46193 10.9567 -2.55197 0.000521975 4
-1.73283 12.987 -2.54679 0.000149545 4
-1.95416 14.6458 -2.34022 0.00167665 10
-1.95334 14.6396 -1.81344 0.00170811 10
-1.96132 14.6994 -1.29743 0.00042377 10
-1.96249 14.7082 -0.777655 0.000427435 10
-1.96479 14.7254 -0.259311 0.000429145 10
-1.96447 14.7231 0.259269 0.00042888 10
-1.96272 14.7099 0.777744 0.000426645 10
-1.9638 14.718 1.29907 0.000850609 10
-1.90455 14.2739 3.85858 0.00129343 10
-1.34596 9.82574 -2.65739 0.0002411 4
-1.50305 10.9726 -2.55687 0.000477346 4
-1.77796 12.9794 -2.54651 0.000183847 4
-2.0066 14.6486 -2.34177 0.00166833 10
-2.00861 14.6632 -1.81723 0.00169964 10
-2.0077 14.6566 -1.29426 0.00113836 10
-2.00662 14.6487 -0.774874 0.00114893 10
-2.00917 14.6673 -0.25841 0.00115426 10
-2.00584 14.643 0.257982 0.00115428 10
-2.00895 14.6657 0.775773 0.001149 10
-2.01777 14.7301 1.30075 0.00084639 10
-1.95657 14.2833 3.86295 0.00128701 10
-1.37965 9.81668 -2.65622 0.000122192 4
-1.54234 10.9743 -2.55852 0.000514789 4
-1.8212 12.9585 -2.54363 0.000160543 4
-2.06297 14.6788 -2.34774 0.00165996 10
-2.05981 14.6563 -1.81725 0.00169111 10
-2.06127 14.6667 -1.29578 0.00113266 10
-2.06002 14.6578 -0.775732 0.00114318 10
-2.05979 14.6562 -0.258339 0.00114848 10
-2.06176 14.6702 0.258586 0.00114851 10
-2.06375 14.6843 0.777136 0.00114325 10
-2.07159 14.7401 1.30226 0.000842145 10
-2.06152 14.6685 3.96903 0.00118959 10
-1.41358 9.80955 -2.65561 0.000198135 4
-1.58416 10.9933 -2.56422 0.000560387 4
-1.86688 12.9552 -2.54425 0.000144596 4
-2.11455 14.674 -2.34814 0.00165154 10
-2.11561 14.6814 -1.82126 0.00168255 10
-4.20607 29.1881 -1.54548 0.000132962 10
-4.20783 29.2003 -0.514959 0.000133705 10
-4.20831 29.2037 0.515017 0.000133708 10
-2.83791 19.6937 1.04277 4.19919e-05 10
-2.12711 14.7611 1.30477 0.000837878 10
-2.11388 14.6694 3.97124 0.00118353 10
-1.4486 9.8099 -2.65706 0.000178309 4
-1.62609 11.0119 -2.56986 0.000542897 4
-1.91325 12.9565 -2.54581 0.000137229 4
-2.17219 14.7101 -2.35511 0.00164307 10
-2.1684 14.6844 -1.82257 0.00167393 10
-2.19944 14.8946 -1.31724 0.00042261 10
-5.15191 34.8888 -1.84827 0.000104028 10
-5.15159 34.8866 -0.615551 0.000104648 10
-5.14981 34.8745 0.615338 0.000104651 10
-2.90603 19.6796 1.04255 4.20096e-05 10
-2.18261 14.7806 1.30716 0.000833586 10
-2.17095 14.7017 3.98203 0.00117744 10
-1.66459 11.0066 -2.56997 0.000580906 4
-1.95572 12.9316 -2.54224 0.000194796 4
-2.22592 14.7182 -2.35764 0.00163456 10
-2.22244 14.6952 -1.82486 0.00166527 10
-2.22964 14.7428 -1.3045 0.00043709 10
-2.22903 14.7388 -0.781209 0.000440887 10
-2.23016 14.7463 -0.260324 0.000442664 10
-2.23281 14.7638 0.260633 0.000442403 10
-2.23234 14.7606 0.782369 0.000440107 10
-2.23727 14.7933 1.30896 0.00082927 10
-2.23335 14.7673 1.83382 0.000817835 10
-2.23683 14.7903 2.3692 0.000802773 10
-2.2366 14.7889 2.90735 0.000784241 10
-2.23537 14.7807 3.45119 0.000762436 10
-2.22588 14.7179 3.9885 0.00117131 10
-1.51422 9.78126 -2.6521 0.00012876 4
-1.70792 11.0325 -2.57739 0.00050331 4
-2.00377 12.9436 -2.54596 0.000156801 4
-2.27778 14.7136 -2.35816 0.001626 10
-2.27907 14.7219 -1.82916 0.00165656 10
-2.27773 14.7132 -1.30258 0.00110953 10
-2.28091 14.7338 -0.781365 0.00111985 10
-2.28055 14.7315 -0.260203 0.00112505 10
-2.27696 14.7083 0.259792 0.00112507 10
-2.27659 14.7059 0.779884 0.00111992 10
-2.28892 14.7856 1.30898 0.000824933 10
-2.27956 14.7251 3.99257 0.00116515 10
-1.55123 9.79408 -2.65703 0.000181571 4
-1.74676 11.0286 -2.5779 0.000569409 4
-2.04767 12.9285 -2.54436 0.000160459 4
-2.33202 14.7238 -2.36109 0.0016174 10
-2.33264 14.7277 -1.83087 0.0016478 10
-4.66665 29.4641 -1.56339 5.11743e-05 10
-4.66838 29.475 -0.520901 5.14242e-05 10
-4.67011 29.4859 0.521094 5.13882e-05 10
-3.11115 19.643 1.04228 4.20626e-05 10
-2.34246 14.7897 1.31006 0.000820572 10
-2.33447 14.7393 3.99861 0.00115895 10
-1.58506 9.78648 -2.65645 0.000214569 4
-1.78881 11.0445 -2.58304 0.000519223 4
-2.09379 12.9275 -2.54559 0.000180038 4
-2.38893 14.7497 -2.36657 0.00160875 10
-2.38657 14.7352 -1.83283 0.001639 10
-4.75019 29.3286 -1.55708 0.000128833 10
-4.75158 29.3372 -0.518755 0.000129554 10
-4.74916 29.3222 0.518491 0.000129558 10
-3.17938 19.6301 1.04218 4.20802e-05 10
-2.3995 14.815 1.31303 0.000816189 10
-2.38838 14.7463 4.00276 0.00115273 10
-1.62081 9.79051 -2.65907 6.93172e-05 4
-1.82612 11.0307 -2.5813 0.000395893 4
-2.13616 12.9035 -2.54232 0.000115114 4
-2.44365 14.7609 -2.36971 0.00160007 10
-2.44233 14.7529 -1.83608 0.00163016 10
-3.35896 20.2898 -1.79929 0.000267594 10
-3.36066 20.3001 -1.07836 0.000270107 10
-3.36111 20.3028 -0.359211 0.000271288 10
-3.3586 20.2877 0.358942 0.000271121 10
-3.24753 19.6167 1.04206 4.20978e-05 10
-2.44176 14.7494 4.00589 0.00114648 10
-1.65076 9.75992 -2.6523 0.000148526 4
-1.8676 11.0419 -2.58544 0.000547307 4
-2.18366 12.9106 -2.54521 0.000137143 4
-2.50019 14.782 -2.37449 0.00159134 10
-2.50029 14.7826 -1.84086 0.00162127 10
-3.39806 20.0906 -1.78266 0.000276981 10
-3.40311 20.1204 -1.06944 0.000279578 10
-3.40046 20.1047 -0.355914 0.000280799 10
-3.40347 20.1226 0.356229 0.000280629 10
-3.31335 19.5897 1.04124 4.21154e-05 10
-2.49766 14.7671 4.01302 0.00114019 10
-1.6854 9.75739 -2.6532 0.000168317 4
-1.9125 11.0722 -2.59406 0.000549207 4
-2.22812 12.8994 -2.54452 0.000172635 4
-2.55357 14.7836 -2.37616 0.00158257 10
-2.55597 14.7975 -1.84381 0.00161235 10
-3.44913 19.9683 -1.77287 0.000678221 10
-3.45013 19.9741 -1.0623 0.000685003 10
-3.44904 19.9678 -0.3537 0.000688422 10
-3.45027 19.9749 0.353827 0.000688437 10
-3.38412 19.592 1.04198 4.2133e-05 10
-2.55149 14.7716 4.01664 0.00113388 10
-1.72019 9.75566 -2.65435 0.000165005 4
-1.94939 11.0556 -2.59175 0.000461259 4
-2.27201 12.8852 -2.54327 0.000177514 4
-2.6106 14.8054 -2.38113 0.00157376 10
-2.60804 14.791 -1.84412 0.00160338 10
-3.52553 19.9943 -1.77626 0.000674177 10
-3.5249 19.9907 -1.06383 0.000680921 10
-3.52682 20.0016 -0.354515 0.000684321 10
-3.52635 19.9989 0.354467 0.000684336 10
-3.45093 19.5712 1.04151 4.21506e-05 10
-2.61007 14.8025 4.0275 0.00112754 10
-1.75794 9.77026 -2.65997 0.000316787 4
-1.99314 11.0774 -2.59849 0.00048325 4
-2.31936 12.8905 -2.54589 0.00017872 4
-2.66348 14.803 -2.38222 0.00156491 10
-2.66399 14.8059 -1.84713 0.00159438 10
-3.60127 20.0151 -1.77921 0.000670116 10
-3.60121 20.0147 -1.06577 0.000676822 10
-3.60015 20.0088 -0.354863 0.000680203 10
-3.59929 20.004 0.354779 0.000680217 10
-3.51792 19.5518 1.04112 4.21682e-05 10
-2.66394 14.8056 4.03085 0.00112117 10
-1.79103 9.75857 -2.65848 0.000141884 4
-2.03463 11.0858 -2.60211 0.000583395 4
-2.36576 12.89 -2.54741 0.000128518 4
-2.71767 14.8074 -2.38444 0.00155602 10
-2.72092 14.8251 -1.8507 0.00158533 10
-3.6769 20.0339 -1.78201 0.000666038 10
-3.67475 20.0222 -1.06684 0.000672707 10
-3.67305 20.0129 -0.355161 0.000676067 10
-3.67516 20.0244 0.355365 0.000676082 10
-3.58474 19.5317 1.04071 4.21857e-05 10
-2.72252 14.8339 4.04111 0.00111477 10
-1.82302 9.74124 -2.65547 0.000247454 4
-2.07529 11.0893 -2.6046 0.000560477 4
-2.40669 12.8601 -2.54314 0.000124833 4
-2.77417 14.8236 -2.3886 0.00154709 10
-2.77577 14.8322 -1.85278 0.00157624 10
-3.75047 20.0405 -1.78375 0.000661945 10
-3.75345 20.0564 -1.06936 0.000668575 10
-3.74882 20.0317 -0.355725 0.000671917 10
-3.74855 20.0302 0.355698 0.000671931 10
-3.65632 19.5374 1.04169 4.22032e-05 10
-2.7772 14.8399 4.04537 0.00110835 10
-1.85774 9.73863 -2.65651 3.95898e-05 4
-2.11962 11.1114 -2.61153 0.000545629 4
-2.45531 12.8712 -2.54702 0.000162756 4
-2.83448 14.8589 -2.39585 0.00153813 10
-2.83299 14.851 -1.85636 0.00156712 10
-3.82924 20.0736 -1.78788 0.000657836 10
-3.82471 20.0498 -1.06971 0.000664428 10
-3.82556 20.0543 -0.356361 0.00066775 10
-3.82573 20.0552 0.356377 0.000667765 10
-3.71899 19.4956 1.04015 4.22207e-05 10
-2.83387 14.8556 4.05234 0.0011019 10
-1.8939 9.74328 -2.65957 0.000197935 4
-2.16184 11.1217 -2.61571 0.000617696 4
-2.49869 12.8547 -2.54546 0.000160292 4
-2.88647 14.8496 -2.39597 0.00152913 10
-2.88782 14.8566 -1.8583 0.00155797 10
-3.90463 20.0876 -1.79033 0.000653713 10
-3.90457 20.0873 -1.07244 0.000660266 10
-3.90113 20.0696 -0.356873 0.000663569 10
-3.90542 20.0917 0.357265 0.000663584 10
-3.79036 19.4997 1.04106 4.22382e-05 10
-2.88602 14.8473 4.05278 0.00109542 10
-1.92698 9.73195 -2.6583 0.000138545 4
-2.19964 11.109 -2.61451 0.000544611 4
-2.54556 12.856 -2.54748 0.000170063 4
-2.9425 14.8607 -2.39941 0.0015201 10
-2.943 14.8633 -1.86041 0.00154877 10
-6.99164 35.3104 -1.88647 9.41465e-05 10
-6.98665 35.2851 -0.627862 9.47121e-05 10
-6.98653 35.2845 0.627851 9.47145e-05 10
-3.85669 19.4777 1.0406 4.22557e-05 10
-2.94638 14.8803 4.06457 0.00108892 10
-1.95935 9.71728 -2.65614 5.27751e-05 4
-2.24419 11.1299 -2.62126 0.00045856 4
-2.58766 12.8334 -2.54477 0.000152918 4
-3.00225 14.8895 -2.40573 0.00151104 10
-3.00029 14.8798 -1.86378 0.00153955 10
-5.99173 29.7157 -1.58868 8.06418e-05 10
-5.99441 29.729 -0.529365 8.1043e-05 10
-5.99563 29.735 0.529472 8.09913e-05 10
-3.92182 19.4501 1.03985 4.22732e-05 10
-3.01722 14.9637 1.33551 0.000346451 10
-3.01738 14.9646 1.8744 0.000341463 10
-3.01785 14.9669 2.41823 0.000334959 10
-3.0171 14.9632 2.96708 0.000327007 10
-3.01995 14.9773 3.52738 0.000317691 10
-3.00273 14.8919 4.07058 0.00108239 10
-1.99512 9.71945 -2.65862 0.000207787 4
-2.2849 11.1312 -2.62342 0.000706381 4
-2.63617 12.8424 -2.54836 0.000163912 4
-3.05794 14.8971 -2.40866 0.00150194 10
-3.05622 14.8887 -1.86622 0.00153028 10
-6.04915 29.4691 -1.57661 8.35354e-05 10
-6.05085 29.4774 -0.525259 8.39503e-05 10
-6.05327 29.4892 0.525469 8.38973e-05 10
-3.9934 19.4543 1.04082 4.22907e-05 10
-3.07285 14.9697 1.33699 0.000762039 10
-3.07558 14.983 1.87804 0.000751482 10
-3.07072 14.9594 2.41873 0.000737578 10
-3.07277 14.9693 2.97042 0.000720472 10
-3.07189 14.9651 3.527 0.000700346 10
-3.05899 14.9022 4.0763 0.00107585 10
-2.0256 9.696 -2.65412 0.0001616 4
-2.32707 11.1391 -2.62717 0.000603429 4
-2.67857 12.8216 -2.54607 0.00013821 4
-3.11306 14.9014 -2.4111 0.00149281 10
-3.11256 14.899 -1.86886 0.00152099 10
-6.15618 29.468 -1.57769 0.000182495 10
-6.15767 29.4751 -0.525597 0.000183522 10
-6.15484 29.4616 0.525355 0.000183527 10
-4.06229 19.4451 1.04107 4.23081e-05 10
-3.11292 14.9007 1.33179 0.000767816 10
-3.11596 14.9153 1.8709 0.000757187 10
-3.11808 14.9254 2.41499 0.000743187 10
-3.11289 14.9006 2.95891 0.000725962 10
-3.117 14.9202 3.51897 0.000705697 10
-3.11352 14.9036 4.07962 0.00106928 10
-2.06294 9.70538 -2.65865 0.000286903 4
-2.37179 11.1584 -2.63368 0.000525105 4
-2.72467 12.8186 -2.54735 0.000145533 4
-3.17132 14.9199 -2.41588 0.00148365 10
-3.1714 14.9203 -1.87291 0.00151167 10
-6.26478 29.4735 -1.57915 0.000181149 10
-6.26719 29.4848 -0.526158 0.000182169 10
-6.27016 29.4988 0.526407 0.000182173 10
-4.1246 19.4047 1.03968 4.23255e-05 10
-3.14655 14.8034 1.32406 0.000568832 10
-3.14439 14.7932 1.85696 0.000560665 10
-3.14836 14.8119 2.39839 0.000550012 10
-3.14851 14.8126 2.9436 0.000536985 10
-3.14456 14.794 3.49177 0.000521721 10
-3.16975 14.9125 4.08507 0.00106268 10
-2.09306 9.68077 -2.65389 0.000319857 4
-2.41046 11.1488 -2.63338 0.000665317 4
-2.76894 12.8068 -2.54692 4.89138e-05 4
-3.22714 14.9261 -2.41869 0.00147445 10
-3.22956 14.9373 -1.87645 0.00150231 10
-6.37892 29.5037 -1.58195 0.000179799 10
-6.3804 29.5105 -0.527011 0.000180812 10
-6.38226 29.5191 0.527163 0.000180816 10
-4.19459 19.4007 1.04024 4.23429e-05 10
-3.1759 14.6891 1.31482 0.000585205 10
-3.17531 14.6864 1.84493 0.000576818 10
-3.1766 14.6924 2.38081 0.000565877 10
-3.17716 14.695 2.92241 0.000552497 10
-3.17251 14.6735 3.46591 0.00053682 10
-3.22952 14.9371 4.09487 0.00105607 10
-2.12871 9.68193 -2.65623 6.59453e-05 4
-2.45811 11.1801 -2.64278 0.000586656 4
-2.81551 12.8057 -2.54863 0.000143058 4
-3.28911 14.9597 -2.42598 0.00146523 10
-3.28584 14.9449 -1.87883 0.00149293 10
-6.49418 29.5373 -1.58496 0.000178447 10
-6.49694 29.5498 -0.528114 0.000179453 10
-6.49695 29.5499 0.528114 0.000179457 10
-4.26034 19.3772 1.03977 4.23603e-05 10
-3.20463 14.5755 1.30565 0.00127091 10
-3.20239 14.5653 1.83112 0.0012534 10
-3.20214 14.5642 2.36184 0.000582022 10
-3.19965 14.5529 2.89636 0.000568284 10
-3.20005 14.5547 3.44047 0.000552186 10
-3.28806 14.955 4.10288 0.00104943 10
-2.16189 9.67173 -2.65548 0.000102208 4
-2.50014 11.185 -2.64598 0.000473747 4
-2.86046 12.797 -2.54886 0.000155269 4
-3.34446 14.9622 -2.42827 0.00145598 10
-3.34518 14.9655 -1.88288 0.00148351 10
-6.68789 29.9199 -1.60673 5.35613e-05 10
-6.68912 29.9254 -0.53524 5.38303e-05 10
-6.68681 29.9151 0.535055 5.37975e-05 10
-4.32888 19.3663 1.03999 4.23777e-05 10
-3.26063 14.5872 1.30771 0.00126295 10
-3.25913 14.5805 1.83444 0.00124553 10
-3.26105 14.5891 2.36771 0.0012226 10
-3.25774 14.5743 2.90287 0.00119438 10
-3.2573 14.5723 3.44731 0.00116118 10
-3.34542 14.9666 4.10924 0.00104278 10
-2.19922 9.67991 -2.65982 0.000184621 4
-2.54132 11.1857 -2.64823 0.000296722 4
-2.90492 12.786 -2.54869 0.000155254 4
-3.40101 14.9696 -2.43137 0.00144671 10
-3.40403 14.9829 -1.88655 0.00147407 10
-6.77041 29.8001 -1.60156 0.000113365 10
-6.76799 29.7894 -0.533228 0.000114006 10
-6.7668 29.7842 0.533134 0.000114009 10
-4.39455 19.3427 1.03954 4.2395e-05 10
-3.31749 14.602 1.31007 0.00125496 10
-3.31333 14.5837 1.83629 0.00123765 10
-3.31356 14.5847 2.36886 0.00121485 10
-3.31394 14.5864 2.90756 0.0011868 10
-3.31399 14.5866 3.4534 0.0011538 10
-3.40122 14.9705 4.11357 0.0010361 10
-2.22853 9.65281 -2.6545 0.000197794 4
-2.58451 11.1948 -2.6525 0.000403516 4
-2.94829 12.7705 -2.54762 0.000157682 4
-3.46124 14.9923 -2.43701 0.0014374 10
-3.46196 14.9954 -1.88963 0.0014646 10
-8.21507 35.5834 -1.9139 8.76065e-05 10
-8.21295 35.5742 -0.637284 8.81358e-05 10
-8.21118 35.5665 0.637145 8.81382e-05 10
-4.46207 19.3273 1.03955 4.24123e-05 10
-3.46041 14.9887 1.34583 0.0011582 10
-3.46219 14.9964 1.88976 0.00114213 10
-3.4625 14.9977 2.43789 0.00112097 10
-3.46272 14.9987 2.99213 0.00109493 10
-3.45814 14.9788 3.5491 0.00106431 10
-3.45783 14.9775 4.11878 0.00102941 10
-2.26546 9.65884 -2.65831 0.000138446 4
-2.62732 11.2016 -2.65628 0.000425585 4
-2.9935 12.7629 -2.54817 0.000155222 4
-3.52163 15.0146 -2.44261 0.00142807 10
-3.52101 15.0119 -1.89325 0.0014551 10
-7.0017 29.8519 -1.60693 0.000111605 10
-7.00223 29.8542 -0.535249 0.000112237 10
-6.99673 29.8307 0.534828 0.00011224 10
-4.53278 19.3256 1.0403 4.24297e-05 10
-3.51933 15.0048 1.34837 0.00115069 10
-3.5162 14.9914 1.89067 0.00113473 10
-3.51796 14.9989 2.44007 0.00111369 10
-3.5206 15.0101 2.99686 0.00108782 10
-3.51785 14.9984 3.55663 0.00105738 10
-3.52207 15.0164 4.13284 0.00102269 10
-2.29579 9.63675 -2.65442 0.000224134 4
-2.67252 11.2181 -2.66238 0.000541504 4
-3.03715 12.7486 -2.54743 0.000158872 4
-3.57788 15.0184 -2.44525 0.00141872 10
-3.57982 15.0265 -1.89666 0.00144558 10
-8.48976 35.6363 -1.91989 8.61414e-05 10
-8.39971 35.2584 -0.632661 9.04841e-05 10
-8.49425 35.6552 0.639781 8.6665e-05 10
-4.59747 19.2982 1.03968 4.24469e-05 10
-3.57682 15.0139 1.35031 0.00114317 10
-3.57998 15.0272 1.89675 0.0011273 10
-3.57465 15.0048 2.44304 0.0011064 10
-3.57735 15.0162 3.00054 0.00108068 10
-3.58012 15.0278 3.56653 0.00105043 10
-3.57611 15.011 4.13474 0.00101596 10
-2.3329 9.64304 -2.65838 9.558e-05 4
-2.71221 11.2109 -2.66291 0.000585187 4
-3.0809 12.7349 -2.54682 0.000180851 4
-3.63875 15.0408 -2.45095 0.00140934 10
-3.6368 15.0327 -1.89904 0.00143604 10
-7.23829 29.9195 -1.61325 5.46498e-05 10
-7.2386 29.9208 -0.537336 5.49259e-05 10
-7.23845 29.9202 0.537324 5.48935e-05 10
-4.66649 19.289 1.04005 4.24642e-05 10
-3.6334 15.0187 1.35187 0.00113563 10
-3.63902 15.0419 1.9002 0.00111986 10
-3.63844 15.0395 2.45074 0.00109909 10
-3.63764 15.0362 3.00706 0.00107353 10
-3.63832 15.039 3.57219 0.00104347 10
-3.63961 15.0444 4.14741 0.00100921 10
-2.36393 9.62421 -2.65545 0.000135121 4
-2.75767 11.2272 -2.66905 0.000543397 4
-3.12523 12.7237 -2.54674 0.000177167 4
-3.69728 15.0527 -2.45497 0.00139994 10
-3.6967 15.0503 -1.90287 0.00142647 10
-8.76832 35.6983 -1.92648 8.46735e-05 10
-8.77179 35.7124 0.64189 8.51888e-05 10
-4.7316 19.2637 1.03957 4.24815e-05 10
-3.69252 15.0333 1.35433 0.00112807 10
-3.69459 15.0417 1.90178 0.0011124 10
-3.69778 15.0547 2.4553 0.00109175 10
-3.69293 15.0349 3.00936 0.00106636 10
-3.69843 15.0573 3.57958 0.00103649 10
-3.69333 15.0366 4.14879 0.00100245 10
-2.39568 9.60854 -2.65342 0.000187838 4
-2.80422 11.2471 -2.67609 0.00046285 4
-3.16675 12.7012 -2.54444 0.000161267 4
-3.75602 15.0646 -2.45904 0.00139052 10
-3.75535 15.0619 -1.90598 0.00141688 10
-7.49049 30.0427 -1.62267 5.43034e-05 10
-7.49305 30.053 -0.540636 5.45787e-05 10
-7.48892 30.0364 0.540338 5.45468e-05 10
-4.79833 19.2451 1.03947 4.24987e-05 10
-3.75734 15.0699 1.3588 0.00112049 10
-3.75801 15.0725 1.90733 0.00110492 10
-3.75109 15.0448 2.45581 0.00108441 10
-3.75274 15.0514 3.01526 0.00105917 10
-3.75518 15.0612 3.5836 0.00102949 10
-3.75323 15.0534 4.15703 0.00099567 10
-2.43343 9.61682 -2.65803 0.000125216 4
-2.84308 11.2358 -2.67574 0.000527944 4
-3.21353 12.6998 -2.54639 0.000144148 4
-3.81356 15.0711 -2.46226 0.00138107 10
-3.81394 15.0725 -1.909 0.00140726 10
-7.58289 29.9673 -1.62002 0.000107182 10
-7.58413 29.9722 -0.539656 0.000107791 10
-7.58215 29.9644 0.539515 0.000107794 10
-4.86589 19.2298 1.03956 4.25159e-05 10
-3.81069 15.0597 1.35908 0.00111289 10
-3.81573 15.0796 1.9099 0.00109742 10
-3.81407 15.0731 2.46259 0.00107704 10
-3.81249 15.0668 3.021 0.00105197 10
-3.81514 15.0773 3.59057 0.00102248 10
-3.81149 15.0629 4.1633 0.000988876 10
-2.46484 9.5999 -2.65572 0.000141682 4
-2.88863 11.2505 -2.68162 0.000636174 4
-3.25714 12.6857 -2.54584 0.000178335 4
-3.87065 15.0752 -2.46512 0.00137161 10
-3.87279 15.0835 -1.91209 0.00139763 10
-7.74146 30.151 -1.6314 5.39697e-05 10
-7.74271 30.1558 -0.543446 5.42443e-05 10
-7.74592 30.1684 0.543671 5.4213e-05 10
-4.92777 19.1924 1.03846 4.25331e-05 10
-3.87593 15.0958 1.36355 0.00110528 10
-3.87006 15.0729 1.91075 0.00108991 10
-3.89271 15.1611 2.47917 0.000673514 10
-3.895 15.17 3.0444 0.000657815 10
-3.89569 15.1727 3.61652 0.000639347 10
-3.87662 15.0984 4.17683 0.000982066 10
-2.49898 9.59374 -2.65641 5.93047e-05 4
-2.93645 11.2732 -2.68947 0.000525133 4
-3.3 12.6689 -2.54476 0.000159997 4
-3.93517 15.1074 -2.47261 0.00136212 10
-3.93254 15.0973 -1.91557 0.00138798 10
-7.82158 30.0275 -1.62619 0.000105407 10
-7.82204 30.0293 -0.541654 0.000106006 10
-7.82318 30.0337 0.541732 0.000106009 10
-4.99556 19.1783 1.03863 4.25503e-05 10
-3.92967 15.0863 1.36392 0.00109765 10
-3.9348 15.1059 1.91667 0.00108238 10
-3.93243 15.0968 4.18017 0.000975244 10
-2.53313 9.58751 -2.65712 9.88342e-05 4
-2.97932 11.2763 -2.69267 0.000469782 4
-3.34986 12.6787 -2.54906 0.000175857 4
-3.99256 15.1112 -2.47551 0.00135262 10
-3.99247 15.1109 -1.91905 0.0013783 10
-9.47984 35.8797 -1.9449 8.09961e-05 10
-9.42976 35.6902 -0.644352 4.37265e-05 10
-9.48032 35.8816 0.647807 8.14908e-05 10
-5.06445 19.1682 1.03903 4.25674e-05 10
-3.99055 15.1036 1.36674 0.00109001 10
-3.99388 15.1162 1.91973 0.00107484 10
-3.98967 15.1003 4.18496 0.000968407 10
-2.56982 9.59072 -2.66048 0.00013177 4
-3.02609 11.2935 -2.69929 0.000517816 4
-3.38891 12.6476 -2.54516 0.00016607 4
-4.05199 15.1223 -2.47962 0.0013431 10
-4.0498 15.1141 -1.92124 0.00136861 10
-8.06441 30.0968 -1.63295 0.000103629 10
-8.06094 30.0839 -0.54364 0.000104219 10
-8.06134 30.0853 0.543666 0.000104221 10
-5.12615 19.131 1.03798 4.25846e-05 10
-4.05024 15.1157 1.3691 0.00108235 10
-4.05175 15.1213 1.92216 0.00106728 10
-4.05422 15.1306 4.19724 0.000961559 10
-2.60019 9.57031 -2.65732 0.00036893 4
-3.06367 11.2762 -2.69769 0.00054432 4
-3.43461 12.6415 -2.54633 0.000164832 4
-4.11653 15.1514 -2.48674 0.00133356 10
-4.11275 15.1374 -1.92602 0.00135891 10
-6.94712 25.5697 -2.31815 0.000146266 10
-6.95032 25.5814 -1.38927 0.000147765 10
-6.94821 25.5737 -0.462573 0.000148479 10
-6.9518 25.5869 0.462812 0.0001484 10
-5.19341 19.1149 1.03809 4.26017e-05 10
-4.11623 15.1503 1.37353 0.00107468 10
-4.11614 15.1499 1.92761 0.00105971 10
-4.11254 15.1367 4.20289 0.000954699 10
-2.6314 9.55323 -2.65511 0.000494068 4
-3.1128 11.301 -2.7062 0.000229199 4
-3.47907 12.6307 -2.5466 0.000167257 4
-4.17467 15.156 -2.48988 0.00132401 10
-4.176 15.1609 -1.93085 0.00134918 10
-6.98924 25.3743 -2.30264 0.000150502 10
-6.98796 25.3696 -1.37908 0.000152042 10
-6.99493 25.3949 -0.459778 0.000152776 10
-6.99138 25.3821 0.459545 0.000152695 10
-5.26358 19.1093 1.03877 4.26188e-05 10
-4.17215 15.1469 1.37453 0.001067 10
-4.17823 15.169 1.93188 0.00105213 10
-4.1754 15.1587 4.21303 0.000947828 10
-2.66415 9.54193 -2.65454 0.000171265 4
-3.15994 11.3177 -2.71282 0.000411225 4
-3.52245 12.616 -2.5461 0.000157475 4
-4.23337 15.1623 -2.49331 0.00131445 10
-4.23518 15.1687 -1.93372 0.00133944 10
-7.06475 25.3031 -2.2984 0.000280476 10
-7.06287 25.2964 -1.37643 0.0002835 10
-7.06598 25.3075 -0.458639 0.000285025 10
-7.06479 25.3033 0.458562 0.000285032 10
-5.32435 19.0697 1.03762 4.26358e-05 10
-4.2315 15.1555 1.37665 0.0010593 10
-4.23837 15.1801 1.93517 0.00104454 10
-4.25954 15.256 3.65683 0.000612599 10
-4.23883 15.1818 4.22353 0.000940946 10
-2.69678 9.53021 -2.65388 0.000227239 4
-3.19885 11.3045 -2.71233 0.000554562 4
-3.56666 12.6043 -2.54623 0.000123282 4
-4.29922 15.1931 -2.50084 0.00130486 10
-4.29331 15.1722 -1.93607 0.00132969 10
-7.16195 25.3098 -2.30127 0.000278141 10
-7.16816 25.3318 -1.37971 0.000281142 10
-7.16674 25.3267 -0.459438 0.000282655 10
-7.16815 25.3317 0.459528 0.000282662 10
-5.39266 19.0572 1.03796 4.26529e-05 10
-4.29413 15.1751 1.37978 0.0010516 10
-4.29589 15.1813 1.93723 0.00103693 10
-4.31344 15.2434 3.6574 0.000608115 10
-4.29379 15.1739 4.22549 0.000934054 10
-2.73563 9.54029 -2.65933 0.000322724 4
-3.24576 11.3193 -2.71859 0.000576688 4
-3.61124 12.5939 -2.54666 0.000175751 4
-4.36115 15.2091 -2.50597 0.00129527 10
-4.35457 15.1862 -1.93977 0.00131993 10
-4.45171 15.525 -1.41299 0.000696646 10
-4.44942 15.517 -0.845983 0.000702904 10
-4.45555 15.5384 -0.282153 0.000705889 10
-4.45273 15.5285 0.281975 0.000705567 10
-4.45676 15.5426 0.847378 0.000701944 10
-4.3543 15.1853 1.38208 0.00104388 10
-4.36126 15.2095 1.94275 0.00102932 10
-4.38123 15.2792 3.66963 0.000603627 10
-4.35418 15.1848 4.23274 0.000927154 10
-2.77035 9.53562 -2.66071 8.23217e-05 4
-3.29259 11.3332 -2.72466 0.000494662 4
-3.65704 12.5876 -2.54795 0.000142783 4
-4.42304 15.2242 -2.51098 0.00128566 10
-4.42042 15.2152 -1.94544 0.00131015 10
-4.47874 15.4159 -1.40448 0.00071371 10
-4.47569 15.4054 -0.840747 0.000720115 10
-4.47706 15.4101 -0.280107 0.00072317 10
-4.48028 15.4212 0.280308 0.000722844 10
-4.4779 15.413 0.841163 0.000719139 10
-4.42005 15.2139 1.38608 0.00103615 10
-4.41864 15.209 1.94465 0.00102169 10
-4.44059 15.2846 2.52094 0.000631272 10
-4.43795 15.2755 3.09204 0.000616504 10
-4.44415 15.2969 3.67758 0.000599132 10
-4.42295 15.2239 4.2479 0.000920245 10
-2.79946 9.51177 -2.65676 0.000108657 4
-3.34177 11.3544 -2.73253 0.00049498 4
-3.70244 12.5798 -2.54898 0.000167174 4
-4.47821 15.2157 -2.51213 0.00127605 10
-4.48133 15.2263 -1.94884 0.00130036 10
-4.49927 15.2872 -1.39418 0.000731022 10
-4.50791 15.3166 -0.836752 0.000737575 10
-4.50671 15.3125 -0.278617 0.000740702 10
-4.5072 15.3142 0.278646 0.00074037 10
-4.50802 15.3169 0.836772 0.000736583 10
-4.47901 15.2184 1.3879 0.00102842 10
-4.48041 15.2231 1.94844 0.00101406 10
-4.48897 15.2522 2.51817 0.00035482 10
-4.49291 15.2656 3.09318 0.000346353 10
-4.49075 15.2583 3.67205 0.000336429 10
-4.47889 15.218 4.25059 0.000913328 10
-2.83612 9.51357 -2.66002 0.000227177 4
-3.38558 11.3567 -2.73593 0.000608214 4
-3.74507 12.5626 -2.54812 0.000164717 4
-4.54733 15.2537 -2.52102 0.00126642 10
-4.54625 15.2501 -1.95391 0.00129056 10
-4.54268 15.2381 -1.39114 0.0013089 10
-4.53965 15.228 -0.832772 0.00132125 10
-4.54147 15.234 -0.277476 0.00132747 10
-4.54706 15.2528 0.277817 0.0013275 10
-4.54401 15.2426 0.833571 0.00132133 10
-4.5458 15.2486 1.3921 0.00102067 10
-4.54732 15.2537 1.95437 0.00100642 10
-4.54194 15.2356 2.51803 0.000987635 10
-4.54686 15.2521 3.09365 0.000964535 10
-4.54112 15.2329 3.66973 0.000937362 10
-4.54182 15.2352 4.25981 0.000906403 10
-2.8679 9.49896 -2.65871 4.27984e-05 4
-3.42828 11.355 -2.73838 0.000304041 1
-3.78462 12.5353 -2.54524 0.0001769 4
-4.60668 15.2581 -2.52438 0.00125678 10
-4.60389 15.2488 -1.95579 0.00128075 10
-4.60321 15.2466 -1.39337 0.00129896 10
-4.60776 15.2616 -0.835488 0.00131122 10
-4.60745 15.2606 -0.278251 0.00131739 10
-4.60445 15.2507 0.278069 0.00131742 10
-4.60279 15.2452 0.834586 0.0013113 10
-4.60161 15.2413 1.39289 0.00101292 10
-4.60559 15.2545 1.95652 0.000998766 10
-4.60327 15.2468 2.52252 0.000980121 10
-4.60178 15.2418 3.0948 0.000957187 10
-4.60667 15.258 3.67964 0.000930209 10
-4.60476 15.2517 4.26888 0.000899474 10
-2.89626 9.47324 -2.65433 0.000223853 4
-3.46452 11.3319 -2.73572 0.000304016 1
-3.82867 12.523 -2.54546 0.000192741 4
-4.66772 15.2675 -2.52862 0.00124714 10
-4.66573 15.2609 -1.95943 0.00127093 10
-4.67246 15.2829 -1.39818 0.00128901 10
-4.66552 15.2602 -0.836298 0.00130118 10
-4.67225 15.2823 -0.278941 0.00130731 10
-4.66872 15.2707 0.27873 0.00130734 10
-4.66373 15.2544 0.835977 0.00130126 10
-4.67089 15.2778 1.39771 0.00100517 10
-4.67021 15.2756 1.96131 0.000991111 10
-4.67118 15.2788 2.53049 0.0009726 10
-4.67181 15.2808 3.10601 0.000949832 10
-4.6672 15.2657 3.68541 0.000923049 10
-4.67153 15.2799 4.28131 0.000892537 10
-2.93433 9.47929 -2.65888 0.00017117 4
-3.50534 11.3239 -2.73672 0.000303991 1
-3.87902 12.5311 -2.54983 0.00015491 4
-4.7324 15.2879 -2.53473 0.00123749 10
-4.72977 15.2794 -1.96391 0.0012611 10
-4.72809 15.274 -1.39886 0.00127905 10
-4.73122 15.2841 -0.838506 0.00129113 10
-4.72978 15.2794 -0.27919 0.00129722 10
-4.72699 15.2704 0.279025 0.00129725 10
-4.72997 15.2801 0.838283 0.00129122 10
-4.73502 15.2964 1.40091 0.0009974 10
-4.73028 15.2811 1.96412 0.000983448 10
-4.72838 15.2749 2.53257 0.000965072 10
-4.72699 15.2704 3.10723 0.000942471 10
-4.72932 15.278 3.69232 0.000915884 10
