VERSION 0.7
FIELDS x y z intensity label
SIZE 4 4 4 4 4
TYPE F F F F F
COUNT 1 1 1 1 1
WIDTH 1183
HEIGHT 1
VIEWPOINT 5.37042 37.9493 2.72882 0.825855 -0.000296894 0.000620231 0.563882
POINTS 1183
DATA ascii
-6.55994 4.35842 -0.412754 0.00512167 10
-6.55516 4.35524 -0.137373 0.00514251 10
-6.54974 4.35164 0.137259 0.00514199 10
-6.56335 4.36068 0.412969 0.00512012 10
-6.55135 4.35271 0.688142 0.00507711 10
-6.55876 4.35763 0.966856 0.00501337 10
-6.54623 4.34931 1.2448 0.00581899 10
-6.5608 4.35899 1.53111 0.00569719 10
-6.56203 4.3598 1.81886 0.00555373 10
-6.21519 4.12937 1.99942 0.00200958 10
-6.5709 4.33271 -2.10897 0.00686541 10
-6.58404 4.34137 -1.82074 0.00707252 10
-10.8138 7.13042 -2.51782 0.00144977 10
-10.7196 7.06827 0.224126 0.00158704 10
-10.7134 7.0642 0.672538 0.00157952 10
-9.89844 6.52682 1.03732 0.000300614 10
-7.06724 4.65998 1.03941 0.000968283 10
-6.59552 4.34894 1.25128 0.00577029 10
-6.58125 4.33953 1.53233 0.00564947 10
-6.57757 4.33711 1.81896 0.00550717 10
-6.23499 4.11122 2.00115 0.00200963 10
-6.62572 4.33575 -2.12169 0.00680738 10
-6.61674 4.32988 -1.8256 0.0070128 10
-6.78707 4.44134 -1.57664 0.0031728 10
-6.78588 4.44056 -1.28445 0.00323974 10
-6.78777 4.44179 -0.996019 0.00329391 10
-6.78376 4.43917 -0.709283 0.00333479 10
-6.78278 4.43853 -0.424816 0.00336198 10
-6.78786 4.44185 -0.141596 0.00337522 10
-6.79708 4.44789 0.141788 0.00337439 10
-6.78981 4.44313 0.425256 0.0033595 10
-6.79959 4.44953 0.710937 0.00333068 10
-6.80517 4.45318 0.998572 0.00328822 10
-6.61923 4.3315 1.2529 0.00572163 10
-6.61746 4.33034 1.53723 0.00560179 10
-6.6092 4.32494 1.82352 0.00546064 10
-6.25703 4.09449 2.00363 0.00200968 10
-6.63346 4.30782 -2.11934 0.00674938 10
-6.65209 4.31992 -1.83118 0.00695312 10
-6.77028 4.39667 -1.56916 0.00322644 10
-6.77236 4.39802 -1.27897 0.00329448 10
-6.76502 4.39326 -0.990425 0.00334953 10
-6.76947 4.39614 -0.706179 0.00339108 10
-6.78188 4.4042 -0.423794 0.00341871 10
-6.76739 4.39479 -0.140848 0.00343218 10
-6.76725 4.3947 0.140845 0.00343134 10
-6.76908 4.39589 0.422994 0.00341621 10
-6.77914 4.40243 0.707188 0.00338693 10
-6.78551 4.40656 0.993424 0.00334378 10
-6.65909 4.32446 1.25758 0.005673 10
-6.6598 4.32492 1.54355 0.00555414 10
-6.63773 4.31059 1.82723 0.00541416 10
-6.27437 4.07462 2.00462 0.00603876 10
-6.67799 4.30367 -2.12876 0.00669145 10
-6.67532 4.30195 -1.83343 0.0068935 10
-6.76035 4.35675 -1.56332 0.00328055 10
-6.75438 4.3529 -1.2727 0.00334969 10
-6.76697 4.36102 -0.988475 0.00340563 10
-6.76199 4.35781 -0.703808 0.00344785 10
-6.77052 4.3633 -0.42213 0.00347594 10
-6.76254 4.35816 -0.14043 0.00348962 10
-6.76146 4.35747 0.140407 0.00348878 10
-6.76353 4.3588 0.421693 0.0034734 10
-6.74929 4.34962 0.702486 0.00344366 10
-6.77181 4.36414 0.989183 0.00339982 10
-6.66814 4.29733 1.25645 0.00562442 10
-6.692 4.3127 1.54752 0.00550654 10
-6.68204 4.30628 1.83527 0.00536771 10
-6.31663 4.07079 2.01357 0.00598727 10
-6.70426 4.28755 -2.13235 0.00663357 10
-6.70832 4.29015 -1.83837 0.00683393 10
-6.73792 4.30908 -1.55465 0.00333513 10
-6.72767 4.30252 -1.26483 0.00340538 10
-6.73171 4.30511 -0.981124 0.00346222 10
-6.73504 4.30724 -0.699434 0.00350512 10
-6.74 4.31041 -0.419286 0.00353366 10
-6.73035 4.30423 -0.139448 0.00354757 10
-6.7293 4.30356 0.139427 0.00354671 10
-6.7472 4.31501 0.419734 0.0035311 10
-6.7308 4.30453 0.698994 0.00350088 10
-6.74057 4.31077 0.982415 0.00345634 10
-6.7147 4.29423 1.26239 0.00557589 10
-6.70784 4.28984 1.54771 0.00545898 10
-6.70664 4.28908 1.83791 0.00532131 10
-6.3476 4.05946 2.01891 0.00593581 10
-6.7345 4.27384 -2.13721 0.00657575 10
-6.74669 4.28158 -1.84478 0.00677444 10
-6.75028 4.28386 -1.55404 0.00458951 10
-6.72959 4.27073 -1.26238 0.00468683 10
-6.75209 4.285 -0.981907 0.00476573 10
-6.7533 4.28578 -0.699772 0.00482544 10
-6.74733 4.28199 -0.41881 0.00486541 10
-6.74032 4.27754 -0.139345 0.00488523 10
-6.7501 4.28375 0.139547 0.00488474 10
-6.74549 4.28082 0.418696 0.00486391 10
-6.74918 4.28316 0.699345 0.00482297 10
-6.741 4.27797 0.980295 0.0047623 10
-6.73155 4.27197 1.26275 0.00552741 10
-6.75198 4.28494 1.55443 0.00541148 10
-6.75403 4.28624 1.84678 0.00527496 10
-6.37386 4.04497 2.02276 0.00588442 10
-6.76944 4.26295 -2.14356 0.006518 10
-6.76439 4.25976 -1.84554 0.00671501 10
-6.78223 4.271 -1.55796 0.00454928 10
-6.77747 4.26801 -1.26856 0.00464579 10
-6.76221 4.2584 -0.981213 0.00472401 10
-6.76348 4.25919 -0.699282 0.00478322 10
-6.77961 4.26935 -0.419886 0.00482285 10
-6.76293 4.25885 -0.139504 0.00484251 10
-6.77933 4.26918 0.139842 0.00484201 10
-6.77206 4.26459 0.419418 0.00482136 10
-6.776 4.26708 0.700576 0.00478077 10
-6.77683 4.2676 0.983334 0.00472061 10
-6.78098 4.27021 1.26922 0.00547898 10
-6.77457 4.26618 1.5562 0.00536403 10
-6.76539 4.2604 1.84581 0.00522867 10
-6.38828 4.02291 2.02286 0.00583308 10
-6.79835 4.24808 -2.14801 0.00646032 10
-6.79407 4.24541 -1.84958 0.00665564 10
-6.80354 4.25133 -1.55943 0.0045091 10
-6.79689 4.24717 -1.26941 0.00460478 10
-6.79933 4.24869 -0.984441 0.00468234 10
-6.81002 4.25537 -0.702554 0.00474104 10
-6.81198 4.2566 -0.420968 0.00478033 10
-6.79944 4.24876 -0.13995 0.00479982 10
-6.816 4.25911 0.140291 0.00479933 10
-6.80489 4.25217 0.420529 0.00477886 10
-6.81069 4.25579 0.702623 0.0047386 10
-6.80116 4.24984 0.984706 0.00467896 10
-6.79611 4.24668 1.26927 0.00543061 10
-6.81638 4.25935 1.56238 0.00531664 10
-6.81571 4.25893 1.85547 0.00518242 10
-6.42982 4.0178 2.03157 0.0057818 10
-6.84914 4.24665 -2.15936 0.00640272 10
-6.84704 4.24535 -1.85996 0.00659636 10
-10.5068 6.51449 0.215788 0.00182647 10
-10.4924 6.50557 0.647003 0.0018179 10
-10.0567 6.23542 1.03524 0.000300805 10
-7.19683 4.46222 1.03973 0.000968701 10
-6.83562 4.23827 1.27387 0.0053823 10
-6.84619 4.24482 1.5658 0.00526931 10
-6.84567 4.2445 1.85958 0.00513624 10
-6.45212 4.00048 2.03419 0.00573058 10
-6.86682 4.2245 -2.16027 0.00634519 10
-6.86651 4.22431 -1.86123 0.00653715 10
-7.0277 4.32347 -1.60386 0.00315695 10
-7.02748 4.32334 -1.30681 0.00322374 10
-7.04368 4.3333 -1.01541 0.00327779 10
-7.04808 4.33601 -0.723973 0.00331859 10
-7.04854 4.33629 -0.433705 0.00334574 10
-7.04851 4.33627 -0.14445 0.00335898 10
-7.04344 4.33315 0.144346 0.00335818 10
-7.03943 4.33069 0.433145 0.00334336 10
-7.03465 4.32774 0.722593 0.00331465 10
-7.04227 4.33244 1.01521 0.00327233 10
-6.86312 4.22222 1.27624 0.00533405 10
-6.86696 4.22458 1.56717 0.00522204 10
-6.88459 4.23543 1.86613 0.00509012 10
-6.50136 3.99966 2.0453 0.00567943 10
-6.91516 4.22104 -2.17083 0.00628775 10
-6.90333 4.21381 -1.86721 0.00647804 10
-7.03049 4.29143 -1.60106 0.00320738 10
-7.02797 4.2899 -1.30411 0.0032752 10
-7.02707 4.28935 -1.01086 0.00333008 10
-7.016 4.28259 -0.719137 0.00337151 10
-7.03261 4.29273 -0.431801 0.00339908 10
-7.02611 4.28876 -0.143684 0.00341253 10
-7.01251 4.28045 0.143405 0.00341172 10
-7.01674 4.28304 0.430826 0.00339667 10
-7.0355 4.29449 0.721137 0.00336753 10
-7.02526 4.28824 1.01059 0.00332456 10
-6.90493 4.21479 1.28128 0.00528589 10
-6.91972 4.22382 1.57584 0.00517484 10
-6.90215 4.21309 1.86689 0.00504407 10
-6.5221 3.98111 2.04744 0.00562836 10
-6.93781 4.20169 -2.17332 0.0062304 10
-6.93137 4.19779 -1.87082 0.00641901 10
-7.00243 4.24082 -1.59129 0.00325821 10
-6.99572 4.23676 -1.29537 0.00332707 10
-6.99955 4.23908 -1.00476 0.00338279 10
-7.00082 4.23985 -0.716061 0.00342486 10
-7.01539 4.24867 -0.42983 0.00345285 10
-6.99199 4.2345 -0.142683 0.00346651 10
-7.00418 4.24188 0.142931 0.0034657 10
-7.01272 4.24706 0.429666 0.00345042 10
-7.01327 4.24739 0.717333 0.00342083 10
-7.00365 4.24156 1.00535 0.00337722 10
-6.93497 4.19997 1.28412 0.00523778 10
-6.95002 4.20908 1.57938 0.00512771 10
-6.95103 4.20969 1.87613 0.00499809 10
-6.93676 4.20105 2.17299 0.00485015 10
-6.98223 4.19535 -2.18264 0.00617314 10
-6.96735 4.18641 -1.87658 0.00636009 10
-6.99133 4.20082 -1.58543 0.00330944 10
-6.98281 4.1957 -1.29026 0.00337934 10
-6.99292 4.20177 -1.0017 0.00343592 10
-6.99664 4.20401 -0.714128 0.00347862 10
-6.99319 4.20194 -0.427568 0.00350704 10
-6.97449 4.1907 -0.142026 0.00352091 10
-6.99447 4.2027 0.142433 0.00352009 10
-6.99794 4.20479 0.427859 0.00350458 10
-6.99343 4.20208 0.7138 0.00347456 10
-6.98974 4.19986 1.00124 0.00343028 10
-6.96948 4.18769 1.2878 0.00518977 10
-6.97209 4.18926 1.58106 0.00508067 10
-6.97937 4.19363 1.87981 0.00495219 10
-6.97226 4.18936 2.17952 0.00480555 10
-6.99898 4.17223 -2.18331 0.00611598 10
-6.99644 4.17072 -1.88048 0.00630125 10
-7.00282 4.17452 -1.58472 0.00426922 10
-7.00852 4.17791 -1.29231 0.00435998 10
-7.00195 4.174 -1.0009 0.00443356 10
-7.00507 4.17586 -0.713496 0.00448925 10
-7.00066 4.17323 -0.427132 0.00452652 10
-7.01771 4.1834 -0.142608 0.004545 10
-7.01113 4.17947 0.142474 0.00454453 10
-7.00834 4.17781 0.427601 0.0045251 10
-7.01436 4.18139 0.714441 0.0044869 10
-7.00882 4.17809 1.00188 0.0044303 10
-6.99658 4.1708 1.29011 0.00514182 10
-7.01183 4.17989 1.58676 0.00503369 10
-7.01249 4.18028 1.88479 0.00490635 10
-6.99828 4.17181 2.18309 0.00476102 10
-7.04673 4.16742 -2.19365 0.00605892 10
-7.03472 4.16032 -1.88685 0.00624253 10
-7.04035 4.16365 -1.58991 0.00422947 10
-7.04732 4.16777 -1.29677 0.00431942 10
-7.04748 4.16787 -1.00532 0.00439234 10
-7.03075 4.15797 -0.714628 0.00444753 10
-7.02886 4.15686 -0.427965 0.00448446 10
-7.03542 4.16073 -0.142672 0.00450278 10
-7.04963 4.16914 0.14296 0.0045023 10
-7.02993 4.15749 0.42803 0.00448304 10
-7.03987 4.16337 0.715556 0.00444519 10
-7.03723 4.16181 1.00386 0.0043891 10
-7.05117 4.17005 1.29748 0.00509397 10
-7.04364 4.1656 1.59066 0.00498681 10
-7.04634 4.1672 1.88997 0.00486061 10
-7.03004 4.15755 2.18845 0.00471658 10
-7.07975 4.15367 -2.1994 0.00600197 10
-7.06047 4.14236 -1.88987 0.00618392 10
-10.3217 6.05574 0.208886 0.00205049 10
-10.3278 6.05931 0.627537 0.00204094 10
-10.2154 5.99333 1.03619 0.000300962 10
-7.31036 4.28897 1.04068 0.000969045 10
-7.08306 4.15561 1.30067 0.0050462 10
-7.06689 4.14612 1.59263 0.00494001 10
-7.08726 4.15807 1.89704 0.00481495 10
-7.07599 4.15146 2.19823 0.00467223 10
-7.09914 4.1318 -2.20093 0.00594512 10
-7.10703 4.13639 -1.89845 0.00612541 10
-7.28686 4.24106 -1.63886 0.00309302 10
-7.29781 4.24743 -1.33737 0.00315867 10
-7.28147 4.23792 -1.03445 0.0032118 10
-7.28792 4.24167 -0.737741 0.00325191 10
-7.28985 4.24279 -0.442041 0.00327861 10
-7.29655 4.24669 -0.147363 0.00329165 10
-7.30268 4.25026 0.147486 0.00329089 10
-7.28956 4.24263 0.442023 0.00327635 10
-7.28538 4.24019 0.737483 0.00324816 10
-7.29038 4.2431 1.03572 0.0032066 10
-7.09689 4.13049 1.30056 0.00499852 10
-7.1062 4.13591 1.59822 0.0048933 10
-7.10692 4.13633 1.89843 0.00476938 10
-7.11912 4.14343 2.20713 0.00462795 10
-7.14929 4.12765 -2.212 0.0058884 10
-7.135 4.1194 -1.90207 0.00606703 10
-7.27453 4.19995 -1.63278 0.00314011 10
-7.27495 4.2002 -1.33049 0.00320672 10
-7.27262 4.19885 -1.03111 0.00326063 10
-7.2778 4.20184 -0.735227 0.00330133 10
-7.28736 4.20737 -0.440997 0.00332843 10
-7.28003 4.20313 -0.146732 0.00334166 10
-7.28097 4.20367 0.146751 0.00334089 10
-7.27362 4.19943 0.440165 0.00332614 10
-7.2712 4.19803 0.73456 0.00329755 10
-7.29007 4.20893 1.03358 0.00325538 10
-7.14692 4.12628 1.30708 0.00495095 10
-7.15221 4.12934 1.60532 0.00484668 10
-7.14861 4.12726 1.9057 0.0047239 10
-7.12608 4.11425 2.20482 0.00369924 10
-7.17249 4.10772 -2.21473 0.00583179 10
-7.16527 4.10359 -1.90631 0.00600877 10
-7.26293 4.15952 -1.6269 0.00318755 10
-7.26663 4.16164 -1.3263 0.00325513 10
-7.25863 4.15706 -1.02706 0.00330983 10
-7.25745 4.15638 -0.7317 0.00335112 10
-7.25239 4.15349 -0.438001 0.00337862 10
-7.27363 4.16565 -0.146309 0.00339204 10
-7.2739 4.1658 0.146314 0.00339127 10
-7.26347 4.15983 0.438669 0.00337631 10
-7.26271 4.15939 0.73223 0.0033473 10
-7.25096 4.15266 1.02597 0.00330453 10
-7.18487 4.11482 1.31138 0.00490346 10
-7.18438 4.11453 1.60931 0.00480016 10
-7.18944 4.11743 1.91274 0.00467851 10
-7.09978 4.06608 2.19227 0.00375513 10
-7.20014 4.09025 -2.21884 0.0057753 10
-7.21337 4.09776 -1.91529 0.00595063 10
-7.24725 4.11701 -1.62016 0.00323533 10
-7.24978 4.11845 -1.3206 0.00330389 10
-7.25091 4.11909 -1.02393 0.00335938 10
-7.25655 4.12229 -0.730155 0.00340127 10
-7.23757 4.11151 -0.436236 0.00342916 10
-7.23577 4.11049 -0.145258 0.00344278 10
-7.25449 4.12113 0.145633 0.003442 10
-7.24549 4.11601 0.436713 0.00342683 10
-7.24873 4.11785 0.729368 0.00339741 10
-7.25952 4.12398 1.02514 0.00335402 10
-7.20576 4.09344 1.31258 0.00485609 10
-7.22156 4.10242 1.61442 0.00475374 10
-7.2243 4.10398 1.9182 0.00463323 10
-7.07746 4.02056 2.18104 0.00381142 10
-7.25624 4.08868 -2.23172 0.00571894 10
-7.25322 4.08698 -1.92207 0.00589263 10
-7.25598 4.08853 -1.61891 0.00399261 10
-7.24144 4.08034 -1.31648 0.0040777 10
-7.24008 4.07958 -1.02038 0.00414668 10
-7.23527 4.07686 -0.726577 0.00419888 10
-7.24425 4.08193 -0.435777 0.00423382 10
-7.23279 4.07547 -0.144911 0.00425114 10
-7.23596 4.07725 0.144975 0.00425069 10
-7.25498 4.08797 0.436423 0.00423246 10
-7.25829 4.08983 0.728888 0.00419664 10
-7.24421 4.0819 1.02096 0.00414356 10
-7.24387 4.08171 1.31692 0.00480881 10
-7.23853 4.0787 1.61502 0.00470743 10
-7.25887 4.09016 1.92357 0.00458804 10
-7.05922 3.97767 2.17112 0.00386812 10
-7.29057 4.07456 -2.23789 0.00566272 10
-7.2823 4.06994 -1.926 0.00583476 10
-7.27894 4.06806 -1.62086 0.00395344 10
-7.28997 4.07423 -1.3227 0.00403772 10
-7.26698 4.06138 -1.02217 0.00410605 10
-7.28346 4.07059 -0.729985 0.00415776 10
-7.29295 4.07589 -0.437848 0.00419236 10
-7.28195 4.06974 -0.145611 0.00420952 10
-7.27462 4.06565 0.145464 0.00420907 10
-7.28314 4.07041 0.437259 0.00419101 10
-7.28549 4.07173 0.730189 0.00415553 10
-7.27752 4.06727 1.02365 0.00410295 10
-7.27151 4.06391 1.31936 0.00476166 10
-7.2786 4.06787 1.62078 0.00466123 10
-7.2811 4.06927 1.92569 0.00454297 10
-7.05916 3.94523 2.16686 0.00392521 10
-7.31071 4.05239 -2.23972 0.00560663 10
-7.30612 4.04985 -1.92855 0.00577702 10
-7.32224 4.05878 -1.62733 0.00391436 10
-7.31699 4.05587 -1.32503 0.00399784 10
-7.32002 4.05755 -1.02763 0.00406551 10
-7.32015 4.05762 -0.732238 0.00411673 10
-7.3086 4.05122 -0.437936 0.00415101 10
-7.30764 4.05069 -0.145841 0.004168 10
-7.31172 4.05295 0.145922 0.00416755 10
-7.30415 4.04876 0.437669 0.00414966 10
-7.32297 4.05919 0.73252 0.00411451 10
-7.30581 4.04968 1.02563 0.00406243 10
-7.30547 4.04949 1.32294 0.00471461 10
-7.31065 4.05236 1.62476 0.00461513 10
-7.30627 4.04993 1.92859 0.00449799 10
-7.0238 3.89336 2.15182 0.00398271 10
-7.35613 4.04407 -2.24929 0.00555068 10
-7.3495 4.04042 -1.93627 0.00571944 10
-7.48926 4.11726 -1.66125 0.00141186 10
-7.5501 4.1507 -1.36461 0.00309791 10
-7.55425 4.15299 -1.05847 0.00315018 10
-7.54419 4.14745 -0.753196 0.00318965 10
-7.54756 4.14931 -0.451384 0.00321593 10
-7.55131 4.15137 -0.150414 0.00322877 10
-7.53635 4.14314 0.150116 0.00322805 10
-7.54329 4.14696 0.451129 0.00321377 10
-7.55249 4.15202 0.754025 0.00318607 10
-7.43653 4.08827 1.04198 0.000749298 10
-7.34795 4.03957 1.32807 0.00466768 10
-7.34066 4.03556 1.62829 0.00456915 10
-7.36301 4.04785 1.93983 0.00445314 10
-7.02459 3.8618 2.14792 0.0040406 10
-7.38601 4.02699 -2.25412 0.00549488 10
-7.38993 4.02912 -1.9432 0.00566201 10
-7.49032 4.08386 -1.65831 0.00141181 10
-7.53491 4.10817 -1.35927 0.00314285 10
-7.53298 4.10711 -1.05348 0.00319585 10
-7.53535 4.10841 -0.750877 0.00323587 10
-7.5423 4.1122 -0.450208 0.00326252 10
-7.52788 4.10434 -0.149661 0.00327555 10
-7.5385 4.11013 0.149872 0.00327482 10
-7.5441 4.11318 0.450316 0.00326034 10
-7.54521 4.11379 0.75186 0.00323226 10
-7.42583 4.0487 1.03849 0.000749332 10
-7.38051 4.02399 1.33141 0.00462087 10
-7.38533 4.02662 1.63507 0.00452329 10
-7.40064 4.03496 1.94602 0.0044084 10
-7.00587 3.81973 2.1381 0.00409888 10
-7.42622 4.01534 -2.2621 0.00543922 10
-7.41248 4.00791 -1.94544 0.00560472 10
-7.5046 4.05772 -1.65833 0.00312172 10
-7.50678 4.0589 -1.35163 0.0031881 10
-7.52464 4.06856 -1.05032 0.00324184 10
-7.50758 4.05934 -0.746694 0.00328241 10
-7.51985 4.06597 -0.448018 0.00330944 10
-7.50445 4.05764 -0.148913 0.00332264 10
-7.50852 4.05984 0.148993 0.00332191 10
-7.50233 4.0565 0.446975 0.00330723 10
-7.51961 4.06584 0.74789 0.00327877 10
-7.46421 4.03589 1.04188 0.000749366 10
-7.42557 4.01499 1.33701 0.00457418 10
-7.42024 4.01211 1.63969 0.00447755 10
-7.43355 4.01931 1.95097 0.00436377 10
-7.00558 3.7879 2.13397 0.00487358 10
-7.4449 3.99192 -2.26353 0.00538372 10
-7.46599 4.00323 -1.95581 0.0055476 10
-7.49904 4.02095 -1.65399 0.00316634 10
-7.48442 4.01311 -1.34507 0.00323364 10
-7.48802 4.01504 -1.04324 0.00328812 10
-7.49935 4.02112 -0.744475 0.00332926 10
-7.4854 4.01364 -0.445128 0.00335665 10
-7.49485 4.01871 -0.148443 0.00337005 10
-7.50944 4.02653 0.148732 0.0033693 10
-7.48873 4.01542 0.445326 0.00335443 10
-7.51179 4.02779 0.74571 0.00332558 10
-7.45496 3.99732 1.03864 0.0007494 10
-7.46801 4.00432 1.34212 0.00452762 10
-7.45319 3.99637 1.64388 0.00443194 10
-7.46442 4.00239 1.9554 0.00431928 10
-7.04926 3.77978 2.14324 0.00482419 10
-7.48898 3.98196 -2.27269 0.00532837 10
-7.48315 3.97886 -1.95665 0.00549062 10
-7.48897 3.98196 -1.64869 0.00372048 10
-7.48422 3.97943 -1.34253 0.00379997 10
-7.50477 3.99036 -1.04363 0.00386441 10
-7.48947 3.98222 -0.742109 0.00391319 10
-7.48583 3.98029 -0.444325 0.00394582 10
-7.50021 3.98793 -0.148272 0.003962 10
-7.48813 3.98151 0.148033 0.00396157 10
-7.49684 3.98614 0.444978 0.00394452 10
-7.50539 3.99069 0.743687 0.00391104 10
-7.49851 3.98703 1.04276 0.0045582 10
-7.49782 3.98666 1.34497 0.00448119 10
-7.50199 3.98888 1.65156 0.00438645 10
-7.48562 3.98017 1.9573 0.0042749 10
-7.06511 3.75659 2.14406 0.00477494 10
-7.52499 3.96748 -2.2794 0.00527319 10
-7.51771 3.96364 -1.96206 0.00543383 10
-7.53232 3.97134 -1.65517 0.00368203 10
-7.53012 3.97018 -1.34827 0.00376073 10
-7.5317 3.97102 -1.04544 0.00382453 10
-7.54336 3.97717 -0.74607 0.00387282 10
-7.5382 3.97444 -0.446607 0.00390513 10
-7.53055 3.97041 -0.148597 0.00392114 10
-7.53051 3.97039 0.148596 0.00392071 10
-7.53094 3.97062 0.446177 0.00390384 10
-7.54427 3.97764 0.746159 0.00387069 10
-7.5424 3.97666 1.04693 0.00451115 10
-7.52533 3.96766 1.34741 0.0044349 10
-7.53086 3.97057 1.65485 0.0043411 10
-7.52093 3.96534 1.9629 0.00423066 10
-7.56615 3.95548 -2.28767 0.00521817 10
-7.55962 3.95208 -1.96939 0.00537719 10
-7.57872 3.96206 -1.66232 0.00141161 10
-7.57114 3.95809 -1.35313 0.0037216 10
-7.57131 3.95819 -1.04901 0.00378476 10
-7.57645 3.96087 -0.74797 0.00383256 10
-7.57267 3.9589 -0.447828 0.00386455 10
-7.56868 3.95681 -0.149076 0.0038804 10
-7.56862 3.95678 0.149075 0.00387997 10
-7.5684 3.95666 0.447575 0.00386327 10
-7.57114 3.9581 0.747445 0.00383045 10
-7.56972 3.95735 1.04879 0.00446422 10
-7.56124 3.95292 1.35136 0.00438874 10
-7.55767 3.95105 1.6577 0.00429588 10
-7.57995 3.9627 1.97468 0.00418654 10
-7.59502 3.93689 -2.29223 0.00516332 10
-7.59532 3.93704 -1.97509 0.00532073 10
-7.61438 3.94692 -1.66711 0.00545848 10
-7.79672 4.04144 -1.39092 0.0030404 10
-7.79318 4.0396 -1.07779 0.00309185 10
-7.78094 4.03326 -0.766763 0.00313071 10
-7.7935 4.03977 -0.460051 0.00315659 10
-7.78737 4.03659 -0.153105 0.00316925 10
-7.78536 4.03555 0.153066 0.00316856 10
-7.78294 4.03429 0.459427 0.00315452 10
-7.80696 4.04675 0.769327 0.00312729 10
-7.61569 3.9476 1.05325 0.00441745 10
-7.60944 3.94436 1.35751 0.00434272 10
-7.60255 3.94079 1.66452 0.0042508 10
-7.59696 3.93789 1.97552 0.00414256 10
-7.65026 3.9317 -2.30475 0.00510865 10
-7.64903 3.93107 -1.98548 0.00526445 10
-7.65314 3.93319 -1.67258 0.0054008 10
-7.77225 3.9944 -1.38406 0.00308247 10
-7.78726 4.00211 -1.07504 0.00313461 10
-7.76666 3.99152 -0.763978 0.00317399 10
-7.77236 3.99445 -0.457977 0.00320022 10
-7.78367 4.00027 -0.152757 0.00321304 10
-7.7656 3.99098 0.152402 0.00321235 10
-7.78785 4.00242 0.45889 0.00319813 10
-7.78182 3.99932 0.76547 0.00317053 10
-7.63811 3.92546 1.05445 0.00437082 10
-7.65022 3.93168 1.36233 0.00429685 10
-7.64232 3.92762 1.67021 0.00420586 10
-7.65419 3.93372 1.98682 0.00409872 10
-7.7252 3.97022 2.32733 0.00217482 10
-7.68252 3.91444 -2.31034 0.00505414 10
-7.69022 3.91837 -1.99261 0.00520835 10
-7.68161 3.91398 -1.67581 0.00534329 10
-7.75141 3.94954 -1.37788 0.00312481 10
-7.75525 3.9515 -1.06871 0.00317764 10
-7.75407 3.9509 -0.761379 0.00321754 10
-7.75485 3.9513 -0.45613 0.00324411 10
-7.75567 3.95171 -0.151936 0.00325711 10
-7.74945 3.94855 0.151814 0.00325641 10
-7.76733 3.95765 0.456864 0.00324201 10
-7.76615 3.95705 0.762564 0.00321405 10
-7.66957 3.90784 1.0569 0.00432434 10
-7.68685 3.91665 1.36641 0.00425112 10
-7.689 3.91774 1.67742 0.00416106 10
-7.67783 3.91205 1.9894 0.00405502 10
-7.76081 3.95433 2.33388 0.00244755 10
-7.71171 3.89547 -2.31501 0.00499982 10
-7.71353 3.89639 -1.99511 0.00515244 10
-7.70705 3.89311 -1.67838 0.00528599 10
-7.75144 3.91553 -1.37545 0.0031674 10
-7.74229 3.91092 -1.06503 0.00322092 10
-7.7567 3.91819 -0.760289 0.00326134 10
-7.75529 3.91748 -0.455349 0.00328827 10
-7.73471 3.90709 -0.151257 0.00330144 10
-7.73747 3.90848 0.151311 0.00330073 10
-7.7517 3.91567 0.455138 0.00328615 10
-7.73758 3.90854 0.758415 0.00325783 10
-7.7178 3.89854 1.06166 0.00427801 10
-7.72451 3.90193 1.37067 0.00420555 10
-7.7139 3.89657 1.67987 0.00411642 10
-7.71796 3.89862 1.99626 0.00401147 10
-7.76243 3.88714 -2.32615 0.00494568 10
-7.75441 3.88312 -2.00217 0.00509671 10
-7.76687 3.88936 -1.68844 0.00522887 10
-7.74777 3.87979 -1.37239 0.0035278 10
-7.74686 3.87934 -1.06379 0.00358779 10
-7.74621 3.87901 -0.757929 0.00363319 10
-7.75962 3.88573 -0.454803 0.00366357 10
-7.74621 3.87901 -0.151216 0.00367862 10
-7.7522 3.88201 0.151333 0.00367821 10
-7.74546 3.87864 0.453974 0.00366233 10
-7.75521 3.88352 0.75881 0.00363115 10
-7.74581 3.87881 1.06365 0.00423184 10
-7.76392 3.88788 1.37525 0.00416013 10
-7.75973 3.88579 1.68689 0.00407192 10
-7.74871 3.88027 2.0007 0.00124547 10
-7.7994 3.87166 -2.33317 0.00489174 10
-7.78942 3.8667 -2.00771 0.00504118 10
-7.78902 3.86651 -1.69031 0.00517195 10
-7.78399 3.86401 -1.37641 0.00348943 10
-7.78818 3.86609 -1.06761 0.00354879 10
-7.80539 3.87463 -0.762392 0.00359372 10
-7.80332 3.8736 -0.45657 0.00362378 10
-7.79205 3.86801 -0.151847 0.00363867 10
-7.79834 3.87113 0.151969 0.00363826 10
-7.80551 3.87469 0.456698 0.00362255 10
-7.80696 3.87541 0.762545 0.00359169 10
-7.78763 3.86582 1.06753 0.00418583 10
-7.79482 3.86939 1.37832 0.00411486 10
-7.80362 3.87375 1.69348 0.00402758 10
-7.75237 3.84831 1.99816 0.00124549 10
-7.83547 3.85553 -2.33991 0.00483798 10
-7.81733 3.8466 -2.01143 0.00498584 10
-7.83666 3.85612 -1.69772 0.00511523 10
-9.85797 4.85072 0.191775 0.00279899 10
-9.85729 4.85039 0.575753 0.0027862 10
-9.84977 4.84669 0.960418 0.00276135 10
-7.82726 3.85149 1.07111 0.00413997 10
-7.83155 3.8536 1.38243 0.00406976 10
-7.83717 3.85636 1.69783 0.00398339 10
-7.7704 3.82351 1.99935 0.00124552 10
-7.87166 3.83927 -2.3467 0.00478442 10
-7.85946 3.83332 -2.01882 0.00493071 10
-7.85649 3.83187 -1.69911 0.00505872 10
-8.03442 3.91865 -1.41582 0.00298529 10
-8.02562 3.91436 -1.09638 0.00303595 10
-8.02528 3.91419 -0.781181 0.00307422 10
-8.04344 3.92305 -0.469005 0.00309971 10
-8.04231 3.9225 -0.156186 0.00311219 10
-8.03418 3.91853 0.156028 0.00311153 10
-8.03762 3.92021 0.468666 0.00309773 10
-8.04075 3.92174 0.782687 0.00307094 10
-7.86246 3.83478 1.07409 0.00409429 10
-7.87171 3.83929 1.38714 0.00402482 10
-7.87648 3.84162 1.70343 0.00393936 10
-7.78066 3.79488 1.99857 0.00124555 10
-7.91264 3.82512 -2.35493 0.00473105 10
-7.90644 3.82212 -2.02744 0.00487577 10
-7.89936 3.8187 -1.70549 0.00500242 10
-8.02261 3.87828 -1.41134 0.00302471 10
-8.00752 3.87099 -1.09206 0.00307602 10
-8.0293 3.88152 -0.780249 0.00311477 10
-8.01936 3.87671 -0.466809 0.00314059 10
-8.02934 3.88153 -0.15567 0.00315323 10
-8.0304 3.88205 0.15569 0.00315256 10
-8.0273 3.88055 0.467271 0.00313859 10
-8.01345 3.87385 0.778708 0.00311146 10
-7.92009 3.82872 1.08013 0.00404877 10
-7.89762 3.81786 1.38935 0.00398004 10
-7.89906 3.81856 1.70542 0.0038955 10
-7.80131 3.7713 2.00048 0.00124557 10
-7.95106 3.80951 -2.36239 0.0046779 10
-7.939 3.80373 -2.03237 0.00482105 10
-7.95647 3.8121 -1.71493 0.00494633 10
-8.01581 3.84053 -1.40778 0.00306434 10
-8.00848 3.83702 -1.09036 0.0031163 10
-8.00469 3.83521 -0.776552 0.00315554 10
-8.01486 3.84008 -0.465764 0.00318169 10
-8.01406 3.83969 -0.155113 0.00319449 10
-7.99675 3.8314 0.154778 0.00319382 10
-7.99806 3.83203 0.464788 0.00317968 10
-8.01943 3.84227 0.777981 0.00315221 10
-7.93796 3.80324 1.08075 0.00400343 10
-7.94252 3.80542 1.39491 0.00393544 10
-7.94871 3.80838 1.71326 0.00385181 10
-7.81189 3.74283 1.99984 0.0012456 10
-7.98558 3.79183 -2.3687 0.00462495 10
-7.9778 3.78814 -2.03891 0.00476655 10
-7.9915 3.79465 -1.71962 0.00489046 10
-7.99322 3.79546 -1.40147 0.00310419 10
-7.99705 3.79728 -1.08699 0.0031568 10
-7.98499 3.79155 -0.773352 0.00319654 10
-8.00036 3.79885 -0.464148 0.00322302 10
-8.00142 3.79936 -0.154611 0.00323598 10
-7.98153 3.78991 0.154226 0.0032353 10
-7.99279 3.79526 0.463709 0.00322098 10
-7.99118 3.79449 0.773951 0.00319317 10
-7.98744 3.79272 1.08568 0.00395826 10
-7.99073 3.79428 1.40104 0.00389101 10
-8.0004 3.79887 1.72153 0.00380828 10
-7.82955 3.71775 2.00102 0.00124563 10
-8.02901 3.77817 -2.37766 0.0045722 10
-8.03363 3.78034 -2.0498 0.00471225 10
-8.01578 3.77194 -1.722 0.00483481 10
-8.01258 3.77043 -1.40255 0.00326214 10
-8.02945 3.77837 -1.08959 0.00331777 10
-8.03093 3.77907 -0.776519 0.00335988 10
-8.03672 3.78179 -0.465488 0.00338804 10
-8.02384 3.77574 -0.154788 0.003402 10
-8.01432 3.77125 0.154604 0.00340161 10
-8.03177 3.77947 0.465202 0.00338687 10
-8.01512 3.77163 0.77499 0.00335794 10
-8.03533 3.78114 1.09039 0.00391327 10
-8.02326 3.77546 1.40442 0.00384674 10
-8.03504 3.781 1.72613 0.00376492 10
-7.84356 3.6909 2.0013 0.00124565 10
-8.06385 3.76024 -2.38407 0.00451968 10
-8.07665 3.76621 -2.0574 0.00465818 10
-8.05596 3.75656 -1.7278 0.00477938 10
-8.07721 3.76647 -1.41156 0.00322477 10
-8.06701 3.76171 -1.0929 0.00327979 10
-8.06818 3.76226 -0.778846 0.00332143 10
-8.07366 3.76481 -0.466864 0.00334929 10
-8.06833 3.76233 -0.155392 0.00336309 10
-8.06031 3.75859 0.155238 0.0033627 10
-8.08073 3.76811 0.467273 0.00334813 10
-8.07627 3.76603 0.779627 0.00331951 10
-8.0752 3.76553 1.09401 0.00386846 10
-8.05558 3.75638 1.40778 0.00380267 10
-8.06135 3.75907 1.72896 0.00372175 10
-7.85302 3.66192 2.00044 0.00124568 10
-8.10225 3.74376 -2.39154 0.00446737 10
-8.10649 3.74572 -2.06166 0.00460433 10
-8.115 3.74965 -1.73765 0.00472418 10
-9.69883 4.48149 0.186492 0.00307194 10
-9.70204 4.48297 0.560118 0.00305798 10
-9.72089 4.49168 0.936868 0.00303084 10
-8.11949 3.75173 1.09823 0.00382383 10
-8.10728 3.74609 1.41452 0.00375877 10
-8.11242 3.74846 1.73709 0.00367874 10
-7.86487 3.63408 2.00021 0.0012457 10
-8.19454 3.78641 2.41879 0.00216286 10
-8.1331 3.72363 -2.3968 0.00441528 10
-8.14707 3.73002 -2.06866 0.0045507 10
-8.14196 3.72768 -1.74062 0.00466922 10
-9.69071 4.43676 0.186037 0.00311181 10
-9.67684 4.4304 0.557767 0.00309767 10
-9.68407 4.43371 0.931822 0.0030702 10
-8.13503 3.72451 1.09857 0.0037794 10
-8.15009 3.7314 1.41971 0.00371506 10
-8.15717 3.73465 1.74387 0.00363593 10
-7.86991 3.60313 1.99828 0.00124572 10
-8.2471 3.77582 2.4304 0.00213759 10
-8.19043 3.71534 -2.40986 0.00436341 10
-8.17741 3.70944 -2.07306 0.00449731 10
-8.19295 3.71649 -1.74874 0.00461449 10
-9.68379 4.39276 0.185609 0.00315189 10
-9.68261 4.39223 0.557212 0.00313759 10
-9.66096 4.3824 0.92812 0.00310978 10
-8.19553 3.71766 1.10498 0.00373515 10
-8.17692 3.70922 1.42212 0.00367153 10
-8.1807 3.71093 1.74612 0.00359329 10
-7.88616 3.57732 1.99923 0.00124575 10
-8.2137 3.7259 2.41671 0.00208931 10
-8.23367 3.70036 -2.41877 0.00431177 10
-8.22183 3.69504 -2.08104 0.00444415 10
-8.21498 3.69196 -1.75068 0.00456 10
-9.6634 4.3429 0.184926 0.00319218 10
-9.6567 4.3399 0.554846 0.0031777 10
-9.64499 4.33463 0.925127 0.00314956 10
-8.22934 3.69841 1.10779 0.00369109 10
-8.22407 3.69605 1.42806 0.0036282 10
-8.24336 3.70472 1.75673 0.00355084 10
-7.9012 3.55094 1.99989 0.00124577 10
-8.22863 3.69809 2.41729 0.00214233 10
-8.26444 3.67956 -2.42402 0.00426037 10
-8.25815 3.67676 -2.08697 0.00439123 10
-8.2702 3.68213 -1.7597 0.00450575 10
-9.64348 4.29355 0.184257 0.00323268 10
-9.63259 4.28871 0.552597 0.00321802 10
-9.63069 4.28786 0.922314 0.00318954 10
-8.27222 3.68303 1.11182 0.00364723 10
-8.2585 3.67692 1.4318 0.00358505 10
-8.26978 3.68194 1.75961 0.00350858 10
-7.92318 3.52762 2.00232 0.0012458 10
-8.23572 3.66678 2.41559 0.00331571 10
-8.29908 3.66033 -2.43041 0.0042092 10
-8.32042 3.66974 -2.09946 0.00433855 10
-8.32293 3.67085 -1.76818 0.00445175 10
-9.6249 4.24509 0.183618 0.00327338 10
-9.60033 4.23425 0.549895 0.00325855 10
-9.62312 4.24431 0.920165 0.00322972 10
-8.30649 3.6636 1.1147 0.00360357 10
-8.30793 3.66424 1.43815 0.0035421 10
-8.31182 3.66595 1.76582 0.00346651 10
-7.92732 3.49637 2.00027 0.00124582 10
-8.2117 3.62179 2.40483 0.00335672 10
-8.36164 3.65312 -2.44499 0.00415827 10
-8.35048 3.64824 -2.10382 0.00428611 10
-8.3437 3.64528 -1.76988 0.004398 10
-9.58884 4.18927 0.18265 0.00331428 10
-9.59149 4.19042 0.548548 0.00329927 10
-9.60415 4.19595 0.916944 0.00327011 10
-8.35752 3.65131 1.11983 0.00356012 10
-8.34956 3.64784 1.44314 0.00349936 10
-8.36711 3.65551 1.77485 0.00342464 10
-7.92858 3.46392 1.99753 0.00124584 10
-8.19417 3.57995 2.39602 0.00339792 10
-8.39188 3.63149 -2.45011 0.00410757 10
-8.38471 3.62839 -2.10924 0.00423392 10
-8.38405 3.6281 -1.77574 0.0043445 10
-9.58755 4.14891 0.182349 0.00335538 10
-9.56616 4.13965 0.546269 0.0033402 10
-9.58375 4.14726 0.913609 0.00331069 10
-8.39441 3.63259 1.12307 0.00351686 10
-8.39688 3.63366 1.44912 0.00345681 10
-8.40795 3.63845 1.7808 0.00338296 10
-7.94147 3.43658 1.99774 0.00124587 10
-8.1786 3.5392 2.38784 0.00343932 10
-8.42256 3.60992 -2.45537 0.00405713 10
-8.4439 3.61906 -2.12094 0.00418199 10
-8.43664 3.61595 -1.78419 0.00429126 10
-9.54676 4.09175 0.1813 0.00339667 10
-9.57082 4.10206 0.545714 0.00338132 10
-9.56481 4.09949 0.910434 0.00335146 10
-8.42675 3.61171 1.1257 0.00347381 10
-8.42891 3.61264 1.45246 0.00341447 10
-8.44896 3.62123 1.7868 0.00334149 10
-7.95937 3.41139 1.99923 0.00375497 10
-8.17993 3.50592 2.38464 0.00348091 10
-8.49097 3.6042 -2.47163 0.00400692 10
-8.47761 3.59853 -2.12624 0.0041303 10
-8.47979 3.59946 -1.79065 0.00423827 10
-9.53707 4.04824 0.180846 0.00343817 10
-9.53411 4.04699 0.542813 0.00342263 10
-9.54232 4.05047 0.906942 0.00339243 10
-8.47863 3.59896 1.13095 0.00343097 10
-8.4881 3.60298 1.46048 0.00337233 10
-8.4759 3.59781 1.78983 0.00330021 10
-7.9984 3.39512 2.00605 0.00370891 10
-8.15439 3.46133 2.37365 0.00352269 10
-8.53074 3.58599 -2.47955 0.00395698 10
-8.52856 3.58508 -2.13586 0.00407887 10
-8.53342 3.58712 -1.79932 0.00418556 10
-9.5243 4.00365 0.180338 0.00347984 10
-9.5277 4.00508 0.541649 0.00346413 10
-9.53346 4.0075 0.904765 0.00343359 10
-8.53059 3.58593 1.1362 0.00338835 10
-8.53699 3.58862 1.46673 0.0033304 10
-8.52527 3.58369 1.7976 0.00325914 10
-8.05552 3.38623 2.0174 0.00366307 10
-8.13874 3.42121 2.36561 0.00356465 10
-8.56354 3.56466 -2.48545 0.00390727 10
-8.55221 3.55994 -2.13866 0.0040277 10
-8.56106 3.56362 -1.80252 0.0041331 10
-9.49237 3.95129 0.179471 0.00352172 10
-9.49551 3.9526 0.53903 0.00350583 10
-9.50889 3.95817 0.901117 0.00347493 10
-8.57209 3.56822 1.14007 0.00334593 10
-8.57471 3.56931 1.47106 0.00328868 10
-8.56277 3.56434 1.80288 0.00321828 10
-8.08567 3.36574 2.02199 0.00361745 10
-8.11174 3.37659 2.35432 0.0036068 10
-8.60266 3.54576 -2.4932 0.00385784 10
-8.61487 3.55079 -2.15122 0.0039768 10
-8.61649 3.55146 -1.81157 0.00408092 10
-9.47101 3.90367 0.178809 0.00356377 10
-9.48268 3.90848 0.537525 0.0035477 10
-9.48427 3.90914 0.897485 0.00351645 10
-8.59969 3.54454 1.14208 0.00330374 10
-8.60826 3.54807 1.47469 0.00324718 10
-8.61627 3.55137 1.81152 0.00317763 10
-8.12934 3.35067 2.02998 0.00357208 10
-8.13496 3.35299 2.35765 0.00346517 10
-8.65421 3.53172 -2.50455 0.00380865 10
-8.65563 3.5323 -2.1583 0.00392616 10
-8.66444 3.53589 -1.81904 0.00402901 10
-9.45693 3.8593 0.178288 0.00360601 10
-9.4528 3.85761 0.535064 0.00358976 10
-9.46544 3.86277 0.894422 0.00355816 10
-8.65379 3.53155 1.14762 0.00326177 10
-8.64904 3.52961 1.47955 0.0032059 10
-8.64809 3.52922 1.81561 0.00313719 10
-8.17703 3.33698 2.03896 0.00352693 10
-8.16063 3.33029 2.36171 0.00342132 10
-8.70998 3.51906 -2.51712 0.00375974 10
-8.70464 3.51691 -2.16745 0.0038758 10
-8.69134 3.51153 -1.8221 0.00397738 10
-9.43415 3.81164 0.177606 0.00364842 10
-9.43518 3.81206 0.533311 0.00363199 10
-9.43804 3.81322 0.890569 0.00360004 10
-8.68963 3.51084 1.15074 0.00322002 10
-8.708 3.51826 1.48753 0.00316483 10
-8.70693 3.51783 1.82537 0.00309697 10
-8.21491 3.31904 2.04551 0.00348203 10
-8.20402 3.31464 2.3709 0.00337771 10
-8.74799 3.49895 -2.52456 0.00371109 10
-8.73107 3.49218 -2.17098 0.00382571 10
-8.75166 3.50042 -1.83218 0.00392603 10
-9.43718 3.77461 0.177414 0.00369101 10
-9.41848 3.76713 0.53162 0.0036744 10
-9.43043 3.77191 0.888603 0.00364209 10
-8.74367 3.49722 1.15628 0.0031785 10
-8.74698 3.49854 1.49209 0.00312399 10
-8.74285 3.49689 1.83033 0.00305697 10
-8.75021 3.49984 2.17574 0.00297809 10
-8.73786 3.4949 2.52164 0.0028881 10
-8.78407 3.47786 -2.53145 0.0036627 10
-8.7798 3.47617 -2.18007 0.00377589 10
-8.78856 3.47964 -1.83735 0.00387496 10
-9.41375 3.72717 0.176728 0.00373378 10
-9.40401 3.72331 0.530066 0.00371699 10
-9.41018 3.72576 0.885465 0.00368433 10
-8.78348 3.47763 1.15993 0.0031372 10
-8.79599 3.48258 1.49837 0.00308337 10
-8.79577 3.48249 1.83886 0.00301719 10
-8.78702 3.47903 2.18186 0.00293928 10
-8.77984 3.47618 2.53023 0.00285042 10
-8.82829 3.45977 -2.5407 0.0036146 10
-8.81879 3.45605 -2.18674 0.00372635 10
-8.83698 3.46318 -1.84493 0.00382417 10
-9.40455 3.68561 0.176313 0.00377672 10
-9.40354 3.68521 0.529312 0.00375974 10
-9.38894 3.67949 0.882252 0.00372672 10
-8.82853 3.45987 1.16428 0.00309614 10
-8.82341 3.45786 1.50097 0.00304298 10
-8.83771 3.46346 1.84509 0.00297763 10
-8.84023 3.46445 2.19206 0.0029007 10
-8.82389 3.45805 2.53943 0.00281296 10
-8.8637 3.438 -2.54742 0.00356675 10
-8.88369 3.44576 -2.19984 0.0036771 10
-8.86462 3.43836 -1.84818 0.00377367 10
-9.36693 3.63319 -1.59127 0.00366195 10
-9.36182 3.63121 -1.23293 0.00372523 10
-9.37409 3.63597 -0.879659 0.00377305 10
-9.37793 3.63746 -0.527152 0.00380494 10
-9.38309 3.63946 -0.175671 0.00382058 10
-9.36649 3.63302 0.17536 0.00381982 10
-9.38686 3.64092 0.527654 0.00380267 10
-9.36672 3.63311 0.878967 0.00376929 10
-8.88845 3.4476 1.17058 0.0030553 10
-8.86779 3.43959 1.50647 0.00300282 10
-8.87997 3.44431 1.85139 0.00293829 10
-8.88315 3.44555 2.1997 0.00286234 10
-8.87365 3.44186 2.55028 0.0027757 10
-8.92697 3.42675 -2.56215 0.0035192 10
-8.91784 3.42324 -2.20532 0.00362813 10
-8.93277 3.42897 -1.85989 0.00372347 10
-9.3619 3.5937 -1.58827 0.00370349 10
-9.356 3.59144 -1.2305 0.00376746 10
-9.346 3.5876 -0.875843 0.00381581 10
-9.36143 3.59352 -0.525517 0.00384804 10
-9.37317 3.59803 -0.175249 0.00386386 10
-9.34622 3.58768 0.174745 0.00386309 10
-9.35787 3.59215 0.525316 0.00384575 10
-9.35048 3.58932 0.876262 0.00381201 10
-8.91943 3.42385 1.17308 0.0030147 10
-8.918 3.4233 1.51296 0.00296289 10
-8.94027 3.43185 1.86145 0.00289918 10
-8.91694 3.42289 2.2051 0.0028242 10
-8.93529 3.42994 2.56454 0.00273867 10
-8.96777 3.40654 -2.57043 0.00347191 10
-8.96468 3.40536 -2.21395 0.00357944 10
-8.97344 3.40869 -1.86587 0.00367355 10
-9.3411 3.54835 -1.58263 0.0037452 10
-9.35295 3.55285 -1.22846 0.00380986 10
-9.33279 3.54519 -0.873439 0.00385872 10
-9.35342 3.55303 -0.524367 0.00389131 10
-9.34502 3.54984 -0.17449 0.0039073 10
-9.33363 3.54551 0.174277 0.00390653 10
-9.33938 3.5477 0.52358 0.003889 10
-9.34517 3.5499 0.874597 0.0038549 10
-8.96748 3.40642 1.17783 0.00297434 10
-8.9838 3.41263 1.5221 0.00292319 10
-8.97234 3.40827 1.86564 0.0028603 10
-8.97606 3.40969 2.21676 0.00278628 10
-8.9844 3.41285 2.5752 0.00270185 10
-9.02741 3.39318 -2.58412 0.00342492 10
-9.00645 3.3853 -2.22134 0.00353105 10
-9.02832 3.39352 -1.8748 0.00362394 10
-9.32438 3.5048 -1.57772 0.00378705 10
-9.33633 3.5093 -1.22466 0.0038524 10
-9.33284 3.50799 -0.872293 0.00390179 10
-9.33675 3.50946 -0.522743 0.00393473 10
-9.32987 3.50687 -0.173978 0.00395089 10
-9.32779 3.50609 0.173939 0.00395012 10
-9.3236 3.50451 0.522007 0.00393241 10
-9.31983 3.50309 0.871076 0.00389794 10
-9.0238 3.39183 1.18367 0.00293422 10
-9.03283 3.39522 1.52839 0.00288373 10
-9.03143 3.39469 1.87545 0.00282165 10
-9.02034 3.39053 2.22476 0.00274859 10
-9.0306 3.39438 2.58503 0.00266525 10
-9.05649 3.36808 -2.58906 0.0033782 10
-9.0744 3.37474 -2.23518 0.00348294 10
-9.05825 3.36873 -1.87857 0.00357463 10
-9.30343 3.45991 -1.57212 0.00382905 10
-9.29515 3.45684 -1.21767 0.00389511 10
-9.3125 3.46329 -0.869256 0.00394502 10
-9.32026 3.46617 -0.521139 0.00397831 10
-9.30554 3.4607 -0.173298 0.00399465 10
-9.31226 3.4632 0.173423 0.00399387 10
-9.30451 3.46032 0.520259 0.00397597 10
-9.31019 3.46243 0.86904 0.00394115 10
-9.07973 3.37672 1.18945 0.00289433 10
-9.07521 3.37504 1.53355 0.0028445 10
-9.06791 3.37232 1.88057 0.00278323 10
-9.0688 3.37266 2.2338 0.00271113 10
-9.07884 3.37639 2.59545 0.00262888 10
-9.09816 3.34747 -2.59762 0.00333178 10
-9.10709 3.35076 -2.24033 0.00343514 10
-9.11393 3.35328 -1.88767 0.00352562 10
-9.30019 3.42181 -1.56954 0.00387121 10
-9.28953 3.41788 -1.21536 0.00393796 10
-9.27741 3.41342 -0.864863 0.0039884 10
-9.28866 3.41756 -0.518702 0.00402204 10
-9.30214 3.42252 -0.173011 0.00403855 10
-9.2791 3.41405 0.172582 0.00403776 10
-9.28282 3.41541 0.518376 0.00401968 10
-9.28607 3.41661 0.865671 0.00398449 10
-9.10779 3.35102 1.19159 0.0028547 10
-9.12063 3.35574 1.53924 0.00280552 10
-9.11683 3.35434 1.88827 0.00274506 10
-9.11207 3.35259 2.24156 0.0026739 10
-9.10624 3.35045 2.59992 0.00259273 10
-9.15278 3.33134 -2.60988 0.00328565 10
-9.16034 3.3341 -2.25056 0.00338764 10
-9.15006 3.33035 -1.89274 0.00347691 10
-9.27687 3.37651 -1.56361 0.0039135 10
-9.26038 3.3705 -1.21 0.00398095 10
-9.27259 3.37495 -0.863311 0.00403192 10
-9.28265 3.37861 -0.517704 0.00406592 10
-9.26113 3.37078 -0.172028 0.0040826 10
-9.27707 3.37658 0.172324 0.00408181 10
-9.28464 3.37934 0.517816 0.00406354 10
-9.26287 3.37141 0.862405 0.00402799 10
-9.17238 3.33848 1.19851 0.00281531 10
-9.15969 3.33386 1.54386 0.00276679 10
-9.16873 3.33715 1.8966 0.00270712 10
-9.1632 3.33513 2.25126 0.0026369 10
-9.17527 3.33953 2.61629 0.00255681 10
-9.1967 3.31102 -2.61909 0.0032398 10
-9.20112 3.31261 -2.25772 0.00334043 10
-9.21613 3.31801 -1.904 0.00342851 10
-9.25225 3.33101 -1.55749 0.00395594 10
-9.26147 3.33433 -1.20862 0.00402409 10
-9.26533 3.33573 -0.861546 0.0040756 10
-9.2606 3.33402 -0.515823 0.00410995 10
-9.25155 3.33076 -0.171633 0.00412681 10
-9.25311 3.33133 0.171662 0.00412601 10
-9.26774 3.33659 0.516221 0.00410755 10
-9.25343 3.33144 0.860439 0.00407164 10
-9.2156 3.31782 1.20263 0.00277617 10
-9.212 3.31652 1.55071 0.00272829 10
-9.20121 3.31264 1.90092 0.00266941 10
-9.20038 3.31234 2.25754 0.00260013 10
-9.22136 3.31989 2.62611 0.00252111 10
-9.2422 3.291 -2.62876 0.00319426 10
-9.24294 3.29127 -2.26515 0.00329352 10
-9.25575 3.29583 -1.90979 0.00338042 10
-9.25163 3.29436 -1.55544 0.00345409 10
-9.24596 3.29234 -1.20509 0.00351382 10
-9.26332 3.29852 -0.860283 0.00355902 10
-9.25591 3.29588 -0.514917 0.00358925 10
-9.25103 3.29415 -0.171409 0.0036042 10
-9.25833 3.29675 0.171544 0.00360373 10
-9.25946 3.29715 0.515115 0.00358785 10
-9.26073 3.2976 0.860042 0.00355672 10
-9.27 3.3009 1.20822 0.00273728 10
-9.26442 3.29892 1.55759 0.00269004 10
-9.26828 3.30029 1.91238 0.00263196 10
-9.25985 3.29729 2.26929 0.0025636 10
-9.2487 3.29332 2.63061 0.00248564 10
-9.29994 3.27503 -2.64191 0.003149 10
-9.30413 3.2765 -2.27733 0.00324692 10
-9.29841 3.27449 -1.91623 0.00333264 10
-9.31406 3.28 -1.564 0.00340531 10
-9.31325 3.27971 -1.21236 0.00346423 10
-9.31861 3.2816 -0.864348 0.00350882 10
-9.29996 3.27503 -0.516729 0.00353863 10
-9.30432 3.27657 -0.172184 0.00355339 10
-9.3056 3.27702 0.172207 0.00355292 10
-9.29988 3.275 0.516724 0.00353725 10
-9.32097 3.28243 0.864567 0.00350654 10
-9.29442 3.27308 1.20991 0.00269864 10
-9.30062 3.27527 1.56175 0.00265204 10
-9.313 3.27962 1.91923 0.00259474 10
-9.31696 3.28102 2.28047 0.00252731 10
-9.30367 3.27634 2.64297 0.00245041 10
-9.34049 3.25271 -2.65019 0.00310405 10
-9.35715 3.25851 -2.28751 0.00320064 10
-9.35917 3.25921 -1.92639 0.00328518 10
-9.36554 3.26143 -1.57073 0.00335686 10
-9.35656 3.2583 -1.21651 0.00341498 10
-9.34099 3.25288 -0.865366 0.00345895 10
-9.36315 3.26059 -0.519604 0.00348836 10
-9.34758 3.25517 -0.172773 0.00350291 10
-9.34424 3.25401 0.172711 0.00350245 10
-9.35509 3.25779 0.519157 0.003487 10
-9.35819 3.25887 0.866959 0.00345669 10
-9.34934 3.25579 1.21557 0.00266026 10
-9.34966 3.2559 1.56806 0.00261429 10
-9.35379 3.25734 1.92528 0.00255777 10
-9.35705 3.25847 2.28748 0.00249126 10
-9.35619 3.25817 2.65465 0.00241541 10
-9.40628 3.23884 -2.66563 0.0030594 10
-9.4008 3.23696 -2.2954 0.00315465 10
-9.40136 3.23715 -1.93274 0.00323803 10
-9.40911 3.23982 -1.57613 0.00330873 10
-9.39354 3.23445 -1.21984 0.00336604 10
-9.39497 3.23495 -0.869315 0.00340942 10
-9.3911 3.23362 -0.520526 0.00343842 10
-9.3924 3.23406 -0.173392 0.00345277 10
-9.41277 3.24108 0.173768 0.00345231 10
-9.40578 3.23867 0.521339 0.00343706 10
-9.39989 3.23664 0.86977 0.00340718 10
-9.39399 3.23461 1.2199 0.00262213 10
-9.41438 3.24163 1.57701 0.00257679 10
-9.3941 3.23465 1.93124 0.00252105 10
-9.41736 3.24266 2.29945 0.00245545 10
-9.41933 3.24334 2.66933 0.00238064 10
-9.45055 3.21723 -2.67498 0.00301506 10
-9.46569 3.22238 -2.30849 0.00310899 10
-9.46624 3.22257 -1.94375 0.00319121 10
-9.45675 3.21934 -1.58221 0.00326093 10
-9.46245 3.22128 -1.22732 0.00331745 10
-9.44935 3.21682 -0.873303 0.00336022 10
-9.44235 3.21444 -0.522741 0.00338882 10
-9.46414 3.22186 -0.174507 0.00340297 10
-9.45552 3.21892 0.174348 0.00340252 10
-9.46608 3.22252 0.524055 0.00338748 10
-9.44427 3.21509 0.872832 0.003358 10
-9.46455 3.222 1.22759 0.00258426 10
-9.44849 3.21653 1.58083 0.00253955 10
-9.4585 3.21994 1.94216 0.00248458 10
-9.45867 3.22 2.30677 0.00241989 10
-9.44922 3.21678 2.6746 0.00234611 10
-9.51189 3.20111 -2.68916 0.00297103 10
-9.49091 3.19405 -2.3119 0.00306364 10
-9.5034 3.19825 -1.94908 0.00314472 10
-9.50202 3.19779 -1.58791 0.00321346 10
-9.50367 3.19834 -1.23121 0.00326919 10
-9.49571 3.19566 -0.876551 0.00331136 10
-9.50414 3.1985 -0.525541 0.00333956 10
-9.49701 3.1961 -0.174907 0.00335351 10
-9.51654 3.20267 0.175266 0.00335307 10
-9.50013 3.19715 0.525319 0.00333823 10
-9.49746 3.19625 0.876712 0.00330917 10
-9.46012 3.18368 1.22557 0.0030796 10
-9.46832 3.18644 1.58228 0.00302614 10
-9.46603 3.18567 1.94141 0.00296046 10
-9.44679 3.1792 2.30116 0.00288322 10
-9.45427 3.18172 2.67287 0.00279515 10
-9.54054 3.17372 -2.69411 0.0029273 10
-9.54472 3.17511 -2.3223 0.00301861 10
-9.56136 3.18064 -1.95868 0.00309854 10
-9.55395 3.17818 -1.59473 0.00316631 10
-9.54298 3.17453 -1.23486 0.00322126 10
-9.55041 3.177 -0.880571 0.00326284 10
-9.55359 3.17806 -0.527658 0.00329064 10
-9.54799 3.17619 -0.17564 0.00330439 10
-9.55044 3.17701 0.175685 0.00330395 10
-9.56218 3.18091 0.528133 0.00328933 10
-9.55699 3.17919 0.881178 0.00326067 10
-9.44842 3.14307 1.22263 0.00311142 10
-9.43455 3.13846 1.5748 0.00305743 10
-9.43326 3.13803 1.93243 0.00299111 10
-9.43258 3.1378 2.29501 0.0029131 10
-9.43746 3.13942 2.665 0.00282416 10
-9.61665 3.1618 -2.71247 0.00288389 10
-9.61442 3.16106 -2.33656 0.0029739 10
-9.60572 3.1582 -1.96549 0.0030527 10
-9.60331 3.15741 -1.60112 0.00311951 10
-9.61463 3.16113 -1.2427 0.00317367 10
-9.60655 3.15848 -0.884725 0.00321466 10
-9.61222 3.16034 -0.530284 0.00324207 10
-9.60374 3.15755 -0.176462 0.00325562 10
-9.60572 3.1582 0.176498 0.00325519 10
-9.60742 3.15876 0.530019 0.00324077 10
-9.61103 3.15995 0.885137 0.00321251 10
-9.43823 3.10314 1.2199 0.00314333 10
-9.43989 3.10368 1.57387 0.00308881 10
-9.41477 3.09542 1.92642 0.00302184 10
-9.42449 3.09862 2.2904 0.00294306 10
-9.42024 3.09722 2.65707 0.00285324 10
-9.66713 3.14104 -2.7236 0.00284078 10
-9.66119 3.13911 -2.34525 0.0029295 10
-9.65129 3.13589 -1.97256 0.00300717 10
-9.66362 3.1399 -1.60933 0.00307303 10
-9.64821 3.13489 -1.24562 0.00312642 10
-9.64988 3.13544 -0.887702 0.00316682 10
-9.64664 3.13439 -0.531577 0.00319384 10
-9.64844 3.13497 -0.177081 0.0032072 10
-9.64697 3.13449 0.177054 0.00320677 10
-9.67256 3.14281 0.533004 0.00319255 10
-9.66248 3.13953 0.888861 0.0031647 10
-9.40643 3.05633 1.2144 0.00317532 10
-9.40596 3.05618 1.56642 0.00312027 10
-9.40351 3.05538 1.92192 0.00305265 10
-9.40881 3.05711 2.28398 0.0029731 10
-9.39915 3.05397 2.6481 0.00288241 10
-9.71264 3.11839 -2.73334 0.00279799 10
-9.71937 3.12055 -2.35671 0.00288544 10
-9.71989 3.12072 -1.98435 0.00296199 10
-9.71837 3.12023 -1.61663 0.0030269 10
-9.71114 3.11791 -1.25233 0.00307952 10
-9.71238 3.11831 -0.892445 0.00311934 10
-9.69774 3.11361 -0.53379 0.00314597 10
-9.71259 3.11838 -0.178058 0.00315913 10
-9.71533 3.11925 0.178108 0.00315871 10
-9.71328 3.1186 0.534646 0.00314469 10
-9.72486 3.12231 0.893592 0.00311723 10
-9.39906 3.01771 1.21208 0.00320739 10
-9.39981 3.01795 1.56364 0.00315181 10
-9.39492 3.01638 1.918 0.00308353 10
-9.40556 3.0198 2.28062 0.00300321 10
-9.39829 3.01746 2.64488 0.00291165 10
-9.74838 3.09237 -2.74035 0.000499622 1
-9.76046 3.0962 -2.36404 0.0028417 10
-9.76977 3.09915 -1.99231 0.00291714 10
-9.75553 3.09464 -1.621 0.0029811 10
-9.75257 3.0937 -1.25627 0.00303296 10
-9.76277 3.09693 -0.896077 0.00307221 10
-9.77821 3.10183 -0.53762 0.00309845 10
-9.77572 3.10104 -0.179015 0.00311142 10
-9.7718 3.0998 0.178943 0.003111 10
-9.75588 3.09475 0.536392 0.00309718 10
-9.77455 3.10067 0.897158 0.00307012 10
-9.38329 2.97655 1.2087 0.00323954 10
-9.37437 2.97372 1.55767 0.00318343 10
-9.37914 2.97524 1.91265 0.0031145 10
-9.3752 2.97399 2.27073 0.00303341 10
-9.38786 2.978 2.639 0.00294096 10
-9.77022 3.0618 -2.74346 0.000499617 1
-9.81286 3.07517 -2.37412 0.00279828 10
-9.80863 3.07384 -1.99803 0.00287262 10
-9.82115 3.07777 -1.63011 0.00293565 10
-9.8065 3.07317 -1.26183 0.00298676 10
-9.82535 3.07908 -0.900829 0.00302542 10
-9.80426 3.07247 -0.538459 0.00305128 10
-9.82622 3.07935 -0.179742 0.00306406 10
-9.80986 3.07423 0.179443 0.00306364 10
-9.82859 3.0801 0.539796 0.00305003 10
-9.81189 3.07486 0.899594 0.00302336 10
-9.37124 2.93677 1.20582 0.00327176 10
-9.34784 2.92944 1.55155 0.00321512 10
-9.34997 2.9301 1.9046 0.00314553 10
-9.36698 2.93543 2.26624 0.00306367 10
-9.37504 2.93796 2.6325 0.00297035 10
-9.76891 3.02398 -2.74011 0.000499612 1
-9.86586 3.05399 -2.38434 0.0027552 10
