VERSION 0.7
FIELDS x y z intensity label
SIZE 4 4 4 4 4
TYPE F F F F F
COUNT 1 1 1 1 1
WIDTH 1202
HEIGHT 1
VIEWPOINT 10.5899 43.8933 2.72842 0.879689 -0.000283428 0.000846667 0.475549
POINTS 1202
DATA ascii
21.6573 3.43017 -2.69233 3.01909e-05 1
24.2869 3.84667 -2.15132 0.000125752 10
24.2912 3.84734 -1.28892 0.000127111 10
24.2783 3.8453 -0.429061 0.000127813 10
24.2782 3.84528 0.429059 0.000127847 10
24.2809 3.84572 1.28837 0.000127214 10
24.2766 3.84504 2.1504 0.000125921 10
24.2779 3.84523 3.0181 0.000123984 10
24.2941 3.8478 3.89576 0.000121426 10
24.2778 3.84521 4.77794 0.000118279 10
24.2721 3.84432 5.6735 0.000114579 10
24.2728 3.84442 6.58494 0.000110372 10
9.70313 1.57156 -2.63383 7.81412e-05 4
4.26143 0.6902 -0.996648 0.023862 9
4.25419 0.689027 -0.837706 0.0323542 9
11.5301 1.86746 -1.84998 0.00246195 6
21.6214 3.50189 -2.68936 3.01889e-05 1
24.2491 3.92749 -2.14916 0.000125418 10
24.2242 3.92346 -1.28608 0.000126774 10
24.2305 3.92448 -0.428456 0.000127473 10
24.2366 3.92547 0.428564 0.000127507 10
24.2404 3.92608 1.28694 0.000126876 10
24.2216 3.92303 2.14673 0.000125588 10
24.2215 3.92303 3.01279 0.000123657 10
24.2246 3.92353 3.88681 0.000121107 10
24.2297 3.92435 4.77115 0.000117969 10
24.2238 3.92339 5.66537 0.000114281 10
24.2345 3.92513 6.57824 0.000110087 10
4.25862 0.70501 -1.15663 0.0275632 9
4.26235 0.705627 -0.997434 0.0232764 9
4.26557 0.70616 -0.840429 0.0320829 9
11.479 1.90034 -1.84285 0.00247752 6
21.6241 3.57984 -2.69124 3.01868e-05 1
24.1903 4.00467 -2.14518 0.000125071 10
24.1908 4.00476 -1.28504 0.000126422 10
24.1807 4.00309 -0.427821 0.000127119 10
24.1863 4.00402 0.42792 0.000127153 10
24.1766 4.00241 1.28429 0.000126524 10
24.178 4.00264 2.14409 0.00012524 10
24.1866 4.00406 3.01016 0.000123315 10
24.1665 4.00074 3.8797 0.000120774 10
24.1731 4.00182 4.76272 0.000117646 10
24.1855 4.00388 5.65966 0.00011397 10
24.1741 4.002 6.5656 0.000109789 10
4.24134 0.717369 -1.15261 0.0216365 9
4.26345 0.721109 -0.998276 0.0229668 9
4.24419 0.717851 -0.836705 0.0261423 9
11.4514 1.93686 -1.83948 0.00249308 6
21.6029 3.65386 -2.69018 3.01847e-05 1
24.1237 4.08021 -2.14052 0.000124708 10
24.1457 4.08394 -1.2834 0.000126055 10
24.135 4.08213 -0.427261 0.000126749 10
24.1465 4.08407 0.427465 0.000126784 10
24.1449 4.0838 1.28335 0.000126157 10
24.1186 4.07936 2.14008 0.000124877 10
24.1305 4.08137 3.00494 0.000122959 10
24.1296 4.08121 3.87603 0.000120426 10
24.1305 4.08137 4.75711 0.000117309 10
24.1242 4.08031 5.64862 0.000113645 10
24.119 4.07942 6.55445 0.000109478 10
4.2379 0.732011 -1.15236 0.0220201 9
4.25423 0.734833 -0.996711 0.0317704 9
4.24836 0.733818 -0.838025 0.0278764 9
11.4225 1.97301 -1.83594 0.00249876 6
21.6056 3.73193 -2.69211 3.01826e-05 1
24.0804 4.15941 -2.13796 0.000124331 10
24.0865 4.16046 -1.28101 0.000125673 10
24.0863 4.16043 -0.426654 0.000126365 10
24.0751 4.15849 0.426455 0.000126399 10
24.0723 4.158 1.28026 0.000125775 10
24.0729 4.15811 2.13729 0.000124499 10
24.0676 4.1572 2.99889 0.000122588 10
24.0663 4.15697 3.86818 0.000120064 10
24.0659 4.15689 4.7472 0.000116958 10
24.0637 4.15652 5.6378 0.000113307 10
24.0766 4.15875 6.54683 0.000109154 10
4.22624 0.7452 -1.14989 0.0224058 9
4.22393 0.744793 -0.990215 0.0294915 9
4.21816 0.743776 -0.832577 0.031092 9
4.2506 0.749495 -0.683614 0.00312711 9
21.5987 3.80843 -2.6929 3.01805e-05 1
24.0261 4.23646 -2.13444 0.000123939 10
24.038 4.23856 -1.27921 0.000125276 10
24.0424 4.23933 -0.426137 0.000125966 10
24.0317 4.23743 0.425945 0.000126 10
24.0271 4.23663 1.27863 0.000125378 10
24.0421 4.23926 2.13586 0.000124107 10
24.0133 4.2342 2.99395 0.000122203 10
24.0182 4.23506 3.8628 0.000119688 10
24.0276 4.23672 4.74255 0.000116593 10
24.0371 4.23838 5.635 0.000112955 10
24.008 4.23325 6.53215 0.000108817 10
4.22633 0.760437 -1.15063 0.0233531 9
4.22502 0.760202 -0.991087 0.032367 9
4.21024 0.757541 -0.831529 0.0303578 9
4.242 0.763257 -0.682656 0.00114172 9
21.5691 3.8809 -2.69088 3.01783e-05 1
23.9942 4.31723 -2.13293 0.000123532 10
23.9717 4.31318 -1.27648 0.000124864 10
23.977 4.31414 -0.425241 0.000125552 10
23.9755 4.31388 0.425214 0.000125586 10
23.9764 4.31404 1.27673 0.000124966 10
23.9786 4.31443 2.13154 0.0001237 10
23.9709 4.31304 2.99052 0.000121803 10
23.9642 4.31184 3.85651 0.000119298 10
23.9691 4.31272 4.73394 0.000116214 10
23.9719 4.31322 5.62322 0.00011259 10
23.9809 4.31484 6.52884 0.000108467 10
4.20051 0.770937 -1.14432 0.0231838 9
4.20525 0.771806 -0.987074 0.0325217 9
4.19952 0.770755 -0.829938 0.0305028 9
4.26659 0.783064 -0.687048 0.000741099 9
21.5576 3.95656 -2.69115 3.01762e-05 1
23.927 4.39143 -2.12831 0.000123111 10
23.9405 4.3939 -1.27563 0.000124438 10
23.9394 4.3937 -0.424844 0.000125123 10
23.9216 4.39042 0.424527 0.000125157 10
23.9278 4.39156 1.27495 0.00012454 10
23.9265 4.39133 2.12826 0.000123279 10
23.9346 4.39282 2.98789 0.000121389 10
23.9352 4.39293 3.85429 0.000118893 10
23.9192 4.38998 4.72707 0.000115822 10
23.9078 4.38789 5.61173 0.000112211 10
23.9143 4.38909 6.51485 0.000108104 10
4.20231 0.78644 -1.14555 0.0231524 9
4.19198 0.784507 -0.984597 0.0326756 9
4.20915 0.787721 -0.832381 0.030052 9
4.27007 0.799122 -0.688055 0.00190948 9
21.5345 4.03007 -2.69001 3.0174e-05 1
23.8802 4.46905 -2.12552 0.000122675 10
23.886 4.47013 -1.27354 0.000123997 10
23.8849 4.46993 -0.42415 0.000124679 10
23.8738 4.46785 0.423953 0.000124713 10
23.8721 4.46753 1.2728 0.000124098 10
23.8806 4.46913 2.12555 0.000122842 10
23.8616 4.46558 2.98071 0.00012096 10
23.8833 4.46963 3.84841 0.000118475 10
23.8719 4.4675 4.72079 0.000115415 10
23.8626 4.46576 5.60476 0.000111819 10
23.8707 4.46727 6.50717 0.000107729 10
4.21076 0.803245 -1.14862 0.0229773 9
4.19491 0.80022 -0.985934 0.0319533 9
4.2097 0.803043 -0.833038 0.0300433 9
4.21415 0.803891 -0.679491 0.00136584 9
21.536 4.10821 -2.69197 3.01718e-05 1
23.8182 4.54357 -2.1214 0.000122224 10
23.8317 4.54613 -1.27149 0.000123541 10
23.8264 4.54513 -0.423391 0.000124221 10
23.8193 4.54378 0.423265 0.000124254 10
23.8296 4.54573 1.27137 0.000123642 10
23.825 4.54486 2.122 0.000122392 10
23.8386 4.54744 2.97979 0.000120517 10
23.8122 4.54242 3.83949 0.000118042 10
23.8312 4.54603 4.71584 0.000114995 10
23.827 4.54525 5.6001 0.000111414 10
23.8327 4.54633 6.50111 0.00010734 10
4.19566 0.815553 -1.14527 0.0226565 9
4.18335 0.81316 -0.983879 0.0326879 9
4.17719 0.811964 -0.827162 0.0300324 9
11.2766 2.19194 -1.81946 0.00247938 6
21.5297 4.18495 -2.693 3.01695e-05 1
23.7895 4.6242 -2.12026 0.000121759 10
23.781 4.62256 -1.26964 0.00012307 10
23.784 4.62314 -0.422921 0.000123747 10
23.7784 4.62204 0.422821 0.000123781 10
23.7728 4.62097 1.2692 0.000123172 10
23.7715 4.62071 2.11866 0.000121926 10
23.7754 4.62146 2.97389 0.00012006 10
23.7834 4.62303 3.83743 0.000117595 10
23.7856 4.62345 4.70999 0.000114561 10
23.7574 4.61797 5.58749 0.000110995 10
23.776 4.62159 6.49001 0.000106938 10
4.18398 0.82845 -1.14286 0.0233332 9
4.17275 0.826227 -0.982059 0.0241499 9
4.17212 0.826102 -0.826723 0.0303211 9
11.2532 2.22819 -1.81693 0.00249078 6
21.4971 4.25654 -2.69076 3.01673e-05 1
23.7177 4.69622 -2.11531 0.000121279 10
23.7371 4.70007 -1.26816 0.000122585 10
23.7323 4.69912 -0.422291 0.000123259 10
23.7222 4.69711 0.42211 0.000123293 10
23.7203 4.69674 1.26726 0.000122686 10
23.726 4.69786 2.11605 0.000121446 10
23.738 4.70025 2.97125 0.000119588 10
23.7185 4.69639 3.82958 0.000117134 10
23.715 4.69568 4.69922 0.000114113 10
23.7219 4.69707 5.58297 0.000110563 10
23.7261 4.69789 6.48081 0.000106523 10
4.17678 0.842186 -1.14169 0.0291913 9
4.16449 0.839708 -0.980798 0.0242597 9
4.15872 0.838544 -0.824642 0.031065 9
11.2317 2.2647 -1.81473 0.00249231 6
21.4936 4.33387 -2.6922 3.0165e-05 1
23.6853 4.7758 -2.1139 0.000120785 10
23.667 4.7721 -1.2653 0.000122085 10
23.6934 4.77743 -0.421894 0.000122756 10
23.6908 4.77689 0.421846 0.00012279 10
23.6658 4.77186 1.26523 0.000122186 10
23.6837 4.77547 2.11376 0.000120952 10
23.6695 4.77261 2.96474 0.000119102 10
23.6673 4.77217 3.82398 0.000116659 10
23.6783 4.77438 4.69523 0.000113652 10
23.673 4.77331 5.57534 0.000110117 10
23.6691 4.77253 6.46976 0.000106096 10
9.61952 1.9746 -2.63129 0.000519632 4
4.15602 0.853108 -0.979498 0.0242203 9
4.15044 0.851963 -0.823585 0.0316613 9
11.2169 2.3025 -1.81363 0.00238928 6
12.5188 2.56974 -1.56916 0.000261472 6
23.6362 4.85182 -2.11102 0.000120276 10
23.6265 4.84981 -1.26403 0.00012157 10
23.6369 4.85196 -0.421187 0.000122238 10
23.6409 4.85278 0.421257 0.000122272 10
23.6321 4.85098 1.26433 0.000121671 10
23.6255 4.84961 2.11006 0.000120443 10
23.6301 4.85056 2.96191 0.000118602 10
23.6231 4.84913 3.81955 0.00011617 10
23.6312 4.85078 4.68921 0.000113177 10
23.6117 4.84679 5.56485 0.000109658 10
23.6238 4.84927 6.46196 0.000105656 10
9.61922 2.00956 -2.63311 3.05657e-05 4
4.15146 0.867285 -0.979131 0.0250744 9
4.14864 0.866695 -0.823823 0.032261 9
11.1741 2.33438 -1.808 0.00242251 6
12.4337 2.59754 -1.55963 0.00026641 6
23.5965 4.92956 -2.10899 0.000119753 10
23.581 4.92634 -1.26251 0.000121041 10
23.5651 4.92301 1.26166 0.000121142 10
23.5903 4.92828 2.10844 0.000119919 10
23.5655 4.9231 2.95595 0.000118087 10
23.5712 4.92428 6.45223 0.000105203 10
9.60846 2.04234 -2.6321 0.00023433 4
4.14764 0.881608 -0.97895 0.0245852 9
4.13074 0.878016 -0.820873 0.0319424 9
11.1567 2.37143 -1.80653 0.00243684 6
12.3811 2.63168 -1.55417 0.000271416 6
23.5334 5.00218 -2.1049 0.000119216 10
23.5439 5.00441 -1.26145 0.000120497 10
23.5325 5.00199 1.26084 0.000120598 10
23.534 5.0023 2.10495 0.000119381 10
23.534 5.00232 2.95417 0.000117558 10
23.5156 4.99839 6.44175 0.000104737 10
9.60678 2.07706 -2.63361 0.00026149 4
4.14877 0.896995 -0.97995 0.0239396 9
4.1384 0.894753 -0.823011 0.0257578 9
11.1404 2.40863 -1.80523 0.00245114 6
12.3163 2.66287 -1.54719 0.000436028 6
23.4887 5.07842 -2.10247 0.000118664 10
23.4868 5.07802 -1.25933 0.000119939 10
23.4806 5.07668 1.259 0.000120039 10
23.4688 5.07413 2.1007 0.000118829 10
23.4747 5.07541 2.94893 0.000117015 10
23.4617 5.07259 6.4318 0.000104259 10
9.60479 2.11175 -2.63507 0.000495798 4
4.12209 0.9063 -0.97439 0.0276721 9
4.11992 0.905823 -0.81996 0.0267983 9
11.1031 2.44117 -1.80056 0.00246541 6
12.2918 2.70253 -1.5453 0.000433432 6
23.4399 5.1536 -2.09971 0.000118098 10
23.4275 5.15086 -1.25711 0.000119367 10
23.4269 5.15072 1.25707 0.000119466 10
23.4352 5.15255 2.09928 0.000118263 10
23.4408 5.15378 2.94691 0.000116458 10
23.4297 5.15135 6.42792 0.000103767 10
9.58659 2.14286 -2.63211 0.000146018 4
11.1386 2.48977 -2.63501 0.000402555 4
4.12889 0.922915 -0.82238 0.0269127 9
11.0925 2.47946 -1.80023 0.000301448 6
12.2505 2.7383 -1.54129 0.000435098 6
23.3971 5.22987 -2.0975 0.000117517 10
23.3744 5.22479 -1.25523 0.000118779 10
23.3775 5.22549 1.2554 0.000118879 10
23.3785 5.22571 2.09583 0.000117682 10
23.382 5.22649 2.94179 0.000115887 10
23.3604 5.22167 6.41387 0.000103264 10
9.5957 2.18009 -2.63668 0.000186761 4
11.1115 2.52446 -2.63066 0.000435569 4
4.10181 0.931909 -0.817631 0.0270263 9
11.0453 2.50942 -1.79398 0.000303175 6
12.2361 2.77996 -1.54069 0.000419714 6
23.3483 5.30459 -2.09476 0.000116922 10
23.3283 5.30006 -1.25374 0.000118178 10
23.3247 5.29924 1.25355 0.000118278 10
23.3304 5.30054 2.09316 0.000117087 10
23.3312 5.30073 2.93772 0.000115302 10
23.3384 5.30236 3.79064 0.000112944 10
23.3311 5.3007 6.41087 0.000102747 10
9.59106 2.21427 -2.63752 0.000193547 4
11.0969 2.56193 -2.62932 0.000402525 4
4.11209 0.949352 -0.820336 0.0266686 9
11.0352 2.54767 -1.79377 0.000334406 6
12.2238 2.82208 -1.54037 0.000421306 6
23.2808 5.3748 -2.09038 0.000116313 10
23.2929 5.37758 -1.25284 0.000117562 10
23.2842 5.37558 1.25237 0.000117662 10
23.291 5.37714 2.09129 0.000116478 10
23.2925 5.3775 2.93519 0.000114703 10
23.2845 5.37566 3.78492 0.000112358 10
23.2636 5.37083 6.39744 0.000102218 10
9.56595 2.24367 -2.63275 0.000203727 4
11.1049 2.60462 -2.63334 0.000398382 4
4.07968 0.956879 -0.81453 0.0266212 9
11.0116 2.58275 -1.7914 0.000385747 6
12.2107 2.86399 -1.53997 0.0004229 6
23.2276 5.44799 -2.0873 0.000115691 10
23.2415 5.45125 -1.25109 0.000116932 10
23.2426 5.45149 1.25115 0.000117031 10
23.2479 5.45273 2.08912 0.000115854 10
23.2322 5.44907 2.92997 0.00011409 10
23.2429 5.45158 3.78122 0.000111759 10
23.2408 5.45108 6.39635 0.000101677 10
9.57758 2.2817 -2.63813 8.48835e-05 4
11.1019 2.64484 -2.6348 0.000416943 4
4.0798 0.971945 -0.815226 0.0302097 9
10.9858 2.61719 -1.78867 0.000387906 6
12.1895 2.90395 -1.53857 0.000424497 6
23.1766 5.52145 -2.08444 0.000115054 10
23.1876 5.52405 -1.24922 0.000116288 10
23.1744 5.52093 1.24851 0.000116387 10
23.1718 5.5203 2.084 0.000115217 10
23.1705 5.51999 2.9246 0.000113463 10
23.1845 5.52333 3.77484 0.000111146 10
23.1681 5.51941 6.38159 0.000101123 10
9.55263 2.31102 -2.63346 0.00015618 4
11.0685 2.67774 -2.62907 0.000377711 4
10.9139 2.64036 -2.18265 0.00270091 6
10.9359 2.64567 -1.78204 0.00039006 6
12.1389 2.93671 -1.53346 0.000426096 6
23.1377 5.59761 -2.08269 0.000114403 10
23.1294 5.59558 -1.24713 0.00011563 10
23.137 5.59742 1.24754 0.000115728 10
23.1306 5.59588 2.08204 0.000114566 10
23.1244 5.59439 2.92123 0.000112822 10
23.1385 5.5978 3.7705 0.000110519 10
23.1431 5.5989 6.38006 0.000100557 10
9.56356 2.34903 -2.63872 0.000268214 4
11.0767 2.7207 -2.63327 0.000418975 4
10.8845 2.67349 -2.17862 0.00271253 6
10.9086 2.6794 -1.77911 0.000392208 6
12.1522 2.98487 -1.53646 0.000493225 6
23.0998 5.67385 -2.08104 0.000113738 10
23.1027 5.67455 -1.24675 0.000114957 10
23.0876 5.67086 1.24594 0.000115056 10
23.1025 5.67451 2.08128 0.0001139 10
23.0855 5.67033 2.91879 0.000112168 10
23.086 5.67046 3.76515 0.000109879 10
23.0891 5.67123 6.37061 9.99784e-05 10
9.53936 2.37843 -2.63431 0.00011543 4
11.055 2.75632 -2.63038 0.000400384 4
10.8576 2.7071 -2.17511 0.00272407 6
10.9068 2.71938 -1.78036 0.000394351 6
12.152 3.02983 -1.53776 0.000492294 6
23.0556 5.74841 -2.07886 0.000113059 10
23.0522 5.74756 -1.2451 0.000114271 10
23.0358 5.74346 1.24421 0.000114369 10
23.0443 5.74559 2.07784 0.000113221 10
23.0321 5.74255 2.91456 0.0001115 10
23.0477 5.74643 3.76215 0.000109225 10
23.0469 5.74622 6.36444 9.93874e-05 10
9.52922 2.41126 -2.63382 0.000203694 4
11.0624 2.79922 -2.63445 0.000470536 4
10.8507 2.74565 -2.17564 0.00273552 6
10.8699 2.7505 -1.77588 0.000396488 6
12.1337 3.07029 -1.53678 0.000522094 6
23.0024 5.82051 -2.07588 0.000112366 10
23.0003 5.81997 -1.24339 0.000113571 10
22.98 5.81484 1.24229 0.000113669 10
22.9894 5.81721 2.07471 0.000112528 10
23.0022 5.82045 2.91333 0.000110818 10
22.9877 5.81679 3.75565 0.000108559 10
22.9794 5.81468 6.35138 9.87843e-05 10
9.53312 2.44769 -2.63725 0.000302135 4
11.034 2.83306 -2.63004 0.000425116 4
10.827 2.7799 -2.17282 0.00271584 6
10.846 2.78477 -1.77355 0.000338973 6
12.123 3.11266 -1.5368 0.000522047 6
22.9478 5.892 -2.0728 0.00011166 10
22.9423 5.89057 -1.24135 0.000112856 10
22.9414 5.89035 -0.413433 0.000113475 10
22.9499 5.89253 0.413585 0.000113507 10
22.9544 5.89367 1.24201 0.000112954 10
22.9403 5.89005 2.07211 0.000111821 10
22.9481 5.89207 2.90907 0.000110123 10
22.9446 5.89117 3.75194 0.000107878 10
22.9514 5.8929 4.606 0.000105115 10
22.9362 5.88901 5.467 0.000101866 10
22.9498 5.89251 6.34884 9.8169e-05 10
9.50874 2.47684 -2.63288 0.00015276 4
10.8152 2.81714 -2.17241 0.00275815 6
10.8441 2.82467 -1.77484 0.000334836 6
12.1457 3.16373 -1.54107 0.000600347 6
22.9138 5.96859 -2.07159 0.00011094 10
22.9071 5.96684 -1.24057 0.000112128 10
22.8896 5.96228 -0.412871 0.000112743 10
22.8951 5.96374 0.412971 0.000112775 10
22.8946 5.9636 1.23989 0.000112226 10
22.8955 5.96382 2.06993 0.000111101 10
22.9064 5.96668 2.90641 0.000109414 10
22.8955 5.96382 3.74729 0.000107185 10
22.904 5.96604 4.60064 0.000104441 10
22.8882 5.96192 5.46047 0.000101213 10
22.8941 5.96346 6.33915 9.75416e-05 10
9.50186 2.5105 -2.63338 0.000420924 4
10.7754 2.84699 -2.1664 0.00276934 6
10.8149 2.85741 -1.77169 0.000335781 6
12.1524 3.21081 -1.54333 0.000578169 6
22.8685 6.04212 -2.06939 0.000110206 10
22.8646 6.04108 -1.2394 0.000111387 10
22.8421 6.03515 -0.412392 0.000111997 10
22.8493 6.03705 0.412523 0.000112029 10
22.8448 6.03585 1.23833 0.000111484 10
22.8518 6.0377 2.06788 0.000110367 10
22.8532 6.03807 2.90231 0.000108692 10
22.8566 6.03898 3.74436 0.000106478 10
22.8522 6.03781 4.59444 0.000103753 10
22.8451 6.03595 5.4552 0.000100548 10
22.8387 6.03424 6.32961 9.69021e-05 10
9.49058 2.54299 -2.6327 9.50441e-05 4
10.753 2.88126 -2.1639 0.00278043 6
10.8072 2.89579 -1.77208 0.000336717 6
12.1898 3.26624 -1.54951 0.000162307 6
22.804 6.11032 -2.06547 0.000109459 10
22.8195 6.11447 -1.23811 0.000110631 10
22.8066 6.111 -0.412133 0.000111237 10
22.8158 6.11348 0.4123 0.00011127 10
22.8025 6.10992 1.23719 0.000110728 10
22.7908 6.10677 2.06427 0.000109619 10
22.7945 6.10777 2.89755 0.000107956 10
22.8105 6.11206 3.74028 0.000105759 10
22.7865 6.10564 4.5855 0.000103053 10
22.7937 6.10756 5.44798 9.9871e-05 10
22.7945 6.10777 6.32323 9.62506e-05 10
9.4879 2.57781 -2.63444 0.000339431 4
10.7403 2.91809 -2.56949 0.00322404 6
10.7245 2.91377 -2.16019 0.00274411 6
10.7712 2.92646 -1.76783 0.000337645 6
12.2823 3.33703 -1.56275 0.000191487 6
22.7473 6.1803 -2.06228 0.000108698 10
22.7732 6.18733 -1.23676 0.000109862 10
22.7702 6.18652 -0.411864 0.000110464 10
22.7612 6.18408 0.411701 0.000110496 10
22.7575 6.18308 1.23591 0.000109959 10
22.7644 6.18494 2.06382 0.000108858 10
22.7551 6.18244 2.89527 0.000107207 10
22.7497 6.18095 3.73382 0.000105026 10
22.7429 6.17912 4.58104 0.00010234 10
22.7425 6.17899 5.44085 9.91813e-05 10
22.7519 6.18155 6.31735 9.55872e-05 10
9.47869 2.61087 -2.63439 7.12781e-05 4
10.7019 2.9478 -2.56275 0.00393022 6
10.7204 2.95289 -2.16144 0.000490804 6
10.7521 2.96161 -1.76638 0.000269115 6
21.1529 5.82648 -2.69398 3.01154e-05 1
22.715 6.25674 -2.06131 0.000107924 10
22.7137 6.25641 -1.23471 0.00010908 10
22.7119 6.2559 -0.411202 0.000109677 10
22.6987 6.25226 0.410962 0.000109709 10
22.699 6.25234 1.23391 0.000109176 10
22.6997 6.25253 2.05992 0.000108084 10
22.6983 6.25215 2.89079 0.000106445 10
22.7187 6.25776 3.73229 0.00010428 10
22.7126 6.25608 4.57929 0.000101614 10
22.6892 6.24965 5.43329 9.84793e-05 10
22.6903 6.24996 6.30628 9.4912e-05 10
9.46638 2.64306 -2.63352 0.000644875 4
10.6943 2.98589 -2.56339 0.0039454 6
10.6986 2.98711 -2.15914 0.000524484 6
10.7416 2.9991 -1.76637 0.00221093 6
21.1122 5.89464 -2.6914 3.01127e-05 1
22.6675 6.32888 -2.059 0.000107137 10
22.6701 6.32959 -1.23353 0.000108284 10
22.6756 6.33114 -0.410942 0.000108877 10
22.6635 6.32775 0.410722 0.000108909 10
22.6483 6.32352 1.23234 0.00010838 10
22.6641 6.32792 2.05869 0.000107296 10
22.6623 6.32741 2.889 0.00010567 10
22.6453 6.32267 3.72384 0.000103522 10
22.6681 6.32904 4.57475 0.000100876 10
22.6571 6.32597 5.43086 9.77651e-05 10
22.6404 6.32131 6.29849 9.4225e-05 10
9.46628 2.67868 -2.63608 0.00065164 4
10.6587 3.0161 -2.55737 0.00396045 6
10.6603 3.01655 -2.15351 0.000526482 6
10.7274 3.03556 -1.76577 0.00222553 6
21.0999 5.97065 -2.69246 3.011e-05 1
22.6069 6.39711 -2.05551 0.000106337 10
22.6262 6.40255 -1.23235 0.000107474 10
22.6168 6.39989 -0.410278 0.000108063 10
22.6236 6.40182 0.410401 0.000108095 10
22.6235 6.40181 1.2322 0.00010757 10
22.6035 6.39615 2.0552 0.000106495 10
22.6148 6.39933 2.88577 0.000104882 10
22.5978 6.39454 3.71968 0.00010275 10
22.6084 6.39752 4.56718 0.000100126 10
22.602 6.39572 5.42298 9.70388e-05 10
22.6182 6.4003 6.2985 9.35262e-05 10
9.45878 2.71226 -2.63661 0.000638041 4
10.6472 3.05303 -2.55715 0.00397536 6
10.642 3.05154 -2.15196 0.000528463 6
10.6963 3.0671 -1.76239 0.00223136 6
21.0691 6.04147 -2.69122 3.01072e-05 1
22.5658 6.47065 -2.05382 0.000105523 10
22.5636 6.47001 -1.23016 0.000106652 10
22.565 6.47041 -0.409747 0.000107236 10
22.5596 6.46886 0.409648 0.000107268 10
22.5743 6.47307 1.23075 0.000106747 10
22.5584 6.46851 2.05314 0.000105681 10
22.5515 6.46654 2.88057 0.000104081 10
22.5662 6.47075 3.71817 0.000101966 10
22.5682 6.47133 4.5636 9.93627e-05 10
22.5639 6.47009 5.41922 9.63004e-05 10
22.5495 6.46596 6.28562 9.28158e-05 10
9.44939 2.7453 -2.63665 0.000716074 4
10.6331 3.0892 -2.55635 0.00397449 6
10.6282 3.08778 -2.15134 0.000530425 6
10.6869 3.10484 -1.76263 0.00223713 6
21.0474 6.11484 -2.69115 3.01045e-05 1
22.5127 6.54054 -2.05105 0.000104696 10
22.5152 6.54128 -1.22876 0.000105816 10
22.5226 6.54342 -0.409389 0.000106396 10
22.511 6.54004 0.409177 0.000106428 10
22.518 6.54209 1.22892 0.000105911 10
22.5192 6.54243 2.05164 0.000104854 10
22.5228 6.54347 2.87979 0.000103267 10
22.5053 6.5384 3.71188 0.00010117 10
22.5214 6.54307 4.55873 9.85873e-05 10
22.5151 6.54124 5.41295 9.55501e-05 10
22.5137 6.54084 6.28197 9.20939e-05 10
9.4354 2.77699 -2.63543 0.000675325 4
10.5932 3.11776 -2.54936 0.00400478 6
10.5986 3.11933 -2.14753 0.000532368 6
10.661 3.13769 -1.76014 0.00224284 6
21.0382 6.19187 -2.69272 3.01017e-05 1
22.4856 6.61786 -2.05066 0.000103857 10
22.48 6.61622 -1.22809 0.000104967 10
22.4758 6.61498 -0.408955 0.000105542 10
22.4793 6.61603 0.40902 0.000105574 10
22.469 6.61297 1.22749 0.000105062 10
22.4578 6.60968 2.04813 0.000104014 10
22.4647 6.61173 2.87531 0.00010244 10
22.4598 6.61028 3.70816 0.000100361 10
22.4732 6.61423 4.55362 9.77997e-05 10
22.4668 6.61232 5.40684 9.47879e-05 10
22.471 6.61356 6.27644 9.13604e-05 10
9.41611 2.80706 -2.63277 0.000173067 4
10.5843 3.15532 -2.54985 0.00401928 6
10.596 3.15881 -2.14923 0.000501911 6
10.6424 3.17262 -1.75889 0.00224849 6
21.0317 6.26981 -2.69467 3.00989e-05 1
22.4433 6.69064 -2.04893 0.000103004 10
22.4266 6.68564 -1.22644 0.000104106 10
22.4348 6.68812 -0.408633 0.000104676 10
22.4143 6.68198 0.408257 0.000104707 10
22.4135 6.68177 1.22573 0.0001042 10
22.4181 6.68312 2.04663 0.000103161 10
22.4323 6.68735 2.87412 0.000101601 10
22.4107 6.68093 3.70388 9.9539e-05 10
22.4129 6.68157 4.54609 9.7e-05 10
22.4216 6.68418 5.40157 9.40139e-05 10
22.4098 6.68066 6.26584 9.06156e-05 10
9.40529 2.83962 -2.6325 0.000393628 4
10.5514 3.18565 -2.54458 0.00403363 6
10.5545 3.18659 -2.14305 0.000503702 6
10.6367 3.21141 -1.7598 0.00225407 6
21.0053 6.34188 -2.69412 3.00961e-05 1
22.3973 6.76213 -2.04687 0.000102139 10
22.389 6.75965 -1.22567 0.000103231 10
22.368 6.7533 -0.407842 0.000103796 10
22.3719 6.75448 0.407913 0.000103828 10
22.3775 6.75616 1.22504 0.000103325 10
22.3919 6.76051 2.04638 0.000102295 10
22.3696 6.75378 2.8691 0.000100749 10
22.3751 6.75545 3.70187 9.8705e-05 10
22.3751 6.75545 4.54319 9.61882e-05 10
22.3828 6.75776 5.39786 9.32281e-05 10
22.379 6.75661 6.26377 8.98594e-05 10
9.39197 2.87141 -2.63156 0.000213773 4
10.5476 3.22473 -2.54637 0.00404785 6
10.5397 3.22232 -2.14232 0.000505475 6
10.6211 3.24719 -1.75908 0.0022596 6
20.9719 6.41176 -2.69269 3.00933e-05 1
22.3377 6.82932 -2.04359 0.000101261 10
22.3377 6.82932 -1.22416 0.000102344 10
22.3457 6.83176 -0.407867 0.000102904 10
22.3326 6.82775 0.407628 0.000102935 10
22.3228 6.82478 1.22335 0.000102438 10
22.3409 6.83031 2.04389 0.000101416 10
22.3405 6.83018 2.8684 9.98841e-05 10
22.3226 6.82471 3.6971 9.78587e-05 10
22.3293 6.82675 4.53869 9.53645e-05 10
22.3316 6.82747 5.39124 9.24308e-05 10
22.3368 6.82906 6.25861 8.9092e-05 10
9.39589 2.90851 -2.63548 0.000149296 4
10.506 3.25216 -2.53906 0.00406192 6
10.5323 3.26028 -2.14311 0.00417237 6
10.5991 3.28097 -1.75733 0.00226506 6
20.9418 6.48256 -2.69171 3.00904e-05 1
22.3041 6.90427 -2.04271 0.000100371 10
22.2904 6.90003 -1.22288 0.000101444 10
22.3008 6.90325 -0.407486 0.000101999 10
22.2863 6.89876 0.40722 0.00010203 10
22.2739 6.89493 1.22198 0.000101537 10
22.2752 6.89533 2.04006 0.000100525 10
22.2777 6.89611 2.86342 9.90072e-05 10
22.27 6.8937 3.69234 9.70004e-05 10
22.2775 6.89604 4.53304 9.45289e-05 10
22.2784 6.8963 5.38415 9.16218e-05 10
22.2881 6.89932 6.25167 8.83135e-05 10
9.37692 2.93855 -2.63302 6.44664e-05 4
10.4947 3.28885 -2.53909 0.00407584 6
10.5072 3.29275 -2.14033 0.00418666 6
10.5858 3.31738 -1.75702 0.00227047 6
20.9218 6.55648 -2.69206 3.00876e-05 1
22.2418 6.97017 -2.03922 9.94677e-05 10
22.2553 6.97439 -1.22228 0.000100531 10
22.2529 6.97364 -0.407053 0.000101081 10
22.228 6.96583 0.406597 0.000101112 10
22.2362 6.9684 1.22123 0.000100624 10
22.2305 6.9666 2.03818 9.9622e-05 10
22.2486 6.97229 2.86279 9.81179e-05 10
22.2304 6.96659 3.6898 9.61299e-05 10
22.2453 6.97126 4.53141 9.36814e-05 10
22.2384 6.9691 5.38035 9.08015e-05 10
22.2405 6.96974 6.24509 8.75238e-05 10
9.38056 2.97569 -2.63695 0.000122142 4
10.4827 3.32532 -2.53898 0.00407358 6
10.4794 3.32425 -2.13701 0.00352537 6
10.546 3.34538 -1.75235 0.0022758 6
20.9045 6.6313 -2.6928 3.00847e-05 1
22.2048 7.04379 -2.03807 9.85524e-05 10
22.1963 7.04107 -1.22038 9.96055e-05 10
22.2083 7.0449 -0.406685 0.000100151 10
22.2054 7.04396 0.40663 0.000100182 10
22.2081 7.04481 1.22103 9.96985e-05 10
22.2028 7.04315 2.03789 9.87061e-05 10
22.2045 7.04367 2.86025 9.72165e-05 10
22.1834 7.03698 3.68605 9.52474e-05 10
22.1961 7.04101 4.52636 9.28224e-05 10
22.1845 7.03733 5.37321 8.99698e-05 10
22.1917 7.0396 6.23824 8.67232e-05 10
9.37295 3.00932 -2.63774 0.000159457 4
10.4623 3.35907 -2.53685 0.00408716 6
10.4642 3.35969 -2.1363 0.00357017 6
10.5643 3.39181 -1.75734 0.00131629 6
20.8957 6.70886 -2.69466 3.00818e-05 1
22.1381 7.10778 -2.03422 9.76247e-05 10
22.1468 7.11054 -1.21902 9.86679e-05 10
22.162 7.11545 -0.406289 9.92082e-05 10
22.1467 7.11053 1.21902 9.87606e-05 10
22.1427 7.10926 2.03464 9.77779e-05 10
22.1597 7.1147 2.85767 9.63028e-05 10
22.1367 7.10732 3.68239 9.43531e-05 10
22.1493 7.11135 4.52185 9.19516e-05 10
22.1414 7.10883 6.23106 8.59117e-05 10
9.35604 3.03996 -2.63596 0.000189984 4
10.4376 3.39139 -2.53373 0.00411674 6
10.4405 3.39233 -2.13387 0.00417886 6
10.5594 3.43095 -1.75851 0.00131043 6
20.8741 6.7824 -2.69491 3.00789e-05 1
22.0986 7.18028 -2.03288 9.6685e-05 10
22.1185 7.18673 -1.21883 9.77179e-05 10
22.0917 7.17802 -0.405456 9.82532e-05 10
22.0976 7.17995 1.21768 9.78102e-05 10
22.1012 7.1811 2.03311 9.68375e-05 10
22.0957 7.17931 2.85262 9.53773e-05 10
22.1004 7.18086 3.6805 9.3447e-05 10
22.1058 7.18259 4.51805 9.10694e-05 10
22.0858 7.1761 6.22241 8.50894e-05 10
9.35431 3.07554 -2.63848 0.000305321 4
10.401 3.41968 -2.52772 0.00413007 6
10.425 3.42756 -2.13313 0.00417574 6
10.5563 3.47074 -1.76001 0.00130456 6
20.8272 6.84764 -2.69193 3.00759e-05 1
22.0553 7.2514 -2.0312 9.57331e-05 10
22.0527 7.25057 -1.2166 9.67559e-05 10
22.0651 7.25463 -0.40543 9.72858e-05 10
22.0418 7.24697 1.216 9.68478e-05 10
22.0625 7.25379 2.03187 9.58851e-05 10
22.0578 7.25222 2.85098 9.44398e-05 10
22.0579 7.25228 3.67762 9.25291e-05 10
22.0618 7.25355 4.51422 9.01757e-05 10
22.0617 7.25353 6.22274 8.42564e-05 10
9.32254 3.10119 -2.63255 0.000247639 4
10.4015 3.46011 -2.53075 0.00426332 6
10.3782 3.45236 -2.126 0.00432771 6
10.558 3.51217 -1.76231 0.00129868 6
20.822 6.92655 -2.69436 3.00729e-05 1
22.0039 7.31972 -2.02881 9.47693e-05 10
22.0215 7.32559 -1.21628 9.57817e-05 10
21.9993 7.31818 -0.404688 9.63064e-05 10
22.0197 7.32499 1.21618 9.58732e-05 10
21.9948 7.3167 2.02798 9.49207e-05 10
22.0196 7.32494 2.84933 9.34905e-05 10
22.0104 7.32188 3.67393 9.15997e-05 10
22.0077 7.32097 4.50834 8.92708e-05 10
22.0107 7.32199 6.21551 8.34128e-05 10
9.32539 3.13834 -2.63644 0.000189962 4
10.3781 3.49261 -2.52801 0.00426677 6
10.3793 3.49302 -2.12872 0.00431402 6
10.5583 3.55325 -1.76442 0.00129279 6
20.7855 6.99511 -2.69279 3.007e-05 1
21.9586 7.38988 -2.027 9.37936e-05 10
21.9708 7.39398 -1.2149 9.47955e-05 10
21.9728 7.39466 -0.404673 9.53148e-05 10
21.9745 7.39522 1.2151 9.48867e-05 10
21.9666 7.39259 2.02774 9.39444e-05 10
21.9491 7.38668 2.84353 9.25295e-05 10
21.9506 7.38718 3.66822 9.06589e-05 10
21.9604 7.39051 4.50393 8.83546e-05 10
21.9684 7.39318 6.21082 8.25586e-05 10
9.3081 3.16874 -2.63466 0.000122114 4
10.3523 3.52421 -2.52471 0.00427005 6
10.3623 3.5276 -2.12774 0.00430013 6
10.5612 3.59531 -1.76699 0.00130604 6
20.7588 7.06686 -2.6925 3.0067e-05 1
21.9334 7.46674 -2.02707 9.28063e-05 10
21.9325 7.46642 -1.21421 9.37976e-05 10
21.9154 7.46059 -0.404093 9.43115e-05 10
21.9312 7.46599 1.21414 9.38884e-05 10
21.9218 7.4628 2.026 9.29564e-05 10
21.9239 7.46352 2.84363 9.15569e-05 10
21.9147 7.46036 3.66656 8.97067e-05 10
21.907 7.45776 4.49828 8.74274e-05 10
21.8987 7.45492 6.19842 8.16941e-05 10
9.29028 3.1989 -2.63276 8.819e-05 4
10.3452 3.56215 -2.52601 0.00427314 6
10.3351 3.55867 -2.1247 0.00430324 6
10.5687 3.6391 -1.77037 0.0012989 6
20.749 7.14443 -2.69445 3.00639e-05 1
21.863 7.52804 -2.02298 9.18073e-05 10
21.8881 7.53667 -1.2132 9.27879e-05 10
21.8877 7.53654 -0.404065 9.32964e-05 10
21.8817 7.53448 1.21285 9.28784e-05 10
21.8612 7.5274 2.02281 9.19569e-05 10
21.8666 7.52928 2.83959 9.0573e-05 10
21.8803 7.53399 3.66519 8.87433e-05 10
21.8648 7.52865 4.49498 8.64893e-05 10
21.8543 7.52502 6.19325 8.08193e-05 10
9.27871 3.23119 -2.63266 0.000183157 4
10.3451 3.60256 -2.12933 0.00428893 6
10.5628 3.67835 -1.77152 0.00129177 6
20.7292 7.21866 -2.69514 3.00609e-05 1
21.8179 7.59779 -2.02125 9.07968e-05 10
21.8356 7.60396 -1.21176 9.17665e-05 10
21.8335 7.60321 -0.403551 9.22695e-05 10
21.8233 7.59968 1.21108 9.18566e-05 10
21.8161 7.59717 2.02108 9.09457e-05 10
21.8168 7.59741 2.83655 8.95776e-05 10
21.8293 7.60177 3.66107 8.77687e-05 10
21.8346 7.60362 4.49421 8.55402e-05 10
21.8205 7.59871 6.19117 7.99342e-05 10
9.29066 3.27175 -2.63927 0.000261157 4
10.3218 3.63487 -2.12712 0.00429165 6
10.5562 3.71741 -1.77257 0.000575169 6
20.6805 7.28275 -2.6921 3.00578e-05 1
21.7805 7.67013 -2.02025 8.97749e-05 10
21.7834 7.67114 -1.21034 9.07337e-05 10
21.7876 7.67261 -0.403196 9.12311e-05 10
21.7824 7.67079 1.21028 9.08234e-05 10
21.7874 7.67254 2.02089 8.99232e-05 10
21.7698 7.66636 2.8339 8.8571e-05 10
21.7733 7.66758 3.65614 8.67831e-05 10
21.7859 7.67201 4.48965 8.45803e-05 10
21.7691 7.6661 6.18412 7.9039e-05 10
9.26262 3.29827 -2.63457 7.12219e-05 4
10.294 3.66553 -2.52273 0.000537259 6
10.2777 3.65973 -2.12066 0.00351481 6
10.5398 3.75306 -1.77202 0.000275291 6
20.6758 7.36232 -2.69482 3.00548e-05 1
21.7262 7.73633 -2.0177 8.87417e-05 10
21.745 7.74303 -1.2097 8.96895e-05 10
21.7487 7.74435 -0.402974 9.01812e-05 10
21.7329 7.73874 1.20903 8.97788e-05 10
21.7262 7.73635 2.01771 8.88894e-05 10
21.726 7.73629 2.8317 8.75533e-05 10
21.7337 7.73902 3.654 8.57865e-05 10
21.7278 7.73693 4.48323 8.36098e-05 10
21.7323 7.73851 6.1813 7.81338e-05 10
9.26741 3.33647 -2.63922 0.000200091 4
10.2928 3.70565 -2.5256 0.000387768 6
10.2709 3.69775 -2.12191 0.00371659 6
10.5572 3.80083 -1.77716 0.0027468 6
20.6311 7.42765 -2.69235 3.00517e-05 1
21.6825 7.80618 -2.01617 8.76974e-05 10
21.6999 7.81245 -1.2087 8.8634e-05 10
21.6976 7.81162 -0.402531 8.91201e-05 10
21.6927 7.80985 1.2083 8.87229e-05 10
21.6883 7.80826 2.0167 8.78444e-05 10
21.6912 7.80933 2.8307 8.65245e-05 10
21.6866 7.80764 3.65064 8.47792e-05 10
21.6931 7.81001 4.48167 8.26288e-05 10
21.6727 7.80265 6.17207 7.72187e-05 10
9.23892 3.36269 -2.63444 0.000210257 4
10.2712 3.7384 -2.52347 0.000377822 6
10.2839 3.74305 -2.12729 0.00367636 6
10.5413 3.83673 -1.77673 0.00174156 6
20.6046 7.49947 -2.69229 3.00486e-05 1
21.659 7.88322 -2.01653 8.6642e-05 10
21.6545 7.88158 -1.2077 8.75674e-05 10
21.6419 7.87699 -0.402004 8.80478e-05 10
21.6589 7.88319 1.20794 8.76559e-05 10
21.6442 7.87785 2.01515 8.67884e-05 10
21.6412 7.87673 2.82773 8.54849e-05 10
21.6495 7.87977 3.649 8.37612e-05 10
21.6443 7.87787 4.47723 8.16373e-05 10
21.6359 7.87481 6.16937 7.62939e-05 10
9.22209 3.39307 -2.633 0.000155991 4
10.2543 3.77283 -2.52254 0.000353109 6
10.2499 3.77122 -2.12295 0.00436533 6
10.5458 3.8801 -1.77976 0.00173246 6
20.5892 7.57534 -2.69372 3.00454e-05 1
21.5974 7.94628 -2.01336 8.55758e-05 10
21.6115 7.95148 -1.20684 8.64898e-05 10
21.5904 7.94371 -0.40156 8.69643e-05 10
21.5938 7.94498 1.20585 8.65779e-05 10
21.5971 7.94619 2.01334 8.57215e-05 10
21.6017 7.94787 2.82618 8.44346e-05 10
21.5865 7.9423 3.64304 8.27326e-05 10
21.6062 7.94954 4.47507 8.06356e-05 10
21.5821 7.94068 6.16191 7.53594e-05 10
9.21102 3.42555 -2.63324 0.000166157 4
10.6932 3.97677 -2.63391 0.000150447 4
10.254 3.81341 -2.12654 0.00436752 6
10.5478 3.9227 -1.7824 0.00148371 6
20.5638 7.64759 -2.69387 3.00423e-05 1
21.5555 8.01642 -2.01206 8.44988e-05 10
21.5689 8.02141 -1.20602 8.54013e-05 10
21.5576 8.0172 -0.401469 8.587e-05 10
21.5606 8.01831 1.20555 8.5489e-05 10
21.542 8.0114 2.01079 8.46438e-05 10
21.5429 8.01172 2.82213 8.33736e-05 10
21.5642 8.01966 3.64398 8.16937e-05 10
21.5495 8.0142 4.4691 7.96237e-05 10
21.5529 8.01544 6.16151 7.44152e-05 10
9.19651 3.45674 -2.63252 0.00032891 4
10.2355 3.84728 -2.12549 0.00440406 6
10.5829 3.97786 -1.79067 0.000740281 6
20.5293 7.71644 -2.69286 3.00391e-05 1
21.5121 8.08587 -2.01063 8.34112e-05 10
21.5254 8.09087 -1.20516 8.43021e-05 10
21.5233 8.09008 -0.401354 8.4765e-05 10
21.5145 8.08677 1.20455 8.43895e-05 10
21.5064 8.08372 2.01009 8.35555e-05 10
21.495 8.07945 2.81954 8.23022e-05 10
21.5011 8.08171 3.63805 8.06444e-05 10
21.5155 8.08714 4.46787 7.86018e-05 10
21.4953 8.07956 6.15309 7.34618e-05 10
9.19962 3.49461 -2.63689 0.000179706 4
10.6586 4.04883 -2.63229 6.80038e-05 4
10.2086 3.87786 -2.12269 0.00440588 6
10.5852 4.02093 -1.79341 0.00110834 6
20.5093 7.79073 -2.69379 3.00359e-05 1
21.4697 8.15558 -2.00931 8.2313e-05 10
21.4709 8.15601 -1.20369 8.31923e-05 10
21.4763 8.15806 -0.401005 8.36492e-05 10
21.4546 8.14984 1.20278 8.32792e-05 10
21.4592 8.15158 2.00833 8.24566e-05 10
21.4568 8.15067 2.81824 8.12203e-05 10
21.463 8.15301 3.6364 7.9585e-05 10
21.4538 8.14953 4.46093 7.75698e-05 10
21.4569 8.15072 6.1502 7.24989e-05 10
9.19685 3.53034 -2.63961 0.000132231 4
10.6606 4.09221 -2.63629 4.12124e-05 4
10.1959 3.91383 -2.12288 0.00440751 6
10.5972 4.06788 -1.79784 0.0011008 6
20.489 7.86501 -2.69472 3.00327e-05 1
21.4325 8.22716 -2.00851 8.12044e-05 10
21.4342 8.22781 -1.20324 8.2072e-05 10
21.4261 8.22469 -0.400601 8.25229e-05 10
21.4165 8.22103 1.20225 8.21584e-05 10
21.4272 8.22513 2.00801 8.13474e-05 10
21.4189 8.22194 2.81701 8.01282e-05 10
21.4229 8.22348 3.63445 7.85155e-05 10
21.4188 8.2219 4.4596 7.6528e-05 10
21.4183 8.2217 6.14731 7.15268e-05 10
9.1758 3.55906 -2.63712 0.000308526 4
10.6265 4.12174 -2.6314 0.000173083 4
10.2328 3.96906 -2.13345 0.00281127 6
10.5946 4.10937 -1.79982 0.00109328 6
20.4506 7.93228 -2.6933 3.00295e-05 1
21.3876 8.2957 -2.007 8.00857e-05 10
21.3669 8.28768 -1.20108 8.09413e-05 10
21.3815 8.29335 -0.400307 8.13862e-05 10
21.3759 8.29115 1.20158 8.10274e-05 10
21.3737 8.29029 2.00569 8.02279e-05 10
21.386 8.29506 2.81647 7.9026e-05 10
21.3795 8.29255 3.63198 7.7436e-05 10
21.3751 8.29083 4.45649 7.54766e-05 10
21.3634 8.2863 6.13982 7.05456e-05 10
9.14726 3.58477 -2.6325 0.000101708 4
10.6248 4.16381 -2.63457 6.79936e-05 4
10.2517 4.01758 -2.14028 0.00276968 6
10.6181 4.1612 -1.80628 0.00105871 6
20.4427 8.01142 -2.69592 3.00262e-05 1
21.3366 8.3617 -2.00494 7.89567e-05 10
21.3243 8.35689 -1.20031 7.98003e-05 10
21.3345 8.36089 -0.39997 8.02391e-05 10
21.3176 8.35427 1.19994 7.9886e-05 10
21.323 8.35638 2.00366 7.90983e-05 10
21.3377 8.36217 2.81395 7.79138e-05 10
21.3343 8.3608 3.62923 7.63468e-05 10
21.3152 8.35334 4.45007 7.44156e-05 10
21.3241 8.35681 6.13687 6.95554e-05 10
9.15633 3.62525 -2.63873 0.000467835 4
10.6093 4.2005 -2.63433 0.00020397 4
10.2758 4.06846 -2.14826 0.00272838 6
10.6113 4.20131 -1.8076 0.00104706 6
20.3919 8.07373 -2.69292 3.0023e-05 1
21.2972 8.43214 -2.00399 7.78178e-05 10
21.2985 8.43266 -1.20051 7.86494e-05 10
21.2898 8.42922 -0.399682 7.9082e-05 10
21.2878 8.42842 1.19991 7.87346e-05 10
21.2982 8.43256 2.00409 7.79586e-05 10
21.2815 8.42594 2.8104 7.67918e-05 10
21.2747 8.42324 3.62408 7.52479e-05 10
21.2746 8.42321 4.4477 7.33452e-05 10
21.2909 8.42965 6.13575 6.85563e-05 10
9.1421 3.65658 -2.63829 0.000650873 4
10.5842 4.23338 -2.63177 8.44684e-05 4
10.2994 4.11949 -2.15621 0.00268739 6
10.6263 4.25022 -1.81267 0.000826755 6
20.3788 8.15095 -2.69493 3.00197e-05 1
21.2369 8.49415 -2.00109 7.66691e-05 10
21.2543 8.50112 -1.19969 7.74885e-05 10
21.2502 8.49949 -0.399494 7.7915e-05 10
21.2505 8.4996 1.19947 7.75733e-05 10
21.2492 8.49909 2.00226 7.68092e-05 10
21.2357 8.49366 2.80824 7.566e-05 10
21.2469 8.49814 3.62437 7.41395e-05 10
21.2487 8.49886 4.44845 7.22654e-05 10
21.2342 8.49308 6.12793 6.75485e-05 10
9.11075 3.68098 -2.63294 0.000779658 4
10.5636 4.26797 -2.63033 9.06443e-05 4
10.3422 4.17852 -2.1682 0.00255867 6
10.6185 4.29016 -1.81389 0.00082082 6
20.342 8.21869 -2.69383 3.00164e-05 1
21.1996 8.56518 -2.00038 7.55107e-05 10
21.2084 8.56877 -1.19878 7.63178e-05 10
21.189 8.56091 -0.398902 7.6738e-05 10
21.197 8.56415 1.19813 7.64021e-05 10
21.1893 8.56105 1.99942 7.565e-05 10
21.1961 8.56379 2.80695 7.45187e-05 10
21.1859 8.55966 3.61904 7.30217e-05 10
21.1899 8.56127 4.44237 7.11765e-05 10
21.1869 8.56008 6.12287 6.65321e-05 10
9.10195 3.71444 -2.63413 0.000610141 4
10.5746 4.3154 -2.63679 0.0001236 4
10.372 4.23274 -2.17753 0.0025176 6
10.6401 4.34213 -1.82015 0.000814899 6
20.3173 8.29135 -2.69439 3.00131e-05 1
21.1431 8.62833 -1.99788 7.43426e-05 10
21.1592 8.63492 -1.19769 7.51374e-05 10
21.1491 8.63079 -0.398716 7.55514e-05 10
21.1447 8.62898 1.19687 7.52213e-05 10
21.15 8.63114 1.99853 7.44812e-05 10
21.1582 8.63451 2.8059 7.33679e-05 10
21.158 8.63441 3.6194 7.18946e-05 10
21.1529 8.63235 4.44091 7.00785e-05 10
21.1422 8.62797 6.1186 6.55072e-05 10
9.10396 3.75238 -2.63848 0.000650789 4
10.5513 4.34891 -2.63475 0.000100934 4
10.4126 4.29174 -2.18918 0.00247688 6
10.6029 4.37018 -1.81638 0.000430459 6
20.3042 8.36878 -2.6965 3.00097e-05 1
21.1019 8.69758 -1.99685 7.31653e-05 10
21.1163 8.7035 -1.19697 7.39477e-05 10
21.1065 8.69948 -0.398483 7.43552e-05 10
21.1176 8.70402 1.19705 7.40311e-05 10
21.1184 8.70437 1.99841 7.33031e-05 10
21.1008 8.6971 2.80229 7.2208e-05 10
21.1132 8.70224 3.61692 7.07584e-05 10
21.1118 8.70165 4.43863 6.89717e-05 10
21.1127 8.70204 6.11883 6.4474e-05 10
9.07444 3.77732 -2.63373 0.000589752 4
10.5249 4.38108 -2.63197 8.03314e-05 4
10.4384 4.3451 -2.19779 0.00197785 6
10.6494 4.4329 -1.82699 0.00100984 6
20.2502 8.42933 -2.69322 3.00064e-05 1
21.0739 8.77223 -1.99709 7.19785e-05 10
21.0692 8.77024 -1.19603 7.27484e-05 10
21.0627 8.76755 -0.398231 7.31496e-05 10
21.0713 8.77114 1.19615 7.28313e-05 10
21.0681 8.76981 1.99653 7.21157e-05 10
21.0664 8.76909 2.80178 7.10387e-05 10
21.0627 8.76754 3.61348 6.96132e-05 10
21.0569 8.76516 4.4335 6.78561e-05 10
21.0502 8.76236 6.10954 6.34324e-05 10
9.06453 3.81038 -2.6347 0.000630396 4
10.5045 4.41569 -2.63071 9.26852e-05 4
10.5246 4.42412 -2.21917 0.00103593 6
10.639 4.47223 -1.82788 0.000752758 6
20.2247 8.50166 -2.69376 3.0003e-05 1
21.0256 8.83833 -1.99541 7.07827e-05 10
21.0258 8.83843 -1.19531 7.154e-05 10
21.0105 8.83201 -0.397825 7.19348e-05 10
21.0302 8.84027 1.19556 7.16224e-05 10
21.0185 8.83537 1.99474 7.09191e-05 10
21.0068 8.83046 2.79794 6.98605e-05 10
21.0117 8.83251 3.61 6.84593e-05 10
21.0243 8.83778 4.43309 6.67318e-05 10
21.0021 8.82846 6.10448 6.23828e-05 10
9.0644 3.84761 -2.63855 0.000250792 4
10.4921 4.45361 -2.63147 0.000195659 4
10.6246 4.50987 -2.24357 0.00105834 6
10.6626 4.526 -1.83463 0.000748278 6
20.1993 8.57407 -2.69434 2.99996e-05 1
20.9865 8.90824 -1.99465 6.95779e-05 10
20.9766 8.90404 -1.19428 7.03224e-05 10
20.9658 8.89944 -0.397563 7.07107e-05 10
20.9835 8.90695 1.19467 7.04045e-05 10
20.9747 8.90321 1.99352 6.97135e-05 10
20.9722 8.90215 2.79744 6.86734e-05 10
20.9827 8.90661 3.61033 6.72966e-05 10
20.9589 8.89654 4.42584 6.5599e-05 10
20.9806 8.90571 6.10722 6.13252e-05 10
9.04629 3.87725 -2.6372 0.000342281 4
10.4898 4.49591 -2.63481 0.000172994 4
10.7318 4.59965 -2.26958 0.00102572 6
10.6614 4.56948 -1.83716 0.000143479 6
20.1781 8.64833 -2.69553 2.99962e-05 1
20.9436 8.97643 -1.99353 6.83643e-05 10
20.9375 8.97382 -1.19383 6.9096e-05 10
20.933 8.97188 -0.397533 6.94778e-05 10
20.9403 8.97503 1.19399 6.91775e-05 10
20.9233 8.96772 1.9916 6.84991e-05 10
20.938 8.97403 2.79704 6.74776e-05 10
20.921 8.96675 3.60509 6.61253e-05 10
20.9188 8.96581 4.42395 6.44579e-05 10
20.918 8.96544 6.09807 6.02598e-05 10
9.02804 3.90678 -2.63584 0.00013894 4
10.463 4.52776 -2.63206 0.000438641 4
10.7624 4.65731 -1.85736 0.00017352 6
20.1398 8.71528 -2.69447 2.99928e-05 1
20.8894 9.03966 -1.99137 6.71419e-05 10
20.8833 9.03701 -1.19253 6.78608e-05 10
20.8955 9.04231 -0.397419 6.8236e-05 10
20.8985 9.04358 1.1934 6.79418e-05 10
20.8954 9.04225 1.99194 6.72759e-05 10
20.8891 9.03953 2.79471 6.62732e-05 10
20.8863 9.03829 3.60451 6.49456e-05 10
20.8836 9.03715 4.42315 6.33086e-05 10
20.8803 9.0357 6.09624 5.91866e-05 10
9.00551 3.93441 -2.63326 0.000162654 4
10.4501 4.56555 -2.6328 0.000352129 4
12.6858 5.54231 -2.69094 0.000587301 4
14.5443 6.35426 -2.51385 6.42105e-05 4
20.1113 8.7864 -2.69473 2.99893e-05 1
20.8383 9.10404 -1.98952 6.5911e-05 10
20.8549 9.11126 -1.19271 6.6617e-05 10
20.8399 9.10472 -0.396963 6.69856e-05 10
20.8381 9.10392 0.396927 6.70126e-05 10
20.8362 9.1031 1.19164 6.66975e-05 10
20.8426 9.10591 1.98992 6.60443e-05 10
20.8365 9.10324 2.79191 6.50604e-05 10
20.8508 9.10947 3.60385 6.37576e-05 10
20.8473 9.10797 4.42217 6.21512e-05 10
20.8363 9.10316 5.24949 6.02599e-05 10
20.8426 9.10592 6.09449 5.81059e-05 10
9.01516 3.97616 -2.64012 0.000264301 4
10.43 4.60016 -2.63175 0.000382997 4
12.671 5.58856 -2.69191 0.00051261 4
20.0808 8.85668 -2.69477 2.99859e-05 1
20.8091 9.17792 -1.98977 6.46718e-05 10
20.8042 9.17573 -1.19164 6.53646e-05 10
20.7872 9.16823 -0.396566 6.57267e-05 10
20.7973 9.17271 0.396759 6.57535e-05 10
20.7905 9.16971 1.19086 6.54447e-05 10
20.7996 9.17373 1.98887 6.48042e-05 10
20.8013 9.17445 2.79146 6.38394e-05 10
20.8018 9.17471 3.60091 6.25616e-05 10
20.7823 9.16607 4.41513 6.09858e-05 10
20.7939 9.17121 5.24685 5.91306e-05 10
20.7964 9.17231 6.0903 5.70176e-05 10
8.98822 4.00181 -2.63631 0.000186357 4
10.4194 4.639 -2.63315 0.00043857 4
12.632 5.62414 -2.68779 0.000604048 4
14.5032 6.45722 -2.51446 3.39169e-05 4
20.0633 8.93277 -2.6966 2.99824e-05 1
20.7589 9.24244 -1.98804 6.34244e-05 10
20.7477 9.23745 -1.19024 6.41041e-05 10
20.7532 9.23992 -0.396531 6.44595e-05 10
20.756 9.24117 0.396584 6.44861e-05 10
20.7582 9.24214 1.19085 6.41838e-05 10
20.7605 9.24315 1.98819 6.3556e-05 10
20.7425 9.23517 2.78789 6.26103e-05 10
20.744 9.23583 3.59646 6.13576e-05 10
20.7524 9.23956 4.41561 5.98128e-05 10
20.7534 9.23999 5.24472 5.79939e-05 10
20.7466 9.23697 6.08512 5.59222e-05 10
8.98325 4.03723 -2.63897 0.00016602 4
10.3962 4.67223 -2.6314 0.000321189 4
12.6133 5.66866 -2.68801 0.000648174 4
14.4942 6.51396 -2.51684 4.4815e-05 4
20.0189 8.99685 -2.69483 2.99789e-05 1
20.718 9.31101 -1.98722 6.21688e-05 10
20.7152 9.30979 -1.19024 6.28354e-05 10
20.714 9.30922 -0.396399 6.3184e-05 10
20.7112 9.30799 0.396347 6.32105e-05 10
20.7014 9.30358 1.18944 6.29146e-05 10
20.7116 9.30814 1.98661 6.22996e-05 10
20.7008 9.3033 2.78663 6.13731e-05 10
20.7203 9.31207 3.59796 6.01457e-05 10
20.7085 9.30676 4.41315 5.8632e-05 10
20.7138 9.30913 5.24289 5.68497e-05 10
20.6935 9.30004 6.07904 5.48196e-05 10
8.94919 4.05953 -2.63311 6.09841e-05 4
10.4015 4.71832 -2.63689 4.32346e-05 4
12.5868 5.70961 -2.68657 0.000639914 4
14.4682 6.56304 -2.51628 7.75113e-05 4
20.0049 9.07464 -2.6972 2.99754e-05 1
20.6808 9.38122 -1.98679 6.09054e-05 10
20.6643 9.37373 -1.18918 6.15587e-05 10
20.6735 9.37789 -0.396248 6.19005e-05 10
20.658 9.37087 0.395951 6.19268e-05 10
20.6667 9.37482 1.18932 6.16373e-05 10
20.6683 9.37553 1.98558 6.10354e-05 10
20.6611 9.37231 2.78568 6.01281e-05 10
20.6728 9.37759 3.59537 5.89262e-05 10
20.6716 9.37704 4.41223 5.74438e-05 10
20.6587 9.37118 5.23719 5.56982e-05 10
20.6565 9.3702 6.07774 5.37098e-05 10
8.94777 4.09661 -2.63688 9.14719e-05 4
10.3675 4.74662 -2.63247 4.94082e-05 4
12.5648 5.7526 -2.68615 0.000569389 4
14.4334 6.60812 -2.51423 8.59819e-05 4
19.9735 9.1446 -2.69726 2.99719e-05 1
20.6353 9.44759 -1.98558 5.96342e-05 10
20.6343 9.4471 -1.18935 6.02741e-05 10
20.6307 9.44547 -0.396058 6.06091e-05 10
20.6123 9.43705 0.395705 6.06353e-05 10
20.6206 9.44086 1.18856 6.03522e-05 10
20.6315 9.44583 1.98521 5.97633e-05 10
20.6113 9.43661 2.78339 5.88755e-05 10
20.6156 9.43855 3.59114 5.76992e-05 10
20.6312 9.44569 4.41062 5.62482e-05 10
20.6051 9.43374 5.23193 5.45396e-05 10
20.6136 9.43763 6.07476 5.25932e-05 10
8.93014 4.1263 -2.63592 7.45292e-05 4
10.349 4.78192 -2.63199 0.000216149 4
12.5353 5.79214 -2.68416 0.000604028 4
14.4084 6.65759 -2.5139 8.29473e-05 4
19.9324 9.21007 -2.69603 2.99683e-05 1
20.5921 9.51486 -1.9846 5.83553e-05 10
20.5942 9.51587 -1.18895 5.89818e-05 10
20.5911 9.51443 -0.395933 5.931e-05 10
20.59 9.51393 0.395912 5.9336e-05 10
20.587 9.51253 1.18853 5.90595e-05 10
20.5685 9.50399 1.98233 5.84837e-05 10
20.5775 9.50812 2.78327 5.76153e-05 10
20.5855 9.51182 3.59165 5.64647e-05 10
20.5715 9.50536 4.40493 5.50454e-05 10
20.5651 9.50239 5.23016 5.3374e-05 10
20.5732 9.50617 6.07262 5.14698e-05 10
8.92403 4.16134 -2.63838 0.000308265 4
10.3294 4.81666 -2.63125 5.35197e-05 4
12.4959 5.82691 -2.68005 0.000643572 4
14.3964 6.71314 -2.51588 7.50699e-05 4
19.9058 9.28221 -2.69679 2.99647e-05 1
20.5423 9.57904 -1.98301 5.7069e-05 10
20.5434 9.57954 -1.18793 5.7682e-05 10
20.5257 9.5713 -0.395316 5.80033e-05 10
20.5372 9.57663 0.395536 5.80292e-05 10
20.5396 9.57778 1.18771 5.77592e-05 10
20.5338 9.57507 1.98219 5.71965e-05 10
20.5368 9.57645 2.78227 5.63478e-05 10
20.5351 9.57569 3.58868 5.52232e-05 10
20.5412 9.57851 4.40557 5.38356e-05 10
20.5175 9.56747 5.22653 5.22015e-05 10
20.541 9.57844 6.07294 5.03398e-05 10
8.9078 4.19169 -2.63789 0.000199855 4
10.3205 4.85647 -2.6333 0.000220242 4
12.4825 5.8738 -2.68156 0.000673606 4
14.3715 6.76269 -2.51564 5.26655e-05 4
19.864 9.3473 -2.69554 2.99611e-05 1
20.5012 9.64714 -1.98228 5.57755e-05 10
20.4993 9.64623 -1.18732 5.63749e-05 10
20.4918 9.6427 -0.395308 5.66893e-05 10
20.4862 9.6401 0.395201 5.6715e-05 10
20.478 9.63619 1.18609 5.64516e-05 10
20.4817 9.63797 1.9804 5.59021e-05 10
20.5006 9.64684 2.78192 5.50732e-05 10
20.4964 9.64488 3.58777 5.39745e-05 10
20.4913 9.64248 4.40207 5.26189e-05 10
20.4757 9.63514 5.22441 5.10223e-05 10
20.4897 9.64171 6.06767 4.92034e-05 10
8.90027 4.22616 -2.64002 6.09698e-05 4
10.2957 4.88875 -2.6313 8.43871e-05 4
12.4438 5.90876 -2.67767 0.000650695 4
14.351 6.81435 -2.5162 5.08451e-05 4
19.8458 9.42348 -2.69751 2.99575e-05 1
20.4467 9.70883 -1.98028 5.44748e-05 10
20.4396 9.70541 -1.18582 5.50606e-05 10
20.4397 9.70547 -0.394954 5.53681e-05 10
20.46 9.71514 0.395347 5.53936e-05 10
20.4522 9.71142 1.18655 5.51367e-05 10
20.4553 9.71287 1.98111 5.46006e-05 10
20.446 9.70848 2.7791 5.37915e-05 10
20.4373 9.70435 3.58333 5.27189e-05 10
20.4367 9.70408 4.39759 5.13954e-05 10
20.4487 9.70975 5.22613 4.98366e-05 10
20.454 9.71229 6.06712 4.80606e-05 10
8.88139 4.25525 -2.63881 0.000111773 4
