VERSION 0.7
FIELDS x y z intensity label
SIZE 4 4 4 4 4
TYPE F F F F F
COUNT 1 1 1 1 1
WIDTH 1198
HEIGHT 1
VIEWPOINT 12.5633 43.8634 2.72865 0.878647 -0.000330593 0.00069114 0.477472
POINTS 1198
DATA ascii
9.09344 13.0837 -2.52361 8.22127e-05 4
12.5945 18.1212 -2.70962 2.93032e-05 1
15.0361 21.6341 -2.30498 9.23243e-05 10
15.0244 21.6172 -1.37966 9.33255e-05 10
15.0364 21.6345 -0.459882 9.38328e-05 10
15.0295 21.6246 0.45967 9.38398e-05 10
15.0247 21.6177 1.3797 9.33466e-05 10
14.4304 20.7625 2.21213 4.52938e-05 10
15.0263 21.62 3.23279 7.78717e-05 10
15.034 21.6311 4.17223 7.62157e-05 10
15.0202 21.6112 5.11576 7.41828e-05 10
15.0278 21.6222 6.07914 7.17981e-05 10
15.0262 21.6198 7.05476 6.90906e-05 10
5.59839 8.11532 -2.64172 8.72952e-05 4
6.50313 9.42683 -2.64398 9.36972e-05 4
9.05251 13.1224 -2.52495 7.68426e-05 4
12.5402 18.1781 -2.71157 2.92987e-05 1
14.9763 21.7094 -2.30743 9.26599e-05 10
14.9803 21.7152 -1.38257 9.36653e-05 10
14.9814 21.7168 -0.460517 9.41747e-05 10
14.9675 21.6967 0.460089 9.41819e-05 10
14.9772 21.7108 1.38229 9.36869e-05 10
14.3911 20.8612 2.21727 4.54622e-05 10
14.9669 21.6958 3.23629 7.81547e-05 10
14.9692 21.6991 4.17525 7.6492e-05 10
14.9739 21.706 5.12577 7.44509e-05 10
14.971 21.7018 6.08677 7.20566e-05 10
14.972 21.7031 7.06485 6.93382e-05 10
5.57364 8.14009 -2.64343 0.000130935 4
6.46398 9.4404 -2.64144 8.35068e-05 4
7.67395 11.2075 -2.64027 4.3515e-05 4
9.01168 13.1612 -2.52636 6.19438e-05 4
12.47 18.2119 -2.7101 2.92941e-05 1
14.9215 21.7923 -2.31068 9.29842e-05 10
14.927 21.8004 -1.38467 9.39936e-05 10
14.9179 21.7871 -0.460901 9.45052e-05 10
14.927 21.8003 0.46118 9.45126e-05 10
14.9253 21.7979 1.38451 9.40156e-05 10
14.3395 20.9424 2.22057 4.56252e-05 10
14.9226 21.7939 3.24314 7.84281e-05 10
14.9122 21.7788 4.18054 7.67589e-05 10
14.9116 21.7779 5.13044 7.47099e-05 10
14.9254 21.798 6.09913 7.23061e-05 10
14.9113 21.7774 7.07203 6.95772e-05 10
5.55268 8.17051 -2.647 0.000198069 4
6.43995 9.47609 -2.64512 7.12812e-05 4
8.96007 13.1843 -2.52478 6.84879e-05 4
12.4151 18.2682 -2.71202 2.92896e-05 1
14.8673 21.8766 -2.31411 9.32972e-05 10
14.8735 21.8856 -1.38678 9.43105e-05 10
14.8595 21.8651 -0.46145 9.48242e-05 10
14.8599 21.8657 0.461463 9.48316e-05 10
14.8704 21.8812 1.3865 9.43328e-05 10
14.2839 21.0181 2.2233 4.57826e-05 10
14.8658 21.8743 3.24736 7.8692e-05 10
14.868 21.8775 4.18951 7.70164e-05 10
14.8566 21.8608 5.13772 7.49596e-05 10
14.8618 21.8685 6.10429 7.25468e-05 10
14.8636 21.8711 7.08559 6.98076e-05 10
5.5244 8.19026 -2.64713 0.000268552 4
6.40672 9.49835 -2.64507 0.000105896 4
7.59992 11.2673 -2.6418 6.58189e-05 4
8.91897 13.2229 -2.52619 6.07391e-05 4
12.3533 18.3145 -2.71246 2.92851e-05 1
14.815 21.9642 -2.31789 9.35988e-05 10
14.8058 21.9506 -1.38761 9.4616e-05 10
14.8136 21.962 -0.462402 9.51317e-05 10
14.8061 21.951 0.462169 9.51392e-05 10
14.8072 21.9526 1.38774 9.46387e-05 10
14.2295 21.096 2.22627 4.59346e-05 10
14.8167 21.9667 3.25338 7.89463e-05 10
14.8148 21.9639 4.19612 7.72646e-05 10
14.8073 21.9527 5.14715 7.52003e-05 10
14.8078 21.9535 6.11354 7.27787e-05 10
14.8156 21.9651 7.09923 7.00295e-05 10
5.4931 8.2055 -2.64585 0.000238326 4
6.3726 9.51927 -2.64469 0.000272866 4
8.86832 13.2473 -2.52492 7.91902e-05 4
12.2887 18.3567 -2.71235 2.92806e-05 1
14.7539 22.0392 -2.32035 9.3889e-05 10
14.7601 22.0483 -1.39052 9.49099e-05 10
14.7554 22.0413 -0.462984 9.54275e-05 10
14.758 22.0452 0.463066 9.54352e-05 10
14.7558 22.0419 1.39012 9.4933e-05 10
14.1795 21.1811 2.23001 4.6081e-05 10
14.7544 22.0399 3.25657 7.91909e-05 10
14.7477 22.0298 4.19886 7.75034e-05 10
14.7605 22.049 5.15761 7.54317e-05 10
14.7578 22.0449 6.12463 7.30016e-05 10
14.7511 22.0349 7.10512 7.02427e-05 10
5.4554 8.21103 -2.64147 0.000137616 4
6.33595 9.53638 -2.64328 0.000169002 4
7.51898 11.317 -2.64106 3.45768e-05 4
8.83301 13.2948 -2.52807 0.00028496 4
12.2199 18.3924 -2.71131 2.9276e-05 1
14.7031 22.1299 -2.32449 9.41679e-05 10
14.7034 22.1304 -1.39246 9.51925e-05 10
14.6985 22.123 -0.463619 9.57119e-05 10
14.7001 22.1254 0.46367 9.57197e-05 10
14.7096 22.1397 1.39304 9.52159e-05 10
14.1192 21.251 2.23217 4.6222e-05 10
14.7055 22.1336 3.26281 7.9426e-05 10
14.7082 22.1376 4.20959 7.77327e-05 10
14.7052 22.1331 5.16523 7.5654e-05 10
14.6966 22.1202 6.13126 7.32157e-05 10
14.7023 22.1287 7.11876 7.04475e-05 10
5.42417 8.22619 -2.64024 4.69881e-05 4
6.30515 9.56225 -2.64434 0.00014863 4
8.78835 13.3282 -2.52859 0.000426303 4
12.1596 18.441 -2.7122 2.92715e-05 1
14.6429 22.2072 -2.32722 9.44354e-05 10
14.6482 22.2152 -1.39456 9.54634e-05 10
14.6429 22.207 1.39405 9.5488e-05 10
14.0634 21.3283 2.23512 4.63574e-05 10
14.646 22.2118 3.26678 7.96514e-05 10
14.6377 22.1993 6.13898 7.34207e-05 10
14.6462 22.2121 7.1291 7.06435e-05 10
5.39702 8.24751 -2.64102 0.000151024 4
6.26606 9.57554 -2.64195 0.000114009 4
7.43265 11.3583 -2.63853 3.23403e-05 4
8.7668 13.3971 -2.53583 0.000346596 4
12.0892 18.4742 -2.71085 2.92669e-05 1
14.5894 22.295 -2.33107 9.46914e-05 10
14.5938 22.3017 -1.39679 9.57229e-05 10
14.5849 22.2881 1.39594 9.57478e-05 10
14.0176 21.4211 2.2397 4.64872e-05 10
14.5857 22.2893 3.27067 7.98672e-05 10
14.5898 22.2955 6.15147 7.36169e-05 10
14.5859 22.2896 7.1376 7.0831e-05 10
5.36847 8.26672 -2.64116 0.000164438 4
6.22745 9.58943 -2.63977 0.000128251 4
7.40361 11.4006 -2.64233 5.68693e-05 4
8.72255 13.4315 -2.53657 0.000329744 4
12.0257 18.5179 -2.71109 2.92624e-05 1
14.5347 22.3814 -2.33479 9.49361e-05 10
14.5404 22.3903 -1.39915 9.59707e-05 10
14.5389 22.388 1.399 9.5996e-05 10
13.9568 21.4916 2.24196 4.66116e-05 10
14.5384 22.3872 3.27757 8.00734e-05 10
14.5347 22.3814 6.16112 7.38042e-05 10
14.5375 22.3857 7.15207 7.10099e-05 10
5.33949 8.28527 -2.64111 0.000234898 4
6.19747 9.61659 -2.64127 0.000109921 4
7.36099 11.422 -2.64133 0.000121533 4
8.68657 13.4789 -2.53978 0.00031552 4
11.9681 18.5708 -2.71271 2.92578e-05 1
14.4876 22.4803 -2.33982 9.51694e-05 10
14.4764 22.4629 -1.40052 9.62072e-05 10
14.4858 22.4776 1.40144 9.62327e-05 10
13.9145 21.5911 2.24726 4.67303e-05 10
14.4813 22.4707 3.28237 8.027e-05 10
14.4828 22.4729 6.17236 7.39825e-05 10
14.4826 22.4725 7.16362 7.11801e-05 10
5.31661 8.31334 -2.64413 0.000335548 4
6.17308 9.65258 -2.64522 8.34528e-05 4
7.32056 11.4468 -2.64115 5.9089e-05 4
8.65153 13.528 -2.54332 0.000240166 4
11.9003 18.608 -2.71205 2.92532e-05 1
14.4252 22.556 -2.34244 9.53911e-05 10
14.4202 22.5483 -1.4027 9.64319e-05 10
14.4297 22.5631 1.40362 9.64579e-05 10
13.8532 21.6617 2.24957 4.68436e-05 10
14.4262 22.5576 3.28769 8.04568e-05 10
14.4197 22.5474 6.17896 7.41518e-05 10
14.42 22.5479 7.17155 7.13417e-05 10
5.28583 8.32912 -2.64327 0.000197961 4
6.12913 9.65796 -2.64082 5.6988e-05 4
7.28594 11.4808 -2.6431 3.12141e-05 4
8.61958 13.5823 -2.54785 0.000280174 4
11.8385 18.6544 -2.71278 2.92486e-05 1
14.367 22.6388 -2.34582 9.56015e-05 10
14.3735 22.6491 -1.40584 9.66453e-05 10
14.3752 22.6517 1.406 9.66715e-05 10
13.8103 21.7615 2.25491 4.69513e-05 10
14.363 22.6325 3.29128 8.0634e-05 10
14.3652 22.6359 6.18944 7.43123e-05 10
14.361 22.6293 7.18146 7.14947e-05 10
5.25762 8.34896 -2.64372 0.000104007 4
6.10287 9.69119 -2.64406 0.000105827 4
7.24135 11.4991 -2.64147 4.34728e-05 4
8.58406 13.6313 -2.5514 0.000339061 4
11.7745 18.6976 -2.71306 2.9244e-05 1
14.3194 22.7388 -2.35098 9.58005e-05 10
14.3171 22.7352 -1.40807 9.68471e-05 10
14.3061 22.7177 1.40699 9.68736e-05 10
13.7506 21.8355 2.2576 4.70534e-05 10
14.3181 22.7367 3.29915 8.08016e-05 10
14.3077 22.7203 6.19881 7.44638e-05 10
14.316 22.7334 7.1986 7.16391e-05 10
5.22155 8.35621 -2.64023 0.000100646 4
7.20337 11.5278 -2.64227 0.000114803 4
8.55065 13.6839 -2.55565 0.000324996 4
11.7108 18.7411 -2.71343 2.92394e-05 1
14.254 22.8112 -2.35331 9.59881e-05 10
14.2635 22.8264 -1.41063 9.70373e-05 10
14.2603 22.8213 1.41031 9.70641e-05 10
13.6877 21.9048 2.25981 4.715e-05 10
14.2556 22.8137 3.30309 8.09596e-05 10
14.2464 22.7991 6.2067 7.46063e-05 10
14.2493 22.8037 7.20505 7.17748e-05 10
5.19473 8.37824 -2.64144 0.000231471 4
6.02551 9.71816 -2.63988 3.45923e-05 4
8.51691 13.7364 -2.55989 5.50355e-05 4
11.6425 18.7775 -2.71279 2.92348e-05 1
14.2099 22.9183 -2.35923 9.61642e-05 10
14.2061 22.9121 -1.41285 9.7216e-05 10
14.201 22.9038 1.41234 9.72431e-05 10
13.6434 22.0045 2.26516 4.72411e-05 10
14.1997 22.9018 3.30864 8.11079e-05 10
14.1954 22.8949 6.21925 7.474e-05 10
14.1895 22.8853 7.21514 7.19019e-05 10
5.17021 8.40405 -2.64387 9.39244e-05 4
6.00029 9.75333 -2.64373 0.000172949 4
7.114 11.5636 -2.63904 3.56605e-05 4
8.48428 13.791 -2.56453 0.000237827 4
11.5717 18.8094 -2.71156 2.92302e-05 1
14.1451 22.9926 -2.36178 9.63289e-05 10
14.1414 22.9865 -1.41438 9.73832e-05 10
14.1417 22.987 1.41442 9.74106e-05 10
13.5866 22.0846 2.26851 4.73266e-05 10
14.1389 22.9824 3.31313 8.12466e-05 10
14.1407 22.9853 6.23037 7.48647e-05 10
14.1359 22.9776 7.22866 7.20205e-05 10
5.13433 8.41139 -2.64053 0.000194546 4
5.96352 9.76981 -2.64254 5.49326e-05 4
7.07268 11.5869 -2.6387 6.12859e-05 4
8.45105 13.845 -2.56908 0.000137092 4
11.5108 18.8576 -2.7127 2.92255e-05 1
14.0968 23.0943 -2.36716 9.64822e-05 10
14.0876 23.0792 -1.41706 9.75388e-05 10
14.081 23.0683 1.41639 9.75665e-05 10
13.5269 22.1606 2.27145 4.74066e-05 10
14.0805 23.0676 3.31831 8.13757e-05 10
14.0894 23.0821 6.24324 7.49805e-05 10
14.0889 23.0814 7.24577 7.21304e-05 10
5.1081 8.43447 -2.64216 0.0002918 4
5.92863 9.78933 -2.6422 0.000120029 4
7.04389 11.6308 -2.64309 4.6796e-05 4
8.41202 13.8899 -2.57194 0.000303019 4
11.4458 18.8992 -2.71292 2.92209e-05 1
14.0253 23.1584 -2.3687 9.66241e-05 10
14.0348 23.1742 -1.41987 9.7683e-05 10
14.024 23.1564 1.41878 9.7711e-05 10
13.4755 22.2507 2.27585 4.7481e-05 10
14.0353 23.175 3.3267 8.1495e-05 10
14.0196 23.1491 6.24809 7.50874e-05 10
14.0288 23.1644 7.25641 7.22317e-05 10
5.08442 8.46188 -2.64517 3.6892e-05 4
5.88908 9.80107 -2.63981 0.000126123 4
6.99861 11.6476 -2.64134 0.00010361 4
8.36923 13.9287 -2.5737 0.000231093 4
11.3762 18.9332 -2.71208 2.92162e-05 1
13.9761 23.2601 -2.37409 9.67546e-05 10
13.9813 23.2688 -1.42267 9.78156e-05 10
13.9722 23.2536 -0.473529 9.83541e-05 10
13.9719 23.2531 0.473518 9.83632e-05 10
13.9718 23.2529 1.4217 9.78431e-05 10
13.4258 22.3442 2.28061 4.75499e-05 10
13.9714 23.2523 3.33076 8.16049e-05 10
13.9689 23.2481 4.2957 7.98544e-05 10
13.9745 23.2574 5.2741 7.77057e-05 10
13.9711 23.2518 6.26262 7.51854e-05 10
13.969 23.2483 7.26739 7.23245e-05 10
5.05109 8.47327 -2.6432 0.000335361 4
5.86881 9.84502 -2.64611 0.000117977 4
8.34357 13.9965 -2.58082 0.000308497 4
11.3083 18.9699 -2.71167 2.92116e-05 1
13.9234 23.3568 -2.37899 9.68738e-05 10
13.912 23.3377 -1.4239 9.79367e-05 10
13.9203 23.3515 -0.474529 9.84763e-05 10
13.9167 23.3454 0.474406 9.84855e-05 10
13.9187 23.3489 1.42459 9.79645e-05 10
13.3674 22.4241 2.28399 4.76133e-05 10
13.9203 23.3515 3.33799 8.17051e-05 10
13.9203 23.3515 4.3058 7.99516e-05 10
13.9151 23.3427 5.28239 7.77992e-05 10
13.9179 23.3476 6.27528 7.52745e-05 10
13.9182 23.348 7.28331 7.24087e-05 10
5.03012 8.50547 -2.64775 0.000207911 4
5.83449 9.86558 -2.64615 4.47467e-05 4
8.30097 14.0362 -2.58278 0.000271959 4
11.2407 19.007 -2.71135 2.92069e-05 1
13.858 23.4327 -2.38177 9.69816e-05 10
13.8536 23.4251 -1.42628 9.80464e-05 10
13.8536 23.4251 -0.47504 9.85869e-05 10
13.8626 23.4404 0.475349 9.85963e-05 10
13.8603 23.4364 1.42697 9.80745e-05 10
13.3092 22.5046 2.28744 4.76711e-05 10
13.8626 23.4403 3.34375 8.17957e-05 10
13.8536 23.4252 4.31045 8.00394e-05 10
13.8506 23.42 5.28892 7.78835e-05 10
13.8466 23.4132 6.2799 7.53547e-05 10
13.8489 23.4173 7.2898 7.24843e-05 10
4.9951 8.51394 -2.64495 0.000130775 4
5.78621 9.86235 -2.63985 6.50813e-05 4
6.87871 11.7245 -2.64229 6.23721e-05 4
8.26026 14.0793 -2.58539 0.000311427 4
11.1749 19.0472 -2.7115 2.92022e-05 1
13.8014 23.524 -2.38614 9.70781e-05 10
13.8026 23.526 -1.42948 9.81446e-05 10
13.7989 23.5196 -0.475977 9.86861e-05 10
13.7952 23.5133 0.475849 9.86956e-05 10
13.8069 23.5332 1.42992 9.81724e-05 10
13.2594 22.6001 2.29243 4.77235e-05 10
13.792 23.5079 3.3465 8.18768e-05 10
13.8027 23.5262 4.32015 8.01178e-05 10
13.7953 23.5134 5.29911 7.79586e-05 10
13.7945 23.5122 6.29348 7.5426e-05 10
13.7909 23.506 7.3024 7.25514e-05 10
4.97017 8.5396 -2.64751 0.000127413 4
5.76386 9.90329 -2.6454 6.71101e-05 4
6.83222 11.7389 -2.64015 4.00927e-05 4
8.22777 14.1367 -2.59065 0.000282105 4
11.1146 19.0968 -2.71301 2.91975e-05 1
13.7368 23.6022 -2.3892 9.71632e-05 10
13.7438 23.6142 -1.43192 9.82315e-05 10
13.7477 23.6208 -0.477051 9.87738e-05 10
13.737 23.6025 0.47668 9.87834e-05 10
13.7411 23.6095 1.43163 9.82595e-05 10
13.1957 22.6725 2.29509 4.77703e-05 10
13.7392 23.6063 3.35366 8.19483e-05 10
13.7391 23.6062 4.326 8.01869e-05 10
13.7381 23.6043 5.30875 7.80247e-05 10
13.7418 23.6108 6.30701 7.54885e-05 10
13.7382 23.6045 7.31807 7.261e-05 10
4.93711 8.55133 -2.64579 8.38194e-05 4
6.79036 11.7613 -2.63983 0.000124721 4
8.19811 14.1995 -2.59691 0.000354842 4
11.0521 19.1429 -2.71406 2.91928e-05 1
13.6787 23.6921 -2.39346 9.72371e-05 10
13.6826 23.699 -1.43415 9.83068e-05 10
13.6915 23.7144 -0.477972 9.885e-05 10
13.6821 23.6982 0.477645 9.8859e-05 10
13.6848 23.7027 1.43438 9.83352e-05 10
13.1379 22.7555 2.29883 4.78117e-05 10
13.685 23.703 3.3606 8.20104e-05 10
13.6865 23.7057 4.33546 8.02466e-05 10
13.6801 23.6946 5.31827 7.80816e-05 10
13.6777 23.6905 6.31549 7.55423e-05 10
13.6758 23.6871 7.32883 7.266e-05 10
4.91035 8.57394 -2.64747 0.000258147 4
5.68556 9.92754 -2.64121 0.000117934 4
6.75319 11.7917 -2.64136 7.01494e-05 4
8.16164 14.251 -2.6011 0.000318819 4
10.9734 19.1607 -2.71114 2.91882e-05 1
13.6324 23.8035 -2.39988 9.72997e-05 10
13.624 23.7888 -1.4367 9.83708e-05 10
13.6264 23.793 -0.478594 9.89147e-05 10
13.624 23.7888 0.47851 9.89239e-05 10
13.6305 23.8002 1.43739 9.83995e-05 10
13.0817 22.842 2.30294 4.78475e-05 10
13.6161 23.7751 3.36406 8.20628e-05 10
13.6247 23.7901 4.34216 8.0297e-05 10
13.628 23.7959 5.3303 7.81294e-05 10
13.6286 23.7969 6.33115 7.55871e-05 10
13.6185 23.7793 7.34258 7.27016e-05 10
4.87811 8.58702 -2.64623 0.000181027 4
5.64849 9.94314 -2.6401 0.000144356 4
6.71935 11.8282 -2.64426 0.000101318 4
8.11814 14.2905 -2.60311 0.000294391 4
10.9121 19.2088 -2.71255 2.91834e-05 1
13.5652 23.8791 -2.40272 9.73511e-05 10
13.5679 23.8838 -1.43957 9.84234e-05 10
13.5608 23.8713 -0.479216 9.89681e-05 10
13.5713 23.8898 0.479586 9.89773e-05 10
13.5708 23.8889 1.43988 9.84524e-05 10
13.0312 22.9391 2.30813 4.78779e-05 10
13.5658 23.8801 3.3722 8.21057e-05 10
13.566 23.8805 4.35 8.03381e-05 10
13.5577 23.8659 5.33535 7.81682e-05 10
13.5602 23.8702 6.33802 7.56232e-05 10
13.5613 23.8723 7.35663 7.27347e-05 10
4.84877 8.60517 -2.64659 0.000130734 4
5.62078 9.97528 -2.64341 7.72553e-05 4
6.67492 11.8461 -2.64303 7.34765e-05 4
8.08202 14.3433 -2.60757 0.000270259 4
10.8432 19.2436 -2.7121 2.91787e-05 1
13.5082 23.9733 -2.40743 9.73912e-05 10
13.5113 23.9788 -1.44244 9.84647e-05 10
13.5158 23.9868 -0.480583 9.90094e-05 10
13.5125 23.9808 0.480464 9.90194e-05 10
13.506 23.9693 1.44187 9.8494e-05 10
12.9748 23.0265 2.31236 4.79028e-05 10
13.5118 23.9796 3.37956 8.21392e-05 10
13.5016 23.9614 4.35612 8.03699e-05 10
13.5025 23.9631 5.34651 7.81979e-05 10
13.5075 23.9719 6.35247 7.56505e-05 10
13.4987 23.9562 7.36795 7.27593e-05 10
4.80921 8.60506 -2.64138 0.000100558 4
5.58676 9.99633 -2.6438 0.000264275 4
6.63083 11.8645 -2.64195 5.34325e-05 4
8.05002 14.4038 -2.61345 0.000231022 4
10.7849 19.2973 -2.71435 2.9174e-05 1
13.4578 24.0799 -2.41341 9.74202e-05 10
13.4495 24.065 -1.44479 9.84948e-05 10
13.4539 24.0728 -0.481364 9.904e-05 10
13.4439 24.0549 0.481006 9.905e-05 10
13.4545 24.0739 1.44533 9.85243e-05 10
12.9154 23.1093 2.31613 4.79223e-05 10
13.4519 24.0693 3.38556 8.21633e-05 10
13.4455 24.0579 4.3651 8.03924e-05 10
13.4403 24.0485 5.35507 7.82186e-05 10
13.443 24.0533 6.36156 7.56691e-05 10
13.4485 24.0632 7.38636 7.27755e-05 10
4.78165 8.62632 -2.64277 9.38481e-05 4
5.55533 10.0221 -2.64547 5.69164e-05 4
6.58816 11.8854 -2.64147 4.89753e-05 4
8.01328 14.4563 -2.61789 0.000277514 4
10.7114 19.3239 -2.71281 2.91693e-05 1
13.3896 24.1555 -2.41629 9.7438e-05 10
13.3932 24.1619 -1.4478 9.85129e-05 10
13.3948 24.1648 -0.482265 9.90592e-05 10
13.3884 24.1533 0.482035 9.90694e-05 10
13.393 24.1617 1.44778 9.85433e-05 10
12.8551 23.1912 2.31983 4.79364e-05 10
13.3817 24.1412 3.38909 8.21779e-05 10
13.3897 24.1557 4.37434 8.04057e-05 10
13.3832 24.144 5.36589 7.82304e-05 10
13.3838 24.1451 6.37343 7.5679e-05 10
13.3878 24.1523 7.39932 7.27834e-05 10
4.75315 8.64595 -2.64368 0.00024466 4
6.55012 11.9146 -2.64287 6.90044e-05 4
7.97287 14.5026 -2.62121 0.000318999 4
10.6529 19.3775 -2.7151 2.91645e-05 1
13.3276 24.2427 -2.42034 9.74446e-05 10
13.3269 24.2415 -1.44977 9.85203e-05 10
13.3252 24.2385 -0.482804 9.90671e-05 10
13.3239 24.236 0.482755 9.90773e-05 10
13.3364 24.2587 1.4508 9.8551e-05 10
12.8054 23.2929 2.32551 4.7945e-05 10
13.3243 24.2367 3.39595 8.21831e-05 10
13.3264 24.2406 4.38126 8.04098e-05 10
13.3255 24.239 5.37663 7.82331e-05 10
13.3193 24.2277 6.38292 7.56801e-05 10
13.322 24.2325 7.40961 7.27828e-05 10
4.72543 8.66705 -2.64507 0.000234591 4
6.50006 11.922 -2.63945 4.89663e-05 4
7.92992 14.5445 -2.62377 0.000312468 4
10.5807 19.4064 -2.71396 2.91598e-05 1
13.2727 24.3439 -2.42581 9.74395e-05 10
13.2776 24.3528 -1.45365 9.85167e-05 10
13.2692 24.3374 -0.483849 9.90638e-05 10
13.2683 24.3358 0.483816 9.90741e-05 10
13.2694 24.3378 1.45275 9.85476e-05 10
12.7438 23.3739 2.32914 4.79482e-05 10
13.2714 24.3415 3.40412 8.2179e-05 10
13.2615 24.3233 4.38782 8.04048e-05 10
13.2735 24.3453 5.3899 7.82269e-05 10
13.2681 24.3354 6.39905 7.56727e-05 10
13.2603 24.321 7.42247 7.27738e-05 10
4.69047 8.67485 -2.64244 0.000298246 4
5.45286 10.0849 -2.64682 4.47099e-05 4
6.46899 11.9641 -2.64378 4.22852e-05 4
7.89153 14.5951 -2.6279 0.000271756 4
10.5138 19.4449 -2.71419 2.9155e-05 1
13.208 24.4277 -2.42955 9.74247e-05 10
13.2136 24.438 -1.45597 9.85023e-05 10
13.2163 24.443 1.45627 9.85336e-05 10
12.6877 23.4654 2.33384 4.7946e-05 10
13.2035 24.4194 3.40855 8.21655e-05 10
13.208 24.4277 6.41117 7.56565e-05 10
13.2042 24.4206 7.43876 7.27566e-05 10
4.66232 8.69519 -2.64366 0.000140736 4
5.41732 10.1033 -2.64667 0.000148344 4
7.86503 14.6682 -2.63612 0.000303825 4
10.4389 19.4684 -2.71236 2.91503e-05 1
13.15 24.5246 -2.43461 9.73982e-05 10
13.1489 24.5226 -1.45826 9.84763e-05 10
13.1546 24.5332 1.4589 9.85077e-05 10
12.6384 23.5705 2.33989 4.79385e-05 10
13.1524 24.5291 3.41743 8.21428e-05 10
13.1398 24.5056 6.41954 7.56318e-05 10
13.1509 24.5263 7.45691 7.2731e-05 10
4.63299 8.71339 -2.64426 7.37144e-05 4
5.37372 10.1065 -2.64259 0.000191005 4
7.81602 14.6998 -2.63687 0.000286888 4
10.3762 19.5147 -2.71376 2.91455e-05 1
13.0884 24.6156 -2.43909 9.73607e-05 10
13.0965 24.631 -1.46199 9.84391e-05 10
13.0932 24.6247 1.46161 9.84708e-05 10
12.5668 23.6348 2.3419 4.79256e-05 10
13.0929 24.6242 3.4243 8.21108e-05 10
13.0828 24.6052 6.43364 7.55985e-05 10
13.0851 24.6096 7.46829 7.26972e-05 10
4.60011 8.7249 -2.64287 0.000254633 4
6.33629 12.0179 -2.64084 5.00607e-05 4
7.77886 14.7539 -2.64169 9.48433e-05 4
10.3123 19.559 -2.71489 2.91407e-05 1
13.0255 24.7051 -2.44343 9.73123e-05 10
13.0353 24.7237 -1.46478 9.83909e-05 10
13.0296 24.7128 1.46413 9.84229e-05 10
12.5144 23.7358 2.34756 4.79074e-05 10
13.0273 24.7086 3.42968 8.20694e-05 10
13.0294 24.7124 6.44974 7.55566e-05 10
13.0183 24.6915 7.47932 7.26552e-05 10
4.57947 8.75971 -2.64855 6.36543e-05 4
5.30836 10.1539 -2.64524 0.000127994 4
7.72274 14.7722 -2.64013 6.81114e-05 4
10.242 19.591 -2.71436 2.91359e-05 1
12.9745 24.8179 -2.4501 9.72529e-05 10
12.9709 24.8111 -1.46727 9.83317e-05 10
12.9605 24.7912 1.46608 9.83639e-05 10
12.4624 23.8383 2.35339 4.78838e-05 10
12.9649 24.7997 3.43602 8.2019e-05 10
12.9667 24.8029 6.46151 7.55063e-05 10
12.9636 24.7972 7.49758 7.2605e-05 10
4.54315 8.76461 -2.64522 0.000338351 4
6.25259 12.0625 -2.64098 7.89699e-05 4
7.34518 14.1703 -2.52795 6.40696e-05 4
10.1664 19.613 -2.71247 2.91312e-05 1
12.9033 24.893 -2.45305 9.71828e-05 10
12.9104 24.9067 -1.47024 9.82616e-05 10
12.9103 24.9064 1.47023 9.8294e-05 10
12.4008 23.9235 2.35751 4.78549e-05 10
12.9054 24.897 3.44325 8.19593e-05 10
12.9077 24.9015 6.4754 7.54475e-05 10
12.8957 24.8783 7.50845 7.25466e-05 10
4.50687 8.76941 -2.64191 0.000154091 4
5.23075 10.1779 -2.64192 9.34419e-05 4
6.21016 12.0837 -2.64086 0.000104542 4
7.30079 14.2058 -2.52973 6.22825e-05 4
10.1088 19.6695 -2.71539 2.91264e-05 1
12.8482 24.9999 -2.45915 9.71017e-05 10
12.8447 24.9932 -1.47269 9.81805e-05 10
12.8399 24.9837 1.47213 9.82131e-05 10
12.3438 24.0184 2.36261 4.78208e-05 10
12.8385 24.981 3.44865 8.18906e-05 10
12.8385 24.9809 6.48437 7.53802e-05 10
12.844 24.9918 7.52913 7.24801e-05 10
4.47733 8.78725 -2.64256 0.000231121 4
5.19924 10.2041 -2.64397 0.000215306 4
6.16975 12.1088 -2.64164 7.56191e-05 4
7.25415 14.2371 -2.53077 6.52406e-05 4
10.0388 19.7022 -2.71505 2.91216e-05 1
12.7867 25.0952 -2.46412 9.701e-05 10
12.7826 25.0872 -1.4756 9.80885e-05 10
12.7778 25.0778 1.47504 9.81214e-05 10
12.2764 24.0938 2.36579 4.77815e-05 10
12.7863 25.0945 3.45813 8.18127e-05 10
12.7778 25.0779 6.49792 7.53046e-05 10
12.7727 25.0678 7.53856 7.24055e-05 10
4.44594 8.80146 -2.64215 0.000194263 4
5.16284 10.2207 -2.64359 8.53035e-05 4
6.13411 12.1435 -2.64451 4.33657e-05 4
7.19954 14.2527 -2.52906 6.34538e-05 4
9.97363 19.7444 -2.71605 2.91168e-05 1
12.7268 25.1947 -2.46951 9.69075e-05 10
12.7168 25.175 -1.47814 9.79858e-05 10
12.7216 25.1846 1.4787 9.80188e-05 10
12.2188 24.1891 2.37094 4.77369e-05 10
12.7211 25.1834 3.46424 8.17259e-05 10
12.7204 25.182 6.51336 7.52206e-05 10
12.7171 25.1756 7.55757 7.23229e-05 10
4.41774 8.82201 -2.64367 0.000257884 4
5.12632 10.237 -2.64317 0.000132007 4
6.08536 12.1522 -2.64176 8.8947e-05 4
7.14646 14.2711 -2.52789 8.71646e-05 4
9.89295 19.7557 -2.71284 2.91119e-05 1
12.6675 25.2963 -2.47512 9.67945e-05 10
12.6568 25.2751 -1.48141 9.78723e-05 10
12.6583 25.2781 1.48159 9.79055e-05 10
12.1661 24.2951 2.37716 4.76871e-05 10
12.6597 25.2808 3.47154 8.16301e-05 10
12.6574 25.2763 6.52627 7.51283e-05 10
12.6491 25.2597 7.5695 7.22323e-05 10
4.38999 8.84358 -2.64553 0.000120562 4
5.09445 10.2627 -2.64519 0.000215257 4
6.04391 12.1754 -2.6422 4.78045e-05 4
7.10032 14.3035 -2.52922 0.000385334 4
9.8241 19.7905 -2.71289 2.91071e-05 1
12.6041 25.3908 -2.48005 9.66708e-05 10
12.5992 25.3809 -1.48503 9.7748e-05 10
12.593 25.3683 1.48429 9.77815e-05 10
12.0968 24.3689 2.38024 4.76321e-05 10
12.5988 25.3801 3.47912 8.15252e-05 10
12.5997 25.3818 6.54213 7.50277e-05 10
12.5964 25.3752 7.59092 7.21337e-05 10
4.35553 8.8516 -2.64336 0.000200923 4
5.05758 10.2784 -2.64466 9.13756e-05 4
5.99833 12.1902 -2.64086 3.33489e-05 4
7.06186 14.3516 -2.53335 0.000399337 4
9.75864 19.8322 -2.71392 2.91023e-05 1
12.5429 25.4905 -2.4855 9.65366e-05 10
12.5381 25.4808 -1.48831 9.76131e-05 10
12.5301 25.4645 -0.495381 9.81605e-05 10
12.5381 25.4808 0.495697 9.81718e-05 10
12.5366 25.4778 1.48813 9.76468e-05 10
12.0443 24.4772 2.38669 4.7572e-05 10
12.5275 25.4593 3.48396 8.14116e-05 10
12.5289 25.4621 4.49458 7.96409e-05 10
12.5293 25.4628 5.51622 7.74676e-05 10
12.5301 25.4645 6.55213 7.4919e-05 10
12.5355 25.4754 7.60775 7.20271e-05 10
4.33326 8.88449 -2.64865 0.000143985 4
5.02707 10.307 -2.64751 6.09124e-05 4
5.95976 12.2193 -2.64265 0.000122268 4
7.02947 14.4125 -2.53976 0.000359682 4
9.6972 19.8822 -2.71612 2.90974e-05 1
12.4788 25.5854 -2.49048 9.63919e-05 10
12.4744 25.5763 -1.49133 9.74676e-05 10
12.4669 25.5608 -0.496406 9.80147e-05 10
12.472 25.5713 0.496609 9.8026e-05 10
12.4677 25.5627 1.49053 9.75016e-05 10
11.9749 24.5521 2.38991 4.75068e-05 10
12.4661 25.5592 3.49166 8.1289e-05 10
12.473 25.5735 4.50654 7.95199e-05 10
12.4668 25.5608 5.52798 7.73484e-05 10
12.4681 25.5634 6.56633 7.4802e-05 10
12.4637 25.5544 7.6183 7.19127e-05 10
4.30122 8.89751 -2.64804 0.000170762 4
4.98899 10.3202 -2.64641 9.94826e-05 4
5.92285 12.252 -2.64523 6.11281e-05 4
6.9964 14.4728 -2.54605 0.000303876 4
9.61757 19.8949 -2.71325 2.90926e-05 1
12.415 25.6816 -2.49562 9.62368e-05 10
12.4158 25.6833 -1.49503 9.73116e-05 10
12.4088 25.6688 -0.497657 9.78583e-05 10
12.4144 25.6805 0.497884 9.78697e-05 10
12.4102 25.6717 1.49435 9.73457e-05 10
11.922 24.6617 2.39651 4.74365e-05 10
12.4074 25.6659 3.50029 8.11577e-05 10
12.4085 25.6683 4.51557 7.93902e-05 10
12.3998 25.6503 5.53794 7.72208e-05 10
12.4075 25.6662 6.58156 7.46769e-05 10
12.4007 25.652 7.63444 7.17906e-05 10
4.26365 8.89891 -2.64401 0.000220972 4
4.94502 10.321 -2.64218 7.71438e-05 4
6.9494 14.5045 -2.54736 0.000351241 4
9.55238 19.9373 -2.71447 2.90878e-05 1
12.3521 25.7808 -2.50105 9.60713e-05 10
12.3494 25.7752 -1.49786 9.71451e-05 10
12.3439 25.7637 -0.498659 9.76913e-05 10
12.3433 25.7625 0.498636 9.77028e-05 10
12.342 25.7597 1.49696 9.71795e-05 10
11.8577 24.7489 2.40095 4.7361e-05 10
12.3477 25.7717 3.50882 8.10176e-05 10
12.3459 25.768 4.5255 7.9252e-05 10
12.3366 25.7485 5.5498 7.70849e-05 10
12.3356 25.7463 6.59103 7.45438e-05 10
12.3383 25.752 7.65135 7.16606e-05 10
4.23752 8.92419 -2.64711 0.000174088 4
4.90709 10.3343 -2.64117 0.000121797 4
5.83702 12.2927 -2.64516 4.44484e-05 4
6.91277 14.5583 -2.55254 0.000381346 4
9.4865 19.9785 -2.71555 2.90829e-05 1
12.2792 25.8599 -2.50455 9.58954e-05 10
12.2883 25.8791 -1.5014 9.69682e-05 10
12.2787 25.8588 -0.499668 9.75138e-05 10
12.2799 25.8615 0.499719 9.75253e-05 10
12.2855 25.8732 1.50106 9.70027e-05 10
11.7965 24.8433 2.40609 4.72806e-05 10
12.2756 25.8524 3.51395 8.08688e-05 10
12.273 25.8468 4.53179 7.91053e-05 10
12.2804 25.8624 5.56508 7.69407e-05 10
12.2781 25.8576 6.60852 7.44026e-05 10
12.2812 25.8642 7.6719 7.15229e-05 10
4.19933 8.92402 -2.6427 0.000284548 4
4.87361 10.3569 -2.64259 0.000115698 4
5.78444 12.2926 -2.64076 0.00012111 4
6.8768 14.6139 -2.55808 0.000356492 4
9.41151 20.0005 -2.71405 2.9078e-05 1
12.2204 25.9697 -2.51104 9.57094e-05 10
12.2152 25.9587 -1.50353 9.6781e-05 10
12.2138 25.9557 -0.500714 9.7326e-05 10
12.2151 25.9584 0.500764 9.73376e-05 10
12.2181 25.9647 1.50388 9.68157e-05 10
11.7409 24.9507 2.41251 4.71951e-05 10
12.2162 25.9607 3.52286 8.07114e-05 10
12.2194 25.9674 4.54544 7.89502e-05 10
12.2157 25.9596 5.5768 7.67883e-05 10
12.2074 25.9419 6.61913 7.42535e-05 10
12.2072 25.9417 7.68219 7.13775e-05 10
4.17745 8.95858 -2.6486 9.03801e-05 4
4.84229 10.3843 -2.64525 7.1037e-05 4
5.74871 12.3281 -2.64408 3.9996e-05 4
6.84371 14.6764 -2.56481 0.000356285 4
9.34892 20.0488 -2.71617 2.90732e-05 1
12.1591 26.0752 -2.51712 9.55132e-05 10
12.1596 26.0763 -1.50788 9.65834e-05 10
12.1492 26.054 -0.501788 9.71279e-05 10
12.1502 26.0561 0.501828 9.71395e-05 10
12.1475 26.0504 1.50638 9.66183e-05 10
11.6746 25.0362 2.41682 4.71047e-05 10
12.1563 26.0692 3.53179 8.05455e-05 10
12.1479 26.0512 4.55266 7.87865e-05 10
12.1441 26.0431 5.58559 7.66277e-05 10
12.1523 26.0607 6.63858 7.40964e-05 10
12.1454 26.0459 7.70045 7.12245e-05 10
4.13746 8.95428 -2.64304 0.000180748 4
4.80349 10.3957 -2.64386 0.000144092 4
6.81185 14.7422 -2.57214 0.000297141 4
9.27497 20.0729 -2.71502 2.90683e-05 1
12.0861 26.1567 -2.52089 9.5307e-05 10
12.0897 26.1645 -1.51053 9.63757e-05 10
12.0921 26.1697 -0.503201 9.69194e-05 10
12.0867 26.158 0.502975 9.69312e-05 10
12.0837 26.1514 1.50977 9.64108e-05 10
11.6132 25.1332 2.42225 4.70093e-05 10
12.0838 26.1517 3.53724 8.03709e-05 10
12.0869 26.1584 4.56399 7.86146e-05 10
12.0825 26.1489 5.59921 7.6459e-05 10
12.0864 26.1574 6.65241 7.39315e-05 10
12.0884 26.1616 7.72214 7.10639e-05 10
4.11224 8.98192 -2.64694 0.0002209 4
4.77329 10.4258 -2.64725 5.68208e-05 4
6.76358 14.7729 -2.57337 0.000286715 4
9.20587 20.1074 -2.71533 2.90634e-05 1
12.0262 26.2675 -2.52751 9.50906e-05 10
12.0275 26.2705 -1.51421 9.61578e-05 10
12.025 26.2649 -0.504221 9.67008e-05 10
12.0243 26.2633 0.504189 9.67126e-05 10
12.0238 26.2623 1.51374 9.61931e-05 10
11.5465 25.2198 2.4267 4.6909e-05 10
12.0227 26.2599 3.54618 8.01879e-05 10
12.0163 26.246 4.57192 7.84344e-05 10
12.0223 26.259 5.61376 7.62822e-05 10
12.021 26.2562 6.66683 7.37587e-05 10
12.0236 26.2618 7.73926 7.08957e-05 10
4.08437 9.00395 -2.64922 0.000317942 4
4.73406 10.4362 -2.64568 7.30496e-05 4
5.62237 12.3944 -2.64552 3.22098e-05 4
6.72736 14.8304 -2.57927 0.00028432 4
9.13823 20.1451 -2.7161 2.90585e-05 1
11.9627 26.3717 -2.53351 9.48644e-05 10
11.9615 26.3689 -1.51747 9.59299e-05 10
11.9534 26.3512 -0.505073 9.64721e-05 10
11.9628 26.3719 0.50547 9.64839e-05 10
11.9587 26.3629 1.51712 9.59654e-05 10
11.4845 25.3174 2.43223 4.68039e-05 10
11.9561 26.357 3.55363 7.99966e-05 10
11.9575 26.3601 4.58451 7.8246e-05 10
11.9528 26.3497 5.6242 7.60974e-05 10
11.9538 26.352 6.68052 7.35782e-05 10
11.9531 26.3506 7.75309 7.07202e-05 10
4.04287 8.99578 -2.64265 0.000177366 4
4.70055 10.4592 -2.64734 0.000131885 4
5.57478 12.4044 -2.64349 6.88558e-05 4
6.69149 14.8892 -2.58543 0.000247991 4
9.06619 20.1732 -2.7156 2.90536e-05 1
11.8905 26.4576 -2.53775 9.46282e-05 10
11.8907 26.4579 -1.5202 9.5692e-05 10
11.8922 26.4613 -0.506385 9.62334e-05 10
11.8896 26.4555 0.506273 9.62453e-05 10
11.893 26.4631 1.52049 9.57276e-05 10
11.4202 25.411 2.43737 4.66939e-05 10
11.8908 26.4583 3.56167 7.97969e-05 10
11.8872 26.4501 4.59291 7.80494e-05 10
11.891 26.4586 5.63855 7.59047e-05 10
11.8935 26.4641 6.69838 7.339e-05 10
11.8894 26.4552 7.77161 7.05372e-05 10
4.01998 9.02902 -2.64827 7.69652e-05 4
4.66268 10.4726 -2.64659 5.68075e-05 4
5.5366 12.4354 -2.64595 2.99827e-05 4
6.66232 14.9638 -2.59433 0.000411535 4
8.99306 20.1987 -2.7148 2.90487e-05 1
11.8322 26.5756 -2.5451 9.43823e-05 10
11.8342 26.5801 -1.52483 9.54441e-05 10
11.8267 26.5631 -0.50754 9.59846e-05 10
11.8312 26.5734 0.507736 9.59966e-05 10
11.8273 26.5646 1.52395 9.54799e-05 10
11.3593 25.5134 2.44337 4.65791e-05 10
11.8274 26.5648 3.57043 7.95889e-05 10
11.8239 26.5568 4.60425 7.78448e-05 10
11.8218 26.5522 5.64966 7.5704e-05 10
11.8177 26.543 6.70785 7.31942e-05 10
11.822 26.5527 7.78808 7.03469e-05 10
3.97988 9.02358 -2.64259 0.000194073 4
4.62544 10.4873 -2.64621 3.24589e-05 4
6.61359 14.995 -2.59571 0.000369522 4
8.92219 20.2293 -2.71471 2.90438e-05 1
11.759 26.6613 -2.54936 9.41265e-05 10
11.7659 26.6769 -1.52802 9.51864e-05 10
11.7579 26.6586 -0.508578 9.57259e-05 10
11.7625 26.6692 0.508779 9.57379e-05 10
11.7665 26.6783 1.5281 9.52224e-05 10
11.3005 25.6216 2.44994 4.64595e-05 10
11.756 26.6544 3.57693 7.93727e-05 10
11.7576 26.6581 4.61466 7.7632e-05 10
11.7607 26.6651 5.66492 7.54956e-05 10
11.7526 26.6468 6.72368 7.29907e-05 10
11.7588 26.6607 7.80768 7.01493e-05 10
3.95386 9.05004 -2.64628 0.000257632 4
4.58796 10.5014 -2.64572 5.07131e-05 4
5.44051 12.4528 -2.64152 7.66078e-05 4
6.57769 15.0557 -2.60224 0.000251855 4
8.85054 20.2581 -2.71441 2.90389e-05 1
11.7017 26.7842 -2.55719 9.38612e-05 10
11.7008 26.782 -1.53169 9.4919e-05 10
11.6962 26.7716 -0.509951 9.54575e-05 10
11.6957 26.7705 0.509929 9.54696e-05 10
11.6966 26.7724 1.53114 9.49552e-05 10
11.2287 25.7015 2.45382 4.63352e-05 10
11.6894 26.7561 3.58508 7.91483e-05 10
11.6882 26.7533 4.62405 7.74113e-05 10
11.6974 26.7744 5.67942 7.52793e-05 10
11.6928 26.7638 6.74286 7.27799e-05 10
11.6907 26.7589 7.82444 6.99444e-05 10
3.91856 9.05524 -2.64378 0.000127135 4
4.55327 10.522 -2.64689 0.000137929 4
6.53924 15.1113 -2.60788 0.000345497 4
8.7863 20.3039 -2.71642 2.9034e-05 1
11.6285 26.8719 -2.56168 0.000100326 10
11.6255 26.865 -1.53411 0.000101459 10
11.6358 26.8887 -0.511404 0.000102038 10
11.6262 26.8665 0.510982 0.000102053 10
11.6325 26.8811 1.53503 0.000101504 10
11.17 25.8124 2.46067 4.62062e-05 10
12.8784 29.7603 6.30322 6.01904e-05 10
11.8502 27.3841 6.88868 3.28988e-05 10
3.88889 9.07347 -2.64513 0.000250907 4
4.51367 10.5312 -2.64522 0.0001582 4
5.35811 12.5014 -2.64382 6.21626e-05 4
6.5067 15.1813 -2.61602 0.000324971 4
8.71887 20.3427 -2.71752 2.90291e-05 1
11.5726 27.001 -2.57011 9.98779e-05 10
11.5664 26.9864 -1.53873 0.000101008 10
11.5627 26.9779 -0.51233 0.000101584 10
11.5624 26.977 0.512313 0.000101599 10
11.5635 26.9797 1.53835 0.000101053 10
11.1033 25.9059 2.46588 4.60725e-05 10
12.8158 29.9015 6.32363 5.9981e-05 10
11.7568 27.4307 6.89004 3.29022e-05 10
3.85737 9.08739 -2.64524 0.000100356 4
4.47711 10.5474 -2.64535 7.09816e-05 4
5.3146 12.5204 -2.6439 7.43659e-05 4
6.46218 15.2239 -2.61947 0.000354311 4
8.64137 20.3578 -2.71549 2.90241e-05 1
11.4982 27.0879 -2.57455 9.94213e-05 10
11.5039 27.1014 -1.54299 0.000100547 10
11.4987 27.0892 -0.513679 0.000101121 10
11.4975 27.0864 0.513625 0.000101136 10
11.4989 27.0897 1.54232 0.000100592 10
11.0424 26.0142 2.4725 4.59342e-05 10
12.7362 30.0047 6.336 5.97654e-05 10
11.6523 27.451 6.88488 3.29055e-05 10
3.82451 9.09815 -2.64447 0.000170594 4
5.2717 12.5409 -2.64432 6.65899e-05 4
6.42689 15.289 -2.62678 0.000292221 4
8.56935 20.3857 -2.7152 2.90192e-05 1
11.4335 27.1993 -2.58133 9.89555e-05 10
11.4331 27.1983 -1.54622 0.000100077 10
11.4363 27.206 -0.515134 0.000100649 10
11.437 27.2075 0.515161 0.000100664 10
11.44 27.2148 1.54715 0.000100122 10
10.9726 26.1027 2.47725 4.57913e-05 10
12.6566 30.109 6.34865 5.95438e-05 10
11.5573 27.4937 6.88543 3.29088e-05 10
3.79063 9.10641 -2.64301 0.000127101 4
4.40231 10.5759 -2.64472 9.12477e-05 4
5.22411 12.5501 -2.6424 3.88404e-05 4
6.39042 15.352 -2.63376 0.0003042 4
8.50759 20.4382 -2.71822 2.90143e-05 1
11.3768 27.3311 -2.59005 9.84809e-05 10
11.3745 27.3254 -1.55118 9.95982e-05 10
11.3777 27.3333 -0.516788 0.000100168 10
11.3684 27.3108 0.516363 0.000100183 10
11.367 27.3074 1.55015 9.96437e-05 10
10.9152 26.2221 2.48496 4.56439e-05 10
12.5834 30.2297 6.36481 5.93161e-05 10
11.4642 27.5411 6.88722 3.29121e-05 10
3.76147 9.12599 -2.64487 0.000227429 4
4.37166 10.6064 -2.64853 6.28546e-05 4
5.18774 12.5864 -2.64621 8.54406e-05 4
6.34885 15.4035 -2.63877 0.000388266 4
8.43279 20.4595 -2.71713 2.90093e-05 1
11.3042 27.4259 -2.59528 9.79975e-05 10
11.3048 27.4274 -1.55472 9.91105e-05 10
11.3093 27.4385 -0.518028 9.96782e-05 10
11.3017 27.4201 0.51768 9.96935e-05 10
11.303 27.4232 1.55448 9.9156e-05 10
10.8422 26.3052 2.48923 4.85526e-05 10
12.5051 30.3395 6.37871 5.90825e-05 10
11.3676 27.5798 6.88694 3.29154e-05 10
3.73075 9.14193 -2.6457 0.00017056 4
4.32641 10.6015 -2.64352 0.000119617 4
5.14215 12.6005 -2.64538 4.88185e-05 4
6.30928 15.4604 -2.64474 0.00036083 4
8.36627 20.5009 -2.71873 2.90044e-05 1
11.2419 27.5473 -2.60304 9.75055e-05 10
11.2381 27.5382 -1.55876 9.86139e-05 10
11.24 27.5427 -0.519251 9.91794e-05 10
11.2372 27.536 0.519125 9.91947e-05 10
11.2435 27.5514 1.55951 9.86595e-05 10
10.7874 26.4336 2.4978 4.83198e-05 10
12.4289 30.4562 6.39407 5.88431e-05 10
11.2712 27.6193 6.88695 3.29187e-05 10
3.69841 9.15387 -2.6454 0.00026084 4
4.29411 10.6283 -2.64644 7.09536e-05 4
5.09086 12.6003 -2.64161 4.6595e-05 4
6.26462 15.5055 -2.64869 0.000288853 4
8.28617 20.509 -2.71595 2.89994e-05 1
11.1754 27.66 -2.60999 9.70049e-05 10
11.1714 27.6501 -1.56288 9.81087e-05 10
11.1794 27.67 -0.520913 9.8672e-05 10
11.1696 27.6457 0.520454 9.86873e-05 10
11.1688 27.6437 1.56252 9.81545e-05 10
10.7168 26.525 2.50289 4.80827e-05 10
12.3523 30.573 6.4095 5.85978e-05 10
11.175 27.659 6.88707 3.29221e-05 10
3.66915 9.17352 -2.64736 0.000150474 4
4.25343 10.6343 -2.64423 0.000141896 4
5.0515 12.6296 -2.64404 0.000123132 4
6.23377 15.5855 -2.65864 0.00032371 4
8.21383 20.536 -2.71572 2.89944e-05 1
11.1018 27.7565 -2.61542 8.79239e-05 10
11.103 27.7596 -1.56687 8.89227e-05 10
11.1007 27.7537 -0.521755 8.94311e-05 10
11.1015 27.7558 0.521795 8.94424e-05 10
11.1012 27.755 1.56661 8.89566e-05 10
10.6552 26.6399 2.5102 4.78414e-05 10
12.2803 30.703 6.42773 5.83467e-05 10
11.0977 27.7462 6.8991 7.95084e-05 10
3.63373 9.17775 -2.64491 0.00013709 4
4.22315 10.6665 -2.64854 8.1077e-05 4
5.00327 12.6368 -2.64187 5.98962e-05 4
6.19135 15.6376 -2.66381 0.000323012 4
8.1523 20.5903 -2.71912 2.89895e-05 1
11.035 27.8712 -2.62258 8.76286e-05 10
11.0322 27.8643 -1.5706 8.86249e-05 10
11.0362 27.8744 -0.523297 8.91321e-05 10
11.035 27.8712 0.523237 8.91434e-05 10
11.0359 27.8734 1.57111 8.86589e-05 10
10.5914 26.7508 2.51716 4.7596e-05 10
12.2017 30.8179 6.44283 5.809e-05 10
11.0339 27.8684 6.91986 7.92353e-05 10
3.60762 9.20557 -2.64928 0.000220666 4
4.17723 10.659 -2.64305 7.29635e-05 4
4.968 12.6769 -2.6466 5.54541e-05 4
6.14873 15.6897 -2.66902 0.000363711 4
8.07143 20.5959 -2.71611 2.89845e-05 1
10.9666 27.9834 -2.62952 8.73244e-05 10
10.9684 27.9881 -1.57541 8.83182e-05 10
10.9609 27.969 -0.524351 8.88241e-05 10
10.9633 27.975 0.524464 8.88355e-05 10
10.9569 27.9588 1.57376 8.83523e-05 10
10.5267 26.861 2.52405 4.73465e-05 10
12.13 30.9521 6.46199 5.78277e-05 10
10.9548 27.9532 6.93139 7.89543e-05 10
3.57319 9.21223 -2.64759 0.000183876 4
4.14646 10.6902 -2.64718 0.000158075 4
4.9211 12.6874 -2.64519 6.09936e-05 4
6.10614 15.7426 -2.67437 0.000269057 4
8.00707 20.6435 -2.71869 2.89795e-05 1
10.8975 28.0954 -2.63645 8.70116e-05 10
10.8868 28.0678 -1.57775 8.80028e-05 10
10.8901 28.0762 -0.525646 8.85074e-05 10
10.8905 28.0774 0.525668 8.85188e-05 10
10.8956 28.0905 1.57903 8.80371e-05 10
10.4597 26.9668 2.53055 4.7093e-05 10
12.0439 31.051 6.47382 5.75598e-05 10
10.8903 28.0768 6.95257 7.86655e-05 10
3.53987 9.22167 -2.64673 0.000103632 4
4.11195 10.712 -2.649 0.000117534 4
4.87161 12.691 -2.64238 5.76611e-05 4
6.06276 15.794 -2.6795 0.000273262 4
7.93307 20.6663 -2.71804 2.89745e-05 1
10.8198 28.1865 -2.64144 8.66903e-05 10
10.8256 28.2017 -1.58314 8.76787e-05 10
10.8205 28.1883 -0.527034 8.81819e-05 10
10.8159 28.1764 0.52681 8.81934e-05 10
10.8178 28.1814 1.582 8.77131e-05 10
10.4013 27.0963 2.53927 4.68355e-05 10
11.9676 31.1768 6.4913 5.72865e-05 10
10.8159 28.1765 6.96786 7.83689e-05 10
3.50838 9.23586 -2.64728 0.000137053 4
4.06464 10.7002 -2.64257 9.52352e-05 4
4.83162 12.7193 -2.64476 4.21328e-05 4
6.03039 15.8751 -2.68967 0.000272867 4
7.85505 20.6785 -2.71602 2.89695e-05 1
10.744 28.2839 -2.64704 8.63606e-05 10
10.7509 28.302 -1.58666 8.73461e-05 10
10.7423 28.2793 -0.52803 8.78479e-05 10
10.7441 28.2842 0.528121 8.78595e-05 10
10.7509 28.3019 1.58665 8.73806e-05 10
10.3253 27.1816 2.54388 4.26585e-05 10
11.8939 31.311 6.51057 5.70078e-05 10
10.7395 28.2719 6.98213 7.80646e-05 10
3.47804 9.25317 -2.64874 0.000100276 4
4.02945 10.7202 -2.644 5.87575e-05 4
5.98961 15.9351 -2.69627 0.0002525 4
7.78454 20.7104 -2.71662 2.89646e-05 1
10.6689 28.3842 -2.65293 7.56193e-05 10
10.6681 28.3819 -1.58903 7.64802e-05 10
10.6733 28.3959 -0.52951 7.69172e-05 10
10.6744 28.3989 0.529565 7.69246e-05 10
10.6744 28.3989 1.58999 7.65023e-05 10
10.263 27.3043 2.55199 4.24977e-05 10
11.8094 31.4184 6.5243 5.67238e-05 10
10.6678 28.3811 6.99988 6.83279e-05 10
3.44695 9.26856 -2.64969 0.000254015 4
3.99775 10.7496 -2.64781 7.90124e-05 4
4.74505 12.7591 -2.64607 7.9815e-05 4
5.94428 15.9837 -2.70096 0.000193006 4
7.71642 20.7488 -2.71811 2.89595e-05 1
10.5988 28.4992 -2.6602 7.55027e-05 10
10.5918 28.4805 -1.59248 7.63629e-05 10
10.5907 28.4775 -0.530339 7.67997e-05 10
10.5989 28.4995 0.530749 7.68071e-05 10
10.5956 28.4908 1.59305 7.63852e-05 10
10.1939 27.4107 2.55859 4.23327e-05 10
11.7352 31.555 5.33225 5.81162e-05 10
11.7325 31.5477 6.54258 5.64346e-05 10
10.5953 28.4899 7.01754 6.82181e-05 10
3.4061 9.2575 -2.64311 8.021e-05 4
3.95662 10.7538 -2.64542 3.44385e-05 4
4.69873 12.7708 -2.64508 6.31807e-05 4
5.907 16.0547 -2.70947 0.000134642 4
7.64052 20.7663 -2.71689 2.89545e-05 1
10.5151 28.5792 -2.66422 7.53778e-05 10
10.5148 28.5783 -1.59588 7.62373e-05 10
10.5204 28.5937 -0.531815 7.66736e-05 10
10.5188 28.5892 0.53173 7.66811e-05 10
10.52 28.5926 1.59668 7.62597e-05 10
10.1172 27.4977 2.56341 4.21639e-05 10
11.6542 31.6753 5.34567 5.78147e-05 10
11.6571 31.683 6.56218 5.61401e-05 10
10.5161 28.5819 7.03112 6.81006e-05 10
3.37988 9.28616 -2.64791 0.000441125 4
3.91643 10.7603 -2.64365 4.25383e-05 4
4.65518 12.79 -2.64568 3.21414e-05 4
5.86411 16.1115 -2.71558 0.000262308 4
7.57562 20.8138 -2.71963 2.89495e-05 1
10.4459 28.6999 -2.67206 7.52445e-05 10
10.4417 28.6884 -1.59999 7.61032e-05 10
10.4449 28.6972 -0.533059 7.65392e-05 10
10.4396 28.6826 0.532788 7.65467e-05 10
10.438 28.6782 1.59942 7.61258e-05 10
11.5745 31.8007 5.35998 5.75078e-05 10
11.5736 31.7983 6.57765 5.58406e-05 10
10.438 28.6782 7.0458 6.79757e-05 10
3.34819 9.29995 -2.64849 0.000294064 4
3.87968 10.7762 -2.64421 7.2917e-05 4
4.61231 12.8112 -2.64671 5.76273e-05 4
5.82176 16.1705 -2.72209 7.9057e-05 1
7.50376 20.8425 -2.71994 2.89445e-05 1
10.361 28.7788 -2.67603 7.5103e-05 10
10.365 28.7899 -1.60362 7.59608e-05 10
10.3619 28.7812 -0.533945 7.63964e-05 10
10.3577 28.7697 0.53373 7.6404e-05 10
10.3609 28.7786 1.60299 7.59835e-05 10
11.4913 31.9182 5.373 5.71958e-05 10
11.4913 31.9182 6.5941 5.55361e-05 10
10.3604 28.7771 7.06117 6.78432e-05 10
3.3133 9.30483 -2.64657 0.00019046 4
3.84586 10.8004 -2.64684 9.92402e-05 4
4.56723 12.8263 -2.64652 6.87027e-05 4
5.76342 16.1856 -2.72122 7.9047e-05 1
7.42241 20.8446 -2.71681 2.89395e-05 1
10.2796 28.8686 -2.68102 7.49533e-05 10
10.2847 28.8828 -1.60679 7.58101e-05 10
10.2855 28.8851 -0.535203 7.62453e-05 10
10.2786 28.8657 0.534842 7.62529e-05 10
10.286 28.8864 1.60698 7.5833e-05 10
11.4114 32.0468 5.3879 5.68787e-05 10
11.4152 32.0576 6.61464 5.52266e-05 10
10.2752 28.8561 7.0717 6.77034e-05 10
3.2799 9.31377 -2.64584 0.000240565 4
3.80344 10.8005 -2.64358 6.27796e-05 4
4.52049 12.8366 -2.64539 9.8612e-05 4
5.70542 16.2014 -2.72051 7.9037e-05 1
7.3553 20.8865 -2.71891 2.89345e-05 1
10.2019 28.9698 -2.6871 6.25748e-05 10
10.1957 28.9524 -1.60867 6.32876e-05 10
10.1975 28.9574 -0.53588 6.36481e-05 10
10.2015 28.9687 0.536089 6.36517e-05 10
10.2001 28.9648 1.60936 6.32982e-05 10
11.327 32.1648 5.40106 5.65567e-05 10
11.3295 32.1718 6.63001 5.49123e-05 10
10.2003 28.9653 7.08969 5.64951e-05 10
3.25054 9.33427 -2.64843 0.000253913 4
3.76845 10.8215 -2.6455 0.000115424 4
4.47856 12.8607 -2.6471 6.53656e-05 4
5.65203 16.2304 -2.72206 7.9027e-05 1
7.27809 20.8998 -2.71733 2.89294e-05 1
10.114 29.0434 -2.69063 6.26313e-05 10
10.115 29.0465 -1.61192 6.33453e-05 10
10.113 29.0407 -0.536764 6.37065e-05 10
10.116 29.0491 0.536918 6.37101e-05 10
10.1162 29.0499 1.61211 6.33561e-05 10
11.2491 32.3031 5.41765 5.62297e-05 10
11.2451 32.2916 6.64656 5.45932e-05 10
10.1137 29.0427 7.09997 5.65431e-05 10
3.21366 9.33313 -2.6449 0.000297325 4
3.73207 10.8387 -2.6465 9.51667e-05 4
5.59746 16.2562 -2.72309 7.9017e-05 1
7.21109 20.9425 -2.71959 2.89244e-05 1
10.0298 29.1285 -2.69526 6.26803e-05 10
10.0335 29.1393 -1.61512 6.33953e-05 10
10.0345 29.1422 -0.537989 6.3757e-05 10
10.0328 29.1373 0.537899 6.37607e-05 10
10.0303 29.1301 1.61461 6.34063e-05 10
11.1628 32.419 5.43053 5.58979e-05 10
11.1625 32.4182 6.66454 5.42695e-05 10
10.0242 29.1124 7.1084 5.65843e-05 10
3.18064 9.34305 -2.64455 9.01936e-05 4
3.69155 10.8438 -2.64459 7.49124e-05 4
5.53962 16.2725 -2.72256 7.9007e-05 1
7.13865 20.9696 -2.71985 2.89194e-05 1
9.95277 29.236 -2.70198 6.27216e-05 10
9.95229 29.2346 -1.61847 6.34376e-05 10
9.95213 29.2342 -0.539043 6.37999e-05 10
9.94569 29.2153 0.538694 6.38036e-05 10
9.94922 29.2256 1.61797 6.34488e-05 10
11.0791 32.5445 5.44504 5.55613e-05 10
11.0837 32.5582 6.68534 5.39411e-05 10
9.94813 29.2224 7.12674 5.66185e-05 10
3.15188 9.36561 -2.64781 0.000156993 4
3.66016 10.876 -2.64929 4.25144e-05 4
4.34036 12.8971 -2.64511 7.75295e-05 4
5.47591 16.2713 -2.71915 7.8997e-05 1
7.05884 20.9749 -2.71733 2.89143e-05 1
9.86428 29.3111 -2.70571 4.87862e-05 10
9.86739 29.3204 -1.6213 4.93405e-05 10
9.85878 29.2948 -0.539522 4.96195e-05 10
9.86163 29.3032 0.539678 4.96195e-05 10
9.86337 29.3084 1.62064 4.93404e-05 10
10.9954 32.6722 5.45995 5.522e-05 10
10.9971 32.6773 6.70187 5.36081e-05 10
9.86402 29.3104 7.13975 5.6646e-05 10
3.12175 9.38431 -2.65 0.000110222 4
3.62278 10.8905 -2.64973 6.88274e-05 4
4.29349 12.9067 -2.64398 4.31907e-05 4
5.42495 16.308 -2.7221 7.89869e-05 1
9.77014 29.3701 -2.708 4.90053e-05 10
9.77544 29.386 -1.62303 4.95624e-05 10
9.77608 29.3879 -0.540607 4.98429e-05 10
9.77697 29.3906 0.540655 4.9843e-05 10
9.768 29.3637 1.6218 4.95626e-05 10
10.9158 32.8141 6.72207 5.32708e-05 10
9.77353 29.3803 7.14843 4.42087e-05 10
3.0864 9.38735 -2.6478 9.3515e-05 4
3.57724 10.8802 -2.64418 6.88218e-05 4
5.36556 16.3194 -2.72086 7.89769e-05 1
6.43778 19.5806 -2.53081 3.09933e-05 4
9.68148 29.4464 -2.7119 4.92181e-05 10
9.68027 29.4427 -1.62429 4.97779e-05 10
9.67967 29.4409 -0.540956 5.00599e-05 10
9.68435 29.4551 0.541217 5.00599e-05 10
9.68181 29.4474 1.62455 4.97783e-05 10
10.8294 32.9377 6.73961 5.29291e-05 10
9.68187 29.4476 7.15653 4.4399e-05 10
3.04861 9.38266 -2.64345 0.000126905 4
3.5415 10.8996 -2.64587 0.00012144 4
4.20511 12.942 -2.64513 3.43243e-05 4
5.31351 16.3533 -2.7234 7.89669e-05 1
6.37075 19.6071 -2.53135 3.03287e-05 4
9.59064 29.5169 -1.62652 4.99869e-05 10
9.59592 29.5332 -0.542033 5.02702e-05 10
9.59314 29.5246 0.541875 5.02703e-05 10
9.59505 29.5305 1.62727 4.99874e-05 10
10.7456 33.0715 6.75927 5.25831e-05 10
9.59145 29.5194 7.16582 4.45834e-05 10
3.01586 9.39331 -2.64347 0.000176986 4
3.50876 10.9285 -2.6499 0.00018417 4
5.17644 16.1227 -2.68198 8.09275e-05 4
9.50744 29.6122 -1.62994 5.01894e-05 10
9.50253 29.5969 -0.54259 5.0474e-05 10
9.50224 29.596 0.542573 5.04742e-05 10
9.50159 29.594 1.62893 5.01901e-05 10
10.6605 33.2035 6.77859 5.22329e-05 10
9.49816 29.5833 7.17323 4.4762e-05 10
2.98378 9.40608 -2.64412 0.000166957 4
3.46666 10.9283 -2.64689 0.000107255 4
4.11868 12.9837 -2.64772 2.98895e-05 4
9.41441 29.678 -1.63174 3.60362e-05 10
9.40699 29.6546 -0.543042 3.62376e-05 10
9.41103 29.6673 0.543275 3.62349e-05 10
9.41144 29.6686 1.63122 3.60279e-05 10
10.5744 33.3346 6.79779 5.18786e-05 10
9.41208 29.6706 7.18639 3.21167e-05 10
2.95416 9.42674 -2.64701 8.34728e-05 4
3.43139 10.9496 -2.64913 0.000163905 4
4.06706 12.978 -2.64364 2.98865e-05 4
6.1627 19.6652 -2.53037 2.87755e-05 4
9.31601 29.7274 -1.63266 3.63717e-05 10
9.31047 29.7097 -0.543453 3.65752e-05 10
9.31835 29.7348 0.543913 3.65725e-05 10
9.31159 29.7133 1.63188 3.63636e-05 10
10.4907 33.4759 6.81909 5.15203e-05 10
9.31528 29.725 7.19166 3.24151e-05 10
2.92557 9.45098 -2.65094 0.000133547 4
3.38794 10.9447 -2.64507 9.50975e-05 4
4.93511 15.9428 -2.6433 9.63086e-05 4
6.09881 19.7021 -2.53236 3.18452e-05 4
9.22351 29.7963 -1.63466 3.67023e-05 10
9.2208 29.7876 -0.544286 3.69079e-05 10
9.22175 29.7906 0.544341 3.69052e-05 10
9.21748 29.7769 1.6336 3.66944e-05 10
10.4057 33.6153 6.84005 5.1158e-05 10
9.21653 29.7738 7.19562 3.27091e-05 10
2.89053 9.45447 -2.64907 8.67998e-05 4
3.35219 10.9645 -2.64702 8.09275e-05 4
3.97649 13.0065 -2.64373 4.98009e-05 4
4.87912 15.9589 -2.64313 8.90092e-05 4
6.02754 19.7152 -2.53133 2.94243e-05 4
9.12539 29.8478 -1.63573 3.70279e-05 10
9.12834 29.8574 -0.544976 3.72354e-05 10
9.12105 29.8336 0.544541 3.72328e-05 10
