VERSION 0.7
FIELDS x y z intensity label
SIZE 4 4 4 4 4
TYPE F F F F F
COUNT 1 1 1 1 1
WIDTH 1167
HEIGHT 1
VIEWPOINT 8.08435 5.11271 2.72726 0.999992 -2.94538e-05 0.00102899 -0.00390066
POINTS 1167
DATA ascii
9.18601 -21.026 -1.2025 0.000305628 10
9.18766 -21.0297 -0.400579 0.000307197 10
9.19311 -21.0422 0.400816 0.000307194 10
9.14984 -20.9432 1.19776 0.000156585 10
9.14472 -20.9314 1.9984 0.000155106 10
9.14779 -20.9385 2.80557 0.000152849 10
9.14074 -20.9223 3.61622 0.00014984 10
9.13747 -20.9148 4.43649 0.000146116 10
9.13372 -20.9063 5.26712 0.000141719 10
9.13405 -20.907 6.11332 0.000136701 10
4.06377 -9.2138 -2.6983 0.000627366 4
4.57069 -10.3632 -2.61489 0.00109392 4
5.45146 -12.3601 -2.62587 0.00054024 4
6.42946 -14.5775 -2.52345 6.91484e-05 4
8.90614 -20.1929 -2.70982 2.93116e-05 1
9.15425 -20.7555 -1.98464 0.000205044 10
9.15667 -20.761 -1.18916 0.000316487 10
9.15872 -20.7656 -0.396154 0.000318106 10
9.15808 -20.7642 0.396126 0.000318103 10
9.14328 -20.7306 1.18742 0.000162014 10
9.14254 -20.7289 1.9821 0.000160486 10
9.14186 -20.7274 2.78154 0.000158155 10
9.14433 -20.733 3.58899 0.000155049 10
9.1362 -20.7145 4.40074 0.000151202 10
9.13133 -20.7035 5.22403 0.000146662 10
9.13007 -20.7006 6.06226 0.00014148 10
4.10899 -9.22895 -2.70691 0.000525249 4
4.57434 -10.2741 -2.59645 0.000760506 4
5.46106 -12.2658 -2.60985 0.000583025 4
6.48615 -14.5681 -2.52573 7.45253e-05 4
8.97665 -20.1619 -2.70985 2.93181e-05 1
9.1458 -20.5418 -1.96725 0.00021208 10
9.15048 -20.5523 -1.17903 0.00014163 10
9.14413 -20.5381 -0.39242 0.000142461 10
9.14867 -20.5483 0.392614 0.000142568 10
9.14058 -20.5301 1.17776 0.000167563 10
9.14703 -20.5446 1.96752 0.000165986 10
9.1355 -20.5187 2.7578 0.00016358 10
9.13352 -20.5142 3.55662 0.000160373 10
9.13551 -20.5187 4.36588 0.000156403 10
9.13314 -20.5134 5.18407 0.000151716 10
9.13219 -20.5113 6.01609 0.000146367 10
4.15643 -9.24847 -2.71688 0.000485462 4
4.58497 -10.202 -2.58225 0.000869165 4
5.47324 -12.1785 -2.59534 0.000403539 4
6.5293 -14.5283 -2.52276 6.91706e-05 4
9.04422 -20.1243 -2.70902 2.93247e-05 1
9.14782 -20.3548 -1.95239 0.00021927 10
9.20829 -20.4894 -1.17726 0.000325747 10
9.21188 -20.4974 -0.392254 0.000327409 10
9.20921 -20.4914 0.39214 0.000327406 10
9.1383 -20.3336 1.16831 0.000173235 10
9.14069 -20.339 1.95087 0.000171607 10
8.77808 -19.5321 2.62931 0.00019242 10
8.76597 -19.5052 3.38696 0.000188697 10
9.14101 -20.3397 4.33455 0.000161718 10
9.13614 -20.3288 5.14547 0.000156882 10
8.76187 -19.4961 5.72726 0.00017243 10
4.19697 -9.25216 -2.72225 0.000514827 1
4.58875 -10.1158 -2.56447 0.0011469 4
5.48038 -12.0814 -2.57872 0.000508774 4
6.59046 -14.5286 -2.52678 4.65187e-05 4
9.11908 -20.1029 -2.71041 2.93313e-05 1
9.14839 -20.1675 -1.93748 0.000226616 10
9.17741 -20.2315 -1.16428 0.000337526 10
9.17864 -20.2342 -0.387829 0.000339242 10
9.17161 -20.2187 0.387532 0.000339239 10
9.13486 -20.1377 1.15888 0.00017903 10
9.14477 -20.1595 1.93671 0.00017735 10
8.85373 -19.5179 2.63154 0.000435262 10
8.84776 -19.5048 3.39224 0.000426514 10
9.12849 -20.1236 4.29528 0.000167149 10
9.13029 -20.1276 5.10257 0.00016216 10
8.77001 -19.3334 5.68844 0.000178177 10
4.21965 -9.21651 -2.71608 0.000514872 1
4.58994 -10.0253 -2.54557 0.00113405 4
5.48979 -11.9908 -2.56343 0.000588657 4
6.63979 -14.5026 -2.52627 4.59297e-05 4
9.14608 -19.9768 -2.69769 0.000230402 10
9.14024 -19.964 -1.92098 0.000234119 10
9.1464 -19.9775 -1.15149 0.00023668 10
9.14719 -19.9792 -0.383551 0.000238056 10
9.14367 -19.9715 0.383403 0.00023823 10
9.14044 -19.9645 1.15074 0.000184947 10
9.13997 -19.9634 1.92092 0.000183215 10
8.92962 -19.504 2.63385 0.000432467 10
8.92512 -19.4942 3.39579 0.000423772 10
9.13387 -19.9501 4.26502 0.000172696 10
9.12898 -19.9394 5.06291 0.000167552 10
8.75843 -19.1301 5.63757 0.000184046 10
4.25173 -9.20159 -2.71604 0.000514917 1
4.59725 -9.94936 -2.53035 0.000949159 4
5.50372 -11.9111 -2.55051 0.000384381 4
9.14444 -19.7904 -2.67682 0.000237951 10
9.14016 -19.7811 -1.90644 0.00024178 10
9.14163 -19.7843 -1.14219 0.000244418 10
9.13529 -19.7706 -0.380156 0.000245835 10
9.13806 -19.7766 0.380271 0.000246012 10
9.1335 -19.7667 1.14117 0.00019099 10
9.1323 -19.7641 1.9048 0.000189203 10
9.01179 -19.5033 2.63798 0.000429663 10
9.01657 -19.5136 3.40464 0.000421021 10
9.13117 -19.7617 4.23152 0.00017836 10
9.13585 -19.7718 5.02841 0.000173058 10
8.8172 -19.0822 5.63249 0.000120761 10
4.29256 -9.20542 -2.72158 0.000514962 1
4.62888 -9.92667 -2.52867 0.000326577 4
5.50915 -11.8144 -2.53389 0.000514175 4
6.74024 -14.4545 -2.52604 3.87842e-05 4
9.14471 -19.6109 -2.65684 0.000245657 10
9.14827 -19.6185 -1.89384 0.000249601 10
9.13698 -19.5943 -1.13305 0.000252317 10
9.13599 -19.5922 -0.377337 0.000253775 10
9.14057 -19.602 0.377525 0.000253956 10
9.13045 -19.5803 1.13224 0.000197158 10
9.137 -19.5944 1.8915 0.000195316 10
9.09314 -19.5003 2.64186 0.00042685 10
9.09891 -19.5127 3.40999 0.000418261 10
9.12507 -19.5688 4.19701 0.000184143 10
9.13161 -19.5828 4.98842 0.000178679 10
8.87606 -19.0348 5.62762 0.000120748 10
4.32354 -9.18799 -2.72087 0.000515007 1
4.65727 -9.89722 -2.52529 0.000299203 4
5.52862 -11.7489 -2.52397 0.000157151 4
6.78921 -14.4278 -2.5255 7.81776e-05 4
9.14359 -19.4311 -2.6368 0.000253521 10
9.14127 -19.4262 -1.87834 0.000257581 10
9.17214 -19.4918 -1.12897 0.000557773 10
9.18298 -19.5148 -0.376462 0.000560586 10
9.18277 -19.5144 0.376453 0.000560581 10
8.77302 -18.6436 1.07984 0.000231001 10
8.77374 -18.6452 1.80282 0.00022887 10
8.76068 -18.6174 2.52637 0.000225623 10
8.76941 -18.636 3.26211 0.000221296 10
8.76616 -18.629 4.002 0.00021594 10
8.76667 -18.6301 4.75351 0.000209615 10
8.76118 -18.6185 5.51354 0.000202393 10
4.35054 -9.16223 -2.71772 0.000515052 1
4.69731 -9.89251 -2.52826 0.000310655 4
5.57561 -11.7422 -2.5267 0.0001622 4
6.83547 -14.3955 -2.524 5.01371e-05 4
9.13713 -19.2427 -2.61554 0.000261545 10
9.13647 -19.2414 -1.86354 0.000265724 10
9.26166 -19.505 -1.1316 0.000554057 10
9.25839 -19.4981 -0.376761 0.000556852 10
9.26411 -19.5102 0.376993 0.000556847 10
8.76159 -18.4519 1.0705 0.000223419 10
8.79512 -18.5225 1.79391 0.000169333 10
8.83508 -18.6066 2.52908 0.000487743 10
8.82788 -18.5915 3.2597 0.000478043 10
8.76409 -18.4571 3.97162 0.000222705 10
8.75484 -18.4377 4.71217 0.000202769 10
8.78521 -18.5016 5.48799 0.000149764 10
4.38958 -9.16177 -2.72211 0.000515097 1
4.73782 -9.8886 -2.53147 0.00031754 4
5.61143 -11.712 -2.52439 0.000139585 4
6.88659 -14.3734 -2.52434 7.70086e-05 4
9.14236 -19.0816 -2.59796 0.00026973 10
9.13254 -19.0611 -1.84916 0.000274029 10
9.33706 -19.488 -1.13249 0.00055033 10
9.34708 -19.5089 -0.377596 0.000553108 10
9.34068 -19.4955 0.377338 0.000553103 10
8.7886 -18.3432 1.77951 0.000174564 10
8.91526 -18.6076 2.53342 0.000484498 10
8.91487 -18.6068 3.26782 0.000474858 10
8.75864 -18.2807 3.94021 0.000229604 10
8.75552 -18.2742 4.67817 0.000209062 10
8.78297 -18.3315 5.44658 0.000154424 10
4.4099 -9.12232 -2.71495 0.000515141 1
4.97224 -10.2856 -2.63752 0.000193866 4
5.65289 -11.6936 -2.52466 0.000168529 4
6.93952 -14.3551 -2.52535 9.73209e-05 4
9.1337 -18.894 -2.57674 0.000278076 10
9.14248 -18.9121 -1.83779 0.000282498 10
9.42506 -19.4967 -1.13491 0.000546592 10
9.42851 -19.5038 -0.378133 0.000549353 10
9.43005 -19.507 0.378195 0.000549348 10
8.7805 -18.1634 1.76503 0.000179898 10
8.99772 -18.6127 2.53838 0.000481244 10
8.99669 -18.6105 3.27398 0.000471665 10
8.76358 -18.1283 3.91394 0.000236637 10
8.76213 -18.1253 4.64787 0.000229743 10
8.77915 -18.1606 5.40487 0.000159177 10
4.44848 -9.12074 -2.71908 0.000515186 1
5.01148 -10.2751 -2.6393 0.000200008 4
5.69267 -11.6717 -2.52422 0.000187417 4
6.98304 -14.3174 -2.52299 5.61326e-05 4
9.13686 -18.7334 -2.55917 0.000286585 10
9.13487 -18.7293 -1.82311 0.000291131 10
8.78783 -18.0177 1.75385 0.000185334 10
9.07228 -18.6009 2.54108 0.000477981 10
9.07694 -18.6105 3.27952 0.000468463 10
8.76413 -17.9691 3.88615 0.000243806 10
8.75684 -17.9542 4.61179 0.000236715 10
8.77605 -17.9936 5.36426 0.000164021 10
4.47506 -9.09453 -2.71591 0.000515231 1
5.04423 -10.2512 -2.63768 0.000277591 4
5.73156 -11.6481 -2.52341 0.000164797 4
7.55925 -15.3624 -2.71178 7.99659e-05 1
9.13882 -18.5725 -2.54154 0.000295257 10
9.13024 -18.5551 -1.80925 0.00029993 10
12.678 -25.7651 -1.50491 0.00014105 10
12.6891 -25.7876 -0.501666 0.000141827 10
12.6764 -25.7619 0.501165 0.000141825 10
8.78128 -17.8459 1.7401 0.000190872 10
9.15916 -18.6139 2.5472 0.00047471 10
9.15377 -18.6029 3.2838 0.000465252 10
8.76009 -17.8028 3.85677 0.00025111 10
8.75454 -17.7916 4.57784 0.00024382 10
8.7803 -17.8439 5.32875 0.000168957 10
4.51524 -9.09589 -2.72101 0.000515275 1
5.08559 -10.2449 -2.6406 0.000187801 4
5.77927 -11.6423 -2.52651 0.000158526 4
7.60792 -15.3261 -2.71003 7.99788e-05 1
9.13696 -18.4063 -2.52314 0.000304094 10
9.13506 -18.4025 -1.79746 0.000308896 10
8.78359 -17.6944 1.7283 0.000196514 10
9.2344 -18.6026 2.55005 0.000471431 10
9.23493 -18.6036 3.28959 0.000462034 10
8.75783 -17.6425 3.82864 0.000258552 10
8.75788 -17.6426 4.54736 0.000251058 10
8.77133 -17.6697 5.28584 0.000173987 10
4.52998 -9.04617 -2.71084 0.00139135 4
5.1164 -10.2172 -2.63806 0.000330727 4
5.81628 -11.6148 -2.52495 0.000176162 4
7.66465 -15.3059 -2.71119 7.99916e-05 1
9.13504 -18.2423 -2.50501 0.000313096 10
9.13659 -18.2453 -1.78522 0.000318029 10
9.13061 -18.2334 -1.06869 0.000212308 10
9.12274 -18.2177 -0.355634 0.000213506 10
9.12168 -18.2156 0.355592 0.000213648 10
9.12201 -18.2162 1.06768 0.000212731 10
8.78713 -17.5475 1.71694 0.00020226 10
9.31559 -18.6028 2.55452 0.000468144 10
9.31454 -18.6007 3.2948 0.000458809 10
8.75689 -17.4871 3.80152 0.000266131 10
8.75943 -17.4922 4.51643 0.00025843 10
8.7683 -17.5099 5.24715 0.00017911 10
4.53906 -8.98582 -2.69749 0.00120962 4
5.16023 -10.2155 -2.64226 7.96276e-05 4
5.85586 -11.5926 -2.52455 0.000120812 4
7.71826 -15.2795 -2.71127 8.00044e-05 1
9.1277 -18.0698 -2.48569 0.000322264 10
9.12872 -18.0718 -1.77134 0.000327331 10
9.17062 -18.1547 -1.06595 0.000435337 10
9.1628 -18.1393 -0.354724 0.000437498 10
9.16762 -18.1488 0.354911 0.000437495 10
9.17349 -18.1604 1.06628 0.000435326 10
8.78315 -17.3877 1.70429 0.00020811 10
9.39521 -18.5993 2.55854 0.000464849 10
9.39688 -18.6027 3.30094 0.000455575 10
8.75411 -17.3302 3.77403 0.000273848 10
8.74706 -17.3162 4.47886 0.000265937 10
8.76786 -17.3574 5.2106 0.000184328 10
4.53677 -8.90391 -2.67764 0.00140967 4
5.18622 -10.1785 -2.63735 0.000132726 4
5.89578 -11.5711 -2.52434 0.000128378 4
7.76673 -15.2431 -2.70959 8.00171e-05 1
9.13525 -17.9289 -2.47069 0.000331599 10
9.13427 -17.927 -1.76027 0.000336802 10
9.12114 -17.9013 -1.05293 0.000224829 10
9.12641 -17.9116 -0.350893 0.000226091 10
9.11951 -17.8981 0.350628 0.000226238 10
9.127 -17.9128 1.0536 0.000225269 10
8.7792 -17.2302 1.69184 0.000214065 10
9.4804 -18.6063 2.56403 0.000461548 10
9.4767 -18.5991 3.30616 0.000452336 10
8.79922 -17.2695 3.76747 0.000119653 10
8.75328 -17.1793 4.45131 0.000273579 10
8.77038 -17.2129 5.17636 0.000189639 10
4.54523 -8.84406 -2.6644 0.000205312 4
5.22204 -10.161 -2.63752 0.000183793 4
5.94575 -11.5692 -2.52842 0.000166157 4
7.82944 -15.2344 -2.7129 8.00299e-05 1
9.1303 -17.7657 -2.45256 0.000341103 10
9.12252 -17.7505 -1.74605 0.000346443 10
9.18848 -17.8789 -1.05349 0.000449293 10
9.19574 -17.893 -0.351155 0.000451517 10
9.18603 -17.8741 0.350784 0.000451513 10
9.18863 -17.8791 1.05351 0.000449282 10
8.78389 -17.0916 1.68124 0.000220126 10
9.55825 -18.5983 2.56751 0.00045824 10
9.55536 -18.5927 3.31093 0.000449089 10
8.86765 -17.2546 3.77096 0.000119637 10
8.74832 -17.0224 4.41855 0.000281357 10
8.76953 -17.0637 5.14067 0.000195046 10
4.54602 -8.77016 -2.6469 0.000226832 4
5.26335 -10.154 -2.64046 0.000175642 4
5.98329 -11.5429 -2.52724 0.000177508 4
7.8764 -15.1951 -2.71078 8.00427e-05 1
9.13158 -17.6166 -2.43637 0.000350776 10
9.12866 -17.611 -1.73545 0.000356256 10
9.13268 -17.6187 -1.04003 0.000467193 10
9.12241 -17.5989 -0.346007 0.000469498 10
9.12368 -17.6014 0.346055 0.000469494 10
9.13366 -17.6206 1.04015 0.000467182 10
8.7822 -16.9426 1.66959 0.000226293 10
9.64062 -18.5986 2.57219 0.000454925 10
9.63862 -18.5948 3.31727 0.000445837 10
8.92389 -17.2159 3.7693 0.000119621 10
8.74928 -16.8791 4.38925 0.000289273 10
8.7765 -16.9316 5.11008 0.000200548 10
4.55134 -8.70591 -2.63229 0.00133986 4
5.29339 -10.1253 -2.63778 0.000261448 4
6.02568 -11.5261 -2.52813 0.00016368 4
7.9348 -15.1779 -2.71263 8.00554e-05 1
9.12303 -17.4508 -2.41782 0.000360618 10
9.13177 -17.4675 -1.72444 0.00036624 10
9.20885 -17.6149 -1.0417 0.000463837 10
9.21078 -17.6186 -0.347024 0.000466126 10
9.20734 -17.612 0.346894 0.000466122 10
9.21071 -17.6185 1.04191 0.000463826 10
8.77642 -16.7878 1.65734 0.000232567 10
9.72818 -18.6083 2.5782 0.000451604 10
9.72627 -18.6046 3.32507 0.000442578 10
9.71721 -18.5873 4.07695 0.000431492 10
8.75005 -16.7373 4.3603 0.000297326 10
8.76912 -16.7738 5.07166 0.000206146 10
4.56202 -8.65263 -2.62098 0.00156003 4
5.32676 -10.1031 -2.63682 0.000277816 4
6.05833 -11.4907 -2.52499 0.000133478 4
7.98262 -15.1404 -2.71089 8.00681e-05 1
9.128 -17.3128 -2.40311 0.000370631 10
9.11793 -17.2937 -1.71042 0.000376397 10
9.13908 -17.3338 -1.02696 0.00048252 10
9.14538 -17.3458 -0.342277 0.000484893 10
9.1411 -17.3376 0.342116 0.000484889 10
9.13873 -17.3331 1.02692 0.000482508 10
8.77708 -16.6472 1.64648 0.000238947 10
9.80755 -18.6017 2.58201 0.000448278 10
9.80543 -18.5977 3.32992 0.000439314 10
9.8034 -18.5938 4.08585 0.000428304 10
8.75156 -16.5988 4.33215 0.000305517 10
8.7711 -16.6359 5.03919 0.000211841 10
4.56681 -8.58891 -2.60649 0.00139286 4
5.36037 -10.0814 -2.63602 0.000335047 4
6.10269 -11.4775 -2.52676 0.000158682 4
8.04338 -15.1274 -2.71357 8.00808e-05 1
9.12101 -17.1541 -2.38549 0.000380815 10
9.12972 -17.1705 -1.70138 0.000386728 10
9.12012 -17.1525 -1.01809 0.000258127 10
9.12539 -17.1624 -0.339284 0.000259558 10
9.12308 -17.158 0.339198 0.00025972 10
9.11395 -17.1409 1.0174 0.000258612 10
8.76795 -16.4901 1.63396 0.000245435 10
9.88101 -18.5835 2.58426 0.000444946 10
9.88512 -18.5912 3.33492 0.000436044 10
9.88178 -18.5849 4.09146 0.000425111 10
8.74371 -16.4445 4.29982 0.000313847 10
8.76145 -16.4779 5.00057 0.000217632 10
4.56063 -8.50555 -2.586 0.00127082 4
5.40318 -10.0769 -2.63976 0.000239052 4
6.13934 -11.4498 -2.52537 0.000175075 4
8.08305 -15.0748 -2.70919 8.00935e-05 1
9.12174 -17.012 -2.37013 0.000391171 10
9.12272 -17.0138 -1.68899 0.000397232 10
9.14813 -17.0612 -1.01456 0.000498516 10
9.15597 -17.0758 -0.338203 0.00050096 10
9.14925 -17.0633 0.337954 0.000500956 10
9.15809 -17.0798 1.01567 0.000498504 10
8.77256 -16.3608 1.62416 0.000252031 10
9.96572 -18.586 2.58943 0.000441609 10
9.97054 -18.595 3.34182 0.000432769 10
9.96717 -18.5887 4.09992 0.000421914 10
8.74727 -16.3136 4.27355 0.000322316 10
8.76915 -16.3544 4.97235 0.000223521 10
4.56884 -8.4499 -2.57392 0.00121578 4
5.42758 -10.0381 -2.63455 0.000639169 4
6.18157 -11.4326 -2.52631 0.000158721 4
8.14244 -15.0591 -2.71146 8.01062e-05 1
9.12372 -16.874 -2.35533 0.000401699 10
9.11671 -16.861 -1.67697 0.000407912 10
9.11437 -16.8567 -1.00429 0.000272255 10
9.11829 -16.8639 -0.334635 0.000273757 10
9.11172 -16.8518 0.334394 0.000273925 10
9.12013 -16.8673 1.00492 0.000272758 10
8.77844 -16.2354 1.61475 0.000258736 10
10.0585 -18.6028 2.59665 0.000438268 10
10.0526 -18.5919 3.34756 0.000429491 10
10.0533 -18.5931 4.10861 0.000418712 10
8.74663 -16.1766 4.24562 0.000330925 10
8.76838 -16.2168 4.93978 0.000229507 10
4.5804 -8.40105 -2.56389 0.0012099 4
5.43724 -9.97261 -2.62233 0.000694873 4
6.21413 -11.3975 -2.52334 0.000134803 4
8.18812 -15.0181 -2.7092 8.01188e-05 1
9.11862 -16.7247 -2.33893 0.000412401 10
9.11792 -16.7235 -1.66645 0.000418767 10
9.16264 -16.8055 -1.00314 0.000515223 10
9.16177 -16.8039 -0.334076 0.000517741 10
9.16503 -16.8098 0.334194 0.000517736 10
9.15546 -16.7923 1.00235 0.00051521 10
8.77149 -16.0881 1.60313 0.000265548 10
10.1419 -18.6016 2.60141 0.000434922 10
10.1328 -18.5849 3.35265 0.000426207 10
10.1429 -18.6035 4.1187 0.000415505 10
8.74906 -16.0469 4.21958 0.000339675 10
8.76365 -16.0737 4.90548 0.000235591 10
4.57942 -8.32994 -2.54706 0.00118297 4
5.44758 -9.90911 -2.61061 0.000702229 4
6.25852 -11.3842 -2.52522 0.000191519 4
8.23941 -14.9874 -2.70884 8.01314e-05 1
9.11856 -16.5866 -2.32405 0.000423277 10
9.11615 -16.5822 -1.65553 0.000429798 10
9.12425 -16.597 -0.992586 0.00028685 10
9.11059 -16.5721 -0.330098 0.000288425 10
9.11003 -16.5711 0.330078 0.0002886 10
9.10975 -16.5706 0.991008 0.000287371 10
8.76554 -15.9445 1.59186 0.00027247 10
10.2259 -18.6009 2.60628 0.000431572 10
10.2271 -18.6031 3.36234 0.00042292 10
10.2263 -18.6015 4.12615 0.000412295 10
8.73445 -15.8879 4.18576 0.000348564 10
8.76719 -15.9475 4.87627 0.000241773 10
4.58891 -8.27861 -2.53624 0.0014985 4
5.44649 -9.82572 -2.59364 0.000803818 4
6.304 -11.3727 -2.52754 0.000104592 4
8.29541 -14.9653 -2.71006 8.0144e-05 1
9.11558 -16.4449 -2.30864 0.000434327 10
9.11647 -16.4466 -1.64516 0.000441006 10
9.16945 -16.5421 -0.991216 0.000532685 10
9.16983 -16.5428 -0.33015 0.00053528 10
9.16733 -16.5383 0.33006 0.000535276 10
9.16385 -16.532 0.99061 0.000532672 10
8.76281 -15.8085 1.58133 0.000279501 10
10.3095 -18.5989 2.61102 0.000428218 10
10.304 -18.589 3.36627 0.00041963 10
10.3118 -18.6029 4.13442 0.000409082 10
8.73638 -15.7609 4.1603 0.000357596 10
8.73279 -15.7544 4.82652 0.000324188 10
4.5984 -8.22788 -2.5256 0.00046976 4
5.45486 -9.76032 -2.58138 0.0006161 4
6.33076 -11.3276 -2.52239 0.00016636 4
8.35142 -14.9431 -2.7113 8.01566e-05 1
9.11827 -16.3152 -2.29489 0.000445553 10
9.12064 -16.3195 -1.63562 0.000452392 10
9.23859 -16.5305 -0.992445 0.000528641 10
9.23774 -16.529 -0.330516 0.000531218 10
9.24468 -16.5414 0.330764 0.000531213 10
9.23209 -16.5189 0.991748 0.000528628 10
8.76294 -15.6794 1.57147 0.000286642 10
10.3957 -18.601 2.6164 0.000424861 10
10.3855 -18.5827 3.37167 0.000416336 10
10.392 -18.5943 4.14053 0.000405865 10
8.73455 -15.6286 4.13342 0.000366769 10
8.7426 -15.643 4.80174 0.00033252 10
4.62633 -8.21042 -2.52518 0.000503625 4
5.46293 -9.69514 -2.56917 0.000673322 4
6.37981 -11.3223 -2.52618 0.000157556 4
8.39884 -14.9055 -2.70979 8.01691e-05 1
9.11445 -16.1755 -2.2797 0.000456954 10
9.14486 -16.2295 -1.62979 8.40236e-05 10
8.76188 -15.5498 1.56154 0.000293894 10
10.4708 -18.5827 2.61896 0.000421501 10
10.477 -18.5938 3.3803 0.000413039 10
10.4777 -18.595 4.1488 0.000402646 10
8.73204 -15.4969 4.10661 0.000376085 10
8.73049 -15.4941 4.76535 0.000340983 10
4.65886 -8.20108 -2.5273 0.000526219 4
5.47193 -9.63234 -2.55758 0.000720133 4
6.40925 -11.2823 -2.52222 0.000177745 4
8.4502 -14.875 -2.70959 8.01816e-05 1
9.11587 -16.0468 -2.26603 0.000468532 10
9.19547 -16.187 -1.62873 8.40477e-05 10
8.75978 -15.42 1.55156 0.000301256 10
8.74203 -15.3888 2.1731 0.000388254 10
10.5547 -18.5797 3.38441 0.000409739 10
10.5628 -18.5938 4.15675 0.000399424 10
8.73599 -15.3781 4.0832 0.000385543 10
8.72956 -15.3668 4.73554 0.000349575 10
4.68727 -8.18444 -2.5272 0.000413492 4
5.48215 -9.57237 -2.54672 0.000715779 4
6.45665 -11.274 -2.52538 0.000215589 4
8.50592 -14.8522 -2.71082 8.01941e-05 1
9.11827 -15.9214 -2.2528 0.000480286 10
9.25926 -16.1676 -1.63003 8.40718e-05 10
8.7468 -15.2728 1.53981 0.000430138 10
8.74279 -15.2658 2.16003 0.000424228 10
8.73734 -15.2563 2.78457 0.000416365 10
8.7352 -15.2525 3.41658 0.000406635 10
8.74379 -15.2675 4.06191 0.000395144 10
8.73097 -15.2451 4.7074 0.000382018 10
4.72166 -8.17815 -2.53033 0.000402248 4
5.49281 -9.51383 -2.53623 0.000781138 4
6.48738 -11.2365 -2.52204 0.000156352 4
8.55144 -14.8115 -2.70883 8.02066e-05 1
9.11332 -15.7847 -2.23795 0.000492218 10
8.76085 -15.1742 1.53295 0.000770227 10
8.76243 -15.177 2.15178 0.000759204 10
8.76064 -15.1739 2.7751 0.000744699 10
8.76058 -15.1738 3.40577 0.000726869 10
8.76217 -15.1765 4.04581 0.00070591 10
8.76419 -15.18 4.69672 0.00068205 10
4.94952 -8.50413 -2.63652 0.000387509 4
5.5057 -9.45975 -2.52692 0.000297663 4
6.5293 -11.2185 -2.5231 0.000175287 4
8.6062 -14.7869 -2.70981 8.02191e-05 1
9.11014 -15.6528 -2.22374 0.000504327 10
8.83779 -15.1848 1.53713 0.000764242 10
8.8308 -15.1728 2.15555 0.0007533 10
8.84452 -15.1964 2.78485 0.0007389 10
8.83017 -15.1718 3.41221 0.000721201 10
8.84056 -15.1896 4.0575 0.000700396 10
8.8394 -15.1876 4.70858 0.000676711 10
4.98932 -8.50409 -2.64189 0.000647025 4
5.53855 -9.44024 -2.52686 0.000373261 4
6.57621 -11.2089 -2.52609 0.000196748 4
8.65702 -14.7555 -2.70958 8.02315e-05 1
9.11437 -15.5351 -2.21152 0.000516614 10
8.91103 -15.1885 1.54064 0.000758253 10
8.90259 -15.1741 2.16013 0.000747391 10
8.91304 -15.1919 2.78971 0.000733097 10
8.91206 -15.1903 3.42335 0.000715529 10
8.90886 -15.1848 4.0645 0.000694878 10
8.90558 -15.1792 4.71558 0.000671368 10
5.01098 -8.47311 -2.63768 0.000441496 4
5.57415 -9.42538 -2.52808 0.000265659 4
6.60355 -11.166 -2.5216 0.000221999 4
8.70821 -14.7248 -2.7095 8.02439e-05 1
9.10405 -15.3941 -2.19597 0.00052908 10
8.98474 -15.1924 1.5442 0.000752259 10
8.9787 -15.1822 2.16573 0.000741478 10
8.98194 -15.1876 2.79467 0.000727291 10
8.97978 -15.184 3.42898 0.000709853 10
8.98175 -15.1873 4.07354 0.000689356 10
8.97285 -15.1723 4.72313 0.000666022 10
5.04745 -8.46718 -2.6413 0.000448274 4
5.60648 -9.40495 -2.52783 0.000322945 4
6.64652 -11.1497 -2.52314 0.000156427 4
8.76349 -14.7009 -2.71071 8.02563e-05 1
9.11147 -15.2846 -2.18487 0.000541725 10
9.10165 -15.2682 -1.55513 0.000549924 10
9.11069 -15.2833 -0.932483 0.000555547 10
9.09835 -15.2626 -0.310154 0.000558531 10
9.10017 -15.2657 0.310216 0.000558844 10
9.10677 -15.2767 0.932081 0.000556481 10
9.05409 -15.1884 1.547 0.000746262 10
9.05022 -15.1819 2.17018 0.000735562 10
9.05578 -15.1912 2.80112 0.000721481 10
9.0498 -15.1812 3.43546 0.000704175 10
9.04791 -15.178 4.07949 0.000683832 10
9.04592 -15.1747 4.73368 0.000660673 10
5.06971 -8.43742 -2.63752 0.000246065 4
5.63776 -9.38281 -2.52715 0.000249677 4
6.69059 -11.135 -2.52509 0.000156446 4
8.80427 -14.6528 -2.70749 8.02687e-05 1
9.10402 -15.1516 -2.17039 0.000554549 10
9.10128 -15.1471 -1.54602 0.000562929 10
9.10365 -15.151 -0.926343 0.000568675 10
9.10987 -15.1614 -0.308741 0.000571723 10
9.10265 -15.1494 0.308496 0.000572041 10
9.10165 -15.1477 0.92614 0.000569624 10
9.1022 -15.1486 1.54618 0.000440147 10
9.10432 -15.1521 2.17046 0.000434084 10
9.10385 -15.1514 2.79962 0.00042602 10
9.09189 -15.1315 3.43137 0.000416045 10
9.09769 -15.1411 4.07808 0.000404267 10
9.09633 -15.1388 4.73238 0.000390815 10
5.11017 -8.4379 -2.64323 0.000188778 4
5.66821 -9.35933 -2.52614 0.000265737 4
6.73123 -11.1146 -2.52577 0.000169082 4
8.86395 -14.6361 -2.71011 8.02811e-05 1
9.10052 -15.0268 -2.15704 0.000567553 10
9.10026 -15.0263 -1.53693 0.000576115 10
9.09854 -15.0235 -0.920482 0.000581985 10
9.09922 -15.0246 -0.306601 0.000585099 10
9.09793 -15.0225 0.306557 0.000585422 10
9.10427 -15.0329 0.921061 0.00058295 10
9.10751 -15.0383 1.53815 0.000450448 10
9.09155 -15.0119 2.15491 0.00044425 10
9.10072 -15.0271 2.7825 0.000436008 10
9.09702 -15.021 3.41349 0.000425811 10
9.08991 -15.0092 4.05108 0.000413772 10
9.09767 -15.022 4.70577 0.000400022 10
5.1362 -8.41445 -2.64149 0.000107882 4
5.69449 -9.32908 -2.52333 0.0002818 4
6.76599 -11.0845 -2.52428 9.59088e-05 4
8.91104 -14.5986 -2.70891 8.02934e-05 1
9.10329 -14.9136 -2.14534 0.000580736 10
9.10174 -14.911 -1.52838 0.000589483 10
9.097 -14.9033 -0.915057 0.000595479 10
9.1088 -14.9226 -0.305167 0.000598659 10
9.10693 -14.9195 0.305104 0.000598987 10
9.09273 -14.8963 0.914628 0.000596459 10
9.10264 -14.9125 1.52853 0.000460891 10
9.09845 -14.9057 2.1442 0.000454557 10
9.09527 -14.9005 2.76492 0.000446134 10
9.09806 -14.905 3.39434 0.000435713 10
9.08936 -14.8908 4.02765 0.00042341 10
9.09954 -14.9074 4.67979 0.000409356 10
5.16099 -8.38908 -2.63916 0.000333788 4
5.73373 -9.32005 -2.52628 0.000302449 4
6.79687 -11.0482 -2.5214 0.000170384 4
8.96491 -14.5723 -2.70981 8.03057e-05 1
9.10851 -14.8057 -2.13438 0.0005941 10
9.11747 -14.8202 -1.52232 0.000993466 10
9.12174 -14.8272 -0.912334 0.001003 10
9.12145 -14.8267 -0.303855 0.00100779 10
9.11914 -14.823 0.303777 0.00100778 10
9.11529 -14.8167 0.911689 0.00100298 10
9.09093 -14.7771 1.51789 0.000471477 10
9.09223 -14.7792 2.13056 0.000465004 10
9.09373 -14.7817 2.74875 0.000456397 10
9.09552 -14.7846 3.37412 0.00044575 10
9.0866 -14.7701 4.00356 0.000433179 10
9.09197 -14.7788 4.64934 0.00041882 10
5.19319 -8.37576 -2.64066 0.000168593 4
5.77284 -9.31064 -2.52918 0.000307061 4
6.8431 -11.0368 -2.52424 0.00020701 4
9.01345 -14.5372 -2.70913 8.0318e-05 1
9.10657 -14.6874 -2.1219 0.000607644 10
9.18644 -14.8162 -1.52519 0.000985253 10
9.19316 -14.827 -0.914295 0.000994715 10
9.18196 -14.809 -0.304146 0.000999468 10
9.18877 -14.82 0.304372 0.00099946 10
9.1827 -14.8102 0.913255 0.000994691 10
9.09267 -14.665 1.50962 0.000482204 10
9.09866 -14.6746 2.12005 0.000475592 10
9.10069 -14.6779 2.73535 0.0004668 10
9.09264 -14.6649 3.35404 0.000455923 10
9.0965 -14.6712 3.98533 0.000443081 10
9.08394 -14.6509 4.61905 0.000428411 10
5.21669 -8.34844 -2.63777 0.000414774 4
5.79935 -9.2809 -2.52659 0.000263548 4
6.87357 -11 -2.5213 0.000137602 4
9.06548 -14.5078 -2.70953 8.03303e-05 1
9.09729 -14.5587 -2.10788 0.000621369 10
9.25341 -14.8086 -1.52772 0.000977041 10
9.25885 -14.8173 -0.915679 0.000986428 10
9.25794 -14.8158 -0.304948 0.000991144 10
9.25351 -14.8087 0.304802 0.000991135 10
9.26483 -14.8268 0.916271 0.000986404 10
9.10237 -14.5668 1.50278 0.000493075 10
9.09817 -14.5601 2.10808 0.000486321 10
9.09667 -14.5577 2.71885 0.00047734 10
9.09776 -14.5595 3.33716 0.000466231 10
9.08474 -14.5386 3.95792 0.000453114 10
9.09668 -14.5577 4.59966 0.000438131 10
5.24526 -8.32934 -2.63751 0.00052947 4
5.83067 -9.25895 -2.52613 0.000279617 4
6.92483 -10.9965 -2.52601 0.000179282 4
9.09813 -14.4476 -2.7042 0.000622873 10
9.10859 -14.4642 -2.09879 0.000635273 10
9.32898 -14.8142 -1.53165 0.000968828 10
9.34032 -14.8322 -0.918611 0.000978141 10
9.32711 -14.8112 -0.305522 0.00098282 10
9.33566 -14.8248 0.305802 0.000982812 10
9.32809 -14.8128 0.917408 0.000978117 10
8.73759 -13.8751 1.43455 0.000567129 10
8.7294 -13.8621 2.01142 0.00055944 10
8.72155 -13.8496 2.59227 0.000549217 10
8.72776 -13.8595 3.18368 0.000536567 10
8.7265 -13.8574 3.78075 0.000521629 10
9.08287 -14.4234 4.56719 0.00044798 10
5.2707 -8.30529 -2.6357 7.41992e-05 4
5.85616 -9.22783 -2.52321 0.000293397 4
6.95846 -10.9648 -2.5243 0.000122482 4
9.10794 -14.3518 -2.69221 0.000636702 10
9.10996 -14.355 -2.08755 0.000649359 10
9.39812 -14.8091 -1.53451 0.000960617 10
9.3989 -14.8103 -0.919282 0.000969856 10
9.39732 -14.8078 -0.306127 0.000974498 10
9.40014 -14.8123 0.306218 0.00097449 10
9.39909 -14.8106 0.9193 0.000969832 10
8.7283 -13.7536 1.42514 0.000579564 10
8.73429 -13.763 2.00146 0.000571714 10
8.72816 -13.7534 2.57995 0.000561277 10
8.71886 -13.7387 3.16292 0.000548364 10
8.72334 -13.7458 3.75857 0.000533115 10
9.08634 -14.3178 4.54378 0.000457958 10
5.30069 -8.28846 -2.63622 0.00030694 4
5.89665 -9.22034 -2.52677 0.000304887 4
6.99309 -10.9348 -2.523 0.000135125 4
9.09921 -14.228 -2.67493 0.000650709 10
9.09375 -14.2195 -2.07244 0.000663626 10
18.0241 -28.1836 -1.75326 7.24431e-05 10
18.0301 -28.1929 -0.584139 7.29115e-05 10
18.0253 -28.1854 0.583983 7.29584e-05 10
11.0463 -17.2726 1.0745 2.87374e-05 10
8.79495 -13.7523 1.42817 0.0009233 10
8.7879 -13.7413 2.00274 0.000910302 10
8.79459 -13.7517 2.58538 0.000893192 10
8.79317 -13.7495 3.17244 0.000872156 10
8.79271 -13.7488 3.76776 0.00084742 10
9.08218 -14.2014 4.51688 0.000468065 10
5.33646 -8.28056 -2.63961 0.000337324 4
5.92036 -9.18661 -2.52317 0.000224675 4
7.56062 -11.7318 -2.71297 0.000171043 1
9.09687 -14.1156 -2.65974 0.000664894 10
9.10286 -14.1249 -2.06327 0.000678073 10
18.0305 -27.9778 -1.74437 7.43745e-05 10
18.0321 -27.9803 -0.581035 7.48541e-05 10
18.017 -27.9569 0.580548 7.49019e-05 10
11.0995 -17.2231 1.07383 3.71612e-05 10
8.86329 -13.7531 1.43147 0.000915481 10
8.85101 -13.7341 2.00619 0.000902586 10
8.85486 -13.7401 2.58898 0.000885613 10
8.85847 -13.7457 3.17867 0.000864746 10
8.84605 -13.7264 3.77006 0.000229433 10
9.08001 -14.0894 4.49131 0.000478301 10
5.3694 -8.26816 -2.64162 0.000620727 4
5.95157 -9.16461 -2.52282 0.000332459 4
7.6059 -11.7121 -2.71453 0.000171063 1
9.09703 -14.0082 -2.64547 0.000679258 10
9.10114 -14.0145 -2.05178 0.000692702 10
18.0243 -27.755 -1.73439 7.63378e-05 10
18.0274 -27.7597 -0.577757 7.6829e-05 10
18.0199 -27.7482 0.577517 7.68776e-05 10
11.1593 -17.1838 1.0738 3.7143e-05 10
8.9303 -13.7515 1.43453 0.000907663 10
8.92157 -13.738 2.0113 0.000894873 10
8.93273 -13.7552 2.59769 0.000878037 10
8.93229 -13.7545 3.18791 0.000857337 10
8.88791 -13.6862 3.76752 0.000229409 10
9.08916 -13.9961 4.47164 0.000488666 10
5.39798 -8.24897 -2.64149 0.000202427 4
5.99228 -9.15716 -2.52651 0.000263699 4
7.63138 -11.662 -2.70908 0.000171083 1
9.10755 -13.9178 -2.63439 0.0006938 10
9.09631 -13.9006 -2.03974 0.000707512 10
18.024 -27.5436 -1.7251 7.83334e-05 10
18.0258 -27.5464 -0.574622 7.8836e-05 10
18.0233 -27.5424 0.57454 7.88856e-05 10
11.2216 -17.1483 1.07403 3.71249e-05 10
8.99284 -13.7425 1.43686 0.00089985 10
8.99287 -13.7426 2.01655 0.000887162 10
8.98845 -13.7358 2.59994 0.000870463 10
8.99433 -13.7448 3.19291 0.000849932 10
8.94744 -13.6731 3.77249 0.000229385 10
9.0926 -13.895 4.44945 0.000499161 10
5.4071 -8.20029 -2.63193 0.000981785 4
6.01801 -9.1268 -2.52392 0.000231619 4
7.68069 -11.6484 -2.71213 0.000171103 1
9.0916 -13.7881 -2.61584 0.000708518 10
9.09633 -13.7953 -2.02893 0.000722504 10
18.0261 -27.3381 -1.71616 8.03611e-05 10
18.0171 -27.3243 -0.571299 8.08754e-05 10
18.0234 -27.334 0.5715 8.09259e-05 10
11.2968 -17.1325 1.0755 3.71068e-05 10
9.05397 -13.7311 1.43896 0.00089204 10
9.0604 -13.7408 2.02092 0.000879456 10
9.06234 -13.7438 2.60742 0.000862894 10
9.06699 -13.7508 3.20165 0.000842531 10
8.98247 -13.6226 3.76719 0.000229362 10
9.08407 -13.7767 4.42172 0.000509784 10
5.41574 -8.15134 -2.62227 0.000661676 4
6.05081 -9.1072 -2.52432 0.000305032 4
7.71245 -11.6082 -2.70902 0.000171123 1
9.10104 -13.6982 -2.60478 0.000723417 10
9.09171 -13.6841 -2.01724 0.000737676 10
18.0184 -27.1199 -1.7064 8.24212e-05 10
18.0168 -27.1175 -0.568287 8.29474e-05 10
18.0224 -27.1258 0.568461 8.29988e-05 10
11.3464 -17.0777 1.07453 3.70887e-05 10
9.1067 -13.7067 1.43973 0.000568011 10
9.11014 -13.7119 2.02133 0.000559998 10
9.11416 -13.7179 2.60854 0.000549451 10
9.11075 -13.7128 3.20018 0.000536485 10
9.04037 -13.6069 3.77153 0.000229338 10
9.0829 -13.6709 4.39789 0.000520537 10
5.42311 -8.10095 -2.61213 0.000926078 4
6.08603 -9.09121 -2.52577 0.000277536 4
7.76046 -11.5924 -2.71166 0.000171143 1
9.09472 -13.5855 -2.58938 0.000738491 10
9.09999 -13.5934 -2.00853 0.000753028 10
18.0169 -26.9133 -1.69734 8.45135e-05 10
18.0134 -26.9082 -0.565214 8.50517e-05 10
18.0126 -26.907 0.565188 8.51041e-05 10
11.404 -17.0351 1.07435 3.70707e-05 10
9.15882 -13.6813 1.44041 0.000373239 10
9.15809 -13.6802 2.02136 0.000368165 10
9.15836 -13.6806 2.6075 0.000361421 10
9.14792 -13.665 3.19646 0.00035308 10
9.08311 -13.5682 3.76958 0.000350723 10
9.07473 -13.5557 4.371 0.000531418 10
5.43434 -8.05675 -2.60398 0.000862071 4
6.11546 -9.06655 -2.52483 0.000314265 4
7.79691 -11.5594 -2.71027 0.000171163 1
9.10246 -13.495 -2.57816 0.000753745 10
9.10335 -13.4963 -1.99887 0.000768562 10
13.4006 -19.8671 -2.09659 0.00023902 10
13.4082 -19.8785 -1.25662 0.000241655 10
13.3975 -19.8626 -0.418199 0.000243048 10
13.3925 -19.8553 0.418045 0.000243183 10
11.4679 -17.0018 1.07477 3.70528e-05 10
9.07874 -13.4598 3.74825 0.000357977 10
9.08675 -13.4717 4.35411 0.000542429 10
5.4369 -8.00016 -2.59181 0.000974927 4
6.15145 -9.05159 -2.52663 0.000273 4
7.83501 -11.5289 -2.70951 0.000171183 1
9.10257 -13.394 -2.56493 0.000769177 10
9.0977 -13.3869 -1.98735 0.000784277 10
13.4123 -19.7356 -2.08764 0.000244422 10
13.3998 -19.7172 -1.24938 0.000247112 10
13.4045 -19.7241 -0.416266 0.000248533 10
13.396 -19.7117 0.416004 0.00024867 10
11.5309 -16.9671 1.07512 3.70349e-05 10
9.11447 -13.4115 3.74365 0.000149779 10
9.08134 -13.3628 4.32914 0.000553569 10
5.45111 -7.96115 -2.58532 0.000967412 4
6.18217 -9.02883 -2.52628 0.000318912 4
7.88047 -11.5091 -2.71132 0.000171203 1
9.10096 -13.2916 -2.55139 0.000784787 10
9.09336 -13.2805 -1.97627 0.000800173 10
13.4038 -19.5757 -2.07566 0.000249896 10
13.4024 -19.5737 -1.24324 0.00025264 10
13.3975 -19.5665 -0.413925 0.000254091 10
13.3951 -19.563 0.413851 0.00025423 10
11.587 -16.9224 1.07484 3.7017e-05 10
9.14494 -13.3558 3.73699 0.000364815 10
9.08467 -13.2678 4.30862 0.000564838 10
5.44827 -7.89772 -2.57088 0.00080813 4
6.21449 -9.00842 -2.52663 0.000341888 4
7.91417 -11.4722 -2.70913 0.000171223 1
9.09932 -13.1902 -2.53801 0.000800574 10
9.08583 -13.1707 -1.96462 0.00081625 10
13.4343 -19.4741 -2.06984 0.000374071 10
13.4256 -19.4615 -1.23908 0.000377965 10
13.4228 -19.4575 -0.412608 0.000379922 10
13.4369 -19.478 0.413041 0.000379918 10
11.6578 -16.899 1.07593 3.69992e-05 10
9.15413 -13.2697 3.72179 0.000372175 10
9.07274 -13.1517 4.28117 0.000576236 10
5.46473 -7.86272 -2.56568 0.000958918 4
6.23904 -8.97681 -2.52385 0.000309793 4
7.96497 -11.4601 -2.7128 0.000171243 1
9.0947 -13.0856 -2.52396 0.000816539 10
9.08554 -13.0724 -1.95468 0.000832506 10
13.523 -19.4571 -2.07304 0.000370312 10
13.5245 -19.4592 -1.24193 0.00037417 10
13.5359 -19.4756 -0.413991 0.000376108 10
13.5287 -19.4653 0.413771 0.000376105 10
11.7139 -16.8541 1.07567 3.69815e-05 10
9.14989 -13.165 3.70136 0.000379619 10
9.07941 -13.0636 4.26277 0.000587762 10
5.47191 -7.81469 -2.55623 0.00106774 4
6.27619 -8.96333 -2.52621 0.000277692 4
8.00764 -11.4361 -2.71372 0.000171262 1
9.10046 -12.9968 -2.51295 0.000832681 10
9.09293 -12.986 -1.94651 0.000848943 10
13.6248 -19.4582 -2.07821 0.000366561 10
13.6378 -19.4768 -1.24609 0.000370382 10
13.628 -19.4628 -0.414727 0.000372302 10
13.6321 -19.4686 0.414851 0.000372299 10
11.7736 -16.8144 1.07575 3.69637e-05 10
9.1502 -13.0678 3.68301 0.000387146 10
9.07248 -12.9568 4.23826 0.000599417 10
5.46994 -7.75414 -2.54265 0.00102327 4
6.30043 -8.93143 -2.5234 0.000325917 4
8.03209 -11.3862 -2.70852 0.000171282 1
9.09844 -12.8979 -2.49995 0.000849 10
9.08566 -12.8798 -1.93532 0.00086556 10
13.7364 -19.4726 -2.08486 0.000362817 10
13.7257 -19.4574 -1.24791 0.000366602 10
13.7235 -19.4544 -0.415566 0.000368504 10
13.729 -19.4621 0.415731 0.0003685 10
11.8428 -16.7882 1.07671 3.69461e-05 10
9.07244 -12.861 4.21724 0.0006112 10
5.46877 -7.69531 -2.52961 0.0010003 4
6.34065 -8.92216 -2.52702 0.000296107 4
8.07296 -11.3598 -2.70892 0.000171302 1
9.08572 -12.7848 -2.48418 0.000865495 10
9.08287 -12.7808 -1.92521 0.000882356 10
18.006 -25.3369 -1.62901 0.000102432 10
18.006 -25.3369 -0.542562 0.000103072 10
18.0027 -25.3323 0.542463 0.000103132 10
11.9008 -16.7461 1.07667 3.69284e-05 10
9.07348 -12.7676 4.19698 0.000623111 10
5.49221 -7.67144 -2.52805 0.000546333 4
6.36884 -8.89591 -2.52586 0.0003145 4
8.11632 -11.3368 -2.71017 0.000171321 1
9.08414 -12.6886 -2.47162 0.000882166 10
9.09556 -12.7045 -1.91849 0.000899331 10
18.0068 -25.1516 -1.62113 0.00010482 10
18.0115 -25.1583 -0.54008 0.000105473 10
18.008 -25.1533 0.539973 0.000105534 10
11.9506 -16.6924 1.07589 3.69109e-05 10
9.08294 -12.6869 4.18085 0.00063515 10
5.50925 -7.63877 -2.5236 0.000508694 4
6.39979 -8.87353 -2.52584 0.0001653 4
8.15969 -11.3137 -2.71145 0.000171341 1
9.09064 -12.6045 -2.4614 0.000899014 10
9.09388 -12.609 -1.90884 0.000916485 10
17.9997 -24.9573 -1.61264 0.000107241 10
18.0069 -24.9672 -0.537325 0.000107908 10
17.9968 -24.9531 0.537021 0.00010797 10
12.0197 -16.6658 1.07688 3.68933e-05 10
9.1501 -12.6869 1.36853 0.000454248 10
9.15406 -12.6924 1.92147 0.00044813 10
9.14102 -12.6743 2.47504 0.000440002 10
9.14279 -12.6768 3.03813 0.000429949 10
9.14358 -12.6779 3.60874 0.00041808 10
9.07744 -12.5862 4.15807 0.000647317 10
5.53418 -7.61715 -2.52283 0.000486123 4
6.42226 -8.83949 -2.52251 8.03614e-05 4
8.203 -11.2905 -2.71273 0.000171361 1
9.08678 -12.5069 -2.44852 0.000916037 10
9.08977 -12.511 -1.89879 0.000933819 10
9.08125 -12.4993 -1.3517 0.000625808 10
9.08644 -12.5064 -0.81016 0.000631961 10
9.08259 -12.5011 -0.26972 0.000635204 10
9.08268 -12.5012 0.269722 0.000635504 10
9.08055 -12.4983 0.809635 0.000632855 10
9.07682 -12.4932 4.13778 0.000659612 10
5.56587 -7.60479 -2.52515 0.000433399 4
6.45265 -8.81644 -2.52235 0.000163034 4
8.23486 -11.2515 -2.71026 0.00017138 1
9.09042 -12.4205 -2.43781 0.000933236 10
9.08293 -12.4103 -1.88831 0.00095133 10
9.13639 -12.4833 -1.35341 0.000872279 10
9.14087 -12.4894 -0.811121 0.000880433 10
9.13319 -12.4789 -0.269927 0.000884527 10
9.14024 -12.4886 0.270135 0.00088452 10
9.13612 -12.4829 0.8107 0.000880411 10
9.08035 -12.4067 4.11962 0.000672034 10
5.58948 -7.58138 -2.52384 0.000452278 4
6.49569 -8.81054 -2.52713 0.000126305 4
8.27533 -11.2244 -2.71067 0.0001714 1
9.08545 -12.3232 -2.42492 0.00095061 10
9.08257 -12.3193 -1.87928 0.000969019 10
9.19359 -12.4699 -1.35543 0.000863922 10
9.20274 -12.4823 -0.81274 0.000872001 10
9.20346 -12.4833 -0.270714 0.000876059 10
9.19461 -12.4713 0.270454 0.000876052 10
9.20678 -12.4878 0.813096 0.000871979 10
9.07312 -12.3065 4.09683 0.000684583 10
5.6216 -7.56949 -2.5264 0.000407081 4
6.51485 -8.77226 -2.52266 0.000211294 4
8.31065 -11.1903 -2.70943 0.000171419 1
9.09506 -12.2465 -2.41606 0.000968158 10
9.09133 -12.2415 -1.87224 0.000986886 10
9.0929 -12.2436 -1.33427 0.000661337 10
9.09088 -12.2409 -0.799082 0.000667815 10
9.08419 -12.2319 -0.265948 0.000671228 10
9.08265 -12.2298 0.265903 0.000671539 10
9.07232 -12.2159 0.797451 0.000668744 10
9.07722 -12.2225 4.07939 0.000697259 10
5.64205 -7.54188 -2.52374 0.000459887 4
6.54925 -8.75457 -2.52413 0.000300891 4
8.35331 -11.1661 -2.71061 0.000171438 1
9.07817 -12.135 -2.40031 0.000985881 10
9.08031 -12.1379 -1.86123 0.00100493 10
9.13907 -12.2165 -1.33478 0.000900692 10
9.12788 -12.2015 -0.798586 0.000909086 10
9.13489 -12.2109 -0.266184 0.000913302 10
9.13592 -12.2122 0.266213 0.000913294 10
9.14444 -12.2236 0.800035 0.000909063 10
9.1395 -12.217 1.33484 0.000498081 10
9.06975 -12.1238 4.05699 0.00071006 10
5.67051 -7.52502 -2.52471 0.000490081 4
6.58324 -8.73626 -2.52546 0.000261868 4
8.38659 -11.1294 -2.70879 0.000171458 1
9.09266 -12.0664 -2.39299 0.00100378 10
9.08325 -12.0539 -1.8532 0.00102315 10
9.20971 -12.2217 -1.33886 0.000891898 10
9.19566 -12.2031 -0.800785 0.000900214 10
9.19899 -12.2075 -0.266808 0.000904391 10
9.19947 -12.2081 0.266822 0.000904383 10
9.20093 -12.21 0.801243 0.000900191 10
8.72152 -11.5738 1.26789 0.000908817 10
8.71339 -11.5631 1.77774 0.00089676 10
8.70858 -11.5567 2.29191 0.000880742 10
8.70521 -11.5522 2.8117 0.00086093 10
8.70583 -11.553 3.33973 0.000837533 10
8.71471 -11.5648 3.8801 0.000810792 10
5.70343 -7.51399 -2.52767 0.000490118 4
6.61863 -8.71973 -2.52735 0.000291757 4
8.43476 -11.1124 -2.7118 0.000171477 1
9.08384 -11.9675 -2.37966 0.00102184 10
9.0844 -11.9683 -1.8449 0.00104154 10
9.07596 -11.9571 -1.31334 0.00069793 10
9.07406 -11.9546 -0.786557 0.000704741 10
9.07524 -11.9562 -0.262007 0.000708327 10
9.08582 -11.9701 0.262312 0.00070865 10
9.07933 -11.9616 0.787013 0.000705705 10
8.70763 -11.4719 1.26004 0.000924991 10
8.7085 -11.473 1.76856 0.000912729 10
8.71518 -11.4818 2.28308 0.000896439 10
8.70441 -11.4676 2.79849 0.000876292 10
8.70527 -11.4688 3.32414 0.000852496 10
8.70145 -11.4637 3.85635 0.000825303 10
5.72185 -7.48387 -2.52424 0.000535401 4
6.63278 -8.67532 -2.52117 0.000179206 4
8.47484 -11.0846 -2.71223 0.000171496 1
9.08106 -11.8775 -2.36805 0.00104008 10
9.07336 -11.8675 -1.83423 0.00106011 10
9.1304 -11.9421 -1.31518 0.000930543 10
9.12966 -11.9411 -0.787758 0.000939188 10
9.13315 -11.9457 -0.262473 0.000943529 10
9.12208 -11.9312 0.262155 0.000943521 10
9.13328 -11.9458 0.788071 0.000939163 10
8.75716 -11.4539 1.26141 0.00123009 10
8.76884 -11.4692 1.77267 0.00121322 10
8.76038 -11.4581 2.28443 0.001191 10
8.77337 -11.4751 2.80777 0.00116367 10
8.77318 -11.4748 3.33475 0.00113151 10
8.77277 -11.4743 3.87019 0.00109486 10
5.7545 -7.47237 -2.52713 0.000444945 4
6.67817 -8.67178 -2.5269 0.000294107 4
8.50364 -11.0422 -2.7091 0.000171515 1
9.09078 -11.8046 -2.35983 0.0010585 10
9.0747 -11.7837 -1.82618 0.00107886 10
9.19206 -11.9361 -1.31805 0.000921285 10
9.20072 -11.9474 -0.790287 0.000929849 10
9.19152 -11.9354 -0.262952 0.00093415 10
9.19282 -11.9371 0.262989 0.000934142 10
9.19843 -11.9444 0.790089 0.000929825 10
8.83523 -11.4728 1.26688 0.00121796 10
8.82306 -11.457 1.77554 0.00120124 10
8.82229 -11.456 2.29013 0.00117923 10
8.82266 -11.4565 2.81073 0.00115215 10
8.83083 -11.4671 3.34143 0.0011203 10
8.82685 -11.4619 3.87637 0.00108399 10
5.76956 -7.43808 -2.52232 0.000573193 4
6.7018 -8.63991 -2.52442 0.00028724 4
8.53903 -11.0085 -2.70811 0.000171535 1
9.09041 -11.7193 -2.3491 0.00107708 10
9.07689 -11.7019 -1.81839 0.00109778 10
9.08586 -11.7134 -1.29695 0.000735578 10
9.08214 -11.7086 -0.776586 0.000742732 10
9.08096 -11.7071 -0.258618 0.000746495 10
9.07442 -11.6987 0.258432 0.000746829 10
9.06955 -11.6924 0.775509 0.00074373 10
8.88584 -11.4556 1.2684 0.00120585 10
8.88921 -11.4599 1.78079 0.00118929 10
8.89613 -11.4688 2.2989 0.00116748 10
8.8965 -11.4693 2.82148 0.00114066 10
8.89369 -11.4657 3.35005 0.00110911 10
8.8843 -11.4536 3.88402 0.00107315 10
5.81173 -7.43868 -2.52939 0.000516667 4
6.72584 -8.60868 -2.52214 0.000328632 4
8.5899 -10.9946 -2.71205 0.000171554 1
9.0877 -11.6317 -2.33789 0.00109584 10
9.07515 -11.6157 -1.80991 0.00111687 10
9.12079 -11.6741 -1.29611 0.000961949 10
9.11285 -11.6639 -0.775726 0.000970858 10
9.11487 -11.6665 -0.258422 0.000975333 10
9.12402 -11.6782 0.258682 0.000975324 10
9.11694 -11.6692 0.776074 0.000970833 10
8.94945 -11.4548 1.27176 0.00119376 10
8.9535 -11.46 1.78564 0.00117736 10
8.9556 -11.4626 2.30391 0.00115576 10
8.95865 -11.4666 2.82848 0.0011292 10
8.9535 -11.46 3.35749 0.00109794 10
9.05973 -11.5959 3.94299 0.0007895 10
5.8241 -7.40112 -2.52352 0.000392244 4
6.75222 -8.58054 -2.52078 0.000310275 4
8.61364 -10.946 -2.70747 0.000171573 1
9.08304 -11.5425 -2.32631 0.00111476 10
9.0838 -11.5435 -1.80358 0.00113614 10
9.19235 -11.6814 -1.30048 0.000952199 10
9.17947 -11.665 -0.777926 0.000961024 10
9.18752 -11.6753 -0.259325 0.000965455 10
9.18977 -11.6781 0.259388 0.000965447 10
9.19152 -11.6803 0.778947 0.000960999 10
9.01927 -11.4614 1.27599 0.00118171 10
9.01136 -11.4514 1.7892 0.00116546 10
9.01234 -11.4526 2.30821 0.00114407 10
9.02182 -11.4647 2.83577 0.00111776 10
9.01346 -11.4541 3.36496 0.00108681 10
9.07578 -11.5333 3.93243 0.000803176 10
5.85411 -7.38605 -2.52533 0.000494113 4
6.79051 -8.56749 -2.5239 0.000264332 4
8.65568 -10.9208 -2.70869 0.000171592 1
9.07458 -11.4493 -2.3139 0.00113386 10
9.08587 -11.4635 -1.79604 0.00115558 10
9.08184 -11.4584 -1.27918 0.00077427 10
9.06931 -11.4426 -0.7652 0.000781774 10
9.07209 -11.4461 -0.254938 0.00078572 10
9.06858 -11.4417 0.254839 0.000786066 10
9.06651 -11.4391 0.764964 0.000782808 10
9.07567 -11.4506 1.27831 0.000916003 10
9.07303 -11.4473 1.7935 0.000903815 10
9.0738 -11.4483 2.3137 0.00088763 10
9.07767 -11.4532 2.84074 0.000867615 10
9.07539 -11.4503 3.37314 0.00084398 10
9.07111 -11.4449 3.91307 0.000816973 10
5.88839 -7.37626 -2.529 0.000509239 4
6.82781 -8.55305 -2.52665 0.000342513 4
8.70385 -10.9031 -2.71183 0.000171611 1
9.08722 -11.3834 -2.30697 0.00115312 10
9.08342 -11.3786 -1.78769 0.00117519 10
9.10337 -11.4036 -1.2766 0.000995047 10
9.10759 -11.4089 -0.765065 0.00100424 10
9.1035 -11.4038 -0.2547 0.00100885 10
9.10271 -11.4028 0.254678 0.00100884 10
9.10584 -11.4067 0.764918 0.00100421 10
9.06849 -11.3599 1.2717 0.000931521 10
9.06246 -11.3523 1.78357 0.000919137 10
9.06853 -11.36 2.30223 0.000902691 10
9.06106 -11.3506 2.82313 0.000882352 10
9.06857 -11.36 3.35585 0.000858336 10
9.07538 -11.3685 3.89777 0.000830893 10
5.90723 -7.34711 -2.52606 0.000441374 4
6.85385 -8.52447 -2.52526 0.000314956 4
8.73598 -10.8654 -2.71001 0.000171629 1
9.07873 -11.2917 -2.2948 0.00117255 10
9.07695 -11.2894 -1.77865 0.00119497 10
9.15964 -11.3923 -1.2789 0.000984776 10
9.1577 -11.3899 -0.76593 0.000993873 10
9.1759 -11.4125 -0.25561 0.000998442 10
9.17375 -11.4098 0.255549 0.000998434 10
9.15875 -11.3912 0.766018 0.000993848 10
9.06506 -11.2747 1.2657 0.000947175 10
9.07318 -11.2848 1.77791 0.000934593 10
9.07102 -11.2821 2.29285 0.000917882 10
9.07583 -11.2881 2.81544 0.000897218 10
9.06124 -11.2699 3.33855 0.000872819 10
9.06952 -11.2802 3.87832 0.000844936 10
5.93761 -7.33234 -2.52809 0.000448952 4
6.8797 -8.49573 -2.52384 0.000262104 4
8.77947 -10.8417 -2.71175 0.000171648 1
9.07271 -11.2039 -2.28338 0.00119215 10
9.0857 -11.2199 -1.77268 0.00121491 10
9.07991 -11.2128 -1.2623 0.000813992 10
9.07323 -11.2045 -0.75559 0.000821855 10
9.07778 -11.2101 -0.251785 0.000825987 10
9.07522 -11.207 0.251714 0.000826345 10
9.07072 -11.2014 0.755381 0.000822924 10
9.07214 -11.2032 1.26122 0.000962962 10
9.07081 -11.2015 1.76978 0.000950179 10
9.05938 -11.1874 2.28002 0.000933204 10
9.06469 -11.194 2.79984 0.000912211 10
9.06062 -11.1889 3.32392 0.000887424 10
9.06814 -11.1982 3.86099 0.000859098 10
5.95814 -7.3054 -2.52596 0.000460305 4
6.91083 -8.47352 -2.52439 0.000292018 4
8.81873 -10.8128 -2.7122 0.000171667 1
9.0837 -11.1377 -2.27635 0.00121191 10
9.07665 -11.1291 -1.76332 0.00123503 10
9.08584 -11.1403 -1.25771 0.00102999 10
9.07528 -11.1274 -0.752521 0.00103947 10
9.06985 -11.1207 -0.250487 0.00104423 10
9.08468 -11.1389 0.250896 0.00104422 10
9.07052 -11.1216 0.752126 0.00103945 10
9.06824 -11.1188 1.25527 0.000978883 10
9.07838 -11.1312 1.76366 0.000965899 10
9.07268 -11.1242 2.27358 0.000948655 10
9.07573 -11.1279 2.79124 0.000927333 10
9.06249 -11.1117 3.31035 0.000902155 10
9.0712 -11.1224 3.84574 0.000873383 10
5.9904 -7.29283 -2.52882 0.000505618 4
6.94605 -8.45626 -2.52646 0.000257551 4
8.8427 -10.7653 -2.70799 0.000171686 1
9.0842 -11.0593 -2.26678 0.00123184 10
9.07738 -11.051 -1.75596 0.00125532 10
9.14913 -11.1383 -1.26108 0.00101916 10
9.13885 -11.1258 -0.754568 0.00102855 10
9.1421 -11.1298 -0.251407 0.00103326 10
9.14931 -11.1386 0.251606 0.00103325 10
9.15011 -11.1395 0.755497 0.00102852 10
9.07092 -11.0431 1.2503 0.000994938 10
9.06899 -11.0408 1.75434 0.00098175 10
9.06847 -11.0401 2.26286 0.000964236 10
9.06619 -11.0374 2.77644 0.000942581 10
9.06579 -11.0369 3.29747 0.000917009 10
9.06782 -11.0393 3.82795 0.000887787 10
6.00225 -7.25548 -2.52312 0.000494335 4
6.96679 -8.4214 -2.5233 0.000310468 4
8.87974 -10.7338 -2.70785 0.000171705 1
9.07742 -10.9727 -2.25552 0.00125194 10
9.0672 -10.9604 -1.74658 0.00127578 10
9.20134 -11.1225 -1.26292 0.00100837 10
9.21775 -11.1423 -0.757866 0.00101766 10
9.20826 -11.1309 -0.252157 0.00102232 10
9.21637 -11.1407 0.252379 0.00102232 10
9.21672 -11.1411 0.757781 0.00101763 10
