VERSION 0.7
FIELDS x y z intensity label
SIZE 4 4 4 4 4
TYPE F F F F F
COUNT 1 1 1 1 1
WIDTH 1140
HEIGHT 1
VIEWPOINT 13.037 52.9984 2.72845 0.999999 0.000022 0.00097572 -0.00141134
POINTS 1140
DATA ascii
-14.0808 -13.409 1.70113 0.000473449 10
-14.0846 -13.4126 2.38806 0.000466328 10
-14.0656 -13.3945 3.07631 0.000457019 10
-14.0745 -13.403 3.77784 0.000445627 10
-14.0871 -13.4149 4.491 0.000432282 10
-14.0847 -13.4127 5.21145 0.00041713 10
-7.18619 -6.89131 -2.66783 5.22019e-05 4
-8.32923 -7.98744 -2.66426 0.000376015 4
-10.1939 -9.77564 -2.74538 0.000162981 1
-11.6636 -11.185 -2.55948 5.02794e-05 4
-14.0705 -13.4931 -2.39364 0.000591709 10
-14.0597 -13.4828 -1.70426 0.000600293 10
-14.0767 -13.499 -1.02212 0.000605991 10
-14.0679 -13.4906 -0.340218 0.000608741 10
-14.0732 -13.4957 0.340347 0.000608511 10
-14.0779 -13.5002 1.02221 0.000605302 10
-14.0786 -13.5009 1.70655 0.000467167 10
-14.064 -13.4869 2.39254 0.000460133 10
-14.0827 -13.5048 3.09033 0.00045094 10
-14.0807 -13.5029 3.79214 0.00043969 10
-14.0805 -13.5027 4.50389 0.00042651 10
-14.0793 -13.5015 5.22685 0.000411548 10
-7.1467 -6.90148 -2.6621 0.000110936 4
-8.30314 -8.01825 -2.66485 0.000114191 4
-10.1186 -9.77142 -2.73425 4.93746e-05 4
-11.622 -11.2232 -2.55893 8.64456e-05 4
-14.0549 -13.5726 -2.39903 0.000583794 10
-14.0594 -13.577 -1.70996 0.000592269 10
-14.0561 -13.5738 -1.02406 0.000597896 10
-14.0763 -13.5933 -0.341566 0.00060061 10
-14.0769 -13.5939 0.341582 0.000600382 10
-14.0619 -13.5794 1.02449 0.000465655 10
-14.0614 -13.5789 1.71019 0.00046092 10
-14.0817 -13.5985 2.40361 0.000453973 10
-14.0847 -13.6014 3.10117 0.000444895 10
-14.0805 -13.5974 3.80484 0.000433786 10
-14.078 -13.595 4.51827 0.000420771 10
-14.0692 -13.5865 5.24067 0.000405997 10
-7.13309 -6.93663 -2.66603 0.000251254 4
-8.2788 -8.05078 -2.66604 8.46655e-05 4
-10.0108 -9.7351 -2.7143 3.47025e-05 4
-11.5834 -11.2644 -2.55909 6.61133e-05 4
-14.0699 -13.6824 -2.40974 0.000575924 10
-14.057 -13.6698 -1.71545 0.000584291 10
-23.2786 -22.6374 -1.70172 0.000109534 10
-23.2759 -22.6348 -0.566712 0.000110115 10
-23.2819 -22.6407 0.566859 0.000110066 10
-14.062 -13.6747 1.02796 0.000459383 10
-14.0796 -13.6918 1.71822 0.000454707 10
-14.0625 -13.6752 2.40847 0.000447848 10
-14.0658 -13.6784 3.10751 0.000438884 10
-14.0854 -13.6975 3.81906 0.000427915 10
-14.071 -13.6835 4.53132 0.000415065 10
-14.0758 -13.6881 5.2609 0.000400478 10
-7.11048 -6.96309 -2.66665 4.56855e-05 4
-8.25621 -8.08508 -2.66784 0.000106332 4
-9.89043 -9.68543 -2.6908 4.35005e-05 4
-11.5568 -11.3173 -2.56192 6.16001e-05 4
-14.0531 -13.7618 -2.41508 0.000568099 10
-14.0701 -13.7784 -1.72291 0.000576359 10
-14.1416 -13.8485 -1.03731 0.00036734 10
-14.1471 -13.8538 -0.345622 0.000369158 10
-14.1517 -13.8584 0.345736 0.000369162 10
-14.0645 -13.773 1.03166 0.000453148 10
-14.0753 -13.7836 1.72355 0.000448531 10
-14.0698 -13.7782 2.41795 0.000441758 10
-14.0675 -13.7759 3.11849 0.000432908 10
-14.067 -13.7755 3.8271 0.000422078 10
-14.0671 -13.7755 4.5455 0.000409392 10
-14.0827 -13.7908 5.28146 0.000394991 10
-7.07104 -6.97299 -2.66097 7.83231e-05 4
-8.21863 -8.10467 -2.66482 0.000114218 4
-11.5007 -11.3412 -2.55824 7.96941e-05 4
-14.0603 -13.8653 -2.42461 0.00056032 10
-14.0607 -13.8657 -1.72768 0.000568474 10
-14.0702 -13.8751 -1.03562 0.000379066 10
-14.0685 -13.8734 -0.344884 0.00038079 10
-14.0658 -13.8708 0.344818 0.000380644 10
-14.0798 -13.8846 1.03633 0.000446948 10
-14.0774 -13.8822 1.72973 0.00044239 10
-14.0734 -13.8783 2.42687 0.000435704 10
-14.0805 -13.8853 3.1321 0.000426966 10
-14.0704 -13.8753 3.84117 0.000416276 10
-14.0684 -13.8733 4.56154 0.000403752 10
-14.0737 -13.8785 5.2962 0.000389537 10
-7.05116 -7.00211 -2.66267 0.00028394 4
-8.18759 -8.13063 -2.66394 9.84711e-05 4
-11.5002 -11.4202 -2.56697 0.000331577 4
-14.0618 -13.964 -2.43327 0.000552588 10
-14.0748 -13.9768 -1.73539 0.000560635 10
-14.2202 -14.1213 -1.05028 0.000356425 10
-14.2272 -14.1282 -0.349982 0.000358195 10
-14.2245 -14.1256 0.349915 0.000358198 10
-14.0707 -13.9728 1.03924 0.000440786 10
-14.061 -13.9631 1.73369 0.000436286 10
-14.0663 -13.9684 2.43404 0.000429686 10
-14.0763 -13.9784 3.142 0.000421061 10
-14.0828 -13.9849 3.85786 0.000410508 10
-14.0688 -13.971 4.57748 0.000398147 10
-14.0782 -13.9803 5.31624 0.000384116 10
-7.02198 -7.02198 -2.66089 5.54861e-05 4
-8.1637 -8.1637 -2.66542 8.07525e-05 4
-9.71172 -9.71172 -2.66971 0.000201318 4
-11.4988 -11.4988 -2.5756 0.00034647 4
-14.0651 -14.0651 -2.44232 0.000544902 10
-14.0644 -14.0644 -1.74016 0.000552843 10
-14.132 -14.132 -1.0474 0.000361551 10
-14.1272 -14.1272 -0.348734 0.000363344 10
-14.1266 -14.1266 0.348716 0.000363347 10
-14.0642 -14.0642 1.04238 0.000434661 10
-14.0697 -14.0697 1.74082 0.000430219 10
-14.0625 -14.0625 2.44187 0.000423705 10
-14.0782 -14.0782 3.15337 0.000415192 10
-14.0732 -14.0732 3.86865 0.000404776 10
-14.08 -14.08 4.59706 0.000392576 10
-14.07 -14.07 5.33164 0.000378728 10
-6.99707 -7.04609 -2.66076 0.000280713 4
-8.14794 -8.20502 -2.66961 0.000183185 4
-9.66643 -9.73414 -2.66658 0.000197053 4
-11.4818 -11.5622 -2.58082 0.00027562 4
-14.0639 -14.1624 -2.45068 0.000537264 10
-14.0708 -14.1694 -1.74706 0.000545101 10
-14.0639 -14.1624 -1.04602 0.000363488 10
-14.0637 -14.1622 -0.348384 0.000365145 10
-14.0622 -14.1607 0.348345 0.000365002 10
-14.0739 -14.1725 1.04676 0.000428574 10
-14.0641 -14.1626 1.74622 0.00042419 10
-14.0757 -14.1743 2.45273 0.00041776 10
-14.0679 -14.1664 3.16212 0.000409358 10
-14.0762 -14.1748 3.88304 0.000399079 10
-14.0761 -14.1747 4.61191 0.00038704 10
-14.0867 -14.1854 5.35672 0.000373375 10
-6.9738 -7.07186 -2.66128 0.000212181 4
-8.09994 -8.21383 -2.66326 0.000246235 4
-9.65148 -9.7872 -2.67187 0.000183149 4
-11.4858 -11.6473 -2.59084 0.000302399 4
-14.071 -14.2688 -2.46057 0.000529673 10
-14.0643 -14.262 -1.75241 0.000537405 10
-14.1995 -14.3992 -1.05983 0.000350952 10
-14.1911 -14.3907 -0.352783 0.000352699 10
-14.2078 -14.4076 0.353196 0.000352702 10
-14.0692 -14.2671 1.05011 0.000422525 10
-14.0672 -14.265 1.75278 0.000418198 10
-14.0756 -14.2735 2.46138 0.000411852 10
-14.0735 -14.2714 3.17457 0.000403562 10
-14.0796 -14.2776 3.89773 0.000393418 10
-14.0768 -14.2747 4.62845 0.000381538 10
-14.0795 -14.2775 5.37289 0.000368054 10
-6.95617 -7.10341 -2.664 7.18197e-05 4
-8.07743 -8.2484 -2.66531 0.000102442 4
-9.59788 -9.80103 -2.66648 0.000208874 4
-11.4679 -11.7107 -2.59602 0.000204348 4
-14.052 -14.3494 -2.466 0.000522131 10
-14.07 -14.3678 -1.75937 0.000529759 10
-14.1044 -14.4029 -1.05648 0.000355905 10
-14.0943 -14.3927 -0.351623 0.000357674 10
-14.0977 -14.3961 0.351707 0.000357677 10
-14.0707 -14.3685 1.05395 0.000416515 10
-14.0733 -14.3712 1.75978 0.000412245 10
-14.0673 -14.3651 2.46869 0.000405983 10
-14.068 -14.3657 3.1846 0.000397802 10
-14.0822 -14.3803 3.91232 0.000387794 10
-14.0837 -14.3818 4.64721 0.000376072 10
-14.0856 -14.3838 5.39436 0.000362769 10
-6.93233 -7.12867 -2.66438 7.18244e-05 4
-8.05457 -8.2827 -2.66729 0.00010245 4
-9.57683 -9.84807 -2.67017 0.00020568 4
-11.4697 -11.7945 -2.60572 0.000168124 4
-14.0622 -14.4605 -2.47664 0.000514637 10
-14.0526 -14.4506 -1.76349 0.000522163 10
-14.0622 -14.4604 -1.05709 0.0003482 10
-14.0703 -14.4688 -0.352282 0.00034979 10
-14.0687 -14.4671 0.35224 0.000349652 10
-14.0593 -14.4575 1.05688 0.000410543 10
-14.0548 -14.4529 1.76377 0.000416473 10
-14.0571 -14.4552 2.47572 0.000410311 10
-14.0695 -14.468 3.19637 0.000402203 10
-14.0675 -14.4659 3.92224 0.000382206 10
-14.0738 -14.4724 4.66058 0.000370642 10
-14.0527 -14.4507 5.40102 0.000367227 10
-6.90463 -7.14995 -2.66331 6.20343e-05 4
-8.01621 -8.30103 -2.66417 4.33476e-05 4
-9.54228 -9.88132 -2.67014 0.000236769 4
-11.4659 -11.8733 -2.61427 0.000273896 4
-14.0676 -14.5674 -2.48652 0.000507193 10
-14.0625 -14.5622 -1.7711 0.000514616 10
-14.1584 -14.6614 -1.06816 0.000345607 10
-14.1553 -14.6583 -0.355689 0.00034733 10
-14.1717 -14.6752 0.356099 0.000347333 10
-14.0705 -14.5705 1.06154 0.00040461 10
-13.9714 -14.4678 1.75963 0.000422268 10
-13.964 -14.4602 2.46822 0.000416025 10
-13.9677 -14.464 3.18468 0.000407811 10
-14.0662 -14.566 3.93603 0.000376655 10
-14.0849 -14.5853 4.68107 0.000365248 10
-13.9597 -14.4557 5.38464 0.000372378 10
-6.88428 -7.17885 -2.66511 7.50991e-05 4
-8.00033 -8.34266 -2.66855 8.2761e-05 4
-9.51291 -9.91996 -2.67159 5.67873e-05 4
-11.4547 -11.9448 -2.62119 0.000362219 4
-14.0566 -14.6581 -2.49361 0.000499798 10
-14.063 -14.6648 -1.7776 0.000507119 10
-14.0701 -14.6722 -1.06536 0.000350392 10
-14.0603 -14.6619 -0.354584 0.000352138 10
-14.0684 -14.6704 0.354788 0.000339584 10
-14.0609 -14.6625 1.06466 0.000398717 10
-13.8542 -14.447 1.7512 0.000428096 10
-13.8548 -14.4476 2.45781 0.000421773 10
-13.8642 -14.4574 3.17257 0.000413453 10
-14.0652 -14.667 3.95004 0.000371142 10
-14.0433 -14.6442 4.68423 0.000121247 10
-13.8564 -14.4493 5.36421 0.000377561 10
-6.85927 -7.20294 -2.66515 0.000199189 4
-7.95688 -8.35555 -2.66377 0.000137946 4
-9.461 -9.93503 -2.66673 6.32222e-05 4
-11.4541 -12.028 -2.63065 0.000311848 4
-14.0677 -14.7726 -2.50471 0.000492454 10
-14.0714 -14.7764 -1.78516 0.000499673 10
-14.2168 -14.9291 -1.08041 0.000335779 10
-14.2256 -14.9383 -0.360065 0.000337459 10
-14.2352 -14.9485 0.36031 0.000337462 10
-14.0633 -14.768 1.06875 0.000392864 10
-13.7774 -14.4677 1.74787 0.000433959 10
-13.7698 -14.4598 2.45168 0.000427554 10
-13.7664 -14.4561 3.16172 0.000419128 10
-14.0775 -14.7828 3.96797 0.000365666 10
-13.9897 -14.6907 4.68343 0.000121236 10
-13.7742 -14.4643 5.35191 0.000382773 10
-6.82526 -7.2175 -2.6617 0.000421264 4
-7.93386 -8.38982 -2.66585 7.29201e-05 4
-9.42994 -9.97188 -2.66777 5.787e-05 4
-11.4417 -12.0993 -2.6375 0.000275729 4
-14.0587 -14.8666 -2.51232 0.00048516 10
-14.0522 -14.8597 -1.7893 0.000492279 10
-14.1193 -14.9308 -1.07696 0.000340378 10
-14.1335 -14.9457 -0.359052 0.000342079 10
-14.12 -14.9315 0.358711 0.000342082 10
-14.0625 -14.8707 1.07262 0.00038705 10
-13.7157 -14.5039 1.74645 0.000414656 10
-13.7169 -14.5052 2.45125 0.000408367 10
-13.7202 -14.5087 3.16272 0.000400152 10
-14.0637 -14.8719 3.97868 0.000360228 10
-13.9432 -14.7445 4.68506 0.000121225 10
-13.7221 -14.5107 5.35133 0.000364972 10
-6.80353 -7.24503 -2.66308 0.000202482 4
-7.89529 -8.40763 -2.66274 8.27808e-05 4
-9.39505 -10.0047 -2.66777 3.32249e-05 4
-11.435 -12.177 -2.64573 0.000260406 4
-14.0535 -14.9655 -2.52073 0.000477917 10
-14.0576 -14.9699 -1.79664 0.000484936 10
-14.0674 -14.9803 -1.07698 0.000323388 10
-14.0638 -14.9764 -0.358609 0.00032487 10
-14.073 -14.9862 0.358843 0.000324738 10
-14.0662 -14.979 1.07689 0.000381278 10
-14.0731 -14.9863 3.99611 0.000354828 10
-13.8878 -14.7891 4.68377 0.000121214 10
-6.77266 -7.26279 -2.6609 0.000225358 4
-7.86703 -8.43636 -2.66313 9.85565e-05 4
-11.4409 -12.2689 -2.65699 0.000209244 4
-14.0603 -15.0778 -2.53137 0.000470726 10
-14.056 -15.0732 -1.80314 0.000477645 10
-14.1858 -15.2124 -1.0901 0.000330812 10
-14.1736 -15.1993 -0.362758 0.00033247 10
-14.1741 -15.1998 0.362771 0.000332474 10
-14.0721 -15.0905 1.08136 0.000375547 10
-14.069 -15.0871 4.00988 0.000349468 10
-13.8502 -14.8525 4.68853 0.000121203 10
-6.7449 -7.28382 -2.65996 0.000120852 4
-7.84577 -8.47265 -2.66592 9.65931e-05 4
-9.32689 -10.0721 -2.66831 5.03832e-05 4
-11.4188 -12.3312 -2.66184 0.000281657 4
-14.0679 -15.1919 -2.54227 0.000463587 10
-14.0667 -15.1906 -1.81131 0.000470407 10
-14.0905 -15.2164 -1.08685 0.000335258 10
-14.0911 -15.217 -0.362005 0.000336937 10
-14.082 -15.2072 0.361771 0.00033694 10
-14.0665 -15.1905 1.085 2.91672e-05 10
-14.0682 -15.1922 4.02474 0.000344146 10
-13.788 -14.8897 4.68505 0.000121192 10
-6.72816 -7.31682 -2.66342 0.000192723 4
-7.81757 -8.50154 -2.66641 9.46294e-05 4
-9.29245 -10.1055 -2.66854 6.1109e-05 4
-11.4259 -12.4255 -2.67358 0.000257601 4
-14.0494 -15.2786 -2.54854 0.000456499 10
-14.0632 -15.2936 -1.81772 0.000463221 10
-14.0532 -15.2828 -1.08808 0.000308915 10
-14.0591 -15.2892 -0.362552 0.000310333 10
-14.0611 -15.2913 0.362602 0.000310205 10
-14.0058 -15.2312 1.08441 2.91559e-05 10
-14.0661 -15.2967 4.03939 0.000338862 10
-13.7452 -14.9478 4.68821 0.000121182 10
-6.70754 -7.34569 -2.66539 0.000212337 4
-7.7774 -8.51734 -2.66283 8.4779e-05 4
-9.25626 -10.1369 -2.66829 5.14654e-05 4
-11.3747 -12.4569 -2.67176 7.89698e-05 4
-14.0573 -15.3947 -2.5597 0.000449465 10
-14.0516 -15.3885 -1.82315 0.000456089 10
-14.1245 -15.4683 -1.09778 0.000325941 10
-14.1328 -15.4774 -0.365844 0.000327578 10
-14.1291 -15.4733 0.365747 0.000327581 10
-13.964 -15.2925 1.0853 2.91445e-05 10
-14.1431 -15.4887 1.83503 0.000223222 10
-14.1354 -15.4802 2.57393 0.000219791 10
-14.1352 -15.48 3.32016 0.00021531 10
-14.0649 -15.403 4.05446 0.000333619 10
-13.7216 -15.027 4.698 0.000350514 10
-14.1483 -15.4943 5.62214 0.000196135 10
-6.68535 -7.37291 -2.66678 0.000209084 4
-7.74981 -8.54685 -2.66358 8.47859e-05 4
-9.22106 -10.1694 -2.66836 4.93258e-05 4
-11.3321 -12.4975 -2.67198 9.74752e-05 4
-14.0632 -15.5095 -2.57062 0.000442483 10
-14.052 -15.4972 -1.83021 0.000449011 10
-14.0659 -15.5125 -1.09743 0.000299444 10
-14.0599 -15.5059 -0.365355 0.000300819 10
-14.06 -15.506 0.365356 0.000300695 10
-13.899 -15.3284 1.0844 2.91331e-05 10
-14.0804 -15.5285 4.07453 0.000328415 10
-13.7038 -15.1132 4.70996 0.000345073 10
-14.146 -15.6008 5.64282 7.70445e-05 10
-6.64704 -7.38228 -2.66177 0.000160091 4
-7.72688 -8.58157 -2.66598 9.07086e-05 4
-9.1871 -10.2033 -2.66882 0.000106168 4
-11.2847 -12.533 -2.67112 4.54942e-05 4
-14.0578 -15.6127 -2.57958 0.000435555 10
-14.063 -15.6185 -1.83873 0.000441986 10
-25.9562 -28.8272 -2.03294 5.67208e-05 10
-25.9532 -28.824 -0.677021 3.76968e-05 10
-25.9702 -28.8429 0.677464 3.76972e-05 10
-13.8557 -15.3883 1.08521 2.91217e-05 10
-14.0721 -15.6286 4.08789 0.000323252 10
-13.7118 -15.2285 4.73094 0.000339674 10
-14.1484 -15.7134 5.66564 0.000190004 10
-6.62543 -7.41014 -2.66345 0.00052605 4
-7.69653 -8.6081 -2.66586 0.000130158 4
-9.15008 -10.2338 -2.66843 6.00609e-05 4
-11.2437 -12.5754 -2.67177 5.25001e-05 4
-14.0674 -15.7336 -2.59142 0.00042868 10
-14.0607 -15.726 -1.84559 0.000435016 10
-25.7829 -28.8366 -2.02725 5.7628e-05 10
-25.9417 -29.0142 -0.679357 3.36131e-05 10
-25.9367 -29.0086 0.679227 3.35958e-05 10
-13.8 -15.4345 1.08506 2.91102e-05 10
-14.0715 -15.7381 4.10365 0.000318129 10
-13.7223 -15.3476 4.75302 0.000334317 10
-14.1448 -15.8201 5.68628 0.000186975 10
-6.60336 -7.43755 -2.665 0.000620847 4
-7.67297 -8.64227 -2.66813 0.000142002 4
-9.11629 -10.2679 -2.66901 7.4011e-05 4
-10.7204 -12.0746 -2.55742 6.91177e-05 4
-14.0567 -15.8324 -2.5996 0.00042186 10
-14.0622 -15.8386 -1.85304 0.000428101 10
-25.5941 -28.8274 -2.0203 5.8542e-05 10
-25.6708 -28.9137 -0.674903 3.43778e-05 10
-25.6711 -28.9141 0.67491 3.43601e-05 10
-13.7409 -15.4767 1.08465 2.90987e-05 10
-14.0795 -15.8581 4.1221 0.000313046 10
-13.7044 -15.4356 4.76545 0.000329001 10
-6.57588 -7.45887 -2.6644 0.000604551 4
-7.62806 -8.65233 -2.663 8.67861e-05 4
-9.07148 -10.2896 -2.66639 5.5782e-05 4
-10.6893 -12.1246 -2.56008 7.1393e-05 4
-14.0649 -15.9535 -2.6114 0.000415094 10
-14.0524 -15.9393 -1.85907 0.000421241 10
-25.417 -28.8299 -2.01425 5.94629e-05 10
-25.4103 -28.8223 -0.670694 3.95183e-05 10
-25.4083 -28.8201 0.670641 3.95188e-05 10
-13.7052 -15.5455 1.08611 0.000358879 10
-14.0664 -15.9552 4.13456 0.000308004 10
-13.7186 -15.5607 4.78924 0.000323728 10
-6.54658 -7.4781 -2.66309 0.000637274 4
-9.04748 -10.3348 -2.66992 8.15358e-05 4
-10.6341 -12.1472 -2.557 7.36689e-05 4
-14.0552 -16.0551 -2.61999 0.000408383 10
-14.05 -16.0492 -1.86615 0.000414437 10
-25.2477 -28.8403 -2.0088 6.03904e-05 10
-25.3972 -29.011 -0.673018 3.44768e-05 10
-13.7108 -15.6618 1.09089 0.000353123 10
-14.0715 -16.0737 4.15252 0.000303004 10
-6.52424 -7.50528 -2.66465 0.000643854 4
-7.57158 -8.7101 -2.66445 0.000167683 4
-9.007 -10.3614 -2.66864 0.000158796 4
-10.5916 -12.1843 -2.55701 5.72425e-05 4
-14.057 -16.1707 -2.63083 0.000401727 10
-14.0535 -16.1667 -1.87411 0.000407688 10
-25.0694 -28.839 -2.00261 6.13246e-05 10
-25.1178 -28.8947 -0.668283 3.52737e-05 10
-25.1325 -28.9117 0.668674 3.52554e-05 10
-13.704 -15.7647 1.09471 0.000347413 10
-14.0644 -16.1793 4.16707 0.000298045 10
-6.49051 -7.51932 -2.66157 0.000679853 4
-7.54216 -8.73767 -2.66481 6.90515e-05 4
-8.96766 -10.3891 -2.66771 9.65751e-05 4
-10.5944 -12.2737 -2.56801 0.00033633 4
-14.0498 -16.2768 -2.6401 0.000395126 10
-14.05 -16.277 -1.8812 0.000400995 10
-24.8875 -28.8324 -1.99611 6.22653e-05 10
-24.8827 -28.8269 -0.664702 4.13798e-05 10
-24.8894 -28.8347 0.66488 4.13803e-05 10
-13.6986 -15.8699 1.0987 0.00034175 10
-14.1117 -16.3485 1.88946 0.000227112 10
-14.1122 -16.3491 2.65183 0.000223689 10
-14.1136 -16.3508 3.42104 0.000219187 10
-14.0752 -16.3063 4.1871 0.000293127 10
-14.1079 -16.3441 4.98463 0.000207166 10
-14.1126 -16.3496 5.78717 0.000199784 10
-6.45992 -7.53692 -2.6598 0.000666826 4
-7.52016 -8.77392 -2.66785 4.73535e-05 4
-8.93408 -10.4236 -2.66853 0.00010517 4
-10.5998 -12.367 -2.57976 0.000368965 4
-14.054 -16.397 -2.65162 0.000388581 10
-14.0493 -16.3917 -1.88876 0.000394359 10
-24.7181 -28.839 -1.99058 6.32126e-05 10
-24.8509 -28.994 -0.66655 3.53759e-05 10
-24.8547 -28.9985 0.666653 3.53574e-05 10
-13.7018 -15.9862 1.10343 0.000336134 10
-14.0415 -16.3825 1.88771 0.000358164 10
-14.0284 -16.3672 2.64681 0.000352768 10
-14.0391 -16.3797 3.41682 0.000345671 10
-14.0651 -16.41 4.20111 0.000288251 10
-14.0349 -16.3748 4.97901 0.000326718 10
-14.0346 -16.3744 5.77859 0.000315081 10
-6.44962 -7.57827 -2.66643 0.000519768 4
-7.48485 -8.79467 -2.66619 0.000203242 4
-8.90325 -10.4613 -2.67021 5.04439e-05 4
-10.5857 -12.4382 -2.58688 0.000317591 4
-14.0541 -16.5136 -2.66252 0.000382093 10
-14.0572 -16.5171 -1.89755 0.000387779 10
-19.1563 -22.5086 -1.549 0.000162752 10
-19.1509 -22.5023 -0.51577 0.000163659 10
-19.1559 -22.5081 0.515903 0.000163661 10
-13.6976 -16.0947 1.10761 0.000330566 10
-13.9441 -16.3842 1.88229 0.000362633 10
-13.9449 -16.3852 2.64182 0.000357174 10
-13.9351 -16.3736 3.40538 0.000349994 10
-14.0671 -16.5288 4.21893 0.000283417 10
-13.9292 -16.3668 4.96176 0.00033082 10
-13.9437 -16.3838 5.76469 0.000319046 10
-6.41827 -7.595 -2.66442 0.000140576 4
-7.45999 -8.82771 -2.6683 5.32816e-05 4
-10.5881 -12.5293 -2.59814 0.000317708 4
-14.0564 -16.6335 -2.67393 0.00037566 10
-14.0481 -16.6237 -1.90415 0.000381256 10
-19.0248 -22.5128 -1.54472 0.000164973 10
-19.0337 -22.5233 -0.514727 0.000165892 10
-19.0167 -22.5032 0.514267 0.000165894 10
-13.6982 -16.2096 1.11222 0.000325045 10
-13.8479 -16.3867 1.87701 0.000367122 10
-13.8377 -16.3747 2.63233 0.0003616 10
-13.84 -16.3774 3.3961 0.000354337 10
-14.0603 -16.6381 4.23427 0.000278625 10
-13.8464 -16.385 4.95259 0.00033494 10
-13.8449 -16.3833 5.74745 0.00032303 10
-6.39287 -7.61872 -2.6649 0.000107892 4
-7.4292 -8.85378 -2.66833 8.48629e-05 4
-8.81384 -10.5039 -2.66532 6.44097e-05 4
-10.5878 -12.618 -2.60886 0.000312473 4
-14.0496 -16.7436 -2.68373 0.000369284 10
-14.0603 -16.7564 -1.91372 0.000374791 10
-18.8976 -22.5212 -1.54076 0.000167206 10
-18.8979 -22.5217 -0.513178 0.000168137 10
-18.8889 -22.5109 0.512932 0.000168138 10
-13.7101 -16.3391 1.11781 0.000319572 10
-13.7386 -16.373 1.86993 0.000371631 10
-13.738 -16.3723 2.62421 0.000366046 10
-13.7378 -16.372 3.38502 0.000358699 10
-14.0765 -16.7757 4.25676 0.000273876 10
-13.7491 -16.3855 4.93823 0.000339079 10
-13.7424 -16.3775 5.72858 0.000327031 10
-6.35569 -7.62833 -2.66048 0.000179832 4
-7.38936 -8.86899 -2.66512 0.000144082 4
-8.7853 -10.5444 -2.66781 3.22082e-05 4
-10.5706 -12.6872 -2.61551 0.000336159 4
-14.0575 -16.8723 -2.69648 0.000362965 10
-14.0545 -16.8687 -1.92094 0.000368384 10
-18.813 -22.5801 -1.54028 0.000167659 10
-18.8158 -22.5834 -0.513086 0.000141279 10
-18.7544 -22.5098 0.511412 0.000170395 10
-13.7027 -16.4464 1.12188 0.000314149 10
-13.7129 -16.4587 1.87425 0.000310862 10
-13.6974 -16.4401 2.62741 0.00030605 10
-13.7156 -16.4619 3.39368 0.000299768 10
-14.077 -16.8957 4.27472 0.00026917 10
-13.7131 -16.459 4.94592 0.000283099 10
-13.7028 -16.4466 5.73598 0.000272904 10
-6.32669 -7.64765 -2.6595 9.15573e-05 4
-7.36181 -8.8989 -2.66637 4.93472e-05 4
-8.75042 -10.5774 -2.66841 7.9455e-05 4
-10.5812 -12.7904 -2.62916 0.000348976 4
-14.0552 -16.9898 -2.70739 0.000356703 10
-14.0499 -16.9834 -1.9284 0.000362033 10
-18.6198 -22.5074 0.509879 0.000172663 10
-14.0611 -16.9969 1.15608 0.000284658 10
-14.0536 -16.9879 1.92891 0.000281655 10
-14.055 -16.9896 2.70737 0.000277259 10
-14.059 -16.9944 3.49332 0.00027152 10
-14.0695 -17.0071 4.29044 0.000264505 10
-14.0702 -17.008 5.09608 0.000256297 10
-14.0779 -17.0173 5.91782 0.00024699 10
-6.31478 -7.68774 -2.66576 8.82937e-05 4
-7.32787 -8.92109 -2.66534 0.000110547 4
-8.71317 -10.6076 -2.66833 5.5839e-05 4
-10.5703 -12.8684 -2.6376 0.000369264 4
-14.0501 -17.1048 -2.7179 0.000350499 10
-14.0632 -17.1208 -1.93841 0.000355742 10
-18.4828 -22.5013 0.508275 0.000174943 10
-14.0699 -17.1289 1.16171 0.000279712 10
-14.0697 -17.1288 1.93931 0.000276757 10
-14.0594 -17.1162 2.7197 0.000173915 10
-14.0699 -17.1289 3.51086 0.000170311 10
-14.0725 -17.1321 4.30956 0.000259885 10
-14.0715 -17.1309 5.11818 0.00025181 10
-6.27332 -7.69185 -2.65958 0.000277981 4
-7.30208 -8.95323 -2.66731 0.00022901 4
-8.66458 -10.6238 -2.66479 6.9806e-05 4
-10.5635 -12.9522 -2.64718 0.000348179 4
-14.0478 -17.2243 -2.72907 0.000344352 10
-14.0578 -17.2366 -1.94596 0.000349508 10
-18.3546 -22.505 0.506908 0.000177234 10
-14.0595 -17.2387 1.16581 0.000274811 10
-14.0647 -17.2451 1.94691 0.000271905 10
-14.0667 -17.2475 4.32621 0.000255307 10
-14.0761 -17.259 5.14173 0.000247365 10
-6.25414 -7.72322 -2.66286 9.48475e-05 4
-7.27259 -8.9809 -2.66797 9.47707e-05 4
-8.63343 -10.6614 -2.66664 6.65911e-05 4
-10.5532 -13.0322 -2.65599 0.000367999 4
-14.0536 -17.3547 -2.74195 0.000338262 10
-14.0628 -17.3661 -1.95502 0.000343334 10
-18.2371 -22.521 0.505831 0.000179537 10
-14.0553 -17.3569 1.17048 0.000269957 10
-14.065 -17.3688 1.95533 0.000267098 10
-14.0575 -17.3596 4.34199 0.000250773 10
-14.0664 -17.3705 5.16029 0.000242962 10
-6.22727 -7.74516 -2.66291 0.000199521 4
-7.24012 -9.00489 -2.66758 7.70078e-05 4
-8.58978 -10.6835 -2.66466 5.15598e-05 4
-10.5515 -13.1234 -2.66706 0.000316969 4
-14.0591 -17.486 -2.75492 0.000332231 10
-14.0521 -17.4773 -1.96201 0.000337217 10
-14.3232 -17.8145 -1.19796 0.000396082 10
-14.3348 -17.8289 -0.39932 0.00039812 10
-14.3201 -17.8106 0.39891 0.000398124 10
-14.0665 -17.4952 1.17649 0.000265148 10
-14.0592 -17.4861 1.96299 0.000262336 10
-14.0689 -17.4982 4.36434 0.000246282 10
-14.0594 -17.4864 5.18011 0.000238601 10
-6.193 -7.75784 -2.65982 0.000160283 4
-7.19282 -9.01028 -2.66172 3.94945e-05 4
-10.5567 -13.2241 -2.68003 0.000294204 4
-14.0446 -17.5934 -1.96952 0.00033116 10
-14.2336 -17.8301 -1.19567 0.00040079 10
-14.2212 -17.8146 -0.397885 0.000402851 10
-14.2315 -17.8274 0.398171 0.000402854 10
-14.059 -17.6114 1.181 0.000260386 10
-14.0678 -17.6224 1.97277 0.000257621 10
-14.068 -17.6227 4.38313 0.000241835 10
-14.0764 -17.6332 5.20899 0.000234283 10
-6.17365 -7.78921 -2.66317 8.5054e-05 4
-7.16755 -9.0432 -2.66404 0.000173791 4
-8.5199 -10.7494 -2.66619 3.76036e-05 4
-10.5543 -13.3162 -2.69119 0.000355794 4
-14.0509 -17.7278 -1.97907 0.000325162 10
-14.1271 -17.8239 -1.19193 0.000405516 10
-14.1154 -17.8092 -0.396662 0.000407599 10
-14.128 -17.8251 0.397014 0.000407603 10
-14.0662 -17.7472 1.1868 0.000255671 10
-14.0604 -17.7398 1.98041 0.000252951 10
-14.0914 -17.7789 2.78549 0.000197809 10
-14.0993 -17.7889 3.59514 0.000193773 10
-14.0626 -17.7426 4.40072 0.000237432 10
-14.0589 -17.7379 5.2254 0.000230007 10
-14.0921 -17.7798 6.07901 0.000176386 10
-6.14616 -7.81037 -2.66306 0.000147219 4
-7.14053 -9.074 -2.66575 5.13517e-05 4
-8.49121 -10.7904 -2.66899 5.8023e-05 4
-10.5386 -13.3922 -2.69911 0.000315826 4
-14.0464 -17.8498 -1.9872 0.000319223 10
-14.0587 -17.8654 -1.19142 0.000322361 10
-14.0615 -17.869 -0.396897 0.000323865 10
-14.0615 -17.869 0.396896 0.000323716 10
-14.0569 -17.8631 1.19127 0.000251002 10
-14.0551 -17.8608 1.98842 0.000248328 10
-14.0556 -17.8615 2.79073 0.000244416 10
-14.0559 -17.8618 3.59994 0.00023931 10
-14.0743 -17.8852 4.42387 0.000233072 10
-14.0652 -17.8736 5.25089 0.000225774 10
-14.0743 -17.8853 6.09824 0.000217502 10
-6.11326 -7.82461 -2.66062 0.000121056 4
-7.10821 -9.09808 -2.66552 0.000120489 4
-8.44723 -10.812 -2.66701 6.1253e-05 4
-10.5488 -13.5019 -2.71379 0.000308059 4
-14.0475 -17.9799 -1.99622 0.000313344 10
-14.0623 -17.999 -1.19705 0.000316428 10
-14.052 -17.9858 -0.398399 0.000317905 10
-14.0521 -17.9859 0.398402 0.000317758 10
-14.0667 -18.0046 1.19742 0.00024638 10
-14.0677 -18.0058 1.99909 0.000243752 10
-14.0571 -17.9923 2.80348 0.000239906 10
-14.0632 -18.0001 3.61789 0.000234888 10
-14.0614 -17.9978 4.43955 0.000228757 10
-14.0714 -18.0105 5.27666 0.000221585 10
-14.0661 -18.0037 6.12185 0.000213455 10
-6.09247 -7.85437 -2.66349 0.000114521 4
-7.07894 -9.12611 -2.66648 0.000179762 4
-8.40911 -10.841 -2.66691 4.62133e-05 4
-10.5437 -13.5929 -2.72466 0.000221076 4
-12.7866 -16.4844 -2.56155 3.06702e-05 4
-14.0598 -18.1258 -2.00696 0.000307525 10
-14.0458 -18.1078 -1.20102 0.000310554 10
-14.0571 -18.1223 -0.400333 0.000312005 10
-14.0649 -18.1324 0.400556 0.00031186 10
-14.0649 -18.1323 1.20264 0.000241805 10
-14.0528 -18.1167 2.00594 0.000239222 10
-14.0628 -18.1296 2.81722 0.000235442 10
-14.0705 -18.1396 3.63604 0.000230511 10
-14.0665 -18.1345 4.46113 0.000224485 10
-14.0648 -18.1322 5.2979 0.000217438 10
-14.0704 -18.1395 6.15126 0.00020945 10
-6.05479 -7.8623 -2.659 0.000664268 4
-7.04882 -9.15307 -2.66715 0.000130388 4
-10.5404 -13.6869 -2.73612 0.000183281 4
-14.0551 -18.251 -2.01537 0.000301766 10
-14.0555 -18.2515 -1.20728 0.000304742 10
-14.055 -18.2508 -0.402086 0.000306167 10
-14.0609 -18.2585 0.402256 0.000306023 10
-14.0518 -18.2466 1.20696 0.000237277 10
-14.0524 -18.2475 2.01498 0.000234739 10
-14.0557 -18.2516 2.82853 0.000231024 10
-14.0592 -18.2562 3.64955 0.000226179 10
-14.0676 -18.2672 4.48167 0.000220259 10
-14.072 -18.2729 5.32461 0.000213334 10
-14.0756 -18.2776 6.18141 0.000205487 10
-6.03835 -7.89783 -2.66387 0.000687224 4
-7.0136 -9.17341 -2.66592 6.91512e-05 4
-10.5346 -13.7787 -2.74709 0.000372481 4
-12.6741 -16.5771 -2.56215 3.08903e-05 4
-14.0598 -18.3894 -2.02522 0.000296067 10
-17.2077 -22.5067 0.494522 0.000198337 10
-14.0651 -18.3964 1.21361 0.000232796 10
-14.0609 -18.3909 2.02538 0.000230302 10
-14.0695 -18.4021 2.84423 0.000226653 10
-14.0585 -18.3877 3.666 0.000221892 10
-14.0591 -18.3885 4.49937 0.000216076 10
-14.0622 -18.3926 5.34516 0.000209274 10
-14.0652 -18.3965 6.20497 0.000201565 10
-6.00009 -7.90482 -2.65915 0.000631638 4
-6.97248 -9.1859 -2.66247 0.000100772 4
-8.29294 -10.9255 -2.6662 0.000110732 4
-10.4976 -13.83 -2.75001 7.60177e-05 1
-12.6107 -16.614 -2.56103 2.9226e-05 4
-14.0549 -18.5166 -2.03382 0.000290427 10
-17.0745 -22.4948 0.492948 0.000200731 10
-14.065 -18.53 1.21918 0.000228363 10
-13.9875 -18.4278 2.02406 0.000301385 10
-13.9742 -18.4103 2.83793 0.000296755 10
-13.9769 -18.4139 3.66148 0.000290668 10
-14.0703 -18.5369 4.52364 0.000211939 10
-14.0569 -18.5193 5.36769 0.000205257 10
-13.9873 -18.4276 6.19897 0.000264452 10
-5.98527 -7.94272 -2.66485 0.000690597 4
-6.93755 -9.20644 -2.66138 8.89241e-05 4
-8.2476 -10.9449 -2.66389 6.34359e-05 4
-10.4347 -13.8473 -2.74618 7.60282e-05 1
-14.0566 -18.6538 -2.04348 0.000284848 10
-16.9686 -22.5181 0.492158 0.000203135 10
-14.0507 -18.646 1.22358 0.000223977 10
-13.8767 -18.415 2.01732 0.00030478 10
-13.8789 -18.418 2.83163 0.000300101 10
-13.8776 -18.4162 3.65229 0.00029395 10
-14.0648 -18.6646 4.54278 0.000207845 10
-14.0612 -18.6598 5.39415 0.000201284 10
-13.8838 -18.4244 6.18156 0.000267458 10
-5.95587 -7.96137 -2.66412 0.000612091 4
-6.91055 -9.23752 -2.66338 0.000138338 4
-8.21196 -10.9772 -2.66474 6.02168e-05 4
-10.4006 -13.9028 -2.74998 7.60387e-05 1
-12.4943 -16.7015 -2.56101 2.98634e-05 4
-14.0521 -18.7838 -2.05234 0.00027933 10
-16.8375 -22.5071 0.49063 0.000205548 10
-14.058 -18.7917 1.22991 0.000219638 10
-13.7767 -18.4158 2.01212 0.000308185 10
-13.7839 -18.4253 2.82534 0.000303458 10
-13.7734 -18.4112 3.64174 0.000297242 10
-14.0604 -18.795 4.56254 0.000203797 10
-14.0595 -18.7937 5.41862 0.000197354 10
-13.7858 -18.4279 6.16653 0.000270473 10
-5.91827 -7.96896 -2.65973 0.000631777 4
-6.87462 -9.25668 -2.66197 7.51046e-05 4
-8.17706 -11.0104 -2.66587 0.000167765 4
-10.348 -13.9336 -2.74891 7.60492e-05 1
-14.0425 -18.9082 -2.06056 0.000273872 10
-16.7113 -22.5018 0.489239 0.000207969 10
-14.0613 -18.9336 1.23598 0.000215347 10
-13.6967 -18.4427 2.00982 0.00023156 10
-13.7006 -18.4478 2.82145 0.000227897 10
-13.6952 -18.4406 3.63807 0.000223118 10
-14.0651 -18.9386 4.58547 0.000199793 10
-14.0556 -18.9259 5.44257 0.000193468 10
-13.7125 -18.4639 6.16252 0.000202716 10
-5.89414 -7.99462 -2.66141 0.000625276 4
-6.83967 -9.2771 -2.66096 9.29006e-05 4
-8.13409 -11.0328 -2.6644 0.00015165 4
-10.2856 -13.951 -2.74523 7.60598e-05 1
-12.3755 -16.7857 -2.56061 2.96657e-05 4
-14.0476 -19.0538 -2.07107 0.000268475 10
-16.6494 -22.5826 -1.47039 0.000207083 10
-16.6408 -22.5711 -0.48948 0.000208218 10
-16.5851 -22.4954 0.487839 0.000210399 10
-14.0634 -19.0751 1.24201 0.000211104 10
-13.6933 -18.5732 2.01883 0.000227027 10
-13.9492 -18.9203 3.72307 5.52011e-05 10
-14.0535 -19.0617 4.60336 0.000195834 10
-14.0645 -19.0766 5.47177 0.000189625 10
-5.86227 -8.00977 -2.65962 0.000527104 4
-6.82254 -9.32182 -2.66694 8.10481e-05 4
-8.107 -11.0768 -2.66818 5.80849e-05 4
-10.2366 -13.9866 -2.74519 7.60704e-05 1
-14.0428 -19.187 -2.08021 0.000263139 10
-16.4649 -22.4964 0.486612 0.000212837 10
-14.049 -19.1955 1.24664 0.000206908 10
-13.6919 -18.7077 2.02824 0.000222545 10
-13.8922 -18.9812 3.7255 5.51929e-05 10
-14.0671 -19.2202 4.62976 0.00019192 10
-14.0558 -19.2048 5.49442 0.000185826 10
-5.83422 -8.03011 -2.6596 0.00018008 4
-6.78424 -9.3377 -2.66469 3.55852e-05 4
-8.0587 -11.0918 -2.66501 3.33486e-05 4
-10.2007 -14.04 -2.74867 7.6081e-05 1
-14.0562 -19.3467 -2.09219 0.000257863 10
-14.1875 -19.5274 -1.26498 0.000227916 10
-14.1959 -19.539 -0.421567 0.000229108 10
-14.1899 -19.5306 0.421386 0.00022911 10
-14.0605 -19.3526 1.25365 0.00020276 10
-13.6949 -18.8494 2.03841 0.000218113 10
-13.8322 -19.0384 3.72721 5.51847e-05 10
-14.0545 -19.3443 4.64781 0.000188051 10
-14.0678 -19.3627 5.52551 0.000182071 10
-5.80736 -8.0521 -2.66015 0.000291424 4
-6.74188 -9.34784 -2.66085 9.68795e-05 4
-8.01886 -11.1184 -2.66465 6.34769e-05 4
-12.1984 -16.9135 -2.56049 3.11457e-05 4
-14.0438 -19.4721 -2.10044 0.000252648 10
-14.0892 -19.5351 -1.26228 0.000230402 10
-14.0858 -19.5305 -0.42032 0.000231606 10
-14.0861 -19.5308 0.420326 0.000231608 10
-14.0528 -19.4847 1.25902 0.00019866 10
-13.6988 -18.9939 2.04885 0.000213732 10
-14.1305 -19.5924 2.96604 0.000121519 10
-13.7646 -19.0851 3.72694 5.51765e-05 10
-14.0624 -19.498 4.67291 0.000184226 10
-14.0574 -19.4911 5.54811 0.00017836 10
-14.1192 -19.5768 6.46754 0.000149012 10
-5.78391 -8.07888 -2.66231 0.000134261 4
-6.71331 -9.37705 -2.66248 7.90923e-05 4
-7.98569 -11.1543 -2.66655 0.000105448 4
-14.0556 -19.6326 -2.11245 0.000247494 10
-14.1704 -19.793 -1.27574 0.000222643 10
-14.1757 -19.8004 -0.42506 0.000223809 10
-14.1814 -19.8083 0.425231 0.000223811 10
-14.0482 -19.6223 1.26474 0.000194608 10
-13.6906 -19.1228 2.05759 0.000209401 10
-14.0531 -19.6291 2.96415 0.000263845 10
-13.7028 -19.1399 3.72827 0.00020171 10
-14.0553 -19.6323 4.6933 0.000180447 10
-14.0691 -19.6515 5.57976 0.000174692 10
-14.0507 -19.6257 6.46747 0.00023478 10
-5.75383 -8.09642 -2.66146 0.000140821 4
-6.68834 -9.4114 -2.66559 0.000379677 4
-14.046 -19.7646 -2.12136 0.000242401 10
-14.0641 -19.79 -1.27238 0.000225042 10
-14.0648 -19.791 -0.423803 0.00022622 10
-14.0726 -19.802 0.424039 0.000226222 10
-14.0489 -19.7687 1.271 0.000190604 10
-13.7009 -19.2791 2.06925 0.000205121 10
-13.9415 -19.6175 2.95504 0.000266686 10
-13.7059 -19.2861 3.74742 0.000197576 10
-14.0587 -19.7825 4.71745 0.000176713 10
-14.0067 -19.7094 5.58227 6.90668e-05 10
-13.935 -19.6084 6.4457 0.000237329 10
-5.72397 -8.11425 -2.66073 0.000180134 4
-6.65754 -9.43766 -2.66642 0.000158213 4
-7.90096 -11.2003 -2.6643 7.53361e-05 4
-9.70651 -13.7598 -2.66703 9.6929e-05 4
-14.0443 -19.9091 -2.13159 0.000237369 10
-14.1601 -20.0732 -1.2874 0.000217534 10
-14.1556 -20.0669 -0.42865 0.000218677 10
-14.1504 -20.0595 0.428491 0.000218679 10
-14.0552 -19.9245 1.27787 0.000186647 10
-13.6939 -19.4124 2.07841 0.000200892 10
-13.8319 -19.608 2.94631 0.000269534 10
-13.7052 -19.4283 3.76573 0.000193491 10
-14.0612 -19.933 4.74162 0.000173024 10
-14.066 -19.9398 5.6336 0.000167489 10
-13.8397 -19.619 6.43326 0.000239884 10
-5.69041 -8.12675 -2.65831 0.000134292 4
-6.61113 -9.44168 -2.66102 9.29583e-05 4
-7.85824 -11.2227 -2.66309 9.5795e-05 4
-9.66177 -13.7984 -2.66795 0.000115025 4
-14.0491 -20.0643 -2.14294 0.000232398 10
-14.0521 -20.0685 -1.28394 0.00021985 10
-14.0588 -20.0781 -0.427839 0.000221004 10
-14.0558 -20.0738 0.427745 0.000221006 10
-14.0519 -20.0682 1.28392 0.000182739 10
-13.6917 -19.5538 2.08842 0.000196714 10
-13.7342 -19.6144 2.94005 0.000272389 10
-13.7015 -19.5678 3.78346 0.000189455 10
-14.0572 -20.0758 4.76388 0.00016938 10
-14.0643 -20.0859 5.66097 0.000163953 10
-13.7356 -19.6165 6.41667 0.000242446 10
-5.67029 -8.15847 -2.66219 4.25835e-05 4
-6.58792 -9.47878 -2.66498 0.000197801 4
-7.83228 -11.2692 -2.66761 4.30587e-05 4
-9.62506 -13.8486 -2.67115 9.14302e-05 4
-14.0378 -20.1977 -2.15195 0.000227488 10
-14.1424 -20.3482 -1.29867 0.000212584 10
-14.132 -20.3333 -0.432223 0.000213704 10
-14.141 -20.3463 0.432499 0.000213706 10
-14.0579 -20.2267 1.29092 0.000178879 10
-13.7034 -19.7166 2.10069 0.000192586 10
-13.7008 -19.7128 2.94761 0.000189497 10
-13.6983 -19.7093 3.80156 0.000185469 10
-14.0564 -20.2245 4.7875 0.000165781 10
-14.0554 -20.223 5.68575 0.000230174 10
-13.7117 -19.7285 6.43761 0.000168288 10
-5.63421 -8.16725 -2.65862 0.000153967 4
-6.54683 -9.49018 -2.66175 0.000136495 4
-7.78665 -11.2874 -2.66547 3.8757e-05 4
-9.57227 -13.8758 -2.66992 8.79261e-05 4
-14.0433 -20.3569 -2.16367 0.000222639 10
-14.0531 -20.3711 -1.29699 0.000148535 10
-14.0547 -20.3734 -0.43203 0.000149239 10
-14.0513 -20.3685 0.431926 0.000149162 10
-14.0532 -20.3712 1.297 0.000175066 10
-13.9456 -20.2153 2.14862 0.000255899 10
-13.9398 -20.2069 3.0142 0.000251898 10
-14.0577 -20.3778 3.92101 0.000166689 10
-14.0553 -20.3743 4.8113 0.000162227 10
-13.9439 -20.2129 5.66918 0.000232608 10
-13.953 -20.2261 6.58403 0.000224006 10
-6.51027 -9.50801 -2.66036 0.000229491 4
-7.74497 -11.3112 -2.6647 0.00010444 4
-9.52496 -13.9108 -2.67025 8.89435e-05 4
-11.7794 -17.2034 -2.56003 3.30712e-05 4
-14.0376 -20.5014 -2.17381 0.000217851 10
-14.11 -20.6071 -1.30888 0.000207783 10
-14.1073 -20.6031 -0.435854 0.000208881 10
-14.1059 -20.6011 0.43581 0.000208882 10
-14.0597 -20.5337 1.30422 0.000171302 10
-13.8476 -20.224 2.14439 0.000258564 10
-13.8496 -20.2268 3.00993 0.000254524 10
-14.0524 -20.5229 3.93948 0.000163091 10
-14.0627 -20.538 4.83834 0.000158719 10
-13.8488 -20.2256 5.65917 0.000235047 10
-13.8495 -20.2267 6.56848 0.000226362 10
-5.58235 -8.21418 -2.66115 0.000101568 4
-6.49132 -9.55169 -2.66622 3.56138e-05 4
-14.0485 -20.6717 -2.18666 0.000213124 10
-14.0409 -20.6606 -1.30915 0.000142191 10
-14.0517 -20.6764 -0.436365 0.000142866 10
-14.0506 -20.6748 0.43633 0.000142792 10
-14.047 -20.6695 1.30972 0.000167586 10
-13.7331 -20.2077 2.13757 0.000261236 10
-13.732 -20.2061 2.9997 0.000257157 10
-14.0515 -20.6761 3.95944 0.000159539 10
-14.0623 -20.692 4.86303 0.000155255 10
-13.7377 -20.2144 5.64256 0.000237492 10
-13.7419 -20.2205 6.55085 0.000228723 10
-5.55144 -8.23034 -2.66009 0.000278515 4
-6.45148 -9.5647 -2.66355 4.15532e-05 4
-7.66499 -11.3638 -2.66442 7.86167e-05 4
-9.42647 -13.9753 -2.66993 4.5741e-05 4
-14.0446 -20.8219 -2.19735 0.000208458 10
-14.0813 -20.8764 -1.31971 0.000203126 10
-14.0875 -20.8855 -0.439737 0.000204201 10
-14.0853 -20.8823 0.439668 0.000204203 10
-14.0478 -20.8267 1.31657 0.000163917 10
-13.6967 -20.3062 2.14292 0.000176584 10
-13.7001 -20.3113 3.0082 0.000173732 10
-14.0537 -20.8354 3.98052 0.000156034 10
-14.0552 -20.8377 4.88572 0.000151837 10
-13.6989 -20.3094 5.65571 0.000160175 10
-13.7067 -20.321 6.56786 0.000154168 10
-5.52664 -8.25559 -2.662 0.000334243 4
-6.41037 -9.5757 -2.66037 0.00010884 4
-7.62596 -11.3915 -2.66465 4.30824e-05 4
-14.0495 -20.9869 -2.20957 0.000203853 10
-14.1642 -21.1583 -1.33439 0.000196597 10
-14.1506 -21.1379 -0.444008 0.000197641 10
-14.1627 -21.156 0.444387 0.000197643 10
-14.0474 -20.9837 1.32338 0.000160296 10
-14.0572 -20.9984 4.00227 0.000152574 10
-14.0532 -20.9924 4.91046 0.000148463 10
-13.7082 -20.4771 5.68904 0.000156635 10
-5.50433 -8.28468 -2.66517 0.0003441 4
-6.38699 -9.61319 -2.66457 6.72888e-05 4
-7.58738 -11.4199 -2.66509 6.67852e-05 4
-14.0357 -21.1254 -2.21898 0.000199309 10
-14.0582 -21.1593 -1.33136 0.000198604 10
-14.0499 -21.1468 -0.443163 0.000199659 10
-14.0493 -21.1459 0.443142 0.00019966 10
-14.0531 -21.1517 1.33087 0.000156724 10
-14.0518 -21.1497 4.02173 0.00014916 10
-14.0524 -21.1505 4.93593 0.000145135 10
-5.46853 -8.29345 -2.66183 5.89931e-05 4
-6.3528 -9.63452 -2.66432 0.000182092 4
-7.5412 -11.4368 -2.66287 7.75656e-05 4
-11.4796 -17.4098 -2.56053 4.05419e-05 4
-14.0423 -21.2962 -2.23175 0.000194826 10
-14.8325 -22.4947 0.47032 0.000247721 10
-14.0479 -21.3048 1.33741 0.000153199 10
-14.1003 -21.3842 2.24097 0.000144044 10
-14.0989 -21.3821 3.14475 0.000141762 10
-14.0559 -21.3169 4.04417 0.000145792 10
-14.0499 -21.3078 4.96116 0.000141851 10
-14.0974 -21.3798 5.91234 0.00013077 10
-14.1079 -21.3958 6.8671 0.000125871 10
-5.43543 -8.3062 -2.65982 0.000186826 4
-6.31035 -9.64323 -2.66062 0.00021378 4
-11.4761 -17.5373 -2.57337 0.000201549 4
-14.0412 -21.4572 -2.24348 0.000190404 10
-14.7297 -22.5093 0.469549 0.000250257 10
-14.0542 -21.477 1.34514 0.000149722 10
-14.009 -21.408 2.23833 0.000226845 10
-14.0095 -21.4087 3.14145 0.000223253 10
-14.0555 -21.479 4.06559 0.000142471 10
-14.0547 -21.4778 4.98929 0.000138612 10
-14.0108 -21.4108 5.90736 0.000205947 10
-14.0225 -21.4287 6.8619 0.000198235 10
-5.40388 -8.32124 -2.65858 0.000177006 4
-6.27507 -9.66276 -2.65995 5.14702e-05 4
-7.46468 -11.4946 -2.66413 3.12487e-05 4
-11.4626 -17.6508 -2.58414 0.000172284 4
-14.0479 -21.6318 -2.2566 0.000186042 10
-14.6147 -22.5046 0.468383 0.000252797 10
-14.0503 -21.6356 1.35199 0.000146293 10
-13.9142 -21.4259 2.23511 0.000229115 10
-13.9119 -21.4224 3.13632 0.000225489 10
-14.0525 -21.6389 4.08654 0.000139195 10
-14.0486 -21.633 5.01391 0.000135419 10
-13.9027 -21.4083 5.89324 0.000208022 10
-13.9125 -21.4234 6.84462 0.000200237 10
-5.38364 -8.35378 -2.66295 8.19537e-05 4
-6.25567 -9.70691 -2.66608 0.000146505 4
-7.4318 -11.5319 -2.66674 9.91448e-05 4
-9.12565 -14.1602 -2.66815 2.91786e-05 4
-11.4602 -17.7827 -2.59758 0.000133601 4
-14.0345 -21.7773 -2.26664 0.000181741 10
-14.495 -22.4918 0.467061 0.000255342 10
-14.0408 -21.7871 1.35839 0.000142911 10
-13.7998 -21.4131 2.22873 0.000231388 10
-13.8011 -21.415 3.12817 0.00022773 10
-14.0501 -21.8016 4.10797 0.000135964 10
-14.0577 -21.8133 5.0443 0.000132269 10
-13.8099 -21.4288 5.88559 0.0002101 10
-13.8095 -21.4282 6.83071 0.000202243 10
-5.34557 -8.35863 -2.65853 0.000177034 4
-6.21731 -9.72174 -2.66417 4.15797e-05 4
-7.38337 -11.545 -2.66381 0.000129334 4
-11.4505 -17.9047 -2.60955 0.000116995 4
-14.035 -21.9459 -2.27908 0.000177501 10
-14.3968 -22.5117 -1.40042 0.000256505 10
-14.3841 -22.4918 -0.466015 0.000257888 10
-14.381 -22.4869 0.465915 0.000257891 10
-14.0497 -21.9689 1.36665 0.000139577 10
-13.6926 -21.4105 2.22348 0.000233665 10
-13.6907 -21.4075 3.12007 0.000229973 10
-14.0465 -21.9639 4.1293 0.00013278 10
-14.0568 -21.98 5.07148 0.000129165 10
-13.7043 -21.4288 5.87241 0.00013638 10
-13.7029 -21.4266 6.81492 0.000131206 10
-5.32598 -8.39239 -2.66334 0.000311472 4
-6.17995 -9.73804 -2.66271 9.30679e-05 4
-7.33824 -11.5632 -2.66207 0.000127193 4
-11.4437 -18.0324 -2.62233 0.000154838 4
-14.0459 -22.1327 -2.29338 0.000173321 10
-14.2765 -22.4962 -1.39635 0.000259045 10
-14.2772 -22.4973 -0.465095 0.000260441 10
-14.2712 -22.4878 0.464897 0.000260443 10
-14.0486 -22.1371 1.37406 0.00013629 10
-14.0456 -22.1324 2.29334 0.000134765 10
-14.0534 -22.1446 3.22033 0.00013254 10
-14.0477 -22.1357 4.15235 0.000129641 10
-14.052 -22.1423 5.09759 0.000126105 10
-14.053 -22.144 6.05492 0.000121975 10
-14.0579 -22.1516 7.02987 0.000117301 10
-5.29381 -8.40642 -2.66191 0.000193456 4
-6.14055 -9.75103 -2.66039 6.73319e-05 4
-11.4358 -18.1597 -2.63501 0.0001844 4
-14.0449 -22.3029 -2.30591 0.000169201 10
-14.1625 -22.4896 -1.39286 0.000261588 10
-14.1706 -22.5026 -0.464178 0.000262997 10
-14.1707 -22.5027 0.46418 0.000262999 10
-14.0481 -22.3079 1.38161 0.000133051 10
-14.0432 -22.3002 2.30564 0.000131559 10
-14.0561 -22.3206 3.23878 0.000129382 10
-14.045 -22.3031 4.17454 0.000126548 10
-14.0611 -22.3286 5.12913 0.00012309 10
-14.0567 -22.3216 6.09005 0.000119051 10
-14.0536 -22.3167 7.06663 0.000114481 10
-6.11406 -9.78455 -2.66369 9.50655e-05 4
-7.26914 -11.6331 -2.6664 6.79232e-05 4
-11.4293 -18.2908 -2.64823 0.000180816 4
-14.0406 -22.4697 -2.31808 0.000165141 10
-14.0594 -22.4998 -1.39044 0.000264135 10
-14.0611 -22.5024 -0.46316 0.000265557 10
-14.053 -22.4895 0.462893 0.000265559 10
-14.0444 -22.4757 1.38896 0.000129859 10
-14.0435 -22.4743 2.31856 0.0001284 10
-14.0458 -22.478 3.25448 0.000126271 10
-14.0522 -22.4882 4.19998 0.0001235 10
-14.0465 -22.4791 5.1524 0.000120118 10
-14.0554 -22.4934 6.12348 0.00011617 10
-14.057 -22.4959 7.1078 0.000111702 10
-5.23036 -8.43571 -2.65956 0.000127897 4
-6.08251 -9.81008 -2.66485 0.000134689 4
-7.2222 -11.6482 -2.66408 0.000225358 4
-11.4188 -18.4166 -2.66066 0.000157179 4
-14.037 -22.6393 -2.33051 0.000161141 10
-14.0392 -22.6429 -1.39625 0.00016279 10
-14.0488 -22.6585 -0.465359 0.000163573 10
-14.0417 -22.647 0.465123 0.00016348 10
-14.0417 -22.6469 1.3965 0.000126714 10
-14.0524 -22.6642 2.33307 0.000125287 10
-14.0541 -22.6669 3.2747 0.000123206 10
-14.0555 -22.6691 4.22458 0.000120497 10
-14.0555 -22.6692 5.18471 0.000117192 10
-14.062 -22.6798 6.16082 0.000113332 10
-14.0542 -22.6672 7.14637 0.000108965 10
-5.19597 -8.44592 -2.65705 0.000249255 4
-6.04728 -9.82971 -2.66443 0.000144606 4
-7.17973 -11.6705 -2.66343 4.52924e-05 4
-11.4017 -18.5332 -2.67173 0.000143438 4
-14.0419 -22.8248 -2.34454 0.000157201 10
-14.0421 -22.8251 -1.40446 0.000158812 10
-14.0451 -22.83 -0.467872 0.000159577 10
-14.0363 -22.8157 0.467579 0.000159486 10
-13.9854 -22.733 1.39879 0.000202489 10
-13.9886 -22.7382 2.33564 0.000200324 10
-13.9876 -22.7364 3.27767 0.00019711 10
-14.0473 -22.8336 4.24606 0.000117539 10
-13.9956 -22.7495 5.19188 0.000187706 10
-13.9907 -22.7416 6.16431 0.000181633 10
-13.9901 -22.7405 7.15406 0.000174741 10
-5.17255 -8.474 -2.66018 0.000104958 4
-6.00605 -9.8395 -2.66138 0.000158487 4
-7.14306 -11.7022 -2.66496 5.50042e-05 4
-11.336 -18.5714 -2.67152 3.64775e-05 4
-14.0452 -23.0098 -2.3585 0.000153321 10
-14.0341 -22.9916 -1.41168 0.000154895 10
-14.0476 -23.0136 -0.470627 0.000155641 10
-14.049 -23.0159 0.470674 0.000155552 10
-13.8808 -22.7405 1.39626 0.000204417 10
-13.8726 -22.727 2.32951 0.000202233 10
-13.8734 -22.7283 3.2695 0.000198991 10
-14.0429 -23.006 4.26898 0.000114627 10
-13.8737 -22.7287 5.17605 0.000189504 10
-13.8796 -22.7385 6.1503 0.000183376 10
-13.881 -22.7408 7.13885 0.000176423 10
-5.14765 -8.49977 -2.66262 0.000275536 4
-5.97179 -9.86059 -2.66143 0.000200108 4
-7.09843 -11.7209 -2.66356 4.09882e-05 4
-14.0384 -23.1801 -2.37092 0.000149501 10
-14.0351 -23.1747 -1.41991 0.000151038 10
-14.0456 -23.1921 -0.473272 0.000151767 10
-14.0485 -23.1969 0.473369 0.000151679 10
-13.7632 -22.7257 1.39239 0.000206347 10
-13.7746 -22.7445 2.32636 0.000204144 10
-13.7725 -22.7412 3.26442 0.000200873 10
-14.0499 -23.1991 4.29569 0.000111759 10
-13.7674 -22.7326 5.16596 0.000191303 10
-13.7662 -22.7307 6.13516 0.000185121 10
-13.7746 -22.7445 7.12489 0.000178106 10
-5.10853 -8.50203 -2.65772 0.000160742 4
-5.93528 -9.87796 -2.66052 0.000128794 4
-7.05864 -11.7476 -2.664 3.88353e-05 4
-11.2011 -18.6418 -2.67034 4.67613e-05 4
-14.0324 -23.3539 -2.38366 0.00014574 10
-14.0425 -23.3707 -1.4289 0.00014724 10
-14.0463 -23.377 -0.476041 0.000147951 10
-14.0355 -23.359 0.475675 0.000147865 10
-13.6925 -22.7882 1.39329 0.000125184 10
-13.685 -22.7756 2.32464 0.000123775 10
-13.6941 -22.7908 3.26466 0.000121719 10
-14.0453 -23.3753 4.31921 0.000108936 10
-13.6916 -22.7867 5.16736 0.00011578 10
-13.6949 -22.7921 6.13879 0.000111969 10
-13.7015 -22.803 7.1282 0.000107657 10
-5.08522 -8.53053 -2.66107 0.000259175 4
-5.90567 -9.90685 -2.66273 0.000253649 4
-7.01579 -11.7691 -2.66332 4.53131e-05 4
-8.62631 -14.4708 -2.66828 3.22439e-05 4
-14.0407 -23.5536 -2.39903 0.000142038 10
-14.0331 -23.5408 -1.4363 0.000143502 10
-14.0321 -23.5391 -0.478342 0.000144196 10
-14.0347 -23.5434 0.478429 0.000144112 10
-14.0495 -23.5683 4.34579 0.000106158 10
-13.9968 -23.4798 7.32445 5.08901e-05 10
-5.04711 -8.53419 -2.6567 0.000236229 4
-5.87218 -9.92932 -2.66324 6.54001e-05 4
-6.97533 -11.7946 -2.66357 3.66862e-05 4
-14.0285 -23.7208 -2.41106 0.000138395 10
-14.0349 -23.7318 -1.44495 0.000139824 10
-14.0316 -23.7261 -0.481144 0.000140501 10
-14.0467 -23.7517 0.481662 0.000140418 10
-14.0466 -23.7515 4.3705 0.000103424 10
-13.9174 -23.533 7.32583 5.08851e-05 10
-5.02573 -8.56615 -2.66117 0.000180467 4
-5.82843 -9.93431 -2.65911 4.55861e-05 4
-6.94162 -11.8317 -2.66645 7.66182e-05 4
-10.5723 -18.0201 -2.56528 0.000195683 4
-14.0305 -23.9144 -2.42574 0.00013481 10
-14.0349 -23.9219 -1.45353 0.000136205 10
-14.0438 -23.9371 -0.484426 0.000136865 10
-14.034 -23.9205 0.484088 0.000136783 10
-14.0541 -23.9546 4.39881 0.000100735 10
-13.8361 -23.583 7.32632 5.088e-05 10
-4.99594 -8.58388 -2.66124 0.000170637 4
-5.79464 -9.95618 -2.65953 8.91986e-05 4
-6.90035 -11.856 -2.66648 5.9359e-05 4
-8.46614 -14.5463 -2.66571 3.17541e-05 4
-10.5682 -18.1581 -2.57965 0.000181242 4
-14.0377 -24.1192 -2.44154 0.000131285 10
-14.0412 -24.1252 -1.4629 0.000132645 10
-14.0367 -24.1175 -0.487082 0.000133289 10
-14.0352 -24.1148 0.487027 0.000133208 10
-14.0471 -24.1354 4.42298 9.80897e-05 10
-13.7549 -23.6334 7.327 5.0875e-05 10
-4.96098 -8.59266 -2.65858 0.000236285 4
-5.76013 -9.97684 -2.65966 8.52423e-05 4
-8.41502 -14.5752 -2.66562 2.87341e-05 4
-10.5703 -18.3083 -2.59574 0.000194076 4
-14.0322 -24.3044 -2.45531 0.000127817 10
-14.0319 -24.304 -1.47076 0.000129143 10
-14.0446 -24.326 -0.490299 0.000129771 10
-14.0442 -24.3252 0.490284 0.000129692 10
-14.0436 -24.3242 4.44856 9.54883e-05 10
-13.6945 -23.7195 7.33885 9.43752e-05 10
-4.94012 -8.62593 -2.66352 0.000141126 4
-5.72307 -9.99303 -2.65864 8.72329e-05 4
