VERSION 0.7
FIELDS x y z intensity label
SIZE 4 4 4 4 4
TYPE F F F F F
COUNT 1 1 1 1 1
WIDTH 1139
HEIGHT 1
VIEWPOINT 13.0323 52.9985 2.72855 0.999998 -0.000118786 0.00100198 -0.0015157
POINTS 1139
DATA ascii
-8.69821 -7.61471 -2.66893 0.000350762 4
-10.5398 -9.22689 -2.72287 0.000362354 4
-12.1848 -10.667 -2.56492 7.45992e-05 4
-15.0038 -13.1348 -2.44842 0.000499148 10
-15.0148 -13.1444 -1.74588 0.000506602 10
-15.1429 -13.2566 -1.05474 0.000378637 10
-15.1511 -13.2638 -0.351487 0.000380371 10
-15.1456 -13.2589 0.351357 0.000380228 10
-15.0112 -13.1413 1.04557 0.000398849 10
-15.0139 -13.1436 1.74577 0.000394904 10
-15.0135 -13.1433 2.45001 0.000389053 10
-15.006 -13.1367 3.15878 0.000381363 10
-15.0062 -13.1369 3.87672 0.00037192 10
-15.0108 -13.141 4.60585 0.000360831 10
-15.0233 -13.1519 5.35007 0.000348221 10
-7.46437 -6.58073 -2.66637 0.000633762 4
-8.66673 -7.64075 -2.66743 0.000346865 4
-10.5507 -9.30168 -2.73406 0.000443061 4
-12.1394 -10.7023 -2.56321 8.52646e-05 4
-14.9137 -13.1482 -2.4412 0.000507303 10
-14.9019 -13.1378 -1.73807 0.000514872 10
-14.9034 -13.1391 -1.04125 0.000343445 10
-14.8991 -13.1353 -0.346701 0.000345125 10
-14.9165 -13.1506 0.347106 0.000345108 10
-14.9095 -13.1445 1.04168 0.000405355 10
-14.9013 -13.1372 1.738 0.000401351 10
-14.9158 -13.1501 2.44155 0.00039541 10
-14.9109 -13.1458 3.14841 0.000387602 10
-14.9006 -13.1366 3.86127 0.000378015 10
-14.9042 -13.1398 4.58719 0.000366756 10
-14.8999 -13.1361 5.32245 0.000353952 10
-7.45101 -6.61531 -2.66983 0.000646797 4
-8.65332 -7.68278 -2.67155 0.000397842 4
-10.544 -9.36137 -2.74077 0.000576437 4
-12.1146 -10.7559 -2.56589 7.7419e-05 4
-14.8141 -13.1525 -2.43239 0.000515523 10
-14.7951 -13.1357 -1.73095 0.000523207 10
-14.8797 -13.2108 -1.04281 0.000390162 10
-14.8629 -13.1959 -0.346929 0.000391943 10
-14.8698 -13.202 0.347089 0.000391795 10
-14.8073 -13.1465 1.03774 0.000411914 10
-14.8139 -13.1524 1.73316 0.000407848 10
-14.8114 -13.1501 2.43195 0.000401818 10
-14.7942 -13.1349 3.13342 0.000393892 10
-14.8059 -13.1453 3.84861 0.000384159 10
-14.803 -13.1427 4.57014 0.000372729 10
-14.7961 -13.1366 5.3017 0.00035973 10
-7.43017 -6.64334 -2.67065 8.7761e-05 4
-8.6305 -7.71656 -2.6728 0.000437066 4
-10.5405 -9.42433 -2.74841 0.000591714 4
-12.0659 -10.7882 -2.56354 7.91098e-05 4
-14.6933 -13.1373 -2.42008 0.000523811 10
-14.71 -13.1523 -1.72636 0.00053161 10
-14.8692 -13.2946 -1.04532 0.000385311 10
-14.8647 -13.2906 -0.348052 0.000387071 10
-14.8693 -13.2947 0.348159 0.000386924 10
-14.7099 -13.1521 1.03412 0.000418526 10
-14.6954 -13.1392 1.72465 0.000414399 10
-14.695 -13.1389 2.42036 0.000408279 10
-14.6948 -13.1387 3.12207 0.000400233 10
-14.7004 -13.1436 3.83307 0.000390353 10
-14.7012 -13.1444 4.55285 0.000378751 10
-14.7088 -13.1512 5.28683 0.000365556 10
-7.39446 -6.658 -2.66616 0.000130023 4
-8.60148 -7.7448 -2.67217 0.000344971 4
-10.5114 -9.46448 -2.7494 0.000162107 1
-12.0298 -10.8317 -2.56389 5.05007e-05 4
-14.5904 -13.1372 -2.41066 0.000532162 10
-14.606 -13.1513 -1.71952 0.000540077 10
-14.5987 -13.1447 -1.02952 0.000402238 10
-14.6098 -13.1547 -0.343157 0.000404067 10
-14.6126 -13.1572 0.343221 0.000403914 10
-14.5959 -13.1422 1.02933 0.000425189 10
-14.193 -12.7794 1.6709 0.000457986 10
-14.1946 -12.7809 2.34528 0.000451276 10
-14.1989 -12.7847 3.02617 0.000442454 10
-14.1987 -12.7846 3.71387 0.00043162 10
-14.1926 -12.7791 4.40914 0.000418894 10
-14.189 -12.7758 5.11601 0.000404419 10
-7.37797 -6.68993 -2.66861 0.000263311 4
-8.56742 -7.76846 -2.66999 8.03677e-05 4
-10.4777 -9.50064 -2.74926 0.000162119 1
-12.0077 -10.8879 -2.56724 7.29527e-05 4
-14.4936 -13.142 -2.40225 0.000540579 10
-14.4847 -13.1339 -1.71063 0.000548611 10
-14.6106 -13.2481 -1.03362 0.000397182 10
-14.5949 -13.2338 -0.34389 0.00039899 10
-14.6023 -13.2406 0.344064 0.000398838 10
-14.4866 -13.1356 1.02484 0.000431903 10
-14.087 -12.7733 1.66367 0.000465172 10
-14.0918 -12.7776 2.33564 0.000458363 10
-14.1027 -12.7876 3.01517 0.000449412 10
-14.0923 -12.7781 3.69769 0.000438418 10
-14.1064 -12.7909 4.39619 0.000425505 10
-14.1016 -12.7865 5.10054 0.000410815 10
-7.35097 -6.71236 -2.66731 0.000113783 4
-8.54314 -7.80095 -2.6709 4.31269e-05 4
-10.4533 -9.54516 -2.75157 0.000162132 1
-11.9651 -10.9257 -2.56629 7.63274e-05 4
-14.391 -13.1408 -2.39283 0.00054906 10
-14.4021 -13.151 -1.7063 0.000557211 10
-14.3887 -13.1387 -1.02116 0.000562687 10
-14.3931 -13.1427 -0.340213 0.000565426 10
-14.3984 -13.1476 0.34034 0.000565399 10
-14.3934 -13.143 1.02149 0.000438669 10
-14.0748 -12.8521 1.66751 0.000512734 10
-14.0779 -12.8548 2.34076 0.000505058 10
-14.0777 -12.8547 3.0194 0.000495025 10
-14.0701 -12.8477 3.7036 0.000482748 10
-14.0736 -12.851 4.39993 0.000468361 10
-14.077 -12.854 5.10784 0.000452026 10
-8.50224 -7.81821 -2.66663 7.25364e-05 4
-10.4245 -9.58584 -2.75279 0.000162145 1
-11.9242 -10.9649 -2.56571 6.6232e-05 4
-14.3005 -13.15 -2.38539 0.000557605 10
-14.2991 -13.1486 -1.69951 0.000565874 10
-14.2947 -13.1447 -1.01774 0.000571431 10
-14.2853 -13.136 -0.338748 0.00057421 10
-14.2955 -13.1454 0.338989 0.000574182 10
-14.2944 -13.1444 1.01772 0.000571347 10
-14.0582 -12.9271 1.67088 0.000506244 10
-14.0709 -12.9388 2.34709 0.000498658 10
-14.0632 -12.9318 3.02596 0.000488744 10
-14.0707 -12.9387 3.71564 0.000476612 10
-14.0614 -12.9301 4.4102 0.000462397 10
-14.0743 -12.942 5.12325 0.000446256 10
-7.30962 -6.76878 -2.66938 6.82771e-05 4
-8.49308 -7.86468 -2.67235 7.64622e-05 4
-10.3877 -9.61915 -2.75193 0.000162158 1
-11.8727 -10.9942 -2.56287 7.80269e-05 4
-14.1936 -13.1435 -2.37521 0.000566214 10
-14.1839 -13.1344 -1.69126 0.000574603 10
-14.1859 -13.1363 -1.01325 0.000580239 10
-14.1931 -13.1429 -0.337646 0.000583059 10
-14.201 -13.1503 0.337835 0.000583031 10
-14.1895 -13.1396 1.0135 0.000580154 10
-14.0725 -13.0313 1.67798 0.000499785 10
-14.0656 -13.0249 2.35378 0.00049229 10
-14.0626 -13.0221 3.03557 0.000482494 10
-14.0644 -13.0238 3.72595 0.000470507 10
-14.0717 -13.0306 4.42768 0.000456462 10
-14.0705 -13.0294 5.13837 0.000440515 10
-7.27521 -6.78424 -2.66545 0.000139813 4
-8.44753 -7.87745 -2.66665 0.000405865 4
-10.3513 -9.65277 -2.75119 0.000162171 1
-11.8492 -11.0495 -2.5661 6.84911e-05 4
-14.0906 -13.1397 -2.36563 0.000574885 10
-14.0866 -13.136 -1.68512 0.000583394 10
-14.0869 -13.1363 -1.00945 0.000589111 10
-14.0897 -13.1388 -0.336276 0.000591972 10
-14.0825 -13.1321 0.336103 0.000591943 10
-14.086 -13.1354 1.00939 0.000589026 10
-14.0552 -13.1067 1.68137 0.00049336 10
-14.073 -13.1233 2.36268 0.000485955 10
-14.0615 -13.1126 3.04521 0.000476277 10
-14.0633 -13.1143 3.73778 0.000464433 10
-14.0735 -13.1238 4.44262 0.000450558 10
-14.0764 -13.1265 5.15724 0.000434804 10
-7.2659 -6.82313 -2.67075 0.000292648 4
-8.43338 -7.91947 -2.6709 0.000388244 4
-10.3208 -9.6919 -2.75206 0.000162185 1
-11.7968 -11.0779 -2.56311 6.84981e-05 4
-14.0545 -13.198 -2.36728 0.000616833 10
-14.0483 -13.1922 -1.68603 0.000625752 10
-14.0698 -13.2125 -1.01152 0.000631673 10
-14.0699 -13.2125 -0.336903 0.000634527 10
-14.0574 -13.2008 0.336603 0.000634284 10
-14.0579 -13.2013 1.01067 0.000630944 10
-14.056 -13.1995 1.68696 0.000486968 10
-14.0571 -13.2005 2.36771 0.000479652 10
-14.0734 -13.2158 3.05775 0.000470091 10
-14.0794 -13.2214 3.75428 0.000458391 10
-14.063 -13.2061 4.45384 0.000444684 10
-14.0627 -13.2058 5.16908 0.000429122 10
-7.2308 -6.83783 -2.6666 0.000305672 4
-8.40109 -7.94451 -2.66944 0.000288261 4
-10.2852 -9.72621 -2.75159 0.000162198 1
-11.7659 -11.1265 -2.56483 6.79437e-05 4
-14.0491 -13.2856 -2.37418 0.000608777 10
-14.0577 -13.2937 -1.69272 0.000617587 10
-14.0534 -13.2896 -1.01367 0.000623434 10
-14.0709 -13.3062 -0.338037 0.000626253 10
-14.0611 -13.2969 0.3378 0.000626012 10
-14.0671 -13.3025 1.01466 0.000622712 10
-14.0643 -13.3 1.69352 0.00048061 10
-14.0598 -13.2956 2.37597 0.000473383 10
-14.0575 -13.2935 3.06437 0.000463938 10
-14.0771 -13.3121 3.76605 0.000452381 10
-14.0729 -13.3081 4.47166 0.000438842 10
-14.0695 -13.3048 5.18859 0.000423471 10
-7.20379 -6.86008 -2.66546 9.43083e-05 4
-8.3726 -7.97312 -2.66921 0.00036084 4
-10.2535 -9.7643 -2.75222 0.000162211 1
-11.7314 -11.1717 -2.56578 5.39113e-05 4
-14.0672 -13.396 -2.38511 0.000600763 10
-14.0537 -13.3832 -1.69785 0.000609464 10
-14.0516 -13.3811 -1.0169 0.000615238 10
-14.055 -13.3844 -0.338775 0.000618022 10
-14.0683 -13.3971 0.339095 0.000617782 10
-14.0678 -13.3966 1.01808 0.000614523 10
-14.0709 -13.3995 1.69993 0.000474284 10
-14.0697 -13.3984 2.38555 0.000467146 10
-14.0735 -13.402 3.07803 0.000457817 10
-14.0685 -13.3973 3.77623 0.000446403 10
-14.068 -13.3968 4.48493 0.000433031 10
-14.0628 -13.3918 5.20333 0.000417851 10
-7.18509 -6.89025 -2.66742 5.85395e-05 4
-8.35596 -8.01307 -2.6728 0.000356942 4
-10.2128 -9.79375 -2.75046 0.000162224 1
-11.6897 -11.21 -2.56521 7.07659e-05 4
-14.0555 -13.4788 -2.3911 0.000592794 10
-14.0529 -13.4763 -1.70343 0.000601386 10
-14.0603 -13.4834 -1.02094 0.000607088 10
-14.0707 -13.4933 -0.340286 0.000609836 10
-14.0554 -13.4786 0.339916 0.000609599 10
-14.0649 -13.4878 1.02127 0.000472801 10
-14.0566 -13.4798 1.70388 0.000467994 10
-14.0616 -13.4846 2.39214 0.000460944 10
-14.0578 -13.4809 3.08487 0.000451731 10
-14.0678 -13.4905 3.78865 0.000440458 10
-14.075 -13.4974 4.50214 0.000427253 10
-14.0647 -13.4875 5.22142 0.000412262 10
-7.16519 -6.91934 -2.66898 0.000139852 4
-8.31266 -8.02744 -2.6679 0.000109836 4
-10.1718 -9.8228 -2.74863 3.9567e-05 4
-11.6491 -11.2494 -2.5649 5.33609e-05 4
-14.0543 -13.572 -2.39893 0.000584869 10
-14.051 -13.5689 -1.70894 0.000593353 10
-14.0584 -13.576 -1.02423 0.000598983 10
-14.0553 -13.5731 -0.341058 0.000601695 10
-14.0587 -13.5763 0.34114 0.00060146 10
-14.0569 -13.5746 1.02412 0.000466486 10
-14.0595 -13.5771 1.70997 0.000461739 10
-14.0759 -13.5929 2.40262 0.000454777 10
-14.0717 -13.5889 3.09832 0.000445679 10
-14.0682 -13.5855 3.80151 0.000434547 10
-14.0695 -13.5867 4.51552 0.000421507 10
-14.0668 -13.5842 5.23979 0.000406704 10
-7.12697 -6.93067 -2.66374 0.000315499 4
-8.28306 -8.05492 -2.66741 6.66904e-05 4
-10.068 -9.79067 -2.72979 4.33539e-05 4
-11.6141 -11.2942 -2.56586 8.08923e-05 4
-14.0645 -13.6771 -2.40881 0.000576989 10
-14.0677 -13.6802 -1.71676 0.000585365 10
-14.0553 -13.6682 -1.02748 0.000590922 10
-14.0548 -13.6677 -0.342202 0.000593601 10
-14.0685 -13.681 0.342535 0.000593368 10
-14.0558 -13.6687 1.02751 0.000460207 10
-14.0729 -13.6853 1.71739 0.000455519 10
-14.0644 -13.677 2.40879 0.000448644 10
-14.0569 -13.6698 3.10555 0.00043966 10
-14.0647 -13.6773 3.81345 0.000428669 10
-14.0663 -13.6789 4.52979 0.000415793 10
-14.0616 -13.6743 5.25559 0.000401178 10
-7.10764 -6.96031 -2.66558 8.78242e-05 4
-8.2628 -8.09153 -2.66997 0.00018243 4
-9.95516 -9.74881 -2.70841 3.5833e-05 4
-11.5727 -11.3328 -2.56544 8.20244e-05 4
-14.0661 -13.7745 -2.4173 0.000569154 10
-14.0521 -13.7609 -1.72071 0.000577423 10
-14.1624 -13.8689 -1.03884 0.000367051 10
-14.156 -13.8626 -0.345841 0.000368847 10
-14.1654 -13.8718 0.346071 0.000368829 10
-14.0728 -13.7811 1.03227 0.000453964 10
-14.0589 -13.7675 1.72154 0.000449335 10
-14.0682 -13.7766 2.41767 0.000442546 10
-14.0601 -13.7687 3.11685 0.000433677 10
-14.0749 -13.7832 3.82924 0.000422825 10
-14.067 -13.7754 4.54548 0.000410114 10
-14.0724 -13.7807 5.27757 0.000395685 10
-7.09521 -6.99682 -2.67006 6.18057e-05 4
-8.22846 -8.11436 -2.668 0.000196175 4
-9.8323 -9.69597 -2.68418 4.82354e-05 4
-11.5269 -11.3671 -2.56408 6.29295e-05 4
-14.0644 -13.8694 -2.42532 0.000561365 10
-14.0619 -13.867 -1.72783 0.000569527 10
-14.061 -13.866 -1.03494 0.000379764 10
-14.052 -13.8572 -0.344481 0.000381487 10
-14.0665 -13.8714 0.344835 0.000381336 10
-14.0631 -13.8681 1.0351 0.000447757 10
-14.0659 -13.8709 1.72832 0.000443186 10
-14.0589 -13.864 2.42438 0.000436485 10
-14.0713 -13.8762 3.13005 0.000427728 10
-14.0579 -13.863 3.83776 0.000417015 10
-14.0791 -13.8839 4.56504 0.000404467 10
-14.0688 -13.8737 5.29435 0.000390224 10
-7.0718 -7.0226 -2.67046 0.000403387 4
-8.20425 -8.14717 -2.66936 0.000121637 4
-9.76225 -9.69433 -2.67428 3.1972e-05 4
-11.4829 -11.403 -2.56311 0.000295729 4
-14.0654 -13.9676 -2.43389 0.000553622 10
-14.057 -13.9592 -1.7332 0.000561678 10
-14.2298 -14.1308 -1.05099 0.000356148 10
-14.2296 -14.1306 -0.350041 0.000357896 10
-14.2306 -14.1316 0.350064 0.000357879 10
-14.0598 -13.962 1.03844 0.000441587 10
-14.0696 -13.9717 1.73475 0.000437075 10
-14.0568 -13.959 2.43239 0.000430459 10
-14.0718 -13.9739 3.14099 0.000421815 10
-14.063 -13.9652 3.85243 0.000411241 10
-14.0622 -13.9644 4.57533 0.000398855 10
-14.0663 -13.9685 5.31175 0.000384796 10
-7.03473 -7.03473 -2.66572 0.000113866 4
-9.71727 -9.71727 -2.67123 0.000176927 4
-11.4779 -11.4779 -2.57092 0.000332351 4
-14.0458 -14.0458 -2.43895 0.000545926 10
-14.0637 -14.0637 -1.74007 0.000553876 10
-14.1306 -14.1306 -1.0473 0.000361271 10
-14.1257 -14.1257 -0.348696 0.000363043 10
-14.1285 -14.1285 0.348765 0.000363026 10
-14.0659 -14.0659 1.04251 0.000435454 10
-14.064 -14.064 1.74011 0.000431 10
-14.0679 -14.0679 2.44279 0.00042447 10
-14.0688 -14.0688 3.15125 0.000415938 10
-14.0733 -14.0733 3.86869 0.000405501 10
-14.0589 -14.0589 4.5902 0.000393277 10
-14.0772 -14.0772 5.33438 0.000379401 10
-7.01427 -7.0634 -2.66729 0.00013014 4
-8.14579 -8.20285 -2.66891 0.000121653 4
-9.67938 -9.74719 -2.67015 0.000228106 4
-11.4824 -11.5628 -2.58096 0.00035664 4
-14.0573 -14.1558 -2.44952 0.000538278 10
-14.0533 -14.1518 -1.74488 0.000546123 10
-14.0571 -14.1555 -1.04551 0.000364166 10
-14.0615 -14.16 -0.348329 0.000365821 10
-14.0664 -14.165 0.34845 0.000365675 10
-14.0575 -14.1559 1.04554 0.00042936 10
-14.0687 -14.1673 1.74679 0.000424964 10
-14.0708 -14.1694 2.45188 0.000418518 10
-14.0689 -14.1675 3.16235 0.000410098 10
-14.0669 -14.1655 3.88049 0.000399797 10
-14.0782 -14.1769 4.61263 0.000387734 10
-14.0745 -14.1731 5.35206 0.000374041 10
-6.98688 -7.08512 -2.66627 0.000165938 4
-8.11452 -8.22862 -2.66806 0.000308079 4
-9.66453 -9.80043 -2.67548 0.000197211 4
-11.4687 -11.63 -2.587 0.000271866 4
-14.0555 -14.2532 -2.45787 0.000530677 10
-14.0514 -14.249 -1.75081 0.000538417 10
-14.1946 -14.3942 -1.05947 0.000350685 10
-14.1992 -14.3988 -0.352982 0.00035241 10
-14.1947 -14.3943 0.35287 0.000352393 10
-14.0696 -14.2674 1.05014 0.000423303 10
-14.0531 -14.2507 1.75103 0.000418963 10
-14.0675 -14.2653 2.45996 0.000412603 10
-14.062 -14.2597 3.17195 0.000404294 10
-14.0641 -14.2619 3.89343 0.000394129 10
-14.0655 -14.2633 4.62475 0.000382225 10
-14.0696 -14.2674 5.36909 0.000368714 10
-6.95941 -7.10671 -2.66524 6.50776e-05 4
-8.09376 -8.26507 -2.6707 9.61588e-05 4
-9.62807 -9.83186 -2.67487 0.000192963 4
-11.4679 -11.7106 -2.59601 0.000232689 4
-14.0596 -14.3572 -2.46734 0.000523125 10
-14.0507 -14.3481 -1.75695 0.000530762 10
-14.1045 -14.4031 -1.05649 0.000355635 10
-14.1027 -14.4012 -0.351831 0.000357383 10
-14.1103 -14.409 0.352022 0.000357367 10
-14.0678 -14.3655 1.05374 0.000417284 10
-14.0536 -14.351 1.75731 0.000413003 10
-14.0622 -14.3598 2.46778 0.000406727 10
-14.0627 -14.3603 3.1834 0.000398527 10
-14.0577 -14.3553 3.90551 0.000388498 10
-14.0779 -14.3759 4.64528 0.000376752 10
-14.0673 -14.365 5.38732 0.000363422 10
-6.92867 -7.12491 -2.66297 0.00040025 4
-8.06215 -8.29049 -2.6698 0.000213919 4
-9.58753 -9.85908 -2.67315 0.00021537 4
-11.4596 -11.7841 -2.60342 0.000182255 4
-14.05 -14.448 -2.47449 0.000515621 10
-14.0636 -14.4619 -1.76487 0.000523155 10
-14.0545 -14.4526 -1.05651 0.000348858 10
-14.0626 -14.4609 -0.352087 0.000350447 10
-14.0662 -14.4646 0.352179 0.000350304 10
-14.0614 -14.4596 1.05703 0.000411305 10
-14.0705 -14.469 1.76574 0.00040708 10
-14.065 -14.4634 2.47713 0.000409886 10
-14.0593 -14.4575 3.19403 0.000401763 10
-14.0606 -14.4588 3.9203 0.000382903 10
-14.0585 -14.4566 4.6555 0.000371315 10
-14.0684 -14.4669 5.40708 0.000366758 10
-6.9223 -7.16825 -2.67012 0.000156204 4
-8.03833 -8.32393 -2.67152 0.000141314 4
-9.54568 -9.88483 -2.67108 0.000245244 4
-11.4585 -11.8656 -2.61258 0.000288015 4
-14.0616 -14.5612 -2.48547 0.000508167 10
-14.0565 -14.556 -1.77035 0.000515598 10
-14.1699 -14.6733 -1.06903 0.000345348 10
-14.1753 -14.679 -0.356191 0.000347051 10
-14.1682 -14.6716 0.356012 0.000347035 10
-14.0591 -14.5586 1.06067 0.000405364 10
-13.9575 -14.4534 1.75788 0.000421858 10
-13.975 -14.4715 2.47016 0.000415598 10
-13.9584 -14.4543 3.18256 0.000407369 10
-14.0594 -14.5589 3.93412 0.000377345 10
-14.0723 -14.5722 4.67688 0.000365914 10
-13.9648 -14.461 5.38662 0.000371906 10
-6.87851 -7.17284 -2.66288 0.000234321 4
-8.00121 -8.34358 -2.66885 9.22534e-05 4
-9.52595 -9.93357 -2.67525 0.000235668 4
-11.4436 -11.9333 -2.61866 0.000362462 4
-14.0578 -14.6594 -2.49382 0.000500763 10
-14.062 -14.6638 -1.77748 0.000508091 10
-14.0758 -14.6781 -1.06579 0.000350132 10
-14.0728 -14.675 -0.3549 0.000351857 10
-14.0738 -14.676 0.354925 0.000351841 10
-14.0594 -14.661 1.06455 0.000399463 10
-13.8614 -14.4545 1.75212 0.000427684 10
-13.8757 -14.4694 2.46151 0.000421343 10
-13.8623 -14.4555 3.17214 0.000413007 10
-14.0671 -14.669 3.95058 0.000371824 10
-14.0379 -14.6386 4.68243 0.000121769 10
-13.8782 -14.472 5.37265 0.000377085 10
-6.85628 -7.1998 -2.66398 0.000169242 4
-7.96968 -8.36899 -2.66806 7.45931e-05 4
-9.48878 -9.9642 -2.67456 3.19939e-05 4
-11.4438 -12.0172 -2.62829 0.000293702 4
-14.0458 -14.7495 -2.5008 0.000493408 10
-14.0499 -14.7538 -1.78244 0.000500635 10
-14.0519 -14.756 -1.06788 0.000333849 10
-14.2299 -14.9429 -0.360176 0.000337191 10
-14.2236 -14.9362 0.360015 0.000337175 10
-14.063 -14.7676 1.06872 0.000393602 10
-13.7721 -14.4622 1.7472 0.000433544 10
-13.768 -14.4579 2.45136 0.000427122 10
-13.7734 -14.4635 3.16334 0.000418679 10
-14.0663 -14.7711 3.96482 0.000366341 10
-13.9892 -14.6901 4.68326 0.00012176 10
-13.777 -14.4672 5.35299 0.000382294 10
-6.83987 -7.23295 -2.6674 0.000104155 4
-7.93727 -8.39343 -2.667 6.08566e-05 4
-9.44331 -9.98602 -2.67156 4.69284e-05 4
-11.4464 -12.1043 -2.63858 0.000278196 4
-14.0449 -14.8521 -2.50986 0.000486104 10
-14.0467 -14.8539 -1.7886 0.000493231 10
-14.132 -14.9441 -1.07792 0.000340129 10
-14.127 -14.9388 -0.358887 0.000341809 10
-14.1199 -14.9313 0.358707 0.000341793 10
-14.0527 -14.8603 1.07187 0.000387781 10
-13.6951 -14.4821 1.74383 0.00041544 10
-13.6981 -14.4853 2.44788 0.000409136 10
-13.7001 -14.4874 3.15808 0.000400902 10
-14.0664 -14.8748 3.97946 0.000360896 10
-13.9319 -14.7325 4.68124 0.00012175 10
-13.7116 -14.4997 5.34724 0.000365649 10
-6.82128 -7.26392 -2.67002 9.43961e-05 4
-7.92158 -8.43563 -2.67161 0.000102089 4
-9.40943 -10.02 -2.67185 2.98662e-05 4
-11.4273 -12.1688 -2.64394 0.000292306 4
-14.0555 -14.9676 -2.52108 0.000478851 10
-14.0482 -14.9598 -1.79543 0.000485878 10
-14.0567 -14.9689 -1.07616 0.000324013 10
-14.06 -14.9724 -0.358511 0.000325493 10
-14.0659 -14.9787 0.358662 0.000325357 10
-14.0542 -14.9662 1.07596 0.000382001 10
-14.0579 -14.9702 3.99181 0.000355489 10
-13.8729 -14.7731 4.67872 0.000121741 10
-6.79012 -7.28151 -2.66776 0.000192059 4
-7.88184 -8.45223 -2.66814 0.00010406 4
-9.3694 -10.0474 -2.67043 4.05362e-05 4
-11.4299 -12.2571 -2.65443 0.00019813 4
-14.0447 -15.061 -2.52855 0.000471651 10
-14.0503 -15.0671 -1.80241 0.000478577 10
-14.1842 -15.2106 -1.08997 0.000330573 10
-14.1854 -15.212 -0.363062 0.000332211 10
-14.1821 -15.2084 0.362975 0.000332196 10
-14.054 -15.0711 1.07997 2.97295e-05 10
-14.0576 -15.0749 4.00663 0.000350122 10
-13.834 -14.8352 4.68306 0.000121731 10
-6.76145 -7.3017 -2.66649 0.000107429 4
-7.85488 -8.4825 -2.66902 0.000192427 4
-9.33518 -10.0811 -2.67069 3.9473e-05 4
-11.4278 -12.3409 -2.66392 0.000270665 4
-14.0429 -15.165 -2.53775 0.000464501 10
-14.0448 -15.167 -1.80849 0.000471329 10
-14.0937 -15.2198 -1.0871 0.000335017 10
-14.078 -15.2028 -0.361667 0.000336676 10
-14.0768 -15.2015 0.361637 0.000336661 10
-13.9935 -15.1116 1.07937 2.97192e-05 10
-14.0593 -15.1827 4.0222 0.000344792 10
-13.7729 -14.8734 4.67991 0.000121721 10
-6.74116 -7.33096 -2.66857 0.000162781 4
-9.30794 -10.1223 -2.67299 6.40159e-05 4
-11.4227 -12.4221 -2.67285 0.000257778 4
-14.0593 -15.2894 -2.55034 0.000457404 10
-14.0476 -15.2767 -1.81571 0.000464133 10
-14.062 -15.2923 -1.08876 0.00030952 10
-14.0601 -15.2902 -0.362577 0.000310936 10
-14.0626 -15.293 0.362642 0.000310805 10
-13.9562 -15.1773 1.08058 2.9709e-05 10
-14.0647 -15.2952 4.03899 0.000339502 10
-13.7298 -14.931 4.68294 0.000121711 10
-6.71259 -7.35123 -2.6674 0.000351629 4
-7.80021 -8.54232 -2.67064 0.000100155 4
-9.27788 -10.1606 -2.67452 2.98767e-05 4
-11.4028 -12.4877 -2.67836 6.4575e-05 4
-14.0406 -15.3765 -2.55668 0.000450359 10
-14.0619 -15.3997 -1.82449 0.000456991 10
-14.1445 -15.4902 -1.09933 0.000325709 10
-14.1376 -15.4826 -0.365967 0.000327327 10
-14.1419 -15.4874 0.366078 0.000327312 10
-13.9041 -15.2269 1.08064 2.96986e-05 10
-14.1249 -15.4687 1.83266 0.00022365 10
-14.1304 -15.4748 2.57302 0.000220211 10
-14.1382 -15.4833 3.32088 0.000215719 10
-14.0588 -15.3964 4.05273 0.000334252 10
-13.7066 -15.0107 4.69289 0.000351181 10
-14.1431 -15.4887 5.62008 0.000196504 10
-6.6781 -7.36492 -2.66389 0.000107449 4
-7.77289 -8.5723 -2.67152 0.000245496 4
-14.0511 -15.4962 -2.56841 0.000443368 10
-14.0576 -15.5033 -1.83093 0.000449903 10
-14.0566 -15.5022 -1.0967 0.000300035 10
-14.0576 -15.5034 -0.365295 0.000301409 10
-14.0463 -15.4909 0.365002 0.000301281 10
-13.8478 -15.2719 1.0804 2.96883e-05 10
-14.0653 -15.5119 4.07018 0.000329041 10
-13.7018 -15.111 4.70928 0.000345733 10
-14.1414 -15.5958 5.64101 7.73397e-05 10
-6.64959 -7.38512 -2.66279 0.00019863 4
-7.73865 -8.59464 -2.67004 0.000117847 4
-9.20536 -10.2236 -2.67413 8.21757e-05 4
-11.3034 -12.5537 -2.67554 4.02444e-05 4
-14.051 -15.6053 -2.57835 0.00043643 10
-14.0595 -15.6146 -1.83827 0.000442868 10
-25.9713 -28.844 -2.03413 5.66722e-05 10
-25.9586 -28.83 -0.677161 3.7662e-05 10
-25.9569 -28.8281 0.677117 3.76599e-05 10
-13.799 -15.3253 1.08077 2.96779e-05 10
-14.0542 -15.6087 4.08269 0.000323871 10
-13.7037 -15.2195 4.72813 0.000340326 10
-14.1303 -15.6932 5.65837 0.000190365 10
-6.63363 -7.41931 -2.66675 0.000205155 4
-7.70858 -8.62158 -2.67004 0.000159105 4
-14.0541 -15.7186 -2.58895 0.000429545 10
-14.0444 -15.7078 -1.84346 0.000435889 10
-25.779 -28.8323 -2.02694 5.7579e-05 10
-25.931 -29.0023 -0.679079 3.36768e-05 10
-25.9245 -28.995 0.678907 3.36591e-05 10
-13.7347 -15.3614 1.07993 2.96674e-05 10
-14.0713 -15.7379 4.10361 0.000318741 10
-13.6983 -15.3208 4.74472 0.000334961 10
-14.1401 -15.8148 5.68437 0.000187331 10
-6.60634 -7.4409 -2.66621 0.000654582 4
-7.66777 -8.63641 -2.66633 0.000137508 4
-9.12945 -10.2828 -2.67287 4.80334e-05 4
-11.2165 -12.6334 -2.67577 4.02538e-05 4
-14.0425 -15.8164 -2.59698 0.000422715 10
-14.0579 -15.8337 -1.85247 0.000428963 10
-25.5978 -28.8315 -2.0206 5.84927e-05 10
-25.6566 -28.8977 -0.674529 3.44434e-05 10
-25.6624 -28.9043 0.674681 3.44252e-05 10
-13.7055 -15.4369 1.08186 0.000365404 10
-14.0692 -15.8465 4.11909 0.000313651 10
-13.7115 -15.4436 4.76792 0.000329638 10
-6.58501 -7.46922 -2.6681 0.000602514 4
-7.63686 -8.66232 -2.66608 7.26881e-05 4
-9.09844 -10.3202 -2.67432 6.72529e-05 4
-10.7099 -12.148 -2.56503 6.92635e-05 4
-14.0393 -15.9245 -2.60666 0.00041594 10
-14.0491 -15.9355 -1.85863 0.000422093 10
-25.4309 -28.8457 -2.01535 5.94133e-05 10
-25.4149 -28.8275 -0.670815 3.94827e-05 10
-25.431 -28.8458 0.671241 3.94806e-05 10
-13.7067 -15.5472 1.08623 0.000359592 10
-14.0668 -15.9557 4.13468 0.000308602 10
-13.7097 -15.5506 4.78615 0.000324358 10
-6.54886 -7.4807 -2.66402 0.000628608 4
-7.62095 -8.70534 -2.67111 5.50113e-05 4
-9.06046 -10.3497 -2.67376 7.36646e-05 4
-10.6668 -12.1846 -2.56488 8.16615e-05 4
-14.0523 -16.0518 -2.61944 0.000409219 10
-14.0447 -16.0431 -1.86545 0.000415279 10
-25.2442 -28.8362 -2.00852 6.03404e-05 10
-25.3747 -28.9852 -0.672421 3.45434e-05 10
-25.3879 -29.0004 0.672772 3.4525e-05 10
-13.6914 -15.6395 1.08934 0.000353828 10
-14.0604 -16.061 4.14924 0.000303595 10
-6.52628 -7.50762 -2.66548 0.000667734 4
-7.5838 -8.72417 -2.66875 0.000198448 4
-10.6243 -12.2218 -2.56489 3.26684e-05 4
-14.0476 -16.1599 -2.62907 0.000402553 10
-14.0522 -16.1652 -1.87393 0.00040852 10
-25.0645 -28.8335 -2.00222 6.12743e-05 10
-25.1215 -28.8989 -0.66838 3.53422e-05 10
-25.1135 -28.8898 0.668167 3.53233e-05 10
-13.6919 -15.7508 1.09375 0.00034811 10
-14.0694 -16.185 4.16854 0.000298629 10
-6.49447 -7.52392 -2.6632 0.000644974 4
-7.56087 -8.75935 -2.67142 3.73347e-05 4
-8.97715 -10.4001 -2.67053 3.2034e-05 4
-10.5878 -12.266 -2.5664 0.000383299 4
-14.0447 -16.271 -2.63915 0.000395943 10
-14.0565 -16.2846 -1.88207 0.000401818 10
-24.8857 -28.8303 -1.99596 6.22147e-05 10
-24.8883 -28.8333 -0.664849 4.13435e-05 10
-24.8852 -28.8298 0.664768 4.13413e-05 10
-13.7038 -15.876 1.09912 0.000342439 10
-14.1155 -16.353 1.88997 0.000226909 10
-14.1141 -16.3514 2.6522 0.000223477 10
-14.1239 -16.3626 3.42352 0.000218967 10
-14.053 -16.2806 4.18051 0.000293704 10
-14.1165 -16.3541 4.98768 0.000206933 10
-14.1119 -16.3488 5.7869 0.000199548 10
-6.48336 -7.56426 -2.66945 0.000602665 4
-7.51798 -8.77138 -2.66707 0.000104152 4
-8.93473 -10.4243 -2.66872 0.000109993 4
-10.5846 -12.3493 -2.57607 0.000342269 4
-14.0466 -16.3885 -2.65024 0.000389388 10
-14.0461 -16.3878 -1.88832 0.000395172 10
-24.7042 -28.8228 -1.98946 6.31617e-05 10
-24.846 -28.9883 -0.666418 3.54453e-05 10
-24.8519 -28.9952 0.666578 3.54264e-05 10
-13.7054 -15.9903 1.10371 0.000336815 10
-14.0375 -16.3778 1.88716 0.000357847 10
-14.0411 -16.382 2.64919 0.000352436 10
-14.0434 -16.3847 3.41786 0.000345326 10
-14.0519 -16.3947 4.19718 0.000288821 10
-14.0406 -16.3815 4.98104 0.000326354 10
-14.0501 -16.3925 5.78497 0.000314711 10
-6.45602 -7.58579 -2.66908 0.000658087 4
-7.49849 -8.81069 -2.67105 6.09236e-05 4
-8.91092 -10.4703 -2.67251 9.39836e-05 4
-10.5888 -12.4418 -2.58765 0.000374589 4
-14.0459 -16.5038 -2.66095 0.00038289 10
-14.0441 -16.5018 -1.89579 0.000388582 10
-19.1722 -22.5273 -1.55029 0.000162633 10
-19.1548 -22.5068 -0.515875 0.00016353 10
-19.1567 -22.5091 0.515926 0.000163522 10
-13.6993 -16.0966 1.10774 0.000331239 10
-13.9359 -16.3746 1.88118 0.000362314 10
-13.943 -16.383 2.64146 0.000356841 10
-13.933 -16.3712 3.40488 0.000349647 10
-14.0583 -16.5185 4.21629 0.00028398 10
-13.9364 -16.3752 4.96432 0.000330454 10
-13.9458 -16.3863 5.76555 0.000318674 10
-6.41769 -7.5943 -2.66418 0.000374678 4
-7.46065 -8.82848 -2.66853 8.64788e-05 4
-8.86324 -10.4882 -2.66917 4.27238e-05 4
-10.5742 -12.5128 -2.59472 0.000395639 4
-14.0451 -16.6201 -2.67178 0.000376447 10
-14.0393 -16.6132 -1.90295 0.00038205 10
-19.0269 -22.5153 -1.54488 0.000164853 10
-19.0329 -22.5224 -0.514706 0.000165762 10
-19.0292 -22.518 0.514604 0.000165754 10
-13.7051 -16.2177 1.11278 0.000325709 10
-13.8393 -16.3767 1.87586 0.000366802 10
-13.8477 -16.3865 2.63423 0.000361265 10
-13.8491 -16.3882 3.39834 0.000353988 10
-14.0698 -16.6494 4.23714 0.000279182 10
-13.8487 -16.3877 4.95342 0.000334572 10
-13.8494 -16.3885 5.7493 0.000322655 10
-6.40252 -7.63023 -2.66892 9.12316e-05 4
-7.42871 -8.85319 -2.66815 4.91394e-05 4
-10.584 -12.6135 -2.60791 0.000349996 4
-14.0466 -16.7401 -2.68316 0.000370062 10
-14.0435 -16.7364 -1.91143 0.000375575 10
-18.8944 -22.5174 -1.5405 0.000167086 10
-18.8966 -22.5201 -0.513141 0.000168006 10
-18.8935 -22.5163 0.513056 0.000167998 10
-13.688 -16.3128 1.11601 0.000320229 10
-13.7496 -16.3861 1.87143 0.000371309 10
-13.7407 -16.3756 2.62474 0.000365709 10
-13.7447 -16.3803 3.38673 0.000358349 10
-14.0605 -16.7566 4.25191 0.000274426 10
-13.7404 -16.3751 4.93509 0.000338709 10
-13.7464 -16.3823 5.73025 0.000326654 10
-6.37318 -7.64932 -2.6678 0.000179217 4
-7.39812 -8.8795 -2.66828 0.000125806 4
-8.791 -10.5513 -2.66954 5.98245e-05 4
-10.5647 -12.6802 -2.61407 0.000333963 4
-14.0429 -16.8548 -2.69368 0.000363734 10
-14.0515 -16.8651 -1.92052 0.000369158 10
-18.8174 -22.5854 -1.54064 0.00016754 10
-18.8199 -22.5884 -0.513198 0.000168463 10
-18.7671 -22.525 0.511757 0.000170254 10
-13.6909 -16.4324 1.12092 0.000314797 10
-13.6976 -16.4404 1.87215 0.0003115 10
-13.7033 -16.4472 2.62854 0.000306675 10
-13.6919 -16.4335 3.38783 0.000300378 10
-14.0566 -16.8712 4.26852 0.000269712 10
-13.703 -16.4469 4.94227 0.000283671 10
-13.7103 -16.4556 5.7391 0.000273453 10
-6.34309 -7.66748 -2.6664 0.000166193 4
-7.35951 -8.89612 -2.66554 4.32493e-05 4
-8.7541 -10.5819 -2.66953 5.23513e-05 4
-10.5694 -12.7762 -2.62623 0.000341606 4
-14.0392 -16.9705 -2.70432 0.000357462 10
-14.0396 -16.9709 -1.92698 0.000362798 10
-18.6228 -22.511 0.509961 0.000172521 10
-14.0482 -16.9814 1.15502 0.000285246 10
-14.0531 -16.9873 1.92884 0.000282234 10
-14.063 -16.9992 2.7089 0.000277825 10
-14.066 -17.0028 3.49505 0.000272072 10
-14.0568 -16.9918 4.28659 0.000265041 10
-14.0599 -16.9955 5.09235 0.000256815 10
-14.0611 -16.9969 5.91074 0.000247487 10
-6.31261 -7.68509 -2.66484 0.000127097 4
-8.7178 -10.6132 -2.66975 3.63288e-05 4
-10.5593 -12.8551 -2.63486 0.000299933 4
-14.0401 -17.0926 -2.71596 0.000351248 10
-14.0388 -17.0911 -1.93505 0.000356497 10
-18.4931 -22.5138 0.508559 0.000174801 10
-14.0582 -17.1147 1.16074 0.000280292 10
-14.0599 -17.1168 1.93796 0.000277328 10
-14.0476 -17.1018 2.71742 0.000174272 10
-14.0637 -17.1215 3.50933 0.000170659 10
-14.0617 -17.1189 4.30625 0.000260414 10
-14.0614 -17.1186 5.11448 0.000252321 10
-14.055 -17.1109 5.93328 0.000155219 10
-6.28535 -7.7066 -2.66468 0.000205324 4
-7.29863 -8.949 -2.66605 0.000157294 4
-8.68141 -10.6445 -2.66996 0.000132506 4
-10.5686 -12.9584 -2.64845 0.000310182 4
-14.0436 -17.2192 -2.72826 0.000345091 10
-14.0512 -17.2284 -1.94503 0.000350254 10
-18.3538 -22.504 0.506886 0.000177091 10
-14.0574 -17.2361 1.16564 0.000275384 10
-14.0616 -17.2413 1.94648 0.000272468 10
-14.0569 -17.2354 4.32318 0.00025583 10
-14.0631 -17.2431 5.13699 0.000247869 10
-6.26438 -7.73586 -2.66722 0.000189041 4
-7.26772 -8.97488 -2.66618 9.83165e-05 4
-8.64775 -10.6791 -2.67106 7.16027e-05 4
-10.5624 -13.0435 -2.65829 0.000312575 4
-14.0398 -17.3378 -2.73927 0.000338993 10
-14.0524 -17.3533 -1.95358 0.00034407 10
-18.2248 -22.5058 0.50549 0.000179393 10
-14.0533 -17.3544 1.17032 0.000270522 10
-14.0487 -17.3487 1.95306 0.000267654 10
-14.0623 -17.3655 4.34348 0.000251289 10
-14.0579 -17.3601 5.1572 0.000243459 10
-6.23981 -7.76075 -2.66827 0.000130382 4
-7.24676 -9.01314 -2.67002 0.000157319 4
-8.60518 -10.7027 -2.66943 8.01599e-05 4
-10.5506 -13.1223 -2.66685 0.00028716 4
-14.0487 -17.4731 -2.75288 0.000332952 10
-14.0458 -17.4694 -1.96112 0.000337944 10
-14.3288 -17.8215 -1.19843 0.000395831 10
-14.3205 -17.8112 -0.398922 0.000397846 10
-14.3254 -17.8172 0.399057 0.000397828 10
-14.0432 -17.4663 1.17455 0.000265707 10
-14.0492 -17.4737 1.9616 0.000262885 10
-14.0592 -17.4861 4.36134 0.000246791 10
-14.0647 -17.4929 5.18204 0.000239092 10
-6.20689 -7.77524 -2.66579 0.00026078 4
-7.21737 -9.04105 -2.67081 0.000214363 4
-8.57916 -10.7469 -2.67298 3.52737e-05 4
-10.5526 -13.219 -2.67898 0.000302083 4
-14.0489 -17.5987 -1.97012 0.000331878 10
-14.2274 -17.8224 -1.19515 0.000400538 10
-14.2234 -17.8174 -0.397947 0.000402576 10
-14.2305 -17.8263 0.398145 0.000402558 10
-14.0437 -17.5922 1.17971 0.000260937 10
-14.0485 -17.5982 1.97006 0.000258163 10
-14.0648 -17.6186 4.38212 0.000242337 10
-14.0529 -17.6037 5.2003 0.000234768 10
-6.18265 -7.80056 -2.66706 3.58596e-05 4
-7.17037 -9.04676 -2.66508 7.4738e-05 4
-8.52969 -10.7618 -2.66926 8.44513e-05 4
-10.5435 -13.3025 -2.68844 0.000361216 4
-14.0365 -17.7096 -1.97704 0.00032587 10
-14.1162 -17.8102 -1.19102 0.000405263 10
-14.1227 -17.8184 -0.396865 0.000407324 10
-14.1258 -17.8223 0.396954 0.000407306 10
-14.0442 -17.7194 1.18494 0.000256215 10
-14.0592 -17.7382 1.98023 0.000253487 10
-14.111 -17.8036 2.78937 0.000197633 10
-14.102 -17.7922 3.59581 0.000193589 10
-14.0617 -17.7415 4.40044 0.000237927 10
-14.0561 -17.7343 5.22436 0.000230486 10
-14.104 -17.7948 6.08413 0.000176188 10
-6.15078 -7.81625 -2.66506 0.000234733 4
-7.14206 -9.07594 -2.66632 0.000104248 4
-8.49107 -10.7902 -2.66894 0.000101565 4
-10.5424 -13.397 -2.70007 0.0003187 4
-14.0498 -17.8542 -1.98769 0.000319922 10
-14.0445 -17.8474 -1.19022 0.000323062 10
-14.0559 -17.8618 -0.396738 0.000324565 10
-14.0499 -17.8543 0.39657 0.000324411 10
-14.0454 -17.8486 1.1903 0.000251538 10
-14.0495 -17.8537 1.98763 0.000248856 10
-14.0609 -17.8682 2.79178 0.000244933 10
-14.0631 -17.871 3.60178 0.000239815 10
-14.0603 -17.8675 4.4195 0.000233561 10
-14.0523 -17.8573 5.24609 0.000226246 10
-14.0562 -17.8623 6.0904 0.000217955 10
-6.12098 -7.8345 -2.66398 0.000117374 4
-7.11335 -9.10467 -2.66745 0.000255723 4
-8.46478 -10.8344 -2.67255 5.77373e-05 4
-10.5413 -13.4923 -2.71185 0.000354623 4
-14.0462 -17.9783 -1.99604 0.000314034 10
-14.042 -17.9729 -1.19531 0.00031712 10
-14.0513 -17.9849 -0.398379 0.000318596 10
-14.0477 -17.9803 0.398277 0.000318444 10
-14.0452 -17.977 1.19558 0.00024691 10
-14.0467 -17.9789 1.99611 0.000244273 10
-14.0592 -17.9949 2.80389 0.000240416 10
-14.0607 -17.9968 3.61723 0.000235386 10
-14.0629 -17.9997 4.44003 0.00022924 10
-14.0612 -17.9976 5.27285 0.000222051 10
-14.0564 -17.9914 6.11766 0.000213903 10
-6.09918 -7.86301 -2.66642 0.000388013 4
-7.07432 -9.12016 -2.66474 4.52469e-05 4
-10.5305 -13.5759 -2.72125 0.000295967 4
-14.0483 -18.111 -2.00531 0.000308205 10
-14.0397 -18.0999 -1.20049 0.000311237 10
-14.055 -18.1196 -0.400274 0.000312687 10
-14.0548 -18.1193 0.400268 0.000312537 10
-14.0415 -18.1022 1.20065 0.000242327 10
-14.0497 -18.1128 2.00551 0.000239735 10
-14.045 -18.1067 2.81365 0.000235945 10
-14.0507 -18.114 3.63091 0.000231001 10
-14.0519 -18.1155 4.45647 0.000224962 10
-14.0585 -18.1241 5.29551 0.000217897 10
-14.067 -18.1351 6.14979 0.000209891 10
-6.06262 -7.87247 -2.66244 0.00066847 4
-7.05163 -9.15672 -2.66821 4.91853e-05 4
-8.3858 -10.8892 -2.67155 3.8499e-05 4
-10.5202 -13.6608 -2.73089 0.000176378 4
-12.7653 -16.5761 -2.56887 3.04077e-05 4
-14.0443 -18.2368 -2.0138 0.000302437 10
-14.0534 -18.2487 -1.2071 0.000305415 10
-14.0553 -18.2512 -0.402096 0.000306839 10
-14.0398 -18.231 0.401651 0.000306691 10
-14.0489 -18.2429 1.20672 0.000237792 10
-14.0462 -18.2393 2.01408 0.000235245 10
-14.0553 -18.2512 2.82847 0.000231521 10
-14.0627 -18.2608 3.65046 0.000226663 10
-14.0521 -18.247 4.47671 0.000220729 10
-14.0507 -18.2452 5.31653 0.000213788 10
-14.0535 -18.2488 6.17167 0.000205922 10
-6.04015 -7.90019 -2.66467 0.000691343 4
-7.01411 -9.17407 -2.66612 0.000165276 4
-8.3523 -10.9244 -2.67301 8.02141e-05 4
-10.5186 -13.7577 -2.74292 0.000245511 4
-12.7117 -16.6263 -2.56975 3.06198e-05 4
-14.042 -18.3662 -2.02267 0.000296728 10
-17.2039 -22.5018 0.494414 0.000198187 10
-14.049 -18.3753 1.21222 0.000233304 10
-14.0476 -18.3736 2.02347 0.000230802 10
-14.046 -18.3715 2.83949 0.000227142 10
-14.0602 -18.39 3.66647 0.00022237 10
-14.0598 -18.3894 4.49959 0.00021654 10
-14.0569 -18.3857 5.34313 0.000209721 10
-14.0612 -18.3913 6.20322 0.000201994 10
-6.01753 -7.92781 -2.66688 0.000551154 4
-6.98792 -9.20625 -2.66836 0.0003719 4
-8.31094 -10.9493 -2.67199 4.38547e-05 4
-10.5074 -13.843 -2.75259 7.55229e-05 1
-14.0457 -18.5045 -2.03248 0.00029108 10
-17.0793 -22.5011 0.493087 0.000200581 10
-14.0449 -18.5035 1.21744 0.000228864 10
-13.974 -18.41 2.0221 0.000301141 10
-13.9814 -18.4198 2.8394 0.000296499 10
-13.9854 -18.4251 3.6637 0.000290401 10
-14.0553 -18.5172 4.51882 0.000212395 10
-14.063 -18.5274 5.37002 0.000205698 10
-13.9914 -18.433 6.20077 0.000264164 10
-5.98516 -7.94258 -2.6648 0.000697958 4
-8.2634 -10.9659 -2.669 9.41363e-05 4
-10.4584 -13.8787 -2.75241 7.55325e-05 1
-12.5816 -16.6964 -2.56695 3.00094e-05 4
-14.0364 -18.627 -2.04054 0.000285492 10
-16.9619 -22.5092 0.491964 0.000202984 10
-14.0457 -18.6393 1.22314 0.000224471 10
-13.886 -18.4274 2.01868 0.000304535 10
-13.8815 -18.4213 2.83215 0.000299844 10
-13.8733 -18.4105 3.65114 0.000293682 10
-14.0501 -18.6451 4.53804 0.000208296 10
-14.0626 -18.6618 5.39471 0.000201718 10
-13.8766 -18.4149 6.17836 0.000267168 10
-5.96313 -7.97108 -2.66737 0.00062951 4
-6.92333 -9.25461 -2.6683 9.44659e-05 4
-8.23064 -11.0021 -2.6708 8.34472e-05 4
-10.4027 -13.9056 -2.75052 7.55421e-05 1
-14.0493 -18.7801 -2.05193 0.000279964 10
-16.8349 -22.5036 0.490554 0.000205397 10
-14.0473 -18.7773 1.22898 0.000220125 10
-13.7893 -18.4326 2.01396 0.000307939 10
-13.7776 -18.4169 2.82405 0.0003032 10
-13.7791 -18.4189 3.64325 0.000296973 10
-14.0516 -18.7832 4.55968 0.000204241 10
-14.0616 -18.7965 5.41945 0.000197782 10
-13.7813 -18.4218 6.16449 0.000270182 10
-5.92648 -7.98002 -2.66342 0.000639338 4
-6.89259 -9.28089 -2.66893 3.34594e-05 4
-8.18213 -11.0172 -2.66753 3.95878e-05 4
-10.36 -13.9498 -2.75209 7.55518e-05 1
-14.0367 -18.9005 -2.05972 0.000274498 10
-16.7137 -22.5051 0.48931 0.000207817 10
-14.0463 -18.9133 1.23466 0.000215827 10
-13.6883 -18.4313 2.00859 0.000232076 10
-13.6972 -18.4433 2.82076 0.000228402 10
-13.69 -18.4337 3.6367 0.000223611 10
-14.0598 -18.9316 4.58376 0.00020023 10
-14.0635 -18.9365 5.44561 0.00019389 10
-13.7012 -18.4486 6.15743 0.000203158 10
-5.89584 -7.99692 -2.66218 0.000639382 4
-6.8527 -9.29477 -2.66603 0.000305095 4
-8.14786 -11.0515 -2.66891 0.000115565 4
-10.3102 -13.9844 -2.7518 7.55614e-05 1
-14.0471 -19.053 -2.07099 0.000269091 10
-16.5999 -22.5155 0.488275 0.000210247 10
-14.0527 -19.0607 1.24107 0.000211577 10
-13.6814 -18.5569 2.01706 0.000227535 10
-13.9315 -18.8962 3.71833 5.55879e-05 10
-14.059 -19.0691 4.60516 0.000196265 10
-14.0625 -19.0739 5.47097 0.000190041 10
-5.88109 -8.03549 -2.66817 0.000169643 4
-6.81773 -9.31524 -2.66505 0.000131891 4
-8.10544 -11.0747 -2.66767 6.956e-05 4
-10.2542 -14.0106 -2.7499 7.55711e-05 1
-12.3491 -16.873 -2.56734 2.94088e-05 4
-14.0484 -19.1947 -2.08104 0.000263746 10
-16.4755 -22.5109 0.486924 0.000212684 10
-14.0387 -19.1814 1.24573 0.000207374 10
-13.6857 -18.6991 2.02731 0.000223046 10
-13.8727 -18.9546 3.72027 5.55803e-05 10
-14.0538 -19.2021 4.62539 0.000192345 10
-14.0504 -19.1974 5.4923 0.000186236 10
-6.78399 -9.33735 -2.66459 0.000169306 4
-8.08189 -11.1238 -2.67268 5.24428e-05 4
-10.2068 -14.0485 -2.75033 7.55809e-05 1
-14.0457 -19.3323 -2.09063 0.000258461 10
-14.196 -19.5392 -1.26574 0.000227784 10
-14.1848 -19.5237 -0.421236 0.000228963 10
-14.194 -19.5363 0.421509 0.000228953 10
-14.0502 -19.3384 1.25274 0.00020322 10
-13.6974 -18.8529 2.03879 0.000218607 10
-13.801 -18.9955 3.71882 5.55727e-05 10
-14.0579 -19.349 4.64893 0.000188469 10
-14.0516 -19.3404 5.51915 0.000182475 10
-5.80935 -8.05486 -2.66106 0.000283866 4
-6.76386 -9.37832 -2.66953 7.2847e-05 4
-8.03462 -11.1403 -2.66989 7.27851e-05 4
-14.0405 -19.4676 -2.09995 0.000253237 10
-14.0818 -19.5249 -1.26163 0.00023027 10
-14.0791 -19.5212 -0.42012 0.000231461 10
-14.0928 -19.5402 0.420529 0.000231451 10
-14.0532 -19.4852 1.25906 0.000199113 10
-13.6814 -18.9697 2.04624 0.000214218 10
-14.1219 -19.5805 2.96423 0.000121793 10
-13.7438 -19.0562 3.7213 5.5565e-05 10
-14.0591 -19.4934 4.67181 0.000184639 10
-14.0521 -19.4838 5.54603 0.000178757 10
-14.1208 -19.579 6.46826 0.00010814 10
-5.78563 -8.08129 -2.66311 6.19979e-05 4
-6.73008 -9.40047 -2.66913 0.00017721 4
-7.99746 -11.1707 -2.67048 5.99466e-05 4
-12.1754 -17.0064 -2.5681 3.12892e-05 4
-14.0377 -19.6076 -2.10976 0.000248075 10
-14.0424 -19.6142 -1.26422 0.000165492 10
-14.0438 -19.6161 -0.421105 0.00016627 10
-14.039 -19.6094 0.420961 0.000166185 10
-14.0497 -19.6243 1.26487 0.000195054 10
-13.6814 -19.11 2.05621 0.00020988 10
-14.0508 -19.6259 2.96367 0.000263626 10
-13.6976 -19.1326 3.72684 0.000202168 10
-14.0576 -19.6355 4.69407 0.000180853 10
-14.0542 -19.6308 5.57387 0.000175084 10
-14.0477 -19.6216 6.46609 0.000234532 10
-5.7663 -8.11397 -2.66723 0.000124004 4
-6.69921 -9.42671 -2.66992 0.000313096 4
-7.95209 -11.1897 -2.66836 7.27997e-05 4
-14.0326 -19.7457 -2.11933 0.000242973 10
-14.0693 -19.7974 -1.27285 0.000224915 10
-14.0738 -19.8038 -0.424076 0.000226081 10
-14.0779 -19.8095 0.424199 0.000226071 10
-14.0485 -19.7682 1.27097 0.000191043 10
-13.6893 -19.2626 2.06748 0.000205593 10
-13.9393 -19.6145 2.95457 0.000266466 10
-13.6945 -19.2701 3.7443 0.000198027 10
-14.0445 -19.7625 4.71269 0.000177113 10
-13.998 -19.6971 5.57879 6.94061e-05 10
-13.9526 -19.6332 6.45384 0.00023708 10
-5.72451 -8.11501 -2.66099 0.000179492 4
-6.65815 -9.43852 -2.66667 0.000100435 4
-12.0456 -17.0757 -2.56581 3.37877e-05 4
-14.0297 -19.8883 -2.12937 0.000237932 10
-14.1592 -20.0719 -1.28732 0.000217412 10
-14.1548 -20.0657 -0.428624 0.000218543 10
-14.1558 -20.0671 0.428655 0.000218534 10
-14.0405 -19.9037 1.27653 0.00018708 10
-13.685 -19.3997 2.07705 0.000201357 10
-13.8492 -19.6325 2.94999 0.000269313 10
-13.6874 -19.4031 3.76084 0.000193935 10
-14.0566 -19.9266 4.74008 0.000173418 10
-14.0582 -19.9288 5.6305 0.000167869 10
-13.8493 -19.6327 6.43773 0.000239634 10
-5.71116 -8.15638 -2.668 0.000127285 4
-6.6262 -9.4632 -2.66709 7.09015e-05 4
-7.88287 -11.2579 -2.67144 6.31772e-05 4
-9.67866 -13.8226 -2.67262 0.000106783 4
-14.0375 -20.0477 -2.14117 0.000232952 10
-14.0508 -20.0667 -1.28383 0.000219727 10
-14.0463 -20.0602 -0.427456 0.00022087 10
-14.0558 -20.0737 0.427745 0.00022086 10
-14.0434 -20.0561 1.28315 0.000183165 10
-13.6835 -19.542 2.08716 0.000197171 10
-13.7366 -19.6179 2.94057 0.000272167 10
-13.6892 -19.5502 3.78006 0.000189892 10
-14.0535 -20.0705 4.76262 0.000169768 10
-14.0475 -20.0619 5.6542 0.000164327 10
-13.7331 -19.6129 6.41548 0.000242194 10
-5.67288 -8.1622 -2.66341 7.83349e-05 4
-6.59569 -9.48995 -2.66812 0.000124088 4
-7.83878 -11.2785 -2.66982 5.03327e-05 4
-9.64257 -13.8738 -2.67601 9.93113e-05 4
-14.0315 -20.1887 -2.15098 0.000228034 10
-14.1423 -20.3481 -1.29867 0.000212466 10
-14.1309 -20.3318 -0.43219 0.000213574 10
-14.1354 -20.3382 0.432327 0.000213565 10
-14.0354 -20.1943 1.28885 0.000179298 10
-13.6824 -19.6864 2.09748 0.000193037 10
-13.6917 -19.6998 2.94567 0.000189938 10
-13.6914 -19.6993 3.79963 0.000185899 10
-14.0518 -20.2178 4.78592 0.000166163 10
-14.0526 -20.2191 5.68465 0.000160829 10
-13.7033 -19.7165 6.4337 0.000168674 10
-5.65313 -8.19468 -2.66755 0.000133832 4
-6.56606 -9.51804 -2.66956 0.000171374 4
-7.7966 -11.3018 -2.66888 5.8906e-05 4
-9.58086 -13.8882 -2.67232 9.28358e-05 4
-14.0447 -20.3589 -2.16389 0.000223176 10
-14.037 -20.3477 -1.29551 0.000148891 10
-14.0415 -20.3543 -0.431624 0.000149594 10
-14.0394 -20.3513 0.431559 0.000149516 10
-14.0467 -20.3619 1.29641 0.000175479 10
-13.9568 -20.2315 2.15034 0.000255705 10
-13.9442 -20.2133 3.01515 0.000251693 10
-14.0497 -20.3662 3.91878 0.000167076 10
-14.0581 -20.3783 4.81225 0.000162603 10
-13.9547 -20.2285 5.67356 0.000232381 10
-13.9546 -20.2283 6.58478 0.000223775 10
-5.61775 -8.20451 -2.66435 0.000169749 4
-6.51899 -9.52073 -2.66392 9.84989e-05 4
-9.54382 -13.9384 -2.67554 0.000100835 4
-11.8045 -17.2401 -2.56548 2.88333e-05 4
-14.0393 -20.5039 -2.17408 0.00021838 10
-14.1088 -20.6054 -1.30877 0.00020767 10
-14.1048 -20.5996 -0.435778 0.000208755 10
-14.1158 -20.6156 0.436119 0.000208747 10
-14.0475 -20.5158 1.30308 0.000171708 10
-13.8383 -20.2103 2.14294 0.00025837 10
-13.8533 -20.2323 3.01075 0.000254319 10
-14.0491 -20.5182 3.93856 0.000163472 10
-14.043 -20.5093 4.83158 0.000159089 10
-13.8381 -20.21 5.65478 0.000234819 10
-13.8403 -20.2132 6.56407 0.000226129 10
-5.58982 -8.22516 -2.6647 0.000101204 4
-6.49804 -9.56157 -2.66898 0.000122149 4
-7.72343 -11.3647 -2.67092 0.000106053 4
-9.48933 -13.9631 -2.67391 3.69444e-05 4
-11.7483 -17.287 -2.56635 3.31954e-05 4
-14.0289 -20.6429 -2.18361 0.000213645 10
-14.0411 -20.6609 -1.30917 0.000142536 10
-14.0398 -20.659 -0.435996 0.000143211 10
-14.0465 -20.6688 0.436204 0.000143134 10
-14.042 -20.6621 1.30925 0.000167985 10
-13.7343 -20.2095 2.13776 0.000261041 10
-13.7458 -20.2263 3.0027 0.000256951 10
-14.0413 -20.6611 3.95656 0.000159915 10
-14.0505 -20.6747 4.85895 0.000155619 10
-13.7346 -20.2099 5.64132 0.000237263 10
-13.7443 -20.2241 6.55199 0.000228489 10
-5.56047 -8.24373 -2.66442 0.000205687 4
-6.46394 -9.58319 -2.6687 6.30499e-05 4
-7.67402 -11.3772 -2.66755 3.74972e-05 4
-9.43811 -13.9926 -2.67323 3.69493e-05 4
-11.6853 -17.3241 -2.56579 3.00887e-05 4
-14.0394 -20.8143 -2.19654 0.000208971 10
-14.0926 -20.8932 -1.32077 0.000203016 10
-14.0908 -20.8904 -0.43984 0.00020408 10
-14.0929 -20.8935 0.439905 0.000204072 10
-14.0359 -20.8091 1.31545 0.00016431 10
-13.6855 -20.2896 2.14117 0.000177007 10
-13.6817 -20.284 3.00416 0.000174146 10
-14.0491 -20.8287 3.97925 0.000156403 10
-14.0569 -20.8402 4.8863 0.000152195 10
-13.6994 -20.3102 5.65593 0.000160552 10
-13.6957 -20.3047 6.56259 0.00015453 10
-5.53515 -8.2683 -2.6661 0.000107748 4
-6.42638 -9.59961 -2.66701 5.71438e-05 4
-11.6291 -17.3713 -2.56675 2.94715e-05 4
-14.0276 -20.9542 -2.20612 0.000204357 10
-14.0371 -20.9684 -1.32242 0.000136343 10
-14.0387 -20.9708 -0.440498 0.00013699 10
-14.1526 -21.1409 0.44407 0.000197516 10
-14.0428 -20.9768 1.32295 0.000160683 10
-14.039 -20.9712 3.99709 0.000152937 10
-14.0409 -20.9741 4.90617 0.000148815 10
-13.6983 -20.4623 5.68494 0.000157006 10
-5.49766 -8.27464 -2.66194 0.000205716 4
-6.39356 -9.62308 -2.66731 0.000132033 4
-7.60457 -11.4458 -2.67113 7.82246e-05 4
-9.33498 -14.0503 -2.67173 5.5938e-05 4
-14.0341 -21.123 -2.21872 0.000199805 10
-14.0533 -21.1519 -1.33089 0.000198499 10
-14.059 -21.1606 -0.44345 0.000199542 10
-14.0598 -21.1617 0.443473 0.000199533 10
-14.0349 -21.1242 1.32915 0.000157104 10
-14.0526 -21.1509 4.02196 0.000149517 10
-14.0435 -21.1372 4.93283 0.000145481 10
-5.46632 -8.29011 -2.66076 0.000186137 4
-6.36403 -9.65156 -2.66903 9.45988e-05 4
-7.56108 -11.467 -2.66989 5.57274e-05 4
-14.0296 -21.277 -2.22974 0.000195314 10
-14.8363 -22.5004 0.470439 0.000247562 10
-14.046 -21.3019 1.33723 0.000153573 10
-14.1101 -21.399 2.24253 0.000143937 10
-14.1103 -21.3994 3.1473 0.00014165 10
-14.048 -21.3048 4.04188 0.000146144 10
-14.0455 -21.3011 4.9596 0.000142191 10
-14.0982 -21.3811 5.91271 0.000130645 10
-14.1133 -21.4039 6.86971 0.000125744 10
-5.44716 -8.32414 -2.66556 0.000189417 4
-6.31875 -9.65605 -2.66416 5.12454e-05 4
-7.5104 -11.4771 -2.66613 4.28717e-05 4
-11.462 -17.5158 -2.57023 0.000212057 4
-14.0353 -21.4482 -2.24254 0.000190883 10
-14.7272 -22.5055 0.469469 0.000250098 10
-14.0394 -21.4544 1.34372 0.00015009 10
-14.0155 -21.418 2.23938 0.000226679 10
-14.0129 -21.4139 3.14222 0.000223078 10
-14.0495 -21.4699 4.06386 0.000142816 10
-14.0548 -21.4779 4.98932 0.000138947 10
-14.0231 -21.4295 5.91252 0.000205751 10
-14.0224 -21.4285 6.86186 0.000198035 10
-5.41392 -8.33671 -2.66352 0.000323338 4
-6.29714 -9.69674 -2.66931 7.49035e-05 4
-7.48117 -11.52 -2.67001 3.64448e-05 4
-11.4591 -17.6454 -2.58336 0.000144325 4
-14.0283 -21.6016 -2.25345 0.000186514 10
-14.6104 -22.4981 0.468248 0.000252637 10
-14.0444 -21.6265 1.35142 0.000146654 10
-13.9073 -21.4153 2.23401 0.000228948 10
-13.9041 -21.4104 3.13456 0.000225314 10
-14.0489 -21.6335 4.08552 0.000139534 10
