VERSION 0.7
FIELDS x y z intensity label
SIZE 4 4 4 4 4
TYPE F F F F F
COUNT 1 1 1 1 1
WIDTH 1172
HEIGHT 1
VIEWPOINT 12.9236 47.5019 2.72759 0.969447 -0.000423593 0.00086714 0.2453
POINTS 1172
DATA ascii
-12.0714 27.8954 -2.65924 0.000110293 10
-12.0743 27.9021 -1.59333 0.000111555 10
-12.0687 27.889 -0.53043 0.000112198 10
-12.0654 27.8814 0.530285 0.000112215 10
-12.0658 27.8823 1.5922 0.000111604 10
-12.9619 29.9531 5.16925 6.76557e-05 10
-12.959 29.9464 6.34265 6.56977e-05 10
-12.0662 27.8833 7.01426 9.96961e-05 10
-3.96695 9.07999 -2.65504 0.000165412 4
-4.60557 10.5417 -2.65588 6.00345e-05 4
-5.46981 12.5199 -2.65574 9.82567e-05 4
-6.55329 14.9999 -2.59259 0.000127708 4
-12.2181 27.9662 -2.67004 0.00010908 10
-12.2195 27.9693 -1.5996 0.00011033 10
-12.2159 27.9611 -0.532608 0.000110968 10
-12.2101 27.9479 0.532357 0.000110984 10
-12.216 27.9613 1.59913 0.000110379 10
-13.0325 29.8301 5.15585 6.80473e-05 10
-13.0364 29.8392 6.32954 6.60801e-05 10
-12.2109 27.9497 7.04163 9.85874e-05 10
-3.99736 9.06324 -2.6542 5.29272e-05 4
-4.63489 10.5087 -2.65162 6.40302e-05 4
-5.51588 12.5062 -2.6569 5.13053e-05 4
-6.63156 15.0358 -2.60277 0.000300579 4
-12.3684 28.0429 -2.68147 0.000107865 10
-12.3698 28.0462 -1.60645 0.000109103 10
-12.359 28.0217 -0.534582 0.000109734 10
-12.3574 28.018 0.53451 0.000109751 10
-12.3591 28.0219 1.60506 0.000109152 10
-13.097 29.6949 5.14034 6.84331e-05 10
-13.1012 29.7044 6.3106 6.64567e-05 10
-12.3525 28.0069 7.06687 9.74765e-05 10
-4.02929 9.04994 -2.65441 0.00011246 4
-4.67256 10.4947 -2.6522 0.000168062 4
-5.55561 12.4781 -2.65504 4.03842e-05 4
-6.71809 15.0891 -2.61605 0.000329812 4
-12.5074 28.092 -2.69032 0.000106648 10
-12.5132 28.1051 -1.61232 0.000107874 10
-12.5058 28.0884 -0.536685 0.000108499 10
-12.5072 28.0915 0.536743 0.000108515 10
-12.5133 28.1054 1.61233 0.000107922 10
-13.1744 29.5901 5.13014 6.88131e-05 10
-13.1753 29.5923 6.29652 6.68277e-05 10
-12.5013 28.0783 7.09587 9.63636e-05 10
-4.05509 9.02298 -2.65064 0.000343967 4
-4.71301 10.4869 -2.65436 8.80232e-05 4
-5.60405 12.4696 -2.65737 6.11143e-05 4
-6.79812 15.1265 -2.62663 0.000240752 4
-12.667 28.1854 -2.70348 0.000114449 10
-12.6676 28.1867 -1.61953 0.000115776 10
-12.6626 28.1756 -0.53919 0.000116458 10
-12.6677 28.1869 0.539407 0.000116485 10
-12.6697 28.1913 1.61979 0.000115857 10
-13.2411 29.4629 5.11606 6.91869e-05 10
-13.2344 29.4478 6.27557 6.71928e-05 10
-12.6531 28.1544 7.12621 0.000103474 10
-4.08785 9.01162 -2.65148 0.000231496 4
-4.75384 10.4798 -2.65674 0.000160026 4
-6.87452 15.1548 -2.63569 0.000290383 4
-12.8306 28.2849 -2.71731 0.000112637 10
-12.8263 28.2755 -1.62719 0.000113946 10
-12.8246 28.2716 -0.541882 0.000114618 10
-12.8313 28.2864 0.542164 0.000114645 10
-12.8246 28.2717 1.62697 0.000114026 10
-13.2996 29.3187 5.09906 6.95547e-05 10
-13.3013 29.3226 6.25875 6.7552e-05 10
-12.8162 28.2532 7.16249 0.000101819 10
-4.12725 9.01469 -2.6566 0.00017526 4
-4.78126 10.4432 -2.65167 0.000146008 4
-5.68458 12.4162 -2.65439 3.70957e-05 4
-6.96569 15.2144 -2.65027 0.000279549 4
-12.9944 28.3823 -2.731 0.000110833 10
-12.995 28.3835 -1.63601 0.000112123 10
-12.9884 28.369 -0.544615 0.000112786 10
-12.9989 28.392 0.545056 0.000112813 10
-12.9856 28.3631 1.63483 0.000112203 10
-13.3706 29.204 5.0872 6.99163e-05 10
-13.3731 29.2093 6.24448 6.79051e-05 10
-12.9916 28.3761 7.20511 0.000100171 10
-4.15867 9.00019 -2.65659 5.95171e-05 4
-4.82156 10.4348 -2.6538 0.000247989 4
-5.72948 12.3997 -2.65513 0.000115637 4
-7.05084 15.2594 -2.66238 0.000255009 4
-13.1635 28.4885 -1.64469 0.000110307 10
-13.1565 28.4732 -0.547493 0.00011096 10
-13.1632 28.4878 0.547774 0.000110987 10
-13.1562 28.4726 1.64378 0.000110386 10
-13.4374 29.0812 5.07394 7.02716e-05 10
-13.4416 29.0904 6.22905 6.82522e-05 10
-13.1574 28.4751 7.24187 9.85297e-05 10
-4.18755 8.98023 -2.655 0.000132249 4
-4.86085 10.4241 -2.65539 0.000189972 4
-5.77781 12.3905 -2.65746 5.56295e-05 4
-7.12672 15.2833 -2.67088 0.000280152 4
-13.3287 28.5835 -1.65286 0.000108498 10
-13.3294 28.5849 -0.550533 0.000109142 10
-13.3281 28.5823 0.550481 0.000109169 10
-13.321 28.5669 1.6519 0.000108577 10
-13.5037 28.9589 5.06079 7.06205e-05 10
-13.503 28.9572 6.2106 6.8593e-05 10
-13.3217 28.5685 7.27738 9.68955e-05 10
-4.22158 8.9713 -2.6567 8.26484e-05 4
-4.8933 10.3988 -2.65327 0.000109972 4
-5.81972 12.3675 -2.65687 3.27191e-05 4
-7.21408 15.3307 -2.68355 0.000121353 4
-13.4963 28.681 -1.66121 0.000106697 10
-13.4962 28.681 -0.553286 0.000107332 10
-13.4932 28.6745 0.553161 0.000107358 10
-13.4911 28.67 1.66057 0.000106775 10
-13.5689 28.8354 5.04747 7.09629e-05 10
-13.5729 28.8438 6.1964 6.89275e-05 10
-13.4855 28.6581 7.31217 9.52681e-05 10
-4.25104 8.95268 -2.65556 0.000112392 4
-4.93282 10.3885 -2.65502 7.99716e-05 4
-5.86053 12.3423 -2.65581 3.38055e-05 4
-7.30507 15.3844 -2.6974 0.000217773 4
-8.89745 18.738 -2.54693 3.03742e-05 4
-13.6624 28.773 -1.66929 0.00010163 10
-13.6647 28.7778 -0.55607 0.000102232 10
-13.6658 28.7801 0.556114 0.000102253 10
-13.6714 28.7919 1.67039 0.000101693 10
-13.6383 28.7222 2.78177 3.18161e-05 10
-13.6359 28.7171 3.90333 3.12695e-05 10
-13.6295 28.7037 5.0327 3.05537e-05 10
-13.6405 28.7268 6.18146 2.96781e-05 10
-13.6405 28.7267 7.34178 2.86545e-05 10
-4.27621 8.92514 -2.6518 0.000155352 4
-4.96739 10.3678 -2.65413 7.39662e-05 4
-7.39091 15.426 -2.7092 0.000256875 4
-13.8297 28.8648 -1.67741 0.00010011 10
-13.8278 28.8608 -0.558604 0.000100704 10
-13.8332 28.8721 0.558822 0.000100725 10
-13.8367 28.8794 1.67825 0.000100173 10
-13.6963 28.5864 2.77323 3.19618e-05 10
-13.7012 28.5967 3.89344 3.14131e-05 10
-13.7036 28.6017 5.02318 3.06947e-05 10
-13.7028 28.6 6.16443 2.9816e-05 10
-13.7022 28.5987 7.32124 2.87885e-05 10
-4.31316 8.92221 -2.65539 8.92371e-05 4
-5.00557 10.3545 -2.6552 7.59574e-05 4
-5.94264 12.2929 -2.65406 0.000189699 4
-7.47788 15.4687 -2.72127 0.000246974 4
-14.0056 28.9719 -1.68646 9.85934e-05 10
-14.003 28.9666 -0.561594 9.91799e-05 10
-13.9945 28.9489 0.561252 9.92009e-05 10
-13.9962 28.9525 1.68533 9.86561e-05 10
-13.7635 28.4711 2.76668 3.21044e-05 10
-13.7683 28.4811 3.88422 3.15539e-05 10
-13.7712 28.487 5.01145 3.08329e-05 10
-13.7688 28.4821 6.14933 2.99511e-05 10
-13.7667 28.4777 7.30252 2.89199e-05 10
-4.34204 8.90251 -2.65402 0.000175154 4
-5.03711 10.3276 -2.6528 5.59629e-05 4
-5.9848 12.2707 -2.65375 6.86756e-05 4
-7.55665 15.4934 -2.73023 0.000213935 4
-14.166 29.0446 -1.69356 9.7082e-05 10
-14.1713 29.0554 -0.564272 9.76607e-05 10
-14.1661 29.0448 0.564065 9.76815e-05 10
-14.1629 29.0382 1.69319 9.71442e-05 10
-13.8305 28.3568 2.76025 3.2244e-05 10
-13.8342 28.3644 3.87487 3.16916e-05 10
-13.8273 28.3501 4.99582 3.09682e-05 10
-13.836 28.3679 6.13507 3.00833e-05 10
-13.8308 28.3573 7.28398 2.90485e-05 10
-4.36815 8.87725 -2.65102 0.000145398 4
-5.0739 10.3115 -2.6532 0.000191853 4
-6.02932 12.2532 -2.65451 7.62966e-05 4
-7.62022 15.4863 -2.73365 7.73608e-05 1
-9.16272 18.6211 -2.54819 3.14162e-05 4
-14.3465 29.156 -1.70297 9.55751e-05 10
-14.3399 29.1424 -0.566931 9.6146e-05 10
-14.3372 29.137 0.566825 9.61667e-05 10
-14.3356 29.1338 1.70167 9.5637e-05 10
-13.8968 28.242 2.75378 3.23806e-05 10
-13.8927 28.2336 3.8636 3.18263e-05 10
-13.8946 28.2376 4.98451 3.11005e-05 10
-13.8959 28.2403 6.11792 3.02126e-05 10
-13.8918 28.2318 7.26416 2.91744e-05 10
-4.39942 8.86257 -2.65121 0.000165211 4
-5.11286 10.2998 -2.65476 8.39271e-05 4
-6.08187 12.2519 -2.6588 8.71851e-05 4
-7.67344 15.4581 -2.73337 7.73483e-05 1
-9.22859 18.5909 -2.54845 2.92727e-05 4
-14.5103 29.2308 -1.71029 9.40736e-05 10
-14.5116 29.2334 -0.569682 9.46366e-05 10
-14.5167 29.2437 0.569882 9.46572e-05 10
-14.5121 29.2345 1.7105 9.41351e-05 10
-13.9588 28.1198 2.7466 3.2514e-05 10
-13.9573 28.1168 3.85426 3.19579e-05 10
-13.9517 28.1055 4.96976 3.12298e-05 10
-13.9569 28.1159 6.10149 3.0339e-05 10
-13.9585 28.1192 7.24767 2.92974e-05 10
-4.43748 8.86145 -2.65549 0.000148677 4
-5.14709 10.2785 -2.65388 6.7934e-05 4
-6.1151 12.2116 -2.65468 0.000110057 4
-7.73126 15.439 -2.73476 7.73358e-05 1
-14.6913 29.3378 -1.71953 9.25772e-05 10
-14.6851 29.3255 -0.572473 9.31325e-05 10
-14.6927 29.3407 0.572769 9.3153e-05 10
-14.6838 29.3229 1.71866 9.26384e-05 10
-14.0209 27.9991 2.73958 3.26442e-05 10
-14.0268 28.0108 3.84642 3.20865e-05 10
-14.0259 28.0092 4.96135 3.13561e-05 10
-14.0191 27.9954 6.08593 3.04625e-05 10
-14.0208 27.9989 7.22924 2.94176e-05 10
-4.46293 8.8351 -2.65225 0.000122235 4
-5.18929 10.2731 -2.65714 5.594e-05 4
-7.78972 15.421 -2.73638 7.73233e-05 1
-9.36066 18.531 -2.54913 2.94735e-05 4
-14.8692 29.4361 -1.72833 9.10867e-05 10
-14.8732 29.4439 -0.575794 9.16343e-05 10
-14.869 29.4355 0.57563 9.16546e-05 10
-14.8702 29.4379 1.72843 9.11475e-05 10
-14.1114 27.9358 2.73818 4.68482e-05 10
-14.102 27.9172 3.84031 4.60653e-05 10
-14.1082 27.9294 4.95592 4.5034e-05 10
-14.1067 27.9265 6.08161 4.3768e-05 10
-14.0974 27.9082 7.21848 4.22838e-05 10
-14.1029 27.9189 8.38111 4.06006e-05 10
-4.49619 8.82428 -2.65369 0.000105708 4
-6.20126 12.1707 -2.65513 5.99172e-05 4
-7.84415 15.395 -2.7366 7.73108e-05 1
-15.0498 29.537 -1.73732 8.96022e-05 10
-15.0461 29.5296 -0.578493 9.01419e-05 10
-15.0391 29.5159 0.578225 9.01622e-05 10
-15.0403 29.5182 1.73622 8.96626e-05 10
-14.281 28.0281 2.7521 4.61047e-05 10
-14.2792 28.0246 3.86191 4.53329e-05 10
-14.2766 28.0194 4.9807 4.43163e-05 10
-14.2701 28.0067 6.10988 4.30684e-05 10
-14.2706 28.0077 7.25706 4.16053e-05 10
-14.2692 28.0048 8.42179 3.99463e-05 10
-4.53459 8.82336 -2.65816 0.000254337 4
-5.26083 10.2365 -2.65711 0.000151806 4
-6.25268 12.1664 -2.65894 4.35707e-05 4
-7.89059 15.3534 -2.73409 7.72983e-05 1
-9.48802 18.4617 -2.54865 3.28764e-05 4
-15.2303 29.635 -1.7462 8.81236e-05 10
-15.231 29.6364 -0.581623 8.86557e-05 10
-15.2281 29.6306 1.74595 8.81836e-05 10
-14.4449 28.1067 2.76475 4.53639e-05 10
-14.4405 28.0982 3.87897 4.46032e-05 10
-14.441 28.0992 5.00381 4.36013e-05 10
-14.4467 28.1102 6.14344 4.23713e-05 10
-14.4443 28.1055 7.29543 4.09294e-05 10
-14.4467 28.1102 8.46861 3.92945e-05 10
-4.56407 8.80499 -2.65741 0.000138717 4
-5.28942 10.2043 -2.65354 4.79338e-05 4
-6.28939 12.1335 -2.65653 0.000111091 4
-7.94918 15.3355 -2.73583 7.72859e-05 1
-9.55012 18.4241 -2.54804 3.20154e-05 4
-15.408 29.7252 -1.75468 8.66518e-05 10
-15.4078 29.7247 -0.584409 8.7176e-05 10
-15.4101 29.7292 1.75491 8.67114e-05 10
-15.4074 29.7239 2.92911 8.57287e-05 10
-15.3968 29.7034 4.10796 8.42614e-05 10
-15.3939 29.6978 6.50211 7.99585e-05 10
-15.4019 29.7133 7.72667 7.71809e-05 10
-15.3917 29.6936 8.96175 7.40335e-05 10
-4.58626 8.7727 -2.65248 0.000201453 4
-5.32364 10.1832 -2.65286 0.000115828 4
-6.33563 12.1189 -2.65817 0.00020582 4
-15.5939 29.8285 -1.76398 8.51864e-05 10
-15.5951 29.8308 -0.58756 8.57031e-05 10
-15.5956 29.8316 1.76416 8.52457e-05 10
-15.5943 29.8291 2.94482 8.42779e-05 10
-15.5908 29.8224 4.13193 8.28329e-05 10
-15.583 29.8075 6.538 7.85954e-05 10
-15.5775 29.7971 7.76255 7.586e-05 10
-15.5815 29.8047 9.01164 7.27607e-05 10
-4.62566 8.77336 -2.65755 0.000175018 4
-5.37081 10.1867 -2.65863 9.18544e-05 4
-6.37829 12.0975 -2.65834 0.000189462 4
-9.67377 18.3479 -2.54679 2.88014e-05 4
-15.7823 29.9339 -1.77346 8.37283e-05 10
-15.7788 29.9271 -0.590539 8.42372e-05 10
-15.7769 29.9235 1.77285 8.37871e-05 10
-15.7693 29.9091 2.95813 8.28343e-05 10
-15.778 29.9257 4.15385 8.14114e-05 10
-15.7682 29.9071 6.57187 7.72391e-05 10
-15.7634 29.898 7.80313 7.4546e-05 10
-15.7732 29.9166 9.06207 7.14946e-05 10
-4.65006 8.74549 -2.654 0.000244344 4
-5.40399 10.1634 -2.65748 8.58552e-05 4
-6.41642 12.0675 -2.65666 0.0002221 4
-9.73949 18.3173 -2.54725 2.92217e-05 4
-15.9702 30.0356 -1.78278 8.22773e-05 10
-15.9705 30.0361 -0.593786 8.27785e-05 10
-15.9618 30.0198 1.78184 8.23357e-05 10
-15.9611 30.0185 2.97445 8.13976e-05 10
-15.9588 30.0142 4.17384 7.9997e-05 10
-15.9596 30.0157 6.60793 7.58896e-05 10
-15.9592 30.0148 7.8481 7.32385e-05 10
-15.9582 30.0131 9.1081 7.02349e-05 10
-4.67897 8.72625 -2.65311 0.000171687 4
-6.45926 12.0465 -2.65697 0.000234047 4
-7.93325 14.7955 -2.65898 2.95525e-05 4
-9.81032 18.2962 -2.54905 2.98551e-05 4
-16.1595 30.1373 -1.79215 8.0834e-05 10
-16.1597 30.1377 -0.596906 8.13276e-05 10
-16.1463 30.1127 1.79069 8.0892e-05 10
-16.1452 30.1108 2.98915 7.99688e-05 10
-16.1508 30.1211 4.19652 7.85901e-05 10
-16.153 30.1252 6.64442 7.45474e-05 10
-16.1488 30.1173 7.8896 7.19383e-05 10
-16.1469 30.1139 9.15576 6.89824e-05 10
-4.7184 8.7265 -2.65818 9.57401e-05 4
-5.4762 10.128 -2.65815 9.58189e-05 4
-6.50917 12.0385 -2.6602 0.000217691 4
-7.99111 14.7792 -2.66107 0.000101889 4
-9.86985 18.2539 -2.54795 3.13411e-05 4
-16.3511 30.2408 -1.80169 7.93984e-05 10
-16.3394 30.219 -0.599643 7.98843e-05 10
-16.3499 30.2385 1.80155 7.94559e-05 10
-16.3362 30.2133 3.00497 7.85474e-05 10
-16.3383 30.217 4.2178 7.71907e-05 10
-16.3382 30.2169 6.67717 7.32126e-05 10
-16.3338 30.2087 7.92842 7.06452e-05 10
-16.3369 30.2145 9.20361 6.77369e-05 10
-4.74093 8.69548 -2.65375 0.000231077 4
-5.5069 10.1004 -2.65592 0.000259483 4
-6.54826 12.0104 -2.65902 0.00021331 4
-8.04395 14.7537 -2.6615 9.88166e-05 4
-16.5399 30.3364 -1.81081 7.79709e-05 10
-16.535 30.3273 -0.602932 7.84493e-05 10
-16.5323 30.3224 1.80998 7.8028e-05 10
-16.5351 30.3276 3.02206 7.71342e-05 10
-16.5331 30.3239 4.24074 7.57995e-05 10
-16.5296 30.3174 6.71208 7.18855e-05 10
-16.5244 30.3078 7.96953 6.93598e-05 10
-16.525 30.3089 9.2499 6.64988e-05 10
-4.77166 8.67962 -2.65398 0.000158439 4
-5.54693 10.0898 -2.65823 0.00018162 4
-6.58358 11.9755 -2.65638 5.22328e-05 4
-8.08642 14.7092 -2.65855 0.000100329 4
-9.99626 18.1831 -2.54775 3.26062e-05 4
-16.7417 30.4531 -1.82126 7.65518e-05 10
-16.7361 30.4429 -0.606388 7.70225e-05 10
-16.7275 30.4271 1.8197 7.66084e-05 10
-16.7249 30.4225 3.03732 7.57293e-05 10
-16.7318 30.435 4.26443 7.44163e-05 10
-16.7258 30.4241 6.7486 7.05665e-05 10
-16.7246 30.422 8.01485 6.80822e-05 10
-16.7314 30.4344 9.30594 6.52683e-05 10
-4.80992 8.67733 -2.65839 0.000280546 4
-5.57929 10.0653 -2.65688 0.000109759 4
-6.62343 11.949 -2.65561 6.41949e-05 4
-8.14584 14.6955 -2.6612 0.000102859 4
-16.9278 30.5385 -1.82989 7.5141e-05 10
-16.936 30.5534 -0.609765 7.56042e-05 10
-16.9263 30.5358 1.82973 7.51972e-05 10
-16.9223 30.5287 3.0538 7.43327e-05 10
-16.9238 30.5313 4.28617 7.30414e-05 10
-16.9264 30.5361 6.7865 6.92553e-05 10
-16.9252 30.5338 8.05983 6.68124e-05 10
-16.9233 30.5304 9.35331 6.40455e-05 10
-4.82975 8.64182 -2.65266 0.000217817 4
-5.61895 10.0539 -2.65904 0.000105757 4
-6.66631 11.928 -2.65609 7.50661e-05 4
-8.19437 14.6621 -2.66032 2.9529e-05 4
-17.1369 30.6628 -1.84091 7.37393e-05 10
-17.1391 30.6669 -0.613219 7.4195e-05 10
-17.1241 30.64 1.83954 7.37951e-05 10
-17.1233 30.6386 3.07075 7.2945e-05 10
-17.1222 30.6367 4.30933 7.16754e-05 10
-17.1303 30.6511 6.82532 6.79528e-05 10
-17.1185 30.63 8.10095 6.55509e-05 10
-17.1254 30.6424 9.40587 6.28308e-05 10
-4.86072 8.62639 -2.65312 0.000369597 4
-5.64771 10.0231 -2.65607 9.57704e-05 4
-8.24949 14.6405 -2.6616 3.35967e-05 4
-17.3321 30.7596 -1.85034 7.23464e-05 10
-17.3301 30.7559 -0.616205 7.27946e-05 10
-17.3341 30.7631 0.616348 7.28131e-05 10
-17.3374 30.7689 1.8509 7.24017e-05 10
-17.3267 30.7499 3.08795 7.15661e-05 10
-17.3257 30.7481 4.33349 7.0318e-05 10
-17.3273 30.751 5.59045 6.86746e-05 10
-17.3291 30.7542 6.8617 6.66587e-05 10
-17.3289 30.7538 8.14964 6.42978e-05 10
-17.3281 30.7525 9.45819 6.16241e-05 10
-4.89202 8.61151 -2.65378 0.000168284 4
-5.67812 9.9953 -2.65395 0.000125686 4
-6.75981 11.8994 -2.66018 9.35374e-05 4
-17.543 30.8812 -1.86133 7.0963e-05 10
-17.5479 30.8899 -0.620113 7.14037e-05 10
-17.5394 30.8749 0.619812 7.1422e-05 10
-17.5362 30.8693 1.86061 7.10178e-05 10
-17.5343 30.866 3.10573 7.01966e-05 10
-17.534 30.8654 4.35862 6.89699e-05 10
-17.5351 30.8674 5.6227 6.73548e-05 10
-17.5349 30.8671 6.9005 6.53735e-05 10
-17.5315 30.861 8.19421 6.30534e-05 10
-17.5262 30.8518 9.50748 6.04261e-05 10
-4.92147 8.59337 -2.65347 0.000118779 4
-5.71254 9.97466 -2.65375 0.000177539 4
-6.79687 11.868 -2.65845 0.000205539 4
-10.3689 18.1052 -2.5618 0.000126081 4
-17.742 30.9793 -1.87096 6.95889e-05 10
-17.7501 30.9934 -0.62343 7.00222e-05 10
-17.7421 30.9795 0.62315 7.00404e-05 10
-17.7467 30.9875 1.87146 6.96433e-05 10
-17.7394 30.9747 3.12289 6.88364e-05 10
-17.7368 30.9701 4.38212 6.76311e-05 10
-17.7396 30.9752 5.65358 6.60441e-05 10
-17.7433 30.9816 6.93991 6.40973e-05 10
-17.7377 30.9717 8.23999 6.18178e-05 10
-17.734 30.9653 9.56148 5.92365e-05 10
-4.96264 8.59555 -2.65947 0.000155059 4
-5.75801 9.97317 -2.65868 0.000185499 4
-6.83407 11.837 -2.65682 0.000197902 4
-10.4885 18.1666 -2.57565 0.000106525 4
-17.9639 31.1145 -1.8829 6.82249e-05 10
-17.9565 31.1015 -0.626863 6.86507e-05 10
-17.9577 31.1036 0.626905 6.86687e-05 10
-17.9542 31.0977 1.88188 6.82787e-05 10
-17.9555 31.0998 3.1418 6.7486e-05 10
-17.9448 31.0813 4.40669 6.6302e-05 10
-17.9502 31.0907 5.68606 6.4743e-05 10
-17.9508 31.0918 6.97859 6.28306e-05 10
-17.9414 31.0755 8.28421 6.05914e-05 10
-17.9498 31.09 9.61926 5.8056e-05 10
-4.98365 8.56277 -2.6547 0.000171541 4
-5.79595 9.95844 -2.66013 0.000283207 4
-6.88145 11.8235 -2.65918 0.000218536 4
-10.6021 18.2162 -2.58791 0.000104384 4
-18.1729 31.2242 -1.89337 6.68705e-05 10
-18.1664 31.2129 -0.630382 6.7289e-05 10
-18.1599 31.2018 0.630157 6.73069e-05 10
-18.1604 31.2027 1.89206 6.69239e-05 10
-18.1608 31.2034 3.15865 6.61454e-05 10
-18.1611 31.204 4.43304 6.49825e-05 10
-18.1649 31.2105 5.71954 6.34513e-05 10
-18.1663 31.2128 7.01994 6.15731e-05 10
-18.1531 31.1902 8.33164 5.9374e-05 10
-18.1537 31.1912 9.67015 5.68843e-05 10
-5.02289 8.56132 -2.65967 0.0002309 4
-5.82514 9.92871 -2.65761 0.000191444 4
-6.91416 11.7849 -2.6559 0.000208725 4
-10.721 18.2735 -2.60135 7.93606e-05 4
-18.3794 31.3269 -1.90347 6.55267e-05 10
-18.3792 31.3267 -0.633971 6.59378e-05 10
-18.3792 31.3267 0.633971 6.59555e-05 10
-18.3725 31.3152 1.90277 6.55796e-05 10
-18.3837 31.3343 3.17838 6.48152e-05 10
-18.3701 31.3111 4.45735 6.36732e-05 10
-18.3802 31.3283 5.75286 6.21697e-05 10
-18.3681 31.3077 7.05565 6.03255e-05 10
-18.3729 31.3158 8.38226 5.81664e-05 10
-18.3713 31.3132 9.72778 5.5722e-05 10
-5.05247 8.54327 -2.65952 3.62813e-05 4
-5.85393 9.89846 -2.65496 4.38683e-05 4
-6.95634 11.7625 -2.65632 0.000240221 4
-10.8262 18.3061 -2.61135 0.000125024 4
-18.6078 31.464 -1.91574 6.41933e-05 10
-18.5963 31.4446 1.91456 6.42457e-05 10
-18.591 31.4356 3.19522 6.34953e-05 10
-18.5869 31.4288 7.09752 5.90879e-05 10
-18.5854 31.4263 8.42915 5.69684e-05 10
-5.07765 8.51784 -2.65711 0.000118729 4
-5.89317 9.88589 -2.65709 0.000239257 4
-7.00045 11.7434 -2.65749 0.000199979 4
-8.59401 14.4166 -2.65829 3.91528e-05 4
-10.9457 18.3615 -2.6247 9.49753e-05 4
-18.8257 31.5804 -1.92682 6.28704e-05 10
-18.8178 31.5671 1.92601 6.29222e-05 10
-18.8179 31.5672 3.21526 6.21858e-05 10
-18.8085 31.5515 7.14003 5.78602e-05 10
-18.8097 31.5536 8.48085 5.57802e-05 10
-5.10672 8.49902 -2.65678 0.00017478 4
-5.92276 9.85714 -2.65491 0.000117623 4
-7.03815 11.7135 -2.65627 0.00018474 4
-19.0368 31.6825 -1.93709 6.15586e-05 10
-19.0357 31.6807 1.93698 6.16099e-05 10
-19.0347 31.679 3.23339 6.08874e-05 10
-19.0253 31.6635 7.18035 5.6643e-05 10
-5.13241 8.47461 -2.65474 9.56265e-05 4
-5.96709 9.85284 -2.65934 0.000137546 4
-7.0903 11.7075 -2.66051 0.000135822 4
-8.69789 14.3619 -2.65934 3.25324e-05 4
-11.1897 18.4765 -2.65223 9.55677e-05 4
-19.2702 31.8189 -1.94953 6.02577e-05 10
-19.2622 31.8056 1.94872 6.03085e-05 10
-19.2603 31.8025 3.25284 5.95997e-05 10
-19.2514 31.7878 7.22372 5.54361e-05 10
-5.16822 8.46691 -2.65796 0.000260478 4
-5.99637 9.82364 -2.65709 5.97964e-05 4
-7.12799 11.6775 -2.65934 5.32357e-05 4
-19.4985 31.9437 -1.96133 5.89684e-05 10
-19.4808 31.9146 1.95955 5.90186e-05 10
-19.4917 31.9325 3.27307 5.83235e-05 10
-19.4754 31.9059 5.92044 5.59173e-05 10
-19.4852 31.922 7.26963 5.42402e-05 10
-5.20066 8.45355 -2.65945 0.000247268 4
-6.02594 9.79503 -2.65503 7.17486e-05 4
-19.721 32.0561 -1.97245 5.76904e-05 10
-19.7137 32.0441 -0.656704 5.80583e-05 10
-19.7121 32.0415 0.656649 5.80749e-05 10
-19.7105 32.0389 1.97139 5.77401e-05 10
-19.7122 32.0418 3.2913 5.70586e-05 10
-19.7071 32.0334 4.61792 5.60401e-05 10
-19.7094 32.0371 5.95753 5.46993e-05 10
-19.7046 32.0294 7.30973 5.30549e-05 10
-19.7163 32.0484 8.68701 5.11303e-05 10
-19.7084 32.0355 10.0782 4.89524e-05 10
-5.22696 8.43022 -2.65783 0.000224171 4
-6.07305 9.79484 -2.66071 7.37343e-05 4
-7.21169 11.6313 -2.6602 0.000106445 4
-11.442 18.454 -2.66606 3.06087e-05 4
-19.9568 32.187 -1.98478 5.64243e-05 10
-19.9518 32.179 -0.660892 5.67851e-05 10
-19.9522 32.1796 0.660904 5.68016e-05 10
-19.9439 32.1662 1.9835 5.64735e-05 10
-19.9555 32.185 3.31315 5.58054e-05 10
-19.9419 32.163 4.6466 5.48071e-05 10
-19.939 32.1583 5.99296 5.34927e-05 10
-19.9412 32.1619 7.3558 5.18809e-05 10
-19.9378 32.1564 8.73509 4.99945e-05 10
-19.9385 32.1576 10.1385 4.786e-05 10
-5.2613 8.41984 -2.66033 0.000214263 4
-6.10101 9.76366 -2.65801 0.00012952 4
-7.24529 11.5949 -2.65765 4.7786e-05 4
-20.1889 32.309 -1.99664 5.517e-05 10
-20.1874 32.3066 -0.664955 5.55238e-05 10
-20.1799 32.2946 0.664707 5.55401e-05 10
-20.1927 32.3151 1.99702 5.52186e-05 10
-20.1795 32.2939 3.33159 5.4564e-05 10
-20.1827 32.299 4.67641 5.35856e-05 10
-20.1818 32.2977 6.03203 5.22975e-05 10
-20.1781 32.2916 7.40154 5.07181e-05 10
-20.1703 32.2793 8.78755 4.88696e-05 10
-20.1694 32.2777 10.1985 4.67782e-05 10
-5.29043 8.40107 -2.66022 0.000210949 4
-6.14003 9.7502 -2.66016 3.18787e-05 4
-7.28691 11.5714 -2.65809 5.64674e-05 4
-11.0711 17.5806 -2.55098 3.0152e-05 4
-20.4346 32.4496 -2.00972 5.3928e-05 10
-20.4223 32.43 -0.668959 5.42749e-05 10
-20.4229 32.4311 0.668979 5.4291e-05 10
-20.4252 32.4347 2.0088 5.39761e-05 10
-20.4161 32.4202 3.35195 5.33348e-05 10
-20.4129 32.4152 4.70352 5.23762e-05 10
-20.4163 32.4206 6.06826 5.11143e-05 10
-20.4166 32.421 7.44748 4.95668e-05 10
-20.4073 32.4062 8.84143 4.7756e-05 10
-20.411 32.4122 10.2634 4.57073e-05 10
-5.30981 8.36693 -2.65526 8.89868e-05 4
-6.16996 9.72232 -2.65841 8.16811e-05 4
-7.32434 11.5413 -2.65703 9.12055e-05 4
-20.6751 32.5788 -2.02218 5.26983e-05 10
-20.661 32.5565 -0.673051 5.30383e-05 10
-20.665 32.5628 0.673181 5.30542e-05 10
-20.6699 32.5705 2.02167 5.27459e-05 10
-20.6679 32.5674 3.37461 5.21177e-05 10
-20.6673 32.5665 4.73591 5.11789e-05 10
-20.6542 32.5459 6.10516 4.99429e-05 10
-20.651 32.5408 7.4915 4.84273e-05 10
-20.6492 32.538 8.897 4.66538e-05 10
-20.6482 32.5364 10.3255 4.46475e-05 10
-5.33792 8.34667 -2.65473 0.000131821 4
-6.20388 9.70074 -2.65842 0.000161354 4
-7.37796 11.5366 -2.66186 0.000113993 4
-9.05562 14.1599 -2.66211 6.49937e-05 4
-11.227 17.5552 -2.55861 0.000128177 4
-20.9091 32.6947 -2.03389 5.14809e-05 10
-20.9073 32.6918 2.03371 5.15279e-05 10
-20.8998 32.6802 3.39383 5.09129e-05 10
-20.9081 32.6931 6.14643 4.87833e-05 10
-20.9036 32.686 7.54169 4.72993e-05 10
-5.3704 8.33323 -2.6564 8.56767e-05 4
-6.23617 9.67665 -2.65777 7.17058e-05 4
-7.41947 11.5128 -2.66232 3.79931e-05 4
-11.3579 17.624 -2.57441 0.000115063 4
-21.163 32.8386 -2.04743 5.02765e-05 10
-21.1534 32.8237 2.0465 5.03229e-05 10
-21.1539 32.8245 3.41647 4.97209e-05 10
-21.1478 32.815 6.18319 4.76362e-05 10
-21.1486 32.8162 7.58871 4.61836e-05 10
-5.39765 8.31165 -2.65551 3.29498e-05 4
-6.26989 9.65479 -2.65776 3.98326e-05 4
-7.45866 11.4853 -2.66198 4.12446e-05 4
-21.4051 32.961 -2.0597 4.90848e-05 10
-21.4037 32.9589 2.05957 4.91306e-05 10
-21.4014 32.9552 3.43783 4.85415e-05 10
-21.4066 32.9633 6.22517 4.65013e-05 10
-21.3954 32.9461 7.63598 4.50797e-05 10
-5.43098 8.29941 -2.65764 0.000151557 4
-6.29992 9.62729 -2.65622 3.78372e-05 4
-11.612 17.745 -2.60385 9.84031e-05 4
-21.6719 33.1181 -2.07424 4.79062e-05 10
-21.6528 33.089 2.07241 4.79516e-05 10
-21.6533 33.0897 3.45972 4.73752e-05 10
-21.6558 33.0936 6.26403 4.53791e-05 10
-21.6584 33.0975 7.68855 4.39884e-05 10
-5.45868 8.27852 -2.65704 0.000141661 4
-6.34017 9.61537 -2.65903 0.000101553 4
-7.53881 11.4332 -2.66203 4.55751e-05 4
-9.25056 14.0292 -2.66157 4.77001e-05 4
-11.742 17.8077 -2.61905 0.000112398 4
-21.9287 33.2566 -2.08769 4.67408e-05 10
-21.9223 33.2468 2.08708 4.67855e-05 10
-21.9088 33.2265 3.482 4.62218e-05 10
-21.9109 33.2296 6.30421 4.42695e-05 10
-21.9156 33.2368 7.73862 4.29093e-05 10
-5.48767 8.25961 -2.6571 0.000138355 4
-6.37254 9.59145 -2.65855 0.000135391 4
-7.57265 11.3978 -2.65992 4.44847e-05 4
-9.30889 14.011 -2.66427 4.51559e-05 4
-11.8678 17.8624 -2.63318 0.000107351 4
-22.1838 33.3893 -2.10087 4.55889e-05 10
-22.1828 33.3878 2.10078 4.56331e-05 10
-22.1819 33.3864 3.50685 4.50819e-05 10
-22.1717 33.371 6.34568 4.3173e-05 10
-22.1661 33.3627 7.78592 4.18431e-05 10
-22.1582 33.3508 10.7289 3.85284e-05 10
-5.52116 8.24742 -2.65936 7.57594e-05 4
-6.4132 9.57993 -2.66154 0.000153295 4
-7.60608 11.3618 -2.65771 0.000135608 4
-12.0124 17.944 -2.65137 0.000114339 4
-22.4409 33.5219 -2.11413 4.44505e-05 10
-22.4388 33.5187 2.11393 4.44941e-05 10
-22.4328 33.5097 3.528 4.39554e-05 10
-22.4334 33.5107 6.38709 4.20894e-05 10
-22.4358 33.5142 7.8395 4.07895e-05 10
-22.4357 33.514 10.8065 3.755e-05 10
-5.55357 8.2335 -2.66111 0.000395234 4
-7.65824 11.3538 -2.66207 0.000122574 4
-12.1442 18.0045 -2.66655 0.000104236 4
-22.7142 33.6752 -2.12878 4.33257e-05 10
-22.7029 33.6584 2.12772 4.33688e-05 10
-22.7043 33.6605 3.55221 4.28424e-05 10
-22.6993 33.6532 6.42931 4.10189e-05 10
-22.7013 33.656 7.89115 3.97487e-05 10
-22.7029 33.6585 10.8786 3.65837e-05 10
-5.57153 8.19827 -2.65599 0.000424841 4
-6.46752 9.51668 -2.65645 0.000101513 4
-7.68768 11.3121 -2.65856 3.14534e-05 4
-9.44748 13.9016 -2.66212 3.54995e-05 4
-12.2775 18.0657 -2.68196 0.000103011 4
-22.9875 33.8251 -2.14332 4.2215e-05 10
-22.9919 33.8316 -0.713996 4.24951e-05 10
-22.9837 33.8196 0.713742 4.25093e-05 10
-22.9814 33.8161 2.14275 4.22574e-05 10
-22.9743 33.8056 3.57596 4.17432e-05 10
-22.9734 33.8043 5.01843 4.09742e-05 10
-22.973 33.8037 6.47335 3.99619e-05 10
-22.9702 33.7997 7.94359 3.87212e-05 10
-22.9613 33.7866 9.43106 3.72701e-05 10
-22.9599 33.7845 10.9452 3.56298e-05 10
-5.60022 8.17892 -2.65604 0.000322721 4
-6.5058 9.50148 -2.65853 0.000220919 4
-7.72484 11.2818 -2.65778 4.66322e-05 4
-9.49218 13.863 -2.66107 3.75222e-05 4
-12.4288 18.1518 -2.70116 9.55673e-05 4
-23.2653 33.9781 -2.15815 4.11181e-05 10
-23.2588 33.9686 -0.718596 4.13918e-05 10
-23.2636 33.9756 0.718744 4.14058e-05 10
-23.2581 33.9676 2.15748 4.11599e-05 10
-23.2488 33.954 3.60022 4.06578e-05 10
-23.2459 33.9498 5.05205 3.99068e-05 10
-23.2457 33.9494 6.51676 3.89183e-05 10
-23.2391 33.9398 7.99554 3.77066e-05 10
-23.2508 33.9569 9.5012 3.62897e-05 10
-23.2356 33.9347 11.02 3.46882e-05 10
-6.5374 9.4765 -2.65791 7.76126e-05 4
-7.77101 11.2647 -2.66012 9.00002e-05 4
-12.5746 18.228 -2.719 8.17167e-05 4
-23.5449 34.1303 -2.17302 4.00355e-05 10
-23.5429 34.1274 -0.723691 4.03029e-05 10
-23.5408 34.1244 0.723627 4.03167e-05 10
-23.5371 34.119 2.1723 4.00767e-05 10
-23.5357 34.117 3.62619 3.95865e-05 10
-23.5338 34.1142 5.0887 3.88534e-05 10
-23.5218 34.0968 6.56077 3.78883e-05 10
-23.5255 34.1021 8.05308 3.67055e-05 10
-23.5187 34.0924 9.56202 3.53224e-05 10
-23.5123 34.083 11.0948 3.37592e-05 10
-5.66063 8.14458 -2.65766 0.000151456 4
-6.57886 9.46574 -2.66132 0.000167149 4
-7.80493 11.2298 -2.65829 3.90316e-05 4
-12.7075 18.2837 -2.73391 8.48079e-05 4
-23.8186 34.2705 -2.18723 3.8967e-05 10
-23.8286 34.2849 -0.728789 3.92282e-05 10
-23.8244 34.2788 0.72866 3.92418e-05 10
-23.8125 34.2617 5.12307 3.78138e-05 10
-23.8036 34.2489 6.60597 3.6872e-05 10
-23.7999 34.2435 9.62765 3.43681e-05 10
-23.8017 34.2461 11.1748 3.28429e-05 10
-5.68117 8.11355 -2.65399 0.000164613 4
-6.59992 9.42566 -2.65651 2.98452e-05 4
-7.84734 11.2072 -2.6594 7.58856e-05 4
-9.6475 13.7781 -2.66401 3.75049e-05 4
-24.1127 34.4365 -2.20318 3.79131e-05 10
-24.1038 34.4238 -0.733526 3.8168e-05 10
-24.1094 34.4317 0.733695 3.81815e-05 10
-24.1048 34.4252 5.16007 3.67885e-05 10
-24.0873 34.4002 6.65134 3.58696e-05 10
-24.0955 34.412 9.69861 3.3427e-05 10
-24.0906 34.4049 11.254 3.19393e-05 10
-5.72188 8.11128 -2.65976 0.000161308 4
-6.63075 9.39968 -2.65569 0.000121358 4
-7.8834 11.1754 -2.65838 0.000223294 4
-9.69396 13.7421 -2.66358 4.10464e-05 4
-24.3906 34.5759 6.70173 3.48811e-05 10
-24.3769 34.5564 11.3314 3.10486e-05 10
-5.73933 8.07602 -2.65475 9.87516e-05 4
-6.67763 9.39634 -2.66132 0.000362051 4
-7.92804 11.1558 -2.66029 0.00018425 4
-24.6808 34.7292 6.74811 3.39067e-05 10
-24.6656 34.7079 11.4092 3.01709e-05 10
-5.78097 8.07478 -2.66096 0.000164573 4
-6.70572 9.36646 -2.65947 0.000322234 4
-7.97113 11.134 -2.66169 0.000235161 4
-24.9704 34.8783 6.79396 3.29466e-05 10
-24.965 34.8708 11.4913 2.93063e-05 10
-6.73694 9.34101 -2.6589 0.000356014 4
-8.00023 11.0926 -2.65846 0.000195042 4
-9.83286 13.6336 -2.66237 3.95081e-05 4
-5.83128 8.02607 -2.65826 9.21456e-05 4
-6.77268 9.3218 -2.66015 0.000365923 4
-8.04647 11.075 -2.66097 0.000105093 4
-9.88276 13.6025 -2.66301 3.84892e-05 4
-5.8552 8.00012 -2.65642 9.87194e-05 4
-6.80258 9.29455 -2.65913 0.000399692 4
-8.0919 11.0562 -2.66321 8.4498e-05 4
-9.93839 13.5791 -2.66521 4.50661e-05 4
-5.89052 7.98971 -2.65978 0.000154648 4
-6.84275 9.28128 -2.66216 0.000399654 4
-9.97353 13.5278 -2.66195 3.34147e-05 4
-5.92029 7.97168 -2.66063 0.000105284 4
-6.8654 9.24426 -2.6584 0.000463236 4
-8.16647 10.9962 -2.66242 6.17339e-05 4
-12.9581 17.4482 -2.66856 4.02356e-05 4
-26.5502 35.7498 -0.777282 3.0222e-05 10
-26.5526 35.7531 0.777352 3.02337e-05 10
-26.5446 35.7423 5.46651 2.91059e-05 10
-5.94004 7.94022 -2.65704 0.000118434 4
-6.90225 9.22643 -2.66018 0.00035783 4
-8.19901 10.9598 -2.66054 7.68876e-05 4
-13.0201 17.4043 -2.66879 3.08163e-05 4
-26.879 35.9299 -0.783231 2.92972e-05 10
-26.869 35.9165 0.782941 2.93088e-05 10
-5.96944 7.92171 -2.6578 0.000210533 4
-6.92603 9.19115 -2.65696 0.00037171 4
-8.24091 10.9361 -2.66173 5.41398e-05 4
-13.0697 17.344 -2.66652 3.67136e-05 4
-6.00597 7.91257 -2.66175 0.000124994 4
-6.96523 9.17636 -2.6597 0.000389562 4
-8.28393 10.9137 -2.66331 0.000172144 4
-10.1636 13.3901 -2.66253 3.49125e-05 4
-6.02497 7.88034 -2.65797 4.60467e-05 4
-7.00272 9.15918 -2.66179 0.000405424 4
-8.32483 10.8884 -2.66422 0.000105007 4
-10.2222 13.37 -2.66562 3.23777e-05 4
-6.04529 7.84997 -2.65483 6.90645e-05 4
-7.02839 9.12655 -2.65942 0.000429231 4
-8.3463 10.8379 -2.65897 6.38625e-05 4
-6.07743 7.83499 -2.65692 0.000207177 4
-7.06813 9.11218 -2.66241 0.000206647 4
-8.38834 10.8142 -2.66032 3.46332e-05 4
-10.3187 13.3028 -2.66651 2.93335e-05 4
-6.11145 7.82231 -2.65984 7.23416e-05 4
-7.09357 9.07936 -2.66003 0.000109274 4
-8.42337 10.7814 -2.65948 0.000106052 4
-6.12875 7.78825 -2.65552 0.000193992 4
-7.12636 9.056 -2.66046 0.000150983 4
-6.17148 7.78647 -2.66224 8.5481e-05 4
-7.15588 9.02847 -2.6597 5.56199e-05 4
-6.19001 7.75409 -2.65854 0.000180811 4
-7.1935 9.01114 -2.66197 0.000119174 4
-8.54544 10.7047 -2.66248 0.000115751 4
-10.4947 13.1465 -2.66429 3.68977e-05 4
-6.21861 7.73439 -2.65921 0.000210381 4
-7.2197 8.9795 -2.66005 0.000105261 4
-8.58832 10.6817 -2.6642 8.32877e-05 4
-10.5356 13.1036 -2.66304 4.39675e-05 4
-6.24337 7.70992 -2.65827 0.000207078 4
-7.25258 8.9562 -2.66063 8.34062e-05 4
-8.61677 10.6408 -2.66149 8.43597e-05 4
-10.5819 13.0676 -2.6632 4.29503e-05 4
-7.27862 8.92448 -2.65874 8.73697e-05 4
-7.32347 8.91574 -2.66374 9.53034e-05 4
-8.69107 10.5807 -2.66156 5.40642e-05 4
-6.32216 7.64219 -2.6576 0.000489638 4
-7.34875 8.88311 -2.66164 9.9265e-05 4
-8.72456 10.5462 -2.66053 5.4058e-05 4
-6.35084 7.62252 -2.65845 0.000236585 4
-7.37946 8.85711 -2.66155 7.34492e-05 4
-8.77021 10.5263 -2.66323 0.000180533 4
-10.7674 12.9235 -2.66422 3.232e-05 4
-6.37952 7.60282 -2.65934 0.000282566 4
-7.40327 8.82287 -2.65901 0.000150855 4
-8.81328 10.5033 -2.66515 0.000194564 4
-10.8258 12.9017 -2.66751 3.88793e-05 4
-19.1645 22.8394 -2.60845 3.21073e-05 4
-6.41242 7.58808 -2.66199 9.19908e-05 4
-7.44671 8.81199 -2.66355 5.35881e-05 4
-8.84113 10.4621 -2.66252 0.000238854 4
-10.8635 12.8552 -2.66573 3.33202e-05 4
-6.43637 7.56271 -2.66096 0.000160971 4
-7.46497 8.77131 -2.65911 8.5336e-05 4
-8.87691 10.4303 -2.66231 0.000242069 4
-6.45957 7.53651 -2.65966 0.000266075 4
-7.50363 8.75463 -2.66198 0.000248047 4
-8.92367 10.4114 -2.66542 0.000224753 4
-6.47883 7.5058 -2.65679 3.94154e-05 4
-7.53454 8.72885 -2.66212 0.000142862 4
-8.94577 10.3638 -2.6612 0.000225807 4
-6.5111 7.49016 -2.65928 0.000144512 4
-7.5698 8.70806 -2.66382 0.000154752 4
-8.98409 10.335 -2.66185 0.000205256 4
-6.54169 7.47251 -2.6611 0.00018391 4
-7.58803 8.66774 -2.65958 8.53043e-05 4
-9.02767 10.3122 -2.66408 0.000224676 4
-11.0971 12.6761 -2.66834 3.93497e-05 4
-6.5695 7.45164 -2.66182 0.000151057 4
-7.62749 8.65169 -2.66281 3.17382e-05 4
-9.06187 10.2787 -2.66357 0.000201969 4
-27.5996 31.3056 2.18722 3.15969e-05 10
-6.58371 7.41541 -2.65707 0.000229851 4
-9.10346 10.2535 -2.66526 0.000224625 4
-11.1762 12.5881 -2.66617 6.35465e-05 4
-19.5971 22.0727 -2.5824 3.18423e-05 4
-27.809 31.322 2.19513 3.12176e-05 10
-6.61698 7.4007 -2.66006 0.00014775 4
-7.69028 8.60111 -2.6637 4.75985e-05 4
-9.13931 10.2218 -2.66529 0.000214882 4
-28.0283 31.348 2.2038 3.0838e-05 10
-6.64312 7.37793 -2.6602 6.56617e-05 4
-7.70845 8.5611 -2.65962 0.000202275 4
-9.17474 10.1896 -2.66523 0.000181387 4
-11.2626 12.5084 -2.66588 3.02515e-05 4
-28.2366 31.3599 2.21155 3.0458e-05 10
-6.67121 7.35732 -2.66114 0.000157576 4
-7.7488 8.54574 -2.66324 0.000115009 4
-9.20182 10.1482 -2.66279 3.99439e-05 4
-11.3016 12.464 -2.6648 5.79737e-05 4
-28.4878 31.4177 2.22263 3.33523e-05 10
-6.69893 7.33627 -2.66197 0.000797667 4
-7.77106 8.51041 -2.66066 7.53436e-05 4
-9.24791 10.1278 -2.66589 4.64161e-05 4
-28.7365 31.4705 2.23344 3.27409e-05 10
-6.71988 7.30782 -2.66014 0.000157552 4
-7.80678 8.48982 -2.66273 7.53368e-05 4
-28.9788 31.5142 2.24371 3.21331e-05 10
-6.73833 7.27674 -2.65738 9.18981e-05 4
-7.84133 8.46787 -2.66442 0.000120924 4
-9.30237 10.0457 -2.6613 0.000172672 4
-29.2809 31.6205 2.25854 3.37707e-05 10
-6.76326 7.25271 -2.65721 0.000298646 4
-7.86096 8.42985 -2.66107 4.75724e-05 4
-9.35175 10.0285 -2.6654 3.23724e-05 4
-11.4926 12.3243 -2.66898 3.37566e-05 4
-29.5788 31.7194 2.27297 3.2886e-05 10
-29.57 31.71 6.86722 3.10473e-05 10
-6.79743 7.23853 -2.66069 0.000111573 4
-7.90102 8.41374 -2.66467 8.91903e-05 4
-9.38166 9.99046 -2.66397 4.74743e-05 4
-11.5286 12.2767 -2.66738 3.17368e-05 4
-29.8872 31.8266 2.28811 3.2013e-05 10
-29.8745 31.8131 6.91209 3.02184e-05 10
-6.81182 7.2033 -2.65646 0.000282194 4
-7.92944 8.38515 -2.66437 0.000124855 4
-9.42637 9.96811 -2.66677 4.0996e-05 4
-30.2587 31.9977 2.30799 3.26539e-05 10
-30.2566 31.9954 6.97461 3.08369e-05 10
-9.44755 9.92091 -2.66295 7.33531e-05 4
-30.6733 32.2102 2.33103 3.13432e-05 10
-30.6632 32.1995 7.0424 2.95925e-05 10
-6.87875 7.17309 -2.66297 0.000209973 4
-7.9754 8.31667 -2.66024 7.13328e-05 4
-9.49194 9.8981 -2.6657 6.14804e-05 4
-31.2774 32.6157 2.36826 3.05557e-05 10
-31.2552 32.5926 7.15219 2.88971e-05 10
-6.89838 7.14348 -2.6609 0.000131223 4
-8.00476 8.28918 -2.66037 8.51955e-05 4
-11.6996 12.1153 -2.66755 4.22917e-05 4
-6.92384 7.11995 -2.66112 0.000272267 4
-8.03093 8.25839 -2.65947 9.11312e-05 4
-6.94289 7.08985 -2.65891 7.21618e-05 4
-8.06794 8.23871 -2.66218 7.92374e-05 4
-9.58645 9.78936 -2.66331 8.30251e-05 4
-11.7821 12.0315 -2.66715 3.77498e-05 4
-6.97592 7.07402 -2.66209 0.000150872 4
-8.09496 8.20879 -2.66163 0.000144595 4
-9.61927 9.75453 -2.66295 2.91095e-05 4
-6.99566 7.04467 -2.66022 0.000245969 4
-8.12327 8.18018 -2.66153 0.000120815 4
-9.6547 9.72234 -2.66334 4.85105e-05 4
-11.8586 11.9416 -2.66551 3.22041e-05 4
-7.02328 7.02328 -2.66138 0.000141012 4
-8.15197 8.15197 -2.66159 6.93142e-05 4
-9.69095 9.69096 -2.664 3.66484e-05 4
-11.912 11.912 -2.66817 3.3709e-05 4
-7.04556 6.99654 -2.66055 8.52566e-05 4
-8.19269 8.13569 -2.6656 8.91103e-05 4
-9.72959 9.6619 -2.66533 7.32888e-05 4
-7.0613 6.96339 -2.65731 0.00037051 4
-8.20936 8.09553 -2.66181 8.71224e-05 4
-9.76126 9.62591 -2.66479 3.98734e-05 4
-7.09279 6.94577 -2.66001 0.000203274 4
-8.23441 8.06373 -2.66079 8.31549e-05 4
-9.79641 9.59335 -2.66522 5.38771e-05 4
-7.11071 6.91487 -2.65767 8.85159e-05 4
-8.27792 8.04993 -2.66576 0.000251422 4
-9.83171 9.56092 -2.66573 5.17165e-05 4
-12.0782 11.7455 -2.66839 3.41931e-05 4
-7.13982 6.89485 -2.65954 0.000114734 4
-8.28987 8.00544 -2.66059 0.000172219 4
-9.8681 9.52952 -2.66656 0.000106654 4
-7.16257 6.86865 -2.65906 0.000311399 4
-8.31754 7.97623 -2.66052 2.96903e-05 4
-9.89273 9.48678 -2.66425 3.98562e-05 4
-12.1573 11.6584 -2.66782 2.96593e-05 4
-7.18533 6.8425 -2.65863 0.00012455 4
-8.35282 7.95429 -2.66291 4.75004e-05 4
-9.92414 9.45064 -2.66381 3.87748e-05 4
-12.1962 11.6142 -2.66744 4.67447e-05 4
-7.21643 6.82423 -2.6613 9.83219e-05 4
-8.37212 7.91712 -2.66023 0.000150405 4
-9.95857 9.41735 -2.66421 7.53875e-05 4
-12.2528 11.5869 -2.67095 3.31691e-05 4
-7.24087 6.79963 -2.66155 0.000327716 4
-8.41483 7.90206 -2.66502 0.000112794 4
-9.99753 9.38831 -2.66585 3.66129e-05 4
-7.26565 6.77533 -2.66195 0.000285092 4
-8.43605 7.86675 -2.66303 0.000152357 4
-10.0335 9.35634 -2.66671 6.24505e-05 4
-12.3169 11.4857 -2.6674 2.91406e-05 4
-7.28144 6.74269 -2.65909 8.51936e-05 4
-8.45829 7.83247 -2.6614 9.69462e-05 4
-10.058 9.31378 -2.66456 4.84479e-05 4
-12.3746 11.459 -2.67121 3.5165e-05 4
-7.31561 6.72705 -2.66298 8.51874e-05 4
-8.49724 7.81361 -2.66506 7.51763e-05 4
-10.1041 9.29119 -2.66818 3.22952e-05 4
-7.32834 6.69169 -2.65909 0.000173639 4
-10.1227 9.24327 -2.66455 8.39585e-05 4
-12.4389 11.3583 -2.6679 3.41509e-05 4
-7.35233 6.66669 -2.65934 0.000160522 4
-8.53833 7.74209 -2.66093 0.000116701 4
-12.4942 11.329 -2.67127 3.76614e-05 4
-7.37942 6.64446 -2.66073 0.000196544 4
-8.56678 7.71356 -2.66139 8.10903e-05 4
-10.1996 9.18372 -2.66784 8.82455e-05 4
-7.39551 6.61235 -2.6582 0.000314447 4
-8.5967 7.68634 -2.66233 4.35081e-05 4
-10.2182 9.13616 -2.66437 0.000103301 4
-12.5602 11.2301 -2.66855 4.31734e-05 4
-7.41936 6.58722 -2.65849 8.84319e-05 4
-8.63648 7.66782 -2.66635 0.000134468 4
-10.2452 9.0961 -2.6631 3.98098e-05 4
-12.602 11.1886 -2.66912 2.9113e-05 4
-7.44761 6.56595 -2.66038 0.000235801 4
-8.64919 7.62529 -2.66204 0.000217504 4
-10.2954 9.07665 -2.66791 9.03695e-05 4
-12.6408 11.1443 -2.66908 3.01129e-05 4
-7.48016 6.54838 -2.66383 4.5847e-05 4
-8.68932 7.60692 -2.6662 8.50169e-05 4
-10.3144 9.02954 -2.66463 7.31486e-05 4
-7.50021 6.51983 -2.66285 7.53148e-05 4
-8.71614 7.57682 -2.6663 0.000106756 4
-10.3605 9.00627 -2.66842 8.60482e-05 4
-7.51141 6.48368 -2.65877 0.000104778 4
-8.7275 7.53338 -2.66171 6.72113e-05 4
-7.53196 6.45567 -2.65805 9.82226e-05 4
-8.76849 7.51551 -2.6662 0.000120575 4
-10.4184 8.92967 -2.66721 3.22614e-05 4
-12.795 10.9667 -2.66905 4.5647e-05 4
-7.56324 6.43683 -2.66115 0.000147324 4
-8.78184 7.47393 -2.66231 8.49882e-05 4
-7.59131 6.41515 -2.66312 0.000219333 4
-8.81416 7.44854 -2.6642 0.000264825 4
-12.8861 10.8896 -2.67213 3.05904e-05 4
-7.61613 6.39069 -2.66399 0.000369894 4
-8.8383 7.41622 -2.66366 0.000239113 4
-10.5058 8.81538 -2.66579 0.00010213 4
-12.9058 10.8293 -2.66836 3.45978e-05 4
-7.62533 6.35319 -2.65944 0.000209483 4
-8.86393 7.38515 -2.6636 0.000237117 4
-10.5494 8.78941 -2.66906 3.65479e-05 4
-7.66073 6.33751 -2.66405 0.00011128 4
-8.90127 7.36378 -2.66708 0.000383307 4
-10.5671 8.74187 -2.6658 3.7619e-05 4
-7.68103 6.30927 -2.66344 0.00015709 4
-8.92804 7.33358 -2.66742 0.000418837 4
-13.0223 10.6966 -2.66914 2.90708e-05 4
-7.7008 6.28062 -2.66267 0.000124354 4
-8.93679 7.28867 -2.66241 0.000418802 4
-7.72396 6.25474 -2.66311 0.000157068 4
-8.97707 7.2695 -2.66684 0.000357533 4
-13.1147 10.6201 -2.67282 3.95861e-05 4
-7.74354 6.22597 -2.66236 2.94482e-05 4
-8.98768 7.22628 -2.66248 0.000398982 4
-10.7036 8.60588 -2.66965 5.80173e-05 4
-13.1487 10.5719 -2.67221 3.35687e-05 4
-7.76546 6.19909 -2.66244 0.000150503 4
-9.02402 7.20378 -2.66578 0.000331799 4
-10.7116 8.55099 -2.66421 4.83429e-05 4
-13.1836 10.5244 -2.67182 3.30634e-05 4
-7.79319 6.17681 -2.66454 0.000143949 4
-9.05319 7.17547 -2.66698 0.00035547 4
-10.7519 8.52182 -2.66679 5.90798e-05 4
-7.807 6.1435 -2.66191 0.000281336 4
-9.06574 7.13404 -2.66333 0.000398884 4
-10.7815 8.48422 -2.66679 5.58517e-05 4
-7.83391 6.12052 -2.66378 0.000209352 4
-9.10335 7.11231 -2.66706 0.000355412 4
-10.8011 8.43872 -2.66432 6.65857e-05 4
-13.2868 10.3808 -2.67055 3.05468e-05 4
-7.84542 6.08554 -2.66046 0.000307465 4
-9.11938 7.07372 -2.66451 0.000410665 4
-10.844 8.41146 -2.66765 5.47667e-05 4
-7.86938 6.06024 -2.66139 0.000278008 4
-9.13383 7.034 -2.66154 0.000373122 4
-7.89539 6.03648 -2.66305 0.000196228 4
-9.15771 7.0016 -2.66136 0.000384936 4
-10.8957 8.33036 -2.66599 9.3407e-05 4
-7.90658 6.00142 -2.65974 0.000111188 4
-9.19925 6.98261 -2.66633 0.000396748 4
-10.9334 8.29893 -2.66813 3.97209e-05 4
-13.4296 10.1936 -2.67038 3.05313e-05 4
-17.3821 13.1937 -2.67944 3.08913e-05 4
-7.92711 5.97351 -2.65961 0.000117721 4
-9.22297 6.95 -2.66616 0.000390796 4
-10.9699 8.26642 -2.66997 3.54233e-05 4
-7.95773 5.95314 -2.6629 0.00016676 4
-9.2473 6.91787 -2.6662 0.000392738 4
-10.9778 8.21243 -2.66489 4.93731e-05 4
-13.4954 10.0958 -2.66938 7.15554e-05 4
-7.9882 5.93256 -2.66615 0.000202714 4
-9.26425 6.88024 -2.66414 0.000337451 4
-11.0151 8.18053 -2.667 4.61486e-05 4
-8.00542 5.90211 -2.66501 0.000209239 4
-9.30253 6.85842 -2.66825 0.000372943 4
-11.0545 8.15009 -2.66964 9.12151e-05 4
-13.5759 10.009 -2.67143 5.65297e-05 4
-8.0137 5.86514 -2.66093 0.000179803 4
-9.32664 6.82607 -2.66832 0.000331479 4
-11.0867 8.11426 -2.67057 6.22348e-05 4
-8.05039 5.84895 -2.66632 0.000297472 4
-9.33389 6.78147 -2.6636 0.000402478 4
-11.106 8.06896 -2.6684 5.57914e-05 4
-8.05631 5.81039 -2.66154 0.000271303 4
-9.36253 6.75247 -2.66503 0.000313671 4
-11.1341 8.03017 -2.66841 3.00386e-05 4
-8.08287 5.78677 -2.66363 8.17123e-05 4
-9.37665 6.71302 -2.66236 0.000402415 4
-11.155 7.98617 -2.66671 0.000106198 4
-13.7255 9.82652 -2.67361 4.10012e-05 4
-8.09796 5.75493 -2.66197 5.55607e-05 4
-9.40103 6.68097 -2.66265 0.000331375 4
-13.7488 9.77081 -2.67149 7.19932e-05 4
-8.11886 5.72723 -2.66225 4.24848e-05 4
-9.44111 6.65997 -2.6674 0.00036685 4
-11.2149 7.91127 -2.66778 7.82924e-05 4
-13.7754 9.71745 -2.67003 4.29907e-05 4
-8.13469 5.69597 -2.6609 0.000205875 4
-9.45022 6.61712 -2.66343 0.000376683 4
-8.15799 5.66995 -2.66203 0.000140508 4
-9.47752 6.58705 -2.66463 0.000368765 4
-11.2768 7.8376 -2.66942 4.93256e-05 4
-8.18164 5.64414 -2.66331 6.86159e-05 4
-9.5118 6.56175 -2.66781 0.000317469 4
-11.3018 7.79659 -2.66887 8.36311e-05 4
-8.19037 5.60807 -2.65976 5.88099e-05 4
-9.53281 6.52725 -2.6673 0.000378567 4
-11.3271 7.75582 -2.66844 4.28837e-05 4
-8.23023 5.59326 -2.66635 0.000205821 4
-9.54151 6.4844 -2.66338 0.000100549 4
-8.2391 5.55735 -2.66292 0.000166606 4
-9.58147 6.46279 -2.66822 0.000106456 4
-11.3915 7.6837 -2.67092 3.75162e-05 4
-13.9896 9.4361 -2.67266 3.89632e-05 4
-8.26976 5.53612 -2.66657 7.18648e-05 4
-9.60567 6.43044 -2.66869 0.0001577 4
-11.4089 7.63762 -2.66873 3.32255e-05 4
-8.26787 5.49316 -2.65976 0.000101258 4
-9.6189 6.39079 -2.66616 0.000134035 4
-11.4313 7.59491 -2.66773 6.10864e-05 4
-8.29872 5.472 -2.66352 0.000231898 4
-9.63402 6.35246 -2.66418 4.92738e-05 4
-11.4534 7.55212 -2.66673 3.32194e-05 4
-14.0894 9.29023 -2.67299 3.49545e-05 4
-8.31361 5.44028 -2.66219 0.000342926 4
-9.67433 6.33071 -2.66921 0.000299562 4
-11.4788 7.51152 -2.66652 4.07167e-05 4
-8.32699 5.40761 -2.66041 0.000202477 4
-9.69025 6.29292 -2.66752 0.000409897 4
-11.526 7.48508 -2.67141 2.9999e-05 4
-14.1518 9.19027 -2.67259 5.64132e-05 4
-8.35762 5.38612 -2.66418 0.000120825 4
-9.71075 6.25815 -2.66713 0.00042366 4
-11.5339 7.43312 -2.66721 2.99963e-05 4
-8.38437 5.36203 -2.66672 0.000212247 4
-9.73798 6.2277 -2.66863 0.000305406 4
-11.5791 7.40511 -2.67165 4.49903e-05 4
-8.40997 5.33713 -2.66892 0.000373341 4
-9.75153 6.18851 -2.6664 0.000376311 4
-11.592 7.35653 -2.66871 0.000196011 4
-14.2456 9.04051 -2.67227 3.09415e-05 4
-8.46235 5.32903 -2.67963 0.000302489 4
-9.76664 6.15038 -2.66465 0.000388104 4
-11.6201 7.31756 -2.66927 0.000207775 4
-14.2873 8.99717 -2.67419 3.24349e-05 4
-8.49938 5.311 -2.68546 0.000403935 4
-9.78797 6.11621 -2.66463 0.000231445 4
-11.6475 7.27815 -2.66971 0.000222749 4
-8.52973 5.28866 -2.6892 0.000357471 4
-9.83511 6.09803 -2.67165 0.000217672 4
-11.6815 7.24284 -2.67169 0.000180967 4
-8.57587 5.27591 -2.69793 0.000383161 4
-9.88108 6.07888 -2.67836 0.000262291 4
-11.6965 7.19574 -2.66937 9.52935e-05 4
-14.3807 8.84708 -2.67419 9.72708e-05 4
-8.61425 5.25817 -2.70421 0.000417605 4
-9.9321 6.06258 -2.68643 0.000270245 4
-11.7393 7.16571 -2.67341 0.00011482 4
-14.4039 8.79217 -2.67278 7.98028e-05 4
-8.64271 5.23421 -2.70739 0.000332898 4
-9.98753 6.04866 -2.6957 0.000216714 4
-11.7993 7.1459 -2.68137 0.000145064 4
-14.4356 8.74252 -2.67299 9.32589e-05 4
-8.68663 5.21946 -2.71543 0.000447214 4
-10.0356 6.02998 -2.70296 0.00023376 4
-11.8429 7.11596 -2.68563 0.000137918 4
-14.4702 8.6946 -2.67376 5.33559e-05 4
-8.72654 5.20206 -2.72221 0.000351172 4
-10.0904 6.01507 -2.71206 0.000250646 4
-11.9247 7.10852 -2.69852 0.000153268 4
-14.5251 8.6587 -2.6783 5.53549e-05 4
-18.7447 11.1741 -2.67947 3.83201e-05 4
-8.77219 5.18786 -2.73079 0.000288153 4
-10.1235 5.98704 -2.71533 0.00022994 4
-11.9897 7.09069 -2.70762 0.000148241 4
-14.5971 8.63273 -2.68601 6.40845e-05 4
-18.7996 11.1181 -2.68176 3.41574e-05 4
-8.80789 5.16756 -2.73627 0.00045995 4
-10.1823 5.97393 -2.72549 0.000189882 4
-12.0471 7.06798 -2.71499 0.000105922 4
-14.6979 8.62324 -2.699 6.10993e-05 4
-8.82845 5.13828 -2.73707 0.000402802 4
-10.2209 5.94872 -2.73025 0.000226137 4
-12.1078 7.04692 -2.72312 0.000123078 4
-14.783 8.60392 -2.70909 6.79661e-05 4
-8.84923 5.10911 -2.73796 0.000499668 1
-10.2937 5.94307 -2.74413 0.000267333 4
-12.1814 7.03293 -2.73413 0.000134724 4
-14.8657 8.58273 -2.71874 5.19774e-05 4
-8.87327 5.08177 -2.73989 0.000499638 1
-10.324 5.91263 -2.7467 0.000300724 1
-12.2483 7.01469 -2.74364 0.000143054 4
-14.9611 8.56828 -2.73069 6.01549e-05 4
-8.90937 5.06123 -2.74557 0.000499608 1
-10.3266 5.86633 -2.74192 0.000300703 1
-12.2952 6.98467 -2.74867 0.000162906 1
-15.0502 8.54968 -2.74149 5.87327e-05 4
-8.9203 5.02633 -2.74351 0.000499579 1
-10.3589 5.83696 -2.74507 0.000300682 1
-12.3266 6.9457 -2.75025 0.000162892 1
-15.1271 8.52369 -2.75007 7.5509e-05 1
-8.93088 4.9913 -2.74139 0.000499549 1
-10.38 5.80118 -2.74527 0.000300661 1
-12.3399 6.89656 -2.74783 0.000162878 1
-15.1817 8.48476 -2.75459 7.55007e-05 1
-8.94621 4.95896 -2.74077 0.00049952 1
-10.3874 5.75784 -2.7419 0.00030064 1
-12.3629 6.85285 -2.74759 0.000162864 1
-15.2037 8.42756 -2.75323 7.54923e-05 1
-8.97556 4.93436 -2.74447 0.00049949 1
-10.4049 5.72012 -2.74122 0.000300619 1
-12.378 6.80485 -2.74566 0.00016285 1
