VERSION 0.7
FIELDS x y z intensity label
SIZE 4 4 4 4 4
TYPE F F F F F
COUNT 1 1 1 1 1
WIDTH 1168
HEIGHT 1
VIEWPOINT 16.0562 54.9909 2.72611 0.999995 0.000079 0.000956119 -0.00283758
POINTS 1168
DATA ascii
-13.7385 13.1747 1.66532 0.000492914 10
-12.7361 12.2135 2.16665 0.000260151 10
-13.7304 13.167 3.01303 0.000407948 10
-13.7353 13.1716 3.6991 0.00039794 10
-13.7387 13.1749 4.39457 0.000386192 10
-13.7259 13.1627 5.09567 0.000372832 10
-7.41438 7.06062 -2.74338 0.000500043 1
-8.59979 8.18948 -2.74164 0.000300949 1
-10.2314 9.7432 -2.74628 0.000163027 1
-12.5907 11.9899 -2.75372 7.55637e-05 1
-13.8369 13.1767 -2.34607 0.000482436 10
-13.8328 13.1728 -1.67117 0.000489527 10
-13.8246 13.165 -1.00048 0.000494279 10
-13.8288 13.169 -0.333323 0.00049664 10
-13.8227 13.1632 0.333176 0.000496582 10
-13.8267 13.167 1.00063 0.000494107 10
-13.8249 13.1653 1.67021 0.000489241 10
-12.8274 12.2153 2.1749 0.000258277 10
-13.8338 13.1738 3.02561 0.000404896 10
-13.8355 13.1753 3.71368 0.000394954 10
-13.8416 13.1811 4.41273 0.000383283 10
-13.8248 13.1652 5.11529 0.000370012 10
-7.43205 7.02814 -2.74082 0.000500015 1
-8.6343 8.16505 -2.74354 0.000300929 1
-10.2641 9.70632 -2.74596 0.000163013 1
-12.6327 11.9462 -2.75378 7.55558e-05 1
-13.9242 13.1674 -2.35306 0.00047878 10
-13.9254 13.1686 -1.67679 0.000485823 10
-13.932 13.1748 -1.00491 0.000490545 10
-13.9212 13.1646 -0.334439 0.00049289 10
-13.9309 13.1738 0.334672 0.000492833 10
-13.9276 13.1706 1.00459 0.000490374 10
-13.9173 13.1609 1.67581 0.000485541 10
-12.9272 12.2246 2.18457 0.000256389 10
-13.9285 13.1716 3.03625 0.000401821 10
-13.9272 13.1703 3.72593 0.000391946 10
-13.9235 13.1668 4.42417 0.000380353 10
-13.9379 13.1804 5.14009 0.000367172 10
-7.44808 6.99422 -2.73772 0.000499987 1
-8.67242 8.14395 -2.7466 0.000300909 1
-10.306 9.67793 -2.74809 0.000163 1
-12.6642 11.8925 -2.75158 7.55478e-05 1
-14.0204 13.1661 -2.36155 0.000475098 10
-14.0285 13.1736 -1.68366 0.000482094 10
-14.023 13.1685 -1.00816 0.000486784 10
-14.0273 13.1725 -0.335883 0.000489113 10
-14.0258 13.1711 0.335845 0.000489056 10
-14.0193 13.165 1.00789 0.000486614 10
-14.0256 13.1709 1.68331 0.000481814 10
-13.0067 12.2141 2.1908 0.000254486 10
-14.0168 13.1627 3.04546 0.000398724 10
-14.0252 13.1706 3.73985 0.000388916 10
-14.0244 13.1698 4.44161 0.000377403 10
-14.028 13.1732 5.15633 0.000364311 10
-7.48421 6.97914 -2.74202 0.000499959 1
-8.68049 8.09469 -2.74019 0.000300888 1
-10.3444 9.64627 -2.74934 0.000162987 1
-12.7078 11.8502 -2.75205 7.55399e-05 1
-14.113 13.1606 -2.36938 0.00047139 10
-14.1136 13.1612 -1.68835 0.000478338 10
-14.1195 13.1667 -1.01179 0.000482995 10
-14.1281 13.1746 -0.337192 0.000485309 10
-14.1251 13.1719 0.33712 0.000485253 10
-14.1172 13.1645 1.01162 0.000482828 10
-14.1187 13.1659 1.68895 0.000478061 10
-13.1075 12.223 2.20058 0.000252569 10
-14.1216 13.1686 3.05822 0.000395605 10
-14.1205 13.1675 3.75296 0.000385865 10
-14.128 13.1746 4.45983 0.000374432 10
-14.1324 13.1787 5.17776 0.000361431 10
-7.51372 6.95778 -2.74392 0.000499931 1
-8.71179 8.06721 -2.74117 0.000300868 1
-10.376 9.60827 -2.74882 0.000162973 1
-12.7457 11.8026 -2.75131 7.5532e-05 1
-14.2111 13.1596 -2.37813 0.000467657 10
-14.2225 13.1702 -1.69587 0.000474557 10
-14.2143 13.1626 1.69489 0.000474284 10
-13.184 12.2085 2.20625 0.000250638 10
-14.2232 13.1708 3.07025 0.000392466 10
-7.52099 6.9159 -2.73774 0.000499903 1
-8.73729 8.03435 -2.74035 0.000300849 1
-10.4102 9.57265 -2.749 0.00016296 1
-12.7989 11.7692 -2.75392 7.55242e-05 1
-14.3124 13.1609 -2.38737 0.0004639 10
-14.3163 13.1645 -1.70156 0.000470751 10
-14.3177 13.1658 1.70172 0.000470481 10
-13.2783 12.21 2.21488 0.000248694 10
-14.3218 13.1696 3.0816 0.000389306 10
-7.56438 6.90723 -2.74474 0.000499876 1
-8.76977 8.00791 -2.74175 0.000300829 1
-10.4338 9.5274 -2.74645 0.000162947 1
-12.8326 11.7177 -2.75234 7.55164e-05 1
-14.4112 13.1592 -2.39617 0.000460119 10
-14.4104 13.1585 -1.70727 0.000466922 10
-14.4189 13.1663 1.70828 0.000466654 10
-13.384 12.2213 2.22539 0.000246737 10
-14.4159 13.1635 3.09194 0.000386126 10
-7.57844 6.87172 -2.74113 0.000499848 1
-8.80431 7.98327 -2.74382 0.000300809 1
-10.4674 9.49126 -2.74655 0.000162934 1
-12.8808 11.6796 -2.75392 7.55086e-05 1
-14.5248 13.1702 -2.4074 0.000456316 10
-14.5235 13.1691 -1.71522 0.000463069 10
-14.5204 13.1663 1.71485 0.000462803 10
-13.4706 12.2144 2.23269 0.000244767 10
-14.5215 13.1673 3.10471 0.000382928 10
-7.59452 6.83813 -2.73829 0.000499821 1
-8.82608 7.94704 -2.74194 0.00030079 1
-10.5019 9.45591 -2.74691 0.000162921 1
-12.9138 11.6276 -2.75227 7.55008e-05 1
-14.6197 13.1636 -2.4155 0.00045249 10
-14.6169 13.1611 -1.72081 0.000459193 10
-14.6242 13.1677 1.72167 0.00045893 10
-13.5675 12.2162 2.24166 0.000242785 10
-14.6292 13.1722 3.11789 0.00037971 10
-7.62822 6.82042 -2.74184 0.000499794 1
-8.84979 7.91263 -2.74071 0.00030077 1
-10.5334 9.41796 -2.74655 0.000162908 1
-12.9434 11.5728 -2.74997 7.54931e-05 1
-14.7164 13.158 -2.42389 0.000448644 10
-14.7271 13.1675 -1.72836 0.000455296 10
-14.7337 13.1734 1.72914 0.000455036 10
-13.6517 12.2061 2.24853 0.000240791 10
-14.7158 13.1575 3.12654 0.000376475 10
-7.64495 6.78751 -2.73932 0.000499767 1
-8.89433 7.89676 -2.74595 0.000300751 1
-10.5662 9.38109 -2.74654 0.000162895 1
-12.9863 11.5298 -2.75051 7.54854e-05 1
-14.8273 13.1643 -2.43456 0.000444775 10
-14.8216 13.1592 -1.73405 0.000451377 10
-14.8317 13.1682 1.73523 0.000451119 10
-13.7621 12.2186 2.25967 0.000238786 10
-14.8285 13.1654 3.14069 0.000373223 10
-7.67031 6.76229 -2.73993 0.00049974 1
-8.90916 7.85448 -2.74205 0.000300732 1
-10.6104 9.35435 -2.74954 0.000162882 1
-13.0399 11.4963 -2.75336 7.54778e-05 1
-14.9337 13.1659 -2.44448 0.000440888 10
-14.9324 13.1647 -1.74163 0.000447439 10
-14.9281 13.1609 1.74113 0.000447183 10
-13.8478 12.2084 2.26672 0.000236769 10
-14.9374 13.1691 3.154 0.000369953 10
-7.70246 6.743 -2.74299 0.000499713 1
-8.93578 7.82268 -2.74182 0.000300713 1
-10.6393 9.31396 -2.74857 0.00016287 1
-13.0788 11.4496 -2.7531 7.54702e-05 1
-15.0326 13.1601 -2.45313 0.00043698 10
-15.0408 13.1672 -1.7489 0.00044348 10
-15.0423 13.1685 1.74908 0.000443227 10
-13.957 12.2185 2.27761 0.000234741 10
-15.0327 13.1601 3.1644 0.000366667 10
-7.72111 6.71186 -2.74127 0.000499686 1
-8.97369 7.80072 -2.74508 0.000300694 1
-10.6595 9.2662 -2.74543 0.000162857 1
-13.1103 11.3966 -2.75135 7.54627e-05 1
-15.1447 13.1651 -2.46392 0.000433055 10
-15.1479 13.1679 -1.756 0.000439503 10
-15.1471 13.1672 1.75591 0.000439253 10
-14.0392 12.2041 2.28405 0.000232703 10
-15.1458 13.1661 3.17852 0.000363367 10
-7.74993 6.68956 -2.7432 0.000499659 1
-8.99925 7.76795 -2.74459 0.000300674 1
-10.7096 9.24424 -2.74999 0.000162844 1
-13.1595 11.359 -2.75334 7.54551e-05 1
-15.2459 13.1599 -2.47289 0.000429111 10
-15.2559 13.1686 -1.76318 0.000435508 10
-15.2404 13.1552 1.76139 0.00043526 10
-14.1355 12.2015 2.29278 0.000230655 10
-15.2548 13.1676 3.19174 0.000360051 10
-7.77101 6.66057 -2.74242 0.000499633 1
-9.02059 7.73158 -2.74285 0.000300655 1
-10.7238 9.19138 -2.74538 0.000162832 1
-13.1896 11.3049 -2.75137 7.54477e-05 1
-15.3555 13.1612 -2.48319 0.00042515 10
-15.3452 13.1525 -1.76819 0.000431494 10
-15.3551 13.1609 1.76932 0.000431249 10
-14.2402 12.2053 2.30284 0.000228597 10
-15.3648 13.1692 3.20511 0.00035672 10
-7.79824 6.63683 -2.74383 0.000499607 1
-9.04917 7.70145 -2.74335 0.000300637 1
-10.773 9.16852 -2.74977 0.000162819 1
-13.2303 11.2599 -2.75164 7.54402e-05 1
-15.4632 13.1602 -2.49317 0.000421173 10
-15.4684 13.1646 -1.77707 0.000427465 10
-15.4608 13.1581 -1.06398 0.000431683 10
-15.4557 13.1538 -0.354257 0.000433779 10
-15.4553 13.1535 0.354248 0.00043373 10
-15.4537 13.1521 1.0635 0.000431535 10
-15.4621 13.1593 1.77635 0.00042722 10
-14.3449 12.2085 2.31287 0.00022653 10
-15.4656 13.1622 3.21652 0.000353376 10
-15.4634 13.1604 3.94698 0.000344563 10
-15.4555 13.1537 4.68551 0.000334221 10
-15.4688 13.165 5.44275 0.000322466 10
-7.80913 6.59923 -2.73954 0.000499581 1
-9.07746 7.67105 -2.74379 0.000300618 1
-10.804 9.13009 -2.74954 0.000162807 1
-13.2695 11.2136 -2.75164 7.54328e-05 1
-15.5813 13.1672 -2.50478 0.000417179 10
-15.5729 13.1602 -1.7838 0.000423419 10
-15.5703 13.1579 -1.06835 0.000427602 10
-15.5626 13.1514 -0.355653 0.000429681 10
-15.5817 13.1676 0.35609 0.000429632 10
-15.5705 13.1581 1.06837 0.000427455 10
-15.5653 13.1537 1.78293 0.000423177 10
-14.4368 12.2 2.32079 0.000224453 10
-15.565 13.1534 3.22763 0.000350018 10
-15.5852 13.1705 3.96632 0.00034128 10
-15.5762 13.1629 4.70813 0.000331026 10
-15.5788 13.1651 5.46524 0.000319371 10
-7.83325 6.57288 -2.73994 0.000499554 1
-9.10757 7.64216 -2.74481 0.000300599 1
-10.819 9.07818 -2.74526 0.000162794 1
-13.3193 11.1762 -2.75384 7.54254e-05 1
-15.6817 13.1585 -2.51352 0.000413172 10
-15.6903 13.1657 -1.79196 0.000419358 10
-15.6897 13.1652 -1.07339 0.000423505 10
-15.6901 13.1656 -0.357514 0.000425567 10
-15.6745 13.1525 0.357159 0.000425518 10
-15.683 13.1596 1.07293 0.00042336 10
-15.6824 13.1591 1.79107 0.000419117 10
-14.5459 12.2055 2.33148 0.000222369 10
-15.6752 13.1531 3.24094 0.000346648 10
-15.6753 13.1531 3.97753 0.000337985 10
-15.6934 13.1683 4.72963 0.000327819 10
-15.6783 13.1557 5.48401 0.000316264 10
-7.86577 6.55351 -2.74329 0.000499528 1
-9.12931 7.60626 -2.74335 0.000300581 1
-10.8644 9.05191 -2.74877 0.000162782 1
-13.3429 11.1169 -2.75069 7.54181e-05 1
-15.792 13.1574 -2.52382 0.000409149 10
-15.8013 13.1652 -1.79938 0.000415282 10
-15.7897 13.1554 -1.07708 0.000419393 10
-15.7952 13.1601 -0.358861 0.000421437 10
-15.7951 13.16 0.358858 0.000421389 10
-15.7942 13.1593 1.07739 0.00041925 10
-15.789 13.1549 1.79797 0.000415044 10
-14.6515 12.2072 2.34156 0.000220275 10
-15.8035 13.167 3.25795 0.000343266 10
-15.7924 13.1578 3.99558 0.000334678 10
-15.8036 13.1671 4.74896 0.0003246 10
-15.8019 13.1657 5.51113 0.000313146 10
-7.88783 6.52538 -2.74303 0.000499502 1
-9.16741 7.58394 -2.74682 0.000300562 1
-10.8838 9.0039 -2.74571 0.00016277 1
-13.3892 11.0765 -2.75225 7.54108e-05 1
-15.9024 13.1556 -2.53412 0.000405113 10
-15.9152 13.1662 -1.80711 0.000411193 10
-15.9165 13.1673 -1.08259 0.000415268 10
-15.9021 13.1553 -0.360243 0.000417294 10
-15.9061 13.1586 0.360333 0.000417247 10
-15.9159 13.1668 1.08255 0.000415125 10
-15.9163 13.1671 1.80723 0.000410957 10
-14.7513 12.2033 2.35068 0.000218174 10
-15.9039 13.1569 3.26916 0.000339873 10
-15.9066 13.159 4.01281 0.00033136 10
-15.8991 13.1528 4.76382 0.000321372 10
-15.9094 13.1614 5.53255 0.000310019 10
-7.90303 6.49162 -2.74042 0.000499477 1
-9.18251 7.5426 -2.74344 0.000300544 1
-10.9341 8.98134 -2.75045 0.000162758 1
-13.4213 11.0244 -2.75092 7.54035e-05 1
-16.0093 13.1502 -2.54382 0.000401065 10
-16.0081 13.1492 -1.81243 0.00040709 10
-16.0201 13.159 -1.0865 0.00041113 10
-16.0093 13.1501 -0.361629 0.000413137 10
-16.0287 13.1661 0.362067 0.000413089 10
-16.0277 13.1653 1.08702 0.000410988 10
-16.0303 13.1675 1.81495 0.000406857 10
-14.87 12.2144 2.3628 0.000216066 10
-16.0202 13.1592 3.28361 0.000336468 10
-16.0276 13.1652 4.03171 0.000328032 10
-16.0177 13.1571 4.78558 0.000318133 10
-16.0258 13.1637 5.55702 0.000306883 10
-7.93693 6.47321 -2.74432 0.000499451 1
-9.21393 7.5147 -2.74498 0.000300525 1
-10.9567 8.93605 -2.74828 0.000162745 1
-13.4612 10.9787 -2.75123 7.53963e-05 1
-16.1347 13.1591 -2.55643 0.000397004 10
-16.1357 13.1599 -1.82166 0.000402975 10
-16.1225 13.1492 -1.09033 0.000406979 10
-16.1264 13.1523 -0.363235 0.000408968 10
-16.1444 13.1671 0.363642 0.000408921 10
-16.1349 13.1593 1.09117 0.000406839 10
-16.1236 13.1501 1.8203 0.000402745 10
-14.9743 12.2128 2.37258 0.00021395 10
-16.1444 13.1671 3.29962 0.000333054 10
-16.1244 13.1507 4.0445 0.000324695 10
-16.1353 13.1596 4.80695 0.000314885 10
-16.1312 13.1563 5.57762 0.000303737 10
-7.96199 6.44749 -2.74518 0.000499426 1
-9.24604 7.4873 -2.74674 0.000300507 1
-10.9953 8.9038 -2.75014 0.000162733 1
-13.5025 10.9341 -2.75184 7.53891e-05 1
-16.2387 13.1498 -2.56561 0.000392932 10
-16.2478 13.1572 -1.82913 0.000398849 10
-16.2532 13.1616 -1.09605 0.000402816 10
-16.2536 13.1619 -0.365065 0.000404787 10
-16.249 13.1582 0.36496 0.000404741 10
-16.2457 13.1555 1.09555 0.000402678 10
-16.2565 13.1643 1.83011 0.000398621 10
-15.0729 12.2058 2.38143 0.000211828 10
-16.2503 13.1592 3.31185 0.000329631 10
-16.2439 13.1541 4.06295 0.000321348 10
-16.2414 13.152 4.82486 0.000311628 10
-16.2521 13.1607 5.60349 0.000300583 10
-7.98425 6.4195 -2.74512 0.000499401 1
-9.27258 7.45535 -2.74688 0.000300489 1
-11.0249 8.86427 -2.74981 0.000162721 1
-13.5447 10.8902 -2.75267 7.53819e-05 1
-16.3664 13.1589 -2.57852 0.000388849 10
-16.3599 13.1537 -1.83656 0.000394711 10
-16.3726 13.1639 -1.101 0.000398642 10
-16.3705 13.1622 -0.366655 0.000400595 10
-16.3544 13.1493 0.366294 0.000400549 10
-16.368 13.1602 1.10069 0.000398505 10
-16.3634 13.1566 1.83696 0.000394486 10
-15.1688 12.196 2.38984 0.000209698 10
-16.3561 13.1507 3.32405 0.000326199 10
-16.3576 13.1519 4.07987 0.000317992 10
-16.3645 13.1574 4.84777 0.000308363 10
-16.365 13.1578 5.62655 0.000297421 10
-7.98697 6.37592 -2.73838 0.000499375 1
-9.29635 7.42118 -2.74623 0.000300471 1
-11.0538 8.82412 -2.7493 0.000162709 1
-13.5832 10.8434 -2.7528 7.53748e-05 1
-16.4854 13.1601 -2.59002 0.000384757 10
-16.4904 13.1641 -1.84604 0.000390564 10
-16.4893 13.1633 -1.10575 0.000394457 10
-16.4825 13.1578 -0.368132 0.000396393 10
-16.4906 13.1643 0.368313 0.000396348 10
-16.4887 13.1627 1.10571 0.000394323 10
-16.4891 13.163 1.8459 0.000390342 10
-15.297 12.2115 2.40331 0.000207564 10
-16.4833 13.1585 3.34054 0.000322758 10
-16.4751 13.1519 4.0977 0.000314629 10
-16.4901 13.1639 4.87133 0.000305091 10
-16.4784 13.1546 5.64973 0.000294253 10
-8.01687 6.35409 -2.74101 0.00049935 1
-9.32389 7.39002 -2.74672 0.000300453 1
-11.071 8.77476 -2.74595 0.000162697 1
-13.6209 10.7958 -2.75279 7.53677e-05 1
-16.6055 13.1614 -2.60166 0.000380655 10
-16.6025 13.159 -1.85344 0.000386407 10
-16.6028 13.1592 -1.11028 0.000390263 10
-16.606 13.1618 -0.369863 0.000392181 10
-16.5916 13.1503 0.369541 0.000392136 10
-16.5882 13.1476 1.1093 0.000390131 10
-16.6069 13.1625 1.85394 0.000386187 10
-15.395 12.202 2.412 0.000205423 10
-16.5894 13.1486 3.35272 0.00031931 10
-16.6044 13.1605 4.11841 0.000311258 10
-16.5922 13.1508 4.88789 0.000301811 10
-16.6036 13.1599 5.67687 0.000291077 10
-8.03375 6.32194 -2.73922 0.000499325 1
-9.35216 7.35943 -2.74747 0.000300435 1
-11.1001 8.73492 -2.74559 0.000162686 1
-13.6727 10.7593 -2.75564 7.53607e-05 1
-16.7095 13.1491 -2.61075 0.000376545 10
-16.716 13.1542 -1.86098 0.000382241 10
-16.726 13.1621 -1.11544 0.000386061 10
-16.7122 13.1512 -0.371202 0.00038796 10
-16.7247 13.161 0.37148 0.000387916 10
-16.7275 13.1632 1.11554 0.00038593 10
-16.7247 13.161 1.86194 0.000382025 10
-15.5177 12.2112 2.42452 0.000203277 10
-16.7239 13.1604 3.3706 0.000315855 10
-16.7263 13.1623 4.13723 0.000307881 10
-16.7179 13.1557 4.91138 0.000298525 10
-16.711 13.1503 5.69787 0.000287895 10
-8.0671 6.30271 -2.74307 0.000499301 1
-9.37248 7.32258 -2.74591 0.000300418 1
-11.1413 8.70455 -2.74825 0.000162674 1
-13.7013 10.7046 -2.75387 7.53536e-05 1
-16.8472 13.1625 -2.62506 0.000372426 10
-16.8374 13.1548 -1.86937 0.000378067 10
-16.8327 13.1511 -1.11948 0.000381851 10
-16.828 13.1475 -0.372753 0.000383732 10
-16.8376 13.155 0.372966 0.000383688 10
-16.8367 13.1542 1.11975 0.000381721 10
-16.839 13.1561 1.86955 0.000377854 10
-15.6242 12.207 2.4345 0.000201127 10
-16.8314 13.1501 3.38299 0.000312393 10
-16.8302 13.1492 4.15154 0.000304497 10
-16.8294 13.1485 4.9306 0.000295233 10
-16.8445 13.1603 5.72766 0.000284708 10
-8.08029 6.26772 -2.74011 0.000499276 1
-9.39283 7.28583 -2.74441 0.0003004 1
-11.1815 8.67326 -2.75068 0.000162662 1
-13.7375 10.6559 -2.75365 7.53467e-05 1
-16.9654 13.1597 -2.63631 0.000368302 10
-16.9475 13.1458 -1.87648 0.000373888 10
-16.9517 13.1491 -1.12434 0.000377634 10
-16.957 13.1532 1.12469 0.000377507 10
-16.9484 13.1466 1.87659 0.000373677 10
-15.7304 12.2018 2.4444 0.000198972 10
-16.9477 13.146 3.39713 0.000308926 10
-8.09848 6.23667 -2.73887 0.000499251 1
-9.40775 7.24495 -2.74136 0.000300383 1
-11.2036 8.62793 -2.74869 0.00016265 1
-13.7675 10.6024 -2.75222 7.53397e-05 1
-17.0782 13.152 -2.64669 0.000364171 10
-17.0774 13.1514 -1.88578 0.000369701 10
-17.0827 13.1554 -1.12997 0.00037341 10
-17.079 13.1526 1.12973 0.000373284 10
-17.0731 13.1481 1.8853 0.000369493 10
-15.8382 12.1971 2.45452 0.000196812 10
-17.0781 13.1519 3.41403 0.000305453 10
-8.12849 6.2147 -2.74167 0.000499227 1
-9.44268 7.21948 -2.74418 0.000300365 1
-11.2294 8.58551 -2.74765 0.000162639 1
-13.8087 10.5576 -2.75308 7.53328e-05 1
-17.2031 13.1528 -2.65892 0.000360035 10
-17.203 13.1527 -1.89456 0.000365509 10
-17.2111 13.1589 -1.13542 0.000369181 10
-17.1929 13.145 1.13422 0.000369056 10
-17.2063 13.1552 1.89492 0.000365303 10
-15.9513 12.1957 2.46543 0.000194649 10
-17.1934 13.1454 3.4279 0.000301976 10
-8.16041 6.19409 -2.74513 0.000499203 1
-9.47272 7.19019 -2.7456 0.000300348 1
-11.2723 8.55614 -2.75082 0.000162627 1
-13.8568 10.5179 -2.75533 7.5326e-05 1
-17.3338 13.1571 -2.67199 0.000355894 10
-17.3276 13.1524 -1.90322 0.000361313 10
-17.314 13.1421 -1.13918 0.000364946 10
-17.3328 13.1563 1.14042 0.000364823 10
-17.3275 13.1523 1.90321 0.000361109 10
-16.0778 12.2037 2.47839 0.000192483 10
-17.3236 13.1493 3.44468 0.000298496 10
-8.16786 6.15493 -2.74039 0.000499179 1
-9.50173 7.16007 -2.74674 0.00030033 1
-11.3001 8.51523 -2.75033 0.000162616 1
-13.8937 10.4697 -2.75538 7.53192e-05 1
-17.4494 13.149 -2.68271 0.000351749 10
-17.4524 13.1513 -1.91187 0.000357111 10
-17.4424 13.1438 -1.1446 0.000360707 10
-17.4446 13.1455 1.14475 0.000360585 10
-17.4504 13.1498 1.91165 0.00035691 10
-16.1931 12.2024 2.48958 0.000190314 10
-17.459 13.1563 3.46244 0.000295012 10
-8.19865 6.13338 -2.74352 0.000499155 1
-9.51318 7.11677 -2.74286 0.000300313 1
-11.3303 8.47617 -2.75047 0.000162604 1
-13.9148 10.4096 -2.75235 7.53124e-05 1
-17.5853 13.1555 -2.69653 0.000347601 10
-17.568 13.1426 -1.9195 0.000352907 10
-17.5837 13.1543 -1.15085 0.000356465 10
-17.5788 13.1506 1.15053 0.000356345 10
-17.569 13.1433 1.9196 0.000352708 10
-16.3121 12.203 2.50131 0.000188142 10
-17.5835 13.1542 3.47801 0.000291525 10
-17.5889 13.1582 5.8858 0.000265503 10
-8.21232 6.099 -2.74095 0.000499131 1
-9.54298 7.08724 -2.7443 0.000300296 1
-11.356 8.43369 -2.74954 0.000162593 1
-13.9492 10.3596 -2.75197 7.53056e-05 1
-17.6971 13.143 -2.70663 0.00034345 10
-17.7031 13.1475 -1.92923 0.0003487 10
-17.6976 13.1434 -1.1553 0.00035222 10
-17.7047 13.1486 1.15576 0.000352101 10
-17.6948 13.1413 1.92832 0.000348503 10
-16.4191 12.1939 2.51117 0.000185968 10
-17.697 13.143 3.49137 0.000288037 10
-17.6992 13.1446 5.90731 0.000262294 10
-8.24747 6.08056 -2.74558 0.000499107 1
-9.57208 7.05715 -2.74557 0.000300279 1
-11.3914 8.39848 -2.75101 0.000162582 1
-13.9872 10.3123 -2.75236 7.52989e-05 1
-17.838 13.1513 -2.72114 0.000339298 10
-17.8223 13.1398 -1.93721 0.000344491 10
-17.8377 13.1511 -1.16144 0.000347974 10
-17.8225 13.1399 1.16045 0.000347856 10
-17.826 13.1425 1.93762 0.000344297 10
-17.834 13.1484 2.72053 0.00029047 10
-17.8446 13.1562 3.5114 0.000284547 10
-17.8401 13.1528 5.93896 0.000259084 10
-8.26468 6.04883 -2.74427 0.000499083 1
-9.59038 7.0191 -2.74377 0.000300262 1
-11.4158 8.35513 -2.74984 0.00016257 1
-14.0431 10.278 -2.75629 7.52922e-05 1
-17.9538 13.1402 -2.7318 0.000335145 10
-17.9648 13.1482 -1.9477 0.00034028 10
-17.9662 13.1493 -1.16681 0.000343725 10
-17.967 13.1499 1.16686 0.000343609 10
-17.9665 13.1495 1.94788 0.000340089 10
-17.9621 13.1463 2.73306 0.000286914 10
-17.9562 13.1419 3.52431 0.000281056 10
-17.9627 13.1467 5.96445 0.000255873 10
-8.27341 6.01099 -2.74018 0.00049906 1
-9.61533 6.98595 -2.74391 0.000300246 1
-11.4409 8.31232 -2.74888 0.000162559 1
-14.0611 10.216 -2.7528 7.52856e-05 1
-18.1047 13.1539 -2.74776 0.000330991 10
-18.0828 13.1379 -1.95551 0.00033607 10
-18.0873 13.1412 -1.17169 0.000339477 10
-18.1018 13.1517 -0.390558 0.000341171 10
-18.0954 13.1471 0.390421 0.000341133 10
-18.0866 13.1407 1.17165 0.000339363 10
-18.0927 13.1451 1.95658 0.000335881 10
-18.0935 13.1457 2.74605 0.000283358 10
-18.1011 13.1512 3.54373 0.000277565 10
-18.0849 13.1395 4.34522 0.000270461 10
-18.092 13.1446 5.1629 0.000262128 10
-18.1013 13.1514 5.99522 0.000252664 10
-8.29772 5.9845 -2.7413 0.000499037 1
-9.63747 6.95076 -2.74329 0.000300229 1
-11.4591 8.26454 -2.74629 0.000162548 1
-14.1018 10.1705 -2.75379 7.5279e-05 1
-18.2335 13.1504 -2.76031 0.000326838 10
-18.2351 13.1516 -1.967 0.00033186 10
-18.2317 13.1491 -1.17806 0.000335229 10
-18.2177 13.139 -0.392068 0.000336904 10
-18.2186 13.1396 0.392085 0.000336866 10
-18.2206 13.1411 1.17734 0.000335116 10
-18.238 13.1537 1.96732 0.000331673 10
-18.2271 13.1458 2.75935 0.000279802 10
-18.2362 13.1523 3.56116 0.000274074 10
-18.2236 13.1432 4.36747 0.00026705 10
-18.2261 13.1451 5.18804 0.000258812 10
-18.2237 13.1433 6.02051 0.000249454 10
-8.33117 5.96453 -2.74545 0.000499014 1
-9.66027 6.91608 -2.7429 0.000300212 1
-11.5043 8.23627 -2.75023 0.000162537 1
-14.1407 10.1238 -2.75448 7.52724e-05 1
-18.3692 13.1511 -1.97651 0.000327651 10
-18.3725 13.1534 -1.18419 0.000330982 10
-18.3626 13.1463 -0.394195 0.000332638 10
-18.3508 13.1379 0.393941 0.000332601 10
-18.3587 13.1436 1.1833 0.000330871 10
-18.352 13.1387 1.97465 0.000327467 10
-18.3713 13.1526 2.77421 0.000276248 10
-18.372 13.1531 3.5787 0.000270586 10
-18.3714 13.1526 4.39188 0.000263641 10
-18.3583 13.1433 5.21258 0.000255497 10
-18.3563 13.1418 6.04913 0.000246247 10
-8.33718 5.92493 -2.7406 0.000498991 1
-9.69461 6.88961 -2.7458 0.000300196 1
-11.5273 8.19202 -2.74887 0.000162526 1
-14.1752 10.0738 -2.75433 7.52659e-05 1
-18.4924 13.1419 -1.98481 0.000323445 10
-18.4858 13.1372 -1.18853 0.000326737 10
-18.5076 13.1527 -0.396321 0.000328375 10
-18.4901 13.1403 0.395946 0.000328338 10
-18.5059 13.1514 1.18982 0.000326627 10
-18.4866 13.1377 1.98419 0.000323263 10
-18.508 13.153 2.7879 0.000272696 10
-18.4888 13.1393 3.5925 0.000267098 10
-18.4964 13.1447 4.41076 0.000260234 10
-18.4977 13.1457 5.2391 0.000252184 10
-18.5085 13.1533 6.08411 0.000243041 10
-8.35758 5.89563 -2.74053 0.000498968 1
-9.72033 6.85694 -2.74629 0.000300179 1
-11.5563 8.1521 -2.74899 0.000162515 1
-14.2052 10.0207 -2.75335 7.52594e-05 1
-18.6235 13.1374 -1.99394 0.00031924 10
-18.6262 13.1394 -1.1946 0.000322494 10
-18.634 13.1448 -0.398041 0.000324113 10
-18.6287 13.1411 0.397929 0.000324077 10
-18.6371 13.147 1.19529 0.000322386 10
-18.6265 13.1396 1.99427 0.000319061 10
-18.6302 13.1422 2.79939 0.000269145 10
-18.6266 13.1397 3.61034 0.000263613 10
-18.6296 13.1417 4.43155 0.000256829 10
-18.6236 13.1375 5.26172 0.000248873 10
-18.6414 13.1501 6.11269 0.000239838 10
-8.38884 5.87393 -2.74404 0.000498945 1
-9.74048 6.82036 -2.74524 0.000300163 1
-11.5956 8.11932 -2.75157 0.000162505 1
-14.2337 9.96653 -2.7521 7.5253e-05 1
-18.7693 13.1424 -2.00464 0.00031504 10
-18.763 13.138 -1.20042 0.000318255 10
-18.7634 13.1383 -0.399823 0.000319855 10
-18.7668 13.1407 0.399896 0.000319819 10
-18.7684 13.1418 1.20077 0.000318148 10
-18.7724 13.1446 2.00497 0.000314862 10
-18.7794 13.1495 2.81489 0.000265598 10
-18.7704 13.1432 3.6293 0.000260131 10
-18.7704 13.1432 4.45412 0.000253427 10
-18.7698 13.1427 5.29004 0.000245566 10
-18.7608 13.1365 6.13677 0.000236638 10
-8.40576 5.84215 -2.74288 0.000498922 1
-9.76349 6.7858 -2.74503 0.000300147 1
-11.6165 8.07369 -2.74983 0.000162494 1
-14.2713 9.9188 -2.75266 7.52466e-05 1
-18.9054 13.1396 -2.01426 0.000310843 10
-18.9095 13.1425 -1.20685 0.00031402 10
-18.9103 13.143 -0.401974 0.000315601 10
-18.9135 13.1452 0.402042 0.000315565 10
-18.9182 13.1485 1.20741 0.000313914 10
-18.9087 13.1419 2.01461 0.000310668 10
-18.9076 13.1411 2.82722 0.000262054 10
-18.9181 13.1484 3.64895 0.000256652 10
-18.9133 13.1451 4.4771 0.000250029 10
-18.9201 13.1498 5.31944 0.000242262 10
-18.9123 13.1444 6.17128 0.000233442 10
-8.42028 5.80877 -2.74099 0.0004989 1
-9.79377 6.75627 -2.7469 0.000300131 1
-11.6518 8.03806 -2.75153 0.000162483 1
-14.3037 9.86746 -2.75226 7.52402e-05 1
-19.0378 13.1333 -2.02347 0.000306651 10
-19.0454 13.1386 -1.21259 0.00030979 10
-19.0516 13.1428 -0.404 0.000311352 10
-19.0383 13.1336 0.403717 0.000311317 10
-19.0453 13.1384 1.21258 0.000309686 10
-19.0496 13.1414 2.02472 0.000306478 10
-19.0455 13.1386 2.84096 0.000258514 10
-19.05 13.1417 3.66553 0.000253178 10
-19.0521 13.1432 4.49908 0.000246635 10
-19.0619 13.15 5.34637 0.000238963 10
-19.04 13.1349 6.19796 0.00023025 10
-8.44937 5.78541 -2.74387 0.000498877 1
-9.82373 6.72645 -2.7487 0.000300115 1
-11.6716 7.99171 -2.7496 0.000162472 1
-14.3495 9.82528 -2.75445 7.52339e-05 1
-19.1784 13.1317 -2.03353 0.000302464 10
-19.1961 13.1438 -1.21925 0.000305566 10
-19.1792 13.1323 -0.405732 0.000307108 10
-19.1989 13.1458 0.406148 0.000307074 10
-19.1939 13.1424 1.21912 0.000305463 10
-19.1887 13.1388 2.03462 0.000302294 10
-19.202 13.1479 2.85744 0.000254979 10
-19.1961 13.1439 3.68479 0.000249708 10
-19.2021 13.1479 4.52363 0.000243246 10
-19.1863 13.1371 5.36835 0.000235668 10
-19.1958 13.1437 6.2337 0.000227063 10
-8.47063 5.75663 -2.74423 0.000498855 1
-9.83898 6.68657 -2.74642 0.000300099 1
-11.7062 7.95553 -2.75119 0.000162462 1
-14.3882 9.77823 -2.75532 7.52276e-05 1
-19.3268 13.1345 -2.04439 0.000298285 10
-19.3394 13.143 -1.22544 0.000301348 10
-19.3247 13.133 -0.407836 0.000302871 10
-19.3387 13.1426 0.408132 0.000302837 10
-19.3311 13.1374 1.22491 0.000301246 10
-19.3278 13.1352 2.86932 0.00025145 10
-19.325 13.1333 3.70071 0.000246244 10
-19.3348 13.1399 4.54406 0.000239862 10
-19.3422 13.1449 5.3991 0.000232379 10
-19.347 13.1482 6.26785 0.000223882 10
-8.49413 5.72937 -2.74535 0.000498833 1
-9.85033 6.64413 -2.74309 0.000300083 1
-11.7171 7.90329 -2.74725 0.000162451 1
-14.4098 9.71953 -2.75293 7.52213e-05 1
-19.4708 13.1332 -2.05476 0.000294112 10
-19.4815 13.1405 -1.23153 0.000297137 10
-19.4666 13.1304 -0.409861 0.000298641 10
-19.4818 13.1406 0.410181 0.000298608 10
-19.4708 13.1332 1.23085 0.000297036 10
-19.4675 13.131 2.88324 0.000247927 10
-19.4911 13.1469 3.72369 0.000242787 10
-19.4778 13.1379 4.56686 0.000236485 10
-19.4808 13.14 5.42497 0.000229096 10
-19.48 13.1394 6.29602 0.000220706 10
-8.49877 5.68943 -2.74041 0.000498811 1
-9.88853 6.61979 -2.74728 0.000300067 1
-11.7486 7.86503 -2.74819 0.000162441 1
-14.4415 9.66772 -2.75252 7.52151e-05 1
-19.6264 13.1387 -2.06633 0.000289947 10
-19.6298 13.141 -1.23799 0.000292933 10
-19.6126 13.1295 -0.411968 0.000294419 10
-19.6251 13.1379 0.412231 0.000294386 10
-19.6336 13.1435 1.23823 0.000292834 10
-19.6184 13.1334 2.89877 0.00024441 10
-19.6317 13.1423 3.74178 0.000239335 10
-19.6147 13.1309 4.58819 0.000233114 10
-19.6213 13.1353 5.45129 0.000225819 10
-19.6256 13.1382 6.32823 0.000217537 10
-8.51836 5.65959 -2.74034 0.000498789 1
-9.89713 6.57564 -2.74328 0.000300052 1
-11.784 7.8293 -2.75006 0.000162431 1
-14.4783 9.61935 -2.75312 7.52089e-05 1
-19.7746 13.1383 -2.0771 0.000294701 10
-19.7735 13.1375 -1.24416 0.000297748 10
-19.7784 13.1407 -0.414485 0.000299266 10
-19.7799 13.1417 0.414516 0.000299239 10
-19.777 13.1398 1.24438 0.000297665 10
-23.7021 15.7477 5.53141 0.000144752 10
-23.712 15.7542 6.57246 0.000139951 10
-21.2337 14.1076 6.83083 6.4131e-05 10
-8.53371 5.62694 -2.73894 0.000498767 1
-9.93117 6.5484 -2.74636 0.000300036 1
-11.8133 7.78946 -2.75054 0.00016242 1
-14.5148 9.57074 -2.7537 7.52028e-05 1
-19.9282 13.1402 -2.08839 0.00028979 10
-19.937 13.1461 -1.25155 0.000292791 10
-19.9438 13.1505 -0.416986 0.000294286 10
-19.9495 13.1542 0.417105 0.000294259 10
-19.9366 13.1458 1.25152 0.00029271 10
-23.8839 15.7485 5.56096 0.000142449 10
-23.9003 15.7594 6.60938 0.000137716 10
-21.2726 14.0267 6.82758 6.41344e-05 10
-8.55439 5.59784 -2.73929 0.000498746 1
-9.96137 6.51854 -2.7484 0.000300021 1
-11.8269 7.7393 -2.74739 0.00016241 1
-14.5648 9.53097 -2.75686 7.51967e-05 1
-20.1088 13.1589 -2.1025 0.000284901 10
-20.1093 13.1591 -1.25947 0.000287856 10
-20.107 13.1577 -0.419437 0.000289329 10
-20.0939 13.1491 0.419161 0.000289303 10
-20.0967 13.1509 1.25869 0.000287777 10
-24.0636 15.7468 5.58997 0.000140155 10
-24.0724 15.7525 6.64171 0.00013549 10
-21.3256 13.9551 6.82891 6.41378e-05 10
-8.58034 5.57214 -2.74136 0.000498724 1
-9.96308 6.4701 -2.74263 0.000300005 1
-11.8583 7.70085 -2.74842 0.0001624 1
-14.5958 9.47865 -2.75645 7.51907e-05 1
-20.2647 13.1601 -2.11398 0.000280035 10
-20.2537 13.1529 -1.26563 0.000282944 10
-20.2729 13.1654 -0.421936 0.000284395 10
-20.2686 13.1626 0.421846 0.000284369 10
-20.2645 13.1599 1.26631 0.000282866 10
-24.245 15.7449 5.61931 0.00013787 10
-24.2681 15.7599 6.68049 0.000133273 10
-21.3707 13.8783 6.82779 6.41412e-05 10
-8.60135 5.5432 -2.74187 0.000498703 1
-9.98602 6.43555 -2.74274 0.00029999 1
-11.89 7.66261 -2.74956 0.00016239 1
-14.62 9.42197 -2.75479 7.51846e-05 1
-20.4298 13.1661 -2.12639 0.000275192 10
-20.4414 13.1736 -1.27448 0.000278057 10
-20.4397 13.1725 -0.424447 0.000279485 10
-20.4258 13.1635 0.424159 0.00027946 10
-20.4249 13.1629 1.27345 0.00027798 10
-24.4412 15.7513 5.65202 0.000135594 10
-24.4506 15.7573 6.71554 0.000131065 10
-21.418 13.803 6.82746 6.41445e-05 10
-8.63193 5.52035 -2.74546 0.000498682 1
-10.0094 6.40129 -2.74301 0.000299975 1
-11.9111 7.61747 -2.74827 0.00016238 1
-14.6545 9.37193 -2.7551 7.51786e-05 1
-20.5943 13.1706 -2.13872 0.000270374 10
-20.5918 13.169 -1.28099 0.000273194 10
-20.6082 13.1795 -0.42699 0.000274599 10
-20.6116 13.1817 0.427059 0.000274574 10
-20.5954 13.1713 1.28121 0.000273118 10
-24.6292 15.751 5.68272 0.000133329 10
-24.6216 15.7461 6.74737 0.000128867 10
-21.4784 13.736 6.8314 6.41478e-05 10
-8.63256 5.47839 -2.73956 0.000498661 1
-10.033 6.36714 -2.74337 0.00029996 1
-11.9333 7.57312 -2.74728 0.00016237 1
-14.6852 9.31954 -2.75475 7.51727e-05 1
-20.7592 13.1742 -2.15105 0.000254768 10
-20.7664 13.1787 -1.28898 0.000257422 10
-20.7674 13.1794 -0.429332 0.000258742 10
-20.7757 13.1846 0.429502 0.000258711 10
-20.7783 13.1863 1.28972 0.000257329 10
-24.8077 15.7435 5.71121 0.000131074 10
-24.8138 15.7473 6.78496 0.00012668 10
-21.5232 13.6591 6.83044 6.41511e-05 10
-8.65751 5.45193 -2.74142 0.00049864 1
-10.0581 6.33393 -2.74417 0.000299945 1
-11.9648 7.53463 -2.74845 0.00016236 1
-14.7193 9.26926 -2.75506 7.51668e-05 1
-20.9124 13.1692 -2.16215 0.000250998 10
-20.919 13.1734 -1.29559 0.000253617 10
-20.9294 13.1799 -0.431726 0.000254919 10
-20.927 13.1784 0.431677 0.000254888 10
-20.918 13.1728 1.29553 0.000253525 10
-25.008 15.7484 5.74463 0.000128829 10
-24.9981 15.7421 6.82026 0.000124503 10
-21.5693 13.5829 6.82998 6.41544e-05 10
-8.68447 5.42666 -2.74394 0.000498619 1
-10.0885 6.30397 -2.74643 0.00029993 1
-11.9983 7.49735 -2.75011 0.00016235 1
-14.7645 9.22592 -2.75748 7.5161e-05 1
-21.071 13.1666 -2.17378 0.000247237 10
-21.0816 13.1732 -1.3028 0.000249821 10
-21.0695 13.1657 -0.433666 0.000251105 10
-21.0651 13.1629 0.433575 0.000251075 10
-21.0827 13.174 1.30287 0.00024973 10
-25.0629 15.661 6.82299 3.43475e-05 10
-21.6186 13.5088 6.83061 6.41576e-05 10
-8.69841 5.39324 -2.74238 0.000498598 1
-10.1041 6.2648 -2.74471 0.000299915 1
-12.0275 7.4574 -2.75084 0.00016234 1
-14.7861 9.16781 -2.75552 7.51551e-05 1
-21.2337 13.1655 -2.18582 0.000243487 10
-21.2301 13.1633 -1.30914 0.000246036 10
-21.2241 13.1595 -0.4359 0.000247304 10
-21.2305 13.1635 0.436031 0.000247274 10
-21.227 13.1613 1.30894 0.000245947 10
-25.1283 15.5802 6.82595 3.43496e-05 10
-21.6743 13.4387 6.83336 6.41609e-05 10
-8.70726 5.35674 -2.73926 0.000498578 1
-10.1353 6.23527 -2.74726 0.000299901 1
-12.0476 7.41176 -2.7495 0.00016233 1
-14.8073 9.10949 -2.75351 7.51493e-05 1
-21.3859 13.1567 -2.19674 0.000239749 10
-21.4025 13.1669 -1.31692 0.000242263 10
-21.3846 13.1559 -0.43825 0.000243513 10
-21.3927 13.1609 0.438416 0.000243483 10
-21.3936 13.1614 1.31637 0.000242175 10
-25.1658 15.4821 6.8214 3.43516e-05 10
-21.7103 13.3563 6.82996 6.4164e-05 10
-8.73351 5.33096 -2.74165 0.000498558 1
-10.1624 6.20313 -2.74871 0.000299886 1
-12.0805 7.37399 -2.75112 0.000162321 1
-14.8441 9.06086 -2.75446 7.51436e-05 1
-21.5597 13.1601 -2.20986 0.000222575 10
-21.5443 13.1507 -1.32281 0.000224906 10
-21.5415 13.149 -0.440523 0.000226062 10
-21.5635 13.1624 0.440972 0.000226028 10
-21.5603 13.1605 1.3238 0.000224804 10
-19.9794 12.1955 2.04789 0.00013528 10
-25.7929 15.7441 5.87385 0.000119967 10
-25.239 15.406 6.82665 3.43537e-05 10
-21.7637 13.2846 6.83211 6.41672e-05 10
-8.14659 4.93375 -2.55198 0.00051956 4
-10.1665 6.15703 -2.74399 0.000299872 1
-12.107 7.33223 -2.75129 0.000162311 1
-14.8747 9.00843 -2.75429 7.51378e-05 1
-21.6841 13.1324 -2.2179 0.000219819 10
-21.6923 13.1373 -1.32908 0.000222124 10
-21.7031 13.1439 -0.442886 0.000223267 10
-21.7011 13.1427 0.442846 0.000223234 10
-21.6859 13.1335 1.32869 0.000222024 10
-20.1397 12.197 2.05993 0.000132795 10
-26.0058 15.7497 5.90979 0.000117782 10
-25.2849 15.3131 6.82454 3.43558e-05 10
-21.8092 13.2081 6.83188 6.41704e-05 10
-8.15422 4.89955 -2.549 0.00049774 4
-10.1924 6.12424 -2.74522 0.000299857 1
-12.1323 7.28981 -2.75125 0.000162302 1
-14.9134 8.96086 -2.75564 7.51322e-05 1
-21.8513 13.1296 -2.2303 0.000217063 10
-21.852 13.13 -1.33604 0.000219343 10
-21.8489 13.1281 -0.444924 0.000220473 10
-21.8517 13.1298 0.444981 0.00022044 10
-21.8423 13.1242 1.33545 0.000219244 10
-20.3093 12.2031 2.07291 0.000130326 10
-26.2077 15.7472 5.94314 0.00011561 10
-25.3211 15.2145 6.81996 3.43578e-05 10
-21.8456 13.1261 6.82889 6.41736e-05 10
-8.17471 4.8731 -2.55007 0.000450492 4
-10.2199 6.09227 -2.74686 0.000299843 1
-12.1433 7.23887 -2.748 0.000162292 1
-14.9506 8.91232 -2.75675 7.51266e-05 1
-21.9989 13.114 -2.24068 0.000214308 10
-21.9952 13.1117 -1.34199 0.000216562 10
-21.9848 13.1056 -0.446757 0.000217679 10
-21.9946 13.1114 0.446955 0.000217646 10
-21.9774 13.1012 1.34091 0.000216463 10
-20.4735 12.2046 2.08531 0.000127872 10
-26.4023 15.7389 5.97476 0.000113452 10
-25.382 15.1307 6.82207 3.43598e-05 10
-21.9994 13.1143 6.86262 0.000186979 10
-8.19239 4.84497 -2.55029 0.00038145 4
-10.2425 6.0574 -2.74724 0.000299829 1
-12.1649 7.19432 -2.74719 0.000162283 1
-14.965 8.85026 -2.75369 7.5121e-05 1
-22.1431 13.0954 -2.2507 0.000211553 10
-22.1378 13.0923 -1.3479 0.000213782 10
-22.1254 13.0849 -0.448682 0.000214886 10
-22.1388 13.0928 0.448954 0.000214854 10
-22.1471 13.0977 1.34846 0.000213685 10
-20.6627 12.2199 2.10022 0.000125434 10
-26.6038 15.7335 6.0079 0.000111307 10
-25.4273 15.0376 6.8201 3.43618e-05 10
-22.13 13.0877 6.88908 0.00018454 10
-8.22803 4.82736 -2.55613 0.000479518 4
-10.2703 6.02558 -2.74905 0.000299815 1
-12.1974 7.15617 -2.74886 0.000162273 1
-15.0021 8.8017 -2.75486 7.51155e-05 1
-22.2634 13.0619 -2.25828 0.000192721 10
-22.2745 13.0684 -1.35343 0.000194748 10
-22.2811 13.0722 -0.450912 0.00019575 10
-22.2701 13.0658 0.450689 0.000195714 10
-22.2682 13.0647 1.35305 0.000194642 10
-20.8364 12.2246 2.11353 0.000118627 10
-26.8164 15.7331 6.04347 0.000109177 10
-25.4964 14.9587 6.82461 3.43639e-05 10
-22.2827 13.0732 6.92236 0.00016803 10
-8.23869 4.79504 -2.55422 0.000570314 4
-10.2809 5.98361 -2.74626 0.000299801 1
-12.239 7.12328 -2.75263 0.000162264 1
-15.03 8.74766 -2.75435 7.51099e-05 1
-22.4096 13.0427 -2.26848 0.000190846 10
-22.4145 13.0456 -1.35917 0.000192855 10
-22.3968 13.0353 -0.45233 0.000193849 10
-22.4117 13.0439 0.45263 0.000193814 10
-22.4026 13.0387 1.35845 0.00019275 10
-20.973 12.2066 2.12305 0.000116703 10
-27.0307 15.7323 6.07937 0.000107061 10
-25.55 14.8705 6.82502 3.43658e-05 10
-22.4048 13.0399 6.94612 0.000166368 10
-8.25958 4.76868 -2.55552 0.000424995 4
-10.3091 5.95199 -2.74825 0.000299787 1
-12.2548 7.0753 -2.7506 0.000162255 1
-15.0803 8.7066 -2.75798 7.51044e-05 1
-22.5284 13.0068 -2.2759 0.000188964 10
-22.5511 13.0199 -1.36469 0.000190956 10
-22.5432 13.0153 -0.454367 0.000191941 10
-22.5298 13.0076 0.454096 0.000191906 10
-22.5542 13.0217 1.36487 0.000190852 10
-21.1355 12.2026 2.13517 0.000114788 10
-27.2506 15.7332 6.11643 0.000104961 10
-25.5827 14.7702 6.81994 3.43678e-05 10
-22.5541 13.0216 6.97826 0.000164699 10
-8.25544 4.72793 -2.54912 0.000432243 4
-10.3283 5.91507 -2.74784 0.000299773 1
-12.2819 7.03394 -2.75117 0.000162246 1
-15.1014 8.64864 -2.7563 7.5099e-05 1
-22.6806 12.9893 -2.28667 0.000187075 10
-22.6791 12.9884 -1.36968 0.00018905 10
-22.6713 12.984 -0.456032 0.000190026 10
-22.6853 12.992 0.456313 0.000189991 10
-22.6704 12.9835 1.36916 0.000188947 10
-21.3151 12.2073 2.149 0.000112881 10
-27.4761 15.7357 5.01494 0.0001059 10
-27.4712 15.7329 6.15358 0.000102875 10
-25.6426 14.6857 6.82219 3.43698e-05 10
-22.6903 12.9948 7.00631 0.000163025 10
-8.2935 4.71136 -2.55578 0.000497606 4
-10.3366 5.87199 -2.74457 0.00029976 1
-12.294 6.98394 -2.74838 0.000162237 1
-15.1218 8.59039 -2.75454 7.50936e-05 1
-22.7965 12.9502 -2.29378 0.000166169 10
-22.8102 12.958 -1.37486 0.00016792 10
-22.7975 12.9508 -0.457658 0.000168784 10
-22.796 12.9499 0.457628 0.000168749 10
-22.8069 12.9561 1.37466 0.000167815 10
-21.4689 12.1961 2.16021 0.00010504 10
-27.6992 15.7353 5.04559 0.000103776 10
-27.6849 15.7272 6.1891 0.000100805 10
-25.7035 14.6016 6.82479 3.43717e-05 10
-22.8239 12.9658 7.03357 0.000144742 10
-8.28943 4.67085 -2.54948 0.000493955 4
-10.3603 5.8377 -2.74543 0.000299746 1
-12.3351 6.95048 -2.75214 0.000162228 1
-15.1635 8.54418 -2.75668 7.50883e-05 1
-22.9144 12.9116 -2.3011 0.000165025 10
-22.911 12.9097 -1.37821 0.000166766 10
-22.9195 12.9145 -0.459201 0.000167625 10
-22.9193 12.9144 0.459196 0.00016759 10
-22.9131 12.9109 1.37833 0.000166661 10
-21.6217 12.1832 2.17129 0.000103628 10
-27.9211 15.7327 5.07598 0.000101668 10
-27.9156 15.7296 6.22838 9.87506e-05 10
-25.7385 14.5029 6.8206 3.43736e-05 10
-22.9259 12.9181 7.05105 0.000143725 10
-8.31255 4.64573 -2.55159 0.000486672 4
-10.3739 5.7978 -2.74367 0.000299733 1
-12.3399 6.89652 -2.74781 0.000162219 1
-15.1898 8.48929 -2.75606 7.5083e-05 1
-23.0462 12.8801 -2.3098 0.00016387 10
-23.0385 12.8758 -1.38316 0.000165601 10
-23.0479 12.881 -0.460869 0.000166454 10
-23.0332 12.8728 0.460575 0.000166419 10
-23.0461 12.88 1.38362 0.000165497 10
-21.7637 12.1633 2.18127 0.000102217 10
-28.1358 15.7246 5.105 9.95763e-05 10
-28.1545 15.735 6.26937 9.6713e-05 10
-25.7867 14.4117 6.82001 3.43756e-05 10
-23.0538 12.8844 7.07653 0.000142699 10
-8.33997 4.62292 -2.55504 0.000341385 4
-10.4098 5.77022 -2.7478 0.000299719 1
-12.3667 6.85497 -2.74844 0.00016221 1
-15.2186 8.43579 -2.75592 7.50777e-05 1
-23.1499 12.8322 -2.3157 0.000162704 10
-23.1488 12.8316 -1.38709 0.000164424 10
-23.1512 12.8329 -0.462036 0.000165272 10
-23.1577 12.8365 0.462165 0.000165238 10
-23.1538 12.8343 1.38739 0.000164321 10
-21.9245 12.153 2.19312 0.000100808 10
-28.3846 15.7338 5.14015 9.75016e-05 10
-28.3678 15.7245 6.30462 9.46916e-05 10
-25.8388 14.3227 6.82052 3.43775e-05 10
-23.1567 12.836 7.09432 0.000141663 10
-8.3453 4.58787 -2.55175 0.000486637 4
-10.4238 5.73053 -2.74621 0.000299706 1
-12.4082 6.82148 -2.75236 0.000162201 1
-15.2523 8.38501 -2.75671 7.50725e-05 1
-23.2845 12.8008 -2.32468 0.000141464 10
-23.2807 12.7987 -1.39231 0.000142957 10
-23.2755 12.7958 -0.463623 0.000143692 10
-23.2862 12.8017 0.463836 0.000143658 10
-23.2699 12.7928 1.39166 0.000142856 10
-22.0682 12.1321 2.20324 9.20517e-05 10
-28.6049 15.7257 5.17007 9.54444e-05 10
-28.6032 15.7248 6.3447 9.26874e-05 10
-25.8983 14.2377 6.82305 3.43793e-05 10
-23.2794 12.798 7.11816 0.000123121 10
-8.36686 4.56176 -2.55346 0.000457567 4
-10.4464 5.69559 -2.74693 0.000299693 1
-12.429 6.77652 -2.75171 0.000162192 1
-15.2905 8.33667 -2.75835 7.50673e-05 1
-23.3938 12.7547 -2.33113 0.000140872 10
-23.3714 12.7425 -1.39507 0.00014236 10
-23.3965 12.7562 -0.465143 0.000143092 10
-23.3901 12.7527 0.465015 0.000143059 10
-23.3986 12.7573 1.39669 0.00014226 10
-22.2132 12.111 2.21348 9.10827e-05 10
-28.837 15.7224 5.20207 9.34047e-05 10
-28.854 15.7317 6.38811 9.07006e-05 10
-25.9379 14.1418 6.82045 3.43812e-05 10
-23.3816 12.7481 7.13577 0.000122592 10
-8.39209 4.53759 -2.55631 0.000490233 4
-10.4609 5.65618 -2.74551 0.00029968 1
-12.4403 6.72645 -2.749 0.000162184 1
-15.3112 8.27873 -2.75684 7.50621e-05 1
-23.489 12.7004 -2.33618 0.000140267 10
-23.5016 12.7073 -1.40018 0.000141751 10
-23.4913 12.7017 -0.466144 0.00014248 10
-23.4792 12.6952 0.465904 0.000142447 10
-23.5025 12.7077 1.40023 0.00014165 10
-22.3395 12.0789 2.22186 9.01111e-05 10
-28.8766 15.6135 5.19936 5.1463e-05 10
-28.883 15.617 6.38243 4.99644e-05 10
-26.0025 14.0595 6.82449 3.43831e-05 10
-23.4933 12.7028 7.15629 0.000122051 10
-8.40679 4.50768 -2.55598 0.000290498 4
-10.4818 5.6203 -2.74584 0.000299667 1
-12.4664 6.68443 -2.74959 0.000162175 1
-15.3465 8.22874 -2.75802 7.50571e-05 1
-23.5924 12.6502 -2.34207 0.00013965 10
-23.5868 12.6472 -1.40262 0.000141128 10
-23.5981 12.6532 -0.467383 0.000141855 10
-23.5922 12.6501 0.467267 0.000141822 10
-23.5958 12.652 1.40316 0.000141028 10
-22.4704 12.0485 2.23068 8.91376e-05 10
-28.8855 15.4883 5.1912 5.15011e-05 10
-28.8653 15.4774 6.36653 5.00024e-05 10
-26.0331 13.9588 6.81969 3.43849e-05 10
-23.5971 12.6527 7.1744 0.0001215 10
-8.40869 4.47098 -2.5518 0.000388527 4
-10.512 5.58935 -2.74863 0.000299654 1
-12.492 6.6421 -2.7501 0.000162167 1
-15.3739 8.17445 -2.75779 7.50519e-05 1
-23.6956 12.5992 -2.34793 0.000121159 10
-23.6938 12.5982 -1.40636 0.00012244 10
-23.7003 12.6017 -0.468533 0.000123069 10
-23.7064 12.6049 0.468653 0.000123037 10
-23.6904 12.5964 1.40616 0.000122346 10
-22.603 12.0182 2.23967 7.96151e-05 10
-28.8616 15.346 5.17724 5.15331e-05 10
-28.8854 15.3587 6.35911 5.00345e-05 10
-26.0975 13.8763 6.82382 3.43867e-05 10
-23.699 12.601 7.19195 0.000105378 10
-8.42001 4.43937 -2.55051 0.000555538 4
-10.5247 5.54905 -2.74686 0.000299641 1
-12.5054 6.59333 -2.74796 0.000162158 1
-15.3857 8.11199 -2.75482 7.50469e-05 1
-23.7879 12.5419 -2.35272 0.000120929 10
-23.7846 12.5402 -1.40914 0.000122208 10
-23.802 12.5494 -0.469674 0.000122836 10
-23.7884 12.5422 0.469406 0.000122804 10
-23.8111 12.5542 1.41071 0.000122114 10
-22.726 11.982 2.24769 7.90104e-05 10
-28.8849 15.2293 5.17185 5.1559e-05 10
-28.8799 15.2266 6.34615 5.00607e-05 10
-26.1386 13.7813 6.82196 3.43886e-05 10
-23.8152 12.5563 7.21389 0.000105167 10
-8.45308 4.41916 -2.55584 0.000304991 4
-10.5413 5.51085 -2.74615 0.000299629 1
-12.5385 6.55499 -2.75021 0.00016215 1
-15.415 8.05878 -2.75501 7.5042e-05 1
-23.8852 12.4869 -2.35802 0.000120685 10
-23.8856 12.4871 -1.41253 0.000121963 10
-23.9027 12.496 -0.470798 0.00012259 10
-23.8943 12.4916 0.470632 0.000122559 10
-23.8922 12.4906 1.41292 0.000121869 10
-22.8414 11.9412 2.25497 7.84008e-05 10
-28.874 15.095 5.16043 5.15787e-05 10
-28.8769 15.0965 6.33387 5.00809e-05 10
-26.1774 13.6852 6.81958 3.43904e-05 10
-23.8921 12.4905 7.22392 0.000104945 10
-8.46057 4.38555 -2.55346 0.000428424 4
-10.5709 5.47945 -2.74887 0.000299616 1
-12.5611 6.51106 -2.75015 0.000162141 1
-15.4401 8.0034 -2.75448 7.5037e-05 1
-23.9741 12.427 -2.3625 0.00012043 10
-23.9935 12.437 -1.41634 0.000121705 10
-23.9957 12.4382 -0.471772 0.000122332 10
-23.9992 12.44 0.471841 0.0001223 10
-23.9867 12.4335 1.41594 0.000121612 10
-22.9548 11.8986 2.26205 6.84892e-05 10
-28.8629 14.9611 5.14909 5.15922e-05 10
-28.8616 14.9605 6.31903 5.0095e-05 10
-26.2231 13.5928 6.81907 3.43922e-05 10
-24.0103 12.4457 7.24648 0.000104713 10
-8.4854 4.36091 -2.55635 0.00049376 4
-10.5694 5.43194 -2.74353 0.000299604 1
-12.573 6.46164 -2.7478 0.000162133 1
-15.4667 7.94879 -2.75425 7.50321e-05 1
-24.0911 12.3812 -2.36976 0.000107171 10
-24.0924 12.3818 -1.41961 0.000108306 10
-24.0773 12.3741 -0.472525 0.000108862 10
-24.0922 12.3817 0.472817 0.000108832 10
-24.0758 12.3733 1.41864 0.000108218 10
-23.0645 11.8536 2.26877 6.81646e-05 10
-28.8635 14.8339 5.13993 5.15996e-05 10
-28.8789 14.8418 6.31143 5.01032e-05 10
-26.2861 13.5092 6.82315 3.43939e-05 10
-24.0819 12.3764 7.25501 9.31619e-05 10
-8.48339 4.32251 -2.55118 0.000341264 4
-10.5895 5.39564 -2.74385 0.000299592 1
-12.6001 6.42009 -2.74882 0.000162125 1
-15.5059 7.90065 -2.75631 7.50272e-05 1
-24.1775 12.3191 -2.37401 0.000107138 10
-24.1648 12.3126 -1.42134 0.000108273 10
-24.1705 12.3155 -0.473508 0.000108829 10
-24.1668 12.3136 0.473433 0.0001088 10
-24.1686 12.3145 1.42156 0.000108185 10
-23.1622 11.8017 2.27431 6.78342e-05 10
-28.8701 14.7101 5.13193 5.16007e-05 10
-28.8846 14.7175 6.30142 5.01053e-05 10
-26.3291 13.4154 6.82213 3.43957e-05 10
-24.1681 12.3142 7.26797 9.31251e-05 10
-8.49982 4.29357 -2.5516 0.000406598 4
-10.6252 5.3672 -2.74823 0.000299579 1
-12.6355 6.38266 -2.75166 0.000162117 1
-15.5387 7.84919 -2.75727 7.50224e-05 1
-24.2586 12.2539 -2.37775 0.000107093 10
-24.2654 12.2573 -1.42473 0.000108228 10
-24.2497 12.2494 -0.474218 0.000108784 10
-24.2561 12.2527 0.474343 0.000108755 10
-24.2657 12.2575 1.42475 0.00010814 10
-23.2625 11.7507 2.28012 5.91097e-05 10
-28.8656 14.5811 5.12204 5.15956e-05 10
-28.8722 14.5844 6.28756 5.01013e-05 10
-26.3711 13.321 6.82092 3.43974e-05 10
-24.2828 12.2661 7.28956 9.30779e-05 10
-8.52875 4.27088 -2.55579 0.000522752 4
-10.6483 5.33228 -2.74937 0.000299567 1
-12.6607 6.34002 -2.75232 0.000162109 1
-15.5622 7.79298 -2.75659 7.50176e-05 1
-24.3486 12.1929 -2.38239 0.000107035 10
-24.3615 12.1993 -1.42786 0.000108171 10
-24.3619 12.1995 -0.475577 0.000108727 10
-24.3399 12.1885 0.475147 0.000108698 10
-24.3483 12.1927 1.42709 0.000108083 10
-23.3467 11.6912 2.28436 5.89698e-05 10
-28.873 14.4585 5.11438 5.15842e-05 10
-28.8798 14.4619 6.27818 5.00912e-05 10
-26.4277 13.234 6.82356 3.43991e-05 10
-24.3627 12.1999 7.30072 9.30202e-05 10
-8.53045 4.23455 -2.55186 0.000105273 4
-9.90348 4.91613 -2.55261 0.00033599 4
-12.6736 6.29123 -2.75032 0.000162101 1
-15.582 7.73495 -2.75528 7.50129e-05 1
-24.4477 12.1359 -2.38793 0.000106966 10
-24.4418 12.133 -1.43008 0.000108102 10
-24.453 12.1386 -0.476524 0.000108659 10
-24.4478 12.136 0.476424 0.000108629 10
-24.4479 12.1361 1.43044 0.000108014 10
-23.4441 11.6378 2.28991 5.8824e-05 10
-28.8764 14.3344 5.10607 5.15666e-05 10
-28.8712 14.3318 6.26541 5.00751e-05 10
-26.4755 13.1426 6.82403 3.44008e-05 10
-8.55873 4.21142 -2.5559 0.000206909 4
-9.92296 4.8827 -2.55322 0.000283275 4
-12.703 6.25067 -2.75196 0.000162093 1
-15.6156 7.68385 -2.75648 7.50082e-05 1
-24.5353 12.0729 -2.39236 0.00010662 10
-24.521 12.0658 -1.43224 0.000107752 10
-24.5221 12.0664 -0.477048 0.000108307 10
-24.5328 12.0716 0.477256 0.000108278 10
-24.5406 12.0755 1.43339 0.000107665 10
-23.5493 11.5877 2.29621 5.25601e-05 10
-26.3269 12.9545 4.64724 0.000147812 10
-26.3396 12.9607 5.70615 0.000143644 10
-26.3272 12.9546 6.77409 0.000138779 10
-8.55626 4.17317 -2.5508 0.000275869 4
-9.94589 4.85094 -2.55475 0.000287655 4
-12.7223 6.2051 -2.75143 0.000162085 1
