VERSION 0.7
FIELDS x y z intensity label
SIZE 4 4 4 4 4
TYPE F F F F F
COUNT 1 1 1 1 1
WIDTH 1175
HEIGHT 1
VIEWPOINT 17.0274 44.9972 2.72756 0.999999 -8.92039e-05 0.000756979 -0.000929271
POINTS 1175
DATA ascii
5.21702 -5.18072 -0.385321 0.00519712 10
5.22765 -5.19128 -0.128597 0.00521995 10
5.21772 -5.18143 0.128353 0.00522127 10
5.23149 -5.19509 0.38639 0.00520107 10
5.23054 -5.19415 0.644915 0.00515955 10
5.22667 -5.1903 0.904426 0.00509709 10
5.12324 -5.08759 1.14357 0.00616755 10
5.13142 -5.09572 1.40571 0.00604017 10
5.12661 -5.09095 1.66801 0.00589004 10
5.12739 -5.09172 1.93621 0.00571855 10
5.15509 -5.08361 -1.93996 0.00725056 10
5.16702 -5.09538 -1.67536 0.0074676 10
5.22774 -5.15525 -1.42715 0.00495611 10
5.23102 -5.15849 -1.1636 0.00506198 10
5.22453 -5.15208 -0.900938 0.00514819 10
5.21836 -5.14601 -0.641195 0.0052139 10
5.21486 -5.14255 -0.383833 0.00525851 10
5.2164 -5.14407 -0.127878 0.00528159 10
5.21669 -5.14435 0.127885 0.00528292 10
5.21244 -5.14017 0.383655 0.00526249 10
5.22723 -5.15475 0.642285 0.00522049 10
5.22571 -5.15325 0.901142 0.00515732 10
5.15867 -5.08714 1.1475 0.00609462 10
5.16758 -5.09592 1.41073 0.0059687 10
5.152 -5.08056 1.67049 0.00582028 10
5.15058 -5.07916 1.93826 0.00565075 10
5.20187 -5.09405 -1.95086 0.00716398 10
5.19077 -5.08317 -1.6773 0.00737852 10
5.21791 -5.10976 -1.41959 0.00501436 10
5.22812 -5.11976 -1.15897 0.00512143 10
5.21666 -5.10853 -0.896501 0.0052086 10
5.22135 -5.11312 -0.639365 0.00527506 10
5.22637 -5.11804 -0.383363 0.00532017 10
5.22383 -5.11555 -0.127622 0.00534351 10
5.22 -5.1118 0.127528 0.00534485 10
5.21211 -5.10408 0.382317 0.00532417 10
5.22976 -5.12136 0.640395 0.00528169 10
5.22471 -5.11641 0.897883 0.00521781 10
5.18568 -5.0782 1.14956 0.00602202 10
5.19185 -5.08424 1.4125 0.00589755 10
5.19237 -5.08475 1.67782 0.00575084 10
5.19028 -5.0827 1.94651 0.00558327 10
5.23734 -5.09309 -1.95748 0.00707781 10
5.23242 -5.08831 -1.68501 0.00728985 10
5.22446 -5.08057 -1.41654 0.00493771 10
5.2324 -5.08829 -1.15598 0.00504166 10
5.22778 -5.08379 -0.895356 0.00512598 10
5.23949 -5.09519 -0.639405 0.0051899 10
5.22812 -5.08413 -0.382188 0.00523279 10
5.23257 -5.08845 -0.127401 0.00525427 10
5.23071 -5.08665 0.127355 0.00525411 10
5.23831 -5.09404 0.382933 0.00523233 10
5.2274 -5.08343 0.637929 0.00518912 10
5.22835 -5.08435 0.895454 0.0051249 10
5.22956 -5.08553 1.15535 0.00594976 10
5.22357 -5.0797 1.4163 0.00582673 10
5.22453 -5.08064 1.68247 0.00568172 10
5.23207 -5.08797 1.95551 0.0055161 10
5.2744 -5.09343 -1.96468 0.00699204 10
5.25988 -5.07941 -1.68813 0.0072016 10
5.26039 -5.0799 -1.42146 0.00487799 10
5.27579 -5.09478 -1.16163 0.00498072 10
5.27162 -5.09075 -0.899816 0.00506406 10
5.27091 -5.09006 -0.641066 0.00512723 10
5.27588 -5.09486 -0.384377 0.00516962 10
5.27165 -5.09078 -0.127919 0.00519084 10
5.26875 -5.08798 0.127848 0.00519069 10
5.26485 -5.08421 0.383573 0.00516916 10
5.27226 -5.09136 0.641231 0.00512645 10
5.27286 -5.09194 0.900028 0.00506299 10
5.2623 -5.08175 1.15865 0.00587783 10
5.27794 -5.09685 1.42621 0.00575624 10
5.26857 -5.0878 1.69092 0.00561293 10
5.2779 -5.09681 1.96598 0.00544925 10
5.29799 -5.08059 -1.96685 0.00690668 10
5.31276 -5.09475 -1.69938 0.00711377 10
5.30876 -5.09092 -1.42973 0.00481855 10
5.30707 -5.0893 -1.16459 0.00492007 10
5.31453 -5.09645 -0.904099 0.00500243 10
5.29458 -5.07732 -0.641787 0.00506485 10
5.3004 -5.0829 -0.384868 0.00510675 10
5.31288 -5.09487 -0.128487 0.00512772 10
5.30316 -5.08555 0.128252 0.00512757 10
5.2962 -5.07888 0.384563 0.00510629 10
5.30137 -5.08383 0.642609 0.00506409 10
5.30699 -5.08923 0.902816 0.00500136 10
5.30284 -5.08524 1.16366 0.00580625 10
5.29677 -5.07942 1.4265 0.00568609 10
5.29706 -5.0797 1.69436 0.00554447 10
5.30038 -5.08288 1.96773 0.00538271 10
5.33786 -5.08318 -1.97505 0.00682174 10
5.33535 -5.08079 -1.70093 0.00702638 10
5.33494 -5.08039 -1.43199 0.00720547 10
5.34125 -5.08641 -1.16819 0.00735735 10
5.34316 -5.08823 -0.905942 0.00748056 10
5.34567 -5.09061 -0.645821 0.00757395 10
5.35227 -5.0969 -0.38734 0.00763662 10
5.34415 -5.08917 -0.128813 0.007668 10
5.33831 -5.08361 0.128672 0.00766776 10
5.35008 -5.09481 0.387181 0.00763593 10
5.33955 -5.08479 0.645082 0.0075728 10
5.35213 -5.09677 0.907463 0.00747896 10
5.33794 -5.08326 1.16747 0.00573503 10
5.33997 -5.08519 1.43334 0.00561629 10
5.33443 -5.07992 1.70063 0.00547635 10
5.34561 -5.09056 1.97792 0.00531651 10
5.38781 -5.095 -1.98694 0.00673723 10
5.37252 -5.08054 -1.70711 0.00693942 10
5.38223 -5.08972 -1.43991 0.00711637 10
5.37828 -5.08599 -1.1724 0.00726643 10
5.3841 -5.0915 -0.909865 0.00738817 10
5.37486 -5.08276 -0.647201 0.00748045 10
5.38586 -5.09315 -0.388482 0.00754237 10
5.37569 -5.08354 -0.129144 0.00757337 10
5.38818 -5.09535 0.129444 0.00757314 10
5.38052 -5.08811 0.388097 0.00754168 10
5.37614 -5.08396 0.647354 0.0074793 10
5.38041 -5.08801 0.909242 0.00738659 10
5.37425 -5.08218 1.17152 0.00566415 10
5.37093 -5.07903 1.43688 0.00554683 10
5.38398 -5.09137 1.71075 0.00540856 10
5.37165 -5.07972 1.98098 0.00525063 10
5.4183 -5.08812 -1.99162 0.00665315 10
5.40868 -5.07909 -1.71296 0.0068529 10
5.4198 -5.08953 -1.4452 0.00702772 10
5.42183 -5.09144 -1.17801 0.00717597 10
5.41007 -5.08039 -0.91125 0.00729625 10
5.41922 -5.08899 -0.650399 0.00738741 10
5.41657 -5.0865 -0.389414 0.0074486 10
5.42591 -5.09527 -0.129923 0.00747922 10
5.41964 -5.08938 0.129772 0.00747899 10
5.42166 -5.09127 0.389779 0.00744791 10
5.40979 -5.08013 0.649267 0.00738628 10
5.40731 -5.07781 0.910786 0.00729468 10
5.41614 -5.0861 1.17678 0.00559363 10
5.40847 -5.0789 1.44218 0.00547773 10
5.41199 -5.0822 1.714 0.00534112 10
5.42017 -5.08988 1.99231 0.00518509 10
5.4639 -5.09517 -2.00183 0.00656949 10
5.46133 -5.09277 -1.72399 0.00676682 10
5.44528 -5.07781 -1.44726 0.00693952 10
5.46388 -5.09515 -1.18328 0.00708598 10
5.46527 -5.09645 -0.917547 0.00720479 10
5.46214 -5.09353 -0.653413 0.00729486 10
5.45653 -5.08829 -0.391007 0.0073553 10
5.46395 -5.09522 -0.130407 0.00738555 10
5.46101 -5.09248 0.130337 0.00738533 10
5.46044 -5.09194 0.391287 0.00735462 10
5.45064 -5.0828 0.652036 0.00729373 10
5.44877 -5.08106 0.914777 0.00720324 10
5.45983 -5.09137 1.1824 0.00552348 10
5.45865 -5.09027 1.45081 0.00540897 10
5.45348 -5.08546 1.72151 0.00527402 10
5.45002 -5.08223 1.99675 0.00511989 10
5.49153 -5.08521 -2.00544 0.00648628 10
5.4999 -5.09297 -1.73054 0.0066812 10
5.48332 -5.07761 -1.45264 0.00685179 10
5.50206 -5.09496 -1.18769 0.00699646 10
5.50029 -5.09332 -0.920435 0.00711382 10
5.50079 -5.09379 -0.655905 0.00720278 10
5.50221 -5.0951 -0.393004 0.00726249 10
5.48559 -5.07971 -0.130499 0.00729237 10
5.48421 -5.07844 0.130467 0.00729215 10
5.49599 -5.08934 0.392559 0.00726182 10
5.49419 -5.08768 0.655117 0.00720167 10
5.49142 -5.08511 0.918951 0.00711228 10
5.50244 -5.09532 1.18777 0.00545369 10
5.4836 -5.07787 1.45272 0.00534058 10
5.49764 -5.09087 1.72983 0.00520728 10
5.50244 -5.09532 2.00942 0.00505503 10
5.52995 -5.08506 -2.01298 0.00640352 10
5.53028 -5.08536 -1.73451 0.00659603 10
5.52272 -5.0784 -1.45838 0.00676453 10
5.531 -5.08602 -1.19009 0.00690742 10
5.53066 -5.0857 -0.92254 0.00702334 10
5.52697 -5.08231 -0.656907 0.00711121 10
5.52153 -5.07731 -0.393116 0.00717018 10
5.53406 -5.08883 -0.131229 0.00719969 10
5.53652 -5.09109 0.131287 0.00719947 10
5.53258 -5.08747 0.393902 0.00716951 10
5.53829 -5.09273 0.658253 0.0071101 10
5.52317 -5.07881 0.921291 0.00702181 10
5.54048 -5.09474 1.19213 0.00538428 10
5.53418 -5.08894 1.4614 0.00527256 10
5.52421 -5.07977 1.7326 0.00514089 10
5.52884 -5.08403 2.01257 0.00499051 10
5.57675 -5.09227 -2.02353 0.0063212 10
5.57203 -5.08797 -1.74202 0.00651133 10
5.56399 -5.08063 -1.46459 0.00667773 10
5.57783 -5.09326 -1.19634 0.00681885 10
5.56302 -5.07974 -0.924976 0.00693334 10
5.56684 -5.08322 -0.659532 0.00702012 10
5.56703 -5.0834 -0.395089 0.00707835 10
5.5634 -5.08008 -0.131503 0.0071075 10
5.56121 -5.07808 0.131452 0.00710728 10
5.56274 -5.07948 0.394784 0.00707769 10
5.56918 -5.08537 0.65981 0.00701902 10
5.57213 -5.08806 0.92649 0.00693182 10
5.56057 -5.0775 1.19264 0.00531523 10
5.57273 -5.0886 1.46688 0.0052049 10
5.5671 -5.08346 1.74048 0.00507486 10
5.55809 -5.07524 2.01676 0.00195012 10
5.61811 -5.09419 -2.03207 0.00623933 10
5.61107 -5.08781 -1.74866 0.00642708 10
5.60521 -5.0825 -1.47076 0.00659141 10
5.60195 -5.07954 -1.1977 0.00673077 10
5.61452 -5.09094 -0.930578 0.00684383 10
5.6055 -5.08276 -0.662008 0.00692953 10
5.60073 -5.07843 -0.39622 0.00698704 10
5.62011 -5.096 -0.132423 0.00701583 10
5.60417 -5.08155 0.132047 0.00701561 10
5.61061 -5.0874 0.39692 0.00698638 10
5.61076 -5.08753 0.662629 0.00692844 10
5.6185 -5.09455 0.931238 0.00684233 10
5.61889 -5.0949 1.20132 0.00524657 10
5.60384 -5.08125 1.4704 0.00513761 10
5.61784 -5.09395 1.75077 0.0050092 10
5.59396 -5.07229 2.02334 0.00195002 10
5.65761 -5.09414 -2.03992 0.00615792 10
5.65426 -5.09112 -1.75657 0.00634331 10
5.64479 -5.08259 -1.47648 0.00650557 10
5.65554 -5.09227 -1.20535 0.00664317 10
5.64573 -5.08344 -0.932804 0.00675482 10
5.6575 -5.09403 -0.666044 0.00683943 10
5.63916 -5.07752 -0.397683 0.00689622 10
5.64605 -5.08372 -0.132615 0.00692465 10
5.65281 -5.08981 0.132774 0.00692443 10
5.64683 -5.08443 0.398224 0.00689558 10
5.63885 -5.07724 0.663848 0.00683836 10
5.64431 -5.08216 0.93257 0.00675332 10
5.65972 -5.09603 1.20624 0.00517828 10
5.65042 -5.08766 1.47795 0.00507069 10
5.65014 -5.08741 1.75529 0.0049439 10
5.60142 -5.04354 2.01965 0.00194992 10
5.68082 -5.07924 -2.04188 0.00607697 10
5.6987 -5.09523 -1.76484 0.00626001 10
9.73061 -8.70017 -2.53722 0.000481672 10
11.921 -10.6586 -2.53275 0.000228732 10
14.7442 -13.1828 -2.42846 0.000580455 10
14.74 -13.1791 -1.72988 0.000589306 10
23.1602 -20.7076 -1.62819 0.000119562 10
23.2222 -20.763 -0.54374 8.78719e-05 10
23.2068 -20.7493 0.54338 8.79008e-05 10
21.0669 -18.836 1.48103 0.000145496 10
9.06733 -8.10713 1.06414 0.000272876 10
6.4446 -5.76214 1.06147 0.000906095 10
5.69048 -5.08788 1.209 0.00511039 10
5.6946 -5.09156 1.48485 0.00500416 10
5.68755 -5.08526 1.76139 0.00487897 10
5.62085 -5.02562 2.02032 0.00194982 10
5.73045 -5.08773 -2.05332 0.00599649 10
5.71798 -5.07666 -1.76531 0.00617719 10
9.75211 -8.65833 -2.53493 0.000481709 10
11.9597 -10.6183 -2.53307 0.000228754 10
14.7594 -13.104 -2.42342 0.000587835 10
14.7524 -13.0978 -1.72595 0.00059679 10
14.7421 -13.0886 -1.03317 0.000398216 10
14.737 -13.0841 -0.343991 0.000400295 10
14.7412 -13.0879 0.344088 0.000400409 10
14.7379 -13.0849 1.03287 0.000398558 10
9.09261 -8.0728 1.06379 0.000272831 10
6.45688 -5.73269 1.06019 0.000905992 10
5.72971 -5.08707 1.21356 0.00504288 10
5.72373 -5.08177 1.48781 0.00493801 10
5.71917 -5.07771 1.76568 0.00540541 10
5.62866 -4.99736 2.01685 0.00194972 10
5.76107 -5.07907 -2.05793 0.00591649 10
5.76893 -5.08599 -1.77555 0.00609486 10
9.78808 -8.62935 -2.53644 0.000481745 10
11.9985 -10.5781 -2.53345 0.000228776 10
14.7397 -12.9948 -2.41272 0.000595249 10
14.7485 -13.0026 -1.72019 0.00060431 10
14.8275 -13.0722 -1.03595 0.000350526 10
14.841 -13.0841 -0.34535 0.000352244 10
14.8427 -13.0856 0.345388 0.00035223 10
14.8388 -13.0822 1.03674 0.000350487 10
9.12815 -8.04755 1.06465 0.000272785 10
6.487 -5.71906 1.06185 0.00090589 10
5.72232 -5.0449 1.20826 0.00571878 10
5.73948 -5.06003 1.4873 0.00560146 10
5.72425 -5.0466 1.7618 0.00546287 10
5.6454 -4.97709 2.01661 0.00194962 10
5.81294 -5.08884 -2.0701 0.00583695 10
5.81967 -5.09473 -1.78569 0.00601301 10
9.81459 -8.59202 -2.53552 0.000481781 10
12.0359 -10.5366 -2.53357 0.000228798 10
14.7541 -12.9162 -2.40768 0.000602698 10
14.7502 -12.9128 -1.71511 0.000611864 10
21.0886 -18.4617 -1.46888 0.000128378 10
21.0874 -18.4606 -0.489201 0.000129121 10
21.0815 -18.4555 0.489064 0.000129161 10
21.0762 -18.4508 1.46802 0.000151686 10
9.14736 -8.00791 1.06363 0.00027274 10
6.49268 -5.68391 1.05952 0.000905788 10
5.72506 -5.01191 1.20513 0.00577902 10
5.73449 -5.02016 1.48146 0.00566051 10
5.72391 -5.0109 1.7563 0.0055205 10
5.68011 -4.97256 2.02279 0.00194952 10
5.85679 -5.09123 -2.07937 0.0057579 10
5.84974 -5.0851 -1.78945 0.00593166 10
9.84813 -8.56085 -2.53645 0.000481817 10
12.0527 -10.4773 -2.5294 0.00022882 10
14.7535 -12.825 -2.40026 0.000610181 10
14.7388 -12.8123 -1.70858 0.000619453 10
14.737 -12.8107 -1.02335 0.000413327 10
14.7561 -12.8273 -0.341283 0.000415479 10
14.7358 -12.8096 0.340811 0.000415596 10
14.7353 -12.8092 1.02323 0.000413677 10
9.18485 -7.98427 1.06474 0.000272694 10
6.51242 -5.66116 1.05951 0.000905687 10
5.73228 -4.983 1.20299 0.00583945 10
5.72848 -4.97969 1.47541 0.00571974 10
5.72911 -4.98024 1.75255 0.00557831 10
5.68029 -4.9378 2.01671 0.00194942 10
5.90298 -5.09531 -2.08944 0.00567934 10
5.88187 -5.0771 -1.79385 0.00585082 10
9.86242 -8.51302 -2.53246 0.000481853 10
12.1072 -10.4507 -2.53316 0.000228842 10
14.7396 -12.7229 -2.39076 0.000617696 10
14.7487 -12.7307 -1.70456 0.000627075 10
14.8308 -12.8016 -1.02676 0.000355797 10
14.8335 -12.804 -0.342037 0.000357536 10
14.8453 -12.8141 0.342308 0.000357522 10
14.8295 -12.8005 1.02667 0.000355756 10
9.21349 -7.95288 1.06484 0.000272649 10
6.53211 -5.63837 1.05951 0.000905585 10
5.73812 -4.95301 1.20057 0.00590006 10
5.73408 -4.94953 1.47239 0.00577914 10
5.73676 -4.95184 1.7496 0.00563629 10
5.69657 -4.91715 2.01638 0.00194932 10
5.94306 -5.09382 -2.09733 0.00560126 10
5.93074 -5.08326 -1.80333 0.00577047 10
9.88779 -8.47486 -2.53136 0.000481889 10
12.129 -10.3958 -2.53012 0.000228864 10
14.7448 -12.6378 -2.38443 0.000625246 10
14.7428 -12.6361 -1.69877 0.000634731 10
21.1208 -18.1027 -1.45784 0.000114141 10
21.1282 -18.109 -0.48572 0.000114759 10
21.1253 -18.1065 0.485653 0.000114754 10
21.0718 -18.0607 1.45446 0.000157982 10
9.24821 -7.92668 1.06564 0.000272604 10
6.56212 -5.62442 1.06118 0.000905485 10
5.73098 -4.91205 1.19549 0.00596084 10
5.73021 -4.91138 1.46698 0.00583872 10
5.73103 -4.91209 1.74261 0.00569444 10
5.73284 -4.91364 2.02314 0.00194923 10
5.96745 -5.0787 -2.09966 0.00552368 10
5.98516 -5.09377 -1.81446 0.00569062 10
9.92046 -8.44298 -2.53217 0.000481924 10
12.1771 -10.3635 -2.53259 0.000228885 10
14.741 -12.5456 -2.37672 0.000632827 10
14.7437 -12.5479 -1.69381 0.00064242 10
14.7392 -12.544 -1.01432 0.00042864 10
14.7456 -12.5495 -0.337981 0.000430865 10
14.7362 -12.5415 0.337764 0.000430986 10
14.7538 -12.5565 1.01533 0.000429 10
9.266 -7.88598 1.06452 0.000272559 10
6.59079 -5.60921 1.06265 0.000905384 10
5.73793 -4.88336 1.19337 0.0060218 10
5.73014 -4.87673 1.4626 0.00589846 10
5.73157 -4.87795 1.73758 0.00575275 10
5.73318 -4.87932 2.01723 0.00558605 10
6.02518 -5.09167 -2.11371 0.00544659 10
6.02913 -5.09502 -1.82239 0.00561129 10
9.95893 -8.41595 -2.53447 0.00048196 10
12.211 -10.3191 -2.53214 0.000228907 10
14.7437 -12.4594 -2.37013 0.00064044 10
14.7428 -12.4587 -1.68871 0.000650141 10
14.8356 -12.5371 -1.01795 0.000361228 10
14.8339 -12.5356 -0.338999 0.000362989 10
14.8343 -12.536 0.33901 0.000362975 10
14.8317 -12.5338 1.01768 0.000361187 10
9.30189 -7.86071 1.06548 0.000272515 10
6.59999 -5.57742 1.06099 0.000905284 10
5.7379 -4.8489 1.18984 0.00608292 10
5.73844 -4.84936 1.46039 0.00595837 10
5.7294 -4.84172 1.73179 0.00581123 10
5.73198 -4.8439 2.01085 0.00564289 10
6.05339 -5.0794 -2.11737 0.00537 10
6.05918 -5.08426 -1.8261 0.00553247 10
9.98195 -8.37585 -2.53287 0.000481995 10
12.2314 -10.2634 -2.52892 0.000228928 10
14.7468 -12.374 -2.36367 0.000648085 10
14.7578 -12.3833 -1.68546 0.000657893 10
21.2549 -17.835 -1.45412 0.0001138 10
24.8225 -20.8286 -0.565606 7.79056e-05 10
24.8303 -20.8351 0.565781 7.79308e-05 10
21.063 -17.674 1.441 0.000164379 10
9.32151 -7.82168 1.06459 0.00027247 10
6.62279 -5.55718 1.06153 0.000905184 10
5.72615 -4.80482 1.18392 0.0061442 10
5.73716 -4.81405 1.45578 0.00601844 10
5.71905 -4.79885 1.72359 0.00586986 10
5.72697 -4.8055 2.0032 0.00569987 10
6.10945 -5.0902 -2.13075 0.00529392 10
6.10107 -5.08322 -1.83336 0.00545417 10
10.0206 -8.34888 -2.53528 0.00048203 10
12.2784 -10.23 -2.53124 0.00022895 10
14.7578 -12.2957 -2.35854 0.00065576 10
14.7446 -12.2847 -1.67905 0.000665676 10
14.7472 -12.2869 -1.00597 0.000444146 10
14.7493 -12.2886 -0.335097 0.000446446 10
14.7527 -12.2915 0.335174 0.000446569 10
14.7351 -12.2768 1.00514 0.000444515 10
9.34618 -7.78695 1.0643 0.000272425 10
6.64695 -5.53803 1.06229 0.000905085 10
5.72438 -4.76937 1.1801 0.00620564 10
5.72169 -4.76713 1.44762 0.00607865 10
5.73988 -4.78229 1.72483 0.00592864 10
5.72933 -4.7735 1.99818 0.005757 10
6.15604 -5.09272 -2.14079 0.00521834 10
6.1414 -5.08061 -1.84014 0.00537639 10
10.037 -8.3033 -2.53206 0.000482066 10
12.3228 -10.1943 -2.53304 0.000228971 10
14.7603 -12.2108 -2.35212 0.000663465 10
14.7478 -12.2004 -1.67455 0.00067349 10
14.8366 -12.2739 -1.00914 0.000366836 10
14.836 -12.2734 -0.336091 0.00036862 10
14.8278 -12.2667 0.335907 0.000368606 10
14.8247 -12.264 1.00832 0.000366794 10
9.37252 -7.75362 1.06421 0.000272381 10
6.65138 -5.5025 1.05993 0.000904986 10
5.7281 -4.7387 1.17745 0.00626723 10
5.72604 -4.73699 1.44453 0.00613902 10
5.73544 -4.74477 1.7185 0.00598757 10
5.72772 -4.73838 1.99184 0.00581428 10
6.20065 -5.09327 -2.15011 0.00514328 10
6.19779 -5.09092 -1.8517 0.00529914 10
10.0753 -8.27593 -2.53443 0.000482101 10
12.3427 -10.1384 -2.52984 0.000228992 10
14.7443 -12.1111 -2.34282 0.000671199 10
14.7538 -12.1189 -1.67042 0.000681333 10
21.0681 -17.3055 -1.42886 0.000144622 10
21.0805 -17.3157 -0.476182 0.00014545 10
21.0792 -17.3147 0.476153 0.000145495 10
21.0735 -17.31 1.42923 0.000170874 10
9.40663 -7.72669 1.06502 0.000272337 10
6.68773 -5.49337 1.06266 0.000904887 10
5.74568 -4.71956 1.17767 0.00516282 10
5.74964 -4.72281 1.44632 0.00505581 10
5.74515 -4.71912 1.71647 0.00492968 10
5.76071 -4.7319 1.99755 0.00478562 10
6.23953 -5.08884 -2.15742 0.00506873 10
6.22746 -5.07899 -1.85526 0.00522241 10
10.1123 -8.24736 -2.53647 0.000482136 10
12.3928 -10.1073 -2.53285 0.000229013 10
14.7542 -12.0332 -2.3377 0.000678962 10
14.7407 -12.0222 -1.66418 0.000689205 10
14.743 -12.0241 -0.997036 0.000459834 10
14.752 -12.0314 -0.332279 0.000462208 10
14.7384 -12.0204 0.331972 0.000462335 10
14.7492 -12.0292 0.997458 0.000460211 10
9.42875 -7.6899 1.06447 0.000272293 10
6.7085 -5.47132 1.06292 0.000904788 10
5.79358 -4.72513 1.1841 0.00508885 10
5.80158 -4.73165 1.45522 0.00498331 10
5.8047 -4.7342 1.72931 0.00485893 10
5.79941 -4.72989 2.00524 0.00471687 10
6.29021 -5.09371 -2.16878 0.00499471 10
6.2695 -5.07694 -1.86249 0.00514623 10
10.1316 -8.2044 -2.53412 0.000482171 10
12.4175 -10.0555 -2.53073 0.000229034 10
14.7529 -11.9467 -2.33087 0.000686753 10
14.7548 -11.9482 -1.66106 0.000697105 10
14.8133 -11.9956 -0.998952 0.000372638 10
14.8288 -12.0081 -0.333062 0.000374446 10
14.8266 -12.0064 0.333013 0.000374431 10
14.8077 -11.991 0.998574 0.000372595 10
9.47074 -7.66926 1.06619 0.000272249 10
6.73087 -5.45056 1.06344 0.00090469 10
5.83174 -4.72245 1.18852 0.00501538 10
5.82698 -4.7186 1.45745 0.00491131 10
5.83559 -4.72557 1.73359 0.00478866 10
5.83851 -4.72793 2.01304 0.00464859 10
6.31474 -5.07718 -2.17111 0.0049212 10
6.3242 -5.08479 -1.87346 0.00507058 10
10.1516 -8.16211 -2.53199 0.000482205 10
12.4412 -10.003 -2.52842 0.000229055 10
14.7479 -11.8577 -2.32354 0.000694572 10
14.7542 -11.8627 -1.65631 0.000705034 10
14.9193 -11.9954 -1.00327 0.000366261 10
14.9268 -12.0014 -0.33432 0.000368041 10
14.9136 -11.9908 0.334023 0.000368026 10
21.0708 -16.9414 1.41694 0.000177461 10
9.48376 -7.62514 1.06465 0.000272206 10
6.7406 -5.41958 1.06198 0.000904592 10
5.88615 -4.73259 1.19624 0.00494241 10
5.87654 -4.72486 1.46571 0.00483981 10
5.8848 -4.7315 1.74329 0.00471889 10
5.88956 -4.73533 2.02493 0.00458078 10
6.38016 -5.09322 -2.18748 0.00484823 10
6.35959 -5.0768 -1.87868 0.00499547 10
6.57816 -5.25127 -1.63612 0.00147518 10
12.4809 -9.96339 -2.52941 0.000229076 10
14.7562 -11.7797 -2.31834 0.000702417 10
14.747 -11.7724 -1.65088 0.000712989 10
14.7413 -11.7678 -0.988533 0.000475691 10
14.7549 -11.7787 -0.329546 0.000478141 10
14.7369 -11.7643 0.329146 0.00047827 10
14.7369 -11.7643 0.98824 0.000476078 10
9.52069 -7.60027 1.06581 0.000272162 10
6.7638 -5.39947 1.06266 0.000904495 10
5.92773 -4.73205 1.20133 0.00486996 10
5.92787 -4.73215 1.47438 0.00476881 10
5.92644 -4.73102 1.75072 0.0046496 10
5.92783 -4.73213 2.03239 0.00451345 10
6.4089 -5.07963 -2.19124 0.00477578 10
6.41386 -5.08357 -1.88946 0.0049209 10
6.61001 -5.23903 -1.63949 0.00147528 10
12.5265 -9.92839 -2.53161 0.000229097 10
14.743 -11.6852 -2.30985 0.000710289 10
14.7461 -11.6876 -1.6462 0.000720971 10
14.8066 -11.7356 -0.99016 0.000378652 10
14.8018 -11.7318 -0.329678 0.000380485 10
14.7904 -11.7227 0.329423 0.00038047 10
14.8095 -11.7378 0.99035 0.000378607 10
9.55459 -7.57288 1.06664 0.000272119 10
6.76568 -5.36241 1.06001 0.000904397 10
5.95417 -4.71922 1.20334 0.00479803 10
5.95994 -4.72379 1.47825 0.00469832 10
5.97373 -4.73472 1.7598 0.00458081 10
5.96862 -4.73067 2.04071 0.00444661 10
6.45733 -5.08142 -2.20172 0.00470387 10
6.47015 -5.0915 -1.90079 0.00484688 10
6.61872 -5.20842 -1.63713 0.00147538 10
12.5643 -9.88715 -2.53226 0.000229118 10
14.7562 -11.612 -2.30555 0.000718186 10
14.7578 -11.6133 -1.64297 0.000728979 10
14.9149 -11.7369 -0.994658 0.000372049 10
14.897 -11.7228 -0.330885 0.000373852 10
14.9078 -11.7313 0.331124 0.000373837 10
14.8965 -11.7224 0.99343 0.000372005 10
9.5615 -7.52416 1.06447 0.000272075 10
6.79836 -5.34978 1.0622 0.000904301 10
6.01631 -4.73437 1.21255 0.00472661 10
5.99717 -4.71931 1.48339 0.00462834 10
6.01369 -4.7323 1.76669 0.00451252 10
6.00132 -4.72257 2.04624 0.00438024 10
6.50356 -5.08114 -2.21142 0.00463249 10
6.51948 -5.09358 -1.91005 0.00477342 10
6.63638 -5.18491 -1.63701 0.00147548 10
12.5815 -9.82978 -2.5288 0.000229139 10
14.7502 -11.5241 -2.29831 0.000726108 10
14.7506 -11.5244 -1.63768 0.000737012 10
14.7422 -11.5179 -0.980454 0.000491708 10
14.7419 -11.5177 -0.326546 0.000494234 10
14.7341 -11.5115 0.326372 0.000494366 10
14.732 -11.5099 0.979772 0.000492103 10
9.60252 -7.50231 1.06612 0.000272032 10
6.81633 -5.3255 1.06209 0.000904204 10
6.04702 -4.72445 1.21541 0.00465572 10
6.05866 -4.73355 1.4945 0.00455887 10
6.0601 -4.73467 1.77546 0.00444472 10
6.05647 -4.73183 2.0594 0.00431437 10
6.5539 -5.08373 -2.22249 0.00456165 10
6.55475 -5.08438 -1.91517 0.0047005 10
6.65576 -5.16274 -1.63734 0.00147557 10
12.6155 -9.78556 -2.52874 0.00022916 10
14.756 -11.4459 -2.29297 0.000734054 10
14.7534 -11.4439 -1.63355 0.00074507 10
14.7785 -11.4634 -0.980198 0.000384899 10
14.7719 -11.4582 -0.32632 0.000386757 10
14.7853 -11.4686 0.326617 0.000386742 10
14.7702 -11.457 0.979649 0.000384853 10
9.62734 -7.46773 1.06597 0.000271989 10
6.84099 -5.30642 1.06304 0.000904108 10
6.08854 -4.72276 1.22043 0.00458536 10
6.10043 -4.73198 1.50072 0.00448991 10
6.08497 -4.71999 1.77791 0.00437744 10
6.10093 -4.73237 2.06888 0.00424898 10
6.59292 -5.07723 -2.2297 0.00449135 10
6.60597 -5.08728 -1.92494 0.00462814 10
6.68944 -5.15157 -1.64119 0.00147567 10
12.6647 -9.7531 -2.53176 0.00022918 10
14.751 -11.3598 -2.28603 0.000742024 10
14.7479 -11.3574 -1.62854 0.000753152 10
14.8807 -11.4597 -0.98432 0.000378059 10
14.8735 -11.4541 -0.32768 0.000379886 10
14.8691 -11.4508 0.327583 0.000379871 10
14.8766 -11.4565 0.984043 0.000378013 10
9.65847 -7.43802 1.06654 0.000271947 10
6.84327 -5.27002 1.06053 0.000904013 10
6.14623 -4.73323 1.22868 0.00451552 10
6.14502 -4.7323 1.50762 0.00442148 10
6.14218 -4.73011 1.78979 0.00431066 10
6.13279 -4.72289 2.07409 0.00418409 10
6.65325 -5.0868 -2.24408 0.0044216 10
6.64236 -5.07847 -1.93036 0.00455635 10
6.68892 -5.11407 -1.63667 0.00147577 10
12.6916 -9.70347 -2.53036 0.000229201 10
14.7499 -11.2772 -2.27974 0.000750017 10
14.7813 -11.3012 -1.62786 8.45139e-05 10
21.2198 -16.2238 -1.39988 0.000122763 10
21.2046 -16.2122 -0.465913 0.000123419 10
21.2144 -16.2197 0.466128 0.000123413 10
21.082 -16.1184 1.39079 0.000193165 10
9.67743 -7.39896 1.06577 0.000271904 10
6.87434 -5.25583 1.0625 0.000903917 10
6.18629 -4.72977 1.23338 0.00444622 10
6.17167 -4.7186 1.51011 0.00435357 10
6.17259 -4.7193 1.79384 0.00424439 10
6.18398 -4.72801 2.0858 0.0041197 10
6.69062 -5.07846 -2.2507 0.0043524 10
6.70477 -5.0892 -1.94333 0.00448512 10
6.7178 -5.09909 -1.63937 0.00147586 10
12.7201 -9.65507 -2.5293 0.000229221 10
14.7532 -11.1983 -2.27419 0.000758032 10
14.8165 -11.2464 -1.62741 8.4528e-05 10
21.0675 -15.9911 -1.38614 0.000165423 10
21.0745 -15.9964 -0.461825 0.000166359 10
21.0756 -15.9972 0.461847 0.000166408 10
21.0794 -16.0001 1.38692 0.000195443 10
9.70801 -7.36878 1.0663 0.000271862 10
6.88119 -5.22311 1.06073 0.000903822 10
6.23599 -4.73338 1.23998 0.00437746 10
6.22846 -4.72766 1.51995 0.00428619 10
6.23587 -4.73328 1.80742 0.00417864 10
6.21712 -4.71905 2.09141 0.00405581 10
6.7488 -5.08559 -2.26428 0.00428374 10
6.73669 -5.07646 -1.94743 0.00441445 10
6.7543 -5.08973 -1.64393 0.00452888 10
12.7531 -9.61018 -2.52919 0.000229242 10
14.7497 -11.1147 -2.26767 0.000766069 10
14.8546 -11.1937 -1.62729 8.4542e-05 10
21.1537 -15.9405 -1.38814 0.000124821 10
21.1626 -15.9471 -0.462532 0.000125486 10
21.1669 -15.9504 0.462627 0.00012548 10
21.0679 -15.8758 1.38251 0.00019773 10
9.71874 -7.3236 1.06467 0.00027182 10
6.89711 -5.19735 1.06038 0.000903727 10
6.26888 -4.72394 1.24324 0.00430922 10
6.28038 -4.7326 1.52858 0.00421933 10
6.27773 -4.73061 1.81476 0.00411339 10
6.27805 -4.73085 2.10634 0.00399242 10
6.78803 -5.07809 -2.27148 0.00421564 10
6.80079 -5.08765 -1.96082 0.00434435 10
6.78893 -5.07877 -1.64804 0.00445704 10
12.7962 -9.57279 -2.53109 0.000229262 10
14.7556 -11.0386 -2.26264 0.000774126 10
14.8945 -11.1425 -1.62738 8.4556e-05 10
21.068 -15.7609 -1.3789 0.000169301 10
21.0832 -15.7722 -0.45959 0.000170258 10
21.083 -15.7721 0.459586 0.000170307 10
21.0751 -15.7662 1.37936 0.000200024 10
9.76619 -7.30604 1.06706 0.000271777 10
6.92273 -5.17886 1.06154 0.000903633 10
6.32071 -4.7285 1.25023 0.00424153 10
6.31562 -4.72469 1.53314 0.004153 10
6.31722 -4.72589 1.82139 0.00404867 10
6.32376 -4.73078 2.11612 0.00392953 10
6.84126 -5.08077 -2.28335 0.0041481 10
6.83418 -5.07551 -1.96532 0.00427482 10
6.84443 -5.08312 -1.65719 0.00438577 10
12.8249 -9.52462 -2.53017 0.000229282 10
14.7482 -10.953 -2.25562 0.000782205 10
21.0801 -15.6555 -2.29725 0.000256431 10
21.1173 -15.6831 -1.37853 0.000126951 10
21.1113 -15.6787 -0.459008 0.000127625 10
21.1196 -15.6848 0.459188 0.000127619 10
21.066 -15.645 1.37518 0.000202327 10
9.77243 -7.25765 1.06497 0.000271735 10
6.95339 -5.16405 1.06347 0.000903539 10
6.36369 -4.7261 1.25547 0.00417439 10
6.3682 -4.72944 1.54188 0.0040872 10
6.36492 -4.72701 1.83038 0.00398447 10
6.35977 -4.72318 2.12264 0.00386715 10
6.89809 -5.08571 -2.29638 0.00408111 10
6.89809 -5.08571 -1.97858 0.00420587 10
6.8995 -5.08675 -1.66622 0.0043151 10
12.8453 -9.47039 -2.52766 0.000229302 10
14.7425 -10.8691 -2.24893 0.000790302 10
21.0634 -15.5293 -2.28951 0.000259362 10
29.9099 -22.0515 -1.94748 7.30994e-05 10
29.9098 -22.0514 -0.648629 7.35661e-05 10
29.898 -22.0427 0.648372 7.359e-05 10
21.0797 -15.5413 1.37253 0.000204637 10
9.81198 -7.23401 1.06652 0.000271694 10
6.96044 -5.13168 1.0618 0.000903445 10
6.39763 -4.71674 1.25891 0.00410778 10
6.41058 -4.72629 1.54814 0.00402194 10
6.41848 -4.73211 1.84102 0.00392079 10
6.41399 -4.72881 2.13522 0.00380528 10
6.93518 -5.07579 -2.30281 0.00401468 10
6.93982 -5.07918 -1.98545 0.00413749 10
6.9456 -5.08341 -1.67305 0.00424501 10
12.8983 -9.44011 -2.53158 0.000229323 10
14.7381 -10.7867 -2.2425 0.000798419 10
21.084 -15.4312 -2.28588 0.000262303 10
21.0629 -15.4157 -1.36793 0.000175169 10
21.0818 -15.4296 -0.456014 0.000176156 10
21.0772 -15.4262 0.455913 0.000176206 10
21.0577 -15.4119 1.36759 0.000206955 10
9.82605 -7.19158 1.06532 0.000271652 10
6.98223 -5.11022 1.06239 0.000903352 10
6.45762 -4.72626 1.26746 0.00404173 10
6.46811 -4.73394 1.55804 0.00395722 10
6.45859 -4.72697 1.84778 0.00385763 10
6.45743 -4.72612 2.14417 0.00374391 10
7.00101 -5.08653 -2.31876 0.00394883 10
7.00812 -5.0917 -1.9999 0.00406969 10
6.99986 -5.0857 -1.68184 0.00417552 10
12.9319 -9.39561 -2.53174 0.000229343 10
14.7348 -10.7054 -2.2363 0.000806553 10
21.0803 -15.3158 -2.27967 0.000265252 10
21.2054 -15.4066 -1.37368 0.000126491 10
21.1954 -15.3994 -0.457305 0.000127162 10
21.2099 -15.4099 0.457616 0.000127156 10
21.0791 -15.3149 1.3655 0.000209279 10
9.85018 -7.15658 1.06522 0.00027161 10
6.98999 -5.07853 1.06087 0.000903259 10
6.49898 -4.72179 1.27233 0.00397623 10
6.51359 -4.7324 1.565 0.00389303 10
6.50636 -4.72715 1.85671 0.003795 10
6.49795 -4.72103 2.15214 0.00368307 10
7.0511 -5.08542 -2.32946 0.00388353 10
7.04431 -5.08052 -2.00515 0.00400248 10
7.05134 -5.08559 -1.68993 0.00410662 10
12.9429 -9.33472 -2.52749 0.000229363 10
14.7471 -10.6359 -2.23252 0.000814705 10
21.08 -15.2034 -2.27388 0.000268211 10
21.0807 -15.2039 -1.36215 0.000179111 10
21.0738 -15.1989 -0.453533 0.000180118 10
21.0779 -15.2019 0.453622 0.000180169 10
21.0784 -15.2022 1.36201 0.000211611 10
9.87481 -7.12194 1.06519 0.000271569 10
7.01867 -5.06203 1.06254 0.000903166 10
6.56275 -4.73321 1.28157 0.00391127 10
6.54417 -4.7198 1.56838 0.00382939 10
6.5577 -4.72956 1.86664 0.00373291 10
6.5581 -4.72985 2.16658 0.00362274 10
7.10952 -5.08992 -2.34287 0.00381881 10
7.1078 -5.08869 -2.01816 0.00393585 10
7.09323 -5.07826 -1.69571 0.00403833 10
12.99 -9.29993 -2.53033 0.000229382 10
14.7558 -10.5642 -2.22825 0.000822873 10
21.0821 -15.0933 -2.26841 0.000271178 10
21.139 -15.1341 -1.3625 0.000128701 10
21.1537 -15.1446 -0.454113 0.000129382 10
21.1351 -15.1313 0.453713 0.000129376 10
21.0599 -15.0774 1.3574 0.000213949 10
9.91544 -7.09876 1.06689 0.000271528 10
7.02474 -5.02923 1.06079 0.000903074 10
6.60884 -4.73146 1.28734 0.00384689 10
6.59413 -4.72093 1.5764 0.0037663 10
6.60772 -4.73066 1.87617 0.00367135 10
6.60019 -4.72528 2.17503 0.00356292 10
7.16393 -5.09115 -2.35493 0.00375465 10
7.14782 -5.07969 -2.02447 0.00386981 10
7.15924 -5.08781 -1.70724 0.00397063 10
13.0085 -9.24464 -2.52763 0.000229402 10
14.7498 -10.4821 -2.22179 0.000831058 10
21.0651 -14.9702 -2.26094 0.000274153 10
29.915 -21.2595 -1.92335 7.78288e-05 10
29.9151 -21.2595 -0.640599 7.8323e-05 10
29.9077 -21.2543 0.640441 7.8348e-05 10
21.0786 -14.9798 1.35523 0.000216294 10
9.92752 -7.05512 1.06553 0.000271487 10
7.04306 -5.00524 1.06091 0.000902982 10
6.64035 -4.71905 1.29026 0.00378305 10
6.64602 -4.72308 1.58485 0.00370375 10
6.66023 -4.73318 1.88637 0.00361032 10
6.65217 -4.72745 2.1867 0.00350363 10
7.19936 -5.07859 -2.36073 0.00369106 10
7.21064 -5.08655 -2.03722 0.00380435 10
7.2122 -5.08765 -1.71562 0.00390353 10
13.048 -9.20434 -2.52905 0.000229422 10
14.5763 -10.2824 -2.19024 0.000870265 10
14.5561 -10.2682 -1.55846 0.000883171 10
14.5741 -10.2809 -0.934714 0.000891932 10
14.5725 -10.2798 -0.311284 0.000896453 10
14.5605 -10.2713 0.311027 0.000896681 10
14.5677 -10.2764 0.934301 0.000892615 10
9.96161 -7.02714 1.06655 0.000271446 10
7.06191 -4.98163 1.06113 0.000902891 10
6.69049 -4.71962 1.2968 0.00371976 10
6.69067 -4.71975 1.59156 0.00364175 10
6.70785 -4.73187 1.89517 0.00354982 10
6.7078 -4.73184 2.19955 0.00344486 10
7.25348 -5.07894 -2.37265 0.00362805 10
7.25152 -5.07757 -2.04375 0.00373948 10
7.25585 -5.0806 -1.72177 0.00383704 10
13.0883 -9.16452 -2.53064 0.000229442 10
14.5684 -10.2009 -2.18369 0.000878759 10
14.558 -10.1936 -1.55485 0.000891783 10
14.5587 -10.1941 -0.931436 0.000900623 10
14.5502 -10.1882 -0.310047 0.000905184 10
14.5703 -10.2022 0.310474 0.000905413 10
14.5617 -10.1962 0.931632 0.00090131 10
9.99227 -6.99667 1.06721 0.000271406 10
7.09667 -4.96915 1.06374 0.000902799 10
6.74686 -4.7242 1.30452 0.00365705 10
6.73612 -4.71668 1.59844 0.0035803 10
6.75091 -4.72704 1.90266 0.00348986 10
6.74582 -4.72348 2.2066 0.00338661 10
7.30638 -5.07806 -2.38414 0.00356562 10
7.3182 -5.08628 -2.05753 0.0036752 10
7.31809 -5.0862 -1.73232 0.00377115 10
13.1241 -9.12149 -2.53139 0.000229461 10
14.5582 -10.1182 -2.17686 0.000887266 10
14.5591 -10.1189 -1.55119 0.000900407 10
14.5538 -10.1152 -0.928862 0.000909328 10
14.5686 -10.1254 -0.309682 0.00091393 10
14.5665 -10.124 0.309639 0.000914161 10
14.5652 -10.1231 0.929589 0.00091002 10
9.99727 -6.94828 1.06515 0.000271365 10
7.10121 -4.93547 1.06183 0.000902709 10
6.79623 -4.7235 1.31087 0.00359489 10
6.79122 -4.72002 1.6076 0.0035194 10
6.80152 -4.72718 1.91227 0.00343045 10
6.80291 -4.72815 2.21986 0.00332888 10
7.36502 -5.08079 -2.39748 0.00350376 10
7.36785 -5.08274 -2.06649 0.00361152 10
7.36267 -5.07916 -1.73866 0.00370587 10
13.1558 -9.07555 -2.53138 0.000229481 10
14.5625 -10.046 -2.17223 0.000895786 10
14.5641 -10.0471 -1.54797 0.000909045 10
14.5607 -10.0448 -0.927057 0.000918047 10
14.5519 -10.0387 -0.308581 0.000922688 10
14.5566 -10.0419 0.30868 0.000922921 10
14.5668 -10.049 0.927448 0.000918743 10
10.032 -6.92061 1.06627 0.000271325 10
7.11958 -4.91147 1.062 0.000902618 10
6.85225 -4.72705 1.31848 0.0035333 10
6.85258 -4.72728 1.61821 0.00345905 10
6.83859 -4.71763 1.91804 0.00337157 10
6.85246 -4.7272 2.23063 0.00327169 10
7.42704 -5.0854 -2.41188 0.00344248 10
7.41561 -5.07757 -2.0749 0.00354843 10
7.42249 -5.08229 -1.74859 0.0036412 10
13.1762 -9.0219 -2.52923 0.0002295 10
14.5571 -9.96743 -2.16623 0.00090432 10
14.5587 -9.96853 -1.54369 0.000917697 10
14.5511 -9.96333 -0.924224 0.000926777 10
14.5734 -9.97861 -0.308296 0.000931461 10
14.5538 -9.9652 0.307882 0.000931695 10
14.563 -9.97149 0.924981 0.000927478 10
10.069 -6.89437 1.06764 0.000271285 10
7.13793 -4.88744 1.06219 0.0006976 10
6.9009 -4.72514 1.32466 0.00347228 10
6.90848 -4.73034 1.6275 0.00339927 10
6.89521 -4.72125 1.92929 0.00331324 10
6.90404 -4.72729 2.24203 0.00321501 10
7.49102 -5.09089 -2.42686 0.00338179 10
7.49108 -5.09093 -2.09103 0.00348594 10
7.47376 -5.07916 -1.75648 0.00357714 10
13.2016 -8.97182 -2.52809 0.00022952 10
14.5571 -9.89302 -2.16109 0.000912865 10
14.5685 -9.90074 -1.54106 0.000926361 10
14.559 -9.89431 -0.92253 0.00093552 10
14.5526 -9.88991 -0.307123 0.000940245 10
14.5669 -9.89969 0.307427 0.000940481 10
14.5706 -9.90217 0.923263 0.000936226 10
10.0912 -6.85795 1.06744 0.000271244 10
7.15649 -4.86354 1.06242 0.000697531 10
6.9521 -4.72464 1.33131 0.00341183 10
6.94556 -4.7202 1.63234 0.00334003 10
6.96206 -4.73141 1.94336 0.00325545 10
6.9472 -4.72131 2.25068 0.00315887 10
7.53499 -5.08242 -2.43535 0.00332167 10
7.54028 -5.08599 -2.0998 0.00342405 10
7.54422 -5.08865 -1.76886 0.0035137 10
13.2271 -8.9218 -2.52699 0.000229539 10
14.5723 -9.82913 -2.15823 0.000921421 10
14.5699 -9.82753 -1.53757 0.000935034 10
14.5603 -9.82104 -0.920432 0.000944275 10
14.5594 -9.82044 -0.306543 0.00094904 10
14.5601 -9.82093 0.306557 0.000949277 10
14.5573 -9.81903 0.920243 0.000944984 10
10.1125 -6.82095 1.06717 0.000271205 10
7.17725 -4.84112 1.06299 0.000697462 10
7.00045 -4.72187 1.33741 0.00335195 10
7.00872 -4.72744 1.6433 0.00328137 10
7.00802 -4.72697 1.95157 0.00319821 10
7.00347 -4.7239 2.26356 0.00310327 10
7.59365 -5.08351 -2.44856 0.00326214 10
7.58986 -5.08097 -2.10865 0.00336276 10
7.5912 -5.08187 -1.7757 0.00345086 10
13.2765 -8.88784 -2.53048 0.000229558 10
14.5664 -9.75133 -2.1523 0.000625243 10
14.5678 -9.75231 -1.53375 0.000634287 10
14.5527 -9.74222 -0.9178 0.000640362 10
14.5599 -9.74701 -0.305835 0.000643403 10
14.562 -9.74839 0.305878 0.000643375 10
14.5683 -9.7526 0.918778 0.000640279 10
10.1303 -6.78164 1.06655 0.000271165 10
7.20052 -4.82033 1.06393 0.000697393 10
7.06002 -4.72627 1.34563 0.00329263 10
7.04563 -4.71664 1.64808 0.00322326 10
7.05067 -4.72002 1.95885 0.00314152 10
7.05863 -4.72534 2.27604 0.0030482 10
7.63989 -5.07593 -2.45774 0.0032032 10
7.64954 -5.08235 -2.12029 0.00330207 10
7.6597 -5.08909 -1.78756 0.00338865 10
7.90527 -5.25225 -1.50323 0.00316806 10
7.88237 -5.23704 -1.16198 0.00322371 10
7.88422 -5.23826 -0.828145 0.00326612 10
7.88873 -5.24126 -0.496363 0.00329487 10
7.90266 -5.25052 -0.165612 0.00330969 10
7.88611 -5.23952 0.165265 0.00331042 10
7.88935 -5.24167 0.496401 0.00329707 10
7.88382 -5.238 0.828103 0.00326976 10
7.20214 -4.78509 1.0617 0.000697324 10
7.10327 -4.71941 1.35073 0.00323389 10
7.12256 -4.73222 1.6622 0.00316571 10
7.0993 -4.71677 1.96778 0.00308537 10
7.09999 -4.71722 2.28405 0.00299366 10
7.69618 -5.0747 -2.47013 0.00314484 10
7.70781 -5.08237 -2.13151 0.00324198 10
7.71293 -5.08574 -1.79583 0.00332705 10
7.89966 -5.20887 -1.4987 0.00319392 10
7.88725 -5.20068 -1.16001 0.00325 10
7.90464 -5.21215 -0.828374 0.00329274 10
7.88127 -5.19674 -0.494749 0.00332172 10
7.89014 -5.20259 -0.164968 0.00333665 10
7.88376 -5.19839 0.164834 0.00333739 10
7.88856 -5.20155 0.495206 0.00332393 10
7.9011 -5.20981 0.828003 0.0032964 10
7.21515 -4.75751 1.06116 0.000697256 10
7.16363 -4.72354 1.35906 0.00317573 10
7.16489 -4.72438 1.66822 0.00310872 10
7.17099 -4.7284 1.98306 0.00302978 10
7.15983 -4.72104 2.29799 0.00293965 10
7.77796 -5.08976 -2.49066 0.00308707 10
7.77171 -5.08567 -2.14426 0.0031825 10
7.76152 -5.079 -1.803 0.00326607 10
7.88532 -5.16001 -1.49255 0.00321978 10
7.8967 -5.16745 -1.15874 0.0032763 10
7.88793 -5.16171 -0.824729 0.00331937 10
7.89062 -5.16348 -0.494201 0.00334857 10
7.90243 -5.17121 -0.164846 0.00336362 10
7.90098 -5.17026 0.164816 0.00336436 10
7.88403 -5.15917 0.493789 0.00335079 10
7.89852 -5.16865 0.825837 0.00332305 10
7.24749 -4.74263 1.06348 0.000697188 10
7.21506 -4.7214 1.36568 0.00311814 10
7.2098 -4.71796 1.67484 0.0030523 10
7.22077 -4.72514 1.99225 0.00297474 10
7.22232 -4.72616 2.31274 0.00288618 10
7.83017 -5.08497 -2.50168 0.00302989 10
7.82685 -5.08282 -2.15457 0.00312362 10
7.83333 -5.08702 -1.81555 0.00320571 10
7.90456 -5.13328 -1.49279 0.00324565 10
7.89449 -5.12674 -1.15578 0.0033026 10
7.89225 -5.12529 -0.823306 0.003346 10
7.90438 -5.13316 -0.493938 0.00337542 10
7.88646 -5.12153 -0.164139 0.00339058 10
7.87966 -5.11711 0.163997 0.00339133 10
7.8988 -5.12954 0.493589 0.00337766 10
7.89855 -5.12938 0.823963 0.0033497 10
7.28146 -4.72863 1.06603 0.00311366 10
7.27879 -4.7269 1.37461 0.00306112 10
7.28314 -4.72973 1.68803 0.00299645 10
7.26738 -4.71949 2.00056 0.00292025 10
7.27729 -4.72593 2.32504 0.00283325 10
7.89277 -5.08655 -2.516 0.0029733 10
7.87425 -5.07461 -2.16272 0.00306535 10
7.88936 -5.08434 -1.82441 0.00314597 10
7.89888 -5.09048 -1.48835 0.00327152 10
7.88901 -5.08412 -1.15238 0.0033289 10
7.89884 -5.09046 -0.822135 0.00337263 10
7.88322 -5.08039 -0.491505 0.00340228 10
7.90457 -5.09415 -0.164145 0.00341755 10
7.90237 -5.09273 0.164099 0.0034183 10
7.89693 -5.08922 0.492359 0.00340453 10
7.88997 -5.08474 0.821211 0.00337635 10
7.32223 -4.71885 1.06958 0.00305629 10
7.33727 -4.72855 1.38253 0.00300469 10
7.3237 -4.7198 1.6936 0.00294116 10
7.32103 -4.71808 2.01078 0.00286631 10
7.3223 -4.7189 2.33415 0.00278086 10
7.93601 -5.07529 -2.52412 0.0029173 10
7.93665 -5.0757 -2.17498 0.00300769 10
7.95077 -5.08473 -1.83449 0.00308685 10
7.95823 -5.0895 -1.49618 0.00208331 10
7.95479 -5.0873 -1.15938 0.00211931 10
7.94837 -5.08319 -0.825438 0.0021466 10
7.95952 -5.09033 -0.495151 0.00216492 10
7.94877 -5.08345 -0.164693 0.00217407 10
7.95038 -5.08448 0.164727 0.00217399 10
7.94172 -5.07894 0.494043 0.00216466 10
7.93898 -5.07719 0.824462 0.00214617 10
7.38971 -4.72591 1.07702 0.00299951 10
7.39123 -4.72689 1.38958 0.00294883 10
7.39773 -4.73105 1.70689 0.00288644 10
7.37818 -4.71854 2.02194 0.00281293 10
7.38749 -4.7245 2.34965 0.00272901 10
8.01851 -5.0887 -2.54469 0.00286189 10
8.00977 -5.08315 -2.19015 0.00295064 10
8.0127 -5.08502 -1.84468 0.00302836 10
8.15224 -5.17357 -1.52925 0.00305431 10
8.16494 -5.18163 -1.18737 0.0031081 10
8.17438 -5.18762 -0.847024 0.0031491 10
8.1551 -5.17539 -0.506191 0.00317689 10
8.16696 -5.18291 -0.168838 0.00319121 10
8.15763 -5.17699 0.168645 0.00319192 10
8.17359 -5.18712 0.507338 0.00317899 10
8.15423 -5.17483 0.844935 0.00315257 10
7.45551 -4.73141 1.0842 0.00294333 10
7.4454 -4.72499 1.39666 0.00289356 10
7.43277 -4.71698 1.71116 0.00283228 10
7.43703 -4.71969 2.03354 0.0027601 10
7.44227 -4.72301 2.36182 0.0026777 10
8.07364 -5.08425 -2.55654 0.00280708 10
8.07678 -5.08622 -2.2036 0.00289419 10
8.06693 -5.08002 -1.85307 0.00297049 10
8.17118 -5.14567 -1.52942 0.00307818 10
8.16411 -5.14122 -1.18463 0.00313238 10
8.15191 -5.13354 -0.842834 0.00317369 10
8.15192 -5.13354 -0.504878 0.00320169 10
8.16401 -5.14115 -0.168405 0.00321611 10
8.16359 -5.14089 0.168397 0.00321682 10
8.15085 -5.13287 0.504812 0.0032038 10
8.17255 -5.14653 0.844968 0.00317718 10
7.50246 -4.72455 1.08862 0.00288773 10
7.49178 -4.71783 1.40226 0.00283886 10
7.4952 -4.71998 1.72173 0.0027787 10
7.51281 -4.73107 2.04973 0.00270783 10
7.50475 -4.72599 2.3764 0.00262693 10
8.13064 -5.08059 -2.56896 0.00275285 10
8.12895 -5.07954 -2.21298 0.00283836 10
8.12774 -5.07878 -1.86295 0.00291324 10
8.16579 -5.10255 -1.52507 0.00310206 10
8.15843 -5.09795 -1.18122 0.00315666 10
8.16514 -5.10215 -0.842355 0.00319827 10
8.15968 -5.09874 -0.504253 0.00322647 10
8.15201 -5.09394 -0.16779 0.003241 10
8.16685 -5.10322 0.168095 0.00324171 10
8.17045 -5.10546 0.504918 0.00322859 10
8.16629 -5.10286 0.842473 0.00320178 10
7.55666 -4.72193 1.09409 0.00283272 10
7.55477 -4.72074 1.41095 0.00278475 10
7.5548 -4.72076 1.73163 0.00272569 10
7.55167 -4.71881 2.05583 0.00265612 10
7.55141 -4.71865 2.38594 0.0025767 10
8.19016 -5.07812 -2.58215 0.00269922 10
8.18678 -5.07602 -2.22389 0.00278313 10
8.18886 -5.07731 -1.87289 0.00285662 10
8.20588 -5.08786 -1.52923 0.00192806 10
8.20799 -5.08917 -1.18581 0.00196148 10
8.19018 -5.07813 -0.843104 0.00198682 10
8.19152 -5.07896 -0.505122 0.00200382 10
8.20025 -5.08437 -0.168417 0.00201233 10
8.18969 -5.07783 0.1682 0.00201224 10
8.20891 -5.08974 0.506194 0.00200358 10
8.19426 -5.08066 0.843524 0.00198641 10
7.60978 -4.71827 1.09939 0.0027783 10
7.62939 -4.73043 1.4218 0.00273122 10
7.62284 -4.72636 1.74343 0.00267325 10
7.62277 -4.72632 2.07068 0.00260496 10
7.61001 -4.71841 2.39924 0.00252701 10
8.26664 -5.08567 -2.60065 0.00264619 10
8.26281 -5.08332 -2.23971 0.00272852 10
8.25818 -5.08047 -1.88467 0.00280062 10
8.42595 -5.18368 -1.56686 0.00290166 10
8.42146 -5.18092 -1.21403 0.00295294 10
8.43141 -5.18704 -0.866067 0.00299203 10
8.4203 -5.1802 -0.518111 0.00301852 10
8.42398 -5.18247 -0.172639 0.00303217 10
8.42235 -5.18146 0.172605 0.00303283 10
8.43757 -5.19083 0.519174 0.0030205 10
8.43344 -5.18829 0.866275 0.00299531 10
7.67886 -4.72407 1.10698 0.00272448 10
7.68425 -4.72738 1.42894 0.00267827 10
7.67482 -4.72158 1.75154 0.00262138 10
7.68508 -4.72789 2.08311 0.00255436 10
7.6696 -4.71837 2.41282 0.00247787 10
8.31637 -5.07633 -2.6107 0.00259375 10
8.31656 -5.07645 -2.24946 0.00267451 10
8.33021 -5.08478 -1.89705 0.00274525 10
8.44141 -5.15266 -1.56638 0.00292373 10
8.4402 -5.15192 -1.21414 0.00297538 10
8.43151 -5.14662 -0.864227 0.00301475 10
8.43211 -5.14698 -0.517729 0.00304144 10
8.44391 -5.15419 -0.172678 0.00305518 10
8.4298 -5.14558 0.172389 0.00305585 10
8.43237 -5.14714 0.517745 0.00304343 10
8.41876 -5.13883 0.862919 0.00301805 10
7.73535 -4.72168 1.11274 0.00267124 10
7.74561 -4.72794 1.43727 0.0026259 10
7.7286 -4.71756 1.76004 0.00257008 10
7.73019 -4.71853 2.09086 0.00250432 10
7.74807 -4.72944 2.4323 0.00242927 10
8.39543 -5.08445 -2.62993 0.0025419 10
8.39317 -5.08308 -2.26537 0.00262112 10
8.38468 -5.07794 -1.90541 0.00269051 10
8.43283 -5.10711 -1.56147 0.00294578 10
8.42761 -5.10395 -1.20975 0.00299781 10
8.43372 -5.10765 -0.862621 0.00303746 10
8.42253 -5.10086 -0.516044 0.00306433 10
8.43946 -5.11112 -0.172221 0.00307818 10
8.44304 -5.11329 0.172294 0.00307885 10
8.42875 -5.10463 0.516426 0.00306634 10
8.41859 -5.09848 0.861073 0.00304077 10
7.79534 -4.72103 1.11899 0.0026186 10
7.80585 -4.72739 1.44538 0.00257412 10
7.79304 -4.71963 1.77096 0.00251935 10
7.80768 -4.7285 2.10734 0.00245485 10
7.80263 -4.72544 2.44423 0.00238121 10
8.45408 -5.07972 -2.64273 0.00249065 10
8.46027 -5.08344 -2.27868 0.00256835 10
8.44657 -5.07521 -1.91543 0.00263639 10
8.46533 -5.08648 -1.5642 0.00177954 10
8.45965 -5.08307 -1.2118 0.0018105 10
8.46385 -5.08559 -0.863882 0.00183396 10
8.46642 -5.08714 -0.517643 0.00184971 10
8.44815 -5.07616 -0.172035 0.00185758 10
8.45812 -5.08215 0.172238 0.0018575 10
8.44797 -5.07605 0.516515 0.00184947 10
8.4582 -5.0822 0.863304 0.00183357 10
7.84823 -4.71569 1.12422 0.00256656 10
7.87044 -4.72904 1.45427 0.00252292 10
7.8664 -4.72661 1.78387 0.0024692 10
7.87139 -4.72961 2.12007 0.00240593 10
7.87208 -4.73003 2.4608 0.0023337 10
8.51291 -5.07472 -2.65557 0.00244 10
8.53535 -5.08809 -2.2941 0.00251618 10
8.52564 -5.0823 -1.92933 0.0025829 10
8.52914 -5.08439 -1.5727 0.00174347 10
8.52934 -5.08451 -1.21923 0.00177382 10
8.69759 -5.1848 -0.885886 0.00284665 10
8.7148 -5.19506 -0.531717 0.00287194 10
8.71145 -5.19307 -0.177027 0.00288496 10
8.70698 -5.1904 0.176936 0.00288559 10
8.69978 -5.18611 0.5308 0.00287382 10
8.68905 -5.17972 0.885016 0.00284976 10
7.92299 -4.72305 1.13256 0.0025151 10
7.92294 -4.72302 1.46092 0.0024723 10
7.91272 -4.71693 1.79063 0.00241962 10
7.92405 -4.72368 2.1298 0.00235757 10
7.92954 -4.72695 2.47359 0.00228674 10
8.58747 -5.07862 -2.67328 0.00238995 10
8.60313 -5.08788 -2.30753 0.00246463 10
8.58521 -5.07728 -1.93879 0.00253004 10
8.69842 -5.14424 -1.60059 0.0027808 10
8.69361 -5.14139 -1.24014 0.0028301 10
8.70186 -5.14627 -0.884486 0.00286767 10
8.70783 -5.1498 -0.530191 0.00289313 10
8.70887 -5.15041 -0.176608 0.00290625 10
8.70862 -5.15027 0.176603 0.00290688 10
8.70651 -5.14902 0.530111 0.00289502 10
8.70548 -5.14841 0.884853 0.00287079 10
7.98123 -4.72009 1.13852 0.00246424 10
7.99043 -4.72553 1.47031 0.00242228 10
7.9733 -4.7154 1.8006 0.00237062 10
7.99307 -4.72709 2.1439 0.00230977 10
7.98845 -4.72436 2.48681 0.00224032 10
8.66828 -5.08565 -2.6929 0.00234048 10
8.65621 -5.07857 -2.317 0.00241369 10
8.65101 -5.07552 -1.94964 0.00247781 10
8.70223 -5.10557 -1.598 0.00280119 10
8.70354 -5.10634 -1.23901 0.00285083 10
8.69764 -5.10288 -0.882241 0.00288866 10
8.69971 -5.10409 -0.528609 0.00291431 10
8.69887 -5.1036 -0.176043 0.00292752 10
8.69178 -5.09944 0.175899 0.00292815 10
8.70309 -5.10607 0.528814 0.00291621 10
8.69663 -5.10229 0.882138 0.0028918 10
8.05781 -4.72749 1.14708 0.00241398 10
8.05144 -4.72375 1.4785 0.00237283 10
8.05657 -4.72676 1.81567 0.00232218 10
8.05375 -4.72511 2.15574 0.00226253 10
8.04818 -4.72184 2.50025 0.00219444 10
8.73979 -5.08668 -2.70958 0.00229161 10
8.72331 -5.07709 -2.3302 0.00236336 10
8.72188 -5.07626 -1.9616 0.00242619 10
8.7264 -5.07889 -1.59917 0.00163779 10
8.72741 -5.07947 -1.23987 0.00166637 10
8.72564 -5.07845 -0.883278 0.00168804 10
8.73294 -5.08269 -0.529547 0.00170259 10
8.72697 -5.07922 -0.176252 0.00170986 10
8.72713 -5.07931 0.176255 0.00170978 10
8.73306 -5.08277 0.529554 0.00170237 10
8.74014 -5.08688 0.884745 0.00168768 10
8.12227 -4.72727 1.1539 0.0023643 10
8.10557 -4.71756 1.4854 0.00232397 10
