VERSION 0.7
FIELDS x y z intensity label
SIZE 4 4 4 4 4
TYPE F F F F F
COUNT 1 1 1 1 1
WIDTH 1177
HEIGHT 1
VIEWPOINT 20.9021 49.4916 2.7281 0.968495 -0.000136135 -0.000281486 -0.249032
POINTS 1177
DATA ascii
16.3478 -7.27852 -0.937833 0.000859027 10
16.3722 -7.28936 -0.312822 0.000863103 10
16.3517 -7.28024 0.312431 0.000863043 10
16.3725 -7.28949 0.939246 0.000858847 10
11.0009 -4.89791 1.05354 0.0020012 10
10.9963 -4.89586 1.47795 0.00197455 10
10.9836 -4.8902 1.90426 0.00193949 10
10.9973 -4.89631 2.33996 0.00189637 10
11.004 -4.8993 2.7809 0.00184562 10
10.9936 -4.89468 3.22451 0.00178775 10
9.33054 -4.11526 -2.73248 0.000504966 1
10.8254 -4.77459 -2.73154 0.000304563 1
11.0291 -4.86442 -2.3431 0.00241044 10
11.0382 -4.86842 -1.91077 0.00246495 10
16.3427 -7.20801 -2.19314 0.000641926 10
16.4248 -7.24421 -1.57054 0.000841991 10
16.4309 -7.24688 -0.94114 0.00085008 10
16.4155 -7.24011 -0.313166 0.000854117 10
16.4348 -7.2486 0.313533 0.000854057 10
16.435 -7.24869 0.941375 0.000849901 10
11.0418 -4.87003 1.05582 0.00198198 10
11.0534 -4.87514 1.48333 0.00195557 10
11.0395 -4.86901 1.911 0.00192083 10
11.0467 -4.87219 2.34684 0.0018781 10
11.0412 -4.86973 2.78597 0.00182781 10
11.0452 -4.87152 3.23463 0.00177048 10
9.35698 -4.08797 -2.73603 0.000504963 1
10.8614 -4.74525 -2.73643 0.000304561 1
11.0757 -4.83885 -2.34939 0.00238705 10
11.0894 -4.84484 -1.9167 0.00244106 10
16.3028 -7.12251 -2.18443 0.000653563 10
16.4856 -7.20239 -1.57394 0.000833147 10
16.4994 -7.20843 -0.943621 0.000841156 10
16.5026 -7.20982 -0.314345 0.000845153 10
16.4857 -7.20244 0.314023 0.000845094 10
16.4946 -7.20631 0.943343 0.000840979 10
11.0971 -4.84821 1.05948 0.00196279 10
11.0808 -4.84108 1.48473 0.00193663 10
11.0828 -4.84197 1.91556 0.0019022 10
11.098 -4.84862 2.35413 0.00185987 10
11.0878 -4.84415 2.79346 0.00181005 10
11.1014 -4.85008 3.24611 0.00175325 10
9.36321 -4.05182 -2.7337 0.00050496 1
10.8817 -4.70893 -2.73737 0.000304559 1
11.1372 -4.8195 -2.35886 0.00236371 10
11.1255 -4.81445 -1.92003 0.00241721 10
16.2587 -7.03578 -2.17522 0.000665312 10
25.7189 -11.1296 -2.45176 0.000156374 10
25.7278 -11.1334 -1.46917 0.000104411 10
25.7356 -11.1368 -0.489473 0.000104969 10
25.7216 -11.1307 0.489207 0.000104957 10
25.7214 -11.1306 1.4688 0.000123206 10
11.1341 -4.81816 1.0614 0.00194364 10
11.1359 -4.81892 1.48985 0.00191772 10
11.1275 -4.8153 1.92036 0.00188362 10
11.1379 -4.81982 2.35901 0.00184168 10
11.1389 -4.82021 2.80206 0.00179232 10
11.124 -4.81378 3.24778 0.00173605 10
9.3759 -4.01852 -2.73329 0.000504957 1
10.8977 -4.67075 -2.73728 0.000304557 1
11.1935 -4.79753 -2.36721 0.00234041 10
11.1751 -4.78967 -1.92569 0.00239342 10
16.2116 -6.94829 -2.16566 0.000677173 10
25.6545 -10.9955 -2.44195 0.000159548 10
25.7742 -11.0468 -1.46961 0.0001345 10
25.7732 -11.0464 -0.489452 0.000135225 10
25.7671 -11.0438 0.489337 0.000135214 10
25.6499 -10.9936 1.46252 0.000125705 10
11.1844 -4.79364 1.0646 0.00192453 10
11.1692 -4.78713 1.49206 0.00189886 10
11.1933 -4.79746 1.92882 0.00186507 10
11.1866 -4.79459 2.36576 0.00182352 10
11.182 -4.79261 2.80869 0.00177463 10
11.1797 -4.79165 3.25915 0.00171888 10
9.38548 -3.9839 -2.73201 0.000504954 1
10.9152 -4.63321 -2.73759 0.000304554 1
11.2193 -4.76232 -2.36915 0.00231717 10
11.2233 -4.764 -1.93111 0.00236967 10
16.1542 -6.85706 -2.15478 0.000689145 10
25.5796 -10.8579 -2.4312 0.000162758 10
25.57 -10.8538 -1.4558 0.00010867 10
25.569 -10.8534 -0.484852 0.00010925 10
25.5708 -10.8542 0.484886 0.000109237 10
25.5689 -10.8533 1.45573 0.000128233 10
11.2176 -4.76157 1.06616 0.00190547 10
11.2164 -4.76108 1.49614 0.00188003 10
11.2367 -4.76971 1.93342 0.00184657 10
11.2348 -4.76887 2.37241 0.00180541 10
11.2353 -4.76909 2.81787 0.00175698 10
11.2412 -4.7716 3.27219 0.00170176 10
9.40155 -3.95205 -2.73266 0.000504951 1
10.91 -4.58614 -2.73226 0.000304552 1
11.2859 -4.74416 -2.3797 0.00229399 10
11.2863 -4.74432 -1.93909 0.00234599 10
16.1226 -6.77732 -2.1474 0.000701228 10
25.5133 -10.7248 -2.42132 0.000166004 10
25.6653 -10.7887 -1.45907 0.000136961 10
25.6718 -10.7914 -0.486084 0.000137697 10
25.68 -10.7949 0.486239 0.000137686 10
25.492 -10.7158 1.44922 0.000130789 10
11.2725 -4.73852 1.06981 0.00188645 10
11.2773 -4.74054 1.50204 0.00186125 10
11.2636 -4.73479 1.93519 0.00182811 10
11.2889 -4.74542 2.38033 0.00178734 10
11.285 -4.74377 2.82617 0.00173937 10
11.2717 -4.73819 3.27624 0.00168468 10
9.4213 -3.92171 -2.7344 0.000504948 1
10.9253 -4.54776 -2.7321 0.00030455 1
11.3283 -4.71553 -2.38516 0.00227086 10
11.3294 -4.71599 -1.94366 0.00232236 10
16.0559 -6.68341 -2.13539 0.000713421 10
25.4391 -10.5893 -2.41075 0.000169286 10
25.4674 -10.601 -1.4457 0.000141226 10
25.4483 -10.5931 -0.481148 0.000141983 10
25.453 -10.595 0.481237 0.000141971 10
25.4147 -10.5791 1.44271 0.000133373 10
11.3138 -4.70947 1.07216 0.00186747 10
11.3221 -4.71293 1.50581 0.00184252 10
11.3212 -4.71256 1.94225 0.00180969 10
11.3246 -4.71399 2.38438 0.00176931 10
11.3309 -4.71662 2.83354 0.0017218 10
11.3198 -4.71198 3.28542 0.00166764 10
9.43587 -3.88918 -2.73468 0.000504945 1
10.9571 -4.51618 -2.73609 0.000304548 1
11.3606 -4.6825 -2.3885 0.00224778 10
11.38 -4.69051 -1.94952 0.00229879 10
16.027 -6.60584 -2.12847 0.000725725 10
25.3441 -10.4461 -2.39828 0.000172605 10
25.5604 -10.5352 -1.44889 0.000139481 10
25.5543 -10.5327 -0.482455 0.000140229 10
25.5536 -10.5324 0.482442 0.000140218 10
25.3465 -10.4471 1.43676 0.000135985 10
11.3609 -4.68263 1.07507 0.00184855 10
11.3642 -4.68399 1.50923 0.00182384 10
11.3727 -4.68747 1.94826 0.00179132 10
11.3648 -4.68422 2.38937 0.00175133 10
11.3692 -4.68605 2.839 0.00170428 10
11.3625 -4.68329 3.29305 0.00165064 10
9.43959 -3.85223 -2.73184 0.000504943 1
10.9714 -4.47733 -2.73574 0.000304546 1
11.4188 -4.65992 -2.3973 0.00222477 10
11.4097 -4.65621 -1.9518 0.00227528 10
15.9652 -6.51528 -2.11723 0.000738137 10
25.283 -10.3178 -2.38907 0.000175959 10
25.3481 -10.3444 -1.4348 0.000143863 10
25.3505 -10.3453 -0.477922 0.000144632 10
25.359 -10.3488 0.478083 0.00014462 10
25.289 -10.3202 1.43145 0.000138626 10
11.4308 -4.66484 1.08014 0.00182967 10
11.4096 -4.65617 1.51309 0.0018052 10
11.4333 -4.66584 1.95584 0.001773 10
11.4258 -4.66276 2.39876 0.0017334 10
11.4174 -4.65934 2.84695 0.00168681 10
11.4295 -4.6643 3.30773 0.00163369 10
9.47116 -3.8266 -2.73709 0.00050494 1
10.9811 -4.43664 -2.73428 0.000304544 1
11.4615 -4.63073 -2.40285 0.00220182 10
11.4819 -4.639 -1.96138 0.00225184 10
15.9137 -6.42957 -2.10742 0.000750659 10
25.199 -10.1811 -2.37777 0.000179349 10
25.2081 -10.1847 -1.42485 0.000119739 10
25.2053 -10.1836 -0.474512 0.000120373 10
25.2162 -10.188 0.474717 0.000120359 10
25.2057 -10.1838 1.42472 0.000141295 10
11.4764 -4.63677 1.08291 0.00181084 10
11.4773 -4.63714 1.51991 0.00178661 10
11.4703 -4.6343 1.95939 0.00175473 10
11.4717 -4.63487 2.405 0.00171552 10
11.4731 -4.63542 2.85678 0.00166938 10
11.4748 -4.63613 3.31613 0.00161678 10
9.46009 -3.78377 -2.73006 0.000504937 1
10.986 -4.39411 -2.73168 0.000304542 1
11.5296 -4.6115 -2.41374 0.00217894 10
11.5165 -4.60629 -1.96453 0.00222846 10
15.8843 -6.35325 -2.10056 0.000763289 10
25.1468 -10.058 -2.36951 0.000182774 10
25.2484 -10.0986 -1.42513 0.000146567 10
25.2318 -10.092 -0.474345 0.000147349 10
25.2541 -10.1009 0.474763 0.000147337 10
25.1296 -10.0511 1.41842 0.000143992 10
11.5157 -4.60594 1.08509 0.00179207 10
11.5302 -4.61175 1.52477 0.00176807 10
11.5188 -4.60721 1.96493 0.0017365 10
11.519 -4.60729 2.41153 0.00169768 10
11.5109 -4.60404 2.86219 0.001652 10
11.5073 -4.6026 3.32086 0.00159992 10
9.4849 -3.75534 -2.73342 0.000504935 1
11.0235 -4.36453 -2.7372 0.00030454 1
11.5573 -4.57585 -2.41618 0.00215611 10
11.5589 -4.57649 -1.96902 0.00220514 10
15.8387 -6.271 -2.09163 0.000776027 10
25.0483 -9.91732 -2.35696 0.000186236 10
25.0536 -9.91941 -1.41217 0.000124333 10
25.0557 -9.92025 -0.47038 0.00012499 10
25.0692 -9.92561 0.470634 0.000124976 10
25.0613 -9.92247 1.4126 0.000146717 10
11.5675 -4.57991 1.08846 0.00177334 10
11.5768 -4.58359 1.52882 0.00174959 10
11.5719 -4.58164 1.97123 0.00171833 10
11.5715 -4.58149 2.41916 0.00167989 10
11.5755 -4.58306 2.87425 0.00163467 10
11.566 -4.57929 3.33316 0.00158311 10
9.49189 -3.71983 -2.73168 0.000504932 1
11.0266 -4.32129 -2.7342 0.000304539 1
11.6035 -4.54736 -2.42251 0.00213336 10
11.6026 -4.547 -1.97374 0.00218189 10
15.7779 -6.1833 -2.08074 0.000788873 10
25.0014 -9.79794 -2.34931 0.000189733 10
25.1221 -9.84525 -1.41409 0.000149342 10
25.1319 -9.84908 -0.471163 0.000150137 10
25.1406 -9.85248 0.471325 0.000150125 10
24.9962 -9.79592 1.407 0.000149471 10
11.6312 -4.55822 1.09295 0.00175467 10
11.6239 -4.55536 1.53292 0.00173116 10
11.6073 -4.54885 1.97455 0.00170021 10
11.6245 -4.55558 2.42689 0.00166216 10
11.6151 -4.55189 2.88012 0.00161739 10
11.6251 -4.55582 3.34559 0.00156635 10
9.512 -3.68946 -2.73374 0.00050493 1
11.0355 -4.28039 -2.73269 0.000304537 1
11.6758 -4.52874 -2.43429 0.00211067 10
11.6706 -4.52675 -1.98263 0.00215872 10
15.7502 -6.1091 -2.07426 0.000801826 10
24.9198 -9.66577 -2.33846 0.000193265 10
24.9275 -9.66875 -1.40123 0.000129023 10
24.9213 -9.66632 -0.466579 0.000129703 10
24.9132 -9.66318 0.466426 0.000129688 10
24.9227 -9.66689 1.40096 0.000152252 10
11.66 -4.5226 1.09416 0.00173606 10
11.668 -4.52573 1.53665 0.00171278 10
11.6779 -4.52954 1.98385 0.00168215 10
11.6686 -4.52596 2.43279 0.00138176 10
11.6588 -4.52216 2.88703 0.00134449 10
11.6646 -4.52442 3.35241 0.00130201 10
9.52052 -3.65458 -2.73251 0.000504927 1
11.053 -4.24286 -2.73334 0.000304535 1
11.7198 -4.49881 -2.44017 0.00208806 10
11.7179 -4.4981 -1.98798 0.00213561 10
15.7015 -6.02723 -2.06506 0.000814884 10
24.8561 -9.54137 -2.32934 0.000196833 10
25.0276 -9.60718 -1.40496 0.000152191 10
25.0239 -9.60577 -0.467869 0.000152999 10
25.0184 -9.60367 0.467766 0.000152987 10
24.851 -9.53939 1.39504 0.00015506 10
11.7126 -4.49606 1.09763 0.0017175 10
11.7112 -4.49551 1.54026 0.00169446 10
11.7082 -4.49438 1.98634 0.00166414 10
11.6094 -4.45643 2.41719 0.00140297 10
11.626 -4.46279 2.87502 0.00136515 10
11.6281 -4.4636 3.3374 0.00132205 10
9.52642 -3.61875 -2.73056 0.000504925 1
11.0778 -4.20806 -2.73582 0.000304533 1
11.7769 -4.47364 -2.44881 0.00206551 10
11.763 -4.46834 -1.99297 0.00211258 10
15.6635 -5.95001 -2.05732 0.000828049 10
24.7805 -9.41324 -2.31916 0.000200435 10
24.7929 -9.41793 -1.38993 0.000157162 10
24.8032 -9.42187 -0.463126 0.000157993 10
24.8079 -9.42362 0.463212 0.000157981 10
24.78 -9.41305 1.38921 0.000157897 10
11.7683 -4.47037 1.10138 0.00169901 10
11.7638 -4.46864 1.54511 0.0016762 10
11.7548 -4.46522 1.99157 0.00164619 10
11.5829 -4.39994 2.40846 0.00142432 10
11.5941 -4.40417 2.86331 0.00138596 10
11.5884 -4.40203 3.32159 0.00134224 10
9.54568 -3.58799 -2.73247 0.000504922 1
11.1015 -4.17277 -2.73805 0.000304532 1
11.8122 -4.43992 -2.4529 0.00204304 10
11.8052 -4.43728 -1.99748 0.00208962 10
15.6032 -5.86486 -2.0467 0.000841319 10
24.7156 -9.28998 -2.31004 0.000204073 10
24.9086 -9.36252 -1.39457 0.000155118 10
24.9096 -9.36289 -0.464498 0.000155939 10
24.8965 -9.35798 0.464254 0.000155927 10
24.7083 -9.28725 1.38336 0.000160761 10
11.8315 -4.44716 1.10583 0.00168057 10
11.8195 -4.44265 1.55038 0.001658 10
11.8296 -4.44646 2.00161 0.0016283 10
11.5521 -4.34216 2.39889 0.00144584 10
11.5579 -4.34434 2.85063 0.00140693 10
11.5715 -4.34944 3.31237 0.00136257 10
9.5517 -3.55225 -2.73063 0.00050492 1
11.0904 -4.1245 -2.73176 0.00030453 1
11.8809 -4.41846 -2.46394 0.00202065 10
11.8808 -4.41843 -2.00765 0.00206674 10
15.5779 -5.79339 -2.04072 0.000854692 10
24.6484 -9.16666 -2.30075 0.000207746 10
24.6774 -9.17746 -1.37983 0.000160235 10
24.6642 -9.17254 -0.459323 0.00016108 10
24.6845 -9.1801 0.459702 0.000161067 10
24.6481 -9.16656 1.37819 0.000163652 10
11.8665 -4.41313 1.10766 0.0016622 10
11.8687 -4.41394 1.55481 0.00163986 10
11.8542 -4.40856 2.00316 0.000338853 10
11.5383 -4.29105 2.39289 0.0014675 10
11.5358 -4.29013 2.84146 0.00142804 10
11.5237 -4.28564 3.29439 0.00138305 10
9.57008 -3.52111 -2.73235 0.000504918 1
11.1116 -4.08828 -2.73344 0.000304528 1
11.9235 -4.387 -2.46959 0.00199833 10
11.9056 -4.38039 -2.00924 0.00204394 10
15.542 -5.71834 -2.03338 0.00086817 10
24.5705 -9.04019 -2.29052 0.000211454 10
24.7798 -9.11719 -1.38377 0.000158126 10
24.7943 -9.12255 -0.461151 0.000158961 10
24.773 -9.11468 0.460753 0.000158948 10
24.5816 -9.04426 1.3727 0.000166571 10
11.9251 -4.38757 1.11168 0.00164388 10
11.927 -4.38828 1.56043 0.00162178 10
11.8804 -4.37114 2.00499 0.000338855 10
11.4898 -4.22743 2.37976 0.00148932 10
11.5072 -4.23382 2.83075 0.0014493 10
11.4864 -4.22616 3.27947 0.00140368 10
9.58163 -3.48743 -2.73216 0.000504915 1
11.1234 -4.04858 -2.73284 0.000304527 1
11.9604 -4.35322 -2.47407 0.0019761 10
11.9636 -4.3544 -2.01646 0.00202122 10
15.495 -5.63971 -2.02464 0.000881752 10
24.4976 -8.91642 -2.28082 0.000215196 10
24.5631 -8.94025 -1.36991 0.000163395 10
24.5494 -8.93525 -0.456012 0.000164255 10
24.5393 -8.93159 0.455825 0.000164241 10
24.5052 -8.91916 1.36668 0.000169517 10
11.9777 -4.35953 1.11516 0.00162564 10
11.984 -4.36182 1.56588 0.00160376 10
11.8788 -4.32355 2.00217 0.000338858 10
11.5348 -4.19834 2.38604 0.00170511 10
11.5275 -4.19566 2.83213 0.00165932 10
11.5115 -4.18985 3.28246 0.00160712 10
9.59585 -3.45472 -2.73276 0.000504913 1
11.1484 -4.01366 -2.73552 0.000304525 1
12.0217 -4.32809 -2.48362 0.00195394 10
12.0091 -4.32353 -2.02156 0.00199858 10
15.4542 -5.56387 -2.01677 0.000895435 10
24.4433 -8.80012 -2.27288 0.000218973 10
24.6458 -8.87305 -1.37279 0.00016122 10
24.6514 -8.87506 -0.457329 0.000162069 10
24.6538 -8.87591 0.457373 0.000162056 10
24.4596 -8.806 1.36242 0.00017249 10
12.03 -4.33106 1.11862 0.00160745 10
12.0279 -4.3303 1.56963 0.00158581 10
11.8943 -4.2822 2.00224 0.00033886 10
11.5696 -4.16533 2.39022 0.00168611 10
11.5744 -4.16705 2.84007 0.00164081 10
11.5631 -4.16298 3.29301 0.00158916 10
9.6036 -3.41969 -2.73155 0.000504911 1
11.1734 -3.97866 -2.73823 0.000304524 1
12.0839 -4.3029 -2.49335 0.00193186 10
12.0631 -4.29549 -2.02813 0.00197603 10
15.3952 -5.48198 -2.00656 0.00090922 10
24.3786 -8.68083 -2.26403 0.000222784 10
24.3869 -8.6838 -1.35667 0.000225144 10
24.3879 -8.68414 -0.451875 0.00022632 10
24.3802 -8.68142 0.451733 0.000226295 10
24.3716 -8.67835 1.35582 0.00017549 10
12.0805 -4.30166 1.12191 0.00158934 10
12.0814 -4.302 1.57465 0.00156793 10
11.933 -4.24915 2.00625 0.000338863 10
9.63639 -3.39351 -2.73749 0.000504909 1
11.1647 -3.93169 -2.73272 0.000304522 1
12.1373 -4.27423 -2.50127 0.00190987 10
12.1364 -4.27389 -2.03792 0.00195356 10
15.3676 -5.41177 -2.00048 0.000923107 10
24.3184 -8.56386 -2.25565 0.000226629 10
24.3107 -8.56114 -1.35076 0.000229027 10
24.3045 -8.55897 -0.449774 0.000230222 10
24.3182 -8.56381 0.450028 0.000230196 10
24.3123 -8.56171 1.35085 0.000178517 10
12.1155 -4.26654 1.12377 0.00157129 10
12.1421 -4.2759 1.5806 0.00155011 10
11.9318 -4.20185 2.00357 0.000338865 10
9.64432 -3.35851 -2.7364 0.000504907 1
11.1983 -3.89966 -2.73761 0.000304521 1
12.1877 -4.24422 -2.50859 0.00188796 10
12.171 -4.2384 -2.04124 0.00193118 10
15.3324 -5.33931 -1.99347 0.000937094 10
24.2381 -8.44062 -2.24546 0.000230508 10
24.2374 -8.44037 -1.34505 0.000232945 10
24.2396 -8.44111 -0.448024 0.000234158 10
24.2558 -8.44677 0.448324 0.000234132 10
24.2357 -8.43977 1.34495 0.000181571 10
12.1715 -4.23858 1.12759 0.00155331 10
12.1748 -4.23971 1.58292 0.00153236 10
11.9541 -4.16286 2.00486 0.000338868 10
12.265 -4.27113 2.5245 0.000921451 10
12.2754 -4.27475 3.00093 0.000896445 10
12.2567 -4.26824 3.47761 0.000867944 10
9.65043 -3.32291 -2.73482 0.000504905 1
11.2138 -3.86123 -2.73809 0.000304519 1
12.2234 -4.20887 -2.5129 0.00186614 10
12.2223 -4.20848 -2.04737 0.00190888 10
15.2703 -5.25798 -1.98299 0.00095118 10
15.2781 -5.26068 -1.41368 0.000637165 10
15.2689 -5.25751 -0.846319 0.000643121 10
15.2836 -5.26256 -0.282148 0.000646085 10
15.276 -5.25996 0.282008 0.000646023 10
15.2828 -5.26228 0.847087 0.000642937 10
12.2292 -4.21086 1.13157 0.00153541 10
12.2255 -4.20957 1.58759 0.00151469 10
11.9658 -4.12014 2.00439 0.00033887 10
9.67074 -3.29219 -2.7373 0.000504903 1
11.2093 -3.81595 -2.73371 0.000304518 1
12.2849 -4.18211 -2.52251 0.00184441 10
12.2915 -4.18435 -2.05649 0.00188668 10
15.234 -5.18609 -1.97592 0.000965366 10
15.2746 -5.19991 -1.41167 0.000703274 10
15.275 -5.20003 -0.845644 0.000709863 10
15.2818 -5.20233 -0.281777 0.000713149 10
15.2884 -5.2046 0.2819 0.000713097 10
15.2723 -5.19911 0.845495 0.000709706 10
12.2854 -4.18228 1.13541 0.00151757 10
12.2752 -4.17882 1.59215 0.00149708 10
11.9804 -4.07846 2.00445 0.000338872 10
9.66287 -3.25192 -2.73185 0.000504901 1
11.2362 -3.78141 -2.73705 0.000304517 1
12.3375 -4.15203 -2.53033 0.00182277 10
12.3518 -4.15683 -2.06414 0.00186456 10
15.2032 -5.11645 -1.96959 0.000979648 10
15.361 -5.16955 -1.41798 0.000694674 10
15.3633 -5.17033 -0.849529 0.000701186 10
15.3408 -5.16274 -0.282531 0.000704434 10
15.3476 -5.16506 0.282658 0.000704382 10
15.3478 -5.16512 0.848674 0.000701031 10
12.3561 -4.1583 1.14059 0.00149981 10
12.3479 -4.15553 1.59969 0.00147955 10
11.9921 -4.0358 2.00404 0.000338874 10
9.67903 -3.21979 -2.73322 0.0005049 1
11.2537 -3.74362 -2.73811 0.000304515 1
12.3874 -4.12074 -2.5376 0.00180122 10
12.3921 -4.1223 -2.06846 0.00184254 10
15.1505 -5.0399 -1.96047 0.000994028 10
15.1717 -5.04696 -1.39887 0.000665844 10
15.1551 -5.04144 -0.837038 0.000672054 10
15.1659 -5.04503 -0.278985 0.000675144 10
15.1687 -5.04595 0.279035 0.00067508 10
15.1684 -5.04586 0.837772 0.000671864 10
12.39 -4.1216 1.14238 0.00148213 10
12.4033 -4.12604 1.60499 0.00146209 10
11.9969 -3.99085 2.0025 0.000338876 10
9.70457 -3.1907 -2.73727 0.000504898 1
11.2408 -3.69579 -2.73181 0.000304514 1
12.4459 -4.09201 -2.54664 0.00177976 10
12.4598 -4.09658 -2.07737 0.00182062 10
12.6252 -4.15097 -1.63182 0.00110121 10
12.6073 -4.14507 -1.16108 0.00111616 10
12.6192 -4.14898 -0.696172 0.00112619 10
12.6007 -4.14289 -0.231529 0.00113117 10
12.601 -4.14301 0.231535 0.00113107 10
12.6001 -4.1427 0.695117 0.00112588 10
12.4379 -4.08939 1.14548 0.00146452 10
12.4536 -4.09454 1.60964 0.0014447 10
12.0155 -3.9505 2.00329 0.000338879 10
9.71501 -3.1566 -2.73709 0.000504896 1
11.2601 -3.65863 -2.73338 0.000304513 1
12.4973 -4.06062 -2.55424 0.0017584 10
12.5097 -4.06466 -2.08331 0.00179879 10
12.566 -4.08295 -1.62232 0.00111654 10
12.5819 -4.0881 -1.15742 0.00113169 10
12.5889 -4.09038 -0.693709 0.00114185 10
12.5817 -4.08805 -0.230916 0.0011469 10
12.5798 -4.08742 0.230881 0.0011468 10
12.5816 -4.088 0.693305 0.00114154 10
12.5014 -4.06195 1.15002 0.00144698 10
12.5079 -4.06406 1.61481 0.0014274 10
12.0354 -3.91056 2.00433 0.00155332 10
9.72676 -3.12292 -2.73731 0.000504894 1
11.2752 -3.62007 -2.73396 0.000304512 1
12.5563 -4.03139 -2.56341 0.00173713 10
12.5714 -4.03623 -2.09122 0.00177706 10
12.569 -4.03547 -1.62087 0.00119521 10
12.5612 -4.03295 -1.15421 0.00121145 10
12.5508 -4.02962 -0.69083 0.00122233 10
12.5522 -4.03006 -0.230114 0.00122776 10
12.5658 -4.03444 0.230365 0.00122767 10
12.5634 -4.03368 0.691526 0.00122207 10
12.5693 -4.03555 1.15496 0.00142953 10
12.5614 -4.03302 1.61989 0.00141016 10
12.0919 -3.88229 2.01146 0.00153469 10
9.73601 -3.08844 -2.73687 0.000504893 1
11.3008 -3.58482 -2.73711 0.00030451 1
12.614 -4.0014 -2.57232 0.00171596 10
12.6028 -3.99784 -2.09411 0.00175543 10
12.6173 -4.00245 -1.62529 0.00118067 10
12.6218 -4.00388 -1.1585 0.00119672 10
12.6293 -4.00626 -0.694379 0.00120748 10
12.6032 -3.99796 -0.230792 0.00121285 10
12.6163 -4.00212 0.231032 0.00121276 10
12.6113 -4.00055 0.693389 0.00120722 10
12.6057 -3.99878 1.15702 0.00141215 10
12.6236 -4.00443 1.62609 0.00139301 10
12.132 -3.84849 2.01588 0.00151614 10
12.7104 -4.03199 2.59199 0.000837377 10
12.7023 -4.02941 3.07657 0.000814541 10
12.694 -4.02678 3.56839 0.000788516 10
9.74842 -3.05497 -2.73734 0.000504891 1
11.2959 -3.53993 -2.73293 0.000304509 1
12.6749 -3.97207 -2.5819 0.00169489 10
12.6793 -3.97344 -2.1045 0.0017339 10
12.8409 -4.02409 -1.65227 0.00107423 10
12.8471 -4.02603 -1.17787 0.00108887 10
12.853 -4.02788 -0.705899 0.00109867 10
12.8686 -4.03278 -0.235394 0.00110355 10
12.8556 -4.02869 0.235155 0.00110345 10
12.8575 -4.0293 0.706146 0.00109838 10
12.6671 -3.96962 1.16137 0.00139486 10
12.6866 -3.97576 1.63242 0.00137594 10
12.1846 -3.81843 2.0224 0.00149767 10
12.6936 -3.97793 2.58571 0.00080409 10
12.7023 -3.98065 3.07317 0.000782156 10
12.6997 -3.97984 3.56605 0.000757163 10
9.74791 -3.01748 -2.73422 0.00050489 1
11.3293 -3.50702 -2.73803 0.000304508 1
12.7268 -3.9396 -2.58965 0.00167392 10
12.7269 -3.93962 -2.1101 0.00171247 10
12.8194 -3.96828 -1.64772 0.00108881 10
12.8252 -3.97007 -1.17459 0.00110363 10
12.8143 -3.9667 -0.703011 0.00111357 10
12.8292 -3.97129 -0.234418 0.00111851 10
12.8195 -3.96829 0.23424 0.00111841 10
12.8279 -3.97089 0.703753 0.00111327 10
12.7331 -3.94156 1.16616 0.00137764 10
12.731 -3.94091 1.63635 0.00135895 10
12.2535 -3.79308 2.03162 0.00147929 10
12.7145 -3.93578 2.58714 0.00126545 10
12.7081 -3.9338 3.07124 0.00123094 10
12.699 -3.931 3.56199 0.00119161 10
9.75563 -2.9826 -2.73345 0.000504888 1
11.3405 -3.46715 -2.7378 0.000304507 1
12.7947 -3.91172 -2.60067 0.00165306 10
12.7975 -3.91259 -2.11954 0.00169115 10
12.7957 -3.91204 -1.6429 0.00110348 10
12.7875 -3.90954 -1.16988 0.00111849 10
12.7968 -3.91238 -0.701296 0.00112855 10
12.8028 -3.91423 -0.233686 0.00113355 10
12.7959 -3.91211 0.233559 0.00113345 10
12.8033 -3.91436 0.701651 0.00112825 10
12.7814 -3.90767 1.16932 0.00136052 10
12.7779 -3.90661 1.64062 0.00134204 10
12.314 -3.76477 2.03946 0.001461 10
12.6666 -3.87258 2.57464 0.0012825 10
12.6591 -3.87029 3.05613 0.00124755 10
12.6826 -3.87747 3.55357 0.00120771 10
9.77787 -2.95211 -2.73678 0.000504887 1
11.3317 -3.42123 -2.73275 0.000304506 1
12.8295 -3.87347 -2.60499 0.00163229 10
12.8293 -3.87341 -2.12256 0.00166993 10
12.8409 -3.87689 -1.64695 0.00112322 10
12.8322 -3.87428 -1.17273 0.00113852 10
12.8296 -3.8735 -0.70235 0.00114879 10
12.8545 -3.88102 -0.234381 0.0011539 10
12.8381 -3.87606 0.234081 0.00115382 10
12.8513 -3.88004 0.703535 0.00114854 10
12.8321 -3.87424 1.17271 0.00134347 10
12.8458 -3.87837 1.64758 0.00132521 10
12.3706 -3.73491 2.04667 0.00144279 10
12.6481 -3.81867 2.56814 0.00129965 10
12.6441 -3.81747 3.04926 0.00126426 10
12.6348 -3.81467 3.53642 0.00122392 10
9.76742 -2.91179 -2.73099 0.000504885 1
11.3467 -3.38261 -2.73352 0.000304505 1
12.8943 -3.84397 -2.61541 0.00161163 10
12.9027 -3.84646 -2.13246 0.00164882 10
12.9183 -3.8511 -1.65515 0.000286076 10
13.091 -3.90259 -1.19512 0.00106289 10
13.1026 -3.90607 -0.716544 0.00107249 10
13.1021 -3.90591 -0.238644 0.00107727 10
13.0866 -3.90129 0.238362 0.00107717 10
13.0982 -3.90474 0.7163 0.00107221 10
12.8988 -3.84531 1.17758 0.00132651 10
12.9062 -3.84751 1.6536 0.00130847 10
12.4266 -3.70453 2.05378 0.00142468 10
12.6167 -3.76119 2.55909 0.0013169 10
12.6043 -3.75751 3.03649 0.00128105 10
12.5988 -3.75588 3.52266 0.00124021 10
9.79053 -2.88151 -2.73463 0.000504884 1
11.3648 -3.34485 -2.73505 0.000304504 1
12.9656 -3.81599 -2.62715 0.00159108 10
12.9635 -3.81538 -2.1403 0.00162781 10
12.9538 -3.81252 -1.65799 0.00165764 10
13.0589 -3.84346 -1.19096 0.00107694 10
13.0742 -3.84795 -0.714249 0.00108666 10
13.06 -3.84376 -0.237631 0.0010915 10
13.0604 -3.84389 0.237638 0.00109141 10
13.0614 -3.84419 0.713553 0.00108638 10
12.97 -3.81729 1.18286 0.00130964 10
12.9575 -3.81359 1.65845 0.00129182 10
12.4731 -3.67103 2.05933 0.00140666 10
12.5836 -3.70355 2.54974 0.00133424 10
12.5784 -3.70202 3.02711 0.00129795 10
12.5648 -3.69802 3.50951 0.00125659 10
9.80127 -2.84753 -2.73483 0.000504883 1
11.3733 -3.30425 -2.7343 0.000304503 1
13.0068 -3.77882 -2.6328 0.00157063 10
13.0234 -3.78364 -2.14799 0.00160692 10
13.0102 -3.77981 -1.6635 0.00163639 10
13.0409 -3.78872 -1.1881 0.00109108 10
13.0409 -3.78873 -0.711702 0.00110092 10
13.0257 -3.78431 -0.236765 0.00110582 10
13.0193 -3.78246 0.236649 0.00110572 10
13.038 -3.7879 0.711548 0.00110063 10
13.0182 -3.78214 1.18604 0.00129285 10
13.0203 -3.78275 1.66479 0.00127525 10
12.5272 -3.63948 2.06615 0.00138873 10
12.5502 -3.64618 2.54038 0.00135167 10
12.5371 -3.64237 3.0141 0.00131493 10
12.5543 -3.64735 3.50299 0.00127306 10
9.82004 -2.81585 -2.73731 0.000504882 1
11.3795 -3.26303 -2.73304 0.000304503 1
13.0723 -3.74841 -2.64339 0.00155029 10
13.0795 -3.75049 -2.15508 0.00158614 10
13.0884 -3.75303 -1.67181 0.00161524 10
13.0815 -3.75105 -1.1906 0.00108148 10
13.0798 -3.75057 -0.713106 0.00109126 10
13.0623 -3.74556 -0.237192 0.00109613 10
13.0672 -3.74695 0.23728 0.00109605 10
13.0743 -3.749 0.712809 0.00109101 10
13.0783 -3.75016 1.19032 0.00127615 10
13.0886 -3.7531 1.67184 0.00125876 10
12.5851 -3.60873 2.07362 0.00137089 10
12.5796 -3.60715 2.54377 0.00133993 10
12.5727 -3.60516 3.01961 0.00130351 10
12.5761 -3.60615 3.50556 0.001262 10
9.82586 -2.78044 -2.73621 0.000504881 1
11.4066 -3.22775 -2.73683 0.000304502 1
13.1339 -3.71653 -2.65322 0.00153006 10
13.125 -3.714 -2.16042 0.00156546 10
13.1354 -3.71695 -1.67616 0.00159421 10
13.3214 -3.76957 -1.21123 0.0010381 10
13.3321 -3.77261 -0.726141 0.0010475 10
13.3417 -3.77533 -0.242025 0.00105218 10
13.3307 -3.77222 0.241825 0.00105209 10
13.3395 -3.7747 0.726543 0.00104723 10
13.1367 -3.71732 1.19444 0.00125955 10
13.1418 -3.71874 1.67696 0.00124237 10
13.1438 -3.71933 2.16352 0.00121978 10
13.1333 -3.71635 2.65309 0.00119202 10
13.1465 -3.72008 3.15428 0.00115936 10
13.1383 -3.71775 3.65861 0.00112214 10
9.8259 -2.74344 -2.73354 0.000504879 1
11.4195 -3.18839 -2.73724 0.000304501 1
13.2049 -3.68688 -2.66495 0.00150995 10
13.2024 -3.68617 -2.17103 0.0015449 10
13.1817 -3.68041 -1.68042 0.00157329 10
13.3109 -3.71647 -1.20909 0.00105148 10
13.3008 -3.71366 -0.723728 0.001061 10
13.3045 -3.71468 -0.241113 0.00106574 10
13.2844 -3.70907 0.240748 0.00106564 10
13.2888 -3.71031 0.723075 0.00106072 10
13.203 -3.68635 1.19929 0.00124303 10
13.1861 -3.68164 1.68098 0.00122607 10
13.2008 -3.68573 2.17077 0.00120376 10
13.1939 -3.6838 2.66272 0.00117634 10
13.1822 -3.68055 3.15976 0.00114409 10
13.2102 -3.68834 3.67503 0.00110733 10
9.84746 -2.71244 -2.73688 0.000504878 1
11.4297 -3.14827 -2.73703 0.0003045 1
13.2604 -3.65253 -2.67356 0.00148994 10
13.2633 -3.65331 -2.17893 0.00152446 10
13.2459 -3.64853 -1.68696 0.00155249 10
13.2742 -3.65633 -1.20459 0.00106493 10
13.2582 -3.65193 -0.720712 0.00107457 10
13.276 -3.65681 -0.240363 0.00107936 10
13.2618 -3.6529 0.240106 0.00107927 10
13.2649 -3.65377 0.721075 0.00107429 10
13.2592 -3.6522 1.20323 0.0012266 10
13.2677 -3.65454 1.68974 0.00120985 10
13.2585 -3.65199 2.17814 0.00118783 10
13.259 -3.65213 2.67326 0.00116075 10
13.2481 -3.64913 3.17246 0.0011289 10
13.2652 -3.65386 3.68679 0.00109261 10
9.84063 -2.67364 -2.73238 0.000504877 1
11.4304 -3.10557 -2.73458 0.0003045 1
13.3136 -3.61722 -2.68171 0.00147005 10
13.3003 -3.61362 -2.18293 0.00150413 10
13.3057 -3.61508 -1.69296 0.00153181 10
13.3134 -3.61719 -1.207 0.00102566 10
13.3265 -3.62073 -0.72373 0.00103495 10
13.3253 -3.62041 -0.241026 0.00103959 10
13.3168 -3.61808 0.240871 0.00103951 10
13.3109 -3.61648 0.722881 0.00103472 10
13.3287 -3.62134 1.20839 0.00121027 10
13.3283 -3.62123 1.69584 0.00119374 10
13.3162 -3.61792 2.18553 0.00117199 10
13.3278 -3.62107 2.68457 0.00114525 10
13.3246 -3.6202 3.18773 0.0011138 10
13.3203 -3.61905 3.69855 0.00107798 10
9.86585 -2.64355 -2.7368 0.000504876 1
11.4553 -3.06945 -2.73797 0.000304499 1
13.3872 -3.5871 -2.69401 0.00145027 10
13.3667 -3.58161 -2.19177 0.00148392 10
13.3841 -3.58627 -1.70133 0.00151125 10
13.5719 -3.63659 -1.22928 0.00101437 10
13.5484 -3.63028 -0.735087 0.00102358 10
13.5518 -3.63121 -0.244893 0.00102817 10
13.5592 -3.63317 0.245025 0.00102808 10
13.556 -3.63233 0.735503 0.00102332 10
13.3633 -3.58068 1.21038 0.00119403 10
13.3774 -3.58447 1.70048 0.00117771 10
13.3627 -3.58053 2.1911 0.00115623 10
13.3774 -3.58446 2.69203 0.00112984 10
13.3797 -3.58508 3.19791 0.00109879 10
13.3758 -3.58405 3.71048 0.00106342 10
9.86305 -2.60593 -2.73348 0.000504876 1
11.4622 -3.02845 -2.73706 0.000304498 1
13.4342 -3.54947 -2.70095 0.00143061 10
13.434 -3.54943 -2.20076 0.00146383 10
13.4413 -3.55135 -1.70702 0.0014908 10
13.534 -3.57583 -1.2247 0.00102712 10
13.5256 -3.57361 -0.733168 0.00103644 10
13.5266 -3.5739 -0.244211 0.00104108 10
13.5379 -3.57686 0.244413 0.00104099 10
13.5287 -3.57445 0.733341 0.00103617 10
13.4337 -3.54935 1.21563 0.00117789 10
13.4424 -3.55163 1.70715 0.00116177 10
13.4513 -3.554 2.20359 0.00114057 10
13.4439 -3.55204 2.7029 0.00111452 10
13.4515 -3.55404 3.21209 0.00108387 10
13.4272 -3.54763 3.72128 0.00104896 10
9.88425 -2.57466 -2.73685 0.000504875 1
11.4678 -2.98713 -2.73589 0.000304497 1
13.4896 -3.51379 -2.70962 0.00141107 10
13.4911 -3.51417 -2.20808 0.00144386 10
13.5094 -3.51894 -1.7141 0.00147048 10
13.4925 -3.51454 -1.21983 0.000984623 10
13.5118 -3.51955 -0.73175 0.000993564 10
13.499 -3.51622 -0.243488 0.00099802 10
13.5095 -3.51896 0.243677 0.000997943 10
13.4989 -3.5162 0.731054 0.000993335 10
13.5088 -3.51878 1.2213 0.00116184 10
13.5018 -3.51697 1.71314 0.00114593 10
13.4969 -3.51568 2.20903 0.00112501 10
13.4961 -3.51547 2.71091 0.00109929 10
13.5022 -3.51706 3.22124 0.00106904 10
13.5084 -3.51868 3.74035 0.00103458 10
9.87257 -2.53485 -2.73115 0.000504874 1
11.4694 -2.94485 -2.73381 0.000304497 1
13.5658 -3.48312 -2.72246 0.00139165 10
13.5534 -3.47991 -2.21627 0.001424 10
13.5551 -3.48037 -1.71835 0.00145028 10
13.5722 -3.48476 -1.22593 0.000971107 10
13.5518 -3.47951 -0.733256 0.000979931 10
13.5645 -3.48277 -0.244449 0.000984329 10
13.5538 -3.48003 0.244257 0.000984253 10
13.5703 -3.48427 0.734259 0.000979705 10
13.5491 -3.47883 1.22385 0.00114589 10
13.5522 -3.4796 1.71797 0.00113019 10
13.5565 -3.48071 2.21678 0.00110954 10
13.5583 -3.48117 2.72094 0.00108415 10
13.5767 -3.4859 3.23609 0.0010543 10
13.564 -3.48263 3.75234 0.00102028 10
9.88494 -2.50128 -2.73214 0.000504873 1
11.4742 -2.90343 -2.73253 0.000304496 1
13.6161 -3.4454 -2.73012 0.00137234 10
13.6332 -3.44974 -2.22735 0.00140427 10
13.6296 -3.44883 -1.72625 0.0014302 10
13.7831 -3.48765 -1.24387 0.000991595 10
13.788 -3.4889 -0.745374 0.00100063 10
13.7855 -3.48827 -0.248211 0.00100512 10
13.7867 -3.48858 0.248233 0.00100504 10
13.7786 -3.48652 0.744864 0.00100037 10
13.6139 -3.44485 1.2286 0.00113004 10
13.6127 -3.44455 1.72411 0.00111454 10
13.6188 -3.44609 2.22499 0.00109416 10
13.6197 -3.4463 2.73083 0.00106911 10
13.6266 -3.44807 3.24511 0.00103965 10
13.629 -3.44868 3.76699 0.00100608 10
9.89393 -2.46683 -2.73223 0.000504873 1
11.5067 -2.86895 -2.73786 0.000304496 1
13.6686 -3.40798 -2.73825 0.000165444 1
13.677 -3.41006 -2.23254 0.00138467 10
13.6879 -3.41277 -1.73211 0.00141025 10
13.7525 -3.42888 -1.24002 0.00100374 10
13.7671 -3.43253 -0.743593 0.00101288 10
13.7669 -3.43247 -0.247658 0.00101743 10
13.754 -3.42926 0.247426 0.00101734 10
13.7696 -3.43315 0.743727 0.00101262 10
13.6845 -3.41194 1.23389 0.00111429 10
13.6873 -3.41262 1.73204 0.00109899 10
13.682 -3.4113 2.23335 0.00107888 10
13.6809 -3.41104 2.74072 0.00105416 10
13.6934 -3.41415 3.25815 0.00102509 10
13.7028 -3.4165 3.78406 0.000991966 10
9.91786 -2.43606 -2.73647 0.000504872 1
11.5188 -2.82929 -2.73837 0.000304495 1
13.6672 -3.357 -2.73561 0.000165444 1
13.7374 -3.37422 -2.24046 0.00136518 10
13.736 -3.37388 -1.7367 0.00139043 10
13.7469 -3.37655 -1.23844 0.00093106 10
13.746 -3.37634 -0.741811 0.000939539 10
13.7613 -3.38011 -0.247345 0.000943763 10
13.7554 -3.37865 0.247238 0.00094369 10
13.7386 -3.37451 0.741409 0.000939319 10
13.7415 -3.37523 1.23796 0.00109863 10
13.7379 -3.37436 1.73695 0.00108354 10
13.7491 -3.37711 2.24238 0.0010637 10
13.7455 -3.37623 2.75128 0.00103931 10
13.7472 -3.37664 3.26813 0.00101062 10
13.7517 -3.37773 3.79427 0.000977942 10
9.92494 -2.4011 -2.7361 0.000504871 1
11.5002 -2.7822 -2.73163 0.000304495 1
13.6916 -3.31234 -2.73815 0.000165444 1
13.8216 -3.34379 -2.25227 0.00134583 10
13.8003 -3.33865 -1.74335 0.00137074 10
14.061 -3.40172 -1.26567 0.00145059 10
14.0453 -3.39791 -0.757316 0.00146384 10
14.0581 -3.40101 -0.252463 0.00147044 10
14.0458 -3.39805 0.252243 0.00147032 10
14.0366 -3.39581 0.756847 0.00146347 10
13.8147 -3.34214 1.2435 0.00108308 10
13.8261 -3.34488 1.7466 0.00106819 10
13.8181 -3.34295 2.25171 0.00104861 10
13.8035 -3.33942 2.76053 0.00102455 10
13.8227 -3.34406 3.28327 0.000996249 10
13.8215 -3.34378 3.8103 0.00096401 10
9.92278 -2.36394 -2.73321 0.000504871 1
11.5378 -2.74869 -2.73825 0.000304495 1
13.704 -3.26474 -2.73833 0.000165444 1
13.8858 -3.30807 -2.26085 0.0013266 10
13.8814 -3.30701 -1.75212 0.00135117 10
14.015 -3.33885 -1.26047 0.00146805 10
14.031 -3.34265 -0.755911 0.00148145 10
14.0136 -3.33852 -0.251455 0.00148813 10
14.0297 -3.34235 0.251743 0.001488 10
14.0162 -3.33913 0.755115 0.00148108 10
13.8762 -3.30578 1.24798 0.00106763 10
13.8891 -3.30885 1.75309 0.00105294 10
13.8674 -3.30367 2.25784 0.00103362 10
13.8838 -3.30759 2.77426 0.00100989 10
13.8782 -3.30625 3.2937 0.000981971 10
13.8771 -3.306 3.82242 0.000950169 10
9.92498 -2.32789 -2.73156 0.00050487 1
11.5216 -2.70238 -2.73217 0.000304494 1
13.6958 -3.21232 -2.73443 0.000165443 1
13.9455 -3.27089 -2.26869 0.00130749 10
13.9458 -3.27095 -1.75879 0.00133173 10
13.9863 -3.28047 -1.25685 0.00148558 10
13.9887 -3.28102 -0.753012 0.00149913 10
13.9792 -3.27879 -0.25063 0.00150589 10
13.9726 -3.27725 0.250512 0.00150576 10
13.9989 -3.28341 0.75356 0.00149876 10
13.9502 -3.27199 1.2536 0.00105228 10
13.955 -3.27312 1.75996 0.00103779 10
13.9423 -3.27015 2.26818 0.00101874 10
13.9539 -3.27286 2.78597 0.000995322 10
13.9555 -3.27325 3.30933 0.000967788 10
13.9605 -3.27441 3.84222 0.00093642 10
9.9419 -2.29527 -2.734 0.00050487 1
11.5448 -2.66532 -2.73543 0.000304494 1
13.7104 -3.1653 -2.73513 0.000165443 1
14.0231 -3.23749 -2.27946 0.00128852 10
14.01 -3.23447 -1.76546 0.00131242 10
14.0123 -3.23499 -1.25816 0.00133055 10
14.0033 -3.23292 -0.753187 0.0013427 10
14.0206 -3.23692 -0.251169 0.00134875 10
14.0156 -3.23575 0.251077 0.00134865 10
14.006 -3.23354 0.75333 0.00134238 10
14.0219 -3.23721 1.25903 0.00103703 10
14.0158 -3.2358 1.76619 0.00102274 10
13.9975 -3.23159 2.27531 0.00100395 10
14 -3.23216 2.79291 0.000980856 10
14.02 -3.23677 3.32191 0.000953701 10
14.0251 -3.23795 3.85686 0.000922765 10
9.94582 -2.25964 -2.73289 0.000504869 1
11.5488 -2.62382 -2.73419 0.000304494 1
13.728 -3.11893 -2.73646 0.000165443 1
14.0661 -3.19573 -2.28462 0.00126968 10
14.0863 -3.20033 -1.77366 0.00129325 10
14.0694 -3.19648 -1.26228 0.00131112 10
14.0901 -3.20119 -0.757248 0.0013231 10
14.0825 -3.19946 -0.252074 0.00132907 10
14.0713 -3.19692 0.251874 0.00132897 10
14.0825 -3.19946 0.75684 0.00132279 10
14.0888 -3.20089 1.26402 0.00102189 10
14.0672 -3.196 1.77126 0.00100779 10
14.0866 -3.2004 2.28796 0.000989264 10
14.0775 -3.19834 2.80613 0.00096649 10
14.0815 -3.19923 3.33381 0.000939711 10
14.0848 -3.2 3.8702 0.000909204 10
9.95332 -2.22483 -2.7328 0.000504869 1
11.5601 -2.58398 -2.73471 0.000304494 1
13.74 -3.07125 -2.73669 0.000165443 1
14.1298 -3.15839 -2.29317 0.00125096 10
14.1346 -3.15945 -1.77834 0.0012742 10
14.1366 -3.1599 -1.26731 0.00129183 10
14.1506 -3.16304 -0.759904 0.00130364 10
14.1496 -3.1628 -0.253076 0.00130953 10
14.1312 -3.1587 0.252748 0.00130943 10
14.1365 -3.15988 0.759144 0.00130333 10
14.1248 -3.15726 1.26625 0.00114511 10
14.1373 -3.16007 1.77868 0.00112931 10
14.1255 -3.15743 2.29247 0.00110853 10
14.1283 -3.15805 2.81404 0.00108299 10
14.1352 -3.15959 3.3439 0.00105296 10
14.1256 -3.15745 3.87835 0.00101876 10
9.96094 -2.19005 -2.73277 0.000504869 1
11.5699 -2.54381 -2.73492 0.000304493 1
13.7582 -3.02493 -2.73819 0.000165443 1
14.2124 -3.1248 -2.30479 0.00123238 10
14.2086 -3.12397 -1.78627 0.0012553 10
14.2202 -3.12652 -1.27382 0.00127267 10
14.2167 -3.12576 -0.762864 0.00128432 10
14.1965 -3.12129 -0.253719 0.00129013 10
14.2227 -3.12706 0.254187 0.00129002 10
14.2234 -3.12721 0.763219 0.00128401 10
14.0835 -3.09646 1.26158 0.00115842 10
14.0938 -3.09873 1.77184 0.00114244 10
14.0965 -3.09932 2.28599 0.00112143 10
14.0854 -3.09688 2.80332 0.00109561 10
14.1047 -3.10113 3.33411 0.00106526 10
14.0853 -3.09686 3.8643 0.00103068 10
9.96141 -2.15373 -2.73083 0.000504869 1
11.5874 -2.5053 -2.73699 0.000304493 1
13.7503 -2.97292 -2.73454 0.000165443 1
14.2874 -3.08904 -2.31518 0.00121393 10
14.2817 -3.08782 -1.79409 0.00123652 10
14.2866 -3.08888 -1.2788 0.00125365 10
14.2843 -3.08838 -0.765907 0.00126513 10
14.2678 -3.08481 -0.2548 0.00127086 10
14.293 -3.09026 0.25525 0.00127075 10
14.286 -3.08874 0.765996 0.00126483 10
14.0659 -3.04115 1.25904 0.00117178 10
14.0595 -3.03976 1.76617 0.00115562 10
14.0531 -3.03839 2.27722 0.00113439 10
14.058 -3.03945 2.79574 0.00110829 10
14.0687 -3.04176 3.32307 0.0010776 10
14.0615 -3.0402 3.85482 0.00104264 10
9.9941 -2.12431 -2.73774 0.000504868 1
11.5759 -2.46053 -2.73221 0.000304493 1
13.7671 -2.92628 -2.73583 0.000165442 1
16.9052 -3.5933 -2.73733 7.70383e-05 1
22.1925 -4.71715 -1.98496 0.000390829 10
33.5878 -7.13932 -1.79959 9.33161e-05 10
33.6119 -7.14444 -0.599806 9.38545e-05 10
33.6004 -7.14199 0.5996 9.38445e-05 10
21.8736 -4.64937 1.17196 0.000278294 10
14.025 -2.98112 1.25444 0.00118518 10
14.0286 -2.98187 1.76098 0.00116886 10
14.031 -2.98238 2.27194 0.00114739 10
14.0172 -2.97945 2.78554 0.00112101 10
14.0236 -2.98082 3.30994 0.00108999 10
14.0212 -2.98029 3.84089 0.00105465 10
9.99185 -2.08741 -2.73511 0.000504868 1
11.586 -2.42045 -2.7326 0.000304493 1
13.7772 -2.87822 -2.73584 0.000165442 1
16.9151 -3.53375 -2.73693 7.70382e-05 1
22.1563 -4.62869 -1.98027 0.000395789 10
22.1492 -4.62721 -1.18585 0.000399822 10
22.1446 -4.62625 -0.39488 0.000401832 10
22.1499 -4.62737 0.394975 0.000401795 10
21.9803 -4.59193 1.17681 0.00027362 10
13.9813 -2.92084 1.24961 0.00119864 10
13.9919 -2.92305 1.75507 0.00118214 10
14.0092 -2.92669 2.26675 0.00116044 10
14.0018 -2.92513 2.78043 0.00113378 10
14.0054 -2.92589 3.30322 0.00110242 10
14.0042 -2.92564 3.83343 0.0010667 10
9.99322 -2.05132 -2.73351 0.000504868 1
11.6185 -2.38494 -2.73828 0.000304493 1
13.8016 -2.83306 -2.73869 0.000165442 1
16.9362 -3.47651 -2.73836 7.70382e-05 1
22.1056 -4.53764 -1.97432 0.000400772 10
22.1022 -4.53694 -1.18248 0.000404853 10
22.1099 -4.53852 -0.393977 0.000406887 10
22.083 -4.533 0.393497 0.000406849 10
22.085 -4.5334 1.18156 0.000268987 10
13.9657 -2.86675 1.24732 0.00121215 10
13.9757 -2.86881 1.75178 0.00119547 10
13.966 -2.8668 2.25811 0.00117354 10
13.9744 -2.86854 2.77299 0.00114659 10
13.9578 -2.86512 3.2896 0.0011149 10
13.9553 -2.86462 3.81729 0.0010788 10
9.99464 -2.01527 -2.73195 0.000504868 1
11.6143 -2.34186 -2.73535 0.000304493 1
13.795 -2.78156 -2.73544 0.000165442 1
16.9497 -3.41766 -2.7386 7.70382e-05 1
22.054 -4.44688 -1.96831 0.000405778 10
22.0535 -4.44677 -1.17904 0.000409907 10
22.0401 -4.44408 -0.392455 0.000411964 10
22.039 -4.44386 0.392435 0.000411927 10
22.0514 -4.44634 1.17892 0.000319522 10
14.0162 -2.82617 1.25094 0.00102151 10
14.0112 -2.82515 1.75498 0.00100745 10
14.023 -2.82753 2.26572 0.000988959 10
14.0076 -2.82443 2.7776 0.000966235 10
14.0072 -2.82436 3.29891 0.000939515 10
14.0203 -2.82699 3.83233 0.000909075 10
10.0108 -1.9822 -2.73448 0.000504868 1
11.6226 -2.30133 -2.73537 0.000304493 1
13.8103 -2.73452 -2.73658 0.000165442 1
16.9547 -3.35712 -2.73749 7.70382e-05 1
22.0012 -4.35635 -1.96222 0.000410807 10
22.001 -4.35632 -1.17541 0.000414983 10
21.9946 -4.35506 -0.391372 0.000417064 10
21.9982 -4.35577 0.391435 0.000417026 10
21.9947 -4.35507 1.17507 0.000323479 10
14.09 -2.78991 1.25665 0.00100575 10
14.0697 -2.78588 1.76108 0.000991896 10
14.0649 -2.78493 2.27091 0.000973677 10
14.0907 -2.79003 2.79213 0.000951286 10
14.0799 -2.7879 3.31372 0.000924957 10
14.0776 -2.78744 3.84532 0.000894963 10
10.0186 -1.94742 -2.73472 0.000504868 1
11.6297 -2.26058 -2.73518 0.000304493 1
13.8185 -2.68605 -2.73632 0.000165442 1
16.9759 -3.29978 -2.73904 7.70382e-05 1
21.9481 -4.26628 -1.95615 0.000415857 10
21.9535 -4.26734 -1.17207 0.000420081 10
21.9557 -4.26775 -0.390411 0.000422187 10
21.9369 -4.26411 0.390077 0.000422149 10
21.9583 -4.26826 1.17232 0.000327453 10
21.9541 -4.26745 1.95668 0.000324102 10
21.9504 -4.26673 2.74561 0.000319138 10
21.9549 -4.26761 3.5424 0.000312621 10
21.9542 -4.26746 4.34733 0.000304627 10
21.9504 -4.26673 5.1625 0.000295249 10
21.9413 -4.26496 5.98919 0.000284595 10
10.0085 -1.90922 -2.73012 0.000504868 1
11.633 -2.21912 -2.73413 0.000304493 1
13.8296 -2.63814 -2.73668 0.000165442 1
16.9689 -3.23698 -2.73607 7.70383e-05 1
21.8928 -4.17627 -2.73657 0.000414564 10
21.8884 -4.17544 -1.94952 0.000420929 10
21.9695 -4.19091 -1.17213 0.000348467 10
21.9655 -4.19014 -0.390322 0.000350213 10
21.968 -4.19063 0.390367 0.000350181 10
21.8958 -4.17684 1.1682 0.000331445 10
21.9118 -4.1799 1.9516 0.000328055 10
21.9103 -4.17961 2.73876 0.000323035 10
21.8873 -4.17523 3.52912 0.000316444 10
21.8917 -4.17608 4.33206 0.000308358 10
21.9092 -4.17941 5.14935 0.000298873 10
21.8893 -4.17561 5.97098 0.000288098 10
10.0186 -1.87493 -2.73108 0.000504868 1
11.6431 -2.17895 -2.73469 0.000304493 1
13.8368 -2.58949 -2.7363 0.000165443 1
17.0069 -3.18276 -2.7404 7.70384e-05 1
21.8556 -4.09017 -2.73012 0.000419585 10
21.8479 -4.08873 -1.94463 0.000426022 10
22.0915 -4.13432 -1.17787 0.000342364 10
22.0832 -4.13276 -0.392156 0.000344081 10
22.0896 -4.13395 0.392269 0.000344049 10
21.8476 -4.08867 1.16486 0.000335453 10
21.8627 -4.09149 1.94594 0.000332025 10
21.8539 -4.08985 2.72991 0.000326948 10
21.8628 -4.09152 3.52285 0.000320283 10
21.8486 -4.08885 4.32067 0.000312106 10
21.8553 -4.09012 5.1333 0.000302513 10
21.8579 -4.09059 5.95848 0.000291616 10
10.0432 -1.84327 -2.73601 0.000504869 1
11.6422 -2.13674 -2.7327 0.000304493 1
13.8415 -2.54039 -2.73545 0.000165443 1
17.0086 -3.12167 -2.7389 7.70384e-05 1
21.7902 -3.99925 -2.72019 0.000424626 10
21.7971 -4.00051 -1.93885 0.000431136 10
22.2018 -4.0748 -1.18298 0.000336317 10
22.1799 -4.07078 -0.393619 0.000338006 10
22.1867 -4.07203 0.393739 0.000337975 10
21.8054 -4.00204 1.16186 0.000339477 10
21.8155 -4.0039 1.94049 0.000336011 10
21.7988 -4.00083 2.72126 0.000330877 10
21.7921 -3.99961 3.50919 0.000324137 10
21.8024 -4.00148 4.30874 0.000315869 10
21.8142 -4.00365 5.12032 0.000306168 10
21.7951 -4.00015 5.93752 0.000295148 10
10.0499 -1.80826 -2.7361 0.000504869 1
11.6587 -2.09773 -2.73485 0.000304494 1
13.869 -2.49544 -2.73916 0.000165443 1
17.0051 -3.05971 -2.7366 7.70385e-05 1
21.7633 -3.91584 -2.71511 0.000429688 10
21.7666 -3.91643 -1.93491 0.00043627 10
32.9201 -5.92326 -1.75297 0.00010583 10
32.9158 -5.92248 -0.583774 0.000106435 10
32.9353 -5.926 0.584119 0.000106424 10
21.7443 -3.91241 1.15787 0.000343517 10
21.7537 -3.9141 1.93376 0.000340013 10
21.7439 -3.91235 2.71269 0.000334822 10
21.7553 -3.91439 3.50103 0.000328007 10
21.7548 -3.91431 4.29661 0.000319647 10
21.7709 -3.9172 5.10692 0.000309838 10
21.7598 -3.9152 5.92414 0.000298695 10
10.0589 -1.77366 -2.73686 0.000504869 1
11.6617 -2.05628 -2.73386 0.000304494 1
13.8719 -2.44599 -2.73802 0.000165443 1
17.0139 -3.00001 -2.73631 7.70386e-05 1
21.694 -3.82524 -2.70478 0.000434769 10
21.703 -3.82683 -1.92806 0.000441424 10
32.8587 -5.79388 -1.74862 0.00010726 10
32.8481 -5.79201 -0.58221 0.000107872 10
32.8457 -5.7916 0.582169 0.000107861 10
21.7118 -3.82837 1.15542 0.000347573 10
21.7084 -3.82777 1.92853 0.00034403 10
21.72 -3.82982 2.70802 0.000338782 10
21.6949 -3.8254 3.48914 0.000331892 10
21.7014 -3.82654 4.28339 0.000323439 10
21.7206 -3.82994 5.09196 0.000313522 10
21.7068 -3.8275 5.90605 0.000302256 10
10.0564 -1.73704 -2.7345 0.00050487 1
11.6806 -2.01759 -2.73661 0.000304494 1
13.8765 -2.3969 -2.73727 0.000165443 1
17.0498 -2.94501 -2.74041 7.70387e-05 1
21.6598 -3.74131 -2.69888 0.000439869 10
21.6671 -3.74256 -1.9237 0.000446597 10
32.7921 -5.66418 -1.74401 0.000108697 10
32.7905 -5.6639 -0.580836 0.000109317 10
32.7817 -5.66239 0.58068 0.000109306 10
21.6687 -3.74284 1.15242 0.000351644 10
21.6739 -3.74373 1.9243 0.000348062 10
21.6544 -3.74037 2.6982 0.000342757 10
21.6583 -3.74104 3.48113 0.000335792 10
21.6563 -3.7407 4.2719 0.000327246 10
21.6628 -3.74181 5.0753 0.000317221 10
21.6586 -3.7411 5.88935 0.00030583 10
10.0603 -1.70158 -2.73394 0.00050487 1
11.6856 -1.97647 -2.73614 0.000304494 1
13.887 -2.34881 -2.73769 0.000165443 1
17.0537 -2.88442 -2.7394 7.70388e-05 1
21.6232 -3.65729 -2.6927 0.000444988 10
21.5961 -3.65271 -1.91625 0.000451789 10
32.7112 -5.53269 -1.73867 0.000110141 10
32.7019 -5.53111 -0.578921 0.000110769 10
32.7222 -5.53455 0.57928 0.000110758 10
21.6208 -3.65689 1.14919 0.00035573 10
21.6069 -3.65454 1.91721 0.000352109 10
21.6258 -3.65773 2.69302 0.000346747 10
21.6167 -3.6562 3.47238 0.000339706 10
21.6234 -3.65733 4.26286 0.000331068 10
21.6251 -3.65761 5.06346 0.000320933 10
21.6193 -3.65664 5.87516 0.000309418 10
10.0757 -1.66802 -2.73652 0.000504871 1
11.6994 -1.93683 -2.73779 0.000304495 1
13.8825 -2.29823 -2.73521 0.000165444 1
17.0444 -2.82169 -2.73631 7.7039e-05 1
21.5623 -3.56963 -2.68356 0.000450126 10
21.5684 -3.57063 -1.91267 0.000457 10
32.6508 -5.40531 -1.73444 0.000111593 10
32.6345 -5.40261 -0.57739 0.000112228 10
32.6343 -5.40257 0.577386 0.000112217 10
21.099 -3.49293 1.1208 0.000384572 10
21.1037 -3.49371 1.87147 0.000380683 10
21.1093 -3.49462 2.62717 0.000374924 10
21.1013 -3.4933 3.3876 0.00036736 10
21.5586 -3.569 4.2476 0.000334903 10
21.1136 -3.49534 4.94081 0.000347191 10
21.1169 -3.49589 5.73527 0.000334815 10
10.0582 -1.62907 -2.7302 0.000504871 1
11.6857 -1.89267 -2.73301 0.000304495 1
13.8839 -2.24871 -2.73393 0.000165444 1
17.0717 -2.76501 -2.73912 7.70391e-05 1
21.5054 -3.48312 -2.67494 0.000455282 10
21.51 -3.48386 -1.90641 0.000462229 10
32.5834 -5.27736 -1.72988 0.000113052 10
32.5774 -5.27639 -0.576051 0.000113695 10
32.583 -5.2773 0.576149 0.000113683 10
21.0602 -3.411 1.1181 0.000388944 10
21.1237 -3.42129 1.87217 0.000298342 10
21.1353 -3.42317 2.6289 0.000293826 10
21.1389 -3.42376 3.3917 0.000287896 10
21.522 -3.48581 4.23797 0.000338752 10
21.1313 -3.42252 4.94212 0.000272084 10
21.1383 -3.42367 5.73781 0.000262383 10
10.0766 -1.59598 -2.73368 0.000504872 1
11.688 -1.8512 -2.73202 0.000304495 1
13.8956 -2.20085 -2.7347 0.000165444 1
17.0666 -2.70309 -2.73679 7.70393e-05 1
21.4757 -3.40142 -2.66976 0.000460455 10
21.4802 -3.40214 -1.9027 0.000467476 10
32.5057 -5.1484 -1.72479 0.000114517 10
32.5087 -5.14887 -0.574514 0.000115168 10
32.5044 -5.14819 0.574438 0.000115156 10
21.0256 -3.33012 1.11564 0.000393331 10
21.2396 -3.36402 1.88138 0.000292874 10
21.2398 -3.36405 2.64042 0.000288435 10
21.2505 -3.36576 3.40771 0.000282607 10
21.4749 -3.4013 4.22634 0.000342614 10
21.2452 -3.36491 4.96598 0.000267066 10
21.2484 -3.36542 5.76447 0.000257532 10
