VERSION 0.7
FIELDS x y z intensity label
SIZE 4 4 4 4 4
TYPE F F F F F
COUNT 1 1 1 1 1
WIDTH 1161
HEIGHT 1
VIEWPOINT 18.8989 52.4905 2.72763 0.968535 0.000755581 0.000860585 -0.248873
POINTS 1161
DATA ascii
-5.39222 12.8276 1.21739 0.000176905 10
-5.38891 12.8197 1.70748 0.000174541 10
-5.39445 12.8329 2.20481 0.000171412 10
-5.38753 12.8164 2.70242 0.000167551 10
-5.38584 12.8124 3.20869 0.000162998 10
-5.38801 12.8176 3.72557 0.0001578 10
-4.00178 9.42759 -2.74427 0.000497562 1
-4.64772 10.9493 -2.74616 0.000299241 1
-5.43486 12.8037 -2.70373 0.000161707 10
-5.43518 12.8045 -2.20317 0.000165519 10
-5.43057 12.7936 -1.70652 0.000168628 10
-5.42847 12.7887 -1.21549 0.000171 10
-5.43483 12.8037 -0.72896 0.00017261 10
-5.43668 12.808 -0.242872 0.000173443 10
-5.43435 12.8025 0.242768 0.000173488 10
-5.43327 12.8 0.72875 0.000172747 10
-5.43235 12.7978 1.21636 0.000171225 10
-5.43139 12.7956 1.70678 0.000168939 10
-5.42853 12.7888 2.20048 0.000165914 10
-5.42904 12.79 2.70083 0.00016218 10
-5.43214 12.7973 3.20965 0.000157775 10
-5.43387 12.8014 3.72635 0.000152747 10
-4.03357 9.41104 -2.74353 0.000497528 1
-4.68843 10.9389 -2.74764 0.000299217 1
-5.47503 12.7742 -2.70151 0.000156306 10
-5.46842 12.7588 -2.19858 0.000159994 10
-5.47143 12.7658 -1.70535 0.000163001 10
-5.47406 12.7719 -1.21571 0.000165296 10
-5.47646 12.7775 -0.728557 0.000166855 10
-5.47406 12.7719 -0.242549 0.000167663 10
-5.47807 12.7813 0.242726 0.00016771 10
-5.47694 12.7787 0.728622 0.000166995 10
-5.47443 12.7728 1.21579 0.000165527 10
-5.47126 12.7654 1.70529 0.00016332 10
-5.47269 12.7687 2.2003 0.000160398 10
-5.47357 12.7708 2.70079 0.000156791 10
-5.48012 12.7861 3.2116 0.000152536 10
-5.47161 12.7662 3.72165 0.000147677 10
-4.07386 9.41412 -2.74856 0.000497494 1
-4.72664 10.9226 -2.74767 0.000299192 1
-5.5153 12.7451 -2.69941 0.000150887 10
-5.51154 12.7364 -2.19803 0.000154449 10
-5.51377 12.7416 -1.70467 0.000157355 10
-5.5164 12.7477 -1.21522 0.000159573 10
-5.51699 12.749 -0.728023 0.000161081 10
-5.51153 12.7364 -0.242237 0.000161863 10
-5.51968 12.7552 0.242595 0.000161911 10
-5.51937 12.7545 0.728338 0.000161224 10
-5.51646 12.7478 1.21523 0.00015981 10
-5.5141 12.7423 1.70477 0.000157682 10
-5.51695 12.7489 2.20018 0.000154864 10
-5.51565 12.7459 2.69958 0.000151384 10
-5.52001 12.756 3.20886 0.000147278 10
-5.5141 12.7423 3.72027 0.00014259 10
-4.1028 9.39095 -2.74596 0.00049746 1
-4.76641 10.9099 -2.74863 0.000299168 1
-5.56349 12.7343 -2.70123 0.000145452 10
-5.55934 12.7248 -2.19936 0.000148888 10
-5.55851 12.7229 -1.70476 0.000151692 10
-5.55988 12.7261 -1.21501 0.000153833 10
-5.56485 12.7375 -0.728469 0.00015529 10
-5.56203 12.731 -0.242502 0.000156047 10
-5.56234 12.7317 0.242516 0.000156096 10
-5.56404 12.7356 0.728362 0.000155436 10
-5.5604 12.7272 1.21512 0.000154076 10
-5.56466 12.737 1.70665 0.000152027 10
-5.55773 12.7211 2.19873 0.000149313 10
-5.56101 12.7286 2.70002 0.00014596 10
-5.56351 12.7344 3.20829 0.000142005 10
-5.56749 12.7435 3.72626 0.000137487 10
-4.1338 9.3726 -2.7448 0.000497426 1
-4.80124 10.8859 -2.74679 0.000299144 1
-5.60565 12.7097 -2.70014 0.000140001 10
-5.60433 12.7067 -2.1996 0.000143311 10
-5.60519 12.7087 -1.70546 0.000146012 10
-5.60326 12.7043 -1.21479 0.000148076 10
-5.60497 12.7082 -0.72791 0.000149481 10
-5.5991 12.6949 -0.242185 0.000150213 10
-5.60654 12.7117 0.242507 0.000150263 10
-5.59962 12.696 0.727214 0.000149631 10
-5.5983 12.6931 1.21371 0.000148324 10
-5.59776 12.6918 1.7032 0.000146355 10
-5.60327 12.7043 2.19919 0.000143745 10
-5.60532 12.709 2.69998 0.000140521 10
-5.6023 12.7021 3.20508 0.000136716 10
-5.60061 12.6983 3.71874 0.00013237 10
-4.16612 9.35725 -2.74455 0.000497393 1
-4.84454 10.881 -2.74982 0.00029912 1
-5.63778 12.6627 -2.69431 0.000134533 10
-5.64665 12.6826 -2.19882 0.000137717 10
-5.6404 12.6685 -1.70271 0.000140315 10
-5.64441 12.6776 -1.21411 0.000142302 10
-5.64911 12.6881 -0.727885 0.000143655 10
-5.64419 12.6771 -0.24222 0.000144361 10
-5.6429 12.6742 0.242165 0.000144412 10
-5.64716 12.6837 0.727634 0.000143808 10
-5.64635 12.6819 1.21452 0.000142555 10
-5.65141 12.6933 1.70603 0.000140666 10
-5.6422 12.6726 2.19709 0.000138161 10
-5.65025 12.6907 2.70027 0.000135065 10
-5.64803 12.6857 3.20588 0.000131411 10
-5.64368 12.6759 3.71793 0.000127236 10
-4.20431 9.35501 -2.74818 0.000497359 1
-4.87737 10.8527 -2.74693 0.000299096 1
-5.68939 12.6595 -2.69784 0.000129051 10
-5.68168 12.6423 -2.19527 0.000132108 10
-5.68705 12.6543 -1.70345 0.000134604 10
-5.68587 12.6516 -1.21352 0.000136512 10
-5.68981 12.6604 -0.72743 0.000137814 10
-5.69082 12.6627 -0.242323 0.000138494 10
-5.68975 12.6603 0.242277 0.000138547 10
-5.68502 12.6497 0.726818 0.00013797 10
-5.69007 12.661 1.21442 0.000136771 10
-5.69045 12.6618 1.70446 0.000134962 10
-5.68614 12.6522 2.19699 0.000132561 10
-5.68842 12.6573 2.69738 0.000129594 10
-5.69576 12.6737 3.20785 0.000126092 10
-5.69381 12.6693 3.7218 0.000122089 10
-4.22948 9.32383 -2.74334 0.000497326 1
-4.9186 10.843 -2.74882 0.000299072 1
-5.72552 12.6218 -2.69406 0.000123553 10
-5.73214 12.6364 -2.1977 0.000126483 10
-5.72351 12.6174 -1.70116 0.000128876 10
-5.73411 12.6408 -1.21439 0.000130707 10
-5.73022 12.6322 -0.726954 0.000131956 10
-5.73303 12.6384 -0.24224 0.000132611 10
-5.73359 12.6396 0.242264 0.000132664 10
-5.73006 12.6318 0.726934 0.000132116 10
-5.73335 12.6391 1.21423 0.000130971 10
-5.72871 12.6289 1.70271 0.000129242 10
-5.73077 12.6334 2.19718 0.000126947 10
-5.73763 12.6485 2.69976 0.000124109 10
-5.73579 12.6445 3.20552 0.000120758 10
-5.73741 12.6481 3.72142 0.000116928 10
-4.26123 9.30733 -2.74284 0.000497293 1
-4.95337 10.8191 -2.74713 0.000299048 1
-5.76963 12.602 -2.6941 0.000118043 10
-5.76694 12.5961 -2.19418 0.000120845 10
-5.76797 12.5983 -1.7013 0.000123135 10
-5.7758 12.6155 -1.21389 0.000124887 10
-5.77293 12.6092 -0.726785 0.000126084 10
-5.77754 12.6193 -0.242258 0.000126714 10
-5.77517 12.6141 0.242158 0.000126768 10
-5.76705 12.5963 0.726044 0.000126248 10
-5.77292 12.6092 1.21328 0.000125158 10
-5.77455 12.6127 1.70324 0.000123509 10
-5.76891 12.6004 2.19493 0.000121319 10
-5.77283 12.609 2.6956 0.00011861 10
-5.77725 12.6186 3.20405 0.000115411 10
-5.77936 12.6232 3.72003 0.000111754 10
-4.30386 9.3144 -2.74934 0.00049726 1
-4.98995 10.7993 -2.74649 0.000299025 1
-5.81699 12.5891 -2.69568 0.000112518 10
-5.81619 12.5874 -2.19618 0.000115193 10
-5.81851 12.5924 -1.70323 0.000117379 10
-5.81498 12.5848 -1.21288 0.000119053 10
-5.81273 12.5799 -0.726262 0.000120198 10
-5.81362 12.5818 -0.241928 0.000120801 10
-5.80949 12.5729 0.241756 0.000120857 10
-5.8142 12.5831 0.726446 0.000120365 10
-5.81246 12.5793 1.21235 0.000119329 10
-5.81263 12.5797 1.70151 0.000117761 10
-5.82265 12.6014 2.19862 0.000115676 10
-5.81412 12.5829 2.69435 0.000113097 10
-5.82147 12.5988 3.20416 0.00011005 10
-5.82079 12.5974 3.71837 0.000106567 10
-4.33157 9.2891 -2.74631 0.000497227 1
-5.0275 10.7815 -2.74643 0.000299001 1
-5.85652 12.5594 -2.69367 0.000106981 10
-5.86132 12.5696 -2.19664 0.000109528 10
-5.85277 12.5513 -1.70042 0.000111611 10
-5.85545 12.5571 -1.21217 0.000113206 10
-5.85417 12.5543 -0.725961 0.000114299 10
-5.85464 12.5553 -0.24181 0.000114877 10
-5.86316 12.5736 0.242162 0.000114934 10
-5.85596 12.5581 0.726182 0.000114469 10
-5.85564 12.5575 1.21221 0.000113488 10
-5.86356 12.5745 1.70356 0.000112 10
-5.86361 12.5746 2.1975 0.000110021 10
-5.85638 12.5591 2.6936 0.000107572 10
-5.85817 12.5629 3.20021 0.000104678 10
-5.85804 12.5626 3.71413 0.000101369 10
-4.36119 9.268 -2.74456 0.000497194 1
-5.0638 10.7611 -2.74572 0.000298978 1
-5.89386 12.5251 -2.69071 0.000101432 10
-5.89546 12.5285 -2.19304 0.000103851 10
-5.89963 12.5374 -1.70131 0.000105829 10
-5.90218 12.5428 -1.21277 0.000107346 10
-5.89747 12.5328 -0.725901 0.000108386 10
-5.90023 12.5386 -0.241883 0.000108938 10
-5.90511 12.549 0.242083 0.000108996 10
-5.9051 12.549 0.72684 0.00010856 10
-5.89549 12.5286 1.2114 0.000107633 10
-5.90441 12.5475 1.70269 0.000106226 10
-5.90541 12.5496 2.19673 0.000104354 10
-5.90765 12.5544 2.69701 0.000102035 10
-5.89732 12.5324 3.19767 9.92934e-05 10
-5.90156 12.5414 3.71393 9.61581e-05 10
-4.39378 9.25329 -2.74473 0.000497161 1
-5.10742 10.7562 -2.749 0.000298954 1
-5.94517 12.5205 -2.69417 9.5872e-05 10
-5.94195 12.5137 -2.19407 9.81625e-05 10
-5.93651 12.5023 -1.69935 0.000100037 10
-5.94549 12.5212 -1.21269 0.000101475 10
-5.94522 12.5206 -0.726394 0.000102462 10
-5.94299 12.5159 -0.241844 0.000102988 10
-5.94725 12.5249 0.242017 0.000103047 10
-5.93955 12.5087 0.725701 0.000102639 10
-5.94825 12.527 1.21325 0.000101767 10
-5.9469 12.5241 1.70233 0.000100441 10
-5.94743 12.5253 2.19609 9.86751e-05 10
-5.9436 12.5172 2.69346 9.64864e-05 10
-5.94451 12.5191 3.19955 9.38984e-05 10
-5.94345 12.5169 3.71278 9.09374e-05 10
-4.42821 9.24239 -2.74607 0.000497129 1
-5.14308 10.7345 -2.74801 0.000298931 1
-5.98088 12.4831 -2.69059 9.03013e-05 10
-5.98435 12.4903 -2.19361 9.24631e-05 10
-5.98651 12.4948 -1.70117 9.42328e-05 10
-5.97849 12.4781 -1.21052 9.55921e-05 10
-5.97813 12.4773 -0.725089 9.65268e-05 10
-5.98263 12.4867 -0.241682 9.70269e-05 10
-5.98625 12.4943 0.241828 9.70872e-05 10
-5.98935 12.5008 0.726451 9.6707e-05 10
-5.9855 12.4927 1.21194 9.58903e-05 10
-5.98003 12.4813 1.69933 9.46454e-05 10
-5.99199 12.5062 2.19641 9.29854e-05 10
-5.98176 12.4849 2.69099 9.09274e-05 10
-5.98282 12.4871 3.19669 8.84929e-05 10
-5.99193 12.5061 3.71577 8.57068e-05 10
-4.45691 9.21957 -2.74389 0.000497097 1
-5.1758 10.7067 -2.7455 0.000298908 1
-6.0248 12.4629 -2.69076 8.47197e-05 10
-6.02868 12.4709 -2.19389 8.67525e-05 10
-6.02059 12.4542 -1.69849 8.84177e-05 10
-6.02249 12.4581 -1.21062 8.96979e-05 10
-6.02602 12.4654 -0.725616 9.05797e-05 10
-6.0292 12.472 -0.241803 9.10539e-05 10
-6.02541 12.4642 0.241651 9.11153e-05 10
-6.02537 12.4641 0.725538 9.07633e-05 10
-6.02989 12.4734 1.21211 9.00016e-05 10
-6.02392 12.4611 1.69943 8.88381e-05 10
-6.03229 12.4784 2.1952 8.72846e-05 10
-6.0358 12.4857 2.69567 8.53575e-05 10
-6.02826 12.4701 3.19769 8.30767e-05 10
-6.03577 12.4856 3.71591 8.04658e-05 10
-4.49119 9.20832 -2.74519 0.000497065 1
-5.21645 10.6953 -2.74725 0.000298885 1
-6.06409 12.4332 -2.68891 7.91291e-05 10
-6.06607 12.4373 -2.19169 8.1033e-05 10
-6.06629 12.4378 -1.69913 8.25934e-05 10
-6.07385 12.4532 -1.2122 8.37945e-05 10
-6.07456 12.4547 -0.726221 8.46234e-05 10
-6.07037 12.4461 -0.24171 8.50715e-05 10
-6.06628 12.4377 0.241547 8.51341e-05 10
-6.06506 12.4352 0.725086 8.48104e-05 10
-6.06968 12.4447 1.21137 8.41037e-05 10
-6.07189 12.4492 1.70069 8.30214e-05 10
-6.07038 12.4461 2.19324 8.15749e-05 10
-6.07311 12.4517 2.69291 7.97787e-05 10
-6.07145 12.4483 3.19753 7.7652e-05 10
-6.0789 12.4636 3.71566 7.52163e-05 10
-4.52953 9.20523 -2.74897 0.000497033 1
-5.26173 10.6932 -2.75142 0.000298862 1
-6.10783 12.4128 -2.68907 7.35291e-05 10
-6.10743 12.4119 -2.19096 7.53035e-05 10
-6.10835 12.4138 -1.69876 7.67591e-05 10
-6.11042 12.418 -1.21084 7.78807e-05 10
-6.11443 12.4262 -0.725797 7.86567e-05 10
-6.11722 12.4318 -0.241846 7.90788e-05 10
-6.10585 12.4087 0.241397 7.91425e-05 10
-6.1063 12.4096 0.724832 7.8847e-05 10
-6.11935 12.4362 1.21261 7.81955e-05 10
-6.11708 12.4315 1.70118 7.71948e-05 10
-6.11184 12.4209 2.19254 7.58551e-05 10
-6.11867 12.4348 2.69385 7.41903e-05 10
-6.11209 12.4214 3.19608 7.22178e-05 10
-6.11493 12.4272 3.71114 6.99578e-05 10
-4.55934 9.18474 -2.74759 0.000497001 1
-5.29957 10.6759 -2.7517 0.000298839 1
-6.15861 12.4065 -2.69235 6.79213e-05 10
-6.15926 12.4078 -2.19401 6.95663e-05 10
-6.14707 12.3832 -1.69749 7.0917e-05 10
-6.15311 12.3954 -1.21072 7.19592e-05 10
-6.15168 12.3925 -0.725079 7.26821e-05 10
-6.1504 12.3899 -0.241447 7.3078e-05 10
-6.16036 12.41 0.241838 7.31427e-05 10
-6.15434 12.3978 0.725393 7.28758e-05 10
-6.1503 12.3897 1.21016 7.22795e-05 10
-6.15393 12.397 1.69939 7.13603e-05 10
-6.16217 12.4136 2.19504 7.01276e-05 10
-6.15972 12.4087 2.69284 6.85943e-05 10
-6.16237 12.414 3.19969 6.67762e-05 10
-6.16336 12.416 3.71421 6.46921e-05 10
-4.59368 9.17337 -2.74896 0.000496969 1
-5.33226 10.6483 -2.74936 0.000298817 1
-6.19066 12.3625 -2.68748 6.23053e-05 10
-6.20055 12.3822 -2.1933 6.38206e-05 10
-6.19897 12.3791 -1.69988 6.50661e-05 10
-6.20223 12.3856 -1.21187 6.60287e-05 10
-6.20395 12.389 1.2122 6.63545e-05 10
-6.19413 12.3694 1.69855 6.5517e-05 10
-6.20247 12.386 2.19398 6.43915e-05 10
-6.20368 12.3885 2.69313 6.29899e-05 10
-6.20535 12.3918 3.19953 6.13265e-05 10
-6.20356 12.3882 3.71235 5.94185e-05 10
-4.6174 9.1409 -2.74405 0.000496938 1
-5.36637 10.6236 -2.74781 0.000298794 1
-6.24263 12.3583 -2.6913 5.6683e-05 10
-6.24381 12.3606 -2.19333 5.80685e-05 10
-6.23167 12.3366 -1.69703 5.92087e-05 10
-6.24118 12.3554 -1.21104 6.00917e-05 10
-6.24551 12.364 1.21188 6.04231e-05 10
-6.24397 12.361 1.70038 5.96673e-05 10
-6.24055 12.3542 2.19218 5.86492e-05 10
-6.24188 12.3568 2.69097 5.73793e-05 10
-6.23928 12.3517 3.19477 5.58706e-05 10
-6.23646 12.3461 3.70623 5.41389e-05 10
-4.64809 9.1224 -2.74335 0.000496906 1
-5.40885 10.6155 -2.75057 0.000298772 1
-6.28132 12.3278 -2.68941 5.10543e-05 10
-6.27397 12.3134 -2.18881 5.23098e-05 10
-6.28307 12.3312 -1.6993 5.33446e-05 10
-6.27852 12.3223 -1.20994 5.41479e-05 10
-6.28492 12.3349 1.21117 5.44847e-05 10
-6.27635 12.318 1.69748 5.38108e-05 10
-6.28936 12.3436 2.19418 5.29002e-05 10
-6.2822 12.3295 2.68979 5.17621e-05 10
-6.28103 12.3272 3.1941 5.04085e-05 10
-6.28945 12.3438 3.71209 4.88532e-05 10
-4.68763 9.12115 -2.74787 0.000496875 1
-5.44674 10.5982 -2.75101 0.000298749 1
-6.32829 12.3135 -2.6911 4.5419e-05 10
-6.32298 12.3032 -2.19091 4.65445e-05 10
-6.32366 12.3045 -1.69865 4.74737e-05 10
-6.3232 12.3036 -1.21026 4.81972e-05 10
-6.32056 12.2985 1.20976 4.85396e-05 10
-6.319 12.2954 1.6974 4.79476e-05 10
-6.32556 12.3082 2.19181 4.71445e-05 10
-6.33181 12.3204 2.6926 4.61385e-05 10
-6.32625 12.3096 3.19522 4.49399e-05 10
-6.33105 12.3189 3.71124 4.35614e-05 10
-4.71984 9.1055 -2.74811 0.000496844 1
-5.48185 10.5756 -2.75008 0.000298727 1
-6.36113 12.2719 -2.68683 3.97794e-05 10
-6.36145 12.2725 -2.18939 4.07747e-05 10
-6.36666 12.2825 -1.69867 4.15984e-05 10
-6.36166 12.2729 -1.20942 4.2242e-05 10
-6.36238 12.2743 1.20955 4.25898e-05 10
-6.36227 12.2741 1.6975 4.20798e-05 10
-6.36501 12.2794 2.19061 4.13844e-05 10
-6.37299 12.2948 2.69184 4.05104e-05 10
-6.36839 12.2859 3.19483 3.94672e-05 10
-6.36375 12.2769 3.70527 3.82654e-05 10
-4.74464 9.07567 -2.74409 0.000496813 1
-5.51651 10.5521 -2.74897 0.000298705 1
-6.40926 12.2598 -2.68907 3.41345e-05 10
-6.40039 12.2428 -2.18807 3.49995e-05 10
-6.41358 12.2681 -1.69975 3.57175e-05 10
-6.40592 12.2534 -1.20969 3.62811e-05 10
-6.41593 12.2725 1.21158 3.66344e-05 10
-6.40646 12.2544 1.69787 3.62066e-05 10
-6.41231 12.2656 2.19214 3.56187e-05 10
-6.41105 12.2632 2.68982 3.48771e-05 10
-6.41617 12.273 3.19729 3.39893e-05 10
-6.4087 12.2587 3.7065 3.29644e-05 10
-4.78256 9.07093 -2.74768 0.000496782 1
-5.55316 10.5325 -2.7489 0.000298683 1
-6.4524 12.2381 -2.19123 2.92212e-05 10
-6.45224 12.2378 -1.69867 2.98335e-05 10
-6.45185 12.237 -1.21029 3.03171e-05 10
-6.44522 12.2245 1.20905 3.06759e-05 10
-6.44862 12.2309 1.69772 3.03301e-05 10
-6.45185 12.237 2.19104 2.985e-05 10
-6.45522 12.2434 2.69041 2.92407e-05 10
-4.81327 9.05243 -2.74715 0.000496751 1
-5.58936 10.512 -2.74863 0.000298661 1
-4.84977 9.04479 -2.74996 0.000496721 1
-5.63059 10.501 -2.75087 0.000298639 1
-4.87813 9.02191 -2.74816 0.000496691 1
-5.66754 10.4819 -2.75103 0.000298618 1
-4.90946 9.00459 -2.74809 0.00049666 1
-5.6995 10.4536 -2.74881 0.000298596 1
-4.93785 8.98192 -2.74641 0.000496631 1
-5.73653 10.4347 -2.74909 0.000298575 1
-4.97643 8.97772 -2.75042 0.0004966 1
-5.7768 10.4216 -2.75093 0.000298553 1
-4.99825 8.94333 -2.74521 0.000496571 1
-5.80358 10.3843 -2.74641 0.000298532 1
-5.02632 8.92028 -2.74351 0.000496541 1
-5.84065 10.3655 -2.74681 0.000298511 1
-5.06312 8.91271 -2.7466 0.000496512 1
-5.87778 10.3468 -2.74727 0.00029849 1
-5.09487 8.89614 -2.74696 0.000496483 1
-5.91394 10.3263 -2.74731 0.000298469 1
-6.87555 12.0054 -1.6987 2.90875e-05 10
-6.87205 11.9993 -1.20978 2.9405e-05 10
-6.87902 12.0115 1.211 2.89924e-05 10
-5.13044 8.88619 -2.7494 0.000496454 1
-5.95186 10.3089 -2.74819 0.000298448 1
-6.91328 11.9742 -2.68761 3.37186e-05 10
-6.9157 11.9783 -2.19068 3.44199e-05 10
-6.9103 11.969 -1.69696 3.49722e-05 10
-6.92036 11.9864 -1.21091 3.53698e-05 10
-6.91824 11.9827 1.21053 3.49518e-05 10
-6.92335 11.9916 1.70016 3.43935e-05 10
-6.91119 11.9705 2.18925 3.36869e-05 10
-6.91617 11.9792 2.68874 3.28393e-05 10
-6.92509 11.9946 3.19757 3.18596e-05 10
-6.92608 11.9963 3.71167 3.07578e-05 10
-5.15417 8.85574 -2.74553 0.000496425 1
-5.99271 10.2965 -2.75044 0.000298427 1
-6.95687 11.9531 -2.68832 3.93642e-05 10
-6.96031 11.959 -2.19157 4.01959e-05 10
-6.94949 11.9404 -1.69634 4.0854e-05 10
-6.96215 11.9622 -1.2109 4.13315e-05 10
-6.96069 11.9597 1.21065 4.09082e-05 10
-6.95788 11.9548 1.69838 4.02679e-05 10
-6.96512 11.9673 2.19309 3.94535e-05 10
-6.96686 11.9703 2.69218 3.84737e-05 10
-6.95868 11.9562 3.19378 3.73386e-05 10
-6.96781 11.9719 3.71162 3.60599e-05 10
-5.18727 8.8415 -2.74671 0.000496396 1
-6.02184 10.264 -2.74735 0.000298407 1
-6.99431 11.9215 -2.68669 4.50046e-05 10
-6.99812 11.928 -2.19035 4.59666e-05 10
-7.00068 11.9324 -1.69865 4.67302e-05 10
-6.99378 11.9206 -1.20916 4.72878e-05 10
-7.00588 11.9412 1.21125 4.68592e-05 10
-7.00268 11.9358 1.69914 4.61368e-05 10
-7.00473 11.9393 2.19242 4.52149e-05 10
-7.00578 11.9411 2.6911 4.41029e-05 10
-6.9976 11.9271 3.19252 4.28126e-05 10
-6.99905 11.9296 3.70606 4.13571e-05 10
-5.22247 8.83072 -2.74901 0.000496367 1
-6.0672 10.2591 -2.75169 0.000298386 1
-7.04634 11.9147 -2.69069 5.064e-05 10
-7.04547 11.9132 -2.19215 5.17321e-05 10
-7.04548 11.9133 -1.69942 5.26013e-05 10
-7.04743 11.9166 -1.21124 5.32388e-05 10
-7.04621 11.9145 1.21103 5.28049e-05 10
-7.04028 11.9045 1.69817 5.20006e-05 10
-7.04231 11.9079 2.19116 5.09712e-05 10
-7.04364 11.9102 2.68965 4.97272e-05 10
-7.04722 11.9162 3.19616 4.82817e-05 10
-7.05407 11.9278 3.71312 4.66496e-05 10
-5.24996 8.80689 -2.74728 0.000496339 1
-6.09705 10.2279 -2.74902 0.000298366 1
-7.0899 11.8934 -2.69145 5.62706e-05 10
-7.07716 11.872 -2.1891 5.74927e-05 10
-7.08975 11.8932 -1.70008 5.84673e-05 10
-7.08159 11.8795 -1.20997 5.91846e-05 10
-7.08462 11.8846 1.21049 5.87455e-05 10
-7.09434 11.9009 1.70118 5.78593e-05 10
-7.08044 11.8775 2.19011 5.67225e-05 10
-7.08086 11.8783 2.68802 5.53466e-05 10
-7.08425 11.8839 3.19412 5.37463e-05 10
-7.08907 11.892 3.70967 5.19376e-05 10
-5.27467 8.77853 -2.74416 0.000496311 1
-6.13796 10.2153 -2.75137 0.000298346 1
-7.13225 11.8701 -2.69178 6.18941e-05 10
-7.12749 11.8621 -2.19185 6.3246e-05 10
-7.12375 11.8559 -1.6983 6.43261e-05 10
-7.1337 11.8725 -1.21179 6.51231e-05 10
-7.12742 11.862 1.21072 6.46787e-05 10
-7.1237 11.8558 1.69828 6.37109e-05 10
-7.13342 11.872 2.19367 6.24666e-05 10
-7.1325 11.8705 2.69188 6.09591e-05 10
-7.1243 11.8568 3.1935 5.92037e-05 10
-7.13118 11.8683 3.71001 5.72189e-05 10
-5.30857 8.7655 -2.74586 0.000496283 1
-6.17787 10.2009 -2.75328 0.000298326 1
-7.16632 11.833 -2.68903 6.75115e-05 10
-7.17435 11.8463 -2.19353 6.89932e-05 10
-7.16337 11.8281 -1.69789 7.01785e-05 10
-7.16622 11.8328 -1.21029 7.1055e-05 10
-7.16506 11.8309 1.21009 7.06053e-05 10
-7.17546 11.8481 1.70075 6.9556e-05 10
-7.17665 11.8501 2.19423 6.82045e-05 10
-7.17277 11.8437 2.69145 6.65654e-05 10
-7.16762 11.8351 3.19438 6.46555e-05 10
-7.16874 11.837 3.70803 6.24944e-05 10
-5.33429 8.73898 -2.74337 0.000496254 1
-6.21173 10.1765 -2.75252 0.000298306 1
-7.21186 11.8149 -2.69063 7.31204e-05 10
-7.21344 11.8175 -2.19285 7.47318e-05 10
-7.20533 11.8042 -1.69806 7.60221e-05 10
-7.20471 11.8032 -1.20983 7.69782e-05 10
-7.21301 11.8168 1.21122 7.65234e-05 10
-7.21771 11.8245 1.70097 7.53924e-05 10
-7.21672 11.8229 2.19385 7.3934e-05 10
-7.22251 11.8324 2.6946 7.21634e-05 10
-7.21097 11.8135 3.1953 7.0099e-05 10
-7.21678 11.823 3.71151 6.77622e-05 10
-5.36913 8.7274 -2.7456 0.000496227 1
-6.24205 10.1463 -2.75025 0.000298286 1
-7.24615 11.7785 -2.68807 7.87221e-05 10
-7.25053 11.7856 -2.19161 8.04627e-05 10
-7.26037 11.8016 -1.70131 8.18581e-05 10
-7.261 11.8026 -1.21235 8.28937e-05 10
-7.26183 11.8039 -0.726311 8.35585e-05 10
-7.26248 11.805 -0.241928 8.3846e-05 10
-7.25059 11.7857 0.241532 8.37529e-05 10
-7.26016 11.8012 0.726144 8.32805e-05 10
-7.25384 11.791 1.21116 8.24337e-05 10
-7.24985 11.7845 1.69884 8.12212e-05 10
-7.25111 11.7865 2.19178 7.96558e-05 10
-7.25092 11.7862 2.68983 7.77541e-05 10
-7.25852 11.7986 3.1981 7.55354e-05 10
-7.2565 11.7953 3.71073 7.30229e-05 10
-5.40006 8.70941 -2.74585 0.000496199 1
-6.27962 10.128 -2.75121 0.000298266 1
-7.29457 11.7649 -2.69078 8.43141e-05 10
-7.29077 11.7588 -2.19135 8.61841e-05 10
-7.29957 11.773 -1.70085 8.76842e-05 10
-7.28884 11.7557 -1.21014 8.8799e-05 10
-7.29195 11.7607 -0.725212 8.9517e-05 10
-7.28996 11.7575 -0.241475 8.98305e-05 10
-7.29792 11.7703 0.241739 8.97365e-05 10
-7.30345 11.7793 0.726356 8.92358e-05 10
-7.30159 11.7763 1.21226 8.83338e-05 10
-7.30056 11.7746 1.70108 8.70401e-05 10
-7.29667 11.7683 2.19312 8.53681e-05 10
-7.30485 11.7815 2.69457 8.33352e-05 10
-7.30087 11.7751 3.19863 8.09626e-05 10
-7.29459 11.765 3.70919 7.82747e-05 10
-5.43178 8.69266 -2.74653 0.000496171 1
-6.32029 10.1146 -2.75354 0.000298246 1
-7.33342 11.7359 -2.68998 8.98974e-05 10
-7.33331 11.7358 -2.19181 9.18965e-05 10
-7.33564 11.7395 -1.6997 9.35013e-05 10
-7.34503 11.7545 -1.21265 9.46952e-05 10
-7.33517 11.7387 -0.725431 9.54661e-05 10
-7.33536 11.739 -0.24162 9.58057e-05 10
-7.34063 11.7475 0.241793 9.57106e-05 10
-7.34007 11.7466 0.725915 9.51818e-05 10
-7.34094 11.748 1.21198 9.42249e-05 10
-7.33384 11.7366 1.69928 9.285e-05 10
-7.33785 11.743 2.19317 9.10715e-05 10
-7.34456 11.7537 2.69407 8.89076e-05 10
-7.34236 11.7502 3.19882 8.63813e-05 10
-7.34878 11.7605 3.71585 8.35183e-05 10
-5.45606 8.66408 -2.7435 0.000496144 1
-6.34752 10.0797 -2.75006 0.000298227 1
-7.38121 11.7212 -2.69249 9.547e-05 10
-7.38689 11.7302 -2.19557 9.75978e-05 10
-7.3806 11.7202 -1.70063 9.9307e-05 10
-7.37513 11.7115 -1.21086 0.00010058 10
-7.3869 11.7302 -0.726494 0.000101404 10
-7.38099 11.7208 -0.241774 0.000101769 10
-7.38544 11.7279 0.24192 0.000101673 10
-7.38397 11.7256 0.726205 0.000101117 10
-7.37727 11.7149 1.21121 0.000100105 10
-7.38096 11.7208 1.70071 9.86487e-05 10
-7.38887 11.7333 2.19616 9.67637e-05 10
-7.38822 11.7323 2.69504 9.44694e-05 10
-7.39082 11.7364 3.20207 9.17895e-05 10
-7.39175 11.7379 3.71684 8.87518e-05 10
-5.48809 8.64785 -2.74441 0.000496117 1
-6.37731 10.049 -2.74775 0.000298207 1
-7.42914 11.7065 -2.69505 0.000101032 10
-7.41681 11.687 -2.19233 0.000103288 10
-7.41673 11.6869 -1.69954 0.000105102 10
-7.42565 11.701 -1.21245 0.000106454 10
-7.41802 11.6889 -0.725537 0.00010733 10
-7.41891 11.6903 -0.241678 0.000107722 10
-7.42504 11.7 0.241878 0.000107625 10
-7.42083 11.6934 0.725812 0.00010704 10
-7.41936 11.691 1.21142 0.000105973 10
-7.43206 11.7111 1.70305 0.000104436 10
-7.42356 11.6977 2.19432 0.000102445 10
-7.41995 11.692 2.69172 0.00010002 10
-7.42209 11.6953 3.19791 9.71873e-05 10
-7.4328 11.7122 3.7169 9.39751e-05 10
-5.52131 8.63343 -2.74594 0.00049609 1
-6.42147 10.041 -2.75166 0.000298188 1
-7.46229 11.6685 -2.69228 0.000106583 10
-7.46734 11.6764 -2.1952 0.000108968 10
-7.47267 11.6847 -1.703 0.000110886 10
-7.4656 11.6736 -1.21231 0.000112316 10
-7.47282 11.6849 -0.726903 0.000113245 10
-7.46946 11.6797 -0.241995 0.000113663 10
-7.46732 11.6763 0.241926 0.000113565 10
-7.46727 11.6762 0.726362 0.000112952 10
-7.4621 11.6682 1.21174 0.000111831 10
-7.47481 11.688 1.70349 0.000110213 10
-7.46649 11.675 2.19495 0.000108116 10
-7.47264 11.6846 2.69602 0.000105561 10
-7.47121 11.6824 3.20148 0.000102575 10
-7.46993 11.6804 3.71505 9.91886e-05 10
-5.55531 8.62016 -2.74787 0.000496063 1
-6.45463 10.0156 -2.75087 0.000298169 1
-7.5117 11.6559 -2.69541 0.000112122 10
-7.50467 11.645 -2.19421 0.000114635 10
-7.50658 11.6479 -1.70146 0.000116656 10
-7.51415 11.6597 -1.21357 0.000118166 10
-7.51329 11.6583 -0.726876 0.000119147 10
-7.50628 11.6475 -0.241869 0.000119591 10
-7.51172 11.6559 0.242044 0.000119491 10
-7.51838 11.6663 0.727369 0.000118851 10
-7.51593 11.6624 1.21386 0.000117675 10
-7.50595 11.647 1.70131 0.000115977 10
-7.51674 11.6637 2.19774 0.000113774 10
-7.51251 11.6571 2.6957 0.000111089 10
-7.51014 11.6535 3.20072 0.00010795 10
-7.51553 11.6618 3.71746 0.00010439 10
-5.58981 8.60755 -2.75005 0.000496036 1
-6.49604 10.003 -2.75362 0.00029815 1
-7.55225 11.6294 -2.69538 0.000117649 10
-7.55777 11.6379 -2.19785 0.000120289 10
-7.55582 11.6349 -1.7034 0.000122415 10
-7.55232 11.6295 -1.21317 0.000124003 10
-7.55641 11.6358 -0.727114 0.000125036 10
-7.54432 11.6172 -0.241787 0.000125506 10
-7.54961 11.6254 0.241956 0.000125405 10
-7.55404 11.6322 0.726886 0.000124737 10
-7.54901 11.6244 1.21264 0.000123507 10
-7.55807 11.6384 1.70391 0.000121728 10
-7.55958 11.6407 2.19837 0.00011942 10
-7.55215 11.6293 2.69534 0.000116605 10
-7.55634 11.6357 3.20307 0.000113314 10
-7.55157 11.6284 3.71519 0.000109581 10
-5.62148 8.59053 -2.75087 0.00049601 1
-6.51639 9.95809 -2.7475 0.000298131 1
-7.5892 11.5975 -2.6941 0.000123162 10
-7.58807 11.5958 -2.19488 0.00012593 10
-7.58559 11.592 -1.70098 0.000128159 10
-7.59445 11.6055 -1.21343 0.000129825 10
-7.59078 11.5999 -0.726521 0.000130911 10
-7.59454 11.6057 -0.242097 0.000131406 10
-7.59996 11.614 0.242269 0.000131305 10
-7.59343 11.604 0.726774 0.000130608 10
-7.59338 11.6039 1.21326 0.000129324 10
-7.59589 11.6077 1.70329 0.000127465 10
-7.60079 11.6152 2.19855 0.000125051 10
-7.58996 11.5987 2.69437 0.000122107 10
-7.59617 11.6082 3.20276 0.000118665 10
-7.603 11.6186 3.72052 0.000114758 10
-5.6503 8.56913 -2.75031 0.000495983 1
-6.55232 9.93711 -2.748 0.000298112 1
-7.63472 11.5787 -2.6959 0.000128662 10
-7.64214 11.5899 -2.1988 0.000131557 10
-7.63513 11.5793 -1.70301 0.000133889 10
-7.62847 11.5692 -1.2124 0.000135633 10
-7.63637 11.5812 -0.72701 0.000136772 10
-7.63168 11.574 -0.241991 0.000137292 10
-7.64434 11.5932 0.242392 0.00013719 10
-7.63817 11.5839 0.727181 0.000136466 10
-7.63437 11.5781 1.21334 0.000135127 10
-7.64239 11.5903 1.70463 0.000133188 10
-7.64264 11.5907 2.19894 0.000130669 10
-7.63796 11.5836 2.69704 0.000127597 10
-7.64521 11.5946 3.20635 0.000124002 10
-7.64258 11.5906 3.72006 0.000119923 10
-5.67239 8.53763 -2.74654 0.000495957 1
-6.58917 9.91751 -2.74892 0.000298093 1
-7.67145 11.5465 -2.69462 0.000134147 10
-7.68503 11.5669 -2.19951 0.000137169 10
-7.67484 11.5516 -1.70287 0.000139604 10
-7.67289 11.5486 -1.21305 0.000141426 10
-7.6776 11.5557 -0.727091 0.000142616 10
-7.67606 11.5534 -0.242118 0.000143163 10
-7.68793 11.5713 0.242492 0.000143059 10
-7.67777 11.556 0.727107 0.000142307 10
-7.67936 11.5584 1.21407 0.000140915 10
-7.67976 11.559 1.70396 0.000138896 10
-7.67759 11.5557 2.19738 0.000136272 10
-7.68313 11.564 2.69872 0.000133071 10
-7.67764 11.5558 3.20302 0.000129325 10
-7.68333 11.5643 3.72023 0.000125074 10
-5.70216 8.51779 -2.74654 0.000495931 1
-6.62428 9.89524 -2.74914 0.000298075 1
-7.71747 11.5282 -2.69663 0.000139616 10
-7.72598 11.5409 -2.19969 0.000142765 10
-7.71844 11.5297 -1.7036 0.000145303 10
-7.72024 11.5324 -1.21416 0.000147203 10
-7.72845 11.5446 -0.728086 0.000148445 10
-7.71995 11.5319 -0.242232 0.000149017 10
-7.71688 11.5273 0.242135 0.000148913 10
-7.72106 11.5336 0.72739 0.000148133 10
-7.71699 11.5275 1.21365 0.000146687 10
-7.72935 11.546 1.70601 0.000144588 10
-7.72214 11.5352 2.19859 0.00014186 10
-7.73082 11.5482 2.7013 0.000138531 10
-7.72965 11.5464 3.20788 0.000134634 10
-7.71958 11.5314 3.71827 0.000130211 10
-5.73961 8.50933 -2.75026 0.000495905 1
-6.66519 9.88155 -2.75179 0.000298056 1
-7.7623 11.5081 -2.69824 0.000145071 10
-7.76808 11.5167 -2.20021 0.000148347 10
-7.77051 11.5203 -1.70621 0.000150986 10
-7.77037 11.52 -1.21571 0.000152964 10
-7.76274 11.5087 -0.727528 0.000154258 10
-7.7615 11.5069 -0.242273 0.000154856 10
-7.76688 11.5149 0.242441 0.00015475 10
-7.76195 11.5076 0.727453 0.000153943 10
-7.76869 11.5176 1.21545 0.000152443 10
-7.76173 11.5072 1.70428 0.000150265 10
-7.76887 11.5178 2.20044 0.000147433 10
-7.77125 11.5213 2.70135 0.000143975 10
-7.76957 11.5189 3.20774 0.000139928 10
-7.76942 11.5186 3.72289 0.000135333 10
-5.76882 8.48857 -2.75004 0.00049588 1
-6.70235 9.86222 -2.7529 0.000298038 1
-7.80857 11.49 -2.70037 0.000150509 10
-7.80238 11.4809 -2.19856 0.00015391 10
-7.80353 11.4826 -1.70465 0.000156653 10
-7.79838 11.475 -1.21382 0.000158707 10
-7.81378 11.4976 -0.728545 0.000160053 10
-7.79899 11.4759 -0.242192 0.000160676 10
-7.81018 11.4923 0.242539 0.00016057 10
-7.80721 11.488 0.727933 0.000159735 10
-7.81507 11.4995 1.21642 0.000158181 10
-7.81636 11.5014 1.70745 0.000155924 10
-7.80566 11.4857 2.19949 0.000152988 10
-7.80805 11.4892 2.70019 0.000149403 10
-7.81721 11.5027 3.21082 0.000145206 10
-7.81559 11.5003 3.72575 0.00014044 10
-5.79621 8.46515 -2.74899 0.000495854 1
-6.73364 9.83424 -2.75164 0.000298019 1
-7.84232 11.4534 -2.6982 0.000155931 10
-7.85091 11.466 -2.20095 0.000159458 10
-7.85613 11.4736 -1.70738 0.000162302 10
-7.84875 11.4628 -1.21543 0.000164433 10
-7.85599 11.4734 -0.728742 0.000165831 10
-7.85342 11.4696 -0.242637 0.000166479 10
-7.84456 11.4567 0.242363 0.000166372 10
-7.85157 11.4669 0.728331 0.00016551 10
-7.84863 11.4626 1.21541 0.000163903 10
-7.85136 11.4666 1.70634 0.000161567 10
-7.86067 11.4802 2.20368 0.000158527 10
-7.85091 11.466 2.70115 0.000154814 10
-7.8568 11.4746 3.21061 0.000150468 10
-7.85059 11.4655 3.72333 0.000145532 10
-5.81529 8.42974 -2.74407 0.000495828 1
-6.75936 9.79826 -2.74816 0.000298001 1
-7.88566 11.4309 -2.69937 0.000161335 10
-7.89096 11.4386 -2.20097 0.000164987 10
-7.88958 11.4366 -1.70596 0.000167932 10
-7.89179 11.4398 -1.2159 0.000170141 10
-7.89825 11.4492 -0.72895 0.00017159 10
-7.88899 11.4357 -0.242501 0.000172263 10
-7.90037 11.4522 0.242851 0.000172155 10
-7.89709 11.4475 0.728844 0.000171266 10
-7.88936 11.4363 1.21553 0.000169605 10
-7.89146 11.4393 1.70637 0.000167191 10
-7.89317 11.4418 2.20158 0.000164047 10
-7.89355 11.4424 2.70206 0.000160208 10
-7.88847 11.435 3.20722 0.000155712 10
-7.89319 11.4418 3.72457 0.000150606 10
-5.84444 8.40904 -2.74395 0.000495803 1
-6.79349 9.77455 -2.74814 0.000297983 1
-7.9286 11.4078 -2.70041 0.000166721 10
-7.92779 11.4066 -2.20012 0.000170498 10
-7.94068 11.4251 -1.70837 0.000173545 10
-7.94164 11.4265 -1.21743 0.00017583 10
-7.93857 11.4221 -0.728987 0.00017733 10
-7.93428 11.4159 -0.242667 0.000178029 10
-7.93045 11.4104 0.24255 0.000177919 10
-7.93874 11.4224 0.729003 0.000177003 10
-7.94462 11.4308 1.21789 0.00017529 10
-7.94584 11.4326 1.70949 0.000172796 10
-7.94589 11.4326 2.20514 0.00016955 10
-7.93778 11.421 2.70354 0.000165584 10
-7.93994 11.4241 3.21191 0.000160939 10
-7.93622 11.4187 3.72604 0.000155664 10
-5.88523 8.40499 -2.74932 0.000495778 1
-6.84077 9.76963 -2.75345 0.000297965 1
-7.97567 11.3904 -2.70289 0.000172089 10
-7.96817 11.3797 -2.20029 0.000175989 10
-7.98117 11.3983 -1.70852 0.000179137 10
-7.98152 11.3988 -1.21744 0.000181499 10
-7.96999 11.3823 -0.72822 0.00018305 10
-7.97626 11.3913 -0.242733 0.000183774 10
-7.97802 11.3938 0.242787 0.000183663 10
-7.98643 11.4058 0.729722 0.00018272 10
-7.97948 11.3959 1.21712 0.000180953 10
-7.98681 11.4064 1.70972 0.000178382 10
-7.97477 11.3892 2.20211 0.000175033 10
-7.975 11.3895 2.70266 0.00017094 10
-7.98444 11.403 3.21379 0.000166148 10
-7.98501 11.4038 3.73024 0.000160704 10
-5.90683 8.37347 -2.74574 0.000495753 1
-6.87037 9.73937 -2.75167 0.000297947 1
-8.02629 11.378 -2.70657 0.000177437 10
-8.0246 11.3756 -2.20489 0.000181462 10
-8.01173 11.3573 -1.70656 0.00018471 10
-8.02724 11.3793 -1.21834 0.000187148 10
-8.0248 11.3759 -0.729595 0.00018875 10
-8.02349 11.374 -0.242961 0.000189499 10
-8.01695 11.3648 0.242763 0.000189388 10
-8.01655 11.3642 0.728845 0.000188417 10
-8.03115 11.3849 1.21894 0.000186598 10
-8.0238 11.3745 1.70913 0.000183948 10
-8.01918 11.3679 2.2034 0.000180497 10
-8.0194 11.3682 2.70424 0.000176279 10
-8.02487 11.376 3.21406 0.000171339 10
-8.02704 11.3791 3.73129 0.000165727 10
-5.94312 8.36278 -2.74902 0.000495729 1
-6.90595 9.71762 -2.75232 0.00029793 1
-8.0664 11.3505 -2.70672 0.000182765 10
-8.06595 11.3499 -2.20536 0.000186914 10
-8.06331 11.3462 -1.7091 0.000190262 10
-8.06406 11.3472 -1.21791 0.000192776 10
-8.06877 11.3539 -0.729985 0.000194428 10
-8.06954 11.3549 -0.243154 0.000195202 10
-8.06158 11.3438 0.242914 0.00019509 10
-8.07016 11.3558 0.73011 0.000194093 10
-8.07387 11.361 1.21939 0.000192221 10
-8.06277 11.3454 1.70899 0.000189493 10
-8.07498 11.3626 2.20783 0.00018594 10
-8.06489 11.3484 2.70621 0.000181597 10
-8.06834 11.3533 3.21558 0.000176509 10
-8.06498 11.3485 3.73049 0.00017073 10
-5.9734 8.34357 -2.74954 0.000495704 1
-6.92941 9.67891 -2.74819 0.000297912 1
-8.1075 11.3244 -2.70723 0.000188073 10
-8.11295 11.3321 -2.20738 0.000192344 10
-8.09756 11.3106 -1.70798 0.000195793 10
-8.10254 11.3175 -1.21775 0.000198382 10
-8.10339 11.3187 -0.729538 0.000200085 10
-8.11315 11.3323 -0.243274 0.000200884 10
-8.10445 11.3202 0.243014 0.000200771 10
-8.10714 11.3239 0.729876 0.000199746 10
-8.11415 11.3337 1.2195 0.000197822 10
-8.11569 11.3359 1.71181 0.000195017 10
-8.11351 11.3328 2.20753 0.000191362 10
-8.11302 11.3322 2.70907 0.000186894 10
-8.11679 11.3374 3.21909 0.00018166 10
-8.11164 11.3302 3.73376 0.000175714 10
-5.99257 8.3089 -2.74499 0.000495679 1
-6.96662 9.65945 -2.74955 0.000297895 1
-8.14351 11.2913 -2.70607 0.00019336 10
-8.14383 11.2917 -2.20504 0.000197754 10
-8.14318 11.2908 -1.70928 0.000201302 10
-8.15261 11.3039 -1.21934 0.000203967 10
-8.14409 11.2921 -0.729649 0.00020572 10
-8.15511 11.3073 -0.243348 0.000206544 10
-8.15697 11.3099 0.243403 0.00020643 10
-8.15561 11.308 0.730681 0.000205379 10
-8.15276 11.3041 1.21936 0.000203402 10
-8.15092 11.3015 1.7109 0.000200521 10
-8.15331 11.3049 2.20761 0.000196764 10
-8.14608 11.2948 2.70693 0.000192172 10
-8.15305 11.3045 3.21781 0.000186792 10
-8.16205 11.317 3.73876 0.000180679 10
-6.03175 8.30199 -2.74965 0.000495655 1
-7.00226 9.63779 -2.75032 0.000297877 1
-8.18242 11.2621 -2.70592 0.000198625 10
-8.18472 11.2653 -2.20545 0.000203142 10
-8.18812 11.27 -1.71045 0.000206789 10
-8.19267 11.2762 -1.21943 0.000209528 10
-8.20019 11.2866 -0.731141 0.000211331 10
-8.18972 11.2722 -0.243205 0.00021218 10
-8.19644 11.2814 0.243404 0.000212065 10
-8.18921 11.2715 0.730162 0.000210987 10
-8.19759 11.283 1.22017 0.000208959 10
-8.19982 11.2861 1.71289 0.000206001 10
-8.19723 11.2825 2.20882 0.000202143 10
-8.19474 11.2791 2.71 0.000197427 10
-8.20033 11.2868 3.2209 0.000191901 10
-8.19901 11.285 3.73762 0.000185623 10
-6.0551 8.27325 -2.74711 0.000495631 1
-7.03038 9.6058 -2.74818 0.00029786 1
-8.23556 11.2525 -2.71049 0.000203869 10
-8.23917 11.2574 -2.20952 0.000208507 10
-8.23433 11.2508 -1.71189 0.000212253 10
-8.23443 11.2509 -1.2198 0.000215067 10
-8.23229 11.248 -0.730498 0.00021692 10
-8.24039 11.2591 -0.243541 0.000217793 10
-8.22906 11.2436 0.243206 0.000217677 10
-8.23873 11.2568 0.731069 0.000216573 10
-8.2361 11.2532 1.22004 0.000214493 10
-8.24503 11.2654 1.71411 0.000211458 10
-8.24079 11.2596 2.20996 0.0002075 10
-8.24283 11.2624 2.71288 0.000202661 10
-8.24292 11.2625 3.22216 0.00019699 10
-8.23661 11.2539 3.73683 0.000190546 10
-6.0797 8.24631 -2.7452 0.000495607 1
-7.07745 9.59963 -2.75347 0.000297843 1
-8.2816 11.2329 -2.71272 0.000209089 10
-8.27874 11.229 -2.20961 0.000213849 10
-8.27685 11.2265 -1.71257 0.000217693 10
-8.27504 11.224 -1.22 0.000220581 10
-8.27683 11.2264 -0.730968 0.000222484 10
-8.27473 11.2236 -0.243397 0.000223382 10
-8.27576 11.225 0.243427 0.000223265 10
-8.28696 11.2402 0.731863 0.000222135 10
-8.28727 11.2406 1.22181 0.000220003 10
-8.27811 11.2282 1.71283 0.000216891 10
-8.28473 11.2371 2.21121 0.000212833 10
-8.28443 11.2367 2.71365 0.000207871 10
-8.2766 11.2261 3.21999 0.000202056 10
-8.27712 11.2268 3.73741 0.000195448 10
-6.10855 8.22517 -2.74524 0.000495583 1
-7.1139 9.57888 -2.75462 0.000297826 1
-8.31486 11.196 -2.7108 0.000214287 10
-8.32332 11.2074 -2.21105 0.000219167 10
-8.31202 11.1921 -1.71175 0.000223109 10
-8.31873 11.2012 -1.22067 0.000226071 10
-8.32512 11.2098 -0.731772 0.000228024 10
-8.32487 11.2094 -0.243719 0.000228946 10
-8.32198 11.2055 0.243634 0.000228828 10
-8.31678 11.1986 0.731039 0.000227671 10
-8.31725 11.1992 1.22045 0.000225488 10
-8.31936 11.202 1.71326 0.000222301 10
-8.3287 11.2146 2.21248 0.000218144 10
-8.32791 11.2135 2.71505 0.000213059 10
-8.33252 11.2198 3.22649 0.0002071 10
-8.32356 11.2077 3.74069 0.000200328 10
-6.15104 8.22227 -2.75142 0.00049556 1
-7.14032 9.54466 -2.75193 0.000297809 1
-8.36936 11.1876 -2.71582 0.00021946 10
-8.36102 11.1764 -2.21069 0.00022446 10
-8.36513 11.1819 -1.71464 0.000228499 10
-8.35914 11.1739 -1.22087 0.000231536 10
-8.37144 11.1903 -0.732406 0.000233538 10
-8.37053 11.1891 -0.243911 0.000234484 10
-8.36606 11.1832 0.24378 0.000234365 10
-8.36273 11.1787 0.731645 0.000233183 10
-8.35857 11.1731 1.22079 0.000230948 10
-8.36682 11.1842 1.71498 0.000227685 10
-8.36349 11.1797 2.21134 0.000223429 10
-8.36029 11.1754 2.71288 0.000218222 10
-8.36529 11.1821 3.22405 0.00021212 10
-8.37724 11.1981 3.74722 0.000205185 10
-6.18095 8.20239 -2.75197 0.000495536 1
-7.17286 9.51871 -2.75165 0.000297792 1
-8.4007 11.1481 -2.71334 0.000224609 10
-8.40442 11.153 -2.21186 0.000229729 10
-8.41005 11.1605 -1.71585 0.000233865 10
-8.40637 11.1556 -1.22207 0.000236975 10
-8.40361 11.152 -0.731811 0.000239026 10
-8.39986 11.147 -0.24363 0.000239997 10
-8.41708 11.1698 0.244129 0.000239877 10
-8.40058 11.1479 0.731547 0.000238668 10
-8.4146 11.1666 1.22327 0.000236383 10
-8.40337 11.1517 1.71449 0.000233045 10
-8.41481 11.1668 2.21459 0.000228689 10
-8.41004 11.1605 2.71636 0.000223361 10
-8.41456 11.1665 3.22799 0.000217117 10
-8.41134 11.1622 3.74503 0.00021002 10
-6.20569 8.17569 -2.75027 0.000495513 1
-7.20429 9.49131 -2.75098 0.000297776 1
-8.44697 11.1285 -2.71572 0.000229733 10
-8.45733 11.1421 -2.21553 0.000234972 10
-8.44097 11.1206 -1.71423 0.000239205 10
-8.44491 11.1258 -1.22202 0.000242388 10
-8.44292 11.1231 -0.731848 0.000244488 10
-8.45697 11.1417 -0.244157 0.000245483 10
-8.45379 11.1375 0.244065 0.000245362 10
-8.44995 11.1324 0.732457 0.000244127 10
-8.45241 11.1356 1.22311 0.000241791 10
-8.45944 11.1449 1.71798 0.000238378 10
-8.4481 11.13 2.21312 0.000233924 10
-8.45402 11.1378 2.71799 0.000228475 10
-8.45164 11.1346 3.22729 0.000222089 10
-8.45039 11.133 3.74509 0.00021483 10
-6.23624 8.15666 -2.75117 0.00049549 1
-7.23344 9.46095 -2.74949 0.000297759 1
-8.49085 11.1056 -2.71735 0.00023483 10
-8.48595 11.0992 -2.21287 0.000240188 10
-8.49407 11.1098 -1.71713 0.000244517 10
-8.49702 11.1137 -1.22394 0.000247773 10
-8.48993 11.1044 -0.732559 0.000249922 10
-8.49449 11.1103 -0.244119 0.000250941 10
-8.48596 11.0992 0.243874 0.000250819 10
-8.48789 11.1017 0.732383 0.000249558 10
-8.49314 11.1086 1.22338 0.000247172 10
-8.49671 11.1132 1.71766 0.000243684 10
-8.49567 11.1119 2.2154 0.000239132 10
-8.49683 11.1134 2.71927 0.000233564 10
-8.4944 11.1102 3.22879 0.000227036 10
-8.49648 11.1129 3.7483 0.000219617 10
-6.25695 8.12481 -2.74778 0.000495467 1
-7.27826 9.45102 -2.75397 0.000297743 1
-8.52798 11.0738 -2.71685 0.000239903 10
-8.53339 11.0808 -2.21514 0.000245378 10
-8.53731 11.0859 -1.71803 0.000249803 10
-8.53568 11.0838 -1.22393 0.000253132 10
-8.53422 11.0819 -0.733038 0.000255329 10
-8.54185 11.0918 -0.244366 0.000256372 10
-8.5389 11.088 1.22439 0.000252526 10
-8.53153 11.0784 1.71687 0.000248964 10
-8.54306 11.0934 2.21765 0.000244315 10
-8.53222 11.0793 2.7182 0.000238627 10
-8.54439 11.0951 3.23305 0.000231958 10
-8.54031 11.0898 3.75053 0.000224379 10
-6.29199 8.11159 -2.75072 0.000495444 1
-7.29833 9.40896 -2.74912 0.000297726 1
-8.5856 11.0685 -2.72288 0.000244948 10
-8.58383 11.0662 -2.21819 0.000250541 10
-8.58838 11.0721 -1.72052 0.000255061 10
-8.57111 11.0498 -1.22347 0.000258462 10
-8.58794 11.0715 -0.734329 0.000260707 10
-8.58472 11.0674 -0.244486 0.000261774 10
-8.59117 11.0757 1.22634 0.000257851 10
-8.58758 11.071 1.72036 0.000254216 10
-8.57965 11.0608 2.21711 0.00024947 10
-8.59166 11.0763 2.7248 0.000243662 10
-8.59248 11.0774 3.23659 0.000236854 10
-8.59179 11.0765 3.75614 0.000229116 10
-6.31357 8.081 -2.7478 0.000495422 1
-7.34515 9.40137 -2.75437 0.00029771 1
-8.61308 11.0242 -2.71937 0.000249966 10
-8.62062 11.0339 -2.21773 0.000255676 10
-8.62564 11.0403 -1.72026 0.000260291 10
-8.62632 11.0412 -1.22584 0.000263764 10
-8.62351 11.0376 -0.73407 0.000266057 10
-8.6319 11.0483 -0.244729 0.000267147 10
-8.63158 11.0479 1.22659 0.000263149 10
-8.63332 11.0501 1.72179 0.00025944 10
-8.63603 11.0536 2.2217 0.000254597 10
-8.62367 11.0378 2.72272 0.000248671 10
-8.63571 11.0532 3.23832 0.000241724 10
-8.62966 11.0455 3.75581 0.000233827 10
-6.34869 8.06775 -2.75081 0.000495399 1
-7.36815 9.36325 -2.75073 0.000297694 1
-8.65953 11.0043 -2.72189 0.000254957 10
-8.67095 11.0188 -2.22077 0.000260783 10
-8.65869 11.0032 -1.71918 0.000265492 10
-8.67578 11.025 -1.2274 0.000269036 10
-8.67474 11.0236 -0.735152 0.000271376 10
-8.66327 11.0091 -0.244528 0.00027249 10
-8.66108 11.0063 1.22532 0.000268416 10
-8.66701 11.0138 1.72083 0.000264634 10
-8.6697 11.0172 2.22045 0.000259696 10
-8.66418 11.0102 2.72336 0.000253652 10
-8.68092 11.0315 3.24082 0.000246566 10
-8.67667 11.0261 3.7595 0.000238512 10
-6.36475 8.03032 -2.74561 0.000495377 1
-7.41115 9.35055 -2.75458 0.000297678 1
-8.71542 10.9961 -2.72738 0.000259919 10
-8.7122 10.9921 -2.22149 0.000265861 10
-8.71632 10.9973 -1.72299 0.000270664 10
-8.70192 10.9791 -1.22567 0.000274278 10
-8.71605 10.9969 -0.735395 0.000276667 10
-8.70974 10.989 -0.244755 0.000277804 10
-8.72064 11.0027 1.2283 0.000273655 10
-8.72021 11.0022 1.72376 0.0002698 10
-8.70564 10.9838 2.21982 0.000264766 10
-8.71332 10.9935 2.72672 0.000258605 10
-8.71611 10.997 3.2396 0.000251382 10
-8.7153 10.996 3.75958 0.00024317 10
-6.39726 8.01371 -2.74755 0.000495355 1
-7.43466 9.31324 -2.75121 0.000297663 1
-8.75024 10.9612 -2.72629 0.000264852 10
-8.75427 10.9663 -2.22245 0.000270909 10
-8.75037 10.9614 -1.72214 0.000275805 10
-8.75458 10.9667 -1.22768 0.00027949 10
-8.75247 10.964 -0.735234 0.000281926 10
-8.74552 10.9553 -0.244684 0.000283086 10
-8.76369 10.9781 1.22896 0.000278862 10
-8.76414 10.9786 1.72485 0.000274935 10
-8.7543 10.9663 2.22246 0.000269806 10
-8.76753 10.9829 2.73167 0.000263528 10
-8.7538 10.9657 3.23937 0.000256168 10
-8.75804 10.971 3.76148 0.000247801 10
-6.42022 7.98514 -2.74542 0.000495333 1
-7.47241 9.2938 -2.75316 0.000297647 1
-8.79531 10.9392 -2.72842 0.000269756 10
-8.79813 10.9427 -2.22387 0.000275927 10
-8.7935 10.9369 -1.72311 0.000280916 10
-8.79167 10.9346 -1.22752 0.000284672 10
-8.80709 10.9538 -0.736606 0.000287154 10
-8.79558 10.9395 -0.245015 0.000288338 10
-8.80741 10.9542 1.22972 0.000284039 10
-8.80952 10.9568 1.72625 0.00028004 10
-8.80443 10.9505 2.22547 0.000274817 10
-8.80979 10.9572 2.73291 0.000268423 10
-8.80217 10.9477 3.2431 0.000260927 10
-8.79776 10.9422 3.76211 0.000252404 10
-6.4513 7.9667 -2.74681 0.000495311 1
-7.4992 9.26075 -2.75111 0.000297631 1
-8.83837 10.9145 -2.72994 0.000274629 10
-8.84752 10.9258 -2.2267 0.000280914 10
-8.83673 10.9125 -1.72411 0.000285995 10
-8.84658 10.9246 -1.22986 0.000289821 10
-8.84565 10.9235 -0.736637 0.00029235 10
-8.83657 10.9123 -0.245094 0.000293556 10
-8.83885 10.9151 1.22878 0.000289184 10
-8.83774 10.9137 1.7243 0.000285113 10
-8.85262 10.9321 2.22799 0.000279796 10
-8.84899 10.9276 2.73322 0.000273288 10
-8.84396 10.9214 3.24444 0.000265656 10
-8.84831 10.9268 3.76739 0.000256979 10
-6.48175 7.94742 -2.74794 0.00049529 1
-7.53745 9.24183 -2.75329 0.000297616 1
-8.88793 10.8977 -2.73348 0.000279472 10
-8.87624 10.8834 -2.22436 0.00028587 10
-8.87656 10.8837 -1.72445 0.000291043 10
-8.89046 10.9008 -1.23066 0.000294938 10
-8.89455 10.9058 -0.737535 0.000297513 10
-8.87992 10.8879 -0.245241 0.000298743 10
-8.89342 10.9044 1.23107 0.000294297 10
-8.88909 10.8991 1.72689 0.000290155 10
-8.89622 10.9079 2.22936 0.000284745 10
-8.893 10.9039 2.73504 0.000278121 10
-8.88832 10.8982 3.24674 0.000270355 10
-8.89488 10.9062 3.77099 0.000261525 10
-6.50605 7.9206 -2.74651 0.000495268 1
-7.57192 9.21821 -2.75411 0.000297601 1
-8.92029 10.8597 -2.73176 0.000284285 10
-8.92167 10.8614 -2.22623 0.000290795 10
-8.92353 10.8637 -1.7262 0.000296059 10
-8.92203 10.8619 -1.22978 0.000300023 10
-8.92607 10.8668 -0.736999 0.000302645 10
-8.9258 10.8664 -0.245459 0.000303897 10
-8.93942 10.883 1.23217 0.000299378 10
-8.93023 10.8718 1.7275 0.000295165 10
-8.93343 10.8757 2.22916 0.000289662 10
-8.93666 10.8797 2.73677 0.000282925 10
-8.93702 10.8801 3.25063 0.000275025 10
-8.92809 10.8692 3.76896 0.000266043 10
-6.54578 7.91249 -2.7516 0.000495247 1
-7.59001 9.17475 -2.74902 0.000297585 1
-8.96305 10.8345 -2.73325 0.000289065 10
-8.97032 10.8433 -2.22891 0.000295687 10
-8.96249 10.8338 -1.72641 0.000301042 10
-8.96766 10.84 -1.23084 0.000305074 10
-8.97476 10.8486 -0.737888 0.000307742 10
-8.97921 10.854 -0.245885 0.000309017 10
-8.96578 10.8378 1.23058 0.000304425 10
-8.98442 10.8603 1.73064 0.000300142 10
-8.97867 10.8534 2.23098 0.000294547 10
-8.96912 10.8418 2.73511 0.000287696 10
-8.97779 10.8523 3.25166 0.000279663 10
-8.97233 10.8457 3.77163 0.00027053 10
-6.57325 7.88946 -2.75155 0.000495226 1
-7.63192 9.16011 -2.7526 0.00029757 1
-9.0186 10.8245 -2.73865 0.000293814 10
-9.02076 10.8271 -2.23204 0.000300547 10
-9.01978 10.8259 -1.73016 0.000305992 10
-9.02211 10.8287 -1.23312 0.000310093 10
-9.00912 10.8131 -0.737605 0.000312806 10
-9.01501 10.8201 -0.245829 0.000314103 10
-9.01688 10.8224 1.23241 0.000309439 10
-9.01643 10.8219 1.72951 0.000305086 10
-9.02305 10.8298 2.2326 0.000299399 10
-9.01489 10.82 2.73753 0.000292437 10
-9.01407 10.819 3.2511 0.000284271 10
-9.01479 10.8199 3.77358 0.000274987 10
-6.59211 7.85618 -2.74796 0.000495205 1
-7.66803 9.1384 -2.7541 0.000297555 1
-9.05844 10.7954 -2.73929 0.00029853 10
-9.06514 10.8034 -2.23367 0.000305373 10
-9.05487 10.7912 -1.72965 0.000310908 10
-9.05061 10.7861 -1.23186 0.000315076 10
-9.06549 10.8038 -0.739128 0.000317834 10
-9.06058 10.798 -0.246043 0.000319154 10
-9.061 10.7985 1.23328 0.000314418 10
-9.05444 10.7907 1.72957 0.000309996 10
-9.06507 10.8033 2.23365 0.000304218 10
-9.06673 10.8053 2.7418 0.000297144 10
-9.05985 10.7971 3.254 0.000288847 10
-9.05783 10.7947 3.7758 0.000279413 10
-6.61718 7.83038 -2.74699 0.000495184 1
-7.68569 9.09478 -2.74903 0.000297541 1
-9.09602 10.7637 -2.73928 0.000303213 10
-9.10031 10.7688 -2.23306 0.000310166 10
-9.09646 10.7642 -1.73041 0.000315789 10
