VERSION 0.7
FIELDS x y z intensity label
SIZE 4 4 4 4 4
TYPE F F F F F
COUNT 1 1 1 1 1
WIDTH 1166
HEIGHT 1
VIEWPOINT 18.9757 52.4205 2.7269 0.968035 -0.00020537 0.000888544 -0.250815
POINTS 1166
DATA ascii
2.56538 10.9375 -2.59366 0.00103975 10
2.81484 12.0011 -2.39609 0.000841861 10
3.21825 13.7211 -2.23218 0.000215641 10
4.1363 17.6352 -2.22409 8.31553e-05 10
3.89511 16.6069 2.09441 0.000113862 10
3.01214 12.8423 2.08922 0.000296357 10
2.81309 11.9937 2.39461 0.000984635 10
2.12148 9.18912 -2.52698 0.000478948 4
2.52295 10.9281 -2.58931 0.000748542 10
2.76753 11.9875 -2.39142 0.000839758 10
3.16965 13.7292 -2.2317 0.000215617 10
4.07773 17.6626 -2.22574 8.31425e-05 10
3.83354 16.6049 2.09245 0.00011388 10
2.96548 12.8449 2.08795 0.000296391 10
2.76226 11.9646 2.38686 0.000982185 10
2.08543 9.17905 -2.5222 0.000448749 4
2.48685 10.9459 -2.59146 0.000742998 10
2.7202 11.973 -2.38663 0.000837573 10
3.122 13.7416 -2.23191 0.000215592 10
4.01332 17.6647 -2.22422 8.31296e-05 10
3.77936 16.6349 2.09456 0.000113898 10
2.92113 12.8574 2.08831 0.000296425 10
2.7167 11.9576 2.38355 0.000979639 10
2.05437 9.1907 -2.52341 0.000527907 4
2.44517 10.939 -2.5878 0.000737378 10
2.67331 11.9597 -2.3821 0.000835305 10
3.06993 13.7341 -2.22894 0.000215568 10
3.95206 17.6805 -2.22447 8.31167e-05 10
3.71853 16.6357 2.09302 0.000113915 10
2.87673 12.8698 2.08867 0.000296459 10
2.66952 11.9427 2.37872 0.000976996 10
2.02258 9.19921 -2.5238 0.000437381 4
2.40472 10.9373 -2.58539 0.000731682 10
2.62519 11.94 -2.37634 0.000832954 10
3.02527 13.7597 -2.23138 0.000215543 10
3.89001 17.6928 -2.22429 8.31038e-05 10
3.65866 16.6406 2.092 0.000113933 10
2.83254 12.8832 2.08923 0.000296493 10
2.6229 11.9296 2.37427 0.000974257 10
1.99294 9.21772 -2.52695 0.000505218 4
2.36038 10.9172 -2.57867 0.000725911 10
2.58327 11.9481 -2.37614 0.000830521 10
2.97617 13.7653 -2.23059 0.000215518 10
3.83248 17.7259 -2.22676 8.30908e-05 10
3.60022 16.6517 2.09181 0.000113951 10
2.78468 12.8796 2.08707 0.000296527 10
2.58113 11.9382 2.37417 0.000971422 10
1.95975 9.2199 -2.52566 0.000546656 4
2.31875 10.9089 -2.57477 0.000720066 10
2.53615 11.9316 -2.37109 0.000828007 10
2.92921 13.7808 -2.23143 0.000215493 10
3.77192 17.7455 -2.22755 8.30778e-05 10
3.54456 16.6758 2.09328 0.000113969 10
2.74225 12.9012 2.089 0.000296561 10
2.53715 11.9363 2.37202 0.000968491 10
1.92795 9.22859 -2.52618 0.000459916 4
2.2783 10.9056 -2.57211 0.000714146 10
2.48794 11.9091 -2.36487 0.000825409 10
2.87842 13.7782 -2.22937 0.000215468 10
3.70485 17.7341 -2.22449 8.30647e-05 10
3.48539 16.6836 2.09272 0.000113987 10
2.69333 12.8922 2.08601 0.000296596 10
2.49051 11.9214 2.36732 0.000965463 10
1.89395 9.2266 -2.52381 0.000527738 4
2.23985 10.9117 -2.57169 0.000708152 10
2.44493 11.9107 -2.36349 0.000822731 10
2.83136 13.7933 -2.2302 0.000215444 10
3.6467 17.7653 -2.22679 8.30516e-05 10
3.43013 16.7103 2.09454 0.000114005 10
2.64989 12.9093 2.08726 0.00029663 10
2.44458 11.9091 2.36315 0.000962341 10
1.86588 9.25374 -2.52943 0.000471164 4
2.20151 10.9183 -2.57142 0.000702085 10
2.39535 11.8796 -2.35563 0.000819969 10
2.78624 13.8182 -2.23264 0.000215419 10
3.58169 17.7632 -2.22494 8.30385e-05 10
3.36942 16.7105 2.09308 0.000114023 10
2.60483 12.9185 2.08727 0.000296665 10
2.39641 11.8849 2.35668 0.000959122 10
1.8305 9.24468 -2.5252 0.000459827 4
2.16107 10.9142 -2.56866 0.000695946 10
2.35103 11.8736 -2.3528 0.000570536 10
2.73338 13.8046 -2.22888 0.000215393 10
3.52027 17.7786 -2.22532 8.30254e-05 10
3.31174 16.7255 2.0935 0.000114041 10
2.56052 12.9316 2.08792 0.000296699 10
2.35558 11.8965 2.35735 0.000667929 10
1.79785 9.24914 -2.52469 0.000444721 4
2.11735 10.8928 -2.56187 0.000689734 10
2.30957 11.8817 -2.3528 0.000565476 10
2.68906 13.834 -2.2321 0.000215368 10
3.45994 17.7999 -2.22646 8.30122e-05 10
3.25353 16.738 2.09363 0.000114059 10
2.51784 12.9532 2.08998 0.000296734 10
2.30837 11.8755 2.35158 0.000662022 10
1.76404 9.24743 -2.52252 0.000455998 4
2.08001 10.9038 -2.56273 0.000683453 10
2.26808 11.8897 -2.35279 0.000560357 10
2.64071 13.8431 -2.23206 0.000215343 10
3.40022 17.8246 -2.22805 8.29989e-05 10
3.19564 16.7521 2.09399 0.000114078 10
2.46858 12.9407 2.08657 0.000296769 10
2.26603 11.8789 2.35066 0.000656047 10
1.73586 9.2755 -2.52851 0.000489883 4
2.03922 10.8965 -2.55932 0.000677099 10
2.22409 11.8843 -2.35019 0.000555179 10
2.59028 13.841 -2.23026 0.000215318 10
3.33547 17.8229 -2.22637 8.29857e-05 10
3.13614 16.7578 2.09333 0.000114096 10
2.42566 12.9614 2.08853 0.000296804 10
2.21977 11.8612 2.34562 0.000650002 10
1.70222 9.27467 -2.52665 0.000519996 4
1.99986 10.8964 -2.55765 0.000670676 10
2.17837 11.869 -2.34563 0.000549943 10
2.54423 13.8624 -2.23227 0.000215292 10
3.2733 17.8348 -2.22641 8.29724e-05 10
3.07785 16.7699 2.09348 0.000114114 10
2.37732 12.953 2.08582 0.000296839 10
2.17722 11.8627 2.3444 0.00064389 10
1.671 9.287 -2.52841 0.000516194 4
1.95969 10.8915 -2.55487 0.000664183 10
2.13287 11.854 -2.34118 0.000544649 10
2.49343 13.8579 -2.23012 0.000215267 10
3.21394 17.8623 -2.22843 8.29591e-05 10
3.01533 16.7585 2.09073 0.000114133 10
2.33645 12.9854 2.08972 0.000296874 10
2.13668 11.8751 2.34536 0.00063771 10
1.63726 9.28537 -2.52639 0.000493555 4
1.92086 10.8937 -2.55381 0.000657621 10
2.09215 11.8652 -2.34194 0.000539297 10
2.4463 13.8736 -2.23127 0.000215241 10
3.15106 17.8706 -2.22808 8.29457e-05 10
2.95648 16.767 2.09049 0.000114151 10
2.28815 12.9767 2.08702 0.000296909 10
2.08843 11.8441 2.33777 0.000631462 10
1.60388 9.28543 -2.52487 0.000565102 4
1.87859 10.8759 -2.54808 0.000650991 10
2.0498 11.867 -2.34088 0.000533889 10
2.39566 13.8694 -2.22922 0.000215216 10
3.08497 17.86 -2.22541 8.29323e-05 10
2.89781 16.7765 2.0904 0.00011417 10
2.24259 12.9832 2.08678 0.000296945 10
2.04545 11.8419 2.33591 0.000625149 10
1.57411 9.30669 -2.52914 0.000527393 4
1.83725 10.8625 -2.54342 0.000644293 10
2.00371 11.8466 -2.33546 0.000528424 10
2.35057 13.8974 -2.2324 0.00021519 10
3.02382 17.8779 -2.22631 8.29188e-05 10
2.84223 16.8043 2.09261 0.000114188 10
2.19968 13.0053 2.08909 0.00029698 10
2.00638 11.8625 2.33858 0.000618769 10
1.53819 9.29143 -2.52352 0.000485923 4
1.79901 10.8669 -2.54297 0.000637528 10
1.96063 11.8432 -2.33341 0.000522903 10
2.30231 13.9071 -2.23265 0.000215164 10
2.9605 17.8829 -2.22563 8.29054e-05 10
2.78309 16.8113 2.09226 0.000114207 10
2.15221 13.0005 2.0871 0.000297015 10
1.96167 11.8495 2.33465 0.000612324 10
1.50731 9.30643 -2.52615 0.000463291 4
1.75803 10.8544 -2.5386 0.000630697 10
1.91881 11.8471 -2.33285 0.000517327 10
2.25274 13.9089 -2.23165 0.000215139 10
2.89942 17.9016 -2.22668 8.28919e-05 10
2.7258 16.8296 2.09334 0.000114225 10
2.1087 13.0195 2.08896 0.000297051 10
1.91746 11.8388 2.33121 0.000605814 10
1.47586 9.31822 -2.52793 0.000474559 4
1.71962 10.8573 -2.53784 0.0006238 10
1.87357 11.8293 -2.32804 0.000511697 10
2.20438 13.9179 -2.23186 0.000215113 10
2.83582 17.9046 -2.22582 8.28783e-05 10
2.66333 16.8156 2.09043 0.000114244 10
2.06047 13.0093 2.08615 0.000297087 10
1.87331 11.8276 2.32771 0.000599241 10
1.44402 9.32775 -2.52913 0.000576212 4
1.68321 10.8728 -2.54009 0.000283761 10
1.83031 11.8231 -2.32555 0.000506012 10
2.15738 13.9358 -2.2335 0.000215087 10
2.77529 17.9272 -2.2274 8.28648e-05 10
2.60412 16.8215 2.09003 0.000114263 10
2.01836 13.0378 2.08958 0.000297123 10
1.83091 11.8269 2.32631 0.000592605 10
1.40874 9.31484 -2.52429 0.000553578 4
1.64229 10.8591 -2.53553 0.000275406 10
1.78752 11.8194 -2.32358 0.000500274 10
2.10763 13.9361 -2.23236 0.000215061 10
2.71143 17.9285 -2.22637 8.28511e-05 10
2.54501 16.8281 2.08972 0.000114282 10
1.97267 13.0436 2.0894 0.000297158 10
1.79024 11.8374 2.32712 0.000585905 10
1.3763 9.32029 -2.52444 0.000335137 4
1.60438 10.8648 -2.53554 0.000267023 10
1.74555 11.8208 -2.32265 0.000494483 10
2.05633 13.9254 -2.22949 0.000215035 10
2.65172 17.9574 -2.2288 8.28375e-05 10
2.4872 16.8433 2.09052 0.000114301 10
1.92453 13.0329 2.08659 0.000297194 10
1.74514 11.8181 2.32211 0.000579145 10
1.34475 9.33189 -2.5263 0.000545973 4
1.5658 10.8659 -2.53451 0.00025861 10
1.70184 11.8099 -2.31933 0.000488639 10
2.01029 13.9504 -2.23236 0.000215009 10
2.58699 17.9525 -2.22706 8.28239e-05 10
2.42994 16.8626 2.09186 0.000114319 10
1.88014 13.0473 2.08783 0.000297231 10
1.70166 11.8087 2.31909 0.000572322 10
1.31206 9.33575 -2.52609 0.000384038 4
1.52813 10.8732 -2.53494 0.00025017 10
1.65972 11.8095 -2.31809 0.000209755 10
1.95942 13.9419 -2.22989 0.000214983 10
2.52484 17.9652 -2.22752 8.28102e-05 10
2.36999 16.8633 2.0909 0.000114338 10
1.83368 13.0473 2.0868 0.000297267 10
1.66253 11.8295 2.32201 0.000565439 10
1.27929 9.33903 -2.52576 0.000459308 4
1.48798 10.8625 -2.53124 0.000241703 10
1.61963 11.8236 -2.31974 0.000202784 10
1.91407 13.973 -2.23378 0.000214956 10
2.46426 17.9895 -2.22947 8.27965e-05 10
2.31054 16.8674 2.09039 0.000114357 10
1.78751 13.0492 2.08608 0.000297303 10
1.61691 11.8037 2.31584 0.000238386 10
1.24772 9.35122 -2.52786 0.0004781 4
1.45135 10.8774 -2.5335 0.000233211 10
1.5761 11.8123 -2.31643 0.000195793 10
1.86449 13.9737 -2.23283 0.00021493 10
2.40157 17.9989 -2.22957 8.27827e-05 10
2.25288 16.8845 2.09153 0.000114377 10
1.74285 13.062 2.08715 0.000297339 10
1.5752 11.8055 2.3151 0.00023022 10
1.3042 10.0418 -2.71329 0.000516743 1
1.41234 10.8744 -2.53164 0.000224693 10
1.53401 11.8112 -2.31515 0.00018878 10
1.81411 13.9679 -2.23088 0.000214904 10
2.33804 18.0019 -2.22892 8.27689e-05 10
2.19306 16.8857 2.09071 0.000114396 10
1.69545 13.0543 2.08496 0.000297376 10
1.53586 11.8255 2.31795 0.000222027 10
1.27141 10.0642 -2.71813 0.000516708 1
1.3726 10.8653 -2.52838 0.000216152 10
1.4944 11.8293 -2.31767 0.000181746 10
1.76729 13.9895 -2.23334 0.000214877 10
2.27521 18.0101 -2.22894 8.2755e-05 10
2.13436 16.8952 2.09096 0.000114415 10
1.65111 13.0698 2.08651 0.000297412 10
1.49195 11.81 2.31387 0.000213812 10
1.23389 10.0492 -2.71289 0.000516672 1
1.3342 10.8662 -2.52749 0.000207589 10
1.45386 11.8407 -2.31889 0.000174694 10
1.71775 13.9899 -2.23242 0.000214851 10
2.21019 18.0005 -2.22678 8.27412e-05 10
2.07406 16.8918 2.08963 0.000114434 10
1.60411 13.0644 2.08474 0.000297449 10
1.451 11.8174 2.31432 0.000205573 10
1.2005 10.0677 -2.71675 0.000516636 1
1.29822 10.8872 -2.53131 0.000199001 10
1.40914 11.8174 -2.31334 0.000167621 10
1.668 13.9882 -2.23121 0.000214824 10
2.14872 18.0197 -2.22821 8.27273e-05 10
2.01577 16.9047 2.09034 0.000114453 10
1.55973 13.0803 2.08639 0.000297486 10
1.41004 11.8249 2.31481 0.000197311 10
1.16522 10.0707 -2.71644 0.0005166 1
1.25949 10.8854 -2.52986 0.000190394 10
1.36786 11.822 -2.3133 0.000160531 10
1.61922 13.9945 -2.2313 0.000214798 10
2.08549 18.0244 -2.22788 8.27133e-05 10
1.95739 16.9172 2.09102 0.000114473 10
1.51285 13.0752 2.08472 0.000297522 10
1.36857 11.8282 2.3145 0.00018903 10
1.13115 10.0845 -2.71907 0.000516564 1
1.22098 10.8853 -2.52883 0.000181765 10
1.32622 11.8235 -2.31268 0.000153423 10
1.57115 14.0071 -2.23242 0.000214771 10
2.02317 18.0369 -2.22855 8.26994e-05 10
1.89863 16.9266 2.09136 0.000114492 10
1.4687 13.0938 2.08685 0.000297559 10
1.32552 11.8172 2.31144 0.000180726 10
1.09568 10.0859 -2.71841 0.000516528 1
1.18305 10.8901 -2.52897 0.000173118 10
1.28429 11.8221 -2.3115 0.000146298 10
1.52365 14.0254 -2.23447 0.000214744 10
1.83764 16.9157 -2.08921 0.000542921 10
1.8371 16.9108 -1.48821 0.000550803 10
1.83757 16.9151 -0.891696 0.000556125 10
1.83734 16.9129 -0.296953 0.000558831 10
1.83714 16.9111 0.296922 0.000558889 10
1.83735 16.913 2.08888 0.000114511 10
1.42295 13.0984 2.08679 0.000297597 10
1.28588 11.8367 2.31436 0.000172404 10
1.05942 10.0797 -2.71572 0.000516492 1
1.14455 10.8897 -2.52794 0.000164451 10
1.24443 11.8399 -2.31413 0.000139157 10
1.47488 14.0326 -2.23478 0.000214718 10
1.7738 16.8766 -2.0836 0.0005441 10
1.77501 16.8881 -1.48565 0.000551994 10
1.7738 16.8766 -0.889335 0.000557325 10
1.77467 16.8849 -0.29635 0.000560035 10
1.776 16.8976 0.296573 0.000560094 10
1.77476 16.8857 0.889815 0.000557501 10
1.77325 16.8714 1.48419 0.000552285 10
1.77495 16.8875 2.08495 0.000544502 10
1.37553 13.0873 2.08425 0.000297634 10
1.24299 11.8262 2.31145 0.000164063 10
1.02545 10.0954 -2.71896 0.000516456 1
1.10593 10.8876 -2.52654 0.000155767 10
1.20345 11.8478 -2.31482 0.000132002 10
1.42374 14.0165 -2.23142 0.000214691 10
1.7108 16.8424 -2.07863 0.000545229 10
1.71039 16.8384 -1.48075 0.000553136 10
1.71293 16.8635 -0.888326 0.000558475 10
1.7113 16.8474 -0.295587 0.000561189 10
1.71186 16.8529 0.295682 0.000561249 10
1.71289 16.8631 0.888304 0.000558652 10
1.7107 16.8415 1.48102 0.000553428 10
1.71028 16.8373 2.078 0.000545634 10
1.33162 13.1095 2.08703 0.000297671 10
1.2017 11.8305 2.31145 0.000155704 10
0.990371 10.1006 -2.71942 0.00051642 1
1.06636 10.8755 -2.52286 0.000147066 10
1.16105 11.8413 -2.31275 0.000124832 10
1.37582 14.0317 -2.23306 0.000214664 10
1.6475 16.8025 -2.07298 0.000546309 10
1.64896 16.8174 -1.47839 0.000554227 10
1.64848 16.8125 -0.885333 0.000559574 10
1.64903 16.8182 -0.29497 0.000562293 10
1.64977 16.8257 0.295102 0.000562353 10
1.64778 16.8054 0.884955 0.000559752 10
1.64802 16.8078 1.47754 0.000554522 10
1.64748 16.8023 2.07296 0.000546716 10
1.28578 13.1134 2.08691 0.000297708 10
1.15997 11.8303 2.3106 0.000147328 10
0.955005 10.1029 -2.71913 0.000516383 1
1.0277 10.8719 -2.52117 0.000138351 10
1.11975 11.8457 -2.31283 0.000117649 10
1.32649 14.0327 -2.23248 0.000214637 10
1.58537 16.7715 -2.06846 0.000547338 10
1.58694 16.7881 -1.47532 0.000555267 10
1.58752 16.7942 -0.884072 0.000560622 10
1.58505 16.7681 -0.293993 0.000563345 10
1.58725 16.7913 0.294399 0.000563405 10
1.58544 16.7722 0.882914 0.000560802 10
1.58708 16.7896 1.47545 0.000555564 10
1.58702 16.7889 2.07061 0.000547749 10
1.23957 13.1133 2.0862 0.000297745 10
1.1186 11.8335 2.31045 0.000138937 10
0.919096 10.0991 -2.71724 0.000516347 1
0.992102 10.9013 -2.52717 0.00012962 10
1.07809 11.8462 -2.31218 0.000110453 10
1.27701 14.0319 -2.23163 0.00021461 10
1.52335 16.7388 -2.06376 0.000548318 10
1.52493 16.7561 -1.47203 0.000556257 10
1.52361 16.7416 -0.881016 0.000561619 10
1.52481 16.7548 -0.293664 0.000564345 10
1.52504 16.7573 0.293708 0.000564406 10
1.52304 16.7353 0.880684 0.0005618 10
1.52515 16.7586 1.47224 0.000556556 10
1.52398 16.7456 2.0646 0.000548731 10
1.19497 13.1305 2.08826 0.000297783 10
1.07715 11.8358 2.31016 0.000130531 10
0.884005 10.1042 -2.71776 0.00051631 1
0.953837 10.9024 -2.52663 0.000120874 10
1.03556 11.8365 -2.30957 0.000103244 10
1.22849 14.0417 -2.23248 0.000214583 10
1.46304 16.7226 -2.06112 0.000549247 10
1.46332 16.7258 -1.46891 0.000557196 10
1.46294 16.7215 -0.879685 0.000562564 10
1.46177 16.7081 -0.292754 0.000565294 10
1.46275 16.7193 0.292951 0.000565355 10
1.46284 16.7203 0.879621 0.000562746 10
1.46169 16.7072 1.46728 0.000557497 10
1.46209 16.7118 2.05979 0.000549664 10
1.14795 13.1211 2.08612 0.00029782 10
1.03671 11.8496 2.31213 0.00012211 10
0.848633 10.1061 -2.71744 0.000516274 1
0.915105 10.8977 -2.52478 0.000112117 10
0.994573 11.844 -2.31035 9.60248e-05 10
1.18099 14.064 -2.23537 0.000214556 10
1.40139 16.6887 -2.05632 0.000550125 10
1.40095 16.6834 -1.46475 0.000558083 10
1.40129 16.6875 -0.877631 0.000563457 10
1.39973 16.6688 -0.29198 0.00056619 10
1.39964 16.6679 0.291963 0.000566251 10
1.40097 16.6836 0.87743 0.000563641 10
1.40015 16.6739 1.46391 0.000558386 10
1.3993 16.6638 2.05325 0.000550545 10
1.10249 13.1291 2.08677 0.000297858 10
0.993792 11.8347 2.30853 0.000113677 10
0.813129 10.1062 -2.71671 0.000516237 1
0.875784 10.885 -2.52112 0.000103346 10
0.953992 11.857 -2.31222 0.00026807 10
1.13015 14.0465 -2.23193 0.000214529 10
1.33956 16.6492 -2.05087 0.000550952 10
1.33877 16.6393 -1.46045 0.000558918 10
1.33912 16.6437 -0.875079 0.000564298 10
1.33826 16.633 -0.291268 0.000567034 10
1.3402 16.6571 0.29169 0.000567096 10
1.33817 16.6318 0.874454 0.000564483 10
1.33832 16.6337 1.45996 0.000559224 10
1.33863 16.6376 2.04944 0.000551376 10
1.05729 13.1409 2.08804 0.000297896 10
0.953842 11.8551 2.31185 0.000311946 10
0.777657 10.1065 -2.71604 0.0005162 1
0.839414 10.9091 -2.52602 0.000334928 10
0.912661 11.8611 -2.31237 0.000274945 10
1.08079 14.0461 -2.23125 0.000214501 10
1.27742 16.6015 -2.04443 0.000551728 10
1.27849 16.6154 -1.45796 0.000559701 10
1.27849 16.6154 -0.873351 0.000565087 10
1.27726 16.5994 -0.2906 0.000567826 10
1.2788 16.6194 0.290951 0.000567888 10
1.27709 16.5973 0.872398 0.000565273 10
1.27827 16.6125 1.45771 0.000560009 10
1.27704 16.5965 2.04382 0.000552154 10
1.01143 13.1446 2.08806 0.000297934 10
0.913031 11.8659 2.31331 0.000319982 10
0.742866 10.1159 -2.71785 0.000516163 1
0.801791 10.9183 -2.52748 0.000343245 10
0.871882 11.8728 -2.31405 0.000281791 10
1.03315 14.0689 -2.23429 0.000214474 10
1.21672 16.5686 -2.03985 0.000552453 10
1.21675 16.569 -1.4535 0.000560433 10
1.21749 16.579 -0.871209 0.000565823 10
1.21722 16.5754 -0.290104 0.000568564 10
1.21689 16.5709 0.290025 0.000568626 10
1.2179 16.5847 0.871509 0.00056601 10
1.21646 16.565 1.45315 0.000560743 10
1.2165 16.5656 2.03947 0.000552882 10
0.964635 13.1358 2.08612 0.000297971 10
0.870132 11.849 2.3094 0.000327984 10
0.706404 10.102 -2.71344 0.000516126 1
0.76307 10.9124 -2.52547 0.000351526 10
0.830597 11.8781 -2.3145 0.000288605 10
0.982773 14.0543 -2.23141 0.000214447 10
1.15698 16.5455 -2.0365 0.000553126 10
1.15774 16.5564 -1.45204 0.000561112 10
1.1568 16.5429 -0.869096 0.000566505 10
1.15603 16.5319 -0.28927 0.000569249 10
1.15591 16.5302 0.28924 0.000569312 10
1.15751 16.5531 0.869629 0.000566694 10
1.15742 16.5518 1.45163 0.000561424 10
1.15762 16.5547 2.03762 0.000553557 10
0.917615 13.1225 2.08347 0.000298009 10
0.82922 11.8584 2.31066 0.000335949 10
0.671812 10.1146 -2.71618 0.000516089 1
0.726213 10.9337 -2.5298 0.00035977 10
0.789799 11.891 -2.31647 0.00029539 10
0.933844 14.0597 -2.23175 0.000214419 10
1.09605 16.5018 -2.03063 0.000553746 10
1.09678 16.5128 -1.44787 0.000561737 10
1.09681 16.5133 -0.867335 0.000567135 10
1.09686 16.5141 -0.28889 0.000569881 10
1.09662 16.5104 0.288826 0.000569944 10
1.09578 16.4978 0.866516 0.000567325 10
1.09598 16.5007 1.44681 0.000562052 10
1.09573 16.497 2.03005 0.000554181 10
0.872218 13.1319 2.08447 0.000298047 10
0.788238 11.8675 2.31189 0.000343879 10
0.637102 10.1264 -2.71874 0.000516052 1
0.687943 10.9345 -2.52943 0.000367975 10
0.748762 11.9012 -2.31793 0.000302142 10
0.885812 14.0795 -2.23439 0.000214392 10
1.03731 16.4875 -2.02841 0.000554315 10
1.03608 16.4679 -1.44361 0.00056231 10
1.0364 16.4731 -0.865026 0.000567711 10
1.03745 16.4898 -0.2884 0.000570459 10
1.03679 16.4793 0.288215 0.000570522 10
1.03721 16.4859 0.865699 0.000567902 10
1.03588 16.4648 1.44333 0.000562627 10
1.03706 16.4836 2.02793 0.000554753 10
0.826205 13.1321 2.08404 0.000298085 10
0.747101 11.8748 2.31279 0.000351771 10
0.601535 10.1249 -2.71775 0.000516015 1
0.649552 10.9332 -2.52857 0.000376141 10
0.707051 11.901 -2.31739 0.000308861 10
0.836333 14.077 -2.23351 0.000214364 10
0.976621 16.4383 -2.02193 0.000554831 10
0.976871 16.4425 -1.44107 0.00056283 10
0.976992 16.4446 -0.863342 0.000568233 10
0.976456 16.4355 -0.287389 0.000570982 10
0.977297 16.4497 0.287637 0.000571047 10
0.976992 16.4446 0.863343 0.000568426 10
0.976721 16.44 1.44085 0.000563149 10
0.97634 16.4336 2.02135 0.000555272 10
0.781648 13.1566 2.08747 0.000298124 10
0.706555 11.8926 2.31576 0.000359625 10
0.566734 10.1368 -2.72038 0.000515978 1
0.611239 10.9328 -2.52798 0.000384268 10
0.66533 11.9003 -2.31679 0.000315548 10
0.78775 14.0899 -2.23511 0.000214337 10
0.916945 16.4008 -2.0169 0.000555294 10
0.917598 16.4124 -1.43814 0.000563296 10
0.917826 16.4165 -0.861696 0.000568702 10
0.9175 16.4107 -0.286897 0.000571452 10
0.917669 16.4137 0.28695 0.000571517 10
0.918107 16.4215 0.86196 0.000568896 10
0.917732 16.4148 1.43835 0.000563617 10
0.917262 16.4064 2.0176 0.000555738 10
0.734686 13.1408 2.08455 0.000298162 10
0.665823 11.9091 2.31851 0.000367442 10
0.530883 10.1298 -2.718 0.00051594 1
0.573814 10.949 -2.53124 0.000392353 10
0.624794 11.9217 -2.32053 0.000322201 10
0.738844 14.0979 -2.23595 0.000214309 10
0.858457 16.3802 -2.014 0.000555704 10
0.858808 16.3869 -1.43564 0.000563709 10
0.858036 16.3722 -0.85921 0.000569116 10
0.858134 16.3741 -0.286203 0.000571868 10
0.857629 16.3645 0.286034 0.000571933 10
0.858765 16.3861 0.85994 0.000569312 10
0.857859 16.3689 1.43405 0.000564032 10
0.858058 16.3727 2.01307 0.000556151 10
0.68867 13.1405 2.08411 0.0002982 10
0.62504 11.9264 2.32144 0.000375218 10
0.495357 10.1283 -2.71712 0.000515903 1
0.536466 10.9689 -2.53539 0.000400398 10
0.582929 11.9189 -2.31956 0.000328819 10
0.68893 14.0862 -2.2337 0.000214281 10
0.800036 16.3579 -2.0109 0.000556061 10
0.798659 16.3298 -1.43038 0.000564068 10
0.799904 16.3552 -0.858166 0.000569476 10
0.79914 16.3396 -0.28555 0.000572228 10
0.799219 16.3412 0.285578 0.000572294 10
0.798877 16.3342 0.857064 0.000569673 10
0.799959 16.3564 1.43271 0.000564393 10
0.798815 16.333 2.00783 0.000556511 10
0.642638 13.1397 2.08361 0.000298239 10
0.583874 11.9382 2.32332 0.000382954 10
0.460555 10.1422 -2.72039 0.000515865 1
0.498036 10.9676 -2.53467 0.0004084 10
0.542588 11.9487 -2.32498 0.000335402 10
0.639184 14.0759 -2.23169 0.000214254 10
0.741199 16.3224 -2.0062 0.000556365 10
0.741216 16.3228 -1.42953 0.000564373 10
0.740551 16.3081 -0.855554 0.000569782 10
0.740648 16.3103 -0.28499 0.000572535 10
0.740284 16.3023 0.28485 0.000572601 10
0.741046 16.319 0.856125 0.00056998 10
0.740672 16.3108 1.42848 0.0005647 10
0.740774 16.313 2.00505 0.000556818 10
0.597011 13.1471 2.08445 0.000298277 10
0.54214 11.9388 2.32306 0.000390649 10
0.424177 10.1206 -2.71418 0.000515828 1
0.459864 10.972 -2.53532 0.00041636 10
0.501247 11.9594 -2.32672 0.000341949 10
0.590411 14.0868 -2.23309 0.000214226 10
0.682832 16.2919 -2.00215 0.000556616 10
0.682827 16.2918 -1.4266 0.000564623 10
0.682875 16.2929 -0.854625 0.000570033 10
0.681955 16.271 -0.284261 0.000572786 10
0.681713 16.2652 0.284159 0.000572852 10
0.68263 16.2871 0.854319 0.000570232 10
0.681969 16.2713 1.4248 0.000564953 10
0.68223 16.2775 2.00038 0.000557071 10
0.550989 13.1462 2.08399 0.000298316 10
0.500411 11.9395 2.32283 0.000398302 10
0.389371 10.1356 -2.71782 0.00051579 1
0.421539 10.9729 -2.53517 0.000424275 10
0.459066 11.9498 -2.32452 0.000348459 10
0.541635 14.0991 -2.23473 0.000214198 10
0.624521 16.2567 -1.99754 0.000556812 10
0.624682 16.2609 -1.42369 0.000564819 10
0.623806 16.2381 -0.851629 0.000570228 10
0.624037 16.2441 -0.283751 0.000572982 10
0.623885 16.2401 0.283682 0.000573049 10
0.623706 16.2355 0.851492 0.000570429 10
0.623992 16.2429 1.42212 0.000565151 10
0.624333 16.2518 1.99694 0.000557271 10
0.505179 13.1501 2.08431 0.000298355 10
0.458619 11.9381 2.32225 0.000405912 10
0.353668 10.1276 -2.71534 0.000515753 1
0.384446 11.009 -2.54317 0.000432145 10
0.417623 11.959 -2.32602 0.000354931 10
0.492629 14.1069 -2.23567 0.00021417 10
0.56643 16.2203 -1.99281 0.000556955 10
0.566324 16.2172 -1.41969 0.000564961 10
0.566623 16.2258 -0.850876 0.000570369 10
0.566721 16.2286 -0.283444 0.000573122 10
0.5664 16.2194 0.283283 0.00057319 10
0.566612 16.2255 0.85086 0.000570571 10
0.566682 16.2275 1.42058 0.000565295 10
0.565901 16.2051 1.99095 0.000557416 10
0.459571 13.1602 2.08565 0.000298394 10
0.417528 11.9563 2.32549 0.000413478 10
0.318696 10.141 -2.71862 0.000515715 1
0.346072 11.0121 -2.54361 0.00043997 10
0.376593 11.9834 -2.33048 0.000361366 10
0.443535 14.1135 -2.23646 0.000214142 10
0.508127 16.1688 -1.98626 0.000557043 10
0.508314 16.1748 -1.41581 0.000565047 10
0.508895 16.1933 -0.849071 0.000570454 10
0.508872 16.1925 -0.282781 0.000573207 10
0.508835 16.1913 0.28276 0.000573275 10
0.508492 16.1804 0.848399 0.000570657 10
0.508926 16.1942 1.41751 0.000565383 10
0.508539 16.1819 1.98787 0.000557508 10
0.413112 13.1454 2.08306 0.000298432 10
0.376255 11.9726 2.32838 0.000421 10
0.28302 10.1322 -2.71596 0.000515677 1
0.307811 11.0197 -2.54509 0.000447748 10
0.334945 11.9911 -2.33174 0.000367762 10
0.394254 14.1143 -2.23637 0.000214114 10
0.451284 16.156 -1.98449 0.000557078 10
0.451397 16.1601 -1.41438 0.000565079 10
0.450947 16.144 -0.8464 0.000570485 10
0.451249 16.1548 -0.282093 0.000573236 10
0.450921 16.143 0.281887 0.000573305 10
0.451335 16.1579 0.847128 0.000570689 10
0.450952 16.1442 1.41298 0.000565417 10
0.451487 16.1633 1.98538 0.000557546 10
0.367937 13.1722 2.08709 0.000298471 10
0.334621 11.9795 2.32949 0.000428476 10
0.247814 10.1399 -2.71779 0.000515639 1
0.269548 11.0292 -2.54705 0.00045548 10
0.292837 11.9821 -2.32978 0.000723914 10
0.344879 14.1115 -2.23572 0.000214086 10
0.393931 16.1186 -1.97971 0.000557058 10
0.3936 16.1051 -1.40943 0.000565056 10
0.393785 16.1127 -0.844681 0.000570459 10
0.393662 16.1076 -0.281243 0.00057321 10
0.394238 16.1312 0.281655 0.000573279 10
0.393639 16.1067 0.844368 0.000570665 10
0.394277 16.1328 1.41185 0.000565396 10
0.394139 16.1271 1.98075 0.000557529 10
0.321535 13.1564 2.08438 0.00029851 10
0.29267 11.9753 2.32845 0.000845116 10
0.212223 10.1313 -2.71527 0.000515601 1
0.231071 11.0311 -2.54729 0.000463162 10
0.251516 12.0071 -2.33446 0.000727966 10
0.295558 14.1096 -2.23524 0.000214058 10
0.336902 16.0833 1.40742 0.000565319 10
0.337204 16.0978 1.97699 0.000557457 10
0.2755 13.1521 2.08355 0.00029855 10
0.25144 12.0035 2.33375 0.000849859 10
0.17711 10.1466 -2.7192 0.000515563 1
0.19284 11.0478 -2.55098 0.000470797 10
0.209813 12.0202 -2.33685 0.000731945 10
0.246428 14.1179 -2.23639 0.00021403 10
0.280033 16.0431 1.4038 0.000565188 10
0.280098 16.0468 1.9706 0.000557331 10
0.22961 13.1544 2.08377 0.000298589 10
0.209767 12.0176 2.33634 0.000854516 10
0.141798 10.1547 -2.72122 0.000515525 1
0.154159 11.0399 -2.54902 0.000478381 10
0.168357 12.0567 -2.34382 0.000735848 10
0.196988 14.1071 -2.23456 0.000214001 10
0.223666 16.0176 1.4015 0.000565 10
0.223878 16.0328 1.96877 0.00055715 10
0.183636 13.1509 2.08311 0.000298628 10
0.167977 12.0295 2.33852 0.000859085 10
0.106235 10.1444 -2.71833 0.000515487 1
0.115602 11.0388 -2.54866 0.000485916 10
0.126465 12.0762 -2.3475 0.000739677 10
0.147723 14.1061 -2.23431 0.000213973 10
0.167592 16.0034 1.40019 0.000564757 10
0.167354 15.9807 1.96229 0.000556915 10
0.13769 13.148 2.08255 0.000298667 10
0.126255 12.0561 2.3436 0.000863568 10
0.0708391 10.1466 -2.71884 0.000515448 1
0.0771171 11.0458 -2.55019 0.000493399 10
0.0843743 12.0853 -2.3492 0.00074343 10
0.0984835 14.1062 -2.23426 0.000213945 10
0.111544 15.9769 1.39783 0.000564458 10
0.111469 15.9663 1.96046 0.000556624 10
0.0918155 13.1511 2.08299 0.000298707 10
0.0843804 12.0862 2.34937 0.000867961 10
0.0354272 10.1481 -2.7192 0.00051541 1
0.0386833 11.0808 -2.55822 0.00050083 10
0.0422665 12.1072 -2.35342 0.000747107 10
0.0492831 14.1171 -2.23595 0.000213917 10
0.0555894 15.9236 1.39314 0.000564103 10
0.0555992 15.9264 1.95553 0.000556278 10
0.0458943 13.1464 2.0822 0.000298746 10
0.0422327 12.0975 2.35154 0.000872267 10
7.66638e-07 10.1544 -2.72087 0.000515371 1
8.37672e-07 11.0953 -2.56155 0.000923835 10
9.14875e-07 12.1179 -2.35548 0.00075071 10
1.06585e-06 14.1176 -2.23601 0.000213888 10
1.20031e-06 15.8985 1.39094 0.000563693 10
1.20091e-06 15.9065 1.95308 0.000555877 10
9.93219e-07 13.1556 2.08364 0.000298786 10
9.139e-07 12.105 2.35297 0.000876484 10
-0.035394 10.1404 -2.71714 0.000515333 1
-0.0387062 11.0894 -2.5602 0.000928232 10
-0.0423109 12.1221 -2.35631 0.000754235 10
-0.0492573 14.1123 -2.23518 0.00021386 10
-0.055438 15.8831 1.3896 0.000563226 10
-0.0554032 15.8731 1.94898 0.000555421 10
-0.0459647 13.1689 2.08577 0.000298825 10
-0.0423492 12.1331 2.35845 0.000880612 10
-0.0707577 10.1352 -2.71577 0.000515294 1
-0.0775525 11.1084 -2.56465 0.000932537 10
-0.084743 12.1384 -2.35952 0.000757685 10
-0.0985125 14.1107 -2.23497 0.000213831 10
-0.110582 15.8395 1.38581 0.000562703 10
-0.110637 15.8474 1.94587 0.000554909 10
-0.0917617 13.1437 2.08181 0.000298865 10
-0.0847942 12.1457 2.36094 0.000884652 10
-0.106339 10.1545 -2.72103 0.000515256 1
-0.116433 11.1183 -2.56701 0.00093675 10
-0.127459 12.1713 -2.36599 0.000761058 10
-0.147806 14.1142 -2.23559 0.000213803 10
-0.165417 15.7959 1.38204 0.000562124 10
-0.165558 15.8094 1.94126 0.000554341 10
-0.137653 13.1447 2.08203 0.000298905 10
-0.127447 12.1701 2.36577 0.000888601 10
-0.141533 10.1359 -2.71617 0.000515217 1
-0.155693 11.15 -2.57442 0.000940869 10
-0.17017 12.1867 -2.36908 0.000764353 10
-0.197228 14.1245 -2.23731 0.000213774 10
-0.220469 15.7889 1.38148 0.000561489 10
-0.220516 15.7922 1.93923 0.000553718 10
-0.18388 13.1686 2.0859 0.000298945 10
-0.169896 12.1671 2.36528 0.000892461 10
-0.177253 10.1549 -2.72142 0.000515178 1
-0.19497 11.1699 -2.57917 0.000944894 10
-0.212732 12.1876 -2.36938 0.000767572 10
-0.246299 14.1106 -2.23524 0.000213745 10
-0.27492 15.7503 1.37819 0.000560797 10
-0.275057 15.7582 1.93516 0.00055304 10
-0.229714 13.1604 2.08472 0.000298985 10
-0.21294 12.1994 2.37169 0.000896231 10
-0.212541 10.1466 -2.71936 0.00051514 1
-0.234313 11.1859 -2.58304 0.000948826 10
-0.25567 12.2055 -2.37303 0.000770714 10
-0.295403 14.1023 -2.23408 0.000213717 10
-0.329357 15.7233 1.37591 0.000560049 10
-0.329498 15.73 1.93182 0.000552306 10
-0.275548 13.1545 2.08392 0.000299025 10
-0.255923 12.2176 2.37537 0.000899911 10
-0.248134 10.1531 -2.72132 0.000515101 1
-0.273874 11.2063 -2.58794 0.000952663 10
-0.298762 12.2246 -2.37694 0.000773778 10
-0.344609 14.1006 -2.23398 0.000213688 10
-0.383351 15.6858 1.37274 0.000559245 10
-0.383262 15.6822 1.9261 0.000551516 10
-0.321419 13.1517 2.08365 0.000299065 10
-0.298838 12.2277 2.37754 0.000903499 10
-0.283544 10.1512 -2.72106 0.000515062 1
-0.313286 11.2159 -2.59041 0.000956406 10
-0.342491 12.2615 -2.38433 0.00108479 10
-0.393901 14.102 -2.23442 0.000213659 10
-0.436999 15.645 1.36929 0.000558384 10
-0.437544 15.6645 1.92411 0.000550671 10
-0.367601 13.1605 2.08523 0.000299105 10
-0.342339 12.2561 2.38327 0.00126787 10
-0.342487 12.2614 2.83187 3.17258e-05 10
-0.342484 12.2613 3.28668 5.20573e-05 10
-0.318768 10.1434 -2.71925 0.000515023 1
-0.352866 11.2284 -2.59356 0.000960055 10
-0.386222 12.2898 -2.39008 0.00108338 10
-0.443811 14.1223 -2.23786 0.00021363 10
-0.491044 15.6253 1.36771 0.000557466 10
-0.490941 15.622 1.91909 0.000549769 10
-0.413524 13.1586 2.08514 0.000299145 10
-0.385898 12.2795 2.38807 0.00126624 10
-0.354317 10.1464 -2.72037 0.000514984 1
-0.392234 11.2322 -2.59474 0.000963591 10
-0.430414 12.3255 -2.3973 0.00108188 10
-0.492814 14.1125 -2.23656 0.000213601 10
-0.544446 15.591 1.36487 0.000556492 10
-0.544936 15.605 1.91723 0.000548812 10
-0.459219 13.1504 2.08409 0.000299186 10
-0.429811 12.3083 2.39394 0.00126449 10
-0.389586 10.1412 -2.71933 0.000514945 1
-0.432886 11.2684 -2.60342 0.000967051 10
-0.474266 12.3455 -2.40149 0.00108028 10
-0.542006 14.1088 -2.23627 0.000213572 10
-0.597677 15.558 1.36215 0.000555461 10
-0.597572 15.5552 1.91135 0.000547799 10
-0.504636 13.136 2.08208 0.000299226 10
-0.473501 12.3256 2.39762 0.00126264 10
-0.42509 10.1424 -2.72003 0.000514905 1
-0.472713 11.2786 -2.60617 0.000970414 10
-0.518522 12.3716 -2.40691 0.00107859 10
-0.591113 14.1036 -2.23575 0.000213543 10
-0.651141 15.5358 1.3604 0.000554374 10
-0.650757 15.5267 1.90811 0.000546731 10
-0.551026 13.1471 2.08413 0.000299267 10
-0.518101 12.3616 2.40496 0.00126067 10
-0.459737 10.1242 -2.71556 0.000514866 1
-0.512793 11.2926 -2.60978 0.000973683 10
-0.562856 12.395 -2.41184 0.0010768 10
-0.640504 14.105 -2.23631 0.000213514 10
-0.704691 15.5185 1.35909 0.000553231 10
-0.704548 15.5153 1.90701 0.000545606 10
-0.59715 13.1503 2.08494 0.000299307 10
-0.562136 12.3792 2.40875 0.0012586 10
-0.495252 10.1262 -2.71655 0.000514827 1
-0.553559 11.3184 -2.61617 0.000976855 10
-0.607765 12.4267 -2.41839 0.00107492 10
-0.689649 14.101 -2.23604 0.000213485 10
-0.756479 15.4674 1.35484 0.00055203 10
-0.756392 15.4656 1.90121 0.000544426 10
-0.641775 13.1221 2.08082 0.000299348 10
-0.607571 12.4227 2.41762 0.00125641 10
-0.530685 10.1261 -2.71699 0.000514787 1
-0.593943 11.3331 -2.62004 0.000979933 10
-0.653346 12.4666 -2.42658 0.00107295 10
-0.739473 14.11 -2.23786 0.000213456 10
-0.809302 15.4424 1.35289 0.000550773 10
-0.810085 15.4573 1.90052 0.00054319 10
-0.687586 13.1199 2.08084 0.000299388 10
-0.652421 12.4489 2.42314 0.00125412 10
-0.566735 10.1368 -2.72039 0.000514748 1
-0.634456 11.3481 -2.62401 0.000982914 10
-0.698859 12.5 -2.43355 0.00107089 10
-0.788491 14.1032 -2.23722 0.000213427 10
-0.862169 15.4211 1.35127 0.00054946 10
-0.861479 15.4087 1.89491 0.000541898 10
-0.733763 13.1243 2.08194 0.000299429 10
-0.698322 12.4904 2.43169 0.00125172 10
-0.600992 10.1159 -2.71533 0.000514709 1
-0.675223 11.3654 -2.62853 0.0009858 10
-0.74272 12.5015 -2.43432 0.00106874 10
-0.836603 14.0817 -2.23426 0.000213398 10
-0.915091 15.4028 1.34995 0.000548091 10
-0.914126 15.3866 1.89256 0.00054055 10
-0.780154 13.1316 2.0835 0.00029947 10
-0.743056 12.5071 2.43542 0.00124921 10
-0.637225 10.1284 -2.71926 0.000514669 1
-0.715101 11.3662 -2.62929 0.000988589 10
-0.78871 12.5362 -2.44161 0.00106649 10
-0.887083 14.0998 -2.2376 0.000213369 10
-0.965831 15.3515 1.34573 0.000546665 10
-0.966478 15.3617 1.88991 0.000539147 10
-0.82515 13.1154 2.08138 0.000299511 10
-0.789063 12.5418 2.4427 0.0012466 10
-0.671663 10.1124 -2.71558 0.000514629 1
-0.75611 11.3838 -2.63395 0.000991281 10
-0.834694 12.567 -2.44815 0.00106415 10
-0.935719 14.088 -2.23623 0.000213339 10
-1.01824 15.3303 1.34419 0.000545182 10
-1.01892 15.3407 1.88775 0.000537688 10
-0.870615 13.1078 2.08064 0.000299552 10
-0.834755 12.5679 2.44833 0.00124388 10
-0.70833 10.1296 -2.72084 0.00051459 1
-0.798975 11.4259 -2.64431 0.00134377 10
-0.881878 12.6114 -2.4574 0.00106173 10
-0.985737 14.0967 -2.23815 0.00021331 10
-1.07056 15.3097 1.34269 0.000543643 10
-1.06951 15.2947 1.88253 0.000536174 10
-0.916461 13.106 2.08086 0.000299593 10
-0.881389 12.6044 2.45604 0.00124106 10
-0.743478 10.1243 -2.72009 0.00051455 1
-0.840436 11.4446 -2.64931 0.00134079 10
-0.926932 12.6225 -2.46016 0.00105921 10
-1.03409 14.0817 -2.23632 0.000213281 10
-1.12157 15.2729 1.3398 0.000542048 10
-1.12284 15.2902 1.88245 0.000534604 10
-0.963861 13.1253 2.08444 0.000299634 10
-0.927509 12.6303 2.46169 0.00123813 10
-0.778929 10.1231 -2.72049 0.00051451 1
-0.882767 11.4726 -2.65648 0.0013377 10
-0.975744 12.6809 -2.47221 0.00129085 10
-1.08305 14.0755 -2.23594 0.000213251 10
-1.17427 15.261 1.33911 0.000540397 10
-1.17285 15.2426 1.87709 0.000532978 10
-1.00941 13.1185 2.0839 0.000299675 10
-0.97425 12.6615 2.46842 0.00151021 10
-0.814309 10.1209 -2.72066 0.00051447 1
-0.925014 11.4969 -2.66284 0.00133451 10
-1.02184 12.7003 -2.47666 0.000337566 10
-1.1326 14.0769 -2.23677 0.000213222 10
-1.22562 15.2331 1.33703 0.00053869 10
-1.22348 15.2065 1.87316 0.000531298 10
-1.05552 13.1189 2.08454 0.000299716 10
-1.02357 12.7218 2.48086 0.00149939 10
-0.849065 10.1113 -2.71885 0.00051443 1
-0.966474 11.5095 -2.66653 0.0013312 10
-1.06773 12.7154 -2.48031 0.000337528 10
-1.18133 14.0682 -2.23602 0.000213192 10
-1.27545 15.189 1.33354 0.000536926 10
-1.27516 15.1855 1.87111 0.000529562 10
-1.10095 13.111 2.08388 0.000299757 10
-1.07163 12.7617 2.48936 0.00148848 10
-0.884575 10.1107 -2.71951 0.00051439 1
-1.01006 11.5451 -2.67558 0.00132778 10
-1.11218 12.7123 -2.48046 0.000337491 10
-1.23123 14.073 -2.23746 0.000213163 10
-1.3267 15.1643 1.33177 0.000535107 10
-1.32747 15.1731 1.87014 0.000527771 10
-1.14516 13.0892 2.08105 0.000299799 10
-1.11919 12.7924 2.49609 0.0014775 10
-0.919626 10.105 -2.71882 0.000514351 1
-1.05444 11.5864 -2.68598 0.00132426 10
-1.15459 12.6868 -2.47626 0.000337453 10
-1.2807 14.0726 -2.23809 0.000213133 10
-1.37764 15.1378 1.32986 0.000533232 10
-1.37736 15.1347 1.86598 0.000525924 10
-1.19022 13.0783 2.07996 0.00029984 10
-1.17011 12.8574 2.50955 0.00146644 10
-0.95535 10.1065 -2.72011 0.00051431 1
-1.09656 11.6004 -2.6901 0.00132063 10
-1.20024 12.6973 -2.4791 0.000337416 10
-1.32839 14.0529 -2.23569 0.000213103 10
-1.42903 15.1176 1.32851 0.000531301 10
-1.42837 15.1106 1.86362 0.000524023 10
-1.23669 13.0828 2.08135 0.000299881 10
-1.21909 12.8966 2.51802 0.0014553 10
-0.989957 10.0964 -2.71829 0.00051427 1
-1.14122 11.6391 -2.69999 0.00131689 10
-1.24481 12.6956 -2.4796 0.000337378 10
-1.37937 14.0679 -2.23882 0.000213074 10
-1.47954 15.0895 1.32649 0.000529315 10
-1.47915 15.0856 1.86116 0.000522067 10
-1.2838 13.0932 2.08371 0.000299923 10
-1.26913 12.9436 2.52805 0.0014441 10
-1.02434 10.0844 -2.71602 0.00051423 1
-1.18576 11.6736 -2.70893 0.00131305 10
-1.28881 12.6881 -2.47901 0.000337341 10
-1.42666 14.0452 -2.23599 0.000213044 10
-1.52793 15.0421 1.32279 0.000527274 10
-1.5296 15.0586 1.85848 0.000520056 10
-1.32987 13.0923 2.08429 0.000299965 10
-1.31884 12.9837 2.53677 0.00143283 10
-1.06141 10.0987 -2.72084 0.00051419 1
-1.22941 11.6971 -2.71536 0.0013091 10
-1.33413 12.6934 -2.48094 0.000337303 10
-1.47735 14.0561 -2.23853 0.000213014 10
-1.57858 15.0193 1.32125 0.000525177 10
-1.58041 15.0366 1.85644 0.000517991 10
-1.37294 13.0627 2.08032 0.000300006 10
-1.37108 13.045 2.54966 0.00142149 10
-1.09574 10.0865 -2.71857 0.000514149 1
-1.27209 11.7097 -2.71931 0.000311099 1
-1.37545 12.6612 -2.47557 0.000337265 10
-1.52517 14.0394 -2.2367 0.000212985 10
-1.62978 15.0024 1.32026 0.000523024 10
-1.63038 15.0079 1.85358 0.000515871 10
-1.42178 13.0877 2.08508 0.00144225 10
-1.42106 13.0811 2.55767 0.00141008 10
-1.13038 10.0776 -2.71721 0.000514109 1
-1.31403 11.7149 -2.72156 0.00031107 1
-1.42149 12.6729 -2.47882 0.000337227 10
-1.57486 14.0402 -2.23769 0.000212955 10
-1.67838 14.9631 1.31731 0.000520817 10
-1.68043 14.9813 1.85101 0.000513697 10
-1.47372 13.1386 2.09399 0.00143054 10
-1.16778 10.0929 -2.72242 0.000514069 1
-1.35304 11.694 -2.71778 0.000311041 1
-1.46526 12.6639 -2.47804 0.00033719 10
-1.6232 14.029 -2.23679 0.000212925 10
-1.72865 14.9404 -1.84668 0.000510888 10
-1.72709 14.9268 -1.31464 0.000518135 10
-1.72764 14.9316 -0.787751 0.000523038 10
-1.72739 14.9294 -0.262333 0.000525546 10
-1.72755 14.9309 0.262358 0.000525631 10
-1.72798 14.9345 1.31532 0.000518555 10
-1.72894 14.9428 1.84699 0.000511469 10
-1.52854 13.2108 2.10635 0.00160301 10
-1.20067 10.0691 -2.71712 0.000514028 1
-1.39386 11.6892 -2.71779 0.000311012 1
-1.50854 12.651 -2.47652 0.000337152 10
-1.67336 14.0332 -2.23838 0.000212895 10
-1.77925 14.9212 -1.84507 0.000508603 10
-1.77841 14.9142 -1.31407 0.000515816 10
-1.77753 14.9069 -0.78677 0.000520697 10
-1.77742 14.9059 -0.262027 0.000523194 10
-1.77889 14.9183 0.262244 0.000523279 10
-1.77891 14.9184 0.787377 0.000520952 10
-1.77688 14.9013 1.31293 0.000516238 10
-1.77766 14.9079 1.84343 0.000509186 10
-1.58434 13.2866 2.11931 0.00157969 10
-1.23576 10.0645 -2.71702 0.000513988 1
-1.43491 11.6865 -2.71829 0.000310983 1
-1.5526 12.645 -2.47639 0.000337114 10
-1.72285 14.0315 -2.23907 0.000212865 10
-1.82646 14.8754 -1.84019 0.000506264 10
-1.8268 14.8781 -1.31144 0.000513443 10
-1.82842 14.8913 -0.786282 0.000518301 10
-1.82624 14.8736 -0.261569 0.000520786 10
-1.82587 14.8705 0.261515 0.000520872 10
-1.82716 14.881 0.785739 0.000518557 10
-1.82801 14.888 1.31231 0.000513867 10
-1.8272 14.8814 1.84092 0.00050685 10
-1.6407 13.3625 2.13231 0.00155643 10
-1.27188 10.068 -2.71915 0.000513947 1
-1.47441 11.6712 -2.71592 0.000310954 1
-1.59719 12.6431 -2.4771 0.000337076 10
-1.77255 14.0312 -2.23998 0.000212835 10
-1.87686 14.8569 -1.83869 0.000503872 10
-1.87854 14.8702 -1.31131 0.000511016 10
-1.87625 14.8521 -0.78455 0.00051585 10
-1.8776 14.8628 -0.261493 0.000518323 10
-1.87791 14.8652 0.261536 0.000518409 10
-1.8759 14.8493 0.784404 0.000516107 10
-1.87678 14.8563 1.31009 0.000511441 10
-1.87512 14.8431 1.83698 0.00050446 10
-1.69645 13.4288 2.14382 0.00153324 10
-1.30654 10.0598 -2.71815 0.000513907 1
-1.51823 11.6898 -2.72146 0.000310925 1
-1.64065 12.6323 -2.4761 0.000337038 10
-1.81951 14.0095 -2.23752 0.000212805 10
-1.92643 14.8327 -1.83652 0.000501426 10
-1.92759 14.8417 -1.30938 0.000508534 10
-1.92527 14.8238 -0.783405 0.000513344 10
-1.92473 14.8196 -0.26085 0.000515806 10
-1.92516 14.8229 0.260908 0.000515892 10
-1.92482 14.8203 0.783222 0.000513603 10
-1.92512 14.8226 1.3077 0.000508961 10
-1.92618 14.8308 1.83629 0.000502017 10
-1.75665 13.5255 2.16021 0.00151011 10
-1.34271 10.0632 -2.72032 0.000513866 1
-1.55671 11.667 -2.71741 0.000310895 1
-1.68476 12.6267 -2.47614 0.000337 10
-1.86929 14.0097 -2.23858 0.000212775 10
-1.97496 14.8017 -1.83352 0.000498927 10
-1.97517 14.8032 -1.30659 0.000505998 10
-1.97362 14.7916 -0.782066 0.000510784 10
-1.97416 14.7956 -0.260548 0.000513233 10
-1.97418 14.7958 0.26055 0.00051332 10
-1.97351 14.7908 0.782022 0.000511043 10
-1.97707 14.8174 1.30785 0.000506427 10
-1.97605 14.8098 1.83453 0.000499521 10
-1.8154 13.6058 2.17405 0.00148705 10
-1.37937 10.0696 -2.72335 0.000513825 1
-1.59679 11.6569 -2.71634 0.000310866 1
-1.72898 12.6219 -2.47636 0.000336962 10
-1.91593 13.9866 -2.23595 0.000212745 10
-2.02231 14.7632 -1.82963 0.000496375 10
-2.02305 14.7686 -1.30416 0.000503409 10
-2.02541 14.7859 -0.782131 0.00050817 10
-2.02363 14.7729 -0.26027 0.000510607 10
-2.02303 14.7685 0.260192 0.000510694 10
-2.02545 14.7861 0.782146 0.00050843 10
-2.02494 14.7824 1.30537 0.00050384 10
-2.02388 14.7747 1.83105 0.000496971 10
-1.87166 13.6635 2.18429 0.00146407 10
-1.41149 10.0433 -2.71753 0.000513784 1
-1.64117 11.6775 -2.72246 0.000310837 1
-1.77564 12.6343 -2.48 0.000336923 10
-1.96644 13.992 -2.23789 0.000212715 10
-2.07372 14.7552 -1.82952 0.00049377 10
-2.07345 14.7534 -1.30344 0.000500766 10
-2.07148 14.7393 -0.780047 0.000505501 10
-2.07321 14.7516 -0.260021 0.000507926 10
-2.07443 14.7603 0.260174 0.000508013 10
-2.07095 14.7355 0.779846 0.000505763 10
-2.07214 14.744 1.30261 0.000501199 10
-2.07113 14.7369 1.82724 0.000494369 10
-1.93386 13.7601 2.20081 0.00144117 10
-1.44882 10.0541 -2.72183 0.000513744 1
-1.67943 11.6545 -2.71844 0.000310808 1
-1.81983 12.6288 -2.48014 0.000336885 10
-2.01415 13.9772 -2.23664 0.000212685 10
-2.12218 14.7269 -1.82692 0.000491113 10
-2.12281 14.7313 -1.30213 0.00049807 10
-2.12228 14.7276 -0.779814 0.000502779 10
-2.1233 14.7347 -0.259852 0.000505191 10
-2.12061 14.716 0.259522 0.000505279 10
-2.12269 14.7305 0.779965 0.000503042 10
-2.11965 14.7094 1.30019 0.000498504 10
-2.12299 14.7325 1.82761 0.000491714 10
-1.99642 13.8542 2.21695 0.00151832 10
-1.48453 10.0532 -2.72297 0.000513703 1
-1.71881 11.6398 -2.7164 0.000310778 1
-1.86308 12.6168 -2.47905 0.000336847 10
-2.07169 14.0295 -2.24615 0.00125872 10
-2.17054 14.6989 -1.82437 0.000488404 10
-2.16951 14.6919 -1.29932 0.000495321 10
-2.17011 14.696 -0.778536 0.000500004 10
-2.16883 14.6873 -0.259148 0.000502402 10
-2.16951 14.6919 0.259229 0.00050249 10
-2.16937 14.6909 0.778269 0.000500267 10
-2.16839 14.6843 1.29864 0.000495757 10
-2.17044 14.6982 1.82428 0.000489007 10
-2.06757 14.0016 2.24168 0.00147666 10
-1.51689 10.03 -2.71809 0.000513662 1
-1.76262 11.6548 -2.72132 0.000310749 1
-1.90632 12.6049 -2.47801 0.000336809 10
-2.14241 14.166 -2.2692 0.00122355 10
-2.21714 14.6601 -1.82051 0.000485641 10
-2.21899 14.6724 -1.29826 0.000492519 10
-2.21841 14.6685 -0.777488 0.000497175 10
-2.21955 14.6761 -0.259085 0.00049956 10
-2.21941 14.6752 0.259069 0.000499648 10
-2.21999 14.679 0.778041 0.000497439 10
-2.21732 14.6614 1.29729 0.000492956 10
-2.21933 14.6746 1.82231 0.000486247 10
-2.13806 14.1372 2.26458 0.0014355 10
-1.55185 10.0243 -2.71801 0.000513621 1
-1.79999 11.6272 -2.71633 0.00031072 1
-1.95261 12.6131 -2.48095 0.00033677 10
-2.21832 14.3295 -2.29661 0.00118883 10
-2.26496 14.6308 -1.81784 0.000482828 10
-2.26458 14.6283 -1.29506 0.000489665 10
-2.26429 14.6265 -0.775671 0.000494293 10
-2.26735 14.6462 -0.258696 0.000496664 10
-2.26571 14.6356 0.258509 0.000496753 10
-2.26813 14.6512 0.776986 0.000494558 10
-2.26615 14.6385 1.29595 0.000490104 10
-2.26721 14.6453 1.81964 0.000483436 10
-2.21086 14.2813 2.28888 0.00139486 10
-1.58875 10.031 -2.7213 0.00051358 1
-1.84168 11.6279 -2.71798 0.00031069 1
-1.99519 12.5972 -2.47916 0.000336732 10
-2.29169 14.4692 -2.32026 0.00115455 10
-2.31269 14.6017 -1.81522 0.000479962 10
-2.31374 14.6084 -1.294 0.000486757 10
-2.31629 14.6245 -0.77599 0.000491358 10
-2.31277 14.6022 -0.25806 0.000493715 10
-2.31471 14.6145 0.258277 0.000493804 10
-2.31527 14.618 0.775649 0.000491624 10
-2.31522 14.6177 1.29482 0.000487198 10
-2.31574 14.621 1.81761 0.000480572 10
-2.28908 14.4527 2.31762 0.00135474 10
-1.62167 10.0125 -2.71781 0.000513539 1
-1.88405 11.6325 -2.72057 0.000310661 1
-2.03873 12.5875 -2.47865 0.000336694 10
-2.36132 14.5793 -2.33922 0.000468183 10
-2.3615 14.5804 -1.81357 0.000477045 10
-2.3623 14.5853 -1.29268 0.000483798 10
-2.36254 14.5868 -0.774422 0.00048837 10
-2.36208 14.5839 -0.257881 0.000490714 10
-2.36351 14.5927 0.258037 0.000490803 10
-2.36331 14.5916 0.774677 0.000488638 10
-2.36457 14.5993 1.29392 0.000484241 10
-2.36128 14.579 1.8134 0.000477658 10
-2.36347 14.5925 2.34135 0.000468959 10
-2.36434 14.5979 2.87452 0.000458235 10
-2.36133 14.5793 3.40976 0.000445599 10
-2.36089 14.5766 3.95669 0.000431185 10
-1.65824 10.0166 -2.72048 0.000513498 1
-1.9245 11.625 -2.72036 0.000310631 1
-2.0844 12.5908 -2.48072 0.000336655 10
-2.4083 14.5474 -2.33544 0.000465271 10
-2.40817 14.5465 -1.8104 0.000474076 10
-2.41295 14.5755 -1.29254 0.000480787 10
-2.40913 14.5524 -0.773039 0.00048533 10
-2.40995 14.5574 -0.257558 0.000487659 10
-2.41208 14.5702 0.257785 0.000487749 10
-2.41067 14.5617 0.773531 0.000485599 10
-2.41293 14.5753 1.29253 0.000481231 10
-2.41264 14.5736 1.81377 0.000474691 10
-2.40901 14.5517 2.33613 0.00046605 10
-2.41273 14.5741 2.87148 0.000455396 10
-2.41003 14.5578 3.40668 0.000442843 10
-2.41148 14.5666 3.95622 0.000428522 10
-1.69209 10.0042 -2.7187 0.000513457 1
-1.96537 11.62 -2.72078 0.000310602 1
-2.12658 12.5731 -2.47868 0.000336617 10
-2.45935 14.5405 -2.33571 0.000462309 10
-2.45998 14.5443 -1.81118 0.000471057 10
-2.45836 14.5347 -1.28968 0.000477724 10
-2.45638 14.523 -0.771928 0.000482239 10
-2.45792 14.5321 -0.257262 0.000484553 10
-2.45948 14.5413 0.257424 0.000484644 10
-2.45967 14.5424 0.772961 0.000482508 10
-2.45765 14.5305 1.28931 0.00047817 10
-2.45798 14.5324 1.8097 0.000471675 10
-2.46014 14.5452 2.33646 0.000463091 10
-2.45838 14.5348 2.86541 0.000452509 10
-2.45889 14.5378 3.40399 0.000440039 10
-2.4577 14.5308 3.94882 0.000425814 10
-1.72943 10.0123 -2.72252 0.000513415 1
-2.00322 11.5974 -2.71712 0.000310572 1
-2.16945 12.5598 -2.47753 0.000336578 10
-2.50633 14.5101 -2.3322 0.000459297 10
-2.50815 14.5206 -1.80931 0.000467987 10
-2.50466 14.5004 -1.28741 0.00047461 10
-2.50681 14.5129 -0.771851 0.000479095 10
-2.50824 14.5211 -0.257221 0.000481395 10
-2.50411 14.4972 0.256797 0.000481485 10
-2.50617 14.5091 0.771652 0.000479365 10
