VERSION 0.7
FIELDS x y z intensity label
SIZE 4 4 4 4 4
TYPE F F F F F
COUNT 1 1 1 1 1
WIDTH 1169
HEIGHT 1
VIEWPOINT 18.9157 52.4797 2.72786 0.968518 -0.000363681 0.000406121 -0.248944
POINTS 1169
DATA ascii
35.6764 -6.80565 0.633963 7.70601e-05 10
24.5087 -4.67528 1.30761 0.000146847 10
23.955 -4.56966 3.86252 0.000236441 10
23.9709 -4.57269 4.74348 0.000230308 10
9.30239 -1.74089 -2.53584 0.000410361 4
10.7729 -2.0161 -2.53031 0.000294962 4
13.7558 -2.57433 -2.72028 0.000168884 1
16.8929 -3.16142 -2.72202 7.90937e-05 1
21.7519 -4.07077 -2.71717 2.8956e-05 1
24.3771 -4.56206 -2.16975 0.000298817 10
35.5966 -6.66172 -1.89793 7.76575e-05 10
35.6048 -6.66326 -0.632274 7.814e-05 10
35.5945 -6.66133 0.632091 7.81568e-05 10
24.4723 -4.57986 1.3048 0.000148682 10
23.914 -4.47539 3.85337 0.000239385 10
23.9245 -4.47735 4.73119 0.00023318 10
9.31211 -1.70909 -2.53685 0.000223844 4
10.7982 -1.98184 -2.5346 0.000301785 4
13.7787 -2.52886 -2.72304 0.000168896 1
16.8899 -3.09988 -2.71978 7.91006e-05 1
21.7703 -3.99559 -2.7177 2.89594e-05 1
24.3142 -4.46249 -2.16275 0.00030252 10
35.5149 -6.51821 -1.89235 7.87542e-05 10
35.5091 -6.51713 -0.630166 7.92429e-05 10
35.529 -6.5208 0.630519 7.92598e-05 10
24.4149 -4.48098 1.3009 0.000150525 10
23.8605 -4.37923 3.84226 0.000242341 10
23.8931 -4.38521 4.72193 5.87799e-05 10
24.4012 -4.47847 5.72757 0.000135479 10
9.34264 -1.68101 -2.54355 0.000334161 4
10.7875 -1.94097 -2.53047 0.000297263 4
13.7908 -2.48136 -2.72371 0.000168907 1
16.8994 -3.04069 -2.71959 7.91074e-05 1
21.7977 -3.92202 -2.7194 2.89628e-05 1
24.2684 -4.36658 -2.15731 0.000306239 10
35.4487 -6.37822 -1.88762 7.98571e-05 10
35.4524 -6.3789 -0.628762 8.03521e-05 10
35.4522 -6.37886 0.628758 8.03692e-05 10
24.3583 -4.38275 1.29707 0.000152375 10
23.811 -4.28427 3.83185 0.000245309 10
23.913 -4.30262 4.72285 5.87754e-05 10
24.3514 -4.3815 5.71223 0.000137157 10
9.37952 -1.65386 -2.552 0.000871457 4
10.812 -1.90645 -2.53465 0.000283664 4
13.7885 -2.43128 -2.72155 0.000168918 1
16.9094 -2.98159 -2.7195 7.91142e-05 1
21.7942 -3.84291 -2.71727 2.89663e-05 1
24.2163 -4.27 -2.15134 0.000309974 10
35.1328 -6.19487 -1.86964 8.30213e-05 10
35.145 -6.19702 -0.622922 8.35341e-05 10
35.1385 -6.19586 0.622805 8.35517e-05 10
24.2874 -4.28252 1.29248 0.000154234 10
23.7439 -4.1867 3.81869 0.000248291 10
23.9414 -4.22151 4.72552 5.87708e-05 10
24.2967 -4.28417 5.69587 0.000138842 10
9.40544 -1.6246 -2.5575 0.00119655 4
10.8214 -1.86919 -2.53532 0.000329068 4
13.7831 -2.38076 -2.71884 0.00016893 1
16.9134 -2.92146 -2.71849 7.91209e-05 1
21.8183 -3.76868 -2.71862 2.89697e-05 1
24.1756 -4.17585 -2.14641 0.000313724 10
35.0514 -6.05443 -1.86417 8.41622e-05 10
35.074 -6.05834 -0.621285 8.46812e-05 10
35.0601 -6.05593 0.621037 8.4699e-05 10
24.2346 -4.18605 1.28889 0.0001561 10
23.7136 -4.09605 3.81148 0.000251284 10
23.9285 -4.13318 4.72011 5.87663e-05 10
24.2699 -4.19215 5.68612 4.13446e-05 10
9.44405 -1.59734 -2.56647 0.00115543 4
10.8198 -1.83004 -2.53343 0.00030412 4
13.7941 -2.3331 -2.71939 0.000168941 1
16.9285 -2.86325 -2.7193 7.91277e-05 1
21.8249 -3.69141 -2.71782 2.89731e-05 1
24.0973 -4.07576 -2.13819 0.000317488 10
34.9753 -5.91563 -1.85901 8.5309e-05 10
34.983 -5.91693 -0.619303 8.58345e-05 10
34.9915 -5.91837 0.619453 8.58525e-05 10
24.1919 -4.09176 1.28585 0.000157973 10
23.6543 -4.00082 3.79968 0.000254288 10
23.9691 -4.05408 4.7253 5.87618e-05 10
9.47475 -1.56854 -2.57331 0.00130973 4
10.8153 -1.79046 -2.53089 0.000367688 4
13.8225 -2.28831 -2.7234 0.000168952 1
16.9324 -2.80314 -2.71833 7.91345e-05 1
21.8218 -3.61258 -2.71585 2.89765e-05 1
24.0616 -3.98338 -2.13377 0.000321268 10
34.9735 -5.78983 -1.85783 6.76192e-05 10
34.9831 -5.79141 -0.618943 6.8012e-05 10
34.9687 -5.78903 0.618688 6.80026e-05 10
24.1402 -3.99638 1.28235 0.000159854 10
24.1249 -3.99386 2.13939 0.000158219 10
23.6142 -3.9093 3.79102 0.000257305 10
23.9859 -3.97084 4.72584 5.87572e-05 10
9.52291 -1.54238 -2.58491 0.0010841 4
10.8404 -1.75576 -2.53531 0.000279185 4
13.8063 -2.23613 -2.71864 0.000168963 1
16.9405 -2.74376 -2.71808 7.91412e-05 1
21.8401 -3.53733 -2.71658 2.89799e-05 1
24.0001 -3.88717 -2.1271 0.000325062 10
24.0152 -3.88962 -1.27499 0.000217007 10
23.9987 -3.88695 -0.424358 0.000218182 10
24.0159 -3.88973 0.424661 0.000218222 10
24.0832 -3.90064 1.2786 0.000161742 10
24.0757 -3.89942 2.1338 0.000160088 10
23.5564 -3.81531 3.77959 0.000260333 10
23.9957 -3.88646 4.72507 5.87527e-05 10
9.57152 -1.51598 -2.59665 0.00103639 4
10.8238 -1.71431 -2.53001 0.000338218 4
13.8219 -2.18918 -2.7202 0.000168975 1
16.9572 -2.68577 -2.71924 7.91479e-05 1
21.8486 -3.46048 -2.71611 2.89833e-05 1
23.9694 -3.79638 -2.12319 0.00032887 10
24.0344 -3.80667 -1.27529 0.000168842 10
24.0299 -3.80597 -0.424672 0.000169704 10
24.036 -3.80693 0.42478 0.000169683 10
23.955 -3.79409 1.27108 0.000165536 10
24.0432 -3.80807 2.12973 0.000161965 10
23.4983 -3.72176 3.76815 0.000263372 10
23.957 -3.79442 4.71481 0.000241083 10
9.61468 -1.48843 -2.60693 0.00116021 4
10.8369 -1.67765 -2.5317 0.000299646 4
13.8213 -2.13965 -2.71859 0.000168986 1
16.9564 -2.62498 -2.71761 7.91547e-05 1
21.8715 -3.38589 -2.71747 2.89867e-05 1
23.8983 -3.69965 -2.11574 0.000332691 10
35.5198 -5.49875 0.627385 6.36903e-05 10
23.9124 -3.70183 1.26812 0.000167457 10
23.9814 -3.71252 2.12309 0.000163849 10
23.4781 -3.6346 3.76286 5.28791e-05 10
23.9054 -3.70076 4.7021 0.000243896 10
9.62962 -1.45634 -2.60959 0.00112065 4
10.8482 -1.64063 -2.53297 0.000331444 4
13.8371 -2.09267 -2.72025 0.000168997 1
16.9723 -2.56681 -2.71871 7.91614e-05 1
21.8699 -3.30751 -2.71582 2.89901e-05 1
23.8512 -3.60715 -2.11044 0.000336526 10
23.8419 -3.60575 -1.26371 0.000224655 10
23.8583 -3.60823 -0.421184 0.000225868 10
23.8443 -3.60611 0.420936 0.000225909 10
23.4072 -3.54001 1.24067 0.00028225 10
23.9294 -3.61899 2.11736 0.000165739 10
23.5063 -3.555 3.76537 5.28741e-05 10
23.831 -3.6041 4.68495 0.000246719 10
9.67811 -1.42914 -2.62136 0.00103188 4
10.8399 -1.60069 -2.52972 0.000170271 4
13.8611 -2.04684 -2.72355 0.000169008 1
16.9897 -2.50883 -2.72009 7.91682e-05 1
21.8882 -3.23218 -2.71668 2.89934e-05 1
23.7888 -3.51283 -2.10382 0.000340374 10
23.9661 -3.53901 -1.26963 0.000169102 10
23.9515 -3.53686 -0.422609 0.000169964 10
23.9691 -3.53945 0.422918 0.000169943 10
23.3538 -3.44859 1.23719 0.000285455 10
23.8722 -3.52515 2.1112 0.000167635 10
23.5124 -3.47201 3.76437 5.28692e-05 10
23.7808 -3.51165 4.67265 0.000249551 10
9.71242 -1.39958 -2.62932 0.00115871 4
10.8565 -1.56445 -2.53232 0.00028153 4
13.8518 -1.99608 -2.72033 0.000169019 1
16.9982 -2.44948 -2.72006 7.91749e-05 1
21.912 -3.15757 -2.71825 2.89968e-05 1
23.7595 -3.4238 -2.10016 0.000344234 10
23.7456 -3.42179 -1.25731 0.000229796 10
23.736 -3.42042 -0.418594 0.000231035 10
23.7563 -3.42334 0.418951 0.000231076 10
23.3043 -3.35821 1.23394 0.000288672 10
23.8345 -3.4346 2.10678 0.000169538 10
23.5263 -3.39019 3.76469 5.28643e-05 10
23.7563 -3.42334 4.66546 0.000252392 10
9.76847 -1.37287 -2.64318 0.000933178 4
10.8565 -1.52579 -2.53106 0.000270193 4
13.8466 -1.94601 -2.71795 0.000169031 1
17.0119 -2.39087 -2.7209 7.91815e-05 1
21.907 -3.07883 -2.71628 2.90002e-05 1
23.7044 -3.33145 -2.09425 0.000348107 10
23.7427 -3.33683 -1.25653 0.000172741 10
23.7633 -3.33972 -0.418867 0.000173619 10
23.7406 -3.33653 0.418466 0.000173598 10
23.2438 -3.2667 1.23013 0.000291898 10
23.7703 -3.34071 2.10007 0.000171447 10
23.539 -3.30819 3.76485 5.28594e-05 10
23.7008 -3.33094 4.65225 0.000255243 10
9.78493 -1.34037 -2.64635 0.000588829 4
10.8645 -1.48826 -2.5317 0.000256583 4
13.8734 -1.90042 -2.7219 0.000169042 1
16.9951 -2.32804 -2.7169 7.91882e-05 1
21.9209 -3.00279 -2.71668 2.90035e-05 1
23.6447 -3.23892 -2.08796 0.000351992 10
28.8955 -3.9582 -1.52849 0.00018006 10
28.9044 -3.95941 -0.50924 0.000181093 10
28.8924 -3.95777 0.509027 0.000181127 10
23.1887 -3.17646 1.22662 0.000295135 10
23.214 -3.17992 2.04993 0.000292153 10
23.1891 -3.17651 2.87385 0.000287698 10
23.2098 -3.17935 3.7104 0.000281823 10
23.6333 -3.23736 4.63674 0.000258103 10
23.1939 -3.17717 5.40474 0.000266108 10
23.1888 -3.17648 6.27146 0.000256453 10
9.77492 -1.30425 -2.64239 0.000762836 4
10.8789 -1.45156 -2.53386 0.000281575 4
13.8691 -1.85054 -2.71978 0.000169053 1
17.0087 -2.26945 -2.71779 7.91949e-05 1
21.9245 -2.92535 -2.71584 2.90069e-05 1
23.6101 -3.15026 -2.08392 0.000355889 10
23.5907 -3.14768 -1.2473 0.00023757 10
23.6016 -3.14913 -0.415619 0.000238847 10
23.5878 -3.14729 0.415375 0.00023889 10
23.2142 -3.09744 1.22739 0.00021869 10
23.2042 -3.0961 2.0481 0.000216415 10
23.2013 -3.09572 2.87401 0.000213049 10
23.2148 -3.09751 3.70945 0.000208634 10
23.5828 -3.14662 4.62465 0.000260972 10
23.1997 -3.0955 5.40353 0.000196876 10
23.2199 -3.0982 6.2769 0.000189672 10
9.79691 -1.2724 -2.64712 0.000552078 4
10.8764 -1.41259 -2.5321 0.000338362 4
13.8687 -1.80123 -2.71845 0.000169064 1
17.0112 -2.20937 -2.71694 7.92015e-05 1
21.9545 -2.8514 -2.71832 2.90102e-05 1
23.5628 -3.06028 -2.07879 0.000359797 10
23.6622 -3.07319 -1.2505 0.000173012 10
23.679 -3.07537 -0.41679 0.00017389 10
23.6679 -3.07392 0.416594 0.000173868 10
23.3189 -3.0286 1.23236 0.000214338 10
23.3104 -3.02749 2.05652 0.000212105 10
23.3173 -3.02838 2.88704 0.000208802 10
23.3129 -3.02782 3.72342 0.000204469 10
23.5506 -3.05869 4.61622 0.000263849 10
23.315 -3.0281 5.42791 0.00019293 10
23.3258 -3.0295 6.30263 0.00018586 10
9.79035 -1.23681 -2.64417 0.000331261 4
10.8948 -1.37633 -2.53524 0.000324754 4
13.879 -1.75333 -2.71925 0.000169075 1
17.0263 -2.15092 -2.71814 7.92082e-05 1
21.9552 -2.77359 -2.71719 2.90136e-05 1
23.5056 -2.96945 -2.07282 0.000363716 10
29.0955 -3.67561 -1.53695 0.000129413 10
29.1047 -3.67678 -0.512063 0.000130114 10
29.1244 -3.67927 0.512408 0.000130096 10
23.4587 -2.96352 1.23919 0.000210036 10
23.456 -2.96318 2.06844 0.000207844 10
23.4351 -2.96054 2.90034 0.000204603 10
23.4529 -2.96279 3.7441 0.000200351 10
23.4936 -2.96794 4.603 0.000266734 10
23.4587 -2.96353 5.45892 0.000189029 10
23.443 -2.96155 6.33147 0.000182092 10
9.79612 -1.20281 -2.64457 0.000853287 4
10.8738 -1.33514 -2.52927 0.000333856 4
13.8912 -1.70563 -2.72046 0.000169086 1
17.0504 -2.09352 -2.72079 7.92148e-05 1
21.9739 -2.69806 -2.71832 2.90169e-05 1
23.4435 -2.87851 -2.06645 0.000367645 10
23.4739 -2.88223 -1.23945 0.00017686 10
23.476 -2.88249 -0.412853 0.000177755 10
23.4756 -2.88244 0.412845 0.000177732 10
23.4339 -2.87732 1.23734 0.000289848 10
23.4559 -2.88002 2.06753 0.000286912 10
23.4391 -2.87796 2.89958 0.000282525 10
23.4425 -2.87838 3.74081 0.00027674 10
23.4561 -2.88004 4.59364 0.000269627 10
23.4327 -2.87718 5.4505 0.000261269 10
23.4426 -2.87839 6.3286 0.000251765 10
9.79446 -1.16792 -2.64301 0.000853325 4
10.8882 -1.29834 -2.53155 0.000329331 4
13.8932 -1.65666 -2.7197 0.000169097 1
17.0454 -2.03254 -2.71885 7.92215e-05 1
21.9698 -2.61974 -2.71667 2.90203e-05 1
23.4001 -2.79029 -2.06174 0.000371585 10
23.597 -2.81378 -1.24543 0.000173253 10
23.583 -2.8121 -0.414559 0.000174131 10
23.602 -2.81437 0.414893 0.000174109 10
23.4105 -2.79153 1.23558 0.000292951 10
23.3914 -2.78925 2.06098 0.000289986 10
23.3953 -2.78972 2.89294 0.000285555 10
23.3977 -2.79001 3.73209 0.000279713 10
23.392 -2.78932 4.57915 0.000272528 10
23.3996 -2.79023 5.44049 0.000264086 10
23.398 -2.79004 6.31388 0.000254486 10
9.81809 -1.13599 -2.6483 0.000267722 4
10.8985 -1.261 -2.5329 0.00028165 4
13.8884 -1.60694 -2.71764 0.000169108 1
17.0556 -1.97341 -2.71937 7.92281e-05 1
21.9664 -2.54161 -2.71513 2.90236e-05 1
23.3567 -2.70247 -2.05708 0.000375534 10
23.3484 -2.70151 -1.2318 0.000250674 10
23.3399 -2.70052 -0.410118 0.000252016 10
23.3425 -2.70082 0.410163 0.00025206 10
23.3566 -2.70246 1.23223 0.000296062 10
23.3587 -2.7027 2.05726 0.000293067 10
23.3553 -2.7023 2.8868 0.000288592 10
23.343 -2.70088 3.72184 0.000282692 10
23.3549 -2.70225 4.57001 0.000275436 10
23.3442 -2.70102 5.4254 0.00026691 10
23.349 -2.70158 6.29808 0.000257214 10
9.80449 -1.09975 -2.64358 0.000639214 4
10.9057 -1.22327 -2.53357 0.000240778 4
13.9215 -1.56155 -2.72304 0.000169119 1
17.0655 -1.9142 -2.71985 7.92347e-05 1
21.9942 -2.46705 -2.71748 2.90269e-05 1
23.305 -2.61407 -2.05171 0.000379493 10
23.3702 -2.6214 -1.23246 0.000177154 10
23.3836 -2.62289 -0.410722 0.000178048 10
23.3658 -2.6209 0.410409 0.000178026 10
23.3083 -2.61445 1.2292 0.000299181 10
23.3018 -2.61372 2.05143 0.000296156 10
23.2988 -2.61338 2.87867 0.000291637 10
23.307 -2.61431 3.71462 0.000285678 10
23.291 -2.61251 4.5557 0.000278351 10
23.2979 -2.61329 5.41249 0.000269741 10
23.2933 -2.61277 6.28056 0.00025995 10
9.80281 -1.06493 -2.64211 0.000491983 4
10.8959 -1.18368 -2.53032 0.000374815 4
12.9589 -1.40779 -2.53378 0.000142388 4
17.069 -1.85429 -2.71937 7.92413e-05 1
21.9807 -2.38787 -2.71477 2.90302e-05 1
23.2433 -2.52503 -2.04549 0.000383461 10
37.995 -4.12758 0.667106 4.69266e-05 10
23.2634 -2.52722 1.22636 0.000302306 10
23.2517 -2.52595 2.04623 0.000299252 10
23.2628 -2.52716 2.87312 0.000294689 10
23.2498 -2.52574 3.70407 0.000288672 10
23.2353 -2.52416 4.54305 0.000281273 10
23.2401 -2.52468 5.39696 0.000272578 10
23.2428 -2.52498 6.26454 0.000262691 10
9.80505 -1.03055 -2.64173 0.000261064 4
10.9004 -1.14568 -2.53041 0.000311226 4
12.9622 -1.36239 -2.53348 0.00012491 4
17.0701 -1.79414 -2.71853 7.92479e-05 1
21.9876 -2.311 -2.71461 2.90336e-05 1
23.2089 -2.43935 -2.0417 0.000387439 10
23.2118 -2.43967 -1.22318 0.000258614 10
23.2016 -2.43859 -0.407217 0.000259995 10
23.2197 -2.44049 0.407534 0.000260041 10
23.1977 -2.43818 1.22244 0.000305439 10
23.2056 -2.43901 2.04141 0.000302355 10
23.2087 -2.43933 2.86536 0.000297748 10
23.1947 -2.43787 3.69392 0.000291673 10
23.2159 -2.44009 4.53756 0.000284202 10
23.2007 -2.43849 5.3858 0.000275423 10
23.2008 -2.4385 6.25087 0.000265439 10
9.82312 -0.997797 -2.64564 0.000167356 4
10.9225 -1.10947 -2.53463 0.000274893 4
12.964 -1.31683 -2.53291 0.000107429 4
17.0669 -1.7336 -2.71705 7.92544e-05 1
21.9943 -2.2341 -2.71446 2.90368e-05 1
23.172 -2.35373 -2.03772 0.000391424 10
23.297 -2.36643 -1.22723 0.000177422 10
23.2842 -2.36513 -0.408519 0.000178316 10
23.2787 -2.36457 0.408422 0.000178293 10
23.1605 -2.35256 1.22004 0.000308578 10
23.1661 -2.35313 2.0372 0.000305464 10
23.1672 -2.35324 2.85921 0.000300813 10
23.1444 -2.35092 3.68457 0.000294679 10
23.1486 -2.35135 4.52278 0.000287137 10
23.1624 -2.35276 5.37499 0.000278273 10
23.1629 -2.3528 6.23841 0.000268193 10
9.82073 -0.962931 -2.64408 0.000448534 4
10.9051 -1.06926 -2.52973 0.000283995 4
12.9738 -1.27209 -2.53395 0.000161154 4
17.0718 -1.6739 -2.71687 7.9261e-05 1
22.0178 -2.15887 -2.71641 2.90401e-05 1
23.1 -2.26498 -2.03068 0.000395418 10
38.623 -3.78702 0.6774 4.34971e-05 10
23.0972 -2.26471 1.21628 0.000311723 10
23.1217 -2.26711 2.03259 0.00030858 10
23.095 -2.26449 2.84931 0.000303885 10
23.102 -2.26517 3.67654 0.000297693 10
23.1094 -2.2659 4.51355 0.000290078 10
23.1153 -2.26647 5.36217 0.000281129 10
23.117 -2.26664 6.22388 0.000270953 10
9.81948 -0.928215 -2.64285 0.00031131 4
10.9126 -1.03154 -2.53059 0.00028401 4
12.9525 -1.22437 -2.52893 0.000174907 4
17.0801 -1.61455 -2.71729 7.92675e-05 1
22.0066 -2.08023 -2.71411 2.90434e-05 1
23.0611 -2.17992 -2.02658 0.000399419 10
23.0634 -2.18013 -1.21409 0.000403626 10
23.0693 -2.1807 -0.404472 0.000405776 10
23.0769 -2.18141 0.404604 0.000405846 10
23.0702 -2.18078 1.21445 0.000314875 10
23.0718 -2.18092 2.02751 0.000311702 10
23.0681 -2.18058 2.84503 0.000306962 10
23.0474 -2.17862 3.66662 0.000300711 10
23.05 -2.17887 4.50044 0.000293024 10
23.0726 -2.18101 5.35048 0.000283991 10
23.0479 -2.17867 6.2032 0.000273719 10
9.82161 -0.893836 -2.64257 0.000297933 4
10.913 -0.993165 -2.52989 0.000338558 4
12.9763 -1.18093 -2.53276 0.000189911 4
17.0894 -1.55525 -2.71788 7.92741e-05 1
22.0361 -2.00544 -2.71687 2.90467e-05 1
23.0161 -2.09463 -2.02197 0.000403428 10
23.0168 -2.09469 -1.21124 0.000407673 10
23.0215 -2.09512 -0.403503 0.000409844 10
23.0217 -2.09514 0.403506 0.000409915 10
23.0115 -2.09421 1.21097 0.000318032 10
23.0156 -2.09458 2.02192 0.000314829 10
23.003 -2.09343 2.83608 0.000310045 10
23.0187 -2.09487 3.66087 0.000303736 10
23.0173 -2.09473 4.49259 0.000295977 10
23.0131 -2.09436 5.33495 0.000286859 10
23.0149 -2.09452 6.19231 0.000276489 10
9.84733 -0.861532 -2.64866 0.000636065 4
10.9204 -0.955416 -2.53081 0.000302218 4
12.9818 -1.13577 -2.53305 0.000194921 4
17.0879 -1.49501 -2.7168 7.92806e-05 1
22.0214 -1.92662 -2.71421 2.905e-05 1
22.9601 -2.00875 -2.01642 0.000407443 10
22.9581 -2.00858 -1.20778 0.000411728 10
22.9751 -2.01006 -0.402563 0.000413919 10
22.9551 -2.00832 0.402214 0.00041399 10
22.9655 -2.00923 1.20817 0.000321195 10
22.954 -2.00822 2.01588 0.000317962 10
22.9741 -2.00998 2.83164 0.000313133 10
22.9597 -2.00871 3.65034 0.000306766 10
22.9762 -2.01016 4.48318 0.000298934 10
22.969 -2.00954 5.32308 0.000289731 10
22.9643 -2.00912 6.17678 0.000279265 10
9.84874 -0.827023 -2.64825 0.000338133 4
10.9237 -0.917294 -2.53082 0.000297689 4
12.9701 -1.08914 -2.53001 0.000152448 4
17.0998 -1.43591 -2.71787 7.92871e-05 1
22.0378 -1.85057 -2.71543 2.90533e-05 1
22.9136 -1.92412 -2.01174 0.000411466 10
22.9168 -1.92438 -1.20525 0.000415789 10
22.9102 -1.92383 -0.401307 0.000418 10
22.927 -1.92524 0.401601 0.000418071 10
22.9182 -1.9245 1.20532 0.000324363 10
22.928 -1.92533 2.013 0.0003211 10
22.9137 -1.92412 2.82335 0.000316227 10
22.9326 -1.92571 3.64496 0.0003098 10
22.9072 -1.92358 4.46838 0.000301897 10
22.9128 -1.92404 5.30845 0.000292609 10
22.9081 -1.92365 6.15981 0.000282045 10
9.4313 -0.758826 -2.53528 0.000470681 4
10.928 -0.879245 -2.53107 0.000209075 4
12.9711 -1.04363 -2.52947 0.000167453 4
17.0941 -1.37536 -2.71619 7.92936e-05 1
22.0585 -1.77479 -2.7172 2.90566e-05 1
22.8861 -1.84137 -2.00874 0.000415494 10
22.8811 -1.84097 -1.20302 0.000419857 10
22.8642 -1.83962 -0.400387 0.000422088 10
22.8838 -1.84119 0.400729 0.00042216 10
22.8858 -1.84135 1.20327 0.000327535 10
22.8848 -1.84127 2.00863 0.000324243 10
22.8819 -1.84104 2.81862 0.000319325 10
22.8749 -1.84048 3.63474 0.00031284 10
22.8599 -1.83927 4.45787 0.000304864 10
22.8633 -1.83954 5.29546 0.000295491 10
22.8722 -1.84026 6.14839 0.00028483 10
9.43832 -0.72624 -2.53647 0.000459494 4
10.9279 -0.840855 -2.53035 0.000349991 4
12.9857 -0.999199 -2.53163 0.00018746 4
17.0967 -1.31552 -2.71585 7.93001e-05 1
22.0446 -1.69624 -2.71474 2.90598e-05 1
22.8911 -1.76138 -2.00863 0.000272876 10
22.8762 -1.76023 -1.20243 0.000275657 10
22.894 -1.7616 -0.400797 0.000277037 10
22.8894 -1.76124 0.400716 0.000277 10
22.8194 -1.75586 1.19945 0.000330713 10
22.8244 -1.75625 2.00278 0.000327391 10
22.8381 -1.7573 2.81245 0.000322428 10
22.8357 -1.75711 3.6275 0.000315884 10
22.8168 -1.75566 4.44825 0.000307836 10
22.8369 -1.75721 5.28791 0.000298377 10
22.8135 -1.75541 6.13093 0.00028762 10
9.42598 -0.692202 -2.53248 0.000474458 4
10.9483 -0.803996 -2.53443 0.000240034 4
12.9855 -0.953598 -2.53093 0.000168724 4
17.1112 -1.25657 -2.71745 7.93066e-05 1
22.0511 -1.61933 -2.71482 2.90631e-05 1
23.0242 -1.69079 -2.01978 0.000266796 10
23.0269 -1.69099 -1.21004 0.000269519 10
23.0265 -1.69096 -0.403011 0.00027087 10
23.0295 -1.69118 0.403064 0.000270833 10
22.7793 -1.67281 1.19703 0.000333895 10
22.7723 -1.6723 1.99769 0.000330542 10
22.7808 -1.67292 2.80466 0.000325535 10
22.7819 -1.673 3.61801 0.000318932 10
22.7706 -1.67217 4.43807 0.000310811 10
22.788 -1.67345 5.27519 0.000301268 10
22.7706 -1.67217 6.11781 0.000290413 10
9.42759 -0.659242 -2.53228 0.000366133 4
10.997 -0.768989 -2.54507 0.000416592 4
13.0001 -0.909057 -2.53314 0.000121239 4
17.1217 -1.19727 -2.71843 7.9313e-05 1
22.0528 -1.54208 -2.71435 2.90663e-05 1
23.1331 -1.61763 -2.02883 0.000260796 10
23.1321 -1.61756 -1.21526 0.000263462 10
23.1337 -1.61767 -0.404787 0.000264785 10
23.1427 -1.6183 0.404943 0.000264749 10
22.7331 -1.58966 1.1943 0.00033708 10
22.7343 -1.58974 1.99385 0.000333698 10
22.7364 -1.58988 2.79849 0.000328646 10
22.7389 -1.59006 3.61029 0.000321984 10
22.7255 -1.58912 4.42818 0.000313791 10
22.7463 -1.59058 5.26421 0.000304162 10
22.7293 -1.58939 6.10516 0.000293209 10
9.4252 -0.626022 -2.53104 0.000440873 4
11.0362 -0.733022 -2.55351 0.000598842 4
12.9839 -0.862388 -2.52937 0.000172495 4
17.1355 -1.13814 -2.71997 7.93195e-05 1
22.0621 -1.46536 -2.71485 2.90696e-05 1
23.2891 -1.54686 -2.04202 0.000254878 10
32.9345 -2.18751 -1.72983 0.000120755 10
32.9182 -2.18642 -0.575855 0.000121477 10
32.9276 -2.18705 0.57602 0.0001215 10
22.7015 -1.50783 1.19236 0.00034027 10
22.6903 -1.50709 1.98952 0.000336858 10
22.6865 -1.50684 2.79169 0.000331761 10
22.6987 -1.50765 3.60305 0.00032504 10
22.7019 -1.50786 4.42252 0.000316774 10
22.6904 -1.50709 5.25002 0.000307059 10
22.6899 -1.50706 6.09313 0.00029601 10
9.44686 -0.594346 -2.53628 0.000954606 4
11.0818 -0.69721 -2.5635 0.00083003 4
12.9925 -0.81742 -2.53048 0.000163756 4
17.1338 -1.07797 -2.71909 7.93259e-05 1
22.0789 -1.38909 -2.71631 2.90728e-05 1
23.4225 -1.47362 -2.05326 0.000249041 10
32.8731 -2.0682 -1.72621 0.000122034 10
32.8558 -2.06711 -0.574634 0.000122764 10
32.8593 -2.06734 0.574696 0.000122787 10
22.7363 -1.43045 1.19391 0.000215283 10
22.7443 -1.43095 1.9938 0.000213058 10
22.7523 -1.43145 2.79915 0.000209768 10
22.7323 -1.4302 3.60756 0.000205451 10
22.7527 -1.43148 4.43141 0.00020016 10
22.7563 -1.43171 5.2641 0.000193955 10
22.7594 -1.4319 6.11041 0.00018691 10
9.49026 -0.563825 -2.54739 0.000720354 4
11.1303 -0.661261 -2.57416 0.000591502 4
12.9818 -0.771261 -2.52786 0.00010376 4
17.1318 -1.01782 -2.7182 7.93323e-05 1
22.0724 -1.31134 -2.71493 2.9076e-05 1
23.545 -1.39883 -2.06355 0.000243285 10
32.7867 -1.94789 -1.72131 0.000123317 10
32.8112 -1.94935 -0.573732 0.000124053 10
32.8045 -1.94895 0.573614 0.000124076 10
23.5452 -1.39884 1.23613 0.00019156 10
23.0964 -1.37218 2.02424 3.2865e-05 10
23.556 -1.39948 3.73748 0.000116648 10
23.543 -1.39871 4.58437 0.000177971 10
23.5516 -1.39923 5.44691 0.000172399 10
9.53863 -0.533294 -2.55986 0.00101087 4
11.1893 -0.625579 -2.58728 0.000508277 4
13.0126 -0.727521 -2.53335 7.25116e-05 4
17.1294 -0.957686 -2.71727 7.93387e-05 1
22.0914 -1.2351 -2.71671 2.90793e-05 1
23.6694 -1.32333 -2.07404 0.00023761 10
32.7352 -1.83019 -1.71826 0.000124601 10
32.7387 -1.83038 -0.572348 0.000125344 10
32.7479 -1.8309 0.572509 0.000125368 10
23.6853 -1.32422 1.24323 0.000187094 10
23.108 -1.29194 2.02484 3.28597e-05 10
23.681 -1.32398 3.75656 0.000113919 10
23.6796 -1.3239 4.61004 0.0001738 10
23.6872 -1.32432 5.47715 0.00016835 10
9.58628 -0.502397 -2.57216 0.0011505 4
11.235 -0.588803 -2.59736 0.000755811 4
12.9944 -0.681008 -2.52932 6.62647e-05 4
17.1337 -0.897943 -2.71744 7.93451e-05 1
22.077 -1.15701 -2.71444 2.90825e-05 1
23.8044 -1.24754 -2.08548 0.000232015 10
32.6859 -1.713 -1.71535 7.80785e-05 10
32.6743 -1.71239 -0.571114 7.85168e-05 10
32.6736 -1.71236 0.571103 7.85045e-05 10
23.8165 -1.24818 1.24988 0.000182691 10
23.1298 -1.21218 2.02637 0.000198607 10
23.9538 -1.25537 2.94519 0.000111631 10
23.7394 -1.24413 3.7651 5.27399e-05 10
23.8232 -1.24853 4.63712 0.000169689 10
23.8235 -1.24854 5.50763 0.000164358 10
23.9447 -1.25489 6.42477 0.000160072 10
9.64122 -0.471536 -2.58645 0.00108495 4
11.2809 -0.551732 -2.60752 0.000682439 4
13.0166 -0.63662 -2.5332 6.50185e-05 4
17.1284 -0.837723 -2.71612 7.93515e-05 1
22.0883 -1.0803 -2.71534 2.90857e-05 1
23.9678 -1.17222 -2.09941 0.000226501 10
24.1966 -1.18342 -1.26961 0.000237595 10
24.194 -1.18329 -0.422813 0.000238876 10
24.203 -1.18373 0.422969 0.000238917 10
23.9665 -1.17216 1.25753 0.000178351 10
23.2765 -1.13842 2.03887 0.000193926 10
23.9518 -1.17144 2.94443 0.000282785 10
23.738 -1.16099 3.76423 5.27353e-05 10
23.9497 -1.17134 4.66092 0.000165637 10
23.9748 -1.17257 5.54163 0.000160425 10
23.9405 -1.17089 6.42251 0.00025186 10
9.68559 -0.439821 -2.59792 0.000953073 4
11.3497 -0.515387 -2.62298 0.000752516 4
12.9982 -0.590248 -2.5292 4.87669e-05 4
17.1452 -0.778561 -2.71833 7.93578e-05 1
22.0762 -1.00248 -2.71341 2.90889e-05 1
24.0874 -1.0938 -2.10954 0.000221067 10
24.1599 -1.0971 -1.26747 0.000239779 10
24.1441 -1.09638 -0.421871 0.000241072 10
24.1335 -1.0959 0.421686 0.000241112 10
24.1099 -1.09483 1.26485 0.000174075 10
23.4207 -1.06353 2.05115 0.000189311 10
23.883 -1.08452 2.93548 0.000285381 10
23.7417 -1.07811 3.76419 5.27306e-05 10
24.1129 -1.09496 4.69191 0.000161645 10
24.1027 -1.0945 5.57027 0.000156549 10
23.8917 -1.08492 6.40836 0.00025419 10
9.72274 -0.407504 -2.60749 0.000907032 4
11.3921 -0.477471 -2.63238 0.000631248 4
12.9995 -0.544842 -2.52907 0.000111295 4
17.1368 -0.718245 -2.71658 7.93642e-05 1
22.0773 -0.925315 -2.71313 2.90921e-05 1
24.2274 -1.01543 -2.12148 0.000215713 10
24.4132 -1.02322 -1.28057 0.000231868 10
24.41 -1.02309 -0.426453 0.000233122 10
24.4262 -1.02376 0.426735 0.000233161 10
24.232 -1.01562 1.27106 0.000169861 10
23.5459 -0.986867 2.0618 0.000184764 10
23.8521 -0.999699 2.93123 0.000287979 10
23.755 -0.995633 3.76573 5.2726e-05 10
24.2346 -1.01574 4.71487 0.000157711 10
24.2337 -1.0157 5.5997 0.000152731 10
23.8453 -0.999415 6.39493 0.000256522 10
9.78728 -0.37599 -2.62443 0.000942544 4
11.4318 -0.439166 -2.64118 0.000410276 4
13.0216 -0.500238 -2.533 0.000156323 4
17.1505 -0.658856 -2.71837 7.93705e-05 1
22.0886 -0.848559 -2.71414 2.90953e-05 1
24.373 -0.936319 -2.13394 0.000210439 10
24.3745 -0.936375 -1.27835 0.000140442 10
24.3855 -0.9368 -0.425965 0.000141156 10
24.3848 -0.936773 0.425953 0.000141136 10
24.3796 -0.936571 1.27862 0.000165711 10
23.6791 -0.90966 2.07318 0.000180284 10
23.8013 -0.914357 2.92459 0.000290578 10
23.7606 -0.91279 3.76608 5.27214e-05 10
24.3891 -0.936937 4.74426 0.000153837 10
24.3795 -0.936568 5.6326 0.000148971 10
23.8058 -0.914528 6.38345 0.000258856 10
9.84202 -0.343691 -2.63877 0.00107694 4
11.4575 -0.400104 -2.64677 0.000304676 4
13.0124 -0.454405 -2.5309 0.000192602 4
17.1614 -0.599291 -2.71976 7.93769e-05 1
22.1063 -0.77197 -2.71597 2.90985e-05 1
24.5181 -0.856193 -2.14637 0.000205245 10
24.64 -0.86045 -1.29212 0.000226317 10
24.6449 -0.860621 -0.430441 0.000227544 10
24.6325 -0.860187 0.430224 0.000227582 10
24.5264 -0.856481 1.28616 0.000161623 10
23.8303 -0.832174 2.08615 0.000175871 10
23.8445 -0.832671 2.92953 0.000173118 10
23.8446 -0.832674 3.77892 0.000169508 10
24.5501 -0.85731 4.77497 0.000150022 10
24.5506 -0.857326 5.6714 0.000145268 10
23.8231 -0.831922 6.38727 0.000154011 10
9.87471 -0.310326 -2.64723 0.000733609 4
11.4555 -0.360003 -2.64601 0.000262034 4
13.0092 -0.408829 -2.52997 0.000161346 4
17.1635 -0.539384 -2.71977 7.93832e-05 1
22.1033 -0.694624 -2.71528 2.91017e-05 1
24.6823 -0.775672 -2.16049 0.00020013 10
24.6763 -0.775485 -1.29387 0.000133566 10
24.6804 -0.775613 -0.431011 0.000134248 10
24.6703 -0.775296 0.430834 0.000134228 10
24.6726 -0.775367 1.29367 0.000157597 10
24.6771 -0.77551 2.16003 0.000155928 10
24.6843 -0.775735 3.03235 0.000153462 10
24.6904 -0.775928 3.91251 0.000150228 10
24.6731 -0.775383 4.79833 0.000146266 10
24.6788 -0.775562 5.70035 0.000141622 10
24.6739 -0.775408 6.61461 0.000136354 10
9.93311 -0.277459 -2.66261 0.00112951 4
11.4423 -0.319615 -2.64269 0.000337208 4
12.999 -0.363097 -2.52773 0.000182619 4
17.1578 -0.479263 -2.71858 7.93895e-05 1
22.095 -0.617173 -2.71398 2.91049e-05 1
24.8296 -0.693559 -2.17316 0.000195095 10
24.8384 -0.693803 -1.30223 0.000220933 10
24.8446 -0.693977 -0.433833 0.000222134 10
24.8589 -0.694377 0.434082 0.000222171 10
24.8425 -0.693921 1.30245 0.000153634 10
24.839 -0.69382 2.17397 0.000152004 10
24.8332 -0.693659 3.05032 0.000149596 10
24.8247 -0.693423 3.93338 0.000146438 10
24.8412 -0.693882 4.83052 0.000142568 10
24.841 -0.693877 5.73723 0.000138034 10
24.8292 -0.693547 6.65555 0.00013289 10
10.0022 -0.24445 -2.68088 0.000809948 4
11.4391 -0.279568 -2.64171 0.000284407 4
13.0097 -0.317953 -2.52958 0.000175125 4
17.163 -0.419458 -2.71916 7.93958e-05 1
22.1082 -0.540316 -2.71535 2.9108e-05 1
24.9876 -0.610689 -2.18679 0.000190139 10
25.1029 -0.613506 -1.31598 0.00021383 10
25.1113 -0.613712 -0.438451 0.000214996 10
25.1248 -0.614041 0.438685 0.000215032 10
24.9845 -0.610613 1.30977 0.000149733 10
24.9763 -0.610412 2.18579 0.000148142 10
24.9787 -0.610471 3.06791 0.00014579 10
24.9801 -0.610506 3.95764 0.000142706 10
24.9845 -0.610612 4.85794 0.000138928 10
24.9854 -0.610634 5.77005 0.000134502 10
24.9847 -0.610618 6.69663 0.00012948 10
10.0276 -0.21005 -2.68748 0.000895698 4
11.4351 -0.239533 -2.64058 0.000325053 4
13.0065 -0.272449 -2.52875 0.000176387 4
17.1492 -0.359228 -2.71677 7.94021e-05 1
22.0889 -0.462701 -2.71278 2.91112e-05 1
25.1295 -0.526392 -2.19903 0.000185261 10
25.1172 -0.526134 -1.31663 0.000123649 10
25.1418 -0.52665 -0.438948 0.000124283 10
25.1347 -0.526501 0.438824 0.000124265 10
25.1316 -0.526436 1.31738 0.000145894 10
25.1354 -0.526516 2.19955 0.00014434 10
25.1383 -0.526577 3.08727 0.000142045 10
25.1354 -0.526515 3.98192 0.000139035 10
25.1477 -0.526773 4.88928 0.000135347 10
25.1469 -0.526756 5.80689 0.000131027 10
25.1373 -0.526555 6.73699 0.000126125 10
10.0944 -0.176199 -2.70519 0.000748248 4
11.4517 -0.199892 -2.64423 0.000518079 4
13.0075 -0.227049 -2.52879 0.000158883 4
17.1595 -0.299522 -2.71821 7.94083e-05 1
22.1035 -0.385822 -2.71439 2.91143e-05 1
25.2768 -0.441212 -2.21177 0.000180462 10
25.3428 -0.442364 -1.32836 0.000208828 10
25.3329 -0.442191 -0.442255 0.00020997 10
25.32 -0.441965 0.442029 0.000210005 10
25.2991 -0.441601 1.32607 0.000142117 10
25.2968 -0.441561 2.21352 0.0001406 10
25.2828 -0.441317 3.10481 0.00013836 10
25.2841 -0.441339 4.00522 0.000135422 10
25.2886 -0.441418 4.91636 0.000131824 10
25.2904 -0.441448 5.83963 0.000127608 10
25.2804 -0.441274 6.77489 0.000122825 10
10.1573 -0.141833 -2.72191 0.000747515 4
11.4567 -0.159977 -2.64524 0.000327117 4
13.0199 -0.181805 -2.53106 0.000181413 4
17.1532 -0.239522 -2.71707 7.94146e-05 1
22.0994 -0.308588 -2.71373 2.91175e-05 1
25.427 -0.355053 -2.22479 0.00017574 10
25.5926 -0.357366 -1.34138 0.000202225 10
25.6021 -0.357498 -0.446929 0.000203334 10
25.5838 -0.357243 0.44661 0.000203368 10
25.4549 -0.355444 1.33417 0.000138401 10
25.4385 -0.355214 2.22579 0.000136921 10
25.4383 -0.355212 3.12374 0.000134735 10
25.4532 -0.355419 4.03178 0.000131869 10
25.4548 -0.355441 4.94838 0.000128358 10
25.4418 -0.355261 5.87429 0.000124245 10
25.4567 -0.355468 6.82177 0.00011958 10
10.1586 -0.106385 -2.72214 0.000513229 1
11.4641 -0.120057 -2.64684 0.000294623 4
13.0165 -0.136315 -2.53029 0.000195187 4
17.1594 -0.179701 -2.71793 7.94209e-05 1
22.101 -0.231452 -2.71381 2.91206e-05 1
25.5913 -0.268003 -2.23907 0.000171097 10
25.6091 -0.26819 -1.34219 0.000114202 10
25.6108 -0.268207 -0.447062 0.000114791 10
25.6104 -0.268203 0.447055 0.000114773 10
25.6056 -0.268153 1.34201 0.000134746 10
25.605 -0.268147 2.24027 0.000133303 10
25.6143 -0.268245 3.14522 0.00013117 10
25.6022 -0.268118 4.05522 0.000128374 10
25.6198 -0.268301 4.98025 0.00012495 10
25.6039 -0.268135 5.91145 0.000120939 10
25.5982 -0.268076 6.85939 0.000116389 10
10.1635 -0.0709563 -2.72337 0.00051325 1
11.4619 -0.0800209 -2.64625 8.33114e-05 4
13.0094 -0.0908251 -2.52884 0.000126378 4
17.1595 -0.119799 -2.71787 7.9427e-05 1
22.1066 -0.154337 -2.71441 2.91238e-05 1
25.7546 -0.179805 -2.25329 0.000166531 10
25.7876 -0.180036 -1.3515 0.000197568 10
25.8128 -0.180212 -0.450575 0.000198654 10
25.7853 -0.18002 0.450095 0.000198688 10
25.7621 -0.179858 1.35017 0.000131152 10
25.7582 -0.179831 2.25361 0.000129744 10
25.7653 -0.17988 3.16366 0.000127665 10
25.7535 -0.179798 4.07906 0.000124938 10
25.7725 -0.17993 5.00978 0.000121599 10
25.7591 -0.179837 5.94711 0.000117688 10
25.7639 -0.17987 6.90358 0.000113251 10
10.166 -0.0354865 -2.72399 0.000513272 1
11.4632 -0.0400145 -2.6465 0.000107701 4
13.0291 -0.0454809 -2.53263 0.00020397 4
17.1398 -0.05983 -2.7147 7.94333e-05 1
22.0961 -0.0771308 -2.71307 2.91269e-05 1
25.9199 -0.0904785 -2.26771 0.000162042 10
26.066 -0.0909885 -1.36607 0.000191421 10
26.0557 -0.0909528 -0.454807 0.000192476 10
26.0611 -0.0909716 0.454901 0.000192508 10
25.919 -0.0904756 1.35837 0.000127619 10
25.8778 -0.0903318 2.26403 0.000228748 10
25.8727 -0.090314 3.17679 0.00022515 10
25.9189 -0.0904751 4.10518 0.000121561 10
25.9367 -0.0905373 5.04162 0.000118305 10
25.8834 -0.0903513 5.9757 0.000207741 10
25.8738 -0.0903178 6.93292 0.000199969 10
10.1585 0 -2.72196 0.000513293 1
11.4385 0 -2.64078 0.000245895 4
13.0296 0 -2.53271 0.000161434 4
17.1688 0 -2.71928 7.94395e-05 1
22.097 0 -2.71317 2.913e-05 1
26.0797 0 -2.28168 0.000157631 10
26.0832 0 -1.36696 0.00010522 10
26.0935 0 -0.455464 0.000105765 10
26.1013 0 0.4556 0.000105748 10
26.0832 0 1.36696 0.000124147 10
25.8265 0 2.25953 0.000230682 10
25.822 0 3.17055 0.000227056 10
26.0969 0 4.13335 0.000118241 10
26.0837 0 5.07016 0.000115068 10
25.8246 0 5.96207 0.000209509 10
25.8264 0 6.92016 0.000201676 10
10.1545 0.0354439 -2.72091 0.000513315 1
11.4413 0.0399355 -2.64145 8.94207e-05 4
13.0225 0.0454547 -2.53134 0.000152683 4
17.1676 0.059923 -2.7191 7.94456e-05 1
22.0928 0.0771142 -2.71268 2.91331e-05 1
26.2512 0.0916287 -2.29669 0.000153296 10
26.2721 0.0917018 -1.37687 0.000187076 10
26.2786 0.0917246 -0.458698 0.00018811 10
26.2631 0.0916702 0.458426 0.000188141 10
26.2671 0.0916844 1.37661 0.000120734 10
25.779 0.0899807 2.25538 0.000232615 10
25.7801 0.0899844 3.16542 0.00022896 10
26.2439 0.0916033 4.15665 0.00011498 10
26.2536 0.0916371 5.10321 0.000111888 10
25.7683 0.0899432 5.94911 0.000211276 10
25.7806 0.0899861 6.90792 0.000203382 10
10.1572 0.0709097 -2.72167 0.000513336 1
10.9693 0.0765795 -2.53253 0.000327659 4
13.0057 0.0907957 -2.5281 0.000145182 4
17.162 0.119812 -2.71826 7.94518e-05 1
22.0944 0.154246 -2.71292 2.91362e-05 1
26.4218 0.184457 -2.31166 0.000149036 10
26.5203 0.185145 -1.3899 0.000181343 10
26.5257 0.185182 -0.463019 0.000182348 10
26.5347 0.185246 0.463177 0.000182379 10
26.4305 0.184518 1.3852 0.000117382 10
25.7361 0.17967 2.25167 0.000234546 10
25.724 0.179585 3.15858 0.000230863 10
26.4414 0.184594 4.18801 0.000111775 10
26.4162 0.184418 5.13492 0.000108764 10
25.7407 0.179702 5.94286 0.000213043 10
25.7385 0.179687 6.89678 0.000205087 10
10.1568 0.106364 -2.72166 0.000513358 1
10.97 0.11488 -2.53276 0.000268511 4
13.0096 0.136239 -2.52894 0.000146443 4
17.1436 0.179532 -2.71544 7.9458e-05 1
22.0967 0.231401 -2.71328 2.91393e-05 1
26.6003 0.278564 -2.32736 0.000144853 10
26.5797 0.278348 -1.39306 0.000146393 10
26.5806 0.278357 -0.463991 0.000147156 10
26.5847 0.278401 0.464064 0.000147132 10
26.5912 0.278468 1.39366 0.000114089 10
26.6036 0.278598 4.21383 0.000108628 10
26.6051 0.278615 5.1718 0.000105695 10
10.1547 0.141794 -2.72121 0.000513379 1
10.9599 0.153038 -2.53054 0.000361825 4
13.0253 0.181877 -2.5321 0.000158969 4
17.1527 0.239511 -2.71699 7.94641e-05 1
22.0844 0.308373 -2.71188 2.91424e-05 1
26.7722 0.373832 -2.34249 0.000140745 10
26.7538 0.373574 -1.40224 0.000142244 10
26.7757 0.37388 -0.467417 0.000142987 10
26.7625 0.373695 0.467186 0.000142964 10
26.7828 0.37398 1.40377 0.000110855 10
26.9234 0.375942 2.35572 6.87311e-05 10
26.9154 0.375831 3.30512 6.76137e-05 10
26.7848 0.374007 4.2427 0.000105538 10
26.7848 0.374007 5.20694 0.000102682 10
26.9215 0.375917 6.21593 6.22573e-05 10
26.9125 0.37579 7.21188 5.98774e-05 10
10.1401 0.176995 -2.71745 0.0005134 1
10.957 0.191254 -2.53001 0.000250332 4
12.9996 0.226907 -2.52725 0.000167741 4
15.9512 0.278428 -2.52681 9.3786e-05 4
22.1055 0.385851 -2.71463 2.91455e-05 1
26.9495 0.470403 -2.35814 0.000136711 10
36.9685 0.645284 -1.93773 4.33203e-05 10
36.9591 0.64512 -0.645222 4.35741e-05 10
36.9716 0.645338 0.64544 4.3566e-05 10
26.9399 0.470236 1.41208 0.00010768 10
26.9349 0.470148 2.35686 6.79919e-05 10
26.9561 0.470517 3.31029 0.000198561 10
26.9344 0.470139 4.26664 0.000194326 10
26.9341 0.470133 5.23625 0.000189123 10
26.9454 0.47033 6.22177 0.000183016 10
26.9428 0.470286 7.22041 0.000176081 10
10.1622 0.212866 -2.72354 0.000513421 1
10.9713 0.229816 -2.53349 0.00030724 4
13.0073 0.272464 -2.52892 0.000175262 4
15.947 0.334041 -2.52631 8.72632e-05 4
22.0825 0.462561 -2.71199 2.91486e-05 1
27.1153 0.567983 -2.3728 0.000132753 10
37.0479 0.77604 -1.94202 8.13789e-05 10
37.2176 0.779594 -0.649778 4.21655e-05 10
37.2209 0.779665 0.649836 4.21576e-05 10
26.8944 0.563355 1.40978 0.000205589 10
26.8882 0.563226 2.35293 0.000203419 10
26.8821 0.563098 3.30143 0.00020018 10
26.8827 0.563111 4.25874 0.000195912 10
26.8826 0.563109 5.2266 0.00019067 10
26.89 0.563264 6.20942 0.000184516 10
26.9023 0.563522 7.21004 0.000177528 10
10.1607 0.248321 -2.72336 0.000513443 1
11.0253 0.269452 -2.54615 0.000634318 4
13.0136 0.318046 -2.53035 0.000176524 4
15.9466 0.389727 -2.52645 7.53963e-05 4
22.0781 0.539577 -2.71167 2.91516e-05 1
27.2934 0.667034 -2.38857 0.000128868 10
36.9736 0.903613 -1.93828 8.21149e-05 10
26.848 0.65615 1.40747 0.000207247 10
26.8281 0.655663 2.34785 0.00020506 10
26.8499 0.656197 3.29774 0.000201797 10
26.8485 0.656162 4.25365 0.000197497 10
26.8423 0.65601 5.21917 0.000192215 10
26.8508 0.656219 6.20085 0.000186015 10
26.8413 0.655987 7.19426 0.000178975 10
10.136 0.283125 -2.717 0.000295266 4
11.0745 0.309339 -2.55775 0.000698931 4
13.0428 0.364317 -2.53625 0.000407821 4
15.9618 0.445853 -2.52909 8.90575e-05 4
22.1024 0.617375 -2.71489 2.91547e-05 1
27.4871 0.767784 -2.40575 0.000125057 10
36.9279 1.03149 -1.93607 8.28506e-05 10
26.7879 0.748253 1.40444 0.000208903 10
26.7967 0.748499 2.34532 0.0002067 10
26.805 0.748731 3.29253 0.000203412 10
26.7851 0.748174 4.24399 0.000199081 10
26.7933 0.748406 5.21013 0.000193759 10
26.7743 0.747874 6.18375 0.000187513 10
26.8003 0.7486 7.18392 0.00018042 10
10.0863 0.316971 -2.70394 0.000277458 4
11.1312 0.34981 -2.57111 0.000641659 4
13.1136 0.412108 -2.55028 0.000409064 4
15.9613 0.501601 -2.52927 8.31265e-05 4
22.0997 0.694508 -2.71485 2.91577e-05 1
27.6733 0.869662 -2.42229 0.00012132 10
36.8557 1.15823 -1.93248 8.3586e-05 10
26.8902 0.845052 1.40995 0.000105587 10
26.8912 0.845084 2.35384 0.000104437 10
26.8917 0.8451 3.30352 0.000102739 10
26.877 0.844639 4.259 0.000100514 10
26.8811 0.844767 5.22774 9.77897e-05 10
26.8737 0.844535 6.20735 9.46002e-05 10
26.8797 0.844723 7.20595 9.09844e-05 10
10.0735 0.351771 -2.70082 0.000233494 4
11.1976 0.391026 -2.58674 0.000586354 4
13.1792 0.460225 -2.56334 0.00043099 4
15.9399 0.55663 -2.52617 5.99744e-05 4
22.0756 0.770893 -2.7122 2.91608e-05 1
27.8501 0.97254 -2.43805 0.000117654 10
36.7857 1.28458 -1.92903 8.43211e-05 10
27.0733 0.945416 1.41972 0.000102428 10
27.069 0.945264 2.36967 0.00010131 10
27.062 0.945019 3.32482 9.96591e-05 10
27.056 0.944809 4.28785 9.74961e-05 10
27.0572 0.944854 5.2626 9.48478e-05 10
27.0715 0.945351 6.25375 9.17474e-05 10
27.0597 0.944939 7.25503 8.82328e-05 10
10.0244 0.385096 -2.68801 0.000294647 4
11.2802 0.433339 -2.60615 0.000706091 4
13.2593 0.509367 -2.57924 0.000381414 4
15.9423 0.612437 -2.52687 5.76034e-05 4
22.0847 0.848406 -2.71367 2.91638e-05 1
28.0381 1.07711 -2.45482 0.000114062 10
36.7202 1.41064 -1.92584 8.50556e-05 10
27.2417 1.04652 1.42873 9.93313e-05 10
27.2584 1.04716 2.38656 9.82443e-05 10
27.2595 1.0472 3.34952 9.66396e-05 10
27.2581 1.04715 4.32045 9.45374e-05 10
27.241 1.04649 5.29902 9.19637e-05 10
27.236 1.0463 6.29257 8.89506e-05 10
27.2573 1.04711 7.30896 8.55354e-05 10
10.0013 0.419175 -2.68218 0.000205966 4
11.3196 0.474432 -2.61564 0.000561769 4
13.3251 0.558484 -2.5924 0.000405461 4
15.9359 0.66791 -2.52621 6.29528e-05 4
22.0881 0.925763 -2.71446 2.91669e-05 1
28.2201 1.18277 -2.47111 0.000110541 10
36.6509 1.53612 -1.92248 8.57896e-05 10
27.4397 1.15006 1.43932 9.62953e-05 10
27.4345 1.14984 2.40232 9.52391e-05 10
27.4408 1.15011 3.37226 9.36799e-05 10
27.4201 1.14924 4.34674 9.16373e-05 10
27.4469 1.15036 5.33983 8.91367e-05 10
27.4456 1.15031 6.34187 8.62096e-05 10
27.4344 1.14984 7.35749 8.2892e-05 10
9.9716 0.452807 -2.67464 0.000281427 4
11.3987 0.517613 -2.63432 0.00042319 4
13.3833 0.607731 -2.60413 0.000394515 4
15.9291 0.723332 -2.52551 8.79028e-05 4
22.0815 1.00271 -2.71406 2.91699e-05 1
28.4279 1.2909 -2.48968 0.000107091 10
36.5653 1.66042 -1.91828 8.65231e-05 10
27.6066 1.25361 1.44829 9.33199e-05 10
27.6107 1.25379 2.41811 9.22939e-05 10
27.6134 1.25391 3.39399 9.07793e-05 10
27.6291 1.25463 4.38053 8.87953e-05 10
27.6118 1.25384 5.37273 8.63667e-05 10
27.6133 1.25391 6.3816 8.35239e-05 10
27.6337 1.25483 7.41205 8.03022e-05 10
9.9445 0.486366 -2.6678 0.000327189 4
11.4689 0.560922 -2.65097 0.000533541 4
13.4534 0.657979 -2.6182 0.000325799 4
15.9407 0.77963 -2.52778 7.72177e-05 4
22.0685 1.07933 -2.71291 2.91729e-05 1
28.6288 1.40018 -2.50769 0.000103712 10
28.8912 1.41301 -1.51593 0.000137244 10
28.9032 1.4136 -0.505111 0.000138026 10
28.9037 1.41362 0.505118 0.000138049 10
27.8153 1.36039 1.45948 9.04048e-05 10
27.8222 1.36073 2.43704 8.94084e-05 10
27.8307 1.36115 3.42127 8.79376e-05 10
27.8103 1.36015 4.40999 8.60112e-05 10
27.8185 1.36055 5.41383 8.36532e-05 10
27.8086 1.36007 6.4278 8.08931e-05 10
27.8202 1.36063 7.4633 7.77655e-05 10
9.88922 0.518271 -2.65344 0.000292355 4
11.5424 0.60491 -2.66843 0.000225455 4
13.5415 0.709681 -2.63582 0.000311046 4
15.9311 0.834913 -2.5267 8.19756e-05 4
22.0741 1.15685 -2.71407 2.91759e-05 1
28.8368 1.51127 -2.52636 0.000100403 10
28.8393 1.5114 -1.51348 0.000138301 10
28.8306 1.51095 -0.503931 0.000139088 10
28.834 1.51113 0.50399 0.000139112 10
28.0157 1.46824 1.47026 8.75495e-05 10
27.9969 1.46725 2.45277 8.65821e-05 10
28.0152 1.46821 3.44455 8.51544e-05 10
28.009 1.46789 4.44228 8.32844e-05 10
28.0183 1.46838 5.45368 8.09956e-05 10
28.0238 1.46867 6.47869 7.83169e-05 10
28.0136 1.46813 7.51653 7.52816e-05 10
9.86844 0.551731 -2.64837 0.0003094 4
11.6031 0.648714 -2.68297 0.000608383 4
13.5761 0.75902 -2.64304 0.000146997 4
15.9266 0.890437 -2.52647 5.76248e-05 4
22.0518 1.23288 -2.71185 2.91789e-05 1
29.0418 1.62369 -2.5448 9.71637e-05 10
29.0968 1.62677 -1.52728 0.000134372 10
29.0941 1.62661 -0.508632 0.000135139 10
29.0769 1.62565 0.508332 0.000135162 10
28.2144 1.57743 1.48096 8.47534e-05 10
28.1943 1.57631 2.47054 8.38146e-05 10
28.196 1.5764 3.46744 8.24291e-05 10
28.2124 1.57732 4.47538 8.06146e-05 10
28.2184 1.57765 5.49366 7.83938e-05 10
28.2181 1.57764 6.52485 7.57948e-05 10
28.2257 1.57806 7.57486 7.28501e-05 10
9.8442 0.584853 -2.6424 0.0002314 4
11.6849 0.694212 -2.70243 0.000495051 4
13.5566 0.805409 -2.63978 0.000102458 4
15.9216 0.945915 -2.52618 7.72348e-05 4
22.0559 1.31036 -2.7129 2.91819e-05 1
29.2278 1.73645 -2.56161 9.39936e-05 10
29.3384 1.74302 -1.54027 0.00013058 10
29.3321 1.74265 -0.512897 0.000131327 10
29.337 1.74294 0.512982 0.00013135 10
28.4161 1.68823 1.49185 8.20162e-05 10
28.4024 1.68741 2.48927 8.11054e-05 10
28.4211 1.68852 3.49582 7.97614e-05 10
28.4025 1.68742 4.50645 7.80012e-05 10
28.4238 1.68869 5.53477 7.58471e-05 10
28.4233 1.68866 6.57361 7.33264e-05 10
28.4062 1.68764 7.62484 7.04706e-05 10
9.85983 0.620326 -2.64716 0.000791487 4
11.7571 0.739691 -2.7197 0.000562006 4
13.5569 0.852926 -2.64041 0.000197132 4
15.9157 1.00132 -2.52578 9.4471e-05 4
22.0494 1.38723 -2.71268 2.91849e-05 1
29.4512 1.85291 -2.58174 9.08923e-05 10
29.5795 1.86098 -1.55326 0.000126918 10
29.5744 1.86066 -0.517244 0.000127647 10
29.5583 1.85965 0.516962 0.000127669 10
28.6019 1.79947 1.50192 7.93376e-05 10
28.6161 1.80037 2.50853 7.84543e-05 10
28.614 1.80024 3.52031 7.71509e-05 10
28.6231 1.80081 4.54243 7.54441e-05 10
28.624 1.80086 5.57494 7.33554e-05 10
28.6299 1.80124 6.62281 7.09114e-05 10
28.6227 1.80078 7.68459 6.81427e-05 10
9.84268 0.653749 -2.64315 0.000590285 4
11.7436 0.780008 -2.7172 0.000310814 1
13.5594 0.900611 -2.64148 0.00028402 4
15.9211 1.05748 -2.52722 8.61591e-05 4
22.0423 1.46404 -2.71242 2.91879e-05 1
29.6774 1.97117 -2.60216 8.78588e-05 10
29.806 1.97971 -1.56551 0.000123382 10
29.8087 1.97989 -0.52146 0.000124093 10
29.8288 1.98122 0.52181 0.000124114 10
28.8228 1.9144 1.51387 7.67168e-05 10
28.8153 1.9139 2.52656 7.58605e-05 10
28.8301 1.91489 3.54769 7.45969e-05 10
28.8375 1.91538 4.57748 7.29423e-05 10
28.8392 1.91549 5.61812 7.09178e-05 10
28.8219 1.91434 6.66873 6.8549e-05 10
28.8306 1.91492 7.74215 6.58658e-05 10
9.8452 0.688442 -2.64446 0.000607078 4
11.7582 0.822215 -2.72123 0.000310829 1
13.5492 0.947452 -2.64013 0.000238368 4
15.9149 1.11288 -2.52683 7.84402e-05 4
22.0513 1.54197 -2.71417 2.91908e-05 1
29.8952 2.09047 -2.62188 8.48927e-05 10
30.0441 2.10088 -1.57839 0.000119965 10
30.0464 2.10104 -0.525742 0.000120658 10
30.0584 2.10188 0.525952 0.000120679 10
29.0203 2.02929 1.5246 7.41534e-05 10
29.0362 2.0304 2.54654 7.33235e-05 10
29.0429 2.03087 3.57473 7.20991e-05 10
29.0356 2.03036 4.61002 7.04957e-05 10
29.045 2.03102 5.65956 6.85341e-05 10
29.0327 2.03016 6.71909 6.6239e-05 10
29.0292 2.02992 7.79736 6.36396e-05 10
9.8335 0.722126 -2.64197 0.000701019 4
11.751 0.862937 -2.72023 0.000310843 1
13.5457 0.994734 -2.64011 0.000201622 4
15.8994 1.16758 -2.525 9.33031e-05 4
22.0388 1.61842 -2.71331 2.91938e-05 1
30.0953 2.21006 -2.64009 8.19934e-05 10
30.4837 2.23858 -1.60188 0.000172536 10
30.4926 2.23923 -0.533684 0.000173538 10
30.5034 2.24003 0.533872 0.000173567 10
29.2411 2.14733 1.53659 7.16471e-05 10
29.2509 2.14805 2.56602 7.0843e-05 10
29.2345 2.14685 3.59922 6.96569e-05 10
29.2493 2.14793 4.64511 6.81038e-05 10
29.2541 2.14828 5.70173 6.62038e-05 10
29.2572 2.14851 6.77273 6.39809e-05 10
29.2566 2.14847 7.8604 6.14635e-05 10
9.84963 0.757886 -2.647 0.000623898 4
11.7567 0.904631 -2.72228 0.000310858 1
13.5389 1.04176 -2.63947 0.000196063 4
15.9143 1.22453 -2.52802 7.66686e-05 4
22.0188 1.69425 -2.71156 2.91968e-05 1
30.3337 2.33405 -2.6617 7.91603e-05 10
30.441 2.34231 -1.60006 0.000173807 10
30.4286 2.34135 -0.532703 0.000174815 10
30.4257 2.34112 0.532651 0.000174845 10
29.4622 2.26699 1.54861 6.91971e-05 10
29.474 2.26789 2.58626 6.84184e-05 10
29.4542 2.26638 3.62722 6.72698e-05 10
29.4618 2.26696 4.68008 6.5766e-05 10
29.4526 2.26625 5.74192 6.39263e-05 10
29.4672 2.26737 6.82314 6.17743e-05 10
29.4713 2.26769 7.92016 5.93373e-05 10
9.84019 0.791722 -2.64519 0.000519935 4
11.727 0.943532 -2.71614 0.000310873 1
13.5368 1.08914 -2.63979 5.34749e-05 4
15.8906 1.27853 -2.52496 8.02404e-05 4
22.016 1.77136 -2.71196 2.91997e-05 1
30.5524 2.45819 -2.68163 7.63928e-05 10
30.5661 2.45929 -1.60708 7.7243e-05 10
30.5632 2.45906 -0.535208 7.76631e-05 10
30.5412 2.45728 0.534821 7.76478e-05 10
30.5673 2.45938 1.60714 6.01917e-05 10
30.3691 2.44344 2.66554 0.000135074 10
30.38 2.44431 3.74225 0.000132832 10
30.5483 2.45786 4.85402 5.71696e-05 10
30.3737 2.44381 5.92313 0.000126256 10
30.3641 2.44303 7.03275 0.000122007 10
30.5722 2.45978 8.21828 5.15122e-05 10
9.83118 0.825547 -2.64353 0.000727938 4
11.7476 0.986473 -2.72169 0.000310887 1
13.5441 1.13733 -2.64198 0.00010807 4
15.9066 1.33571 -2.52822 7.96518e-05 4
22.0243 1.84943 -2.71376 2.92027e-05 1
