VERSION 0.7
FIELDS x y z intensity label
SIZE 4 4 4 4 4
TYPE F F F F F
COUNT 1 1 1 1 1
WIDTH 1168
HEIGHT 1
VIEWPOINT 11.2394 0 2.73033 0.999932 0.000059 -0.000187613 -0.0116963
POINTS 1168
DATA ascii
13.6268 -4.74537 0.251867 0.000464886 10
13.6209 -4.74329 0.755885 0.000462781 10
12.6565 -4.40747 1.17252 0.000662307 10
12.658 -4.40798 1.64575 0.000653386 10
12.6477 -4.4044 2.12119 0.000641626 10
12.639 -4.40138 2.60148 0.000627149 10
12.6515 -4.40572 3.09286 0.000610104 10
12.65 -4.4052 3.5892 0.000590665 10
9.64169 -3.3199 -2.73235 0.000505908 1
11.2057 -3.85845 -2.73612 0.000305337 1
13.3099 -4.58295 -2.73625 0.00016607 1
13.7694 -4.74118 -2.30652 0.000648682 10
13.7564 -4.73672 -1.7864 0.000660829 10
13.8691 -4.77551 -1.2833 0.00116976 10
13.8723 -4.77663 -0.76891 0.00118052 10
13.8797 -4.77918 -0.256232 0.00118589 10
13.8765 -4.77807 0.256172 0.00118583 10
13.8722 -4.77657 0.7689 0.00118033 10
12.7946 -4.40553 1.18388 0.000639692 10
12.7733 -4.39819 1.65873 0.00063106 10
12.7763 -4.39923 2.14016 0.000619682 10
12.7789 -4.40013 2.62709 0.000605675 10
12.7747 -4.39867 3.1192 0.000589184 10
12.7728 -4.39803 3.61966 0.000570378 10
9.6656 -3.29044 -2.73585 0.000505902 1
11.2189 -3.81924 -2.73607 0.000305333 1
13.3181 -4.53385 -2.73467 0.000166068 1
13.9245 -4.74029 -2.32972 0.00062589 10
13.9002 -4.732 -1.80291 0.000637634 10
13.9125 -4.73622 -1.28579 0.00042707 10
13.905 -4.73366 -0.769802 0.000431041 10
13.9082 -4.73472 -0.25645 0.000433047 10
13.9054 -4.73379 0.256399 0.000433066 10
13.905 -4.73364 0.769798 0.000431098 10
12.9215 -4.39885 1.1942 0.000617578 10
12.9234 -4.39949 1.67622 0.00060923 10
12.91 -4.39493 2.15998 0.000598226 10
12.9316 -4.40228 2.65531 0.000584679 10
12.9317 -4.40233 3.15379 0.000568731 10
12.929 -4.40138 3.65955 0.000550545 10
9.66312 -3.252 -2.73192 0.000505897 1
11.2285 -3.77881 -2.73516 0.00030533 1
13.3191 -4.48237 -2.73164 0.000166065 1
14.0629 -4.73269 -2.35009 0.000603624 10
14.0615 -4.73222 -1.82168 0.000614972 10
14.1236 -4.75311 -1.30375 0.00111898 10
14.1421 -4.75934 -0.782 0.00112931 10
14.1449 -4.76028 -0.260506 0.00113447 10
14.1352 -4.75704 0.260329 0.00113441 10
14.1294 -4.75508 0.7813 0.00112913 10
13.0529 -4.3928 1.20492 0.000595963 10
13.0658 -4.39714 1.69269 0.000587893 10
13.0696 -4.3984 2.18409 0.000577255 10
13.0715 -4.39906 2.68087 0.000564159 10
13.0457 -4.39037 3.17782 0.000548742 10
13.0537 -4.39307 3.6905 0.000531163 10
9.68499 -3.22177 -2.7349 0.000505892 1
11.2464 -3.74117 -2.73632 0.000305326 1
13.3394 -4.43744 -2.73263 0.000166062 1
14.225 -4.73202 -2.3744 0.000581874 10
14.2268 -4.73265 -1.84095 0.000592837 10
14.2262 -4.73242 -1.31169 0.000397088 10
14.2265 -4.73253 -0.78575 0.000400796 10
14.2193 -4.73014 -0.261572 0.000402669 10
14.2054 -4.72551 0.261315 0.000402687 10
14.2247 -4.73192 0.785649 0.00040085 10
13.2139 -4.39569 1.21835 0.000574841 10
13.1993 -4.39082 1.70799 0.000567042 10
13.1985 -4.39056 2.20307 0.000556762 10
13.2006 -4.39127 2.70419 0.000544108 10
13.2143 -4.39581 3.21513 0.000529211 10
13.1989 -4.39069 3.72718 0.000512225 10
9.70326 -3.19027 -2.7369 0.000505886 1
11.2515 -3.6993 -2.7344 0.000305322 1
13.3504 -4.3894 -2.73173 0.00016606 1
14.3645 -4.72282 -2.39493 0.000560639 10
14.3793 -4.72769 -1.85854 0.000571223 10
14.5925 -4.79776 -1.34391 0.00156559 10
14.5753 -4.79211 -0.804084 0.00158013 10
14.5996 -4.8001 -0.268257 0.00158739 10
14.592 -4.79761 0.268117 0.00158731 10
14.5759 -4.79232 0.80412 0.00157988 10
13.3356 -4.38452 1.22815 0.000554208 10
13.3567 -4.39145 1.72636 0.000546674 10
13.344 -4.38728 2.22478 0.000536744 10
13.3602 -4.39263 2.73373 0.000524522 10
13.3412 -4.38638 3.24227 0.000510134 10
13.359 -4.39223 3.76805 0.000493729 10
9.70261 -3.15257 -2.7336 0.000505881 1
11.2515 -3.65583 -2.73129 0.000305318 1
13.3801 -4.34747 -2.73468 0.000166057 1
14.5342 -4.72246 -2.42046 0.000539913 10
14.5307 -4.7213 -1.87596 0.000550127 10
14.5873 -4.73971 -1.3419 0.00157295 10
14.5726 -4.73493 -0.803021 0.00158756 10
14.5772 -4.73643 -0.267541 0.00159486 10
14.5776 -4.73655 0.267547 0.00159477 10
14.598 -4.74317 0.804418 0.0015873 10
13.4891 -4.38288 1.24088 0.000534058 10
13.4929 -4.38411 1.74198 0.000526785 10
13.4872 -4.38225 2.24609 0.000517198 10
13.503 -4.3874 2.7598 0.000505398 10
13.4985 -4.38593 3.27675 0.000491507 10
13.4873 -4.38229 3.79989 0.00047567 10
9.72291 -3.12169 -2.73623 0.000505875 1
11.2682 -3.61782 -2.73226 0.000305314 1
13.3877 -4.29831 -2.73314 0.000166054 1
14.703 -4.72061 -2.44581 0.000519692 10
14.6913 -4.71687 -1.89456 0.000529546 10
14.6929 -4.71737 -1.35009 0.000537036 10
14.6884 -4.71592 -0.808488 0.000542083 10
14.701 -4.71997 -0.269508 0.000544633 10
14.6832 -4.71426 0.269182 0.000544658 10
14.7023 -4.7204 0.809255 0.000542158 10
13.6471 -4.38159 1.25399 0.00051439 10
13.6507 -4.38278 1.76037 0.000507371 10
13.6425 -4.38013 2.2694 0.000498119 10
13.6584 -4.38524 2.78841 0.000486731 10
13.6581 -4.38514 3.31176 0.000473327 10
13.6594 -4.38557 3.84405 0.000458045 10
9.72301 -3.08432 -2.73321 0.00050587 1
11.2785 -3.57775 -2.73172 0.00030531 1
13.4033 -4.25177 -2.73328 0.000166052 1
14.8587 -4.71347 -2.46896 0.000499969 10
14.8651 -4.71548 -1.91483 0.00050947 10
14.8545 -4.71212 -1.36342 0.000516692 10
14.8682 -4.71649 -0.817478 0.000521559 10
14.849 -4.71038 -0.271919 0.000524017 10
14.8597 -4.71376 0.272114 0.000524042 10
14.8489 -4.71033 0.816411 0.000521632 10
13.8088 -4.3804 1.26744 0.000495197 10
13.7943 -4.37582 1.77691 0.000488426 10
13.8113 -4.38119 2.29491 0.000479502 10
13.8062 -4.37959 2.81545 0.000468518 10
13.7933 -4.3755 3.34082 0.000455589 10
13.8041 -4.37892 3.88044 0.00044085 10
9.72545 -3.04777 -2.73089 0.000505864 1
11.3127 -3.54518 -2.73698 0.000305306 1
13.4171 -4.20467 -2.73309 0.000166049 1
15.0165 -4.70587 -2.49243 0.00048074 10
15.0374 -4.71244 -1.9349 0.000489896 10
19.6603 -6.16117 -1.80254 0.000662591 10
19.6545 -6.15934 -1.07944 0.000442019 10
19.6587 -6.16065 -0.359599 0.0004442 10
19.6728 -6.16508 0.359857 0.000444175 10
18.993 -5.95204 1.04311 4.17559e-05 10
15.0339 -4.71133 1.37837 0.000387498 10
15.0296 -4.70999 1.9339 0.000382106 10
14.5814 -4.56952 2.42021 0.00120303 10
14.5784 -4.56858 2.96963 0.00117504 10
14.5831 -4.57007 3.52822 0.00114213 10
15.0283 -4.70959 4.21993 0.00034425 10
9.73954 -3.01489 -2.73187 0.000505859 1
11.2981 -3.49735 -2.73049 0.000305302 1
13.4516 -4.16398 -2.73714 0.000166047 1
15.2008 -4.70543 -2.52028 0.000462001 10
15.2151 -4.70986 -1.95564 0.00047082 10
19.6673 -6.08805 -1.80122 0.000665786 10
19.798 -6.1285 -1.08614 0.000145735 10
19.8066 -6.13118 -0.361911 0.000146471 10
19.792 -6.12664 0.361643 0.000146479 10
19.0195 -5.88751 1.04343 4.17585e-05 10
15.2043 -4.70653 1.39248 0.000372423 10
15.2134 -4.70932 1.95542 0.000367229 10
14.5952 -4.51797 2.41987 0.00120844 10
14.5736 -4.51129 2.96545 0.00118034 10
14.5754 -4.51185 3.52253 0.00114729 10
15.194 -4.70332 4.26181 0.000330769 10
9.74274 -2.97866 -2.72984 0.000505854 1
11.3202 -3.46094 -2.73289 0.000305298 1
13.4402 -4.10908 -2.73188 0.000166044 1
15.3815 -4.70262 -2.54751 0.000443747 10
15.3871 -4.70431 -1.97562 0.000452238 10
19.6514 -6.00804 -1.79783 0.000668958 10
40.8098 -12.4768 -2.23647 4.89438e-05 10
19.0256 -5.81673 1.04265 4.1761e-05 10
15.3792 -4.70189 1.40698 0.000357737 10
15.3707 -4.69929 1.97352 0.000352737 10
14.5795 -4.45741 2.41468 0.00121382 10
14.5735 -4.45558 2.96224 0.00118559 10
14.5736 -4.4556 3.51832 0.0011524 10
15.3808 -4.70237 4.30957 0.000317638 10
9.75534 -2.94531 -2.73047 0.000505848 1
11.3364 -3.42268 -2.73391 0.000305295 1
13.4712 -4.06721 -2.73529 0.000166042 1
15.5465 -4.69376 -2.5721 0.00042597 10
15.5571 -4.69697 -1.99533 0.00043414 10
19.6657 -5.93742 -1.79723 0.000672108 10
19.6558 -5.93443 -1.07604 0.000448364 10
19.6609 -5.93599 -0.358483 0.000450574 10
19.6487 -5.93228 0.358259 0.000450549 10
19.0692 -5.75732 1.04393 4.17635e-05 10
15.5472 -4.69399 1.42085 0.000343433 10
15.559 -4.69756 1.99558 0.000338622 10
14.5879 -4.40434 2.4135 0.00121915 10
14.5928 -4.40582 2.96301 0.00119081 10
14.5732 -4.3999 3.51448 0.00115748 10
15.5524 -4.69554 4.35303 0.000304853 10
9.76686 -2.91163 -2.73084 0.000505843 1
11.3499 -3.38355 -2.73429 0.000305291 1
13.4793 -4.01837 -2.73407 0.000166039 1
15.7333 -4.69029 -2.60028 0.000408666 10
15.7278 -4.68866 -2.01511 0.000416525 10
19.6624 -5.86161 -1.79505 0.000675234 10
19.657 -5.86 -1.07498 0.000145626 10
19.6707 -5.8641 -0.358286 0.000146359 10
19.6541 -5.85913 0.357983 0.000146367 10
19.0819 -5.68857 1.04353 4.17661e-05 10
15.729 -4.68901 1.43595 0.000329511 10
15.7529 -4.69614 2.01833 0.000324884 10
14.6251 -4.35993 2.41713 0.000393193 10
14.62 -4.35843 2.96544 0.000384089 10
14.6279 -4.36077 3.52399 0.000373375 10
15.7277 -4.68862 4.39749 0.000292411 10
9.77992 -2.87839 -2.73166 0.000505838 1
11.3559 -3.34224 -2.73292 0.000305287 1
13.5071 -3.97537 -2.73687 0.000166037 1
15.9408 -4.69162 -2.63185 0.000391831 10
15.9255 -4.68713 -2.03834 0.000399385 10
19.6546 -5.78466 -1.79248 0.000678337 10
31.3165 -9.21697 -1.71084 0.000142325 10
31.3229 -9.21884 -0.569932 0.000143136 10
31.3157 -9.2167 0.569799 0.000143127 10
19.0974 -5.62067 1.0433 4.17686e-05 10
15.9413 -4.69179 1.45383 0.000315963 10
15.9175 -4.68479 2.03732 0.000311516 10
15.9149 -4.68401 2.62758 0.000305657 10
15.9236 -4.68657 3.22651 0.000298448 10
15.9417 -4.69191 3.83654 0.000289968 10
15.9337 -4.68955 4.4505 0.000280307 10
9.79438 -2.84553 -2.73291 0.000505833 1
11.3775 -3.30546 -2.73531 0.000305283 1
13.5012 -3.92246 -2.73288 0.000166034 1
16.1292 -4.68596 -2.66024 0.000375459 10
16.1122 -4.68102 -2.06013 0.000382715 10
19.663 -5.71262 -1.79142 0.000681416 10
31.3126 -9.09715 -1.70888 0.000143072 10
31.3087 -9.09603 -0.569093 0.000143887 10
31.3005 -9.09365 0.568943 0.000143878 10
19.1047 -5.55042 1.04263 4.17711e-05 10
16.1178 -4.68267 1.46843 0.000302788 10
16.1184 -4.68282 2.06092 0.000298515 10
16.1095 -4.68024 2.65699 0.000292887 10
16.1152 -4.68191 3.26201 0.000285962 10
16.1091 -4.68014 3.87287 0.000277817 10
16.1106 -4.68056 4.49531 0.000268538 10
9.79568 -2.80887 -2.73052 0.000505827 1
11.3828 -3.26396 -2.73383 0.00030528 1
13.5272 -3.87887 -2.73539 0.000166032 1
16.3266 -4.68158 -2.69009 0.000359543 10
16.322 -4.68027 -2.08486 0.00036651 10
19.6593 -5.63722 -1.78928 0.00068447 10
19.6576 -5.63673 -1.07173 0.000456605 10
19.6605 -5.63757 -0.357006 0.000458853 10
19.6581 -5.63688 0.356962 0.000458828 10
19.126 -5.48429 1.04275 4.17735e-05 10
16.3289 -4.68225 1.48617 0.000289979 10
16.3132 -4.67774 2.08373 0.000285877 10
16.309 -4.67654 2.68719 0.000280473 10
16.3095 -4.67668 3.29801 0.000273825 10
16.3162 -4.67861 3.91871 0.000266006 10
16.3268 -4.68163 4.55105 0.000257099 10
9.8151 -2.77739 -2.73322 0.000505822 1
11.4021 -3.22646 -2.73574 0.000305276 1
13.5443 -3.83265 -2.73612 0.000166029 1
16.5128 -4.67265 -2.71806 0.000344079 10
16.531 -4.67781 -2.10945 0.000350764 10
19.6417 -5.55805 -1.78591 0.000687499 10
19.7434 -5.58682 -1.07534 0.000139108 10
19.7583 -5.59104 -0.358425 0.000139809 10
19.7639 -5.59263 0.358527 0.000139817 10
19.1412 -5.41642 1.04254 4.1776e-05 10
16.5133 -4.6728 1.50146 0.000277532 10
16.5194 -4.67453 2.10798 0.000273597 10
16.5274 -4.6768 2.72047 0.000268412 10
16.5141 -4.67303 3.33607 0.000262033 10
16.5145 -4.67312 3.96237 0.000254531 10
16.5147 -4.67318 4.59885 0.000245987 10
9.82265 -2.74253 -2.73263 0.000505817 1
11.3912 -3.18049 -2.73046 0.000305272 1
13.5394 -3.78027 -2.73245 0.000166027 1
16.6222 -4.64099 -2.73338 7.74259e-05 1
16.7199 -4.66829 -2.13147 0.000335471 10
19.6568 -5.48829 -1.78552 0.000690504 10
40.7837 -11.387 -2.21913 5.09763e-05 10
40.8012 -11.3919 -0.739427 3.38839e-05 10
40.786 -11.3877 0.73915 3.38815e-05 10
19.1665 -5.35138 1.04289 4.17785e-05 10
16.7131 -4.66638 1.51813 0.000265444 10
16.7149 -4.6669 2.13083 0.00026167 10
16.7177 -4.66767 2.74909 0.000256698 10
16.7317 -4.67158 3.37671 0.000250582 10
16.7111 -4.66583 4.00562 0.000243389 10
16.7194 -4.66814 4.65129 0.000235197 10
9.83584 -2.70924 -2.73365 0.000505812 1
11.4054 -3.14158 -2.73121 0.000305269 1
13.559 -3.73477 -2.73376 0.000166024 1
16.6645 -4.59016 -2.73769 7.74245e-05 1
16.9387 -4.66571 -2.15727 0.000320626 10
19.6552 -5.41395 -1.78365 0.000693483 10
19.6292 -5.40679 -1.06703 0.000462614 10
19.641 -5.41003 -0.355603 0.00046489 10
19.6524 -5.41318 0.355809 0.000464864 10
19.1845 -5.28428 1.04286 4.17809e-05 10
16.938 -4.66549 1.53707 0.000253709 10
16.8067 -4.62934 2.14046 0.000850384 10
16.7969 -4.62663 2.75944 0.00083412 10
16.8168 -4.63212 3.39059 0.000814138 10
16.9341 -4.66443 4.05515 0.000232574 10
16.9441 -4.66719 4.70925 0.000224725 10
9.85097 -2.67645 -2.73525 0.000505807 1
11.4405 -3.1083 -2.73699 0.000305265 1
13.5693 -3.6867 -2.73322 0.000166022 1
16.6789 -4.53156 -2.73744 7.7423e-05 1
17.1489 -4.65926 -2.18195 0.000306224 10
19.6425 -5.33676 -1.7808 0.000696436 10
19.6466 -5.33786 -1.06696 0.000464583 10
19.638 -5.33552 -0.355208 0.000466868 10
19.6369 -5.33522 0.355188 0.000466842 10
19.1999 -5.2165 1.0427 4.17834e-05 10
17.1439 -4.65789 1.55427 0.000242323 10
16.8027 -4.56518 2.1379 0.000853871 10
16.8047 -4.56573 2.75809 0.000837544 10
16.7896 -4.56164 3.38188 0.000817486 10
17.1505 -4.6597 4.10305 0.000222084 10
17.1569 -4.66142 4.76383 0.000214568 10
9.85465 -2.64055 -2.7337 0.000505802 1
11.4403 -3.06542 -2.73438 0.000305261 1
13.5934 -3.64234 -2.7355 0.000166019 1
16.6797 -4.46932 -2.735 7.74215e-05 1
17.3598 -4.65155 -2.20671 0.000292256 10
17.8288 -4.77723 -1.61485 0.000618904 10
17.8387 -4.77987 -0.967865 0.000624899 10
17.8268 -4.77668 -0.322145 0.000627897 10
17.8362 -4.77919 0.322314 0.000627863 10
17.8243 -4.77602 0.967086 0.000624797 10
17.3682 -4.65379 1.57312 0.000231281 10
16.797 -4.50074 2.13516 0.000857326 10
16.7921 -4.49944 2.75343 0.000840937 10
16.7926 -4.49957 3.3793 0.000820802 10
17.3801 -4.657 4.15407 0.000211911 10
17.367 -4.65347 4.81762 0.000204719 10
9.86557 -2.6066 -2.73418 0.000505797 1
11.4389 -3.02228 -2.73149 0.000305258 1
13.6146 -3.59713 -2.73722 0.000166017 1
16.6912 -4.41002 -2.73435 7.74201e-05 1
17.5976 -4.64948 -2.23485 0.000278718 10
17.8281 -4.71039 -1.61328 0.000621408 10
17.8316 -4.7113 -0.96658 0.000627427 10
17.815 -4.70693 -0.321633 0.000630436 10
17.8172 -4.7075 0.321672 0.000630402 10
17.8373 -4.71281 0.96689 0.000627324 10
17.598 -4.64959 1.59246 0.000220578 10
16.8076 -4.44075 2.13453 0.000860751 10
16.795 -4.43744 2.75135 0.0008443 10
16.7987 -4.43842 3.37739 0.00082409 10
17.5874 -4.6468 4.1997 0.000202054 10
17.5825 -4.64551 4.87289 0.000195177 10
9.8818 -2.57402 -2.73617 0.000505792 1
11.4573 -2.98441 -2.73339 0.000305254 1
13.6189 -3.54746 -2.73558 0.000166015 1
16.7214 -4.35561 -2.73679 7.74187e-05 1
17.8202 -4.64181 -2.26106 0.000265604 10
17.8267 -4.6435 -1.61167 0.000178025 10
17.8154 -4.64058 -0.964823 0.00017977 10
17.8345 -4.64553 -0.32169 0.000180652 10
17.8148 -4.6404 0.321334 0.000180662 10
17.8162 -4.64076 0.964861 0.000179801 10
17.8225 -4.64242 1.6113 0.00021021 10
16.7981 -4.37559 2.13137 0.000864143 10
16.8053 -4.37747 2.75052 0.000847632 10
16.795 -4.37478 3.37356 0.000827346 10
17.8386 -4.64662 4.2558 0.000192506 10
17.8285 -4.64397 4.93653 0.000185935 10
9.88273 -2.53745 -2.73396 0.000505787 1
11.4794 -2.9474 -2.73618 0.00030525 1
13.612 -3.49496 -2.73172 0.000166012 1
16.7252 -4.2943 -2.73493 7.74173e-05 1
18.0688 -4.63927 -2.29053 0.000252908 10
18.0958 -4.64621 -1.63453 0.000598757 10
18.0864 -4.64379 -0.978612 0.000604575 10
18.0975 -4.64666 -0.32614 0.000607484 10
18.0958 -4.64622 0.326109 0.000607451 10
18.1009 -4.64751 0.979396 0.000604476 10
18.0758 -4.64107 1.63272 0.000200171 10
16.7963 -4.31255 2.12922 0.000867504 10
16.7982 -4.31305 2.74687 0.000850931 10
16.8116 -4.31648 3.37383 0.000830572 10
18.0557 -4.63591 4.30368 0.000183265 10
18.0659 -4.63854 4.99776 0.00017699 10
9.8848 -2.50124 -2.7321 0.000505782 1
11.4655 -2.90121 -2.73044 0.000305247 1
13.645 -3.45272 -2.73592 0.00016601 1
16.753 -4.23916 -2.73704 7.74159e-05 1
18.3096 -4.63305 -2.319 0.000240623 10
18.367 -4.64758 -1.65755 7.88206e-05 10
18.3581 -4.6453 -0.992428 0.000580486 10
18.3601 -4.64583 -0.330578 0.000583289 10
18.3649 -4.64702 0.330663 0.000583258 10
18.3665 -4.64743 0.992882 0.000580391 10
18.312 -4.63365 1.65259 0.000190458 10
18.0125 -4.55787 2.28137 0.000709574 10
18.001 -4.55497 2.94094 0.000695796 10
18.0097 -4.55715 3.61106 0.000678874 10
18.3138 -4.63411 4.36134 0.000174324 10
18.2997 -4.63055 5.05795 0.000168337 10
9.89858 -2.46799 -2.73351 0.000505777 1
11.4971 -2.86655 -2.73557 0.000305243 1
13.6599 -3.4058 -2.73651 0.000166007 1
16.7714 -4.18157 -2.73764 7.74145e-05 1
18.5581 -4.62705 -2.3484 0.000228744 10
18.5648 -4.62873 -1.67393 0.000232149 10
18.6243 -4.64356 -1.00594 0.000557588 10
18.628 -4.64448 -0.335107 0.00056029 10
18.6307 -4.64515 0.335155 0.000560259 10
18.6343 -4.64605 1.00648 0.000557497 10
18.5493 -4.62486 1.67253 0.000181064 10
18.0093 -4.49022 2.27896 0.000712304 10
17.9908 -4.48562 2.9367 0.000698477 10
17.9936 -4.4863 3.60467 0.000681493 10
18.5624 -4.62812 4.41665 0.00016568 10
18.5485 -4.62466 5.1222 0.000159972 10
9.90067 -2.43184 -2.73173 0.000505772 1
11.4954 -2.82355 -2.73281 0.00030524 1
13.6639 -3.35617 -2.73493 0.000166005 1
16.7655 -4.11801 -2.73433 7.7413e-05 1
18.8268 -4.62432 -2.38036 0.000217263 10
18.8126 -4.62081 -1.69481 0.000220508 10
18.9117 -4.64517 -1.02058 0.000535808 10
18.9181 -4.64674 -0.340032 0.000538412 10
18.9112 -4.64504 0.339908 0.000538383 10
18.8959 -4.64129 1.01973 0.000535719 10
18.8088 -4.61989 1.69447 0.000171986 10
17.9903 -4.41885 2.27459 0.000715007 10
18.0092 -4.42349 2.93717 0.00070113 10
17.9872 -4.41809 3.60029 0.000684085 10
18.8211 -4.62291 4.47436 0.000157328 10
18.8132 -4.62096 5.19081 0.00015189 10
9.90431 -2.39611 -2.73041 0.000505767 1
11.505 -2.78337 -2.73277 0.000305236 1
13.6854 -3.31086 -2.73692 0.000166003 1
16.7838 -4.06044 -2.73499 7.74116e-05 1
19.069 -4.61329 -2.40893 0.000206176 10
19.0647 -4.61224 -1.71606 0.000209266 10
19.1722 -4.63825 -1.03376 0.000515077 10
19.1867 -4.64176 -0.344566 0.000517589 10
19.1667 -4.63692 0.344208 0.000517561 10
19.1742 -4.63873 1.03387 0.000514992 10
19.0818 -4.61637 1.7176 0.000163218 10
18.0091 -4.35686 2.27502 0.000717681 10
18.0081 -4.35663 2.93449 0.000703756 10
18.0074 -4.35645 3.60126 0.000686651 10
19.0729 -4.61423 4.53036 0.000149264 10
19.0713 -4.61383 5.25755 0.000144087 10
9.92753 -2.36507 -2.73452 0.000505762 1
11.5057 -2.74104 -2.73063 0.000305233 1
13.6981 -3.26335 -2.73716 0.000166 1
16.8074 -4.00409 -2.73653 7.74103e-05 1
19.3508 -4.61001 -2.44247 0.000195475 10
19.35 -4.60983 -1.74029 0.000198414 10
19.4453 -4.63252 -1.0476 0.000749909 10
19.4573 -4.63539 -0.349134 0.000753579 10
19.4322 -4.62941 0.348683 0.000753538 10
19.3455 -4.60876 1.04223 3.23125e-05 10
19.3527 -4.61046 1.74052 0.000154755 10
17.9983 -4.28781 2.27176 0.000720327 10
17.9831 -4.28419 2.92796 0.000706354 10
18.0093 -4.29043 3.59862 0.00068919 10
19.3294 -4.60491 4.58743 0.000141481 10
19.3362 -4.60653 5.32612 0.000136558 10
9.92879 -2.32878 -2.73261 0.000505757 1
11.5154 -2.70092 -2.73069 0.000305229 1
13.6879 -3.21046 -2.73286 0.000165998 1
16.8103 -3.94283 -2.73475 7.74089e-05 1
19.636 -4.60559 -2.47643 0.000185153 10
19.6189 -4.60159 -1.76302 0.000187947 10
19.6115 -4.59984 -1.05569 0.000189832 10
19.6078 -4.59896 -0.351543 0.000190786 10
19.6131 -4.60023 0.351639 0.000190798 10
19.6251 -4.60303 1.05642 0.000148043 10
19.619 -4.6016 1.76302 0.000146592 10
19.6181 -4.60138 2.47416 0.000144432 10
19.6292 -4.60399 3.19333 0.000141586 10
19.6236 -4.60269 3.91797 0.000138088 10
19.6054 -4.59842 4.64911 0.000133976 10
19.6164 -4.60098 5.39883 0.000129298 10
9.95318 -2.29787 -2.7371 0.000505752 1
11.5272 -2.66127 -2.73127 0.000305226 1
13.7063 -3.16435 -2.73432 0.000165996 1
16.8325 -3.88609 -2.73613 7.74075e-05 1
26.9723 -6.22706 -2.42184 0.000258154 10
26.9905 -6.23125 -1.45172 4.40475e-05 10
26.9806 -6.22897 -0.483337 4.42905e-05 10
26.9775 -6.22825 0.48328 4.42937e-05 10
19.6341 -4.5329 1.05605 0.000572481 10
19.6192 -4.52944 1.7616 0.000566803 10
19.618 -4.52918 2.47215 0.000558383 10
19.6357 -4.53327 3.1918 0.000547317 10
19.6098 -4.52727 3.91202 0.00053373 10
19.6255 -4.53089 4.65007 0.000517776 10
19.6129 -4.52801 5.39351 0.000499636 10
9.93999 -2.25831 -2.73129 0.000505748 1
11.5397 -2.62175 -2.73204 0.000305223 1
13.7055 -3.11382 -2.73197 0.000165994 1
16.8291 -3.82347 -2.73339 7.74061e-05 1
26.9741 -6.12838 -2.42007 0.000259176 10
40.5702 -9.21732 -2.18038 5.57502e-05 10
40.571 -9.21751 -0.726217 5.60999e-05 10
40.5655 -9.21626 0.726118 5.6096e-05 10
19.608 -4.45483 1.0538 0.000574544 10
19.6252 -4.45873 1.76074 0.000568847 10
19.614 -4.4562 2.46967 0.000560398 10
19.618 -4.4571 3.18637 0.000549294 10
19.6326 -4.46042 3.91344 0.000535661 10
19.6296 -4.45973 4.64733 0.000519654 10
19.6094 -4.45514 5.38822 0.000501452 10
9.94207 -2.22232 -2.72971 0.000505743 1
11.5648 -2.58503 -2.73582 0.000305219 1
13.7424 -3.07179 -2.73717 0.000165991 1
16.8442 -3.76512 -2.73369 7.74048e-05 1
26.9847 -6.0318 -2.41912 0.000260186 10
26.9699 -6.02849 -1.44831 0.000173729 10
26.9656 -6.02753 -0.482302 0.000174664 10
26.969 -6.02829 0.482362 0.000174653 10
19.618 -4.38515 1.05351 0.000576582 10
19.6272 -4.38721 1.75954 0.000570867 10
19.6076 -4.38281 2.46692 0.00056239 10
19.6218 -4.38599 3.18448 0.000551249 10
19.6243 -4.38656 3.90872 0.000537571 10
19.6133 -4.3841 4.63984 0.00052151 10
19.6085 -4.38302 5.38374 0.000503248 10
9.95427 -2.18859 -2.73094 0.000505738 1
11.556 -2.54075 -2.73164 0.000305216 1
13.7446 -3.02194 -2.73548 0.000165989 1
16.8693 -3.70896 -2.73565 7.74034e-05 1
26.9729 -5.93038 -2.41619 0.000261185 10
27.0869 -5.95545 -1.45347 4.19892e-05 10
27.0835 -5.9547 -0.484036 4.22212e-05 10
27.0857 -5.95517 0.484074 4.22244e-05 10
19.6193 -4.31359 1.05276 0.000578598 10
19.6097 -4.31147 1.7566 0.000572863 10
19.6179 -4.31329 2.46631 0.000564359 10
19.6184 -4.31339 3.18147 0.000553182 10
19.6249 -4.31481 3.90581 0.000539459 10
19.6242 -4.31465 4.63881 0.000523345 10
19.6193 -4.31358 5.38254 0.000505023 10
9.95761 -2.15291 -2.72978 0.000505734 1
11.5862 -2.50503 -2.73669 0.000305212 1
13.7536 -2.97362 -2.73519 0.000165987 1
16.8883 -3.65138 -2.73665 7.74021e-05 1
26.9816 -5.83364 -2.41513 0.000262173 10
19.6207 -4.24214 1.05204 0.000139753 10
19.6062 -4.23901 1.75495 0.000138386 10
19.631 -4.24436 2.46607 0.000136349 10
19.6163 -4.24119 3.1787 0.000133666 10
19.6054 -4.23884 3.89896 0.000130367 10
19.6226 -4.24256 4.63491 0.000126491 10
19.6254 -4.24317 5.38013 0.000506776 10
9.97585 -2.12043 -2.73274 0.000505729 1
11.5815 -2.46173 -2.73354 0.000305209 1
13.7689 -2.92667 -2.7362 0.000165985 1
16.9091 -3.59414 -2.73797 7.74008e-05 1
26.9747 -5.73364 -2.4127 0.000263149 10
26.9789 -5.73454 -1.44549 0.000175706 10
26.9732 -5.73332 -0.481337 0.000176651 10
26.982 -5.7352 0.481494 0.00017664 10
26.973 -5.73329 1.44518 0.000207373 10
26.9796 -5.73469 2.41314 0.000205119 10
26.9745 -5.73361 3.38605 0.00020178 10
26.9775 -5.73425 4.36828 0.000197397 10
26.9762 -5.73396 5.36078 0.000192026 10
26.9668 -5.73198 6.36487 0.000185734 10
26.9674 -5.7321 7.38732 0.000178599 10
9.9869 -2.08637 -2.73375 0.000505724 1
11.5832 -2.41986 -2.73193 0.000305206 1
13.7769 -2.87814 -2.73577 0.000165982 1
16.9206 -3.53491 -2.73782 7.73994e-05 1
26.9656 -5.63341 -2.41012 0.000264114 10
40.7324 -8.50945 -2.18078 5.59358e-05 10
26.9666 -5.63363 1.44377 0.000208132 10
26.9828 -5.637 2.41165 0.000205871 10
26.9788 -5.63618 3.3841 0.00020252 10
26.9699 -5.63432 4.36384 0.000198122 10
26.9759 -5.63556 5.35678 0.000192733 10
26.979 -5.6362 6.36305 0.00018642 10
26.966 -5.63351 7.38152 0.00017926 10
10.0005 -2.05282 -2.73551 0.00050572 1
11.6076 -2.3827 -2.73571 0.000305202 1
13.7852 -2.82969 -2.73544 0.00016598 1
16.9113 -3.47139 -2.73433 7.73981e-05 1
26.9642 -5.53495 -2.40825 0.000265066 10
40.7179 -8.3582 -2.17843 5.61709e-05 10
26.9554 -5.53316 1.44213 0.000208882 10
26.9796 -5.53813 2.40963 0.000206613 10
26.9637 -5.53485 3.37975 0.000203251 10
26.9559 -5.53327 4.35842 0.000198839 10
26.9773 -5.53766 5.3532 0.000193432 10
26.978 -5.5378 6.35824 0.000187097 10
26.9779 -5.53777 7.37943 0.000179913 10
9.98637 -2.01361 -2.72969 0.000505715 1
11.614 -2.3418 -2.73528 0.000305199 1
13.803 -2.78317 -2.73703 0.000165978 1
16.9304 -3.41377 -2.73548 7.73969e-05 1
26.9562 -5.43533 -2.40583 0.000266006 10
26.9663 -5.43736 -1.44169 0.000177612 10
26.9565 -5.4354 -0.479998 0.000178566 10
26.9526 -5.4346 0.479927 0.000178556 10
26.9734 -5.43879 1.44206 0.000209623 10
26.9801 -5.44014 2.40796 0.000207346 10
26.969 -5.4379 3.37802 0.000203973 10
26.9722 -5.43856 4.35796 0.000199546 10
26.9548 -5.43505 5.34494 0.000194121 10
26.9776 -5.43965 6.35363 0.000187766 10
26.9806 -5.44024 7.37492 0.000180558 10
10.014 -1.98284 -2.73535 0.000505711 1
11.623 -2.30142 -2.73549 0.000305196 1
13.8067 -2.7338 -2.73585 0.000165976 1
16.9444 -3.35508 -2.73583 7.73955e-05 1
26.9667 -5.33955 -2.40508 0.000266934 10
40.7159 -8.06198 -2.17526 5.66325e-05 10
26.9765 -5.34149 1.44123 0.000210354 10
26.9513 -5.33651 2.40371 0.00020807 10
26.9527 -5.33679 3.37363 0.000204686 10
26.9587 -5.33797 4.35273 0.000200245 10
26.9516 -5.33657 5.34057 0.000194802 10
26.9784 -5.34187 6.34938 0.000188426 10
26.9604 -5.33831 7.36427 0.000181195 10
10.0108 -1.9459 -2.73259 0.000505706 1
11.6373 -2.26206 -2.73696 0.000305193 1
13.8206 -2.68645 -2.73673 0.000165974 1
16.9417 -3.29313 -2.73352 7.73942e-05 1
26.9541 -5.23934 -2.40231 0.00026785 10
26.9465 -5.23787 -1.43864 0.000178842 10
26.9572 -5.23995 1.43921 0.000211075 10
26.9662 -5.24171 2.4034 0.000208784 10
26.9728 -5.24298 3.37383 0.000205389 10
26.9502 -5.23859 4.34839 0.000200934 10
26.9543 -5.23939 5.33745 0.000195474 10
26.9625 -5.24098 6.34128 0.000189077 10
26.9647 -5.24141 7.36041 0.000181823 10
10.0258 -1.91253 -2.73485 0.000505701 1
11.6442 -2.22125 -2.73675 0.000305189 1
13.8078 -2.63398 -2.73236 0.000165972 1
16.9758 -3.2383 -2.73718 7.7393e-05 1
26.9539 -5.14173 -2.40068 0.000268754 10
26.9819 -5.14708 -1.43956 3.84125e-05 10
26.9908 -5.14878 -0.479622 3.86245e-05 10
26.9875 -5.14815 0.479563 3.86278e-05 10
26.9472 -5.14046 1.43771 0.000211787 10
26.9657 -5.14398 2.40173 0.000209488 10
26.9531 -5.14159 3.3691 0.000206083 10
26.9551 -5.14196 4.34625 0.000201614 10
26.9481 -5.14062 5.33263 0.000196137 10
26.9574 -5.14241 6.33584 0.00018972 10
26.9686 -5.14453 7.35651 0.000182443 10
10.0369 -1.87835 -2.73606 0.000505697 1
11.654 -2.18098 -2.73724 0.000305186 1
13.8162 -2.58564 -2.73223 0.000165969 1
16.9899 -3.17958 -2.73766 7.73917e-05 1
26.9631 -5.046 -2.39992 0.000269645 10
40.6879 -7.61454 -2.16938 5.7303e-05 10
26.9682 -5.04697 1.43788 0.000212488 10
26.9668 -5.04671 2.40025 0.000210183 10
26.9674 -5.04681 3.36866 0.000206767 10
26.9613 -5.04568 4.34439 0.000202284 10
26.9557 -5.04462 5.33062 0.00019679 10
26.9646 -5.04629 6.33334 0.000190354 10
26.9587 -5.04519 7.34898 0.000183054 10
10.038 -1.84231 -2.73459 0.000505693 1
11.6584 -2.13972 -2.73652 0.000305183 1
13.8499 -2.54194 -2.73712 0.000165967 1
16.9979 -3.11969 -2.73717 7.73904e-05 1
26.9459 -4.94549 -2.39683 0.000270524 10
26.952 -4.94662 -1.43609 0.000273458 10
26.9576 -4.94764 -0.478406 0.000274926 10
26.9471 -4.94571 0.478219 0.000274909 10
26.9428 -4.94494 1.4356 0.00021318 10
26.9588 -4.94786 2.39798 0.000210868 10
26.9405 -4.94451 3.36313 0.000207442 10
26.9491 -4.94608 4.33961 0.000202945 10
26.9501 -4.94628 5.32608 0.000197435 10
26.9531 -4.94682 6.32655 0.000190978 10
26.9437 -4.94509 7.34013 0.000183657 10
10.0283 -1.80438 -2.73022 0.000505688 1
11.6489 -2.09598 -2.73256 0.00030518 1
13.8465 -2.49138 -2.73471 0.000165965 1
17.0055 -3.05977 -2.73666 7.73892e-05 1
26.9399 -4.84725 -2.39478 0.00027139 10
26.9632 -4.85144 -1.43577 0.000274332 10
26.9508 -4.84921 -0.477982 0.000275805 10
26.9455 -4.84826 0.477888 0.000275788 10
26.9589 -4.85067 1.43554 0.000213862 10
26.9459 -4.84834 2.39532 0.000211543 10
26.9517 -4.84937 3.36239 0.000208107 10
26.9453 -4.84822 4.33625 0.000203597 10
26.9549 -4.84994 5.32363 0.00019807 10
26.9641 -4.8516 6.32511 0.000191594 10
26.9567 -4.85027 7.339 0.000184251 10
10.0335 -1.76919 -2.72995 0.000505684 1
11.6519 -2.05455 -2.73156 0.000305177 1
13.8497 -2.44208 -2.73364 0.000165963 1
17.0058 -2.99859 -2.73501 7.73879e-05 1
26.9555 -4.75298 -2.39468 0.000272243 10
26.9576 -4.75336 -1.43458 0.000275194 10
26.9483 -4.75172 -0.477641 0.000276671 10
26.9522 -4.7524 0.477709 0.000276654 10
26.9441 -4.75098 1.43387 0.000214534 10
26.9589 -4.7536 2.39499 0.000212208 10
26.9639 -4.75447 3.36182 0.000208762 10
26.9542 -4.75276 4.33499 0.000204239 10
26.9454 -4.75121 5.31846 0.000198696 10
26.9652 -4.75469 6.32143 0.000192201 10
26.941 -4.75044 7.33019 0.000184836 10
10.0457 -1.73519 -2.73159 0.000505679 1
11.671 -2.01594 -2.73437 0.000305174 1
13.8645 -2.39481 -2.73488 0.000165961 1
17.0347 -2.94241 -2.73799 7.73867e-05 1
26.9358 -4.65263 -2.39148 0.000273083 10
26.9392 -4.65322 -1.43273 0.000276043 10
26.9502 -4.65511 -0.477384 0.000277524 10
26.9516 -4.65536 0.477409 0.000277507 10
26.9434 -4.65393 1.43295 0.000215196 10
26.936 -4.65265 2.39149 0.000212863 10
26.9607 -4.65693 3.35938 0.000209407 10
26.9459 -4.65438 4.33102 0.000204871 10
26.9461 -4.65441 5.31536 0.000199312 10
26.9608 -4.65695 6.31657 0.000192799 10
26.9502 -4.65511 7.32821 0.000185412 10
10.0617 -1.7018 -2.7343 0.000505675 1
11.6865 -1.97663 -2.73636 0.00030517 1
13.8752 -2.34682 -2.73537 0.000165959 1
17.0405 -2.8822 -2.73729 7.73854e-05 1
26.9487 -4.55804 -2.3912 0.00027391 10
26.9326 -4.55531 -1.43152 0.000276878 10
26.9437 -4.5572 -0.476985 0.000278363 10
26.9306 -4.55497 0.476751 0.000278347 10
26.9338 -4.55552 1.43159 0.000215847 10
26.945 -4.55741 2.39086 0.000213508 10
26.9315 -4.55512 3.35373 0.000210042 10
26.9523 -4.55864 4.32945 0.000205494 10
26.9562 -4.55931 5.31418 0.000199919 10
26.9433 -4.55713 6.3087 0.000193387 10
26.9577 -4.55956 7.3259 0.00018598 10
10.0699 -1.66706 -2.73494 0.000505671 1
11.6877 -1.93488 -2.73504 0.000305167 1
13.8882 -2.29918 -2.73634 0.000165957 1
17.0439 -2.8216 -2.73623 7.73842e-05 1
26.934 -4.4589 -2.38849 0.000274725 10
26.9279 -4.45788 -1.43044 0.000277701 10
26.9372 -4.45942 -0.47659 0.00027919 10
26.9339 -4.45888 0.476531 0.000279173 10
26.9453 -4.46077 1.43136 0.000216488 10
26.9333 -4.45878 2.38843 0.000214142 10
26.9492 -4.46141 3.35398 0.000210667 10
26.9569 -4.4627 4.32767 0.000206106 10
26.934 -4.45891 5.30671 0.000200516 10
26.9589 -4.46302 6.30867 0.000193966 10
26.9479 -4.46119 7.31894 0.000186538 10
10.0647 -1.63013 -2.73197 0.000505667 1
11.6936 -1.89395 -2.73486 0.000305164 1
13.8769 -2.24757 -2.73255 0.000165955 1
17.0431 -2.76038 -2.73454 7.7383e-05 1
27.2982 -4.42134 -2.4194 4.89327e-05 10
40.6661 -6.58648 -2.159 5.87606e-05 10
26.9461 -4.36432 1.43059 0.000217119 10
26.9387 -4.36313 2.38755 0.000214767 10
26.9329 -4.36218 3.35003 0.000211282 10
26.9304 -4.36178 4.32094 0.000206709 10
26.946 -4.3643 5.30603 0.000201103 10
26.9537 -4.36555 6.30384 0.000194536 10
26.9559 -4.3659 7.31693 0.000187088 10
10.0795 -1.59643 -2.73445 0.000505662 1
11.6952 -1.85233 -2.7337 0.000305161 1
13.8911 -2.20013 -2.73381 0.000165953 1
17.0539 -2.70107 -2.73474 7.73818e-05 1
27.8291 -4.4077 -2.46508 4.49572e-05 10
28.4102 -4.49973 -1.50747 0.000153286 10
28.4127 -4.50012 -0.502127 0.000154122 10
28.4149 -4.50048 0.502166 0.000154113 10
26.9345 -4.266 1.42917 0.000217739 10
26.9499 -4.26845 2.3872 0.000215381 10
26.936 -4.26625 3.34855 0.000211887 10
26.9478 -4.26812 4.32132 0.000207302 10
26.9313 -4.2655 5.30017 0.000201681 10
26.9403 -4.26693 6.29719 0.000195096 10
26.9423 -4.26724 7.30914 0.000187628 10
10.0695 -1.55884 -2.73026 0.000505658 1
11.7071 -1.81235 -2.73498 0.000305158 1
13.8935 -2.15082 -2.73279 0.000165951 1
17.0583 -2.64077 -2.73396 7.73806e-05 1
28.4078 -4.39776 -2.51496 4.12122e-05 10
28.3994 -4.39646 -1.50608 0.000153723 10
28.4179 -4.39933 -0.501946 0.000154561 10
28.4139 -4.39871 0.501875 0.000154552 10
26.923 -4.1679 1.42778 0.000218349 10
26.9479 -4.17176 2.38572 0.000215984 10
26.9418 -4.17081 3.34744 0.000212482 10
26.9418 -4.17082 4.318 0.000207884 10
26.9309 -4.16912 5.29719 0.000202249 10
26.9486 -4.17187 6.29569 0.000195647 10
26.926 -4.16836 7.30074 0.000188159 10
10.0761 -1.52387 -2.73059 0.000505654 1
11.7158 -1.77185 -2.73557 0.000305155 1
13.9033 -2.10268 -2.73326 0.000165949 1
17.0812 -2.58329 -2.73616 7.73794e-05 1
28.9877 -4.38398 -2.56494 3.76904e-05 10
26.9267 -4.07228 1.42722 0.000218948 10
26.9228 -4.07169 2.38222 0.000216578 10
26.9463 -4.07524 3.34621 0.000213066 10
26.9272 -4.07235 4.31334 0.000208457 10
26.9346 -4.07347 5.29509 0.000202807 10
26.9309 -4.07291 6.28818 0.000196188 10
26.9239 -4.07185 7.29626 0.000188681 10
10.0778 -1.48816 -2.72961 0.00050565 1
11.7197 -1.73061 -2.73504 0.000305152 1
13.9267 -2.05652 -2.73643 0.000165947 1
17.0788 -2.52198 -2.73435 7.73782e-05 1
29.5753 -4.3673 -2.61556 3.43846e-05 10
29.7646 -4.39526 -1.57681 0.000131029 10
29.7725 -4.39643 -0.525317 0.000131755 10
29.7693 -4.39596 0.52526 0.000131747 10
28.1878 -4.16243 2.49286 0.0001852 10
28.1999 -4.16421 3.50006 0.000182152 10
28.1904 -4.1628 6.57884 0.000167514 10
27.4836 -4.05842 7.44405 3.03022e-05 10
10.0844 -1.45318 -2.73001 0.000505646 1
11.7116 -1.68766 -2.73176 0.000305149 1
13.9126 -2.00484 -2.73227 0.000165945 1
17.0988 -2.46397 -2.73615 7.7377e-05 1
30.202 -4.35219 -2.66963 3.12871e-05 10
30.3138 -4.36829 -1.60509 0.00012313 10
30.309 -4.3676 -0.53451 0.000123816 10
30.2916 -4.36509 0.534203 0.000123808 10
28.2046 -4.06435 2.49307 0.000185695 10
28.2041 -4.06428 3.4988 0.00018264 10
28.2028 -4.06409 6.57839 0.000167965 10
10.1062 -1.42034 -2.73456 0.000505641 1
11.7357 -1.64934 -2.73602 0.000305146 1
13.9339 -1.95829 -2.7351 0.000165943 1
17.0913 -2.40203 -2.7336 7.73758e-05 1
30.4218 -4.27552 2.68772 0.000142018 10
30.4287 -4.27647 3.77289 0.000139621 10
30.4198 -4.27524 5.97113 0.000132626 10
30.4188 -4.27508 7.09174 0.000128119 10
10.0994 -1.38345 -2.7314 0.000505638 1
11.7343 -1.6074 -2.73438 0.000305144 1
13.9335 -1.90866 -2.73369 0.000165941 1
17.1057 -2.34319 -2.73458 7.73747e-05 1
30.4299 -4.16838 2.68713 0.000142391 10
30.4297 -4.16835 3.77118 0.000139988 10
30.4272 -4.16801 5.96968 0.000132976 10
30.4056 -4.16505 7.08523 0.000128458 10
10.1198 -1.35027 -2.73562 0.000505633 1
11.7506 -1.56787 -2.73689 0.000305141 1
13.955 -1.86199 -2.73661 0.000165939 1
17.1364 -2.28648 -2.73819 7.73735e-05 1
35.5864 -4.74824 -0.626668 0.000103359 10
35.5991 -4.74994 0.626891 0.000103352 10
31.6065 -4.21721 1.67111 0.000125326 10
30.4054 -4.05695 2.6837 0.000142757 10
30.4146 -4.05817 3.76754 0.000140348 10
31.6293 -4.22026 5.05399 0.000118996 10
30.4151 -4.05825 5.9645 0.000133319 10
30.4148 -4.0582 7.08404 0.000128791 10
31.6117 -4.2179 8.54538 0.000107107 10
10.1137 -1.31354 -2.73271 0.000505629 1
11.7381 -1.52452 -2.73272 0.000305138 1
13.9427 -1.81084 -2.73294 0.000165937 1
17.1301 -2.22482 -2.73594 7.73724e-05 1
33.7752 -4.38663 -0.5945 8.35943e-05 10
33.7712 -4.38612 0.594429 8.3589e-05 10
31.6035 -4.10458 1.67018 0.000125645 10
31.6306 -4.1081 2.79056 0.00012421 10
31.6036 -4.10459 5.04755 0.0001193 10
31.6196 -4.10667 6.19785 0.00011589 10
31.6145 -4.10601 8.54222 0.000107383 10
10.111 -1.27732 -2.73078 0.000505626 1
11.7542 -1.4849 -2.73524 0.000305135 1
13.9533 -1.76271 -2.73381 0.000165935 1
17.1284 -2.16382 -2.73444 7.73713e-05 1
31.6165 -3.99409 1.67012 0.000125957 10
31.6081 -3.99304 2.78733 0.000124519 10
31.6051 -3.99266 3.91146 0.000122389 10
31.6174 -3.99421 5.04751 0.000119597 10
31.6231 -3.99492 6.19575 0.000116179 10
31.6142 -3.99381 8.53833 0.000107653 10
10.1338 -1.24428 -2.73574 0.000505622 1
11.7653 -1.4446 -2.73663 0.000305132 1
13.9782 -1.7163 -2.73748 0.000165933 1
17.1594 -2.10691 -2.73819 7.73701e-05 1
10.136 -1.20864 -2.73516 0.000505618 1
11.7631 -1.40267 -2.73497 0.000305129 1
13.978 -1.66678 -2.7363 0.000165931 1
17.1418 -2.04403 -2.73423 7.7369e-05 1
35.5855 -4.24331 -0.625548 0.000104423 10
35.5878 -4.24359 0.625588 0.000104416 10
10.1237 -1.17135 -2.73073 0.000505614 1
11.7602 -1.36071 -2.73318 0.000305126 1
13.9744 -1.61689 -2.73447 0.00016593 1
17.1686 -1.98648 -2.73739 7.73679e-05 1
10.1428 -1.1377 -2.7348 0.00050561 1
11.7581 -1.31888 -2.73159 0.000305124 1
13.9816 -1.56829 -2.73479 0.000165928 1
17.1535 -1.92407 -2.73388 7.73668e-05 1
40.4568 -4.53796 -0.710604 6.27214e-05 10
40.4426 -4.53637 0.710354 6.27171e-05 10
10.1499 -1.10263 -2.73565 0.000505606 1
11.7668 -1.27829 -2.73257 0.000305121 1
13.9807 -1.51879 -2.73356 0.000165926 1
17.1594 -1.86411 -2.73377 7.73657e-05 1
38.8099 -4.21611 -0.681415 4.91186e-05 10
38.8329 -4.21861 0.681819 4.91153e-05 10
10.1494 -1.06675 -2.7345 0.000505602 1
11.7823 -1.23837 -2.73515 0.000305118 1
14.0022 -1.47169 -2.73674 0.000165924 1
17.191 -1.80685 -2.73779 7.73646e-05 1
37.8003 -3.97298 3.32532 6.35207e-05 10
37.7971 -3.97264 6.01945 6.08398e-05 10
37.7959 -3.97251 7.38724 5.89817e-05 10
37.7987 -3.97281 10.1839 5.43613e-05 10
10.1407 -1.03006 -2.73119 0.000505598 1
11.7751 -1.19608 -2.73249 0.000305116 1
14.0007 -1.42214 -2.73546 0.000165922 1
17.1977 -1.74688 -2.73786 7.73636e-05 1
37.7783 -3.83738 3.32218 6.36618e-05 10
37.7844 -3.838 6.01525 6.09755e-05 10
37.791 -3.83867 7.38362 5.91136e-05 10
37.7875 -3.83832 10.1772 5.44837e-05 10
10.1638 -0.996569 -2.73644 0.000505595 1
11.7904 -1.15606 -2.73509 0.000305113 1
14.0009 -1.37281 -2.73456 0.00016592 1
17.2045 -1.68692 -2.738 7.73625e-05 1
38.9933 -3.82333 3.42783 5.62222e-05 10
40.6078 -3.98163 5.00992 4.66486e-05 10
38.9822 -3.82224 6.20378 5.38205e-05 10
40.6096 -3.98181 7.93156 4.40485e-05 10
40.6316 -3.98397 9.42553 4.23806e-05 10
39.0003 -3.82401 10.5002 4.80217e-05 10
10.1622 -0.960611 -2.73509 0.000505591 1
11.796 -1.11505 -2.73545 0.00030511 1
14.0188 -1.32517 -2.73713 0.000165919 1
17.2102 -1.62684 -2.73798 7.73614e-05 1
40.6157 -3.83932 2.13807 4.82514e-05 10
40.6024 -3.83806 3.56808 4.76455e-05 10
40.6265 -3.84033 5.01054 4.67495e-05 10
40.6159 -3.83934 6.46161 4.55767e-05 10
40.6154 -3.83929 7.93003 4.41442e-05 10
40.6026 -3.83808 9.41564 4.2473e-05 10
40.6025 -3.83807 10.9279 4.05873e-05 10
10.1653 -0.925119 -2.73505 0.000505587 1
11.7902 -1.07299 -2.73323 0.000305108 1
14.0075 -1.27478 -2.73403 0.000165917 1
17.2157 -1.56675 -2.73797 7.73603e-05 1
10.1694 -0.889709 -2.73529 0.000505584 1
11.7987 -1.03225 -2.73434 0.000305105 1
14.0261 -1.22713 -2.73682 0.000165915 1
17.2069 -1.50542 -2.73572 7.73593e-05 1
10.1683 -0.853857 -2.73418 0.00050558 1
11.7936 -0.990336 -2.73234 0.000305102 1
14.0205 -1.17734 -2.7349 0.000165913 1
17.2022 -1.44451 -2.73415 7.73583e-05 1
10.1577 -0.817273 -2.73055 0.000505577 1
11.8114 -0.950327 -2.73569 0.0003051 1
14.0198 -1.12801 -2.73399 0.000165912 1
17.2136 -1.38498 -2.73518 7.73573e-05 1
10.1773 -0.783102 -2.73506 0.000505573 1
11.7997 -0.907941 -2.73223 0.000305097 1
14.0337 -1.07983 -2.73593 0.00016591 1
17.2123 -1.32442 -2.73422 7.73562e-05 1
10.1807 -0.747622 -2.73525 0.00050557 1
11.7968 -0.866305 -2.73084 0.000305095 1
14.0277 -1.03013 -2.73405 0.000165908 1
17.2276 -1.26512 -2.73594 7.73553e-05 1
10.1739 -0.711429 -2.73274 0.000505566 1
11.821 -0.826605 -2.73575 0.000305092 1
14.0346 -0.981398 -2.73472 0.000165907 1
17.2259 -1.20456 -2.73498 7.73542e-05 1
10.1695 -0.675459 -2.73092 0.000505562 1
11.8119 -0.784546 -2.733 0.00030509 1
14.0326 -0.932046 -2.73368 0.000165905 1
17.2499 -1.14574 -2.73814 7.73532e-05 1
10.1762 -0.640233 -2.7321 0.000505559 1
11.825 -0.743966 -2.73541 0.000305087 1
14.0553 -0.884285 -2.73748 0.000165903 1
17.2268 -1.08382 -2.73385 7.73523e-05 1
10.174 -0.604446 -2.73092 0.000505556 1
11.8274 -0.702678 -2.73539 0.000305085 1
14.0342 -0.833786 -2.73279 0.000165902 1
17.2442 -1.02449 -2.73603 7.73513e-05 1
10.1875 -0.569572 -2.734 0.000505552 1
11.8285 -0.661317 -2.73508 0.000305082 1
14.0474 -0.785375 -2.7348 0.0001659 1
17.2563 -0.964779 -2.73739 7.73503e-05 1
10.1788 -0.533453 -2.73116 0.000505549 1
11.8267 -0.619815 -2.73417 0.00030508 1
14.0598 -0.736844 -2.73669 0.000165899 1
17.2543 -0.904264 -2.73657 7.73494e-05 1
10.1783 -0.497805 -2.73054 0.000505546 1
11.8184 -0.578019 -2.73176 0.000305078 1
14.0599 -0.687647 -2.73624 0.000165897 1
17.25 -0.84367 -2.7354 7.73484e-05 1
10.1919 -0.462813 -2.73373 0.000505542 1
11.8229 -0.536878 -2.73235 0.000305075 1
14.0509 -0.638047 -2.73402 0.000165895 1
17.2454 -0.783113 -2.73423 7.73475e-05 1
10.1966 -0.427364 -2.73456 0.000505539 1
11.8204 -0.495421 -2.73134 0.000305073 1
14.0691 -0.589673 -2.73716 0.000165894 1
17.2622 -0.723502 -2.73646 7.73465e-05 1
10.2046 -0.392023 -2.73634 0.000505536 1
11.83 -0.454464 -2.73319 0.00030507 1
14.0536 -0.539886 -2.73376 0.000165892 1
17.2723 -0.663535 -2.73768 7.73456e-05 1
10.1997 -0.356182 -2.73467 0.000505533 1
11.8399 -0.41346 -2.73513 0.000305068 1
14.0673 -0.49124 -2.73606 0.000165891 1
17.2717 -0.603142 -2.73724 7.73447e-05 1
10.2072 -0.320775 -2.73637 0.000505529 1
11.8438 -0.372207 -2.73571 0.000305066 1
14.0524 -0.441615 -2.73286 0.000165889 1
17.2782 -0.54299 -2.73795 7.73438e-05 1
10.2114 -0.285233 -2.73721 0.000505526 1
11.8353 -0.330592 -2.73346 0.000305064 1
14.0727 -0.39309 -2.73653 0.000165888 1
17.2716 -0.482444 -2.73662 7.73429e-05 1
10.2032 -0.249363 -2.73475 0.000505523 1
11.8464 -0.289523 -2.73578 0.000305061 1
14.0715 -0.343902 -2.73603 0.000165886 1
17.2648 -0.421946 -2.73529 7.7342e-05 1
10.1887 -0.213425 -2.73066 0.00050552 1
11.8437 -0.248091 -2.73493 0.000305059 1
14.0596 -0.294509 -2.73351 0.000165885 1
17.2775 -0.361914 -2.73708 7.73411e-05 1
10.2088 -0.178196 -2.73585 0.000505517 1
11.8357 -0.206595 -2.7329 0.000305057 1
14.0614 -0.245445 -2.73368 0.000165883 1
17.2646 -0.301357 -2.73486 7.73403e-05 1
10.198 -0.142402 -2.73282 0.000505514 1
11.8423 -0.165362 -2.73428 0.000305055 1
14.0653 -0.196404 -2.73429 0.000165882 1
17.2656 -0.241091 -2.73487 7.73394e-05 1
10.2079 -0.106901 -2.73534 0.000505511 1
11.8525 -0.124125 -2.73652 0.000305053 1
14.0694 -0.147341 -2.73497 0.00016588 1
17.2873 -0.181041 -2.7382 7.73386e-05 1
10.1944 -0.0711723 -2.73166 0.000505508 1
11.8324 -0.0826076 -2.73179 0.000305051 1
14.0845 -0.0983305 -2.73781 0.000165879 1
17.2897 -0.120708 -2.73849 7.73377e-05 1
10.206 -0.035626 -2.7347 0.000505505 1
11.8548 -0.0413817 -2.73692 0.000305048 1
14.0674 -0.0491052 -2.73445 0.000165878 1
17.285 -0.0603367 -2.73769 7.73369e-05 1
10.2124 0 -2.73642 0.000505502 1
11.839 0 -2.73324 0.000305046 1
14.0594 0 -2.73287 0.000165876 1
17.2685 0 -2.73506 7.7336e-05 1
10.1924 0.0355764 -2.73107 0.000505499 1
11.8483 0.041356 -2.73541 0.000305044 1
14.0703 0.0491118 -2.735 0.000165875 1
17.2651 0.0602633 -2.73454 7.73352e-05 1
10.206 0.0712509 -2.73477 0.000505497 1
11.8467 0.0827046 -2.73509 0.000305042 1
14.0697 0.0982239 -2.73494 0.000165873 1
17.2802 0.120637 -2.73698 7.73344e-05 1
10.2084 0.106905 -2.7355 0.000505494 1
11.8474 0.124068 -2.73534 0.00030504 1
14.072 0.147365 -2.73547 0.000165872 1
17.2802 0.180962 -2.73707 7.73336e-05 1
10.1938 0.14234 -2.73168 0.000505491 1
11.8348 0.165254 -2.73255 0.000305038 1
14.056 0.196269 -2.73247 0.000165871 1
17.2664 0.241098 -2.735 7.73328e-05 1
10.2005 0.17805 -2.73364 0.000505488 1
11.8351 0.20658 -2.73275 0.000305036 1
14.0775 0.245723 -2.73681 0.00016587 1
17.2815 0.301648 -2.73754 7.7332e-05 1
10.1906 0.213462 -2.73116 0.000505485 1
11.8401 0.248013 -2.73409 0.000305034 1
14.0755 0.294839 -2.73661 0.000165868 1
17.2634 0.361615 -2.73485 7.73312e-05 1
10.2077 0.249471 -2.73596 0.000505483 1
11.8333 0.289199 -2.73275 0.000305032 1
14.0535 0.34346 -2.73255 0.000165867 1
17.269 0.422044 -2.73596 7.73305e-05 1
9.49451 0.265205 -2.54504 0.000434514 4
11.0103 0.307545 -2.54292 0.000295024 4
13.0814 0.365397 -2.54376 9.55526e-05 4
16.0662 0.448769 -2.54563 6.52855e-05 4
9.48906 0.298203 -2.54384 0.000441876 4
11.0038 0.345805 -2.54167 0.000333017 4
13.0773 0.410967 -2.54322 0.000143328 4
16.0771 0.50524 -2.54762 6.41294e-05 4
9.4875 0.331309 -2.54372 0.000427145 4
11.0084 0.384421 -2.54305 0.00032184 4
13.0922 0.457187 -2.54642 0.000243778 4
16.0788 0.561482 -2.54819 7.04838e-05 4
20.7401 0.724258 -2.54812 2.88529e-05 4
9.48951 0.364548 -2.54458 0.000375591 4
10.9996 0.422561 -2.54133 0.000234674 4
13.0875 0.502769 -2.54583 0.000151901 4
16.074 0.617499 -2.54775 9.18592e-05 4
9.47495 0.397117 -2.54104 0.000497103 4
11.0052 0.461254 -2.54299 0.000265962 4
13.0969 0.54892 -2.54801 0.000167825 4
16.0592 0.673079 -2.54576 7.68375e-05 4
20.7322 0.868933 -2.54783 3.01345e-05 4
9.49371 0.431106 -2.54645 0.000493418 4
11.0132 0.500103 -2.54521 0.000286075 4
13.0771 0.593827 -2.54455 0.000138424 4
16.0493 0.728791 -2.54457 8.08809e-05 4
9.48918 0.464098 -2.54566 0.000475005 4
11.0217 0.539053 -2.54761 0.000254784 4
13.0886 0.640139 -2.54721 0.000150673 4
16.0723 0.786066 -2.54865 8.43464e-05 4
20.7436 1.01453 -2.55004 2.94926e-05 4
9.47259 0.496437 -2.54166 0.000416087 4
11.0163 0.577338 -2.5468 0.000328536 4
13.0636 0.684636 -2.5428 0.000173946 4
16.0425 0.840753 -2.54438 7.79909e-05 4
9.47703 0.529848 -2.54333 0.000478683 4
10.9947 0.6147 -2.54229 0.000272661 4
13.0876 0.731711 -2.54795 6.12482e-05 4
16.0561 0.897675 -2.54701 8.60781e-05 4
9.46496 0.562322 -2.5406 0.000504455 4
11.0091 0.654058 -2.54612 0.000337472 4
13.0837 0.777313 -2.54769 0.000129845 4
16.041 0.953011 -2.54513 6.12362e-05 4
20.7025 1.22996 -2.54643 3.18423e-05 4
9.47848 0.596334 -2.54477 0.00046395 4
11.0086 0.692602 -2.54657 0.000225725 4
13.0751 0.82261 -2.54656 0.000129844 4
16.0374 1.00898 -2.5451 6.99011e-05 4
9.48334 0.629881 -2.54665 0.000430808 4
10.995 0.730283 -2.54398 0.000241368 4
13.0783 0.868661 -2.54777 0.000166592 4
16.0317 1.06482 -2.54476 5.37252e-05 4
9.45991 0.6615 -2.54096 0.00048972 4
10.9918 0.768618 -2.54385 0.000328527 4
13.0603 0.913264 -2.54487 0.00017149 4
16.0335 1.12117 -2.54566 5.31471e-05 4
9.47042 0.695463 -2.54443 0.000467625 4
11.0041 0.808087 -2.54733 0.000297237 4
13.0684 0.95968 -2.54707 0.000173939 4
16.0433 1.17814 -2.54785 7.68316e-05 4
9.4667 0.728422 -2.54409 0.000570721 4
10.9864 0.845357 -2.54391 0.000241364 4
13.0418 1.00351 -2.54257 0.000173938 4
16.0292 1.23338 -2.54629 7.91417e-05 4
20.683 1.59147 -2.54706 3.0772e-05 4
9.46576 0.761596 -2.54454 0.00051917 4
10.9765 0.883149 -2.54232 0.000257007 4
13.0434 1.04944 -2.54357 0.00012739 4
16.0317 1.28988 -2.54738 6.29662e-05 4
20.6983 1.66534 -2.54964 3.01306e-05 4
9.47015 0.79523 -2.54645 0.000574398 4
10.9723 0.921367 -2.54206 0.000257006 4
13.0579 1.0965 -2.54713 0.000188635 4
16.0068 1.34413 -2.54415 4.62134e-05 4
20.6822 1.73673 -2.54839 3.35493e-05 4
9.45613 0.827304 -2.54344 0.000486028 4
10.9752 0.960205 -2.5435 0.00024583 4
13.0337 1.1403 -2.54317 0.000149437 4
16.0087 1.40058 -2.54521 7.79845e-05 4
20.6737 1.80871 -2.5481 3.20531e-05 4
9.45604 0.860565 -2.54421 0.000441841 4
10.9876 0.999945 -2.54716 0.000259238 4
13.0345 1.18623 -2.54411 0.000171484 4
