VERSION 0.7
FIELDS x y z intensity label
SIZE 4 4 4 4 4
TYPE F F F F F
COUNT 1 1 1 1 1
WIDTH 1176
HEIGHT 1
VIEWPOINT 5.56554 20.8729 2.72834 0.87901 -0.000433681 0.000810262 0.476803
POINTS 1176
DATA ascii
4.97575 -10.6705 -2.71815 0.000311261 1
5.90291 -12.6588 -2.715 0.000169965 1
7.24132 -15.5291 -2.71383 7.97512e-05 1
9.33191 -20.0123 -2.71123 2.92914e-05 1
4.02611 -8.55593 -2.53369 0.000543246 4
5.00756 -10.6416 -2.71523 0.00031129 1
5.95359 -12.652 -2.71798 0.000169984 1
7.29686 -15.5066 -2.71434 7.97625e-05 1
9.3964 -19.9684 -2.7097 2.92971e-05 1
4.05198 -8.53345 -2.53121 0.000415896 4
5.05651 -10.649 -2.7216 0.000311318 1
5.99106 -12.6171 -2.71497 0.000170003 1
7.34903 -15.477 -2.71363 7.97738e-05 1
9.47013 -19.9441 -2.71087 2.93029e-05 1
4.0811 -8.51792 -2.53081 0.000445904 4
5.08563 -10.6145 -2.71731 0.000311346 1
6.03515 -12.5963 -2.715 0.000170022 1
7.40639 -15.4583 -2.71487 7.97852e-05 1
9.53249 -19.8959 -2.70882 2.93086e-05 1
4.10897 -8.49982 -2.52968 0.000509643 4
5.12983 -10.6116 -2.72112 0.000311374 1
6.07755 -12.572 -2.71432 0.000170041 1
7.457 -15.4255 -2.71367 7.97965e-05 1
9.60532 -19.8696 -2.70979 2.93143e-05 1
4.14533 -8.49918 -2.53378 0.000404747 4
5.15605 -10.5715 -2.71543 0.000311402 1
6.12431 -12.5567 -2.71561 0.00017006 1
7.51549 -15.409 -2.71536 7.98077e-05 1
9.67323 -19.8331 -2.7094 2.93199e-05 1
4.17383 -8.48234 -2.53309 0.000427265 4
5.20362 -10.5752 -2.72103 0.000311431 1
6.1716 -12.5423 -2.71715 0.000170078 1
7.56717 -15.3785 -2.71463 7.9819e-05 1
9.74218 -19.7987 -2.70934 2.93256e-05 1
4.20097 -8.4628 -2.53162 0.000239886 4
5.2335 -10.5428 -2.7174 0.000311458 1
6.21815 -12.5264 -2.71838 0.000170097 1
7.61463 -15.3396 -2.71242 7.98303e-05 1
9.8132 -19.7686 -2.70988 2.93313e-05 1
4.2333 -8.45371 -2.5333 0.000464814 4
5.27348 -10.5309 -2.71905 0.000311486 1
6.26214 -12.5052 -2.71851 0.000170116 1
7.67715 -15.3309 -2.71561 7.98415e-05 1
9.88087 -19.7316 -2.70953 2.9337e-05 1
4.25667 -8.42677 -2.52967 0.000472346 4
5.30636 -10.5048 -2.71708 0.000311514 1
6.29511 -12.4622 -2.71392 0.000170135 1
7.72088 -15.2847 -2.71219 7.98527e-05 1
9.95283 -19.7033 -2.71039 2.93426e-05 1
4.28297 -8.4058 -2.52785 0.000524868 4
5.33801 -10.4764 -2.71454 0.000311542 1
6.3502 -12.463 -2.7189 0.000170153 1
7.77476 -15.2588 -2.71239 7.98639e-05 1
10.0224 -19.67 -2.71061 2.93483e-05 1
4.32138 -8.4085 -2.53318 0.000547403 4
5.3818 -10.4719 -2.71821 0.00031157 1
6.38941 -12.4324 -2.71709 0.000170172 1
7.83141 -15.2383 -2.71359 7.98751e-05 1
10.0829 -19.6193 -2.70846 2.93539e-05 1
4.35052 -8.39302 -2.53307 0.000442455 4
5.41655 -10.4496 -2.71732 0.000311598 1
6.43229 -12.4092 -2.71689 0.00017019 1
7.88758 -15.2167 -2.71462 7.98862e-05 1
10.1567 -19.5943 -2.70989 2.93595e-05 1
4.37198 -8.36283 -2.52855 0.000502486 4
5.45699 -10.4383 -2.71931 0.000311626 1
6.46866 -12.3734 -2.71399 0.000170209 1
7.94104 -15.1898 -2.71476 7.98974e-05 1
10.2214 -19.5518 -2.70893 2.93651e-05 1
4.40085 -8.34696 -2.52838 0.000483772 4
5.49306 -10.4185 -2.71914 0.000311653 1
6.50952 -12.3464 -2.71304 0.000170227 1
7.99264 -15.1594 -2.71429 7.99085e-05 1
10.2865 -19.5101 -2.70811 2.93707e-05 1
4.43105 -8.3336 -2.52901 0.000521312 4
5.52114 -10.3838 -2.71509 0.000311681 1
6.56397 -12.345 -2.71775 0.000170246 1
8.03846 -15.1181 -2.71192 7.99196e-05 1
10.3571 -19.4789 -2.70878 2.93763e-05 1
4.46141 -8.3205 -2.52974 0.000450087 4
5.56714 -10.3827 -2.71987 0.000311709 1
6.60662 -12.3213 -2.71759 0.000170264 1
8.0952 -15.0975 -2.71326 7.99306e-05 1
10.4252 -19.4428 -2.70881 2.93819e-05 1
4.48986 -8.30382 -2.52942 0.000431365 4
5.59399 -10.3459 -2.71532 0.000311736 1
6.64753 -12.2944 -2.71674 0.000170283 1
8.15182 -15.0765 -2.71458 7.99417e-05 1
10.49 -19.4008 -2.70804 2.93875e-05 1
4.52152 -8.29306 -2.53094 0.000566443 4
5.63656 -10.3382 -2.71845 0.000311764 1
6.68725 -12.2653 -2.71546 0.000170301 1
8.20434 -15.0478 -2.71456 7.99528e-05 1
10.565 -19.3776 -2.70992 2.93931e-05 1
4.54241 -8.26262 -2.52647 0.000416422 4
5.6668 -10.3079 -2.71567 0.000311791 1
6.73041 -12.2426 -2.71562 0.00017032 1
8.25737 -15.0201 -2.71475 7.99638e-05 1
10.6205 -19.3186 -2.70685 2.93986e-05 1
4.57476 -8.25309 -2.52842 0.000487737 4
5.71263 -10.3059 -2.72038 0.000311818 1
6.77106 -12.2153 -2.7148 0.000170338 1
8.30964 -14.991 -2.71471 7.99748e-05 1
10.6901 -19.2855 -2.70742 2.94042e-05 1
4.60233 -8.23489 -2.52775 0.000431492 4
5.74824 -10.2853 -2.72022 0.000311846 1
6.82153 -12.2057 -2.71794 0.000170356 1
8.35648 -14.9522 -2.71295 7.99857e-05 1
10.7532 -19.2407 -2.70638 2.94097e-05 1
8.16265 -14.6054 1.46382 0.00101062 10
8.16763 -14.6143 2.05563 0.00099646 10
8.16352 -14.6069 2.6503 0.000977768 10
8.16465 -14.6089 3.25308 0.000954751 10
8.17028 -14.619 3.8664 0.000927656 10
4.63158 -8.21974 -2.52805 0.000581618 4
5.78084 -10.2593 -2.71869 0.000311873 1
6.86075 -12.1759 -2.71661 0.000170374 1
8.40651 -14.9192 -2.71226 7.99967e-05 1
10.8204 -19.2031 -2.70639 2.94153e-05 1
8.21687 -14.5826 1.46441 0.00101152 10
8.20909 -14.5688 2.05325 0.000997344 10
8.21144 -14.573 2.64933 0.000978637 10
8.21877 -14.586 3.25434 0.000955601 10
8.21955 -14.5873 3.86559 0.000928484 10
8.6566 -15.363 4.72502 0.000205539 10
4.65899 -8.2013 -2.52737 0.000514113 4
5.81122 -10.2296 -2.71616 0.0003119 1
6.90191 -12.1496 -2.7161 0.000170393 1
8.45505 -14.8836 -2.71115 8.00076e-05 1
10.8946 -19.178 -2.70819 2.94208e-05 1
8.26189 -14.5436 1.46337 0.00101237 10
8.26379 -14.5469 2.05422 0.000998184 10
8.25958 -14.5395 2.64847 0.000979461 10
8.26959 -14.5571 3.25432 0.000956407 10
8.26525 -14.5495 3.86318 0.000929268 10
8.71288 -15.3374 4.72648 0.000205522 10
4.68732 -8.18452 -2.52722 0.000379045 4
5.84713 -10.2097 -2.71627 0.000311927 1
6.94279 -12.1228 -2.71552 0.000170411 1
8.51344 -14.8653 -2.71321 8.00185e-05 1
10.9539 -19.1265 -2.70631 2.94263e-05 1
8.30926 -14.5088 1.46279 0.00101317 10
8.31324 -14.5157 2.05391 0.000998975 10
8.30661 -14.5042 2.6473 0.000980239 10
8.30668 -14.5043 3.24897 0.000957167 10
8.31293 -14.5152 3.86176 0.000930009 10
8.76404 -15.3029 4.72523 0.000205505 10
4.72002 -8.17531 -2.52945 0.000420357 4
5.88626 -10.1953 -2.7179 0.000311954 1
6.98559 -12.0994 -2.71572 0.000170429 1
8.55523 -14.8181 -2.71003 8.00295e-05 1
11.0177 -19.0832 -2.70561 2.94318e-05 1
8.36744 -14.4928 1.46411 0.00101393 10
8.36502 -14.4886 2.05419 0.000999721 10
8.36308 -14.4853 2.64916 0.000980971 10
8.36276 -14.4847 3.25111 0.000957883 10
8.36511 -14.4888 3.86248 0.000930705 10
8.82492 -15.2852 4.72926 0.000205488 10
4.75239 -8.16542 -2.53151 0.000563019 4
5.92244 -10.1758 -2.71819 0.000311982 1
7.02849 -12.0761 -2.71599 0.000170447 1
8.60529 -14.7854 -2.70952 8.00402e-05 1
11.0912 -19.0566 -2.70731 2.94372e-05 1
7.6612 -13.1633 1.33249 0.00132564 10
7.66171 -13.1641 1.87018 0.00130744 10
7.6574 -13.1567 2.41106 0.00128342 10
7.65657 -13.1553 2.9587 0.00125383 10
7.65334 -13.1498 3.51261 0.00121898 10
7.65431 -13.1514 4.07731 0.00117924 10
4.77903 -8.14567 -2.53054 0.000465463 4
5.95415 -10.1486 -2.71647 0.000312009 1
7.06713 -12.0456 -2.71466 0.000170465 1
8.66013 -14.7608 -2.71055 8.00511e-05 1
11.1509 -19.0062 -2.70566 2.94427e-05 1
7.6952 -13.1162 1.33043 0.00132648 10
7.69493 -13.1157 1.86711 0.00130827 10
7.70183 -13.1275 2.41061 0.00128424 10
7.69481 -13.1155 2.95577 0.00125463 10
7.70275 -13.129 3.51423 0.00121976 10
7.69595 -13.1174 4.07507 0.00118 10
4.80648 -8.12731 -2.53003 0.000442972 4
5.99353 -10.1345 -2.71828 0.000312036 1
7.11093 -12.0239 -2.71535 0.000170483 1
8.71483 -14.736 -2.71156 8.0062e-05 1
11.2181 -18.9687 -2.70588 2.94482e-05 1
7.7527 -13.1091 1.33245 0.00132726 10
7.74354 -13.0936 1.8678 0.00130904 10
7.74943 -13.1036 2.41118 0.00128499 10
7.74111 -13.0895 2.95599 0.00125537 10
7.74014 -13.0879 3.51043 0.00122048 10
7.74994 -13.1044 4.07941 0.0011807 10
4.82714 -8.09761 -2.52602 0.000127645 4
6.03135 -10.1177 -2.7194 0.000312062 1
7.15355 -12.0002 -2.71561 0.000170501 1
8.77309 -14.717 -2.71368 8.00728e-05 1
11.2813 -18.9246 -2.70518 2.94537e-05 1
7.78735 -13.0634 1.33056 0.00132798 10
7.79027 -13.0683 1.86806 0.00130976 10
7.78324 -13.0565 2.4075 0.00128569 10
7.78355 -13.057 2.95477 0.00125605 10
7.78866 -13.0656 3.51172 0.00122115 10
7.78186 -13.0542 4.07221 0.00118134 10
4.86299 -8.09338 -2.52998 0.000138918 4
6.05372 -10.0751 -2.71361 0.000312089 1
7.18629 -11.96 -2.71218 0.000170519 1
8.82341 -14.6846 -2.71337 8.00835e-05 1
11.3545 -18.897 -2.7069 2.94591e-05 1
10.5233 -17.5137 1.0708 3.72587e-05 10
7.82758 -13.0273 1.32966 0.00132864 10
7.82846 -13.0287 1.8663 0.00131041 10
7.8405 -13.0488 2.41111 0.00128634 10
7.83335 -13.0369 2.95638 0.00125668 10
7.82823 -13.0284 3.50904 0.00122176 10
7.83827 -13.0451 4.07787 0.00118194 10
4.88305 -8.06288 -2.52576 0.00028912 4
6.09069 -10.0569 -2.71443 0.000312116 1
7.22864 -11.9359 -2.71242 0.000170537 1
8.86372 -14.6357 -2.71004 8.00943e-05 1
11.4253 -18.8654 -2.70807 2.94645e-05 1
10.5943 -17.4934 1.07181 3.72425e-05 10
7.88286 -13.0161 1.33132 0.00132924 10
7.87378 -13.0012 1.86627 0.001311 10
7.88103 -13.0131 2.40959 0.00128692 10
7.88099 -13.0131 2.9572 0.00125725 10
7.88471 -13.0192 3.51397 0.00122231 10
7.87907 -13.0099 4.07545 0.00118247 10
4.91515 -8.05231 -2.5278 4.13059e-05 4
6.12363 -10.0321 -2.71349 0.000312143 1
7.27196 -11.9134 -2.71305 0.000170555 1
8.92401 -14.6199 -2.71286 8.01051e-05 1
11.4895 -18.8229 -2.7077 2.94699e-05 1
10.6584 -17.4613 1.07212 3.72264e-05 10
7.92455 -12.9825 1.3307 0.00132978 10
7.91876 -12.973 1.86619 0.00131153 10
7.92913 -12.99 2.41042 0.00128744 10
7.92901 -12.9898 2.95819 0.00125776 10
7.91845 -12.9725 3.5088 0.00122281 10
7.91928 -12.9739 4.0728 0.00118295 10
4.94662 -8.04062 -2.52954 8.6373e-05 4
6.15991 -10.0128 -2.71406 0.000312169 1
7.32305 -11.9035 -2.71659 0.000170573 1
8.97388 -14.5868 -2.71252 8.01157e-05 1
11.5464 -18.7685 -2.70566 2.94753e-05 1
12.0516 -19.5896 -2.01223 0.000493546 10
12.0567 -19.598 -1.20589 0.000498722 10
12.0616 -19.6059 -0.401798 0.000501362 10
10.7162 -17.4189 1.07181 3.72103e-05 10
7.96386 -12.9451 1.32971 0.00133026 10
7.9714 -12.9573 1.86792 0.001312 10
7.96888 -12.9532 2.40874 0.0012879 10
7.97442 -12.9622 2.95823 0.00125821 10
7.97504 -12.9632 3.5138 0.00122325 10
7.96025 -12.9392 4.07061 0.00118338 10
4.97657 -8.02638 -2.53051 0.000108913 4
6.19267 -9.98775 -2.71311 0.000312196 1
7.36133 -11.8726 -2.7154 0.00017059 1
9.01607 -14.5414 -2.70992 8.01265e-05 1
11.6124 -18.7289 -2.70578 2.94808e-05 1
12.1294 -19.5627 -2.0138 0.000493717 10
12.1238 -19.5537 -1.20576 0.000498894 10
12.1247 -19.5551 -0.401622 0.000501535 10
10.7707 -17.3713 1.07119 3.71943e-05 10
8.01627 -12.9289 1.33091 0.00133067 10
8.00955 -12.9181 1.86628 0.00131241 10
8.01466 -12.9263 2.40893 0.0012883 10
8.01514 -12.9271 2.95658 0.00125861 10
8.01444 -12.926 3.51126 0.00122363 10
8.01259 -12.923 4.07428 0.00118375 10
5.37338 -8.59921 -2.71701 0.000515622 1
6.24079 -9.98736 -2.71891 0.000312223 1
6.63101 -10.6118 -2.43233 0.00275426 10
9.07793 -14.5277 -2.71325 8.01371e-05 1
11.6721 -18.6792 -2.70447 2.94861e-05 1
12.1889 -19.5063 -2.01236 0.000493863 10
12.195 -19.5161 -1.20606 0.000499041 10
12.1924 -19.512 -0.401608 0.000501683 10
10.8391 -17.3462 1.07196 3.71783e-05 10
8.0544 -12.8897 1.32977 0.00133103 10
8.05939 -12.8977 1.86739 0.00131276 10
8.05845 -12.8962 2.40854 0.00128865 10
8.06198 -12.9019 2.95722 0.00125894 10
8.05147 -12.885 3.50776 0.00122396 10
8.0518 -12.8856 4.07133 0.00118407 10
5.40702 -8.58621 -2.71884 0.000515659 1
6.27443 -9.96363 -2.71839 0.000312249 1
6.66785 -10.5884 -2.43227 0.00275484 10
7.31037 -11.6087 -2.17283 0.000349295 10
11.7386 -18.6406 -2.70479 2.94915e-05 1
12.2675 -19.4805 -2.01411 0.000493982 10
12.2591 -19.4671 -1.20567 0.000499162 10
12.2571 -19.4639 -0.401497 0.000501805 10
10.9017 -17.3116 1.07217 3.71623e-05 10
8.10128 -12.8646 1.33008 0.00133132 10
8.10137 -12.8648 1.86671 0.00131305 10
8.09858 -12.8603 2.40711 0.00128893 10
8.09623 -12.8566 2.95331 0.00125922 10
8.10526 -12.8709 3.5116 0.00122423 10
8.10522 -12.8709 4.0756 0.00118433 10
5.429 -8.55473 -2.71486 0.000515696 1
6.30835 -9.94038 -2.71804 0.000312276 1
6.70269 -10.5618 -2.43152 0.0027553 10
7.35852 -11.5952 -2.1751 0.000349339 10
11.8146 -18.6169 -2.70732 2.94969e-05 1
12.3348 -19.4365 -2.014 0.000494077 10
12.329 -19.4275 -1.20587 0.000499257 10
12.3351 -19.4369 -0.401826 0.000501901 10
10.9661 -17.2798 1.07257 3.71464e-05 10
8.14995 -12.8423 1.33071 0.00133155 10
8.13905 -12.8251 1.86506 0.00131327 10
8.1508 -12.8436 2.40929 0.00128915 10
8.14944 -12.8415 2.95635 0.00125944 10
8.15216 -12.8458 3.51247 0.00122444 10
8.14162 -12.8291 4.07135 0.00118453 10
5.46268 -8.54175 -2.71678 0.000515733 1
6.33688 -9.90871 -2.71541 0.000312302 1
6.74164 -10.5416 -2.43228 0.00275564 10
7.39315 -11.5604 -2.17339 0.000349383 10
11.0895 -17.3402 -2.52728 8.55089e-05 10
11.4827 -17.9551 -1.86463 0.00062835 10
11.4927 -17.9706 -1.11792 0.000634799 10
11.4915 -17.9688 -0.372302 0.00063809 10
11.4823 -17.9545 0.372004 0.000638182 10
11.0167 -17.2264 1.07163 3.71305e-05 10
8.1882 -12.8035 1.32965 0.00133172 10
8.19535 -12.8147 1.8677 0.00131344 10
8.18863 -12.8042 2.40724 0.00128932 10
8.19144 -12.8086 2.95535 0.0012596 10
8.19674 -12.8169 3.51238 0.0012246 10
8.1938 -12.8123 4.07506 0.00118469 10
5.50015 -8.53457 -2.72058 0.00051577 1
6.37062 -9.88526 -2.71507 0.000312328 1
6.76938 -10.504 -2.42905 0.00275585 10
7.44453 -11.5516 -2.17663 0.000349427 10
11.1538 -17.3074 -2.52815 8.55241e-05 10
11.5584 -17.9352 -1.86675 0.000628405 10
11.5549 -17.9297 -1.11788 0.000634854 10
11.5532 -17.9271 -0.372272 0.000638145 10
11.5481 -17.9192 0.372107 0.000638238 10
11.0859 -17.202 1.07251 3.71147e-05 10
8.24215 -12.7893 1.33115 0.00133182 10
8.2282 -12.7677 1.86502 0.00131355 10
8.23206 -12.7737 2.40689 0.00128942 10
8.2274 -12.7664 2.95223 0.0012597 10
8.23866 -12.7839 3.5112 0.00122469 10
8.23417 -12.7769 4.07293 0.00118478 10
5.52498 -8.50772 -2.71815 0.000515806 1
6.40614 -9.86459 -2.71551 0.000312355 1
6.81675 -10.4969 -2.43288 0.00275594 10
8.09479 -12.4649 -2.35402 0.000185592 10
11.2114 -17.264 -2.52752 8.55392e-05 10
11.6074 -17.8738 -1.86456 0.000628428 10
11.608 -17.8747 -1.11697 0.000634878 10
11.6069 -17.873 -0.371987 0.000638168 10
11.6092 -17.8766 0.372061 0.000638261 10
11.1393 -17.153 1.07188 3.70989e-05 10
8.27935 -12.7491 1.32996 0.00133187 10
8.27837 -12.7476 1.86629 0.00131359 10
8.28355 -12.7556 2.40891 0.00128946 10
8.27217 -12.738 2.95232 0.00125974 10
8.27468 -12.7419 3.50757 0.00122474 10
8.27239 -12.7384 4.06981 0.00118482 10
5.55444 -8.48807 -2.71806 0.000515843 1
6.44544 -9.84967 -2.71758 0.000312381 1
6.84616 -10.462 -2.43033 0.00275591 10
8.12887 -12.4222 -2.3513 0.000185615 10
11.2732 -17.2272 -2.52787 8.55544e-05 10
11.6833 -17.854 -1.86674 0.00062842 10
11.6705 -17.8344 -1.117 0.000634869 10
11.6792 -17.8477 -0.372306 0.00063816 10
11.6747 -17.8408 0.372163 0.000638253 10
11.2005 -17.1162 1.07201 3.70831e-05 10
8.32617 -12.7237 1.33034 0.00133185 10
8.31787 -12.711 1.86518 0.00131357 10
8.32209 -12.7175 2.40719 0.00128945 10
8.32225 -12.7177 2.95433 0.00125972 10
8.31926 -12.7132 3.50764 0.00122472 10
8.32655 -12.7243 4.07459 0.00118481 10
5.58984 -8.47744 -2.72088 0.000515879 1
6.4719 -9.81516 -2.71428 0.000312407 1
6.88657 -10.444 -2.43172 0.00275575 10
8.18 -12.4056 -2.35355 0.000185639 10
11.33 -17.1829 -2.52716 8.55695e-05 10
11.7413 -17.8067 -1.86607 0.000628379 10
11.7393 -17.8036 -1.11763 0.000634829 10
11.7379 -17.8015 -0.372195 0.000638119 10
11.7306 -17.7903 0.371962 0.000638212 10
11.2626 -17.0806 1.07224 3.70674e-05 10
8.37522 -12.7017 1.33109 0.00133177 10
8.37398 -12.6998 1.86781 0.0013135 10
8.36929 -12.6927 2.40801 0.00128937 10
8.37559 -12.7023 2.95751 0.00125965 10
8.36273 -12.6827 3.50728 0.00122465 10
8.37175 -12.6964 4.07499 0.00118474 10
5.22809 -7.86891 -2.53141 0.000330703 4
6.50358 -9.78868 -2.71322 0.000312433 1
6.91712 -10.4111 -2.42966 0.00275547 10
8.22069 -12.3731 -2.35282 0.000185662 10
11.3891 -17.142 -2.52697 8.55845e-05 10
11.7963 -17.7549 -1.86495 0.000628307 10
11.7945 -17.7521 -1.11697 0.000634757 10
11.809 -17.774 -0.37248 0.000638046 10
11.8053 -17.7684 0.372362 0.000638139 10
11.3327 -17.0571 1.07324 3.70518e-05 10
8.40799 -12.655 1.32926 0.00133163 10
8.41093 -12.6595 1.86619 0.00131336 10
8.41277 -12.6622 2.40779 0.00128924 10
8.40634 -12.6526 2.95275 0.00125952 10
8.41039 -12.6587 3.50871 0.00122452 10
8.41653 -12.6679 4.07524 0.00118461 10
5.24208 -7.83053 -2.52494 4.13408e-05 4
6.53834 -9.76687 -2.71348 0.000312459 1
6.95388 -10.3876 -2.42982 0.00275507 10
8.26236 -12.3422 -2.3524 0.000185686 10
11.4432 -17.0936 -2.52571 8.55996e-05 10
11.8568 -17.7116 -1.86473 0.000628204 10
11.8625 -17.7199 -1.11754 0.000634652 10
11.8702 -17.7315 -0.372455 0.000637942 10
11.8716 -17.7335 0.372498 0.000638035 10
11.3799 -16.9991 1.07208 3.70361e-05 10
8.45162 -12.6249 1.32919 0.00133143 10
8.45101 -12.624 1.86529 0.00131316 10
8.4619 -12.6402 2.40921 0.00128904 10
8.46328 -12.6423 2.95723 0.00125933 10
8.46135 -12.6394 3.51154 0.00122433 10
8.45082 -12.6237 4.07048 0.00118443 10
5.27997 -7.82789 -2.53001 0.000165374 4
6.58 -9.75526 -2.71662 0.000312485 1
6.99966 -10.3774 -2.43314 0.00275454 10
8.30831 -12.3176 -2.35322 0.000185709 10
11.5016 -17.0518 -2.52546 8.56146e-05 10
11.9313 -17.6889 -1.86672 0.00062807 10
11.9351 -17.6945 -1.11856 0.000634516 10
11.9268 -17.6822 -0.372293 0.000637805 10
11.9315 -17.6892 0.372438 0.000637898 10
11.4451 -16.968 1.07264 3.70205e-05 10
8.49998 -12.6017 1.32987 0.00133117 10
8.50037 -12.6023 1.86647 0.0013129 10
8.50944 -12.6158 2.41019 0.00128878 10
8.50141 -12.6039 2.95516 0.00125908 10
8.49494 -12.5943 3.50722 0.00122409 10
8.50488 -12.609 4.07529 0.0011842 10
5.29609 -7.79296 -2.52468 0.000218009 4
6.60392 -9.71738 -2.71247 0.000312511 1
7.03474 -10.3513 -2.43276 0.00275389 10
8.35544 -12.2947 -2.35441 0.000185733 10
11.5749 -17.0319 -2.52848 8.56295e-05 10
11.989 -17.6413 -1.86609 0.000627903 10
11.981 -17.6296 -1.11709 0.000634348 10
11.9835 -17.6332 -0.372139 0.000637636 10
11.99 -17.6427 0.372339 0.000637729 10
11.5122 -16.9397 1.07338 3.7005e-05 10
8.54886 -12.5793 1.33064 0.00133085 10
8.54798 -12.578 1.86727 0.00131258 10
8.55409 -12.587 2.41038 0.00128847 10
8.54602 -12.5751 2.9554 0.00125877 10
8.54653 -12.5758 3.51037 0.00122379 10
8.55005 -12.581 4.07587 0.0011839 10
5.33756 -7.79531 -2.53147 0.000105253 4
6.64782 -9.7089 -2.71657 0.000312537 1
7.07016 -10.3257 -2.43253 0.00275312 10
8.38583 -12.2472 -2.35091 0.000185756 10
11.6201 -16.9708 -2.52541 8.56445e-05 10
12.0437 -17.5894 -1.86505 0.000627705 10
12.0566 -17.6083 -1.1184 0.000634149 10
12.0554 -17.6064 -0.37246 0.000637436 10
12.0484 -17.5963 0.372245 0.000637529 10
11.5713 -16.8994 1.07338 3.69895e-05 10
8.59478 -12.5524 1.33096 0.00133046 10
8.58442 -12.5372 1.86566 0.0013122 10
8.59135 -12.5473 2.40852 0.00128809 10
8.5931 -12.5499 2.95651 0.0012584 10
8.58751 -12.5417 3.5092 0.00122343 10
8.58245 -12.5344 4.07043 0.00118356 10
5.36424 -7.77591 -2.53123 0.000172927 4
6.67581 -9.67714 -2.71418 0.000312563 1
7.10795 -10.3036 -2.43315 0.00275223 10
8.43203 -12.2229 -2.35188 0.000185779 10
11.6855 -16.9391 -2.52675 8.56594e-05 10
12.1133 -17.5592 -1.86631 0.000627476 10
12.1056 -17.548 -1.11726 0.000633917 10
12.1119 -17.5573 -0.372311 0.000637203 10
12.1165 -17.5639 0.372451 0.000637296 10
11.6285 -16.8565 1.07323 3.6974e-05 10
8.64263 -12.5282 1.33159 0.00133001 10
8.63482 -12.5169 1.8671 0.00131176 10
8.63665 -12.5195 2.40896 0.00128766 10
8.63395 -12.5156 2.95551 0.00125798 10
8.64023 -12.5247 3.51286 0.00122302 10
8.63212 -12.513 4.07325 0.00118316 10
5.38206 -7.74377 -2.52687 0.000424829 4
6.70748 -9.65079 -2.71335 0.000312588 1
7.13451 -10.2652 -2.42995 0.00275121 10
8.48032 -12.2016 -2.35346 0.000185803 10
11.7517 -16.9085 -2.52828 8.56742e-05 10
12.1733 -17.5151 -1.86613 0.000627215 10
12.1713 -17.5123 -1.11768 0.000633654 10
12.1757 -17.5185 -0.372388 0.000636939 10
12.1825 -17.5283 0.372597 0.000637031 10
11.6881 -16.8169 1.0733 3.69586e-05 10
8.68401 -12.4947 1.33123 0.0013295 10
8.68453 -12.4954 1.86841 0.00131125 10
8.67346 -12.4795 2.40706 0.00128717 10
8.67879 -12.4871 2.95592 0.00125749 10
8.67384 -12.48 3.50879 0.00122255 10
8.68416 -12.4949 4.0772 0.0011827 10
5.41807 -7.7378 -2.53108 0.000436137 4
6.74759 -9.63655 -2.71595 0.000312614 1
7.18301 -10.2584 -2.43426 0.00275007 10
8.5158 -12.1618 -2.35151 0.000185826 10
11.7993 -16.8512 -2.52586 8.56891e-05 10
12.2434 -17.4853 -1.8675 0.000626923 10
12.2371 -17.4764 -1.11811 0.000633358 10
12.237 -17.4762 -0.372395 0.000636642 10
12.234 -17.472 0.372306 0.000636735 10
11.7446 -16.773 1.0731 3.69432e-05 10
8.7243 -12.4596 1.33073 0.00132893 10
8.71681 -12.4489 1.86599 0.00131069 10
8.71937 -12.4526 2.40772 0.00128661 10
8.72146 -12.4555 2.95563 0.00125695 10
8.72407 -12.4593 3.51149 0.00122202 10
8.72401 -12.4592 4.07547 0.00118219 10
5.44467 -7.71831 -2.5309 0.000567769 4
6.77952 -9.61058 -2.71528 0.00031264 1
7.21988 -10.2348 -2.43464 0.00274881 10
8.56822 -12.1462 -2.35426 0.000185849 10
11.8651 -16.8198 -2.52736 8.57039e-05 10
12.3079 -17.4476 -1.86805 0.000626599 10
12.3032 -17.441 -1.11858 0.000633032 10
12.2932 -17.4268 -0.372254 0.000636314 10
12.296 -17.4306 0.372336 0.000636407 10
11.8102 -16.742 1.07375 3.69279e-05 10
8.77635 -12.4413 1.33204 0.0013283 10
8.77134 -12.4342 1.86836 0.00131007 10
8.76961 -12.4317 2.4096 0.001286 10
8.76212 -12.4211 2.9547 0.00125635 10
8.76388 -12.4236 3.51004 0.00122144 10
8.75999 -12.4181 4.072 0.00118163 10
5.47124 -7.69878 -2.53075 0.000571568 4
6.80765 -9.57929 -2.71314 0.000312665 1
7.24465 -10.1942 -2.43097 0.00274742 10
8.60335 -12.1061 -2.35229 0.000185872 10
11.9161 -16.7676 -2.52575 8.57186e-05 10
12.373 -17.4106 -1.8687 0.000626244 10
12.3632 -17.3967 -1.1185 0.000632673 10
12.3678 -17.4031 -0.372669 0.000635954 10
12.3656 -17.4001 0.372603 0.000636046 10
11.8604 -16.6893 1.07302 3.69126e-05 10
8.80763 -12.3935 1.33021 0.0013276 10
8.81319 -12.4014 1.86805 0.00130938 10
8.81311 -12.4013 2.40964 0.00128533 10
8.81086 -12.3981 2.95652 0.00125569 10
8.81918 -12.4098 3.51482 0.0012208 10
8.81349 -12.4018 4.07672 0.001181 10
5.49041 -7.66893 -2.52722 0.000473832 4
6.84819 -9.56545 -2.71597 0.000312691 1
7.29638 -10.1915 -2.43638 0.00274591 10
8.64631 -12.077 -2.3525 0.000185895 10
8.86408 -12.3812 -1.86966 0.00167677 10
8.85805 -12.3728 -1.3313 0.00170057 10
8.85543 -12.3691 -0.797244 0.00171666 10
8.86305 -12.3798 -0.26576 0.00172486 10
8.86406 -12.3812 0.26579 0.00172509 10
8.85271 -12.3653 0.796998 0.00171735 10
8.8597 -12.3751 1.33155 0.00132685 10
8.85465 -12.3681 1.86767 0.00130864 10
8.8603 -12.3759 2.41072 0.00128459 10
8.85616 -12.3702 2.95722 0.00125498 10
8.85445 -12.3678 3.51165 0.0012201 10
8.86255 -12.3791 4.0794 0.00118033 10
5.51508 -7.64685 -2.52627 0.000466342 4
6.87199 -9.52826 -2.7122 0.000312716 1
7.32355 -10.1544 -2.4336 0.00274428 10
8.68669 -12.0444 -2.35203 0.000185918 10
8.90104 -12.3416 -1.86836 0.00167574 10
8.9122 -12.3571 -1.33295 0.00169953 10
8.90282 -12.3441 -0.797625 0.0017156 10
8.90418 -12.346 -0.2657 0.0017238 10
8.90436 -12.3462 0.265705 0.00172403 10
8.91059 -12.3548 0.798322 0.00171629 10
8.90499 -12.3471 1.33187 0.00132603 10
8.90835 -12.3517 1.86989 0.00130783 10
8.90927 -12.353 2.41229 0.0012838 10
8.89393 -12.3317 2.95544 0.0012542 10
8.90158 -12.3424 3.51323 0.00121935 10
8.90128 -12.3419 4.07737 0.0011796 10
5.53758 -7.62182 -2.52437 0.000462613 4
6.91363 -9.5158 -2.71551 0.000312742 1
7.36487 -10.1369 -2.43556 0.00274253 10
8.7211 -12.0036 -2.34998 0.000185941 10
8.94762 -12.3153 -1.8691 0.00167463 10
8.95768 -12.3292 -1.3333 0.0016984 10
8.95489 -12.3254 -0.798431 0.00171447 10
8.9409 -12.3061 -0.265512 0.00172266 10
8.95744 -12.3289 0.266003 0.00172289 10
8.94982 -12.3184 0.797979 0.00171516 10
8.9451 -12.3119 1.33143 0.00132516 10
8.94618 -12.3134 1.8688 0.00130696 10
8.94087 -12.3061 2.40921 0.00128295 10
8.94387 -12.3102 2.95773 0.00125337 10
8.95082 -12.3198 3.51567 0.00121854 10
8.94306 -12.3091 4.0768 0.00117881 10
5.56872 -7.6087 -2.52645 0.000537871 4
6.94933 -9.49506 -2.7165 0.000312767 1
7.40526 -10.118 -2.43722 0.00274065 10
8.76985 -11.9825 -2.35184 0.000185963 10
8.99153 -12.2854 -1.8693 0.00167344 10
8.98841 -12.2811 -1.33149 0.0016972 10
8.998 -12.2942 -0.798443 0.00171325 10
8.98909 -12.282 -0.265668 0.00172144 10
9.00148 -12.299 0.266034 0.00172167 10
8.99514 -12.2903 0.79819 0.00171395 10
8.99035 -12.2838 1.33178 0.00132422 10
8.9874 -12.2797 1.86845 0.00130604 10
8.98703 -12.2792 2.41008 0.00128204 10
8.99625 -12.2918 2.96085 0.00125248 10
8.99532 -12.2905 3.51628 0.00121767 10
8.98658 -12.2786 4.07708 0.00117797 10
5.5957 -7.58983 -2.52665 0.00049653 4
6.97561 -9.46149 -2.71384 0.000312792 1
7.43871 -10.0896 -2.43662 0.00273866 10
8.81209 -11.9524 -2.35196 0.000185986 10
9.03591 -12.256 -1.86962 0.00167218 10
9.03079 -12.2491 -1.33142 0.00169592 10
9.03489 -12.2546 -0.797916 0.00171196 10
9.03061 -12.2488 -0.26563 0.00172015 10
9.03564 -12.2556 0.265778 0.00172038 10
9.0427 -12.2652 0.798606 0.00171265 10
8.80596 -11.9441 1.29828 6.05188e-05 10
8.78783 -11.9195 1.81829 5.98935e-05 10
9.04108 -12.263 2.41308 0.00128107 10
9.03975 -12.2612 2.96106 0.00125153 10
9.03022 -12.2483 3.51319 0.00121675 10
8.5299 -11.5697 3.85155 7.64719e-05 10
5.62788 -7.57795 -2.52922 0.000410041 4
7.01807 -9.44983 -2.71751 0.000312817 1
7.477 -10.0678 -2.43764 0.00273654 10
8.85358 -11.9214 -2.35191 0.000186009 10
9.08502 -12.233 -1.87094 0.00167084 10
9.07664 -12.2217 -1.33188 0.00169456 10
9.08511 -12.2331 -0.798576 0.00171059 10
9.08962 -12.2392 -0.266108 0.00171877 10
9.07731 -12.2226 0.265747 0.001719 10
9.07845 -12.2241 0.79799 0.00171128 10
8.13039 -10.9476 1.19303 0.000104735 10
8.27273 -11.1392 1.70366 0.00158015 10
8.11124 -10.9218 2.15471 0.000102109 10
9.07974 -12.2259 2.96016 0.00125053 10
9.08 -12.2262 3.51593 0.00121577 10
8.38205 -11.2864 3.76697 0.000368707 10
5.6465 -7.54783 -2.52574 0.000515406 4
7.04442 -9.41647 -2.71497 0.000312842 1
7.50511 -10.0323 -2.43537 0.0027343 10
8.88988 -11.8833 -2.35052 0.000186031 10
9.13579 -12.2121 -1.8726 0.00166942 10
9.13491 -12.2109 -1.33417 0.00169312 10
9.12118 -12.1925 -0.798 0.00170914 10
9.13318 -12.2086 -0.266134 0.00171731 10
9.12402 -12.1963 0.265867 0.00171754 10
9.12381 -12.196 0.79823 0.00170984 10
7.74363 -10.3511 1.13097 0.000128164 10
7.93295 -10.6042 1.62605 9.11379e-05 10
7.92868 -10.5985 2.09638 8.97736e-05 10
9.11765 -12.1878 2.95863 0.00124947 10
9.13165 -12.2065 3.51941 0.00121473 10
8.42563 -11.2628 3.76887 0.000368681 10
5.67628 -7.53268 -2.52728 0.000492867 4
7.08117 -9.39704 -2.71648 0.000312867 1
7.55249 -10.0225 -2.43938 0.00273194 10
8.9347 -11.8567 -2.35142 0.000186054 10
12.3741 -16.4209 -2.5246 8.58354e-05 10
12.863 -17.0698 -1.86996 0.000622281 10
12.8575 -17.0625 -1.11967 0.000628672 10
12.871 -17.0804 -0.373312 0.000631933 10
12.8685 -17.077 0.373237 0.000632025 10
12.3328 -16.3662 1.07398 3.67918e-05 10
7.54515 -10.0128 1.09687 0.00211093 10
7.56196 -10.0351 1.54282 0.00011025 10
7.56296 -10.0364 1.99041 0.000108597 10
10.0306 -13.3111 3.23979 0.000964268 10
10.0314 -13.3121 3.84824 0.000936926 10
8.46513 -11.2336 3.76897 0.000368654 10
5.70297 -7.51339 -2.52747 0.000620828 4
7.11544 -9.37425 -2.71706 0.000312892 1
7.58199 -9.9889 -2.43763 0.00272946 10
8.97194 -11.8201 -2.35034 0.000186077 10
12.4375 -16.3858 -2.52586 8.58498e-05 10
12.923 -17.0255 -1.87003 0.000621645 10
12.926 -17.0294 -1.12045 0.000628031 10
12.9324 -17.0378 -0.373365 0.000631288 10
12.9286 -17.0328 0.373254 0.00063138 10
12.3893 -16.3223 1.07393 3.67769e-05 10
7.57118 -9.97466 1.09559 0.00210902 10
7.59316 -10.0036 1.54205 0.00159714 10
7.58527 -9.99323 1.98708 0.00156888 10
10.0818 -13.2824 3.24134 0.00096334 10
10.087 -13.2891 3.85174 0.000936022 10
8.49924 -11.1973 3.76673 0.000368628 10
5.7351 -7.5012 -2.53009 0.000428964 4
7.1429 -9.34253 -2.71507 0.000312917 1
7.62451 -9.97245 -2.4401 0.00272686 10
9.01791 -11.7949 -2.35159 0.000186099 10
12.4943 -16.3419 -2.52579 8.58642e-05 10
12.9879 -16.9875 -1.87083 0.00062098 10
12.9916 -16.9924 -1.12099 0.000627358 10
12.9844 -16.9829 -0.373153 0.000630613 10
12.988 -16.9876 0.373256 0.000630705 10
12.4558 -16.2915 1.07475 3.6762e-05 10
7.61172 -9.95572 1.09642 0.00210701 10
7.62944 -9.9789 1.54234 0.00159562 10
7.62231 -9.96957 1.98766 0.00156738 10
10.1338 -13.2545 3.24316 0.000962367 10
10.1429 -13.2664 3.85539 0.000935075 10
10.144 -13.2678 4.47511 0.00090397 10
5.75464 -7.47256 -2.52719 0.000444045 4
7.17426 -9.31598 -2.71462 0.000312942 1
7.64817 -9.93136 -2.43656 0.00272414 10
9.06146 -11.7665 -2.35222 0.000186121 10
12.5498 -16.2963 -2.5255 8.58786e-05 10
13.0528 -16.9494 -1.87164 0.000620283 10
13.0561 -16.9537 -1.12144 0.000626655 10
13.0513 -16.9474 -0.373372 0.000629906 10
13.044 -16.938 0.373164 0.000629998 10
12.5046 -16.2375 1.07407 3.67472e-05 10
7.64962 -9.93324 1.09688 0.00210491 10
7.66517 -9.95343 1.54253 0.00159403 10
7.66008 -9.94682 1.98844 0.00156582 10
10.1811 -13.2204 3.24349 0.000961349 10
10.1909 -13.2331 3.85605 0.000934084 10
10.1809 -13.2202 4.47103 0.00090301 10
5.7886 -7.46262 -2.53064 0.000447838 4
7.20341 -9.28658 -2.71336 0.000312967 1
7.68618 -9.90896 -2.43763 0.0027213 10
9.0935 -11.7233 -2.3499 0.000186144 10
12.5988 -16.2423 -2.52394 8.58929e-05 10
13.1164 -16.9096 -1.87228 0.000619556 10
13.1159 -16.9089 -1.1215 0.000625921 10
13.1073 -16.8978 -0.373284 0.000629169 10
13.1089 -16.9 0.373331 0.000629261 10
12.5637 -16.197 1.07428 3.67325e-05 10
7.68221 -9.90385 1.09659 0.00210273 10
7.71092 -9.94086 1.54474 0.00159238 10
7.69442 -9.91959 1.98835 0.00156419 10
10.2281 -13.186 3.24379 0.000960286 10
10.2361 -13.1964 3.85572 0.00093305 10
10.2421 -13.204 4.47762 0.000902008 10
5.80255 -7.42693 -2.5254 0.000575829 4
7.23471 -9.26001 -2.71296 0.000312992 1
7.72166 -9.88328 -2.43793 0.00271834 10
9.13215 -11.6886 -2.34933 0.000186166 10
12.6684 -16.2149 -2.52653 8.59072e-05 10
13.1702 -16.8571 -1.87156 0.000618798 10
13.1716 -16.8589 -1.12122 0.000625156 10
13.1807 -16.8706 -0.373697 0.0006284 10
13.174 -16.862 0.373506 0.000628492 10
7.7257 -9.88845 1.09786 0.00210045 10
7.74278 -9.91032 1.54418 0.00159065 10
7.74292 -9.91049 1.99194 0.00156249 10
10.2851 -13.1643 3.24728 0.000959179 10
10.2848 -13.1639 3.85671 0.000931972 10
10.2875 -13.1674 4.47735 0.000900964 10
5.82805 -7.40614 -2.52523 0.000478007 4
7.26509 -9.23229 -2.71225 0.000313016 1
7.76328 -9.86537 -2.44018 0.00271526 10
9.18881 -11.6769 -2.3534 0.000186188 10
12.7161 -16.1593 -2.52477 8.59214e-05 10
13.2405 -16.8256 -1.87318 0.000618009 10
13.2377 -16.8221 -1.12185 0.00062436 10
13.2322 -16.8151 -0.373489 0.0006276 10
13.2321 -16.815 0.373486 0.000627692 10
7.75636 -9.85658 1.09732 0.00209807 10
7.77768 -9.88367 1.54425 0.00158885 10
7.77728 -9.88316 1.99189 0.00156072 10
10.3276 -13.1241 3.24622 0.000958026 10
10.328 -13.1246 3.85572 0.000930851 10
10.3385 -13.1379 4.47956 0.000899878 10
5.85781 -7.39072 -2.52693 0.000462982 4
7.30747 -9.21974 -2.71604 0.000313041 1
7.80633 -9.84913 -2.44289 0.00271206 10
9.22944 -11.6447 -2.35338 0.000186211 10
12.7795 -16.1238 -2.52618 8.59356e-05 10
13.305 -16.7867 -1.87401 0.000617191 10
13.3115 -16.795 -1.12313 0.000623534 10
13.2965 -16.776 -0.373648 0.00062677 10
13.3018 -16.7828 0.373799 0.000626861 10
7.80686 -9.84981 1.0996 0.00209561 10
7.807 -9.84999 1.54324 0.00158698 10
7.81695 -9.86254 1.99322 0.00155889 10
10.3742 -13.089 3.24648 0.00095683 10
10.3771 -13.0927 3.85696 0.000929686 10
10.3837 -13.101 4.47931 0.00089875 10
5.89147 -7.38011 -2.53032 0.00039149 4
7.33148 -9.18398 -2.71303 0.000313065 1
7.83725 -9.81756 -2.44183 0.00270874 10
9.26914 -11.6113 -2.35316 0.000186233 10
12.8249 -16.0655 -2.52405 8.59498e-05 10
13.3726 -16.7516 -1.87528 0.000616342 10
13.3759 -16.7556 -1.12361 0.000622676 10
13.3758 -16.7556 -0.374232 0.000625909 10
13.3715 -16.7501 0.37411 0.000626 10
12.801 -16.0356 1.07533 3.69951e-05 10
7.83576 -9.81569 1.09883 0.00209305 10
7.84761 -9.83053 1.54447 0.00158504 10
7.85845 -9.84411 1.99503 0.00155698 10
10.4283 -13.0633 3.2491 0.000955589 10
10.4359 -13.0728 3.86182 0.000928479 10
10.4254 -13.0596 4.47757 0.00089758 10
5.90827 -7.34841 -2.5265 0.000399045 4
7.36471 -9.15986 -2.71348 0.00031309 1
7.87685 -9.79682 -2.4435 0.00270531 10
9.29872 -11.5653 -2.3504 0.000186255 10
12.8905 -16.0325 -2.52592 8.59639e-05 10
13.4306 -16.7043 -1.87523 0.000615463 10
13.439 -16.7148 -1.12401 0.000621789 10
13.428 -16.701 -0.374058 0.000625017 10
13.4338 -16.7083 0.374221 0.000625108 10
12.8545 -15.9877 1.07512 3.69805e-05 10
7.87259 -9.79153 1.0992 0.00209041 10
7.88381 -9.80548 1.54485 0.00158304 10
7.88986 -9.813 1.99429 0.00155501 10
10.4792 -13.0335 3.25079 0.000954304 10
10.4886 -13.0452 3.86447 0.000927228 10
10.4866 -13.0428 4.48431 0.000896369 10
5.9444 -7.34072 -2.53098 0.000444248 4
7.38989 -9.12576 -2.71101 0.000313114 1
7.91571 -9.77509 -2.44495 0.00270175 10
9.3473 -11.543 -2.35249 0.000186277 10
12.9434 -15.9837 -2.52533 8.59781e-05 10
13.4989 -16.6698 -1.87663 0.000614554 10
13.4881 -16.6564 -1.12325 0.000620871 10
13.4965 -16.6668 -0.374345 0.000624094 10
13.4931 -16.6627 0.374251 0.000624186 10
12.9074 -15.9393 1.07489 3.69658e-05 10
7.91199 -9.7705 1.09993 0.00208767 10
7.9339 -9.79755 1.54796 0.00158096 10
7.92331 -9.78448 1.9941 0.00155297 10
10.5251 -12.9974 3.25093 0.000952975 10
10.5199 -12.991 3.85927 0.000925935 10
10.5376 -13.0128 4.48665 0.000895116 10
5.95737 -7.30446 -2.52563 0.000387801 4
7.43559 -9.11693 -2.71608 0.000313138 1
7.94213 -9.73802 -2.4426 0.00269808 10
9.37896 -11.4997 -2.35034 0.000186299 10
13.0003 -15.9399 -2.52557 8.59921e-05 10
13.5602 -16.6264 -1.87707 0.000613615 10
13.5551 -16.6202 -1.12399 0.000619923 10
13.5562 -16.6215 -0.374388 0.000623142 10
13.5566 -16.6221 0.3744 0.000623233 10
12.9718 -15.9051 1.07562 3.69513e-05 10
7.94362 -9.73985 1.0996 0.00208484 10
7.96593 -9.76719 1.54754 0.00157882 10
7.9545 -9.75318 1.99337 0.00155086 10
10.5761 -12.9676 3.25267 0.000951602 10
10.5874 -12.9814 3.86738 0.000924598 10
10.5827 -12.9757 4.48656 0.000893822 10
5.99368 -7.29683 -2.53021 0.000470663 4
7.46694 -9.09041 -2.71592 0.000313163 1
7.97931 -9.71417 -2.44359 0.00269429 10
9.42865 -11.4786 -2.35273 0.000186321 10
13.0467 -15.8834 -2.52381 8.60062e-05 10
13.6172 -16.5778 -1.87694 0.000612646 10
13.6149 -16.5751 -1.12414 0.000618945 10
13.6263 -16.589 -0.374724 0.000622159 10
13.6208 -16.5823 0.374572 0.00062225 10
13.0236 -15.8552 1.07532 3.69367e-05 10
7.98547 -9.72168 1.10069 0.00208192 10
7.99429 -9.73241 1.54644 0.0015766 10
7.99701 -9.73572 1.9955 0.00154869 10
10.6277 -12.9384 3.25464 0.000950186 10
10.628 -12.9387 3.86567 0.00092322 10
10.6194 -12.9282 4.48292 0.000892486 10
6.01388 -7.26953 -2.52801 0.000353961 4
7.48872 -9.05231 -2.71233 0.000313187 1
8.0189 -9.69319 -2.44534 0.00269039 10
9.45806 -11.4328 -2.3501 0.000186342 10
13.1002 -15.8354 -2.52345 8.60201e-05 10
13.683 -16.5399 -1.87804 0.000611647 10
13.6837 -16.5408 -1.12505 0.000617936 10
13.6815 -16.5381 -0.374652 0.000621146 10
13.683 -16.5399 0.374693 0.000621237 10
13.0951 -15.8293 1.07665 3.69222e-05 10
8.02479 -9.70031 1.10143 0.00207891 10
8.02953 -9.70604 1.5467 0.00157432 10
8.03178 -9.70875 1.9957 0.00154644 10
10.6745 -12.9033 3.25517 0.000948724 10
10.6755 -12.9045 3.86655 0.000921798 10
10.6837 -12.9144 4.49103 0.000891109 10
6.04205 -7.25189 -2.52919 0.000414236 4
7.5194 -9.02507 -2.71202 0.000313211 1
8.05728 -9.67065 -2.44673 0.00268636 10
9.49742 -11.3992 -2.34998 0.000186364 10
13.1666 -15.803 -2.52559 8.60341e-05 10
13.7509 -16.5044 -1.87945 0.000610618 10
13.7389 -16.4899 -1.12484 0.000616898 10
13.7503 -16.5037 -0.374956 0.000620103 10
13.7424 -16.4941 0.374739 0.000620193 10
13.1378 -15.7685 1.07563 3.69078e-05 10
8.0608 -9.67487 1.10173 0.00207581 10
8.07827 -9.69584 1.54956 0.00157197 10
8.06655 -9.68178 1.99593 0.00154413 10
10.726 -12.8738 3.25714 0.000947221 10
10.7205 -12.8671 3.86655 0.000920334 10
10.7227 -12.8698 4.48851 0.000889692 10
6.06 -7.22202 -2.52614 0.000527244 4
7.55256 -9.00079 -2.71263 0.000313235 1
8.09502 -9.64727 -2.44795 0.00268222 10
9.54824 -11.3791 -2.35271 0.000186386 10
13.211 -15.7443 -2.52355 8.60479e-05 10
13.8107 -16.459 -1.87976 0.00060956 10
13.8016 -16.4481 -1.12527 0.00061583 10
13.8159 -16.4652 -0.375175 0.000619029 10
13.8143 -16.4632 0.37513 0.00061912 10
13.193 -15.7228 1.07565 3.68934e-05 10
8.10283 -9.65658 1.10286 0.00207262 10
8.12009 -9.67715 1.55109 0.00156956 10
8.11607 -9.67236 1.99982 0.00154176 10
10.7813 -12.8486 3.26028 0.000945674 10
10.7829 -12.8506 3.87287 0.000918829 10
10.7663 -12.8308 4.48801 0.000888233 10
6.09407 -7.21136 -2.52984 0.000493381 4
7.59645 -8.98918 -2.71711 0.000313259 1
8.13199 -9.62291 -2.44896 0.00267797 10
9.58063 -11.3371 -2.35093 0.000186407 10
13.2704 -15.7034 -2.52441 8.60618e-05 10
13.8691 -16.4119 -1.87989 0.000608473 10
13.879 -16.4236 -1.12691 0.000614733 10
13.8631 -16.4048 -0.3749 0.000617926 10
13.8628 -16.4044 0.37489 0.000618017 10
13.2455 -15.6739 1.07546 3.6879e-05 10
8.12431 -9.61382 1.10121 0.00206935 10
8.14624 -9.63978 1.54965 0.00156707 10
8.14997 -9.64419 1.99987 0.00153931 10
10.8194 -12.803 3.25826 0.000944084 10
10.8304 -12.8161 3.87385 0.000917281 10
10.8177 -12.801 4.49075 0.000886734 10
6.10327 -7.17132 -2.52325 0.000534844 4
7.62694 -8.96163 -2.71681 0.000313283 1
8.17639 -9.60722 -2.45221 0.0026736 10
9.62777 -11.3126 -2.35279 0.000186429 10
13.3228 -15.6542 -2.52396 8.60756e-05 10
13.946 -16.3865 -1.88255 0.000607357 10
13.9376 -16.3766 -1.12701 0.000613605 10
13.9452 -16.3856 -0.375571 0.000616794 10
13.9424 -16.3823 0.375496 0.000616884 10
13.3111 -15.6405 1.07636 3.68647e-05 10
8.17086 -9.60073 1.10297 0.00206598 10
8.17744 -9.60846 1.54919 0.00156452 10
8.18219 -9.61404 1.99952 0.00153681 10
10.9194 -12.8303 3.27489 0.00112618 10
10.8739 -12.7768 3.87343 0.000915691 10
10.8667 -12.7683 4.49257 0.000885194 10
6.14467 -7.16911 -2.53 0.000534878 4
7.65242 -8.92824 -2.71477 0.000313307 1
8.20126 -9.56858 -2.44964 0.00266912 10
9.66109 -11.2718 -2.3513 0.000186451 10
13.3758 -15.6058 -2.52367 8.60894e-05 10
13.9991 -16.3331 -1.88201 0.000606211 10
13.999 -16.333 -1.12736 0.000612449 10
13.9901 -16.3226 -0.375243 0.000615632 10
14.0047 -16.3396 0.375633 0.000615722 10
13.375 -15.6049 1.07711 3.68504e-05 10
8.21227 -9.58142 1.10404 0.00206252 10
8.21567 -9.5854 1.55009 0.0015619 10
8.21753 -9.58756 1.99997 0.00153423 10
10.9765 -12.8065 3.27859 0.00112417 10
10.9325 -12.7552 3.8784 0.000914061 10
10.9254 -12.7469 4.49841 0.000883615 10
6.16337 -7.14033 -2.52742 0.000222252 4
7.67444 -8.89093 -2.71155 0.00031333 1
8.25437 -9.56278 -2.45552 0.00266452 10
9.7028 -11.2408 -2.35189 0.000186472 10
13.4376 -15.5676 -2.52507 8.61032e-05 10
14.0544 -16.2822 -1.88179 0.000605036 10
14.0637 -16.293 -1.12798 0.000611263 10
14.0688 -16.2989 -0.375825 0.00061444 10
14.0642 -16.2936 0.375703 0.00061453 10
13.4167 -15.5434 1.07609 3.68362e-05 10
8.24983 -9.55752 1.1046 0.00205898 10
8.26489 -9.57497 1.55306 0.00155922 10
8.26522 -9.57535 2.00343 0.00153159 10
10.9774 -12.7175 3.87857 0.000912388 10
10.9734 -12.7128 4.49987 0.000881995 10
6.17922 -7.10838 -2.52373 0.000448299 4
7.71854 -8.87917 -2.71617 0.000313354 1
8.28479 -9.53056 -2.45466 0.00265981 10
9.72756 -11.1903 -2.34841 0.000186493 10
13.485 -15.5127 -2.52378 8.61169e-05 10
14.1331 -16.2583 -1.88472 0.000603833 10
14.1251 -16.2491 -1.12835 0.000610048 10
14.1199 -16.2431 -0.375674 0.000613219 10
14.1177 -16.2405 0.375613 0.000613309 10
13.4799 -15.5068 1.07681 3.68221e-05 10
8.27553 -9.51991 1.10358 0.00205535 10
8.29783 -9.54556 1.55298 0.00155646 10
8.28855 -9.53489 2.00101 0.00152889 10
11.014 -12.6702 3.87584 0.000910674 10
11.0222 -12.6796 4.50171 0.000880335 10
6.21861 -7.10346 -2.52968 0.000486002 4
7.73661 -8.83746 -2.71165 0.000313378 1
8.31385 -9.49684 -2.45343 0.00265498 10
9.76901 -11.1591 -2.349 0.000186515 10
13.5394 -15.466 -2.52385 8.61305e-05 10
14.1962 -16.2162 -1.88557 0.0006026 10
14.198 -16.2183 -1.12965 0.000608804 10
14.183 -16.2011 -0.375846 0.000611969 10
14.1865 -16.2052 0.375939 0.000612059 10
13.5226 -15.4467 1.07591 3.68079e-05 10
8.31232 -9.49509 1.10406 0.00205163 10
8.31694 -9.50037 1.55034 0.00202448 10
8.31115 -9.49376 1.99845 0.00198862 10
11.0773 -12.6536 3.88257 0.00090892 10
11.0691 -12.6441 4.5028 0.000878635 10
6.23954 -7.07737 -2.52813 0.000561386 4
7.78029 -8.82501 -2.71615 0.000313401 1
8.35347 -9.47516 -2.45535 0.00265004 10
9.81646 -11.1346 -2.35105 0.000186536 10
13.5995 -15.4256 -2.52499 8.61441e-05 10
14.2609 -16.1758 -1.88665 0.00060134 10
14.2559 -16.1702 -1.12975 0.000607531 10
14.2478 -16.161 -0.376066 0.00061069 10
14.2475 -16.1606 0.376056 0.00061078 10
13.5887 -15.4133 1.07688 3.67939e-05 10
8.3628 -9.48573 1.10636 0.00204783 10
8.36829 -9.49197 1.55373 0.00155076 10
8.37551 -9.50015 2.00594 0.00152328 10
11.118 -12.6109 3.88136 0.000907124 10
11.1181 -12.611 4.5048 0.000876896 10
6.25332 -7.04329 -2.52373 0.000444616 4
7.80286 -8.78857 -2.7133 0.000313425 1
8.388 -9.44763 -2.45579 0.00264499 10
9.84646 -11.0903 -2.34895 0.000186557 10
13.6425 -15.3659 -2.523 8.61577e-05 10
14.2452 -16.0448 -1.87716 9.17548e-05 10
14.2352 -16.0335 -1.12367 9.28229e-05 10
14.2224 -16.0191 -0.373917 9.34304e-05 10
14.2283 -16.0258 0.374072 9.35694e-05 10
13.6396 -15.3626 1.07666 3.67798e-05 10
8.39452 -9.45497 1.10618 0.00204394 10
8.40917 -9.47148 1.55517 0.00154781 10
8.40337 -9.46494 2.00468 0.00152038 10
11.1786 -12.5908 3.88717 0.000905288 10
11.1785 -12.5906 4.51143 0.000875117 10
6.28049 -7.02434 -2.52479 0.000568992 4
7.83865 -8.76705 -2.71509 0.000313448 1
8.44396 -9.44406 -2.46251 0.00263983 10
9.88525 -11.0561 -2.34898 0.000186578 10
13.701 -15.3238 -2.52392 8.61713e-05 10
14.2644 -15.9539 -1.87234 0.000614847 10
14.2516 -15.9395 -1.12057 0.000621164 10
14.2679 -15.9578 -0.373647 0.000624387 10
14.2612 -15.9503 0.373471 0.000624479 10
13.7062 -15.3295 1.07768 3.67659e-05 10
8.43241 -9.43113 1.10683 0.00203996 10
8.44456 -9.44472 1.55561 0.0015448 10
8.44308 -9.44307 2.00628 0.00151742 10
11.2274 -12.5572 3.88886 0.00090341 10
11.2123 -12.5403 4.50741 0.000873299 10
6.3168 -7.01551 -2.52952 0.000531344 4
7.86988 -8.74039 -2.71532 0.000313471 1
8.46455 -9.40084 -2.45893 0.00263455 10
9.93498 -11.0339 -2.35163 0.000186599 10
13.7403 -15.2601 -2.52132 8.61847e-05 10
14.322 -15.9062 -1.8726 0.000613468 10
14.3248 -15.9093 -1.12195 0.000619772 10
14.333 -15.9184 -0.373893 0.000622989 10
14.3209 -15.9049 0.373577 0.000623081 10
13.7426 -15.2627 1.07635 3.67519e-05 10
8.4634 -9.39956 1.10659 0.0020359 10
8.48553 -9.42413 1.55708 0.00154172 10
8.489 -9.42799 2.00936 0.00151439 10
11.2764 -12.5238 3.89068 0.000901493 10
11.2747 -12.5218 4.51488 0.000871442 10
6.33134 -6.9825 -2.52557 0.000527608 4
7.89068 -8.70221 -2.712 0.000313495 1
8.51081 -9.38612 -2.46283 0.00262917 10
9.96009 -10.9844 -2.34848 0.00018662 10
13.7959 -15.2148 -2.52178 8.61982e-05 10
14.3936 -15.874 -1.87471 0.00061206 10
14.3876 -15.8673 -1.12252 0.000618351 10
14.3778 -15.8565 -0.373616 0.000621561 10
14.3892 -15.869 0.373911 0.000621652 10
13.814 -15.2348 1.07778 3.67381e-05 10
8.49962 -9.37378 1.10704 0.00203175 10
8.53018 -9.40748 1.55924 0.00153857 10
8.52894 -9.40611 2.01103 0.0015113 10
11.3311 -12.4964 3.89446 0.000899536 10
11.3156 -12.4794 4.5138 0.000869546 10
6.3599 -6.96498 -2.52725 0.000309047 4
7.92578 -8.67984 -2.71364 0.000313518 1
8.55688 -9.37098 -2.46668 0.00262367 10
10.0052 -10.9571 -2.3501 0.000186641 10
13.8573 -15.1757 -2.5233 8.62116e-05 10
14.4453 -15.8196 -1.87423 0.000610624 10
14.4528 -15.8279 -1.1233 0.000616901 10
14.4497 -15.8245 -0.374047 0.000620104 10
14.4437 -15.8179 0.373892 0.000620196 10
13.8698 -15.1893 1.07798 3.67242e-05 10
8.54302 -9.3558 1.10843 0.00202751 10
8.56377 -9.37853 1.55939 0.00153536 10
8.55847 -9.37272 2.01027 0.00150814 10
11.3709 -12.4528 3.89319 0.000897539 10
11.373 -12.4551 4.51933 0.000867612 10
6.38806 -6.94696 -2.52879 0.000244991 4
7.96199 -8.6586 -2.71567 0.000313541 1
8.58557 -9.33675 -2.46554 0.00261807 10
10.0465 -10.9255 -2.35082 0.000186662 10
13.9147 -15.1322 -2.52412 8.6225e-05 10
14.5199 -15.7903 -1.87675 0.00060916 10
14.5173 -15.7875 -1.12402 0.000615423 10
14.5199 -15.7903 -0.374435 0.000618619 10
14.5086 -15.778 0.374142 0.00061871 10
13.9229 -15.1411 1.078 3.67104e-05 10
8.59151 -9.3432 1.11048 0.0020232 10
8.60632 -9.35931 1.56118 0.00153209 10
8.59049 -9.34209 2.01012 0.00150492 10
11.4279 -12.4277 3.89781 0.000895502 10
11.4251 -12.4248 4.52278 0.00086564 10
6.40111 -6.91258 -2.52439 0.00033547 4
7.99356 -8.63226 -2.71614 0.000313564 1
8.61526 -9.30363 -2.46473 0.00261235 10
10.0763 -10.8814 -2.34889 0.000186683 10
13.9641 -15.0798 -2.5235 8.62383e-05 10
14.5736 -15.7381 -1.87658 0.000607668 10
14.5748 -15.7393 -1.1242 0.000613916 10
14.5821 -15.7472 -0.374618 0.000617105 10
14.5834 -15.7486 0.374651 0.000617196 10
13.9674 -15.0834 1.07735 3.66967e-05 10
8.61277 -9.30095 1.10903 0.00201879 10
8.62631 -9.31557 1.55889 0.00152875 10
8.64165 -9.33213 2.01445 0.00150164 10
11.4733 -12.3901 3.89853 0.000893426 10
11.4653 -12.3814 4.52154 0.000863629 10
6.43809 -6.90401 -2.52945 0.00042596 4
8.01017 -8.58985 -2.71158 0.000313587 1
8.65202 -9.27816 -2.46596 0.00260653 10
10.1173 -10.8495 -2.3496 0.000186703 10
14.0065 -15.0201 -2.52167 8.62516e-05 10
14.6392 -15.6986 -1.87796 0.000606147 10
14.6375 -15.6968 -1.12481 0.000612381 10
14.6404 -15.6999 -0.374706 0.000615562 10
14.6447 -15.7045 0.374816 0.000615653 10
14.0256 -15.0406 1.07779 3.6683e-05 10
8.66483 -9.2919 1.11155 0.00201431 10
8.68192 -9.31022 1.56306 0.00152535 10
8.67461 -9.30239 2.01456 0.0014983 10
11.5157 -12.349 3.89825 0.000891311 10
11.5278 -12.362 4.52913 0.00086158 10
6.46015 -6.87936 -2.52867 0.000463683 4
8.03975 -8.56147 -2.71146 0.00031361 1
8.69455 -9.25876 -2.46886 0.0026006 10
10.1593 -10.8186 -2.35058 0.000186724 10
14.064 -14.9767 -2.52261 8.62648e-05 10
14.8329 -15.7955 -1.89573 0.00058873 10
14.8384 -15.8013 -1.136 0.0005948 10
14.8349 -15.7976 -0.378272 0.000597898 10
14.8338 -15.7964 0.378243 0.000597987 10
14.0783 -14.9919 1.07781 3.66694e-05 10
8.6951 -9.25934 1.11128 0.00200974 10
8.71404 -9.27951 1.563 0.00152189 10
8.70693 -9.27194 2.01453 0.0014949 10
11.5633 -12.3137 3.89982 0.000889157 10
11.5655 -12.316 4.52703 0.000859493 10
6.48598 -6.85873 -2.52939 0.000539112 4
8.07916 -8.54347 -2.71468 0.000313633 1
8.72854 -9.23017 -2.46935 0.00259456 10
10.2011 -10.7873 -2.35151 0.000186745 10
14.1095 -14.9204 -2.52141 8.6278e-05 10
14.894 -15.75 -1.8965 0.000587192 10
14.8968 -15.7529 -1.13625 0.000593247 10
14.8925 -15.7484 -0.378336 0.000596338 10
14.8962 -15.7522 0.378428 0.000596426 10
14.138 -14.9505 1.07838 3.66558e-05 10
8.73131 -9.2331 1.11178 0.00200509 10
8.741 -9.24335 1.56204 0.00151836 10
8.75553 -9.25872 2.01829 0.00149143 10
11.6723 -12.3431 3.30216 0.00109087 10
11.6179 -12.2856 3.90373 0.000886964 10
