VERSION 0.7
FIELDS x y z intensity label
SIZE 4 4 4 4 4
TYPE F F F F F
COUNT 1 1 1 1 1
WIDTH 1184
HEIGHT 1
VIEWPOINT 4.58638 17.9071 2.72886 0.879564 -0.000388503 0.000673699 0.47578
POINTS 1184
DATA ascii
1.89111 7.69921 -0.415492 0.00680306 10
1.8904 7.69633 -0.138333 0.00683293 10
1.98108 8.06548 0.144968 0.00571288 10
1.97756 8.05116 0.434485 0.00568818 10
1.97896 8.05688 0.725837 0.00563985 10
1.97874 8.05599 1.01855 0.00556834 10
1.85288 7.54358 1.2303 0.00500698 10
1.88689 7.68202 1.53762 0.00500946 10
1.88661 7.68087 1.82598 0.00488484 10
1.88644 7.68021 2.11907 0.00474233 10
1.86774 7.72033 -2.12833 0.00599422 10
1.87049 7.73168 -1.83649 0.00617734 10
1.868 7.72139 -1.54418 0.00633795 10
1.87287 7.7415 -1.2615 0.00647441 10
1.86675 7.71622 -0.974765 0.00658548 10
1.86736 7.71873 -0.694783 0.0066701 10
1.86658 7.7155 -0.416017 0.00672747 10
1.86971 7.72846 -0.138792 0.00675702 10
1.94373 8.0344 0.144287 0.0057865 10
1.94426 8.03662 0.433332 0.0057615 10
1.93992 8.01865 0.721779 0.00571257 10
1.94337 8.03293 1.01477 0.00564018 10
1.82118 7.52784 1.22669 0.00507109 10
1.86675 7.71621 1.54315 0.00495371 10
1.86527 7.71012 1.83137 0.00483043 10
1.86683 7.71653 2.12729 0.00468942 10
1.84879 7.7604 -2.13759 0.00592683 10
1.85181 7.77308 -1.84478 0.00610798 10
1.8473 7.75413 -1.54943 0.00626679 10
1.8489 7.76086 -1.2636 0.00640179 10
1.848 7.75706 -0.979103 0.00651171 10
1.84879 7.7604 -0.697948 0.00659543 10
1.84705 7.75309 -0.417694 0.00665218 10
1.84754 7.75514 -0.139155 0.00668142 10
1.91056 8.01968 0.143902 0.0058605 10
1.90717 8.00545 0.431289 0.0058352 10
1.90893 8.01283 0.720651 0.00578567 10
1.90636 8.00205 1.01003 0.00571239 10
1.78625 7.49789 1.22078 0.00513553 10
1.84977 7.7645 1.5515 0.00489818 10
1.84578 7.74777 1.83877 0.00477624 10
1.84703 7.75299 2.13555 0.00463676 10
1.83024 7.80327 -2.14762 0.0058597 10
1.82746 7.7914 -1.8476 0.00603887 10
1.82503 7.78104 -1.55353 0.00619596 10
1.82594 7.78494 -1.26647 0.00632948 10
1.82661 7.78778 -0.982169 0.00643817 10
1.82785 7.79307 -0.700308 0.00652103 10
1.8307 7.80522 -0.420155 0.00657717 10
1.82458 7.77915 -0.139471 0.0066061 10
1.86982 7.97203 0.142928 0.0059349 10
1.8701 7.97321 0.429198 0.00590929 10
1.87171 7.9801 0.717115 0.00585916 10
1.87533 7.99549 1.00837 0.00578498 10
1.7525 7.47182 1.21554 0.0052003 10
1.82622 7.78613 1.55454 0.00484286 10
1.82933 7.79938 1.84949 0.00472225 10
1.82387 7.77613 2.14015 0.00458429 10
1.80644 7.82456 -2.15173 0.00579284 10
1.80724 7.828 -1.85477 0.00597004 10
1.80964 7.8384 -1.56371 0.00612542 10
1.80853 7.83359 -1.27336 0.00625748 10
1.80403 7.8141 -0.984689 0.00636498 10
1.80574 7.8215 -0.702292 0.00644689 10
1.80898 7.83553 -0.421444 0.00650247 10
1.80395 7.81375 -0.139977 0.00653109 10
1.83815 7.9619 0.142631 0.00600967 10
1.83957 7.96805 0.428572 0.00598375 10
1.84095 7.97403 0.715988 0.00593301 10
1.83733 7.95835 1.00287 0.00585794 10
1.72204 7.45896 1.21246 0.0052654 10
1.80716 7.82765 1.56156 0.00478777 10
1.80293 7.80934 1.85035 0.00466848 10
1.80463 7.8167 2.14957 0.00453204 10
1.78282 7.84711 -2.15621 0.00572625 10
1.78552 7.85898 -1.86063 0.0059015 10
1.78368 7.85091 -1.56495 0.00605516 10
1.7856 7.85937 -1.27652 0.00618577 10
1.78839 7.87165 -0.991148 0.00629208 10
1.7825 7.84569 -0.703901 0.00637309 10
1.78803 7.87006 -0.422963 0.00642801 10
1.78592 7.86074 -0.140706 0.00645637 10
1.80324 7.93699 0.142071 0.00608483 10
1.80429 7.9416 0.426808 0.0060586 10
1.80409 7.94073 0.712428 0.00600725 10
1.80486 7.94412 1.00027 0.00593128 10
1.68928 7.4354 1.20766 0.00533083 10
1.78453 7.85463 1.56569 0.0047329 10
1.78695 7.8653 1.86212 0.00461493 10
1.7807 7.8378 2.15365 0.00448 10
1.76402 7.89177 -2.16678 0.00565994 10
1.76207 7.88306 -1.86486 0.00583324 10
1.76575 7.8995 -1.5734 0.00598519 10
1.76111 7.87877 -1.27867 0.00611436 10
1.76234 7.88427 -0.991956 0.00621949 10
1.76441 7.89352 -0.707636 0.00629961 10
1.7602 7.8747 -0.42288 0.00635392 10
1.7635 7.88944 -0.141109 0.00638192 10
1.76688 7.90457 0.14138 0.00616035 10
1.77126 7.92417 0.425536 0.00613381 10
1.76923 7.91507 0.709567 0.00608185 10
1.76899 7.91398 0.995694 0.00600497 10
1.6564 7.41031 1.20264 0.00539657 10
1.75995 7.87354 1.56823 0.00467825 10
1.76234 7.88425 1.86514 0.00456161 10
1.76222 7.88371 2.16456 0.00442819 10
1.73232 7.87906 -2.16161 0.00554592 10
1.73403 7.88682 -1.86431 0.00571351 10
1.73576 7.89467 -1.57122 0.00586011 10
1.73815 7.90558 -1.28203 0.00598434 10
1.73565 7.8942 -0.992437 0.00608499 10
1.73707 7.90063 -0.707725 0.00616113 10
1.73783 7.90412 -0.424131 0.00621199 10
1.73266 7.8806 -0.140842 0.00623711 10
1.73268 7.88066 0.140843 0.00623624 10
1.73573 7.89456 0.423618 0.00620939 10
1.73246 7.87966 0.705847 0.00615682 10
1.73409 7.88709 0.991544 0.00607903 10
1.62626 7.39667 1.1995 0.00546264 10
1.73265 7.88055 1.56841 0.00291236 10
1.73441 7.88855 1.86472 0.00283867 10
1.73432 7.88813 2.1641 0.00275458 10
1.7121 7.91877 -2.17085 0.00559647 10
1.71053 7.91153 -1.86872 0.00576788 10
1.71153 7.91613 -1.57429 0.00591817 10
1.71476 7.93107 -1.28518 0.00604593 10
1.7107 7.91228 -0.993954 0.00614992 10
1.71223 7.91936 -0.708863 0.00622916 10
1.70965 7.90742 -0.423986 0.00628289 10
1.71017 7.90987 -0.141257 0.00631059 10
1.70389 7.88081 0.140738 0.00631249 10
1.70293 7.87636 0.422321 0.00628533 10
1.70033 7.86432 0.703936 0.00623214 10
1.70255 7.87458 0.989218 0.00615344 10
1.59182 7.36244 1.19304 0.00552901 10
1.70933 7.90594 1.57227 0.00295312 10
1.70932 7.9059 1.86739 0.00287947 10
1.71045 7.91112 2.16876 0.00279524 10
1.68996 7.95061 -2.17795 0.00552043 10
1.68855 7.94397 -1.87498 0.00568736 10
1.68651 7.93439 -1.57674 0.00583339 10
1.68566 7.93041 -1.28411 0.00595713 10
1.68975 7.94964 -0.9979 0.00605739 10
1.69076 7.95438 -0.711465 0.00613322 10
1.68949 7.94842 -0.425865 0.00618389 10
1.69089 7.95501 -0.141957 0.00620894 10
1.67136 7.86313 0.140318 0.0063891 10
1.66987 7.85612 0.42092 0.00636162 10
1.67003 7.85685 0.702742 0.00630782 10
1.66681 7.84171 0.984352 0.0062282 10
1.55952 7.33696 1.18802 0.00559569 10
1.69042 7.95278 1.5804 0.00289911 10
1.68983 7.95001 1.87641 0.00282571 10
1.69042 7.95279 2.17855 0.0027622 10
1.65324 7.91361 -2.16622 0.0055873 10
1.65669 7.93012 -1.87034 0.0057562 10
1.65272 7.9111 -1.57096 0.00590393 10
1.65446 7.91944 -1.28139 0.00602911 10
1.65506 7.92231 -0.993738 0.00613054 10
1.65577 7.92573 -0.708381 0.00620726 10
1.65288 7.9119 -0.423597 0.00625852 10
1.65618 7.92769 -0.141366 0.00628384 10
1.63695 7.83561 0.139724 0.00646608 10
1.6337 7.8201 0.418682 0.00643828 10
1.63333 7.81833 0.698782 0.00638385 10
1.63835 7.84236 0.983709 0.00630331 10
1.52873 7.3176 1.18402 0.00566268 10
1.65618 7.92768 1.57425 0.00293418 10
1.65546 7.92426 1.86896 0.00285993 10
1.65773 7.9351 2.17211 0.0027752 10
1.60372 7.81271 0.139215 0.00654339 10
1.60081 7.79852 0.417225 0.00651528 10
1.60237 7.80611 0.697186 0.00646022 10
1.60507 7.81927 0.980104 0.00637875 10
1.50167 7.31557 1.18283 0.00572996 10
1.57235 7.79798 0.138854 0.00662105 10
1.56963 7.78451 0.41618 0.00659262 10
1.57049 7.78878 0.695145 0.00653694 10
1.56746 7.77373 0.973703 0.00645454 10
1.46722 7.27662 1.1757 0.00579755 10
1.53636 7.75918 0.138066 0.00669905 10
1.53963 7.77571 0.41542 0.0066703 10
1.539 7.77251 0.693209 0.00661399 10
1.53595 7.75712 0.970947 0.00653065 10
1.43906 7.26779 1.17345 0.00586542 10
1.50319 7.73324 0.137511 0.00677738 10
1.50398 7.73732 0.413085 0.00674831 10
1.50365 7.73562 0.689446 0.00669137 10
1.50276 7.73101 0.967015 0.0066071 10
1.40975 7.25255 1.17019 0.00593358 10
1.47266 7.71992 0.137182 0.00685604 10
1.47519 7.73321 0.412588 0.00682665 10
1.47348 7.72423 0.687968 0.00676907 10
1.47162 7.71449 0.964301 0.00668386 10
1.38221 7.24578 1.16831 0.00600202 10
1.48824 7.80162 2.12813 0.00294362 10
1.44381 7.71495 0.137003 0.00693503 10
1.44385 7.71515 0.411353 0.00690531 10
1.4392 7.69032 0.684496 0.0068471 10
1.44385 7.71517 0.96375 0.00676095 10
1.34788 7.20233 1.16054 0.00607075 10
1.4563 7.78165 2.12129 0.00297774 10
1.40871 7.67544 0.136213 0.00701433 10
1.40809 7.67206 0.408792 0.00698429 10
1.40955 7.68 0.683136 0.00692544 10
1.41125 7.68929 0.959896 0.00683833 10
1.31781 7.18017 1.15622 0.00613973 10
1.42446 7.76128 2.11437 0.003012 10
1.37611 7.6481 0.135642 0.00709393 10
1.37709 7.65355 0.407547 0.00706357 10
1.37968 7.66793 0.681629 0.00700408 10
1.37843 7.66099 0.955756 0.00691602 10
1.29005 7.16981 1.15382 0.00620899 10
1.39476 7.75172 2.11042 0.00304639 10
1.34843 7.64731 0.135543 0.00717387 10
1.34821 7.64608 0.406896 0.00714317 10
1.34581 7.63246 0.678054 0.00708304 10
1.34697 7.63906 0.952428 0.00699403 10
1.2601 7.14637 1.14933 0.00627852 10
1.36117 7.71959 2.10037 0.00308092 10
1.3164 7.62112 0.134997 0.00725409 10
1.31408 7.6077 0.404607 0.00722307 10
1.31583 7.61783 0.676343 0.00716228 10
1.31557 7.61632 0.949014 0.00707232 10
1.23468 7.14803 1.1489 0.0063483 10
1.3329 7.71667 2.09829 0.00311558 10
1.28732 7.61112 0.134739 0.00733462 10
1.28378 7.59019 0.403434 0.00730327 10
1.28287 7.58476 0.673005 0.00724184 10
1.28498 7.59728 0.946077 0.0071509 10
1.20265 7.11048 1.14218 0.00641836 10
1.30114 7.69278 2.09055 0.00315038 10
1.25621 7.58811 0.134254 0.00741542 10
1.25378 7.57344 0.402309 0.00738374 10
1.25691 7.59239 0.673289 0.00732166 10
1.25302 7.56885 0.941987 0.00722977 10
1.17605 7.10396 1.14047 0.00648864 10
1.26978 7.6701 2.08317 0.00318529 10
1.22445 7.55997 0.133679 0.00749653 10
1.22267 7.549 0.400782 0.00746452 10
1.22258 7.54841 0.669006 0.00740178 10
1.22381 7.55602 0.939853 0.00730893 10
1.14589 7.07492 1.13516 0.00655918 10
1.24124 7.66364 2.08023 0.00322034 10
1.19318 7.53341 0.133135 0.0075779 10
1.19292 7.53181 0.399646 0.00754556 10
1.19308 7.53278 0.667248 0.00748217 10
1.19636 7.55352 0.939016 0.00738834 10
1.11806 7.05917 1.132 0.00662995 10
1.21039 7.6421 2.07322 0.001172 10
1.16629 7.53376 0.133069 0.00765955 10
1.16464 7.52311 0.398966 0.00762687 10
1.1653 7.52736 0.666403 0.00756283 10
1.16328 7.51434 0.933636 0.00746803 10
1.08823 7.02951 1.12663 0.00670096 10
1.13471 7.50294 0.132453 0.00774148 10
1.13488 7.50401 0.397741 0.00770847 10
1.13266 7.48936 0.662685 0.00764377 10
1.13307 7.49206 0.930371 0.00754799 10
1.06128 7.01736 1.12408 0.0067722 10
1.10548 7.48627 0.13209 0.00782366 10
1.1031 7.47015 0.395739 0.00779032 10
1.10474 7.48128 0.661625 0.00772495 10
1.10475 7.48137 0.928558 0.0076282 10
1.03542 7.01186 1.12261 0.00684367 10
1.07674 7.47204 0.131772 0.00790611 10
1.07338 7.44877 0.394406 0.00787243 10
1.07523 7.4616 0.659548 0.00780641 10
1.07681 7.47253 0.926988 0.00770867 10
1.00571 6.97914 1.11681 0.00691536 10
1.04693 7.44931 0.131306 0.0079888 10
1.04484 7.43444 0.393451 0.00795478 10
1.04583 7.44143 0.657439 0.0078881 10
1.04763 7.45425 0.924262 0.00778937 10
0.980103 6.97378 1.11539 0.00698726 10
1.01487 7.40876 0.130528 0.00807175 10
1.01664 7.42164 0.392584 0.00803739 10
1.01555 7.41369 0.654671 0.00797004 10
1.01739 7.42711 0.920451 0.00787033 10
0.95526 6.97357 1.11482 0.00147399 10
0.988563 7.40893 0.130469 0.00815493 10
0.989111 7.41303 0.391944 0.00812023 10
0.988809 7.41077 0.654104 0.00805221 10
0.986113 7.39056 0.915489 0.00795151 10
0.930676 6.97508 1.11454 0.00147416 10
0.970566 7.47295 -2.01919 0.00712785 10
0.970729 7.4742 -1.74005 0.00734145 10
0.971072 7.47684 -1.46556 0.00752828 10
0.970164 7.46986 -1.19305 0.00768659 10
0.971369 7.47913 -0.926034 0.00781487 10
0.970904 7.47555 -0.659519 0.00791189 10
0.968865 7.45985 -0.394238 0.00797676 10
0.969502 7.46475 -0.131392 0.00800883 10
0.959206 7.38548 0.129997 0.00823835 10
0.960297 7.39388 0.390751 0.00820331 10
0.959842 7.39038 0.652004 0.00813462 10
0.960077 7.39219 0.91527 0.00803293 10
0.903746 6.95846 1.11137 0.00147433 10
0.971366 7.47911 1.466 0.00374206 10
0.971281 7.47845 1.74104 0.00364821 10
0.96964 7.46582 2.01726 0.0035411 10
0.942579 7.46127 -2.01513 0.00611659 10
0.941288 7.45106 -1.73388 0.00630231 10
0.943177 7.466 -1.46278 0.00760497 10
0.942449 7.46024 -1.19098 0.00776483 10
0.942615 7.46156 -0.923446 0.00789437 10
0.943278 7.46681 -0.658453 0.00799235 10
0.942765 7.46275 -0.394215 0.00805786 10
0.940496 7.44478 -0.130982 0.00809025 10
0.932059 7.378 0.129807 0.00832198 10
0.929798 7.3601 0.388792 0.00828661 10
0.931186 7.37109 0.650012 0.00821725 10
0.932085 7.3782 0.91313 0.00811456 10
0.881467 6.97752 1.11391 0.0014745 10
0.943128 7.46562 1.4627 0.00378019 10
0.940801 7.4472 1.73299 0.00368542 10
0.942219 7.45843 2.01436 0.00357725 10
0.902544 7.35061 0.129269 0.00840585 10
0.900659 7.33526 0.387312 0.00837012 10
0.903406 7.35763 0.648543 0.0083001 10
0.902509 7.35033 0.909285 0.00819641 10
0.857766 6.98593 1.11477 0.00147467 10
0.872473 7.31678 0.128619 0.00848994 10
0.873914 7.32886 0.38681 0.00845387 10
0.875182 7.33949 0.646671 0.00838317 10
0.872575 7.31763 0.904857 0.00827849 10
0.832064 6.97789 1.11302 0.00147483 10
0.846919 7.31969 0.128618 0.00857422 10
0.84542 7.30673 0.385484 0.00853781 10
0.845708 7.30923 0.643741 0.00846643 10
0.845464 7.30712 0.903187 0.00836075 10
0.807947 6.98287 1.11336 0.001475 10
0.819559 7.30653 0.128336 0.00865872 10
0.817889 7.29164 0.384535 0.00862197 10
0.81747 7.28791 0.641608 0.00854992 10
0.817647 7.28949 0.900649 0.00844322 10
0.784071 6.99015 1.11407 0.00147517 10
0.791059 7.28181 0.127852 0.00874341 10
0.788826 7.26125 0.382785 0.00870631 10
0.789848 7.27066 0.639843 0.00863358 10
0.791983 7.29031 0.900404 0.00852588 10
0.757401 6.97198 1.11075 0.00147534 10
0.772632 7.35111 -1.70649 0.00786941 10
0.763658 7.26572 0.127522 0.0088283 10
0.761915 7.24914 0.382004 0.00879086 10
0.764129 7.27021 0.639564 0.00871745 10
0.762598 7.25564 0.895787 0.00860874 10
0.735565 6.99843 1.11455 0.00147551 10
0.743927 7.32381 -1.69954 0.00794553 10
0.73573 7.24312 0.12708 0.00891336 10
0.736677 7.25244 0.38204 0.00887558 10
0.734332 7.22935 0.63574 0.00880148 10
0.736225 7.24799 0.894521 0.00869177 10
0.708966 6.97963 1.11115 0.00147568 10
0.715373 7.29594 -1.69248 0.00802183 10
0.708394 7.22477 0.126713 0.00899861 10
0.707293 7.21354 0.379859 0.00896048 10
0.708838 7.2293 0.635515 0.0088857 10
0.708306 7.22387 0.891233 0.00877498 10
0.684383 6.97989 1.11081 0.00147585 10
0.688491 7.28346 -1.68902 0.00809829 10
0.681586 7.21042 0.126419 0.00908403 10
0.680939 7.20357 0.379206 0.00904555 10
0.681264 7.20701 0.633343 0.00897009 10
0.680322 7.19705 0.887626 0.00885835 10
0.661876 7.00191 1.11394 0.00147602 10
0.66138 7.26732 -1.68473 0.00817489 10
0.654911 7.19623 0.12613 0.0091696 10
0.654323 7.18977 0.378357 0.00913078 10
0.654866 7.19573 0.632147 0.00905463 10
0.65321 7.17754 0.884933 0.00894188 10
0.637267 7.00236 1.11365 0.00147619 10
0.635327 7.26182 -1.68293 0.00825164 10
0.626963 7.16622 0.125565 0.00925535 10
0.627249 7.16948 0.377172 0.00921618 10
0.627852 7.17637 0.630249 0.00913935 10
0.626127 7.15666 0.882084 0.00902558 10
0.612438 7.0002 1.11296 0.00147636 10
0.606414 7.22157 -1.6731 0.00832853 10
0.601716 7.16562 0.125517 0.00934124 10
0.599385 7.13786 0.375396 0.00930172 10
0.601266 7.16026 0.628646 0.00922421 10
0.599378 7.13778 0.879494 0.00910942 10
0.588634 7.00984 1.11416 0.00147653 10
0.580283 7.21224 -1.67046 0.00840556 10
0.57356 7.12867 0.124833 0.00942729 10
0.575132 7.14822 0.375833 0.00938742 10
0.573895 7.13284 0.626059 0.00930922 10
0.573484 7.12773 0.878004 0.00919341 10
0.562854 6.99561 1.11158 0.0014767 10
0.553336 7.19122 -1.66513 0.0084827 10
0.54729 7.11265 0.124519 0.00951347 10
0.54832 7.12603 0.374564 0.00947325 10
0.547304 7.11283 0.624131 0.00939436 10
0.546899 7.10757 0.875279 0.00927753 10
0.538493 6.99832 1.1117 0.00147687 10
0.527975 7.18966 -1.66433 0.00855997 10
0.521696 7.10415 0.124337 0.00959979 10
0.520813 7.09213 0.372684 0.00955922 10
0.522179 7.11073 0.623783 0.00947964 10
0.520713 7.09076 0.87298 0.00936178 10
0.513852 6.99733 1.11125 0.00147704 10
0.500923 7.16351 -1.65787 0.00863736 10
0.495363 7.084 0.123954 0.00968622 10
0.495331 7.08355 0.37214 0.00964531 10
0.49518 7.08139 0.621054 0.00956504 10
0.495862 7.09114 0.872809 0.00944616 10
0.490748 7.01801 1.11426 0.00147721 10
0.438713 6.60516 -1.77375 0.0101757 10
0.43918 6.61218 -1.5299 0.0104762 10
0.439616 6.61875 -1.28939 0.010739 10
0.439337 6.61455 -1.04995 0.0109617 10
0.439282 6.61373 -0.813853 0.0111421 10
0.440009 6.62466 -0.58086 0.0112785 10
0.438863 6.60741 -0.347042 0.0113698 10
0.439483 6.61675 -0.11575 0.0114149 10
0.43919 6.61233 0.115673 0.0114135 10
0.439787 6.62132 0.347773 0.0113657 10
0.439495 6.61692 0.580181 0.0112718 10
0.439998 6.6245 0.815178 0.0111327 10
0.439613 6.6187 1.05061 0.0109498 10
0.438781 6.60618 1.28694 0.00836222 10
0.439203 6.61253 1.52999 0.00815552 10
0.439742 6.62064 1.7779 0.00791952 10
0.414927 6.59507 -1.77064 0.0102656 10
0.414259 6.58444 -1.52314 0.0105687 10
0.4147 6.59146 -1.28378 0.0108338 10
0.415505 6.60425 -1.04808 0.0110583 10
0.415027 6.59665 -0.811569 0.0112403 10
0.415772 6.6085 -0.579312 0.0113779 10
0.4157 6.60736 -0.346962 0.0114699 10
0.416113 6.61391 -0.115675 0.0115154 10
0.414776 6.59267 0.115303 0.011514 10
0.414677 6.59108 0.346107 0.0114658 10
0.41548 6.60386 0.578905 0.0113711 10
0.41525 6.6002 0.812005 0.0112308 10
0.41521 6.59956 1.04733 0.0110464 10
0.414816 6.59331 1.28414 0.00843602 10
0.415619 6.60606 1.52814 0.00822755 10
0.41563 6.60624 1.77364 0.00798953 10
0.39105 6.58209 -1.76678 0.0103556 10
0.391345 6.58706 -1.52342 0.0106613 10
0.390329 6.56994 -1.27932 0.0109286 10
0.39065 6.57535 -1.04327 0.0111551 10
0.391331 6.58681 -0.810185 0.0113386 10
0.390943 6.58029 -0.576716 0.0114773 10
0.391155 6.58385 -0.345653 0.0115701 10
0.391838 6.59536 -0.115325 0.0116161 10
0.390562 6.57388 0.11495 0.0116147 10
0.390866 6.57899 0.345398 0.011566 10
0.391272 6.58583 0.577201 0.0114705 10
0.390515 6.57308 0.808496 0.0113291 10
0.391683 6.59274 1.04603 0.0111431 10
0.390756 6.57714 1.28072 0.00850991 10
0.391169 6.58409 1.52274 0.00829967 10
0.391308 6.58643 1.76794 0.00805963 10
0.366558 6.55637 -1.75952 0.0104457 10
0.367373 6.57094 -1.51939 0.010754 10
0.366457 6.55456 -1.27607 0.0110236 10
0.367274 6.56917 -1.04208 0.0112519 10
0.366961 6.56358 -0.807165 0.011437 10
0.366606 6.55723 -0.574579 0.0115769 10
0.367546 6.57404 -0.345069 0.0116705 10
0.366693 6.55877 -0.114663 0.0117168 10
0.367013 6.5645 0.114763 0.0117154 10
0.36687 6.56194 0.344434 0.0116664 10
0.367911 6.58056 0.576623 0.0115701 10
0.3678 6.57857 0.809009 0.0114274 10
0.366903 6.56254 1.04103 0.0112399 10
0.367231 6.5684 1.27876 0.00858388 10
0.367546 6.57403 1.52011 0.00837187 10
0.366869 6.56193 1.76101 0.00812981 10
0.343324 6.55099 -1.75774 0.00768549 10
0.343267 6.54989 -1.51424 0.00791548 10
0.344064 6.5651 -1.27788 0.00811709 10
0.343056 6.54587 -1.03819 0.00828846 10
0.343428 6.55296 -0.805707 0.008428 10
0.342732 6.53967 -0.572933 0.00853439 10
0.343969 6.56329 -0.34444 0.00860664 10
0.342981 6.54444 -0.11439 0.0118177 10
0.343065 6.54603 0.114418 0.0118163 10
0.343286 6.55026 0.343756 0.0117668 10
0.342871 6.54234 0.573166 0.0116697 10
0.343396 6.55236 0.805632 0.0115259 10
0.343871 6.56143 1.04065 0.0113367 10
0.343718 6.5585 1.27659 0.00865792 10
0.342994 6.54468 1.51303 0.00844415 10
0.343839 6.5608 1.76037 0.00820007 10
0.321967 6.58309 -1.76604 0.00756277 10
0.321843 6.58057 -1.52106 0.00778921 10
0.322261 6.58911 -1.28232 0.00798772 10
0.322546 6.59493 -1.04578 0.00815646 10
0.321544 6.57445 -0.808206 0.00829385 10
0.322554 6.59511 -0.577687 0.00839861 10
0.321433 6.57218 -0.344845 0.00846976 10
0.321445 6.57242 -0.114859 0.00850662 10
0.322022 6.58422 0.115065 0.00850886 10
0.32226 6.58909 0.345732 0.00847646 10
0.322252 6.58893 0.577145 0.0084097 10
0.321417 6.57184 0.807885 0.00830923 10
0.322415 6.59226 1.04536 0.00817599 10
0.322473 6.59345 1.28317 0.00624644 10
0.322189 6.58763 1.52269 0.00609459 10
0.322406 6.59207 1.76845 0.00592075 10
0.30095 6.6274 -1.77764 0.00744108 10
0.300324 6.61363 -1.52845 0.007664 10
0.30092 6.62675 -1.28944 0.00785943 10
0.300948 6.62736 -1.05075 0.00802556 10
0.300366 6.61454 -0.813001 0.00816082 10
0.3011 6.6307 -0.580709 0.00826397 10
0.300333 6.61383 -0.346973 0.00833402 10
0.300111 6.60894 -0.115478 0.00837033 10
0.300828 6.62472 0.115754 0.00837254 10
0.300631 6.62037 0.347316 0.00834065 10
0.299967 6.60575 0.578524 0.00827494 10
0.30059 6.61948 0.813608 0.00817604 10
0.300184 6.61053 1.04808 0.00804488 10
0.300123 6.60919 1.28602 0.00614622 10
0.300781 6.62369 1.53077 0.00599673 10
0.300718 6.62231 1.77627 0.00582561 10
0.278485 6.64446 -1.78194 0.00732039 10
0.279273 6.66325 -1.53968 0.00753982 10
0.278257 6.63903 -1.29163 0.0077322 10
0.278456 6.64376 -1.05319 0.00789574 10
0.278993 6.65658 -0.818043 0.00802889 10
0.279088 6.65885 -0.583086 0.00813043 10
0.279239 6.66245 -0.349471 0.0081994 10
0.278138 6.63617 -0.115937 0.00823514 10
0.279319 6.66437 0.116429 0.00823733 10
0.279291 6.6637 0.349536 0.00820595 10
0.2781 6.63527 0.581021 0.00814128 10
0.278068 6.6345 0.81533 0.00804394 10
0.278518 6.64526 1.05343 0.00216212 10
0.278853 6.65324 1.2944 0.00604682 10
0.278726 6.65021 1.53667 0.00589968 10
0.278521 6.64532 1.78217 0.00573125 10
0.25639 6.67401 -1.78961 0.00720075 10
0.256421 6.67481 -1.54214 0.00741672 10
0.256608 6.67966 -1.29935 0.00760606 10
0.256955 6.6887 -1.06017 0.00776702 10
0.257302 6.69773 -0.822985 0.00789808 10
0.256671 6.68132 -0.584971 0.00799803 10
0.256981 6.68939 -0.350834 0.00806592 10
0.256606 6.67961 -0.116679 0.00810112 10
0.256922 6.68785 0.116823 0.00810329 10
0.256639 6.68048 0.350368 0.0080724 10
0.25632 6.67217 0.58417 0.00800877 10
0.256182 6.66859 0.819403 0.00791297 10
0.255103 6.6405 1.05253 0.00216237 10
0.257117 6.69292 1.30193 0.00594827 10
0.256514 6.67723 1.5427 0.00580347 10
0.256504 6.67695 1.7904 0.0056377 10
0.235048 6.73081 -1.80462 0.00708213 10
0.234315 6.70983 -1.55003 0.00729467 10
0.235025 6.73018 -1.30901 0.007481 10
0.234407 6.71247 -1.0638 0.00763941 10
0.234388 6.71192 -0.824622 0.0077684 10
0.23496 6.72832 -0.589011 0.00786677 10
0.235111 6.73262 -0.353057 0.00793359 10
0.235016 6.7299 -0.117543 0.00796824 10
0.234416 6.71272 0.117242 0.00797038 10
0.234746 6.72219 0.35251 0.00794 10
0.234857 6.72535 0.58875 0.00787739 10
0.234693 6.72067 0.825697 0.00778312 10
0.231734 6.63592 1.05167 0.00216262 10
0.234122 6.70432 1.30398 0.00585056 10
0.234777 6.72306 1.55309 0.00570807 10
0.234316 6.70986 1.799 0.00554495 10
0.212329 6.7564 -1.81127 0.00696451 10
0.21193 6.7437 -1.55767 0.00717365 10
0.212241 6.75359 -1.31341 0.00735701 10
0.212041 6.74724 -1.06919 0.00751288 10
0.212314 6.75591 -0.829931 0.00763982 10
0.211821 6.74022 -0.589984 0.00773662 10
0.212104 6.74923 -0.353887 0.00780238 10
0.212532 6.76285 -0.118104 0.00783648 10
0.212659 6.76691 0.118175 0.0078386 10
0.211929 6.74367 0.353595 0.00780872 10
0.212253 6.75397 0.591188 0.00774712 10
0.212124 6.74988 0.82919 0.00765438 10
0.208629 6.63868 1.05198 0.00216287 10
0.212448 6.76018 1.31469 0.00575369 10
0.212437 6.75985 1.56141 0.00561349 10
0.212202 6.75235 1.81018 0.005453 10
0.189823 6.7957 -1.82161 0.00684796 10
0.189803 6.79497 -1.56935 0.00705372 10
0.189647 6.78939 -1.32024 0.00723412 10
0.189408 6.78084 -1.0744 0.00738749 10
0.189587 6.78723 -0.833692 0.00751238 10
0.189973 6.80106 -0.595248 0.00760762 10
0.189502 6.78421 -0.355684 0.00767234 10
0.18989 6.79809 -0.118707 0.0077059 10
0.189473 6.78318 0.118447 0.00770799 10
0.189648 6.78943 0.355958 0.0076786 10
0.189256 6.7754 0.593002 0.00761801 10
0.189257 6.77542 0.832242 0.00752677 10
0.185535 6.64219 1.05243 0.00216312 10
0.189498 6.78406 1.3192 0.00565768 10
0.189148 6.77154 1.56394 0.00551975 10
0.18934 6.7784 1.81697 0.00536186 10
0.167121 6.83813 -1.83282 0.00673243 10
0.16687 6.82789 -1.57681 0.00693483 10
0.166691 6.82055 -1.32618 0.0071123 10
0.166987 6.83266 -1.08251 0.00726318 10
0.166966 6.8318 -0.83909 0.00738605 10
0.166789 6.82457 -0.59725 0.00747976 10
0.166898 6.82902 -0.358001 0.00754343 10
0.166987 6.83265 -0.1193 0.00757645 10
0.166839 6.82661 0.119194 0.00757852 10
0.166718 6.82167 0.357616 0.00754962 10
0.166439 6.81024 0.595997 0.00749002 10
0.166844 6.82681 0.838477 0.00740028 10
0.162213 6.63731 1.05156 0.00216337 10
0.166594 6.81657 1.3254 0.0055625 10
0.166595 6.81663 1.57421 0.00542683 10
0.166519 6.81353 1.82623 0.00527153 10
0.143424 6.84691 -1.83503 0.00971883 10
0.143713 6.8607 -1.58427 0.010007 10
0.143246 6.83842 -1.32955 0.010259 10
0.143239 6.83808 -1.08328 0.0104725 10
0.143218 6.83707 -0.839671 0.0106455 10
0.143219 6.83712 -0.598302 0.0107764 10
0.143411 6.8463 -0.358878 0.0108639 10
0.143767 6.8633 -0.119826 0.0109072 10
0.143403 6.84589 0.119522 0.0109059 10
0.143742 6.86207 0.359705 0.0108601 10
0.143305 6.84121 0.59866 0.0107701 10
0.143311 6.8415 0.840215 0.0106368 10
0.138895 6.6307 1.05043 0.00216361 10
0.143837 6.86662 1.33503 0.00798873 10
0.143307 6.84131 1.57979 0.00533476 10
0.14329 6.84052 1.83331 0.00518201 10
0.119372 6.83881 -1.83273 0.00979711 10
0.119308 6.83516 -1.57826 0.0100875 10
0.11912 6.82437 -1.32673 0.0103415 10
0.119141 6.82561 -1.08124 0.0105567 10
0.11909 6.82266 -0.837845 0.010731 10
0.119283 6.83373 -0.597965 0.0108629 10
0.119348 6.83747 -0.358391 0.0109511 10
0.119304 6.83494 -0.119323 0.0109948 10
0.119398 6.84029 0.119416 0.0109935 10
0.119228 6.8306 0.358031 0.0109473 10
0.119248 6.83174 0.59779 0.0108566 10
0.119161 6.82675 0.838347 0.0107223 10
0.115758 6.63175 1.05053 0.00216386 10
0.119188 6.82827 1.32748 0.00805299 10
0.119328 6.83632 1.57853 0.00785331 10
0.119508 6.8466 1.83482 0.00762534 10
0.0953683 6.82971 -1.83019 0.0098754 10
0.0952928 6.82431 -1.57567 0.0101681 10
0.0950718 6.80848 -1.32356 0.010424 10
0.0953304 6.827 -1.0814 0.0106408 10
0.0953686 6.82974 -0.838668 0.0108165 10
0.0951874 6.81676 -0.596447 0.0109494 10
0.0951732 6.81574 -0.357233 0.0110383 10
0.0951464 6.81383 -0.118947 0.0110823 10
0.0951963 6.8174 0.11901 0.011081 10
0.0950388 6.80612 0.356728 0.0110345 10
0.0952 6.81767 0.596526 0.0109431 10
0.0950902 6.8098 0.83622 0.0108077 10
0.0927543 6.64251 1.05217 0.00216411 10
0.0953155 6.82594 1.32696 0.00811726 10
0.0951656 6.8152 1.57357 0.00791604 10
0.095165 6.81516 1.82629 0.00768631 10
0.0711473 6.79387 -1.82051 0.00995371 10
0.0713405 6.81232 -1.57283 0.0102486 10
0.0713235 6.81069 -1.32394 0.0105065 10
0.0713515 6.81337 -1.07919 0.010725 10
0.0711359 6.79278 -0.834095 0.010902 10
0.0713329 6.81159 -0.59597 0.011036 10
0.0711893 6.79788 -0.356282 0.0111255 10
0.0711563 6.79473 -0.118609 0.0111699 10
0.071129 6.79212 0.118563 0.0111686 10
0.0712948 6.80795 0.356809 0.0111217 10
0.0711279 6.79202 0.594257 0.0110296 10
0.0713659 6.81474 0.836791 0.0108932 10
0.069542 6.64058 1.05182 0.00216436 10
0.0714217 6.82007 1.32576 0.00818155 10
0.0714131 6.81925 1.57443 0.00797879 10
0.071172 6.79623 1.82114 0.00774729 10
0.0473531 6.7826 -1.81744 0.010032 10
0.0473513 6.78234 -1.56586 0.0103292 10
0.0474144 6.79138 -1.32014 0.010589 10
0.0474098 6.79071 -1.07557 0.0108092 10
0.0474505 6.79655 -0.834531 0.0109876 10
0.0474196 6.79212 -0.594248 0.0111225 10
0.0473413 6.78091 -0.355381 0.0112128 10
0.0473125 6.77678 -0.118292 0.0112574 10
0.047437 6.79461 0.118603 0.0112561 10
0.0475065 6.80457 0.356621 0.0112089 10
0.0473741 6.7856 0.593677 0.0111161 10
0.0473763 6.78592 0.833227 0.0109787 10
0.0463421 6.63778 1.05135 0.00216461 10
0.047396 6.78874 1.31963 0.00824582 10
0.0473989 6.78916 1.56744 0.00804152 10
0.0474743 6.79995 1.82209 0.00780827 10
0.0236604 6.77752 -1.81604 0.0101103 10
0.0236228 6.76673 -1.56223 0.0104097 10
0.0236669 6.77939 -1.31779 0.0106715 10
0.023674 6.7814 -1.07408 0.0108933 10
0.0236609 6.77765 -0.832196 0.0110731 10
0.0236692 6.78005 -0.593181 0.011209 10
0.0236694 6.78008 -0.355331 0.0113 10
0.0236696 6.78014 -0.118349 0.011345 10
0.0236055 6.76179 0.118028 0.0113437 10
0.0236103 6.76316 0.354444 0.0112961 10
0.0236313 6.76918 0.59223 0.0112026 10
0.0236549 6.77595 0.831987 0.0110642 10
0.0231293 6.62537 1.04936 0.00216486 10
0.0236733 6.78121 1.31814 0.0083101 10
0.0236971 6.78804 1.56715 0.00810427 10
0.0237024 6.78954 1.81926 0.00786925 10
5.10281e-07 6.75887 -1.81103 0.0101886 10
5.0957e-07 6.74946 -1.55824 0.0104902 10
5.10223e-07 6.75811 -1.31364 0.010754 10
5.09453e-07 6.74791 -1.06876 0.0109775 10
5.09809e-07 6.75263 -0.829119 0.0111586 10
5.09158e-07 6.744 -0.590024 0.0112956 10
5.09615e-07 6.75006 -0.353756 0.0113872 10
5.1081e-07 6.76589 -0.118099 0.0114326 10
5.09691e-07 6.75107 0.11784 0.0114313 10
5.1083e-07 6.76615 0.354599 0.0113833 10
5.09807e-07 6.7526 0.590775 0.0112891 10
5.09596e-07 6.7498 0.828772 0.0111496 10
5.00277e-07 6.62637 1.04951 0.00216511 10
4.76889e-07 6.31659 1.22782 0.0125353 10
5.09328e-07 6.74626 1.5575 0.008167 10
5.11085e-07 6.76952 1.81389 0.00793023 10
-0.0235242 6.73971 -1.80591 0.0102669 10
-0.0234902 6.72996 -1.55374 0.0105708 10
-0.0235628 6.75077 -1.31223 0.0108365 10
-0.023545 6.74567 -1.06842 0.0110617 10
-0.0235539 6.74822 -0.828582 0.0112441 10
-0.023503 6.73363 -0.58912 0.0113821 10
-0.023565 6.75139 -0.353828 0.0114744 10
-0.0235824 6.75638 -0.117934 0.0115201 10
-0.0235467 6.74615 0.117755 0.0115188 10
-0.023529 6.74108 0.353287 0.0114705 10
-0.0235219 6.73906 0.589595 0.0113756 10
-0.0235384 6.74379 0.828038 0.0112351 10
-0.0231208 6.62414 1.04917 0.00216536 10
-0.0220217 6.30926 1.2264 0.0126308 10
-0.0235873 6.75779 1.56017 0.00822972 10
-0.0235902 6.75861 1.81098 0.00799119 10
-0.0469713 6.72806 -1.80282 0.0103452 10
-0.0470285 6.73624 -1.55522 0.0106513 10
-0.0469602 6.72646 -1.30752 0.010919 10
-0.0469494 6.72492 -1.06515 0.0111458 10
-0.0470544 6.73996 -0.827583 0.0113296 10
-0.046943 6.724 -0.588288 0.0114686 10
-0.0470488 6.73915 -0.353192 0.0115616 10
-0.0470256 6.73583 -0.117577 0.0116076 10
-0.0469556 6.72581 0.117402 0.0116063 10
-0.0470212 6.7352 0.352985 0.0115576 10
-0.0470289 6.73631 0.589365 0.0114621 10
-0.0470701 6.74221 0.82786 0.0113205 10
-0.0463956 6.64559 1.05258 0.0021656 10
-0.0440407 6.30828 1.22624 0.0127264 10
-0.0470221 6.73533 1.55501 0.00829243 10
-0.0469439 6.72412 1.80177 0.00805215 10
-0.0701947 6.703 -1.79616 0.0104234 10
-0.0704099 6.72355 -1.55234 0.0107317 10
-0.0703074 6.71376 -1.30509 0.0110014 10
-0.0701903 6.70258 -1.06164 0.0112299 10
-0.0702876 6.71187 -0.824159 0.011415 10
-0.0701717 6.70081 -0.586277 0.011555 10
-0.070425 6.72499 -0.352461 0.0116487 10
-0.0702342 6.70678 -0.117074 0.0116951 10
-0.0701542 6.69913 0.11694 0.0116938 10
-0.0701609 6.69977 0.35114 0.0116447 10
-0.0702908 6.71218 0.587272 0.0115485 10
-0.0703361 6.7165 0.824728 0.0114059 10
-0.0694765 6.63442 1.05085 0.00216585 10
-0.0657368 6.27731 1.22025 0.0128218 10
-0.0703188 6.71486 1.55033 0.00835512 10
-0.0702284 6.70622 1.79703 0.00811307 10
-0.0935581 6.70015 -1.79548 0.0105016 10
-0.093666 6.70788 -1.54879 0.0108122 10
-0.0936786 6.70878 -1.30418 0.0110838 10
-0.0936606 6.7075 -1.06247 0.0113139 10
-0.0937008 6.71037 -0.82401 0.0115004 10
-0.0936995 6.71028 -0.587131 0.0116415 10
-0.0936609 6.70751 -0.35156 0.0117358 10
-0.093682 6.70902 -0.117118 0.0117825 10
-0.0937141 6.71132 0.117158 0.0117812 10
-0.0935875 6.70226 0.351285 0.0117318 10
-0.0935712 6.70109 0.586326 0.0116349 10
-0.0936185 6.70448 0.823287 0.0114913 10
-0.092709 6.63934 1.05167 0.0021661 10
-0.0874554 6.26311 1.21754 0.0129172 10
-0.0935746 6.70134 1.54728 0.00841778 10
-0.0933824 6.68757 1.7921 0.00817398 10
-0.11663 6.68182 -1.79066 0.0105797 10
-0.116554 6.67747 -1.54185 0.0108926 10
-0.116409 6.66913 -1.29655 0.0111662 10
-0.116742 6.68823 -1.05947 0.0113979 10
-0.116703 6.686 -0.821063 0.0115858 10
-0.116654 6.68319 -0.584792 0.0117278 10
-0.116508 6.67478 -0.349864 0.0118229 10
-0.116437 6.67076 -0.116456 0.0118699 10
-0.116881 6.6962 0.1169 0.0118686 10
-0.116535 6.67634 0.349945 0.0118189 10
-0.116514 6.67513 0.584087 0.0117212 10
-0.116626 6.68155 0.820516 0.0115766 10
-0.115641 6.62511 1.04947 0.00216635 10
-0.109133 6.25228 1.21551 0.0130126 10
-0.116692 6.68533 1.54366 0.0084804 10
-0.116826 6.693 1.79366 0.00823485 10
-0.139617 6.66523 -1.78634 0.0106579 10
-0.139808 6.67434 -1.54123 0.0109729 10
-0.139794 6.67365 -1.29751 0.0112485 10
-0.139381 6.65397 -1.05412 0.0114819 10
-0.139585 6.6637 -0.818379 0.0116711 10
-0.139919 6.67965 -0.584522 0.0118142 10
-0.139547 6.66188 -0.349211 0.0119099 10
-0.139483 6.65883 -0.116256 0.0119573 10
-0.139887 6.67809 0.116592 0.0119559 10
-0.13943 6.65627 0.348917 0.0119058 10
-0.139384 6.65407 0.582283 0.0118075 10
-0.139642 6.66639 0.81871 0.0116618 10
-0.139238 6.64712 1.05303 0.0021666 10
-0.13102 6.2548 1.21608 0.0131079 10
-0.139618 6.66527 1.53914 0.00854299 10
-0.139945 6.6809 1.79053 0.00829568 10
-0.162458 6.64741 -1.7817 0.0107359 10
-0.162844 6.66319 -1.53878 0.0110532 10
-0.162647 6.65513 -1.29401 0.0113307 10
-0.162499 6.64909 -1.05343 0.0115658 10
-0.162515 6.64974 -0.816729 0.0117563 10
-0.162751 6.65939 -0.582795 0.0119004 10
-0.16249 6.64872 -0.348549 0.0119968 10
-0.16221 6.63724 -0.115888 0.0120445 10
-0.162532 6.65041 0.116118 0.0120432 10
-0.162895 6.66526 0.349416 0.0119928 10
-0.162672 6.65616 0.582512 0.0118937 10
-0.162469 6.64784 0.816495 0.011747 10
-0.16226 6.6393 1.05188 0.00216685 10
-0.15226 6.23011 1.21137 0.0132031 10
-0.162696 6.65714 1.53738 0.00860553 10
-0.162307 6.64121 1.78004 0.00835647 10
-0.185649 6.6464 -1.78159 0.0108139 10
-0.185049 6.62494 -1.53008 0.0111335 10
-0.185396 6.63737 -1.29068 0.0114129 10
-0.185168 6.6292 -1.05037 0.0116496 10
-0.185207 6.63058 -0.81445 0.0118415 10
-0.184976 6.62233 -0.579605 0.0119866 10
-0.185654 6.64659 -0.348469 0.0120837 10
-0.185413 6.63796 -0.115911 0.0121317 10
-0.185251 6.63217 0.11581 0.0121304 10
-0.185687 6.64778 0.348531 0.0120796 10
-0.185382 6.63686 0.580876 0.0119799 10
-0.185557 6.64312 0.815991 0.0118322 10
-0.1851 6.62675 1.04998 0.0021671 10
-0.173523 6.2123 1.20802 0.0132983 10
-0.185169 6.62922 1.53107 0.00866802 10
-0.185283 6.63332 1.77809 0.00841721 10
-0.208267 6.62717 -1.77662 0.0108919 10
-0.208267 6.62716 -1.53076 0.0112136 10
-0.208024 6.61945 -1.28733 0.011495 10
-0.208219 6.62565 -1.04992 0.0117334 10
-0.20808 6.62121 -0.813384 0.0119266 10
-0.208331 6.6292 -0.580266 0.0120727 10
-0.207917 6.61603 -0.346902 0.0121705 10
-0.208018 6.61925 -0.115597 0.0122189 10
-0.207928 6.61638 0.115546 0.0122175 10
-0.208077 6.62113 0.34717 0.0121664 10
-0.208424 6.63216 0.580525 0.012066 10
-0.208312 6.62862 0.814294 0.0119172 10
-0.20838 6.63078 1.05073 0.0117215 10
-0.195027 6.20588 1.2069 0.0133934 10
-0.208152 6.62351 1.52991 0.00873047 10
-0.208171 6.62413 1.77581 0.00847792 10
-0.230936 6.61319 -1.77308 0.0109697 10
-0.230797 6.60922 -1.52679 0.0112937 10
-0.230429 6.59868 -1.28343 0.0115771 10
-0.230593 6.60338 -1.04651 0.0118171 10
-0.230312 6.59532 -0.810297 0.0120116 10
-0.230645 6.60487 -0.578203 0.0121588 10
-0.231162 6.61967 -0.347134 0.0122572 10
-0.23056 6.60242 -0.115316 0.0123059 10
-0.23118 6.62017 0.115626 0.0123046 10
-0.231101 6.61792 0.347042 0.0122531 10
-0.231026 6.61576 0.579157 0.012152 10
-0.230358 6.59665 0.810461 0.0120022 10
-0.230922 6.61279 1.048 0.0118052 10
-0.215752 6.17836 1.20168 0.0134884 10
-0.230912 6.61251 1.52755 0.00879285 10
-0.231225 6.62148 1.7753 0.00853856 10
-0.252889 6.58288 -1.76518 0.0110475 10
-0.253349 6.59486 -1.52367 0.0113737 10
-0.252886 6.58281 -1.28051 0.011659 10
-0.253716 6.60443 -1.04681 0.0119007 10
-0.252699 6.57795 -0.808266 0.0120966 10
-0.252712 6.57828 -0.575949 0.0122447 10
-0.253401 6.59622 -0.345948 0.0123438 10
-0.253179 6.59044 -0.115121 0.0123929 10
-0.253601 6.60141 0.115313 0.0123915 10
-0.252875 6.58252 0.34523 0.0123397 10
-0.253291 6.59335 0.577269 0.0122379 10
-0.252754 6.57938 0.808442 0.0120871 10
-0.253394 6.59604 1.04548 0.0118887 10
-0.236727 6.16218 1.19869 0.0135832 10
-0.252986 6.58542 1.52149 0.00885519 10
-0.253701 6.60402 1.77085 0.00859914 10
-0.275534 6.57408 -1.76306 0.0111252 10
-0.27531 6.56874 -1.51785 0.0114537 10
-0.275466 6.57246 -1.27868 0.0117409 10
-0.275634 6.57645 -1.04252 0.0119842 10
-0.275779 6.57992 -0.808622 0.0121814 10
-0.275322 6.56901 -0.575218 0.0123306 10
-0.275251 6.56733 -0.344481 0.0124303 10
-0.275803 6.58049 -0.114964 0.0124798 10
-0.275451 6.57211 0.114817 0.0124784 10
-0.27596 6.58424 0.345369 0.0124262 10
-0.276219 6.59042 0.577093 0.0123237 10
-0.275581 6.57519 0.808041 0.0121719 10
-0.275819 6.58087 1.04322 0.0119722 10
-0.258433 6.16606 1.19961 0.013678 10
-0.275589 6.5754 1.51938 0.00891744 10
-0.276023 6.58575 1.7662 0.00865965 10
-0.297795 6.55795 -1.75901 0.0112028 10
-0.297866 6.55952 -1.51595 0.0115335 10
-0.298579 6.57522 -1.27941 0.0118227 10
-0.297771 6.55743 -1.03966 0.0120676 10
-0.29796 6.56158 -0.806491 0.0122662 10
-0.298589 6.57543 -0.575869 0.0124163 10
-0.298462 6.57264 -0.344813 0.0125168 10
-0.297403 6.54932 -0.114437 0.0125665 10
-0.29772 6.55629 0.114558 0.0125652 10
-0.298105 6.56478 0.3444 0.0125126 10
-0.297497 6.55139 0.573763 0.0124095 10
-0.298274 6.5685 0.807341 0.0122566 10
-0.298505 6.57358 1.04223 0.0120555 10
-0.279067 6.14553 1.1958 0.0137727 10
-0.297888 6.56001 1.51606 0.00897962 10
-0.298694 6.57774 1.76432 0.0087201 10
-0.320222 6.54745 -1.75648 0.0112803 10
-0.320133 6.54563 -1.51298 0.0116132 10
-0.320381 6.55069 -1.27485 0.0119043 10
-0.320263 6.54828 -1.03839 0.012151 10
-0.320148 6.54592 -0.804698 0.0123508 10
-0.32069 6.557 -0.574349 0.012502 10
-0.320178 6.54653 -0.343499 0.0126031 10
-0.320132 6.5456 -0.114391 0.0126532 10
-0.320085 6.54463 0.114373 0.0126518 10
-0.32085 6.56028 0.344221 0.0125989 10
-0.320882 6.56093 0.574693 0.0124951 10
-0.320914 6.56159 0.806625 0.0123412 10
-0.319778 6.53837 1.03681 0.0121388 10
-0.299339 6.12045 1.19112 0.0138672 10
-0.320818 6.55963 1.51622 0.00904172 10
-0.320567 6.55449 1.75837 0.00878046 10
-0.341719 6.52038 -1.74953 0.0113577 10
-0.343019 6.54517 -1.51315 0.0116928 10
-0.341721 6.52041 -1.26918 0.0119859 10
-0.342301 6.53148 -1.0359 0.0122341 10
-0.342167 6.52892 -0.802751 0.0124353 10
-0.342169 6.52895 -0.571993 0.0125875 10
-0.342145 6.52851 -0.342614 0.0126893 10
-0.342648 6.5381 -0.11428 0.0127397 10
-0.343122 6.54715 0.114438 0.0127383 10
-0.342419 6.53373 0.342888 0.0126851 10
-0.342576 6.53673 0.572675 0.0125806 10
-0.341846 6.52281 0.801999 0.0124257 10
-0.341854 6.52294 1.03455 0.0122219 10
-0.320577 6.11696 1.19065 0.0139616 10
-0.341986 6.52546 1.50859 0.00910375 10
-0.342868 6.54229 1.75541 0.00884074 10
-0.365012 6.52873 -1.7521 0.011435 10
-0.364611 6.52156 -1.50797 0.0117723 10
-0.364114 6.51267 -1.26791 0.0120673 10
-0.365066 6.5297 -1.03582 0.0123172 10
-0.364185 6.51393 -0.801059 0.0125197 10
-0.363936 6.50948 -0.570395 0.0126729 10
-0.364162 6.51353 -0.341893 0.0127754 10
-0.365128 6.5308 -0.114174 0.0128261 10
-0.365305 6.53397 0.114229 0.0128247 10
-0.365268 6.5333 0.342931 0.0127712 10
-0.363853 6.508 0.570265 0.0126659 10
-0.363869 6.50828 0.800364 0.01251 10
-0.364207 6.51434 1.03338 0.0123049 10
-0.34059 6.0919 1.18599 0.0140559 10
-0.364219 6.51455 1.50635 0.00916567 10
-0.36481 6.52511 1.75113 0.00890094 10
-0.387039 6.51465 -1.74867 0.0115122 10
-0.386365 6.5033 -1.50405 0.0118517 10
-0.385986 6.49692 -1.2651 0.0121486 10
-0.385599 6.49041 -1.02979 0.0124002 10
-0.385593 6.4903 -0.798314 0.012604 10
-0.387123 6.51606 -0.571087 0.0127582 10
-0.385833 6.49434 -0.340954 0.0128613 10
-0.386123 6.49923 -0.113644 0.0129124 10
-0.385618 6.49072 0.113496 0.012911 10
-0.38708 6.51533 0.342056 0.0128571 10
-0.38735 6.51987 0.57142 0.0127512 10
-0.387313 6.51925 0.801875 0.0125943 10
-0.386197 6.50047 1.03139 0.0123878 10
-0.362461 6.10095 1.188 0.01415 10
-0.385841 6.49448 1.50201 0.0092275 10
-0.386368 6.50335 1.74564 0.00896104 10
-0.408823 6.49806 -1.74459 0.0115892 10
-0.407688 6.48003 -1.49899 0.011931 10
-0.40922 6.50436 -1.26682 0.0122298 10
-0.408828 6.49814 -1.03124 0.012483 10
-0.409068 6.50196 -0.799918 0.0126881 10
-0.408869 6.4988 -0.569695 0.0128433 10
-0.408564 6.49394 -0.341006 0.0129471 10
-0.409084 6.50221 -0.113721 0.0129985 10
-0.407765 6.48124 0.113354 0.0129971 10
-0.407526 6.47744 0.34014 0.0129429 10
-0.4087 6.49611 0.569459 0.0128363 10
-0.407677 6.47984 0.797198 0.0126783 10
-0.409268 6.50513 1.03235 0.0124706 10
-0.38253 6.08014 1.1842 0.014244 10
-0.408605 6.4946 1.50236 0.00928924 10
-0.407804 6.48187 1.74024 0.00902106 10
-0.430395 6.47993 -1.74012 0.0116662 10
-0.430985 6.48881 -1.50136 0.0120101 10
-0.429983 6.47373 -1.26114 0.0123108 10
-0.429848 6.4717 -1.02728 0.0125656 10
-0.429524 6.46681 -0.795774 0.0127721 10
-0.430821 6.48634 -0.568732 0.0129283 10
-0.430459 6.4809 -0.340398 0.0130328 10
-0.430982 6.48877 -0.113511 0.0130845 10
-0.430438 6.48058 0.113368 0.0130831 10
-0.430295 6.47843 0.340268 0.0130285 10
-0.431123 6.4909 0.569131 0.0129212 10
-0.429947 6.47318 0.796558 0.0127623 10
-0.430627 6.48343 1.02914 0.0125532 10
-0.402775 6.0641 1.18134 0.0143378 10
-0.431051 6.48981 1.50159 0.00935087 10
-0.430979 6.48872 1.74248 0.00908096 10
-0.451605 6.45825 -1.73471 0.0117429 10
-0.452341 6.46877 -1.49708 0.0120891 10
-0.451311 6.45405 -1.2576 0.0123917 10
-0.452232 6.46722 -1.02681 0.0126482 10
-0.452297 6.46815 -0.796129 0.0128559 10
-0.45226 6.46762 -0.567225 0.0130131 10
-0.45186 6.4619 -0.339481 0.0131183 10
-0.45259 6.47234 -0.113251 0.0131704 10
-0.452573 6.4721 0.113247 0.0131689 10
-0.452701 6.47393 0.340113 0.013114 10
-0.452203 6.4668 0.567153 0.013006 10
-0.452894 6.47668 0.797179 0.0128461 10
-0.452048 6.46459 1.02639 0.0126357 10
-0.42322 6.05233 1.17933 0.0144314 10
-0.451576 6.45784 1.49455 0.00941239 10
-0.452372 6.46922 1.73766 0.00914077 10
-0.472618 6.43585 -1.72913 0.0118196 10
-0.474172 6.45702 -1.49473 0.0121679 10
-0.472627 6.43597 -1.25439 0.0124725 10
-0.473519 6.44812 -1.02403 0.0127305 10
-0.473358 6.44592 -0.793591 0.0129396 10
-0.473424 6.44682 -0.565543 0.0130978 10
-0.473259 6.44457 -0.338655 0.0132036 10
-0.474034 6.45513 -0.112978 0.013256 10
-0.473521 6.44814 0.112856 0.0132546 10
-0.473625 6.44957 0.338918 0.0131993 10
-0.472838 6.43884 0.564843 0.0130907 10
-0.473988 6.45451 0.794648 0.0129297 10
-0.473383 6.44627 1.02374 0.012718 10
-0.443021 6.03282 1.17582 0.0145248 10
-0.472721 6.43725 1.49016 0.0094738 10
-0.4743 6.45875 1.73528 0.00920046 10
-0.495547 6.4402 -1.73075 0.0118961 10
-0.495173 6.43534 -1.49011 0.0122466 10
-0.495212 6.43585 -1.2547 0.0125531 10
-0.494758 6.42994 -1.02141 0.0128127 10
-0.494801 6.43051 -0.791901 0.0130231 10
-0.494157 6.42214 -0.563525 0.0131823 10
-0.495507 6.43968 -0.338487 0.0132888 10
-0.494378 6.42501 -0.112481 0.0133415 10
-0.494953 6.43249 0.112611 0.0133401 10
-0.495586 6.44071 0.338541 0.0132845 10
-0.495061 6.43388 0.564555 0.0131751 10
-0.495693 6.4421 0.793329 0.0130132 10
-0.494793 6.4304 1.02149 0.0128001 10
-0.462655 6.01273 1.17221 0.0146181 10
-0.49451 6.42672 1.48811 0.00953508 10
-0.495052 6.43377 1.72902 0.00926003 10
-0.516352 6.41767 -1.72517 0.0119724 10
-0.516276 6.41671 -1.4862 0.0123251 10
-0.517054 6.42639 -1.2532 0.0126335 10
-0.516028 6.41364 -1.0191 0.0128948 10
-0.51633 6.41739 -0.790502 0.0131065 10
-0.515461 6.40659 -0.562316 0.0132666 10
-0.516234 6.41619 -0.337345 0.0133738 10
-0.516366 6.41784 -0.112386 0.0134269 10
-0.515945 6.4126 0.112294 0.0134254 10
-0.517749 6.43502 0.338335 0.0133694 10
-0.515447 6.40642 0.5623 0.0132594 10
-0.516383 6.41805 0.790584 0.0130965 10
-0.515646 6.40889 1.01835 0.0128821 10
-0.483522 6.00962 1.17193 0.0147112 10
-0.515777 6.41052 1.48477 0.00959624 10
-0.516519 6.41974 1.72572 0.00931948 10
-0.537301 6.39857 -1.72053 0.0120486 10
-0.537201 6.39738 -1.48215 0.0124034 10
-0.537146 6.39673 -1.24777 0.0127137 10
-0.537463 6.4005 -1.01731 0.0129766 10
-0.538762 6.41598 -0.790556 0.0131896 10
-0.538224 6.40957 -0.562738 0.0133508 10
-0.537604 6.40219 -0.336705 0.0134586 10
-0.538277 6.4102 -0.112284 0.013512 10
-0.537409 6.39986 0.112103 0.0135105 10
-0.537659 6.40284 0.33674 0.0134542 10
-0.538178 6.40902 0.56269 0.0133436 10
-0.538804 6.41647 0.790616 0.0131796 10
-0.538945 6.41816 1.02011 0.0129639 10
-0.502857 5.98839 1.16812 0.014804 10
-0.536861 6.39334 1.48121 0.00965726 10
-0.537013 6.39515 1.71961 0.0093788 10
-0.559771 6.39822 -1.72095 0.0121246 10
-0.558141 6.37959 -1.47847 0.0124816 10
-0.5584 6.38254 -1.24538 0.0127938 10
-0.559892 6.39961 -1.01747 0.0130583 10
-0.558126 6.37941 -0.786285 0.0132726 10
-0.558113 6.37927 -0.560245 0.0134348 10
-0.559956 6.40033 -0.336709 0.0135432 10
-0.560212 6.40326 -0.112196 0.013597 10
-0.557999 6.37796 0.111753 0.0135955 10
-0.558677 6.38571 0.335939 0.0135388 10
-0.560363 6.40499 0.562504 0.0134275 10
-0.55938 6.39375 0.788053 0.0132626 10
-0.558461 6.38325 1.01487 0.0130455 10
-0.523716 5.9861 1.16803 0.0148967 10
-0.55992 6.39992 1.48318 0.00971816 10
-0.56054 6.40701 1.72331 0.009438 10
-0.58069 6.38073 -1.71678 0.0122004 10
-0.579082 6.36306 -1.4751 0.0125596 10
-0.58134 6.38787 -1.24681 0.0128737 10
-0.579318 6.36566 -1.01239 0.0131398 10
-0.579602 6.36877 -0.785219 0.0133554 10
-0.579259 6.36501 -0.559167 0.0135185 10
-0.58027 6.37612 -0.335539 0.0136276 10
-0.57958 6.36854 -0.111623 0.0136817 10
-0.58066 6.3804 0.11183 0.0136802 10
-0.580004 6.3732 0.335385 0.0136232 10
-0.580549 6.37918 0.560412 0.0135112 10
-0.581372 6.38822 0.787616 0.0133453 10
-0.580175 6.37508 1.01389 0.0131269 10
-0.544719 5.98547 1.16827 0.0149891 10
-0.581586 6.39058 1.48148 0.00977891 10
-0.579564 6.36836 1.71345 0.00949705 10
-0.602515 6.37395 -1.71551 0.012276 10
-0.60129 6.36098 -1.4751 0.0126374 10
-0.600327 6.35079 -1.23997 0.0129534 10
-0.600407 6.35164 -1.01049 0.0132211 10
-0.600387 6.35143 -0.783334 0.013438 10
-0.60161 6.36437 -0.559293 0.0136021 10
-0.601577 6.36402 -0.335011 0.0137119 10
-0.601217 6.36021 -0.111513 0.0137663 10
-0.602503 6.37382 0.111751 0.0137648 10
-0.601712 6.36545 0.335086 0.0137074 10
-0.601302 6.36112 0.559006 0.0135948 10
-0.601806 6.36645 0.785186 0.0134278 10
-0.60182 6.36659 1.01286 0.0132082 10
-0.563179 5.95782 1.16324 0.0150814 10
-0.602521 6.37401 1.47812 0.00983952 10
-0.602912 6.37815 1.71664 0.00955597 10
-0.622121 6.34489 -1.70826 0.0123515 10
-0.623553 6.3595 -1.47525 0.012715 10
-0.622095 6.34463 -1.23919 0.0130329 10
-0.622297 6.34669 -1.01004 0.0133021 10
-0.622266 6.34638 -0.782974 0.0135204 10
-0.623428 6.35822 -0.55894 0.0136854 10
-0.624088 6.36495 -0.335173 0.0137959 10
-0.623661 6.3606 -0.111557 0.0138506 10
-0.623747 6.36148 0.111572 0.0138491 10
-0.621662 6.34021 0.33387 0.0137914 10
-0.621488 6.33844 0.557201 0.0136781 10
-0.621571 6.33929 0.782099 0.0135102 10
-0.62174 6.34101 1.00913 0.0132892 10
-0.582796 5.94382 1.1609 0.0151733 10
-0.621958 6.34324 1.47147 0.00989997 10
-0.623295 6.35687 1.71149 0.00961473 10
-0.643889 6.33897 -1.70726 0.0124268 10
-0.642365 6.32397 -1.46752 0.0127924 10
-0.643862 6.3387 -1.23846 0.0131122 10
-0.642442 6.32472 -1.00689 0.013383 10
-0.64405 6.34055 -0.782528 0.0136025 10
-0.643856 6.33864 -0.557413 0.0137686 10
-0.643596 6.33609 -0.333769 0.0138797 10
-0.642334 6.32366 -0.110948 0.0139347 10
