VERSION 0.7
FIELDS x y z intensity label
SIZE 4 4 4 4 4
TYPE F F F F F
COUNT 1 1 1 1 1
WIDTH 1170
HEIGHT 1
VIEWPOINT 31.0571 7.49019 2.72833 0.999993 -5.71856e-05 0.000876709 -0.00375106
POINTS 1170
DATA ascii
7.40183 -11.8454 -2.71507 0.0001701 1
7.83519 -12.5389 -2.34181 0.00152514 10
7.82339 -12.52 -1.81271 0.00155369 10
16.0264 -25.6475 -1.58497 0.000103325 10
16.0343 -25.6602 -0.528155 0.00010396 10
16.032 -25.6565 0.528079 0.000104016 10
10.8058 -17.2928 1.06866 3.79687e-05 10
7.82653 -12.5251 1.29214 0.00122823 10
7.83126 -12.5326 1.81454 0.00121129 10
7.60019 -12.1628 3.84297 0.00118471 10
5.4043 -8.58188 -2.71747 0.000514604 1
6.27356 -9.96225 -2.71801 0.00031149 1
7.4507 -11.8315 -2.71784 0.000170118 1
7.88923 -12.5279 -2.34488 0.00151275 10
7.88827 -12.5264 -1.8176 0.00154109 10
16.0275 -25.4513 -1.57629 0.000106042 10
16.0314 -25.4574 -0.525129 0.000106692 10
16.0184 -25.4367 0.524702 0.000106749 10
10.8691 -17.2598 1.06896 3.79524e-05 10
7.88528 -12.5216 1.29462 0.00121827 10
7.88892 -12.5274 1.81775 0.00120146 10
7.66601 -12.1734 3.85474 0.00117511 10
5.43218 -8.55974 -2.71645 0.000514641 1
6.31135 -9.9451 -2.71933 0.000311517 1
7.48851 -11.8 -2.71659 0.000170135 1
7.95875 -12.541 -2.35252 0.00150037 10
7.94957 -12.5265 -1.82164 0.00152848 10
16.0248 -25.251 -1.56734 0.000108803 10
16.0263 -25.2534 -0.522071 0.000109469 10
16.0191 -25.2421 0.521837 0.000109527 10
10.9192 -17.2059 1.06798 3.79363e-05 10
7.94458 -12.5187 1.29717 0.00120831 10
7.95853 -12.5406 1.82369 0.00119163 10
7.72503 -12.1727 3.86303 0.0011655 10
5.46948 -8.55239 -2.72016 0.000514678 1
6.33563 -9.90676 -2.71488 0.000311543 1
7.53318 -11.7793 -2.71786 0.000170153 1
8.01981 -12.5402 -2.35761 0.00148798 10
8.01514 -12.5329 -1.82663 0.00151587 10
16.0275 -25.0615 -1.55904 0.000111608 10
16.026 -25.0592 -0.51921 0.00011229 10
16.0176 -25.0461 0.518938 0.000112349 10
10.9823 -17.1726 1.06828 3.79201e-05 10
8.0158 -12.534 1.30165 0.00119836 10
8.00837 -12.5223 1.82509 0.00118181 10
7.78589 -12.1745 3.87219 0.00115589 10
5.50178 -8.53709 -2.72139 0.000514715 1
6.36957 -9.88363 -2.71462 0.000311569 1
7.56944 -11.7455 -2.71613 0.000170171 1
8.0802 -12.538 -2.36249 0.0014756 10
8.06805 -12.5192 -1.82872 0.00150327 10
11.4173 -17.7162 -1.84395 0.000349739 10
11.4123 -17.7084 -1.10409 0.000353432 10
11.3989 -17.6877 -0.367299 0.000355373 10
11.3996 -17.6887 0.367321 0.00035554 10
11.0482 -17.1435 1.06887 3.7904e-05 10
8.0705 -12.523 1.30343 0.0011884 10
8.0796 -12.5371 1.83134 0.00117198 10
7.83953 -12.1646 3.87773 0.00114628 10
5.52487 -8.50755 -2.7181 0.000514751 1
6.41009 -9.87067 -2.71719 0.000311596 1
7.60492 -11.7105 -2.71418 0.000170188 1
8.13368 -12.5248 -2.36532 0.00146321 10
8.1415 -12.5368 -1.83544 0.00149067 10
11.4115 -17.5721 -1.83309 0.000357711 10
11.4005 -17.5553 -1.09702 0.000361482 10
11.4131 -17.5747 -0.365777 0.000363463 10
11.3991 -17.5531 0.365328 0.000363633 10
11.1033 -17.0976 1.06842 3.7888e-05 10
8.14109 -12.5362 1.30775 0.00117845 10
8.12913 -12.5178 1.83265 0.00116215 10
8.14306 -12.5392 4.00619 0.00104797 10
5.5505 -8.48206 -2.71613 0.000514787 1
6.44819 -9.85387 -2.71874 0.000311622 1
7.65836 -11.7032 -2.71865 0.000170206 1
8.20586 -12.5399 -2.37357 0.00145084 10
8.19562 -12.5242 -1.83777 0.00147807 10
11.4066 -17.4311 -1.82252 0.00036579 10
11.405 -17.4287 -1.09158 0.000369639 10
11.4026 -17.425 -0.36349 0.000371661 10
11.4108 -17.4376 0.363751 0.000371834 10
11.1724 -17.0732 1.06932 3.78719e-05 10
8.20207 -12.5341 1.31051 0.00116849 10
8.20141 -12.5331 1.83907 0.00115233 10
8.19835 -12.5284 4.01185 0.00103906 10
5.59016 -8.47792 -2.72104 0.000514823 1
6.47612 -9.82156 -2.71605 0.000311648 1
7.68925 -11.6614 -2.71515 0.000170223 1
8.2617 -12.5295 -2.37706 0.00143846 10
8.25982 -12.5267 -1.84235 0.00146548 10
11.4018 -17.2917 -1.8121 0.000373975 10
11.397 -17.2845 -1.08504 0.000377904 10
11.4098 -17.3038 -0.36179 0.000379968 10
11.4069 -17.2995 0.361698 0.000380143 10
11.2258 -17.0248 1.06874 3.78559e-05 10
8.25355 -12.5172 1.31175 0.00115855 10
8.2676 -12.5385 1.84409 0.00114251 10
8.30978 -12.6024 2.39089 0.000705254 10
8.31265 -12.6068 2.93528 0.000688916 10
8.30399 -12.5937 3.48264 0.000669697 10
8.26333 -12.532 4.02222 0.00103016 10
5.61946 -8.45797 -2.72091 0.00051486 1
6.50693 -9.79372 -2.71461 0.000311674 1
7.72571 -11.6281 -2.71368 0.000170241 1
8.31906 -12.5212 -2.38097 0.00142609 10
8.32439 -12.5292 -1.84699 0.00145289 10
11.4131 -17.1781 -1.80436 0.000583047 10
11.4153 -17.1815 -1.08107 0.000588882 10
11.4099 -17.1733 -0.359892 0.000591811 10
11.4118 -17.1761 0.35995 0.0005918 10
11.2953 -17.0009 1.0697 3.784e-05 10
8.32399 -12.5286 1.31598 0.0011486 10
8.32954 -12.537 1.84813 0.0011327 10
8.33444 -12.5443 2.38537 0.00046271 10
8.3342 -12.544 2.92741 0.000452201 10
8.33506 -12.5453 3.47729 0.000439796 10
8.3178 -12.5193 4.02743 0.00102126 10
5.65075 -8.44099 -2.72178 0.000514896 1
6.54903 -9.78283 -2.71791 0.0003117 1
7.76532 -11.5997 -2.71335 0.000170258 1
8.39018 -12.5331 -2.38879 0.00141373 10
8.38487 -12.5252 -1.85069 0.00144031 10
11.503 -17.183 -1.80908 0.000577613 10
11.5092 -17.1922 -1.08426 0.000583396 10
11.505 -17.1859 -0.360995 0.0005863 10
11.4962 -17.1728 0.360719 0.000586289 10
11.3561 -16.9635 1.06984 3.7824e-05 10
8.37879 -12.5161 1.31773 0.00113866 10
8.39334 -12.5378 1.85256 0.00112289 10
8.35557 -12.4814 2.37894 0.000732127 10
8.36756 -12.4993 2.92379 0.000715503 10
8.35314 -12.4778 3.46664 0.00069588 10
8.39073 -12.5339 4.04154 0.00101236 10
5.66655 -8.40101 -2.71525 0.000514932 1
6.58683 -9.76538 -2.71944 0.000311726 1
7.81154 -11.5811 -2.71536 0.000170275 1
8.45401 -12.5336 -2.39449 0.00140138 10
8.45619 -12.5368 -1.85676 0.00142774 10
11.5901 -17.183 -1.81333 0.000572184 10
11.5847 -17.1751 -1.08573 0.000577917 10
11.5969 -17.1932 -0.361995 0.000580795 10
11.5865 -17.1777 0.36167 0.000580784 10
11.4203 -16.9313 1.07032 3.78082e-05 10
8.44859 -12.5256 1.32183 0.00112873 10
8.44804 -12.5247 1.85497 0.00111309 10
8.35696 -12.3897 2.36701 0.000746947 10
8.36772 -12.4057 2.90869 0.000730004 10
8.36694 -12.4045 3.45437 0.000710003 10
8.44362 -12.5182 4.04594 0.00100348 10
5.69676 -8.38253 -2.71569 0.000514968 1
6.61162 -9.72871 -2.71564 0.000311752 1
7.85644 -11.5604 -2.71692 0.000170293 1
8.51628 -12.5313 -2.39973 0.00138904 10
8.51433 -12.5285 -1.85992 0.00141518 10
8.58088 -12.6264 -1.33562 0.000619836 10
8.58536 -12.633 -0.800486 0.000625882 10
8.57005 -12.6104 -0.266136 0.000629054 10
8.56905 -12.609 0.266105 0.000629318 10
8.5795 -12.6244 0.799939 0.00062667 10
8.51114 -12.5238 1.32476 0.00111881 10
8.50758 -12.5185 1.85844 0.0011033 10
8.3682 -12.3134 2.358 0.000761934 10
8.36672 -12.3113 2.89339 0.000744668 10
8.36032 -12.3018 3.43389 0.000724286 10
8.51969 -12.5364 4.0614 0.000994596 10
5.72984 -8.36822 -2.71752 0.000515004 1
6.655 -9.71939 -2.7195 0.000311778 1
7.88964 -11.5225 -2.71448 0.00017031 1
8.5806 -12.5317 -2.40551 0.00137671 10
8.57172 -12.5187 -1.8629 0.00140263 10
8.57676 -12.526 -1.32817 0.00063222 10
8.57187 -12.5189 -0.795148 0.000638379 10
8.57432 -12.5225 -0.26491 0.000641609 10
8.5726 -12.52 0.264856 0.000952576 10
8.57705 -12.5265 0.795629 0.000948158 10
8.58139 -12.5328 1.32888 0.00110889 10
8.58033 -12.5313 1.86477 0.00109351 10
8.3665 -12.219 2.34549 0.00077709 10
8.3551 -12.2023 2.87462 0.000759498 10
8.35556 -12.203 3.41442 0.000738731 10
8.57572 -12.5245 4.06724 0.000985723 10
5.76754 -8.36053 -2.72154 0.00051504 1
6.68889 -9.6961 -2.7195 0.000311804 1
7.9397 -11.5093 -2.71786 0.000170327 1
8.6452 -12.5319 -2.41134 0.00136439 10
8.64734 -12.535 -1.86981 0.00139009 10
8.64114 -12.5261 -1.33136 0.000931077 10
8.63482 -12.5169 -0.79693 0.000939741 10
8.64284 -12.5285 -0.265674 0.000944088 10
8.64299 -12.5287 0.265679 0.000944072 10
8.63884 -12.5227 0.797301 0.000939692 10
8.63374 -12.5153 1.33021 0.00109899 10
8.63439 -12.5163 1.86701 0.00108373 10
8.3893 -12.161 2.33997 0.00115359 10
8.39192 -12.1648 2.87266 0.00112698 10
8.38705 -12.1577 3.40992 0.00109567 10
8.63426 -12.5161 4.07426 0.000976858 10
5.7908 -8.33187 -2.71877 0.000515076 1
6.72501 -9.67602 -2.72044 0.000311829 1
7.98047 -11.4824 -2.71808 0.000170345 1
8.7 -12.5177 -2.41442 0.00135208 10
8.71089 -12.5333 -1.87408 0.00137756 10
16.0142 -23.0414 -2.45493 0.000143771 10
16.0172 -23.0458 -1.47084 0.000145422 10
16.006 -23.0296 -0.489538 0.000146288 10
16.0029 -23.0252 0.489443 0.000146359 10
11.6568 -16.772 1.07043 3.7745e-05 10
8.70265 -12.5215 1.33409 0.00108909 10
8.71118 -12.5338 1.87414 0.00107397 10
8.46391 -12.178 2.3489 0.00114325 10
8.44821 -12.1554 2.87739 0.00111686 10
8.4553 -12.1656 3.42038 0.00108582 10
8.7079 -12.529 4.08835 0.000968003 10
5.81933 -8.31087 -2.71853 0.000515112 1
6.7582 -9.65171 -2.72022 0.000311855 1
8.01265 -11.4432 -2.71542 0.000170362 1
8.76827 -12.5224 -2.42122 0.00133978 10
8.76168 -12.513 -1.8756 0.00136504 10
8.85202 -12.642 -1.35022 0.000613886 10
8.85289 -12.6432 -0.808891 0.000619883 10
8.84625 -12.6337 -0.269209 0.000623026 10
8.84337 -12.6296 0.269121 0.000623283 10
8.83873 -12.623 0.807597 0.000620649 10
8.77695 -12.5348 1.33876 0.0010792 10
8.76647 -12.5198 1.87662 0.00106421 10
8.77331 -12.5296 2.42262 0.00104448 10
8.76868 -12.523 2.97163 0.00102021 10
8.76563 -12.5186 3.52822 0.000991671 10
8.76852 -12.5227 4.09626 0.000959157 10
5.84381 -8.28412 -2.71644 0.000515148 1
6.78896 -9.62397 -2.71906 0.000311881 1
8.0463 -11.4064 -2.71332 0.000170379 1
8.83056 -12.5181 -2.42634 0.0013275 10
8.834 -12.523 -1.88171 0.00135254 10
8.84578 -12.5397 -1.34258 0.000625813 10
8.85022 -12.546 -0.80464 0.000631918 10
8.83965 -12.531 -0.267675 0.000635117 10
8.83847 -12.5293 0.267639 0.000635377 10
8.85038 -12.5462 0.804654 0.000632694 10
8.82646 -12.5123 1.33965 0.00106933 10
8.84079 -12.5326 1.88316 0.00105447 10
8.83239 -12.5207 2.42685 0.0010349 10
8.82685 -12.5129 2.97653 0.00101085 10
8.83061 -12.5182 3.53677 0.000982554 10
8.84114 -12.5331 4.10972 0.000950322 10
5.88329 -8.2786 -2.72134 0.000515183 1
6.82428 -9.6027 -2.71977 0.000311906 1
8.08533 -11.3772 -2.71307 0.000170396 1
8.89145 -12.5115 -2.43106 0.00131523 10
8.9075 -12.5341 -1.88804 0.00134006 10
8.90152 -12.5256 -1.34439 0.000897595 10
8.89636 -12.5184 -0.804857 0.000905965 10
8.90281 -12.5275 -0.268262 0.000910164 10
8.89956 -12.5229 0.268164 0.000910147 10
8.90852 -12.5355 0.805957 0.000905917 10
8.89472 -12.5161 1.34337 0.00105947 10
8.89393 -12.515 1.88516 0.00104473 10
8.8989 -12.522 2.4331 0.00102534 10
8.89434 -12.5156 2.98454 0.0010015 10
8.89561 -12.5173 3.54528 0.000973449 10
8.8995 -12.5228 4.1165 0.000941499 10
5.89811 -8.2384 -2.71488 0.000515219 1
6.84515 -9.5612 -2.71476 0.000311932 1
8.1277 -11.3527 -2.71397 0.000170413 1
8.96847 -12.527 -2.44015 0.00130299 10
8.96577 -12.5233 -1.89111 0.00132759 10
15.8211 -22.0987 -2.37779 0.000163594 10
15.8247 -22.1036 -1.42467 0.000165452 10
15.8221 -22.1001 -0.474429 0.000166426 10
15.8137 -22.0883 0.474175 0.000166504 10
11.8914 -16.6097 1.07057 3.76824e-05 10
8.96887 -12.5276 1.34795 0.00104962 10
8.95935 -12.5143 1.88976 0.00103501 10
8.95996 -12.5151 2.43783 0.00101579 10
8.97439 -12.5353 2.99669 0.000992156 10
8.96445 -12.5214 3.55528 0.000964357 10
8.96477 -12.5219 4.12645 0.000932689 10
5.9336 -8.22714 -2.71798 0.000515254 1
6.88741 -9.54963 -2.71829 0.000311957 1
8.16484 -11.3208 -2.71316 0.00017043 1
9.03999 -12.5343 -2.44769 0.00129076 10
9.03254 -12.5239 -1.89596 0.00131515 10
9.12043 -12.6458 -1.36409 0.000608161 10
9.12746 -12.6555 -0.817752 0.00061411 10
9.11112 -12.6329 -0.271875 0.000617226 10
9.12042 -12.6458 0.272152 0.000617475 10
9.1128 -12.6352 0.816438 0.000614855 10
9.03502 -12.5274 1.35132 0.00103978 10
9.03755 -12.5309 1.89701 0.00102531 10
9.03323 -12.5249 2.44586 0.00100626 10
9.03083 -12.5216 3.00093 0.000982831 10
9.02465 -12.513 3.5618 0.000955278 10
9.0321 -12.5233 4.1373 0.000923891 10
5.9711 -8.21851 -2.722 0.00051529 1
6.91429 -9.51671 -2.71577 0.000311983 1
8.21044 -11.3007 -2.71519 0.000170447 1
9.09451 -12.5175 -2.4506 0.00127854 10
9.10343 -12.5298 -1.90165 0.00130272 10
9.11559 -12.5465 -1.35681 0.000619654 10
9.12162 -12.5548 -0.813297 0.000625707 10
9.12095 -12.5539 -0.270859 0.000628877 10
9.11123 -12.5405 0.27057 0.00062913 10
9.10849 -12.5368 0.812126 0.000626462 10
9.10378 -12.5303 1.35505 0.00102996 10
9.0987 -12.5233 1.90066 0.00101562 10
9.10216 -12.5281 2.45267 0.000996736 10
9.10485 -12.5318 3.01097 0.000973519 10
9.09071 -12.5123 3.57062 0.000946213 10
9.10554 -12.5327 4.15087 0.000915107 10
5.99815 -8.19543 -2.72127 0.000515325 1
6.95785 -9.5067 -2.71983 0.000312008 1
8.25475 -11.2787 -2.71681 0.000170464 1
9.16544 -12.523 -2.45792 0.00126635 10
9.16782 -12.5262 -1.90595 0.00129031 10
9.16417 -12.5213 -1.35752 0.000864295 10
9.15818 -12.5131 -0.812657 0.000872371 10
9.16232 -12.5187 -0.270788 0.000876423 10
9.16849 -12.5272 0.27097 0.000876407 10
9.17308 -12.5334 0.81398 0.000872324 10
9.16819 -12.5267 1.35812 0.00102016 10
9.16972 -12.5288 1.90635 0.00100594 10
9.17052 -12.5299 2.45929 0.000987231 10
9.17061 -12.5301 3.01824 0.000964223 10
9.16783 -12.5263 3.58371 0.000937164 10
9.17223 -12.5323 4.16131 0.000906338 10
6.01625 -8.16024 -2.71655 0.00051536 1
6.97782 -9.46449 -2.71471 0.000312034 1
8.28688 -11.2401 -2.71445 0.000170481 1
9.22363 -12.5106 -2.4618 0.00125418 10
9.22525 -12.5128 -1.9088 0.00127792 10
16.0952 -21.831 -2.37294 0.000231698 10
16.1021 -21.8404 -1.42206 0.000234212 10
16.0961 -21.8322 -0.473457 0.000235474 10
16.0988 -21.8359 0.473537 0.000235469 10
12.1331 -16.457 1.07154 3.76204e-05 10
9.23392 -12.5246 1.36137 0.00101037 10
9.22569 -12.5134 1.90889 0.000996283 10
9.2352 -12.5263 2.46489 0.000977741 10
9.23143 -12.5212 3.02385 0.000954942 10
9.23612 -12.5276 3.59329 0.000928129 10
9.22371 -12.5107 4.16482 0.000897585 10
6.03984 -8.13265 -2.71436 0.000515396 1
7.02424 -9.45815 -2.7199 0.000312059 1
8.33509 -11.2232 -2.71739 0.000170498 1
9.30282 -12.5263 -2.47125 0.00124203 10
9.28975 -12.5087 -1.9131 0.00126555 10
9.38562 -12.6378 -1.37723 0.000602621 10
9.39642 -12.6523 -0.825939 0.000608523 10
9.38843 -12.6415 -0.274856 0.000611613 10
9.38998 -12.6436 0.274901 0.000611856 10
9.39395 -12.649 0.825722 0.000609249 10
9.29052 -12.5097 1.36327 0.0010006 10
9.30138 -12.5243 1.9155 0.000986643 10
9.30661 -12.5314 2.47226 0.00096827 10
9.2975 -12.5191 3.03116 0.000945679 10
9.3001 -12.5226 3.60115 0.000919112 10
9.29177 -12.5114 4.17581 0.000888847 10
6.08145 -8.12924 -2.72029 0.000515431 1
7.04034 -9.41102 -2.7134 0.000312084 1
8.35805 -11.1724 -2.71215 0.000170515 1
9.36941 -12.5244 -2.47731 0.00122991 10
9.36347 -12.5164 -1.91927 0.00125321 10
9.38895 -12.5505 -1.37128 0.0006137 10
9.38706 -12.5479 -0.821261 0.000619703 10
9.39361 -12.5567 -0.273722 0.000622845 10
9.38906 -12.5506 0.27359 0.000623092 10
9.39331 -12.5563 0.821808 0.000620438 10
9.37335 -12.5296 1.369 0.00099085 10
9.37299 -12.5291 1.92122 0.00097702 10
9.36246 -12.5151 2.47548 0.000958816 10
9.37063 -12.526 3.04072 0.000936434 10
9.36842 -12.523 3.61066 0.000910111 10
9.36407 -12.5172 4.18864 0.000880126 10
6.11145 -8.11016 -2.72103 0.000515466 1
7.07275 -9.38586 -2.71325 0.000312109 1
8.41261 -11.1639 -2.71719 0.000170532 1
9.43728 -12.5237 -2.48368 0.0012178 10
9.42996 -12.514 -1.92394 0.00124089 10
9.44024 -12.5276 -1.37237 0.000831219 10
9.43175 -12.5164 -0.821344 0.000839004 10
9.42555 -12.5081 -0.273379 0.000842909 10
9.44136 -12.5291 0.273837 0.000842893 10
9.43205 -12.5168 0.82137 0.000838958 10
9.43173 -12.5163 1.37113 0.000981117 10
9.43283 -12.5178 1.92452 0.000967415 10
9.43464 -12.5202 2.48299 0.000949381 10
9.43723 -12.5236 3.04813 0.000927206 10
9.43393 -12.5192 3.61904 0.000901128 10
9.43171 -12.5163 4.19933 0.000871423 10
6.12727 -8.07238 -2.71551 0.000515501 1
7.10983 -9.36686 -2.71491 0.000312135 1
8.43527 -11.1131 -2.71196 0.000170549 1
9.51003 -12.529 -2.49131 0.00120573 10
9.50825 -12.5267 -1.93098 0.0012286 10
16.5679 -21.8275 0.478324 0.000224978 10
12.367 -16.293 1.072 3.75591e-05 10
9.50768 -12.5259 1.37581 0.000971406 10
9.50076 -12.5168 1.92946 0.000957832 10
9.49538 -12.5097 2.48747 0.000939966 10
9.50594 -12.5236 3.05619 0.000917999 10
9.50774 -12.526 3.63056 0.000892165 10
9.5096 -12.5284 4.21451 0.000862739 10
6.16481 -8.06324 -2.71966 0.000515536 1
7.1419 -9.34123 -2.71469 0.00031216 1
8.48707 -11.1006 -2.71614 0.000170565 1
9.57104 -12.5184 -2.49583 0.00119368 10
9.5713 -12.5187 -1.93489 0.00121633 10
9.65905 -12.6335 -1.39133 0.000597227 10
9.65123 -12.6233 -0.832762 0.000603085 10
9.66125 -12.6364 -0.27765 0.000606148 10
9.65172 -12.6239 0.277376 0.000606385 10
9.6549 -12.6281 0.833079 0.000603792 10
9.5625 -12.5072 1.37742 0.000961714 10
9.56955 -12.5165 1.93454 0.000948268 10
9.57881 -12.5286 2.49785 0.000930571 10
9.5761 -12.525 3.06467 0.000908811 10
9.56946 -12.5163 3.63743 0.000883221 10
9.57738 -12.5267 4.22515 0.000854073 10
6.18821 -8.03555 -2.71759 0.00051557 1
7.17991 -9.3233 -2.71675 0.000312185 1
8.51656 -11.059 -2.71321 0.000170582 1
9.64526 -12.5246 -2.50377 0.00118165 10
9.64632 -12.526 -1.94121 0.00120409 10
9.65738 -12.5404 -1.38477 0.000607911 10
9.65891 -12.5424 -0.829642 0.000613867 10
9.65377 -12.5357 -0.276176 0.000616981 10
9.65938 -12.543 0.276336 0.000617221 10
9.66082 -12.5448 0.829806 0.000614583 10
9.63715 -12.5141 1.38187 0.000952044 10
9.63427 -12.5104 1.93879 0.000938726 10
9.64773 -12.5278 2.5044 0.000921196 10
9.63841 -12.5157 3.07061 0.000899643 10
9.64416 -12.5232 3.64918 0.000874297 10
9.64198 -12.5204 4.23434 0.000845427 10
6.22504 -8.02528 -2.72145 0.000515605 1
7.21776 -9.30509 -2.71877 0.000312209 1
8.55982 -11.0353 -2.7147 0.000170599 1
9.7141 -12.5233 -2.51027 0.00116966 10
9.70186 -12.5076 -1.94359 0.00119188 10
9.71294 -12.5219 -1.38646 0.000798415 10
9.71266 -12.5215 -0.8305 0.000805909 10
9.71688 -12.5269 -0.276728 0.000809669 10
9.71603 -12.5258 0.276704 0.000809654 10
9.70212 -12.5079 0.829598 0.000805865 10
9.70899 -12.5168 1.3859 0.000942397 10
9.71173 -12.5203 1.94557 0.000929205 10
9.70393 -12.5102 2.50764 0.000911844 10
9.71288 -12.5218 3.08039 0.000890497 10
9.71018 -12.5183 3.65761 0.000865395 10
9.71607 -12.5259 4.24765 0.000836801 10
5.81389 -7.44144 -2.53033 0.00066857 4
7.23897 -9.26546 -2.71456 0.000312234 1
8.60352 -11.012 -2.71635 0.000170615 1
9.7783 -12.5157 -2.51556 0.00115769 10
9.77502 -12.5115 -1.94948 0.0011797 10
17.0465 -21.8186 0.483298 0.00021463 10
12.5825 -16.1048 1.07107 3.74983e-05 10
9.78767 -12.5276 1.39088 0.000932773 10
9.78631 -12.5259 1.95173 0.000919708 10
9.77499 -12.5114 2.5147 0.000902514 10
9.78336 -12.5221 3.08886 0.000881374 10
9.77802 -12.5153 3.66668 0.000856513 10
9.78022 -12.5181 4.25656 0.000828197 10
5.83474 -7.41464 -2.52813 0.000608514 4
7.2769 -9.24729 -2.71666 0.000312259 1
8.62913 -10.9657 -2.71234 0.000170632 1
9.84092 -12.5056 -2.52042 0.00114575 10
9.84079 -12.5054 -1.95388 0.00116755 10
9.93678 -12.6274 -1.4058 0.00059195 10
9.92038 -12.6066 -0.840715 0.000597764 10
9.93605 -12.6265 -0.280453 0.000600803 10
9.93232 -12.6217 0.280347 0.000601034 10
9.927 -12.615 0.841276 0.000598454 10
9.8583 -12.5277 1.39469 0.000923172 10
9.84389 -12.5094 1.9545 0.000910235 10
9.85523 -12.5238 2.52408 0.000893207 10
9.84571 -12.5117 3.09474 0.000872273 10
9.84375 -12.5092 3.67493 0.000847654 10
9.84593 -12.512 4.26613 0.000819615 10
5.86237 -7.39647 -2.52889 0.000529668 4
7.30539 -9.2171 -2.71527 0.000312284 1
8.66451 -10.9319 -2.71145 0.000170648 1
9.9211 -12.5173 -2.52975 0.00113385 10
9.92801 -12.526 -1.96251 0.00115543 10
9.9235 -12.5203 -1.39772 0.000602257 10
9.93783 -12.5384 -0.838479 0.000608166 10
9.92134 -12.5176 -0.278803 0.000611254 10
9.91874 -12.5143 0.27873 0.000611488 10
9.92629 -12.5239 0.837506 0.000608864 10
9.91532 -12.51 1.39657 0.000913596 10
9.92821 -12.5263 1.96255 0.000900786 10
9.91308 -12.5072 2.5277 0.000883925 10
9.92912 -12.5274 3.10719 0.000863196 10
9.91459 -12.5091 3.68505 0.000838819 10
9.92284 -12.5195 4.28049 0.000811055 10
5.89016 -7.37848 -2.52976 0.000499649 4
7.3405 -9.19528 -2.71637 0.000312309 1
8.70381 -10.9031 -2.71182 0.000170665 1
9.98488 -12.5078 -2.53486 0.00112197 10
9.98451 -12.5074 -1.96503 0.00114334 10
9.99029 -12.5146 -1.40097 0.000765925 10
9.98447 -12.5073 -0.838726 0.000773131 10
9.98498 -12.508 -0.279362 0.000776746 10
9.98469 -12.5076 0.279354 0.000776732 10
9.99679 -12.5228 0.839761 0.000773088 10
9.98873 -12.5127 1.40075 0.000904047 10
9.99432 -12.5197 1.96696 0.000891362 10
9.98841 -12.5123 2.53576 0.000874668 10
9.99623 -12.5221 3.1145 0.000854143 10
9.98647 -12.5098 3.69552 0.000830008 10
9.99488 -12.5204 4.29269 0.000802519 10
5.91048 -7.35116 -2.52745 0.00052598 4
7.3718 -9.16866 -2.71609 0.000312333 1
8.75336 -10.887 -2.7154 0.000170681 1
10.0557 -12.5068 -2.54174 0.00111013 10
10.0668 -12.5206 -1.97262 0.00113129 10
10.2094 -12.6979 -1.42547 0.000576902 10
10.2004 -12.6868 -0.853142 0.000582582 10
10.1948 -12.6798 -0.283993 0.00058555 10
10.203 -12.69 0.284222 0.000585773 10
10.1901 -12.6739 0.852275 0.000583248 10
10.0534 -12.5039 1.4037 0.000894523 10
10.0652 -12.5186 1.97231 0.000881964 10
10.0683 -12.5224 2.54492 0.000865436 10
10.0715 -12.5264 3.12431 0.000845116 10
10.0661 -12.5196 3.70877 0.000821221 10
10.066 -12.5196 4.30446 0.000794007 10
5.94552 -7.34211 -2.53146 0.000435841 4
7.40403 -9.14322 -2.71619 0.000312358 1
8.78974 -10.8544 -2.71492 0.000170698 1
10.1354 -12.5162 -2.55084 0.00109832 10
10.1417 -12.524 -1.97872 0.00111927 10
10.2032 -12.5999 -1.41846 0.000586761 10
10.1899 -12.5835 -0.848581 0.000592532 10
10.1957 -12.5906 -0.282791 0.000595547 10
10.1998 -12.5957 0.282906 0.000595772 10
10.1913 -12.5852 0.848699 0.000593205 10
10.129 -12.5083 1.40814 0.000885027 10
10.1392 -12.5209 1.97823 0.000872594 10
10.1252 -12.5035 2.54825 0.000856232 10
10.1376 -12.5189 3.13124 0.000836115 10
10.1343 -12.5148 3.71781 0.000812461 10
10.1428 -12.5253 4.31855 0.00078552 10
5.95658 -7.3035 -2.5253 0.000371992 4
7.43803 -9.11992 -2.71697 0.000312383 1
8.81821 -10.8122 -2.71204 0.000170714 1
10.2012 -12.508 -2.5564 0.00108655 10
10.2123 -12.5215 -1.98395 0.00110729 10
10.2079 -12.5162 -1.41303 0.000741791 10
10.209 -12.5175 -0.846529 0.000748782 10
10.2103 -12.519 -0.281982 0.00075229 10
10.2137 -12.5233 0.282078 0.000752275 10
10.2107 -12.5195 0.846668 0.00074874 10
10.2098 -12.5184 1.41329 0.000875558 10
10.2152 -12.5251 1.98451 0.000863251 10
10.2081 -12.5164 2.55812 0.000847053 10
10.2048 -12.5124 3.1385 0.00082714 10
10.2029 -12.5101 3.72694 0.000803725 10
10.2071 -12.5151 4.3273 0.000777057 10
5.98759 -7.28942 -2.52764 0.000586208 4
7.45951 -9.08135 -2.71322 0.000312407 1
8.86392 -10.7911 -2.7145 0.000170731 1
10.2828 -12.5185 -2.56587 0.00107481 10
10.2716 -12.5048 -1.98697 0.00109534 10
10.2691 -12.5018 -1.41545 0.000733793 10
10.2796 -12.5146 -0.848757 0.000740713 10
10.285 -12.5211 -0.282837 0.000744185 10
10.272 -12.5053 0.282479 0.000744171 10
10.2817 -12.5172 0.848931 0.000740672 10
10.2774 -12.5119 1.41659 0.000866118 10
10.287 -12.5236 1.98995 0.000853936 10
10.2853 -12.5215 2.56649 0.000837903 10
10.2713 -12.5044 3.14548 0.000818193 10
10.2819 -12.5174 3.7398 0.000795017 10
10.2844 -12.5204 4.3415 0.000768621 10
6.0129 -7.26836 -2.5276 0.000529876 4
7.50555 -9.07265 -2.71843 0.000312432 1
8.89036 -10.7466 -2.71108 0.000170747 1
10.3511 -12.5124 -2.57201 0.00106311 10
10.3584 -12.5211 -1.99529 0.00108343 10
10.4651 -12.6501 -1.43637 0.000572118 10
10.4644 -12.6493 -0.860363 0.000577758 10
10.4763 -12.6637 -0.286882 0.000580704 10
10.4697 -12.6557 0.286699 0.000580922 10
10.4611 -12.6453 0.86009 0.000578408 10
10.3578 -12.5204 1.42164 0.000856708 10
10.3518 -12.5132 1.99403 0.00084465 10
10.3502 -12.5112 2.57177 0.000828782 10
10.3549 -12.5169 3.15768 0.000809274 10
10.3504 -12.5114 3.74879 0.000786335 10
10.3427 -12.5022 4.3477 0.000760212 10
6.03638 -7.24509 -2.52682 0.000578767 4
7.52375 -9.03028 -2.71359 0.000312456 1
8.9388 -10.7287 -2.71442 0.000170763 1
10.4266 -12.5144 -2.57989 0.00105145 10
10.4299 -12.5183 -2.00063 0.00107156 10
10.4774 -12.5754 -1.43202 0.000581637 10
10.4698 -12.5662 -0.857191 0.000587366 10
10.4612 -12.5559 -0.285264 0.000590356 10
10.4761 -12.5739 0.285672 0.000590576 10
10.4621 -12.557 0.856567 0.000588023 10
10.4278 -12.5158 1.42525 0.000847327 10
10.432 -12.5209 2.00104 0.000835394 10
10.4306 -12.5192 2.58088 0.00081969 10
10.4328 -12.5219 3.16811 0.000800383 10
10.4299 -12.5184 3.76176 0.000777683 10
10.4278 -12.5158 4.36507 0.00075183 10
6.05753 -7.21909 -2.52511 0.000552496 4
7.55992 -9.00957 -2.71528 0.00031248 1
8.9656 -10.6848 -2.71122 0.00017078 1
10.4935 -12.5057 -2.58563 0.00103983 10
10.5039 -12.518 -2.00644 0.00105972 10
10.4943 -12.5067 -1.42837 0.000709952 10
10.4967 -12.5095 -0.85582 0.00071666 10
10.4939 -12.5061 -0.284964 0.000720026 10
10.5008 -12.5143 0.285151 0.000720012 10
10.4933 -12.5055 0.855544 0.000716619 10
10.4894 -12.5008 1.4277 0.000837977 10
10.503 -12.517 2.00627 0.000826168 10
10.5004 -12.5139 2.58733 0.000810628 10
10.4905 -12.502 3.17234 0.000791523 10
10.4997 -12.5131 3.77116 0.000769059 10
10.4942 -12.5065 4.37455 0.000743476 10
6.10021 -7.21862 -2.53238 0.00052622 4
7.59496 -8.98742 -2.71657 0.000312504 1
9.00413 -10.655 -2.7116 0.000170796 1
10.5796 -12.5193 -2.59606 0.00102824 10
10.5805 -12.5204 -2.01272 0.00104793 10
18.4414 -21.8224 -2.49964 0.00018399 10
18.4982 -21.8897 -1.50196 0.00018403 10
18.4247 -21.8027 0.498257 0.000187035 10
13.2195 -15.6431 1.07335 3.73347e-05 10
10.567 -12.5044 1.43231 0.00082866 10
10.5674 -12.5048 2.01022 0.000816974 10
10.5657 -12.5029 2.59266 0.000801596 10
10.5648 -12.5017 3.18159 0.000782692 10
10.5775 -12.5168 3.78338 0.000760464 10
10.5755 -12.5144 4.3902 0.000735151 10
6.12422 -7.19594 -2.53191 0.000548808 4
7.62878 -8.96379 -2.71747 0.000312529 1
9.05104 -10.6349 -2.71454 0.000170812 1
10.6455 -12.5084 -2.6015 0.0010167 10
10.6565 -12.5214 -2.01885 0.00103618 10
10.7473 -12.6281 -1.45077 0.000567364 10
10.7433 -12.6234 -0.868718 0.000572966 10
10.7346 -12.6131 -0.289102 0.000575889 10
10.7351 -12.6137 0.289116 0.000576101 10
10.7288 -12.6063 0.867546 0.000573601 10
10.6428 -12.5052 1.43665 0.000819374 10
10.6527 -12.5169 2.01813 0.000807812 10
10.5735 -12.4239 2.58391 0.000676577 10
10.5754 -12.4261 3.17172 0.000660896 10
10.5767 -12.4275 3.76754 0.000642403 10
10.6452 -12.5081 4.40101 0.000726856 10
6.14069 -7.16447 -2.52836 0.000409753 4
7.64521 -8.91982 -2.71221 0.000312553 1
9.08674 -10.6017 -2.71413 0.000170828 1
10.7157 -12.5022 -2.60797 0.0010052 10
10.7172 -12.504 -2.02206 0.00102447 10
10.7357 -12.5256 -1.44328 0.000576556 10
10.7385 -12.5288 -0.864786 0.000582242 10
10.738 -12.5282 -0.288014 0.000585209 10
10.7362 -12.5261 0.287966 0.000585424 10
10.7276 -12.5161 0.86391 0.000582884 10
10.7185 -12.5055 1.44097 0.000810122 10
10.7242 -12.5121 2.02338 0.000798683 10
10.5807 -12.3447 2.57512 0.000687515 10
10.5898 -12.3553 3.16307 0.000671595 10
10.5851 -12.3498 3.75515 0.000652818 10
10.7291 -12.5178 4.41758 0.000718591 10
6.17161 -7.14988 -2.5308 0.000421057 4
7.67835 -8.89545 -2.71293 0.000312577 1
9.12417 -10.5705 -2.71427 0.000170844 1
10.8056 -12.5184 -2.61919 0.000993739 10
10.7892 -12.4994 -2.02741 0.0010128 10
10.8023 -12.5146 -1.44635 0.000678543 10
10.7896 -12.4998 -0.865381 0.00068497 10
10.7997 -12.5116 -0.288497 0.000688196 10
10.7944 -12.5055 0.288356 0.000688183 10
10.8013 -12.5134 0.866321 0.000684931 10
10.8073 -12.5203 1.44702 0.000800903 10
10.8054 -12.5182 2.03044 0.000789586 10
10.5903 -12.2689 2.56701 0.000698541 10
10.5795 -12.2565 3.1472 0.000682379 10
10.5825 -12.26 3.73904 0.000663317 10
10.7984 -12.5101 4.42812 0.000710356 10
6.19063 -7.1215 -2.52839 0.000567712 4
7.70862 -8.86775 -2.71268 0.000312601 1
9.14839 -10.524 -2.71053 0.00017086 1
10.8706 -12.5052 -2.62436 0.000982321 10
10.865 -12.4988 -2.03344 0.00100118 10
11.0024 -12.6568 -1.46723 0.000553815 10
11.0029 -12.6574 -0.87894 0.000559296 10
11.0028 -12.6572 -0.292739 0.000562155 10
11.003 -12.6575 0.292746 0.000562361 10
11.0011 -12.6554 0.878801 0.00055991 10
10.8805 -12.5165 1.45096 0.000791718 10
10.8461 -12.477 2.02989 0.000126138 10
10.5837 -12.1752 2.5551 0.000709654 10
10.5761 -12.1665 3.13355 0.000693249 10
10.5844 -12.1759 3.72466 0.0006739 10
10.8799 -12.5159 4.44358 0.000702152 10
6.22353 -7.10908 -2.53168 0.000447431 4
7.74458 -8.84656 -2.71445 0.000312625 1
9.18749 -10.4948 -2.71124 0.000170876 1
10.9503 -12.5084 -2.63305 0.000970948 10
10.9468 -12.5044 -2.04056 0.000989599 10
11.0072 -12.5734 -1.462 0.000562623 10
11.0162 -12.5837 -0.87649 0.000568186 10
11.004 -12.5698 -0.291603 0.000571087 10
11.0015 -12.567 0.291537 0.000571295 10
11.0028 -12.5684 0.875426 0.000568807 10
10.9433 -12.5004 1.45351 0.00078257 10
10.8923 -12.4421 2.0304 0.000126119 10
10.6444 -12.159 2.55949 0.000822682 10
10.6387 -12.1525 3.13949 0.000803342 10
10.6343 -12.1475 3.72729 0.000780599 10
10.9456 -12.5031 4.4526 0.000693981 10
6.24344 -7.08179 -2.52971 0.00045874 4
7.78637 -8.83191 -2.71827 0.000312649 1
9.23085 -10.4703 -2.71324 0.000170892 1
11.0176 -12.497 -2.63872 0.00095962 10
11.0186 -12.4982 -2.04581 0.000978065 10
11.0266 -12.5072 -1.45877 0.00065529 10
11.019 -12.4986 -0.873237 0.00066151 10
11.0365 -12.5184 -0.291303 0.000664631 10
11.0314 -12.5127 0.291169 0.000664618 10
11.022 -12.502 0.873471 0.000661471 10
11.0223 -12.5023 1.4582 0.000773456 10
10.9238 -12.3906 2.0282 0.000126099 10
10.8058 -12.2567 3.77236 0.000229582 10
11.0363 -12.5183 4.47168 0.000685842 10
6.2611 -7.05205 -2.52687 0.000409884 4
7.81363 -8.80071 -2.71705 0.000312673 1
9.25643 -10.4258 -2.71004 0.000170908 1
11.1108 -12.5145 -2.65057 0.000948337 10
11.0962 -12.4979 -2.0521 0.000966578 10
11.3778 -12.8152 -1.49931 0.000800117 10
11.3808 -12.8185 -0.898358 0.00080807 10
11.3622 -12.7975 -0.298719 0.000812216 10
11.3656 -12.8014 0.298809 0.000812511 10
11.3654 -12.8011 0.897138 0.00080895 10
11.107 -12.5101 1.46362 0.000764379 10
10.9648 -12.35 2.0278 0.000126079 10
10.8376 -12.2067 3.76857 0.000229563 10
11.097 -12.4988 4.47856 0.000677736 10
6.29236 -7.03762 -2.52956 0.000421192 4
7.83176 -8.75935 -2.7127 0.000312696 1
9.30087 -10.4025 -2.7124 0.000170924 1
11.1807 -12.5049 -2.6568 0.0009371 10
11.1748 -12.4984 -2.05856 0.000955138 10
11.2775 -12.6132 -1.48028 0.000549371 10
11.285 -12.6216 -0.887311 0.000554816 10
11.278 -12.6138 -0.295348 0.000557654 10
11.2872 -12.624 0.295587 0.000557855 10
11.2674 -12.6019 0.885925 0.000555416 10
11.1786 -12.5025 1.46729 0.000755339 10
11.0184 -12.3234 2.02975 0.00012606 10
11.235 -12.5657 2.66971 0.000459203 10
11.2406 -12.572 3.27809 0.000448301 10
10.8893 -12.179 3.77175 0.000229545 10
11.178 -12.502 4.49362 0.000669664 10
6.3082 -7.00597 -2.52608 0.000485153 4
7.87167 -8.74237 -2.71594 0.00031272 1
9.33779 -10.3707 -2.7126 0.00017094 1
11.2504 -12.4949 -2.663 0.000925912 10
11.2588 -12.5042 -2.06597 0.000943747 10
11.2897 -12.5384 -1.47612 0.00055788 10
11.2774 -12.5248 -0.883269 0.000563403 10
11.2684 -12.5148 -0.29395 0.000566282 10
11.2667 -12.513 0.293906 0.000566485 10
11.2726 -12.5195 0.882892 0.00056401 10
11.2705 -12.5171 1.47361 0.000746338 10
11.0636 -12.2874 2.03016 0.000126041 10
10.9362 -12.1459 3.77329 0.000744513 10
11.2657 -12.5119 4.51129 0.000661627 10
6.34419 -6.99667 -2.5307 0.000579211 4
7.89911 -8.7115 -2.7149 0.000312744 1
9.38283 -10.3478 -2.71517 0.000170956 1
11.3478 -12.5149 -2.6757 0.000914771 10
11.3398 -12.506 -2.07281 0.000932404 10
11.33 -12.4953 -1.47569 0.000624723 10
11.3367 -12.5026 -0.884488 0.000630669 10
11.334 -12.4996 -0.29452 0.000633652 10
11.3341 -12.4998 0.294524 0.00063364 10
11.3454 -12.5122 0.885171 0.000630632 10
11.3304 -12.4957 1.47573 0.000737376 10
11.0968 -12.2381 2.0284 0.000126021 10
11.0151 -12.148 3.78586 0.000735586 10
11.3479 -12.515 4.52668 0.000653624 10
6.35438 -6.95893 -2.52505 0.000413748 4
7.93741 -8.69257 -2.71762 0.000312767 1
9.41882 -10.3149 -2.71515 0.000170972 1
11.4258 -12.5128 -2.68376 0.00090368 10
11.4159 -12.502 -2.07873 0.000921111 10
11.4092 -12.4947 -1.48031 0.00093435 10
11.4175 -12.5038 -0.887386 0.000943251 10
11.409 -12.4945 -0.295336 0.000947717 10
11.414 -12.5 0.295465 0.000947698 10
11.4211 -12.5078 0.887669 0.000943195 10
11.4103 -12.4959 1.48045 0.000728452 10
11.1411 -12.201 2.02869 0.000126002 10
11.0846 -12.1392 3.79515 0.000726698 10
11.4159 -12.5021 4.53638 0.000645658 10
6.38379 -6.94233 -2.5271 0.000436344 4
7.95861 -8.65492 -2.71451 0.000312791 1
9.44095 -10.267 -2.71118 0.000170987 1
11.5013 -12.5076 -2.69123 0.000892638 10
11.4928 -12.4984 -2.08479 0.000909869 10
11.4981 -12.5041 -1.48618 0.000922956 10
11.4881 -12.4932 -0.889477 0.000931754 10
11.4926 -12.4982 -0.296369 0.000936168 10
11.4965 -12.5024 0.296469 0.00093615 10
11.4924 -12.4978 0.889807 0.000931699 10
11.5079 -12.5148 1.48744 0.000719568 10
11.1898 -12.1688 2.02982 0.000125983 10
11.16 -12.1364 3.80644 0.000717849 10
11.4899 -12.4951 4.5484 0.000637727 10
6.41449 -6.92702 -2.52966 0.000635748 4
7.98595 -8.62405 -2.71356 0.000312814 1
9.49096 -10.2493 -2.71525 0.000171003 1
11.5839 -12.5095 -2.70032 0.000881646 10
11.5789 -12.5041 -2.09247 0.000898678 10
11.5873 -12.5132 -1.49205 0.000911614 10
11.5804 -12.5057 -0.893236 0.000920309 10
11.5702 -12.4947 -0.297242 0.000924673 10
11.5746 -12.4994 0.297354 0.000924654 10
11.576 -12.5009 0.892897 0.000920255 10
11.5764 -12.5014 1.49064 0.000710725 10
11.256 -12.1554 2.03412 0.000761862 10
11.2525 -12.1516 3.82351 0.000709041 10
11.5757 -12.5006 4.56506 0.000629833 10
6.43157 -6.89702 -2.52689 0.00056807 4
8.01875 -8.59906 -2.71449 0.000312838 1
9.52415 -10.2134 -2.71453 0.000171019 1
11.6683 -12.5127 -2.70979 0.000870706 10
11.6492 -12.4923 -2.09729 0.000887539 10
11.6684 -12.5128 -1.49686 0.000900323 10
11.6523 -12.4955 -0.895413 0.000908919 10
11.6513 -12.4945 -0.298203 0.000913231 10
11.6615 -12.5055 0.298465 0.000913212 10
11.6621 -12.506 0.896164 0.000908864 10
11.6626 -12.5067 1.49612 0.000701923 10
11.3273 -12.147 2.03933 0.00075248 10
11.7247 -12.5732 2.72289 0.000426627 10
11.7232 -12.5716 3.3413 0.000416455 10
11.329 -12.1489 3.83508 0.000700273 10
11.6663 -12.5105 4.58354 0.000621977 10
6.4492 -6.8677 -2.52438 0.000496622 4
8.05334 -8.57593 -2.71604 0.000312861 1
9.55989 -10.1803 -2.71458 0.000171034 1
11.708 -12.4677 -2.70889 8.0393e-05 1
11.7424 -12.5044 -2.1062 0.000876453 10
16.1036 -17.1485 -2.05812 0.000337611 10
16.1057 -17.1508 -1.23302 0.000341115 10
16.0992 -17.144 -0.41051 0.000342874 10
16.0987 -17.1434 0.410497 0.000342867 10
14.0403 -14.9514 1.0749 3.71195e-05 10
11.7492 -12.5116 1.5016 0.000693163 10
11.3984 -12.138 2.04448 0.000743143 10
11.7596 -12.5227 2.72084 0.000394866 10
11.7542 -12.5169 3.33766 0.000385602 10
11.4142 -12.1549 3.84953 0.000691547 10
11.749 -12.5115 4.59888 0.000614158 10
6.48994 -6.86292 -2.53094 0.000421402 4
8.07469 -8.53875 -2.71318 0.000312884 1
9.58998 -10.1411 -2.71305 0.00017105 1
11.7557 -12.4313 -2.70987 8.04023e-05 1
11.8283 -12.508 -2.11375 0.000865421 10
20.6469 -21.8335 -1.57485 0.000137646 10
20.655 -21.8421 -0.52473 0.000138474 10
20.602 -21.786 0.523382 0.000149603 10
14.0958 -14.9059 1.07516 3.71056e-05 10
11.7861 -12.4634 1.50075 0.000643804 10
11.4749 -12.1343 2.05059 0.000733851 10
11.7823 -12.4594 2.716 0.000623028 10
11.7896 -12.4671 3.33533 0.000608414 10
11.4853 -12.1454 3.85918 0.000682863 10
11.7721 -12.4486 4.59085 0.000571527 10
6.50234 -6.82813 -2.52646 0.000425191 4
8.10147 -8.50739 -2.71218 0.000312907 1
9.61997 -10.102 -2.71154 0.000171065 1
11.791 -12.3818 -2.70804 8.04116e-05 1
11.8995 -12.4957 -2.11867 0.000854444 10
20.7492 -21.7888 -1.57684 0.00014657 10
20.7609 -21.8011 -0.525483 0.000147388 10
20.7563 -21.7962 0.525365 0.000147384 10
14.1489 -14.8578 1.07525 3.70916e-05 10
11.7935 -12.3844 1.49618 0.000653252 10
11.5659 -12.1454 2.05927 0.000724604 10
11.7774 -12.3675 2.70492 0.000632188 10
11.7783 -12.3685 3.31992 0.000617371 10
11.558 -12.1371 3.86933 0.000674222 10
11.7755 -12.3655 4.57534 0.000579971 10
6.51945 -6.79842 -2.52387 0.00017686 4
8.13488 -8.48298 -2.71344 0.00031293 1
9.65468 -10.0678 -2.7114 0.000171081 1
11.837 -12.3435 -2.70867 8.04209e-05 1
11.9825 -12.4952 -2.12567 0.000843522 10
20.8953 -21.7894 -1.58215 0.000144378 10
20.9066 -21.8012 -0.52724 0.000145184 10
20.8983 -21.7925 0.527031 0.000145181 10
14.1886 -14.7958 1.07434 3.70777e-05 10
11.7805 -12.2846 1.48909 0.000662764 10
11.6398 -12.1379 2.06487 0.000715402 10
11.7711 -12.2748 2.6936 0.00064141 10
11.7886 -12.293 3.31068 0.000626389 10
11.6471 -12.1455 3.88496 0.000665624 10
11.7808 -12.2849 4.56069 0.000588472 10
6.56052 -6.79362 -2.53058 0.000146766 4
8.16737 -8.45757 -2.71441 0.000312953 1
9.68643 -10.0306 -2.71047 0.000171096 1
11.8758 -12.2978 -2.70773 8.04302e-05 1
12.0683 -12.4971 -2.13314 0.000832657 10
14.249 -14.7552 1.075 3.70638e-05 10
11.7876 -12.2064 1.48459 0.000672338 10
11.7216 -12.138 2.07185 0.000706249 10
11.7759 -12.1943 2.68494 0.000650691 10
11.7825 -12.2011 3.29699 0.000635465 10
11.7764 -12.1948 3.91386 0.000617514 10
11.7744 -12.1928 4.54173 0.00059703 10
6.5771 -6.76338 -2.52785 0.000180646 4
8.19836 -8.43056 -2.71491 0.000312976 1
9.71748 -9.99271 -2.70938 0.000171111 1
11.913 -12.2505 -2.70645 8.04395e-05 1
12.1575 -12.5018 -2.14118 0.000821847 10
14.298 -14.703 1.07482 3.705e-05 10
11.8145 -12.1492 1.48263 0.00070719 10
11.8178 -12.1526 2.08136 0.000697141 10
11.8124 -12.1469 2.68357 0.000683919 10
11.8124 -12.1469 3.29347 0.000667667 10
11.7999 -12.1341 3.90758 0.000648561 10
11.7998 -12.134 4.53517 0.000626808 10
6.60962 -6.74952 -2.53128 0.00047046 4
8.22536 -8.39946 -2.71413 0.000312999 1
9.76151 -9.96812 -2.71194 0.000171127 1
11.9574 -12.2105 -2.70683 8.04486e-05 1
12.2396 -12.4987 -2.14794 0.000811096 10
14.3504 -14.6541 1.07491 3.70363e-05 10
11.8901 -12.1418 1.48678 0.000698007 10
11.8897 -12.1414 2.08654 0.000688082 10
11.8949 -12.1467 2.69267 0.000675021 10
11.8994 -12.1513 3.30589 0.000658968 10
11.8834 -12.135 3.92118 0.000640097 10
11.8829 -12.1344 4.55079 0.000618611 10
6.61773 -6.71079 -2.5254 0.000421557 4
8.26193 -8.3781 -2.71653 0.000313022 1
9.79454 -9.93226 -2.71147 0.000171142 1
12.0132 -12.1821 -2.70982 8.04578e-05 1
12.326 -12.4993 -2.15543 0.000800403 10
14.412 -14.6147 1.07569 3.70225e-05 10
11.9736 -12.142 1.49192 0.000688874 10
11.9721 -12.1405 2.09355 0.000679071 10
11.9671 -12.1353 2.6994 0.000666171 10
11.9808 -12.1492 3.31669 0.000650316 10
11.9688 -12.1371 3.93536 0.000631678 10
11.9716 -12.1399 4.56849 0.000610458 10
6.64457 -6.69112 -2.52671 0.000519451 4
8.27996 -8.33797 -2.71287 0.000313045 1
9.83139 -9.90027 -2.71209 0.000171157 1
12.0387 -12.1231 -2.70601 8.0467e-05 1
12.4113 -12.4982 -2.1627 0.00078977 10
14.4553 -14.5566 1.07513 3.70088e-05 10
12.0559 -12.1403 1.49688 0.000679791 10
12.0535 -12.138 2.10037 0.000670109 10
12.0641 -12.1486 2.71171 0.00065737 10
12.0591 -12.1436 3.32664 0.000641712 10
12.0498 -12.1342 3.94804 0.000623306 10
12.0533 -12.1377 4.58347 0.000602351 10
6.66755 -6.66755 -2.52658 0.000598534 4
8.3166 -8.3166 -2.71534 0.000313068 1
9.8602 -9.8602 -2.71052 0.000171173 1
12.0971 -12.0971 -2.70963 8.04761e-05 1
12.4865 -12.4865 -2.16821 0.000779195 10
14.4986 -14.4986 1.07458 3.69952e-05 10
12.1411 -12.1411 1.50219 0.000670758 10
12.1407 -12.1407 2.10815 0.000661197 10
12.1396 -12.1396 2.71914 0.000648617 10
12.1402 -12.1402 3.33728 0.000633156 10
12.1338 -12.1338 3.96164 0.00061498 10
12.1316 -12.1316 4.59712 0.000594289 10
6.68938 -6.64284 -2.52605 0.000560924 4
8.34102 -8.283 -2.71386 0.00031309 1
9.90706 -9.83814 -2.71395 0.000171188 1
12.1271 -12.0427 -2.7069 8.04852e-05 1
12.5824 -12.4949 -2.17727 0.000768681 10
14.5587 -14.4574 1.07528 3.69816e-05 10
12.2252 -12.1402 1.50734 0.000661775 10
12.2165 -12.1315 2.11395 0.000652335 10
12.2225 -12.1374 2.7282 0.000639914 10
12.2299 -12.1448 3.35025 0.000624648 10
12.2324 -12.1473 3.97998 0.000606703 10
12.2329 -12.1478 4.6194 0.000586273 10
6.71699 -6.62386 -2.52773 0.000436719 4
8.36899 -8.25295 -2.71357 0.000313113 1
9.92971 -9.79202 -2.71077 0.000171203 1
12.1769 -12.008 -2.70865 8.04943e-05 1
12.6798 -12.504 -2.18655 0.000758228 10
14.6082 -14.4056 1.07522 3.6968e-05 10
12.3003 -12.1298 1.51138 0.000652845 10
12.3134 -12.1426 2.12337 0.000643524 10
12.2996 -12.129 2.73594 0.000631261 10
12.3149 -12.1441 3.36191 0.000616189 10
12.3157 -12.145 3.99327 0.000598472 10
12.3146 -12.1438 4.63422 0.000578303 10
6.74536 -6.60554 -2.52972 0.000429215 4
8.40596 -8.23172 -2.71622 0.000313135 1
9.95711 -9.75072 -2.70894 0.000171218 1
12.2243 -11.9709 -2.70989 8.05034e-05 1
12.7508 -12.4865 -2.19127 0.000747837 10
20.8677 -20.4352 -1.53068 0.00010397 10
20.8815 -20.4487 -0.51015 0.000104544 10
20.8729 -20.4402 0.509939 0.000104541 10
14.6672 -14.3632 1.07587 3.69545e-05 10
12.3915 -12.1347 1.51737 0.000643966 10
12.3853 -12.1286 2.12845 0.000634765 10
12.4008 -12.1437 2.74901 0.000622659 10
12.4022 -12.1451 3.37415 0.00060778 10
12.4042 -12.1471 4.00818 0.000590291 10
12.3978 -12.1409 4.64957 0.000570381 10
6.76859 -6.58217 -2.5298 0.000632564 4
8.42265 -8.19067 -2.71236 0.000313158 1
9.99811 -9.72274 -2.71085 0.000171233 1
12.2585 -11.9208 -2.70822 8.05124e-05 1
12.856 -12.502 -2.20184 0.00073751 10
21.0211 -20.4421 -1.53669 0.00010232 10
21.0324 -20.4531 -0.512089 0.000102886 10
21.0115 -20.4328 0.511579 0.000102883 10
14.7168 -14.3114 1.07583 3.69411e-05 10
12.4836 -12.1397 1.52344 0.00063514 10
12.4902 -12.1462 2.13919 0.000626058 10
12.4778 -12.1341 2.75668 0.000614108 10
12.4722 -12.1287 3.38167 0.000599421 10
12.4812 -12.1374 4.01934 0.000582159 10
12.484 -12.1401 4.66596 0.000562507 10
6.79019 -6.55722 -2.5293 0.000474452 4
8.45628 -8.16613 -2.714 0.00031318 1
10.0273 -9.68322 -2.70957 0.000171248 1
12.3055 -11.8832 -2.70942 8.05214e-05 1
12.9416 -12.4975 -2.209 0.000727244 10
20.8952 -20.1783 -1.52233 0.000105494 10
20.9004 -20.1833 -0.507156 0.000106075 10
20.8887 -20.172 0.506873 0.000106072 10
14.7725 -14.2656 1.07626 3.69276e-05 10
12.5586 -12.1277 1.52742 0.000626368 10
12.5697 -12.1384 2.14553 0.000617403 10
12.5766 -12.1451 2.76912 0.000605609 10
12.5708 -12.1395 3.39689 0.000591113 10
12.5675 -12.1363 4.03348 0.000574076 10
12.5596 -12.1287 4.67837 0.00055468 10
6.80873 -6.52934 -2.5277 0.000478246 4
8.47988 -8.13191 -2.71244 0.000313202 1
10.0575 -9.6448 -2.70863 0.000171263 1
12.3462 -11.8396 -2.70928 8.05304e-05 1
13.0185 -12.4843 -2.21468 0.000717043 10
20.8357 -19.9807 -1.5129 0.000110076 10
20.8544 -19.9987 -0.504344 0.000110727 10
20.8436 -19.9883 0.504081 0.00011077 10
14.8168 -14.2088 1.07586 3.69143e-05 10
12.657 -12.1376 1.53422 0.000617648 10
12.6514 -12.1323 2.15224 0.000608801 10
12.6556 -12.1363 2.77717 0.000597161 10
12.6501 -12.131 3.40686 0.000582856 10
12.6517 -12.1325 4.04687 0.000566042 10
12.658 -12.1386 4.6992 0.000546901 10
6.83026 -6.50437 -2.52725 0.000421785 4
8.51496 -8.10869 -2.7146 0.000313225 1
10.0907 -9.60923 -2.70852 0.000171278 1
12.3842 -11.7933 -2.70855 8.05393e-05 1
13.1245 -12.4983 -2.22528 0.000706906 10
20.894 -19.8971 -1.51208 0.000107052 10
20.9011 -19.9039 -0.50379 0.000107641 10
20.8941 -19.8972 0.50362 0.000107638 10
14.862 -14.1529 1.07556 3.6901e-05 10
12.7442 -12.1361 1.53965 0.000608983 10
12.7388 -12.131 2.15988 0.000600253 10
12.7369 -12.1292 2.7857 0.000588767 10
12.7383 -12.1305 3.41917 0.000574651 10
12.7531 -12.1446 4.06572 0.000558059 10
12.7408 -12.1329 4.71419 0.000539173 10
6.86142 -6.48852 -2.53038 0.00042181 4
8.53244 -8.06872 -2.71117 0.000313247 1
10.1244 -9.57418 -2.70858 0.000171292 1
12.4299 -11.7544 -2.70958 8.05482e-05 1
13.209 -12.4911 -2.23219 0.000696833 10
20.8392 -19.7067 -2.5093 0.000169858 10
20.8513 -19.7181 -1.504 0.000113482 10
20.8371 -19.7047 -0.500587 0.000114151 10
20.8408 -19.7082 0.500674 0.000114195 10
14.919 -14.1082 1.0761 3.68877e-05 10
12.8356 -12.138 1.54557 0.000600374 10
12.8232 -12.1263 2.167 0.000591759 10
12.8254 -12.1284 2.79579 0.000580425 10
12.8249 -12.1279 3.43103 0.000566498 10
12.839 -12.1412 4.07956 0.000550127 10
12.8263 -12.1292 4.73012 0.000531494 10
6.87909 -6.4599 -2.52857 0.000444433 4
8.57714 -8.05447 -2.71643 0.000313269 1
10.1667 -9.54713 -2.71095 0.000171307 1
12.4581 -11.699 -2.7068 8.05571e-05 1
13.3103 -12.4992 -2.24193 0.000686827 10
20.8396 -19.5697 -2.50111 0.000172437 10
20.9013 -19.6277 -1.50266 0.000108647 10
20.9078 -19.6337 -0.500634 0.000109243 10
20.9044 -19.6306 0.500554 0.00010924 10
14.9699 -14.0577 1.07623 3.68744e-05 10
12.9208 -12.1334 1.55071 0.000591819 10
12.9167 -12.1296 2.17563 0.00058332 10
12.9285 -12.1407 2.809 0.000572138 10
12.9252 -12.1376 3.44653 0.000558397 10
12.9223 -12.1349 4.09257 0.000542247 10
12.9275 -12.1398 4.75181 0.000523864 10
6.89688 -6.43145 -2.52684 0.000482125 4
8.6046 -8.02392 -2.71623 0.000313291 1
10.1996 -9.51132 -2.71088 0.000171322 1
12.5092 -11.665 -2.70903 8.0566e-05 1
13.4006 -12.4963 -2.24979 0.000676886 10
20.8544 -19.447 -2.49472 0.000175033 10
20.8432 -19.4366 -1.4936 0.000116936 10
20.8329 -19.427 -0.497214 0.000117623 10
20.8483 -19.4414 0.497582 0.000117668 10
15.017 -14.0036 1.0761 3.68612e-05 10
13.011 -12.1329 1.55645 0.00058332 10
13.0186 -12.14 2.18564 0.000574935 10
13.0024 -12.1249 2.81584 0.000563905 10
13.0063 -12.1285 3.45683 0.000550349 10
13.017 -12.1385 4.1091 0.000534418 10
13.0143 -12.136 4.76811 0.000516285 10
6.92144 -6.40933 -2.52763 0.000406817 4
8.62824 -7.98984 -2.71488 0.000313313 1
10.2248 -9.4683 -2.70877 0.000171337 1
12.5515 -11.6228 -2.70939 8.05748e-05 1
13.4772 -12.48 -2.25531 0.000667013 10
13.6429 -12.6335 -1.62676 8.48179e-05 10
20.9145 -19.3671 -1.49385 0.00011028 10
20.9147 -19.3672 -0.497549 0.000110883 10
20.9039 -19.3572 0.497292 0.00011088 10
15.0677 -13.9528 1.07623 3.68481e-05 10
13.0925 -12.1238 1.56113 0.000574877 10
13.1 -12.1307 2.19219 0.000566607 10
13.0939 -12.1251 2.82648 0.000555727 10
13.0998 -12.1305 3.4704 0.000542356 10
13.101 -12.1316 4.12222 0.000526642 10
13.0981 -12.1289 4.78326 0.000508757 10
6.93141 -6.37376 -2.52313 0.000527386 4
8.04856 -7.40103 -2.52434 0.000259384 4
10.2703 -9.44405 -2.71207 0.000171351 1
12.5811 -11.5689 -2.70704 8.05836e-05 1
13.5849 -12.492 -2.26603 0.000657207 10
13.6737 -12.5736 -1.62519 8.48349e-05 10
20.8396 -19.163 -1.48372 0.000120436 10
20.84 -19.1633 -0.494178 0.000121142 10
20.8352 -19.1589 0.494064 0.000121188 10
15.114 -13.898 1.07607 3.6835e-05 10
13.1991 -12.1372 1.56878 0.000566492 10
13.2002 -12.1382 2.20185 0.000558335 10
13.1901 -12.1289 2.83808 0.000547604 10
13.192 -12.1306 3.48359 0.000534417 10
13.2022 -12.14 4.14071 0.00051892 10
13.2023 -12.1401 4.80582 0.00050128 10
6.95377 -6.34967 -2.52318 0.00046714 4
8.08633 -7.38383 -2.52808 0.00029154 4
10.3063 -9.41091 -2.71287 0.000171366 1
12.6165 -11.5204 -2.706 8.05924e-05 1
13.6745 -12.4866 -2.27369 0.000647469 10
13.7231 -12.5309 -1.62585 8.48518e-05 10
20.9168 -19.0997 -1.48446 0.000111953 10
20.9023 -19.0865 -0.494074 0.000112564 10
20.9054 -19.0893 0.494147 0.000112562 10
15.1685 -13.8507 1.0765 3.68219e-05 10
