VERSION 0.7
FIELDS x y z intensity label
SIZE 4 4 4 4 4
TYPE F F F F F
COUNT 1 1 1 1 1
WIDTH 1199
HEIGHT 1
VIEWPOINT 31.0683 7.48822 2.72819 0.999989 -8.91909e-05 -1.10884e-05 -0.00475407
POINTS 1199
DATA ascii
9.51111 2.76323 -2.65387 8.06184e-05 4
11.0156 3.20031 -2.6483 0.000102417 4
9.48957 2.79293 -2.65056 0.000284686 4
11.023 3.24424 -2.65279 5.41355e-05 4
16.5168 4.86115 -2.72695 4.8819e-05 1
9.47835 2.82562 -2.65017 0.000128488 4
10.9878 3.27559 -2.64704 5.26729e-05 4
13.0752 3.89788 -2.65209 4.83214e-05 4
16.499 4.91856 -2.72683 4.88198e-05 1
20.6062 6.14298 -2.64016 3.55683e-05 4
9.48185 2.86274 -2.65392 0.000274614 4
11.0009 3.32137 -2.65299 6.58418e-05 4
13.055 3.94153 -2.65077 8.45636e-05 4
16.4917 4.97913 -2.72848 4.88206e-05 1
20.3877 6.15541 -2.6149 3.60801e-05 4
9.4509 2.88943 -2.64807 8.81796e-05 4
10.9807 3.35714 -2.65093 5.41371e-05 4
16.4757 5.03714 -2.72873 4.88215e-05 1
20.1793 6.16944 -2.59092 4.391e-05 4
9.4603 2.92845 -2.65355 0.00022675 4
13.0108 4.02751 -2.64744 4.83233e-05 4
16.4558 5.09393 -2.72837 4.88223e-05 1
19.9608 6.17888 -2.56561 3.0453e-05 4
9.44438 2.95969 -2.65197 8.31422e-05 4
10.9603 3.43474 -2.65172 9.80342e-05 4
13.0243 4.08157 -2.65307 5.43644e-05 4
16.4245 5.14713 -2.72614 4.88231e-05 1
19.7595 6.19225 -2.5425 4.00914e-05 4
9.41771 2.98747 -2.64739 0.000294779 4
10.93 3.4672 -2.64731 6.29181e-05 4
12.9935 4.12178 -2.64971 3.77536e-05 4
16.4144 5.20696 -2.72746 6.26911e-05 4
9.4204 3.02456 -2.6511 0.000231794 4
10.922 3.50666 -2.64831 8.48672e-05 4
12.9953 4.17233 -2.65303 0.000151771 4
16.2354 5.21261 -2.70072 9.67908e-05 4
9.40465 3.05575 -2.64965 0.000131015 4
10.9104 3.54499 -2.64848 3.80443e-05 4
12.9548 4.20928 -2.64776 0.000155549 4
16.0493 5.21472 -2.67277 8.08438e-05 4
9.39803 3.08991 -2.65081 0.000158732 4
10.903 3.58473 -2.64972 4.38977e-05 4
12.9529 4.2587 -2.65038 0.000139694 4
15.8823 5.22182 -2.64798 9.32673e-05 4
9.39407 3.12499 -2.65275 8.31459e-05 4
10.8921 3.62333 -2.65014 0.000108282 4
12.9325 4.30206 -2.64926 0.000161594 4
15.7321 5.23337 -2.62597 0.000121748 4
9.37126 3.15378 -2.6494 9.07054e-05 4
10.8923 3.66568 -2.65328 7.46278e-05 4
12.9242 4.34948 -2.65066 0.00012233 4
15.5663 5.23863 -2.60133 0.000101808 4
9.36725 3.18887 -2.6514 0.000141098 4
10.8692 3.70016 -2.65076 0.000134624 4
12.8995 4.39135 -2.64872 4.00219e-05 4
15.3946 5.24073 -2.57567 0.00010589 4
10.8466 3.73478 -2.64842 0.000169745 4
12.9295 4.45199 -2.65806 7.0509e-05 4
15.2648 5.25608 -2.55701 9.21408e-05 4
9.34634 3.25474 -2.65185 0.000176376 4
10.8275 3.77053 -2.64696 4.68267e-05 4
12.9712 4.51704 -2.66985 6.76839e-05 4
15.1241 5.26675 -2.5365 3.88283e-05 4
9.33029 3.28571 -2.65053 4.28346e-05 4
10.8155 3.80874 -2.64726 4.53639e-05 4
13.0141 4.58298 -2.68196 6.39503e-05 4
15.1126 5.32198 -2.53768 4.25988e-05 4
9.32168 3.3193 -2.65136 6.8032e-05 4
10.8191 3.85252 -2.65142 6.73148e-05 4
13.0669 4.65293 -2.69618 6.32236e-05 4
15.1022 5.37766 -2.53908 5.01392e-05 4
9.30035 3.34833 -2.6486 0.00027213 4
10.7876 3.88377 -2.647 0.000124387 4
13.1137 4.72122 -2.70921 6.01287e-05 4
15.7449 5.66852 -2.65044 4.70073e-05 4
9.30638 3.38725 -2.65367 9.32307e-05 4
10.7933 3.92843 -2.65174 7.90234e-05 4
13.1526 4.78714 -2.72067 6.08387e-05 4
15.7297 5.72513 -2.65122 3.55825e-05 4
9.27458 3.41238 -2.64799 4.78756e-05 4
13.1759 4.84778 -2.72899 0.000113773 1
15.71 5.78014 -2.65129 4.89676e-05 4
9.28291 3.45229 -2.65379 0.000153707 4
10.7615 4.00216 -2.65074 0.00015366 4
13.1547 4.8922 -2.72812 0.000113774 1
10.736 4.0354 -2.64791 8.34162e-05 4
13.1257 4.93361 -2.72565 0.000113776 1
15.6526 5.88344 -2.64848 4.40723e-05 4
9.25456 3.51548 -2.65264 8.56744e-05 4
10.7288 4.07547 -2.64962 4.68307e-05 4
13.127 4.98648 -2.72953 0.000113777 1
15.6492 5.94458 -2.6514 3.85231e-05 4
9.2294 3.54283 -2.64895 7.0556e-05 4
10.7122 4.11204 -2.64906 7.61006e-05 4
13.0864 5.02338 -2.7247 0.000113779 1
9.21985 3.57614 -2.64978 0.000151193 4
10.7054 4.15234 -2.65094 0.00024733 4
13.0831 5.0746 -2.7277 0.00011378 1
15.6008 6.05115 -2.65028 5.8113e-05 4
9.21688 3.61206 -2.65253 0.000183953 4
10.6853 4.1875 -2.64956 0.000294164 4
13.076 5.12444 -2.72994 0.000113782 1
15.5482 6.09329 -2.64495 0.00011813 4
9.19459 3.64039 -2.64976 0.000128516 4
10.6724 4.22552 -2.65002 0.000317584 4
13.0372 5.16181 -2.72558 0.000113783 1
15.4081 6.10049 -2.62472 0.000102044 4
9.19152 3.67634 -2.65255 0.000188996 4
10.6689 4.26727 -2.65284 0.000295634 4
12.9448 5.17754 -2.71002 0.000223193 4
15.291 6.11598 -2.6084 9.16047e-05 4
9.16391 3.70246 -2.6483 6.55191e-05 4
10.6356 4.29708 -2.64827 0.00029271 4
12.8355 5.18588 -2.69091 0.000151503 4
15.159 6.12464 -2.58951 0.000104874 4
9.15955 3.73794 -2.65079 0.000166319 4
10.6215 4.33456 -2.6485 5.7079e-05 4
12.712 5.18765 -2.66879 0.00020158 4
15.0368 6.13641 -2.57228 0.000123329 4
9.13719 3.76608 -2.64811 9.82804e-05 4
10.6246 4.37913 -2.65306 5.85432e-05 4
12.6003 5.19347 -2.64914 0.000182065 4
14.9168 6.14826 -2.55541 7.97204e-05 4
9.12548 3.79857 -2.64855 0.000110881 4
10.6129 4.41771 -2.65397 0.000148954 4
12.4928 5.20024 -2.63033 0.000224197 4
14.7793 6.15201 -2.53551 4.67579e-05 4
9.10763 3.82849 -2.64723 0.000151203 4
10.6512 4.47735 -2.66745 0.000126206 4
12.3923 5.20925 -2.61299 0.000232725 4
14.7553 6.20253 -2.53509 5.20379e-05 4
9.11179 3.86773 -2.65235 6.5522e-05 4
10.6631 4.5262 -2.67436 0.000103129 4
12.2711 5.20877 -2.59125 0.000223861 4
14.7446 6.25871 -2.53699 4.60052e-05 4
9.08081 3.89204 -2.64727 8.82034e-05 4
10.6996 4.58584 -2.68751 0.000125331 4
12.1718 5.21683 -2.57411 0.000228707 4
14.7215 6.30965 -2.5368 4.52518e-05 4
9.08175 3.93002 -2.65152 0.000143647 4
10.7341 4.64504 -2.70023 0.000138424 4
12.0555 5.21689 -2.55336 7.84799e-05 4
14.6905 6.35713 -2.53525 4.56296e-05 4
9.06789 3.96166 -2.6515 9.0725e-05 4
10.7563 4.69931 -2.70994 0.000102262 4
11.9707 5.22987 -2.53925 4.14428e-05 4
14.6799 6.41349 -2.53728 5.4681e-05 4
9.04831 3.99078 -2.64983 3.02419e-05 4
10.7717 4.75089 -2.71798 0.000118874 4
11.9466 5.26906 -2.53801 7.51159e-05 4
14.6565 6.46427 -2.53711 5.01565e-05 4
9.03819 4.02406 -2.65096 0.000105848 4
10.7838 4.80124 -2.72524 0.000221588 1
11.9182 5.30632 -2.5359 0.00010879 4
14.6236 6.51086 -2.53535 4.9026e-05 4
9.00839 4.04853 -2.64635 0.000138611 4
10.7762 4.84302 -2.72758 0.00022159 1
11.9087 5.35197 -2.53784 0.000106201 4
14.6115 6.56667 -2.53721 5.09124e-05 4
8.99831 4.08181 -2.64756 0.00010837 4
10.7519 4.87726 -2.72571 0.000221593 1
12.4284 5.63775 -2.65276 7.93172e-05 4
14.594 6.62014 -2.53817 4.97818e-05 4
8.98578 4.11401 -2.64808 9.57694e-05 4
10.7467 4.92021 -2.72874 0.000221595 1
12.4077 5.68069 -2.65257 0.000107269 4
14.5659 6.6688 -2.53731 4.94055e-05 4
8.98712 4.15263 -2.65273 0.000458689 4
10.7301 4.95799 -2.7289 0.000221597 1
12.3673 5.71449 -2.64818 0.000126155 4
14.5317 6.71458 -2.53542 4.82749e-05 4
8.97538 4.18529 -2.65356 0.000486416 4
10.6935 4.98647 -2.72401 0.0002216 1
12.3469 5.75746 -2.6481 7.02551e-05 4
14.5279 6.77448 -2.53887 5.12929e-05 4
8.94068 4.20717 -2.64763 0.00048138 4
10.6758 5.02365 -2.72395 0.000221602 1
12.3378 5.80575 -2.65049 4.07938e-05 4
14.4921 6.81946 -2.53675 4.56363e-05 4
8.94447 4.24715 -2.65313 0.000448619 4
10.6572 5.0604 -2.72369 0.000221604 1
12.3282 5.85386 -2.65279 0.000118606 4
14.4713 6.87147 -2.53729 4.63914e-05 4
8.91921 4.27337 -2.65004 0.00049399 4
10.6537 5.1044 -2.72734 0.000221606 1
12.2876 5.88722 -2.64845 0.000120118 4
14.458 6.92713 -2.5392 5.24269e-05 4
8.90968 4.30711 -2.65166 0.000448627 4
10.6268 5.13721 -2.72503 0.000221609 1
12.2672 5.93018 -2.6485 0.000101233 4
14.4115 6.9668 -2.53528 4.90331e-05 4
8.88373 4.33288 -2.64842 6.55303e-05 4
10.5541 5.14759 -2.71098 0.000272596 4
12.2647 5.98188 -2.65245 0.000114833 4
14.3962 7.02151 -2.53689 5.46917e-05 4
8.87639 4.36772 -2.65077 9.07351e-05 4
10.4781 5.15588 -2.69607 0.000404495 4
12.2401 6.02288 -2.65167 4.07964e-05 4
14.3718 7.0718 -2.53692 3.99821e-05 4
8.88787 4.41197 -2.65878 0.000179417 4
10.4145 5.16982 -2.68433 0.000387607 4
12.1918 6.05206 -2.64577 0.000267882 4
14.3579 7.12734 -2.53885 5.05443e-05 4
8.89682 4.4552 -2.66609 0.000226222 4
10.3147 5.16522 -2.66323 0.000488677 4
12.1043 6.0614 -2.63136 0.000187693 4
14.3113 7.16655 -2.535 5.35627e-05 4
8.91142 4.50148 -2.67516 0.000211826 4
10.2321 5.1686 -2.64654 0.000381609 4
12.0141 6.06876 -2.61634 5.75891e-05 4
14.31 7.22849 -2.53923 5.13003e-05 4
8.91859 4.54425 -2.68206 0.000205978 4
10.1568 5.17513 -2.63171 0.000220989 4
11.9404 6.08394 -2.6049 0.000223775 4
14.285 7.27859 -2.53929 5.13012e-05 4
8.92313 4.58586 -2.68822 0.000157908 4
10.07 5.17527 -2.6139 0.000390155 4
11.8483 6.0892 -2.58943 0.000242827 4
14.2353 7.31594 -2.53497 3.92309e-05 4
8.94731 4.63784 -2.70036 0.000204244 4
10.01 5.18868 -2.603 0.000419446 4
11.773 6.10256 -2.57762 0.000270774 4
14.2303 7.37629 -2.53866 5.69612e-05 4
8.96591 4.68726 -2.7109 0.000147751 4
9.9251 5.18871 -2.58563 0.000422335 4
11.6801 6.10622 -2.56192 0.000249471 4
14.1938 7.42032 -2.53674 5.88482e-05 4
8.97087 4.7298 -2.71737 0.000139678 4
9.83987 5.18798 -2.56812 0.00047071 4
11.6001 6.11604 -2.54904 0.000218492 4
14.1704 7.47121 -2.53722 4.45141e-05 4
8.98094 4.77525 -2.72546 0.000230994 4
9.76778 5.19362 -2.55402 0.000513799 4
11.5357 6.13364 -2.53958 0.000110544 4
14.1315 7.51385 -2.53493 3.81017e-05 4
8.96472 4.80684 -2.72561 0.000382959 1
9.69472 5.19826 -2.53965 0.000477663 4
11.5134 6.17344 -2.5394 9.58637e-05 4
14.1065 7.56381 -2.53516 5.16833e-05 4
8.95992 4.84461 -2.72928 0.000382962 1
9.67086 5.22901 -2.53817 0.000197721 4
11.477 6.2056 -2.53614 9.75923e-05 4
14.0939 7.62052 -2.53766 4.52708e-05 4
8.92458 4.86584 -2.72367 0.000382965 1
9.66181 5.26779 -2.5406 0.000235938 4
11.4594 6.24787 -2.53704 9.06841e-05 4
15.1263 8.24711 -2.72871 4.88689e-05 1
8.92257 4.90522 -2.72826 0.000382969 1
9.63127 5.29483 -2.53741 0.000227633 4
11.4373 6.28768 -2.53699 0.000124368 4
15.0976 8.29996 -2.72875 4.88696e-05 1
8.91035 4.93909 -2.72978 0.000382972 1
9.60359 5.32336 -2.535 0.000240928 4
11.4154 6.32769 -2.53703 0.00011746 4
15.0457 8.33998 -2.72462 4.88704e-05 1
8.89143 4.96925 -2.72928 0.000382975 1
10.0142 5.59674 -2.64853 0.000349916 4
11.3943 6.36805 -2.53725 0.00011228 4
15.0288 8.3993 -2.72685 4.88712e-05 1
8.87253 4.99941 -2.72882 0.000382978 1
9.99466 5.6317 -2.64854 4.68512e-05 4
11.3774 6.41081 -2.53845 0.000128691 4
15.0051 8.45494 -2.72789 4.8872e-05 1
8.85527 5.03049 -2.7289 0.000382981 1
9.97378 5.66589 -2.64824 9.95597e-05 4
11.3382 6.44101 -2.53472 0.00013042 4
14.9575 8.49703 -2.72461 4.88728e-05 1
8.83656 5.06075 -2.72856 0.000382985 1
9.95297 5.70012 -2.64798 0.000250366 4
11.3312 6.48945 -2.53821 0.000110556 4
14.9256 8.54796 -2.72421 4.88736e-05 1
8.82091 5.09275 -2.7292 0.000382988 1
9.94928 5.74422 -2.65231 0.000202052 4
11.3033 6.52598 -2.53704 0.00011574 4
14.9099 8.60821 -2.72681 4.88744e-05 1
8.79943 5.12139 -2.72807 0.000382991 1
9.91662 5.77161 -2.64896 0.000105419 4
11.2732 6.56116 -2.53541 0.000119196 4
14.8786 8.65952 -2.7266 4.88751e-05 1
8.75083 5.13408 -2.71854 0.000662517 4
9.897 5.80654 -2.64912 0.000159595 4
11.2495 6.60002 -2.53523 0.000108833 4
14.838 8.70541 -2.72472 4.88759e-05 1
8.67755 5.13189 -2.70132 0.0006757 4
9.88278 5.84466 -2.65076 8.63869e-05 4
11.242 6.64848 -2.53876 0.000123518 4
14.8219 8.76563 -2.72736 4.88767e-05 1
8.63171 5.14553 -2.69263 0.000739696 4
9.85622 5.87548 -2.64912 0.000111279 4
11.2113 6.68325 -2.53708 0.000118337 4
14.7779 8.80939 -2.72491 4.88775e-05 1
8.57226 5.15073 -2.67968 0.000718013 4
9.84807 5.91731 -2.65246 0.000128851 4
11.1946 6.72639 -2.53861 0.000116611 4
14.761 8.86931 -2.72749 4.88783e-05 1
8.50196 5.14897 -2.6633 0.000726683 4
9.80616 5.93882 -2.64674 9.07822e-05 4
11.1532 6.75462 -2.53455 0.00011834 4
14.7198 8.91462 -2.7256 4.88791e-05 1
8.44573 5.1553 -2.65131 0.000729937 4
9.80448 5.98468 -2.65191 0.000194744 4
11.1456 6.8033 -2.5382 0.000135617 4
14.693 8.96861 -2.72642 4.88798e-05 1
8.37905 5.15482 -2.63601 0.000650889 4
9.76493 6.00742 -2.64687 0.000166925 4
11.124 6.8435 -2.5387 9.58835e-05 4
14.6519 9.01388 -2.72461 4.88806e-05 1
8.3331 5.16674 -2.62721 0.000334394 4
9.7343 6.03552 -2.64426 0.000518214 4
11.1008 6.88276 -2.53887 6.47869e-05 4
14.6272 9.06927 -2.72591 4.88814e-05 1
8.27497 5.17077 -2.61456 0.000709739 4
9.65657 6.03409 -2.62885 0.000574582 4
11.0712 6.91803 -2.53761 9.76134e-05 4
14.5948 9.11982 -2.72577 4.88821e-05 1
8.20957 5.16984 -2.59958 0.000445345 4
9.61598 6.0555 -2.62354 0.000506888 4
11.0368 6.95023 -2.53528 8.81123e-05 4
14.5576 9.16743 -2.72479 4.88829e-05 1
8.15713 5.17667 -2.58868 0.00069509 4
9.54996 6.06059 -2.61129 0.000602215 4
11.0134 6.98934 -2.5355 0.000100207 4
14.5374 9.22568 -2.72701 4.88837e-05 1
8.09816 5.17898 -2.57569 0.000839801 4
9.48878 6.06832 -2.60033 0.000436435 4
10.9991 7.03422 -2.53784 0.000107119 4
14.5034 9.27531 -2.7267 4.88845e-05 1
8.03409 5.17762 -2.56104 0.00086729 4
9.42104 6.07145 -2.58756 0.000482798 4
10.962 7.06449 -2.53494 0.000120943 4
14.4734 9.32747 -2.72716 4.88852e-05 1
20.7213 13.354 -2.15673 0.000107887 10
20.7134 13.3489 -1.29144 0.000109209 10
20.7101 13.3467 -0.430062 0.000109879 10
20.716 13.3506 0.430185 0.000109885 10
20.7137 13.3491 1.29146 8.51667e-05 10
20.7013 13.3411 2.15465 8.41451e-05 10
20.7246 13.3561 3.02732 8.26285e-05 10
20.7244 13.3559 3.905 8.06381e-05 10
20.7235 13.3554 4.79229 7.82023e-05 10
20.7017 13.3413 5.68589 7.53552e-05 10
20.7201 13.3532 6.60499 7.21365e-05 10
7.98747 5.18712 -2.55194 0.000621787 4
9.35143 6.07289 -2.57425 0.000471156 4
10.958 7.11624 -2.53977 0.000117489 4
14.4372 9.3756 -2.72648 4.8886e-05 1
20.548 13.344 -2.14353 0.000110879 10
20.5461 13.3428 -1.28391 0.000112235 10
20.5459 13.3426 -0.427616 0.000112921 10
20.556 13.3492 0.427828 0.000112927 10
19.7121 12.8012 1.23179 0.00013227 10
20.5641 13.3545 2.14521 8.64784e-05 10
20.5574 13.3501 3.00968 8.49229e-05 10
20.5474 13.3436 3.88041 8.28818e-05 10
20.5582 13.3506 4.7648 8.03836e-05 10
20.5614 13.3527 5.66012 7.74634e-05 10
20.5403 13.339 6.56248 7.41617e-05 10
7.915 5.17943 -2.53455 0.000120254 4
9.29957 6.08547 -2.56581 0.000515285 4
10.9122 7.14072 -2.5349 0.000112307 4
14.3924 9.41813 -2.72423 4.88867e-05 1
20.4006 13.3498 -2.13301 0.000113923 10
20.4057 13.3531 -1.27804 0.000115313 10
20.3936 13.3452 -0.425415 0.000116017 10
20.3955 13.3465 0.425454 0.000116023 10
19.5663 12.8038 1.22547 0.000135839 10
20.3834 13.3385 2.13121 8.88525e-05 10
20.3941 13.3455 2.99258 8.72577e-05 10
20.3879 13.3415 3.85907 8.5165e-05 10
20.3842 13.339 4.73524 8.26034e-05 10
20.4014 13.3503 5.62886 7.96089e-05 10
20.3988 13.3486 6.53213 7.62231e-05 10
7.90119 5.20987 -2.53593 0.000389957 4
9.23283 6.08793 -2.55324 0.000401079 4
10.8914 7.18154 -2.53587 8.89824e-05 4
14.3617 9.4698 -2.72465 4.88875e-05 1
20.229 13.3385 -2.11991 0.00011702 10
20.2343 13.3421 -1.27021 0.000118445 10
20.2455 13.3495 -0.423295 0.000119166 10
20.2296 13.339 0.422963 0.000119172 10
19.398 12.7906 1.21771 0.000139467 10
20.2435 13.3481 2.12143 9.12675e-05 10
20.2347 13.3423 2.976 8.96329e-05 10
20.2404 13.3461 3.83994 8.74876e-05 10
20.2464 13.35 4.71403 8.48617e-05 10
20.2284 13.3382 5.59395 8.17919e-05 10
20.2358 13.3431 6.49481 7.83205e-05 10
7.89415 5.24486 -2.53953 0.000347264 4
9.1756 6.09625 -2.54328 0.000208011 4
10.8698 7.22189 -2.53671 0.000135635 4
14.3491 9.53349 -2.72855 4.88883e-05 1
20.0727 13.3363 -2.1084 0.000120169 10
20.0891 13.3472 -1.26402 0.000121629 10
20.0932 13.3499 -0.421082 0.000122368 10
20.0946 13.3508 0.421112 0.000122375 10
19.2655 12.8 1.21219 0.000143156 10
20.0772 13.3393 2.10888 9.37237e-05 10
20.0937 13.3502 2.9621 9.20486e-05 10
20.0937 13.3502 3.82092 8.98501e-05 10
20.072 13.3358 4.68425 8.71589e-05 10
20.0824 13.3427 5.56642 8.40125e-05 10
20.0723 13.336 6.45723 8.04543e-05 10
7.87005 5.26854 -2.53768 0.000375731 4
9.12943 6.11162 -2.53638 0.000176167 4
10.8458 7.26064 -2.53701 0.000122678 4
14.2986 9.57205 -2.72529 4.8889e-05 1
19.9198 13.3352 -2.09722 0.000123372 10
19.9238 13.3378 -1.25653 0.000124868 10
19.9197 13.335 -0.418418 0.000125625 10
19.9199 13.3352 0.418423 0.000125632 10
19.1031 12.7884 1.20478 0.000146905 10
19.9375 13.347 2.09908 9.62214e-05 10
19.9271 13.34 2.94438 9.45052e-05 10
19.9306 13.3424 3.79874 9.22526e-05 10
19.926 13.3393 4.66099 8.94951e-05 10
19.9289 13.3412 5.53673 8.6271e-05 10
19.9265 13.3396 6.42525 8.26247e-05 10
7.85933 5.30119 -2.54018 0.000310265 4
9.11863 6.15059 -2.53933 0.000240986 4
10.824 7.30085 -2.53784 0.000108856 4
14.2761 9.62935 -2.72739 4.88898e-05 1
19.7858 13.3457 -2.088 0.000126627 10
19.7847 13.3449 -1.25069 0.00012816 10
19.7661 13.3324 -0.416167 0.000128935 10
19.7726 13.3368 0.416304 0.000128942 10
18.9634 12.791 1.19878 0.000150715 10
19.7759 13.339 2.08696 9.87604e-05 10
19.7774 13.34 2.92912 9.70026e-05 10
19.7779 13.3404 3.77849 9.46951e-05 10
19.7663 13.3326 4.63451 9.18704e-05 10
19.7779 13.3404 5.50771 8.85676e-05 10
19.7781 13.3405 6.39238 8.48319e-05 10
7.82511 5.31794 -2.5351 0.000327347 4
9.09839 6.18326 -2.53969 0.000239326 4
10.7925 7.33457 -2.53645 0.000114905 4
14.2373 9.67563 -2.72641 4.88906e-05 1
19.6308 13.3411 -2.07655 0.000129936 10
19.6259 13.3377 -1.24359 0.000131506 10
19.6254 13.3374 -0.414183 0.000132299 10
19.618 13.3324 0.414027 0.000132307 10
18.8178 12.7885 1.19238 0.000154587 10
19.6363 13.3448 2.07713 0.000101341 10
19.6194 13.3333 2.9126 9.95408e-05 10
19.6229 13.3357 3.75774 9.71778e-05 10
19.6382 13.3461 4.61538 9.42848e-05 10
19.6294 13.3401 5.47927 9.0902e-05 10
19.6207 13.3342 6.35651 8.70756e-05 10
8.15935 5.58682 -2.64968 0.000342893 4
9.06437 6.2065 -2.53623 0.000239329 4
10.7596 7.36723 -2.53474 9.50353e-05 4
14.2102 9.72991 -2.72771 4.88913e-05 1
18.9404 12.9687 -2.00829 0.000148377 10
18.9529 12.9773 -1.20381 0.000150146 10
18.9485 12.9743 -0.400851 0.000151041 10
19.4834 13.3405 0.412166 0.000135726 10
18.6851 12.7939 1.1868 0.000158519 10
18.9534 12.9777 2.00967 0.000115723 10
18.9407 12.969 2.81855 0.000113693 10
18.9564 12.9797 3.63877 0.000111027 10
19.4852 13.3418 4.59032 9.67389e-05 10
18.9513 12.9762 5.3026 0.000103945 10
18.9338 12.9643 6.14861 9.96242e-05 10
8.13098 5.60919 -2.64682 0.000113458 4
9.03542 6.23312 -2.5342 0.000234345 4
10.7433 7.41131 -2.53699 0.000109724 4
14.1795 9.78176 -2.72835 4.88921e-05 1
18.9499 13.0727 -2.01413 0.000219012 10
18.9277 13.0573 -1.2051 0.000221612 10
18.9261 13.0562 -0.401338 0.000222919 10
19.339 13.341 0.410093 0.0001392 10
18.5341 12.7858 1.18003 0.000162513 10
18.9328 13.0609 2.01231 0.000170761 10
18.9444 13.0689 2.82588 0.000167754 10
18.9494 13.0723 3.64616 0.000163808 10
19.3414 13.3427 4.56738 9.92326e-05 10
18.9318 13.0602 5.30987 0.000153332 10
18.9448 13.0691 6.16696 0.000146944 10
8.11714 5.64156 -2.6487 0.00017397 4
9.03478 6.27933 -2.54015 0.000226037 4
10.711 7.44431 -2.53547 9.33096e-05 4
14.1255 9.81749 -2.72455 4.88928e-05 1
18.9478 13.1691 -2.01878 0.000216515 10
18.9331 13.1589 -1.20836 0.000219087 10
18.9295 13.1563 -0.402381 0.000220382 10
19.1964 13.3419 0.408056 0.000142728 10
18.4042 12.7913 1.1746 0.000166569 10
18.9488 13.1697 2.01888 0.000168815 10
18.9446 13.1668 2.83274 0.000165839 10
18.944 13.1664 3.65394 0.000161935 10
19.1912 13.3382 4.54289 0.000101766 10
18.9423 13.1652 5.32568 0.00015157 10
18.9338 13.1593 6.17828 0.00014525 10
8.10552 5.67554 -2.65136 0.000214313 4
8.99498 6.29835 -2.53513 0.000264266 4
10.6879 7.48378 -2.53619 0.000127006 4
14.0995 9.87254 -2.72615 4.88936e-05 1
18.9248 13.2513 -2.02125 0.000214025 10
18.9426 13.2638 -1.21191 0.000216571 10
18.9466 13.2665 -0.403727 0.000217852 10
19.0338 13.3276 0.405584 0.000146312 10
18.2501 12.7789 1.16761 0.000170686 10
18.9411 13.2627 2.02298 0.000166875 10
18.9356 13.2589 2.8383 0.00016393 10
18.9396 13.2616 3.662 0.000160067 10
19.0483 13.3378 4.52005 0.000104339 10
18.9262 13.2523 5.33413 0.000149813 10
18.9403 13.2622 6.19548 0.00014356 10
8.07452 5.69595 -2.64771 0.000300041 4
8.97337 6.33001 -2.53525 0.000187814 4
10.6664 7.52433 -2.5373 0.000109728 4
14.0711 9.92606 -2.72735 4.88943e-05 1
18.9038 13.3352 -2.02396 0.000212829 10
18.9045 13.3357 -1.21245 0.000215361 10
18.899 13.3318 -0.403703 0.000216636 10
18.8966 13.3301 0.403652 0.00014995 10
18.1297 12.7891 1.16275 0.000174866 10
18.898 13.3311 2.02334 0.000105934 10
18.9167 13.3442 2.84243 0.000104064 10
18.9139 13.3423 3.66603 0.000101611 10
18.9062 13.3368 4.49735 0.000106952 10
18.9125 13.3413 5.34335 9.50995e-05 10
18.916 13.3438 6.20274 9.11292e-05 10
8.07252 5.73684 -2.6536 0.000347949 4
8.95614 6.36479 -2.53664 0.000232691 4
10.65 7.56853 -2.53965 0.000108001 4
14.0314 9.97162 -2.7264 4.88951e-05 1
18.8652 13.4068 -2.02483 0.000147982 10
18.8562 13.4004 -1.21234 0.000149751 10
18.8437 13.3915 -0.403518 0.000150646 10
18.7625 13.3338 0.401777 0.000153644 10
17.98 12.7778 1.15601 0.000179107 10
18.8552 13.3997 2.02375 7.36781e-05 10
18.863 13.4052 2.84137 7.23819e-05 10
18.8431 13.3911 3.66133 7.068e-05 10
18.7496 13.3247 4.47115 0.000109605 10
18.8648 13.4065 5.34308 6.61591e-05 10
18.8511 13.3968 6.19674 6.34013e-05 10
8.04813 5.7619 -2.65218 0.000383251 4
8.94687 6.40533 -2.54033 0.000212748 4
10.6155 7.59992 -2.53774 0.00010109 4
14.0055 10.027 -2.72814 4.88958e-05 1
18.6273 13.3359 0.399878 0.000157393 10
17.8425 12.7739 1.15002 0.000183411 10
18.6102 13.3236 4.44897 0.000112299 10
8.01253 5.77882 -2.64708 0.000416032 4
8.91376 6.42881 -2.53729 0.000194467 4
11.3758 8.20449 -2.72634 0.000113883 1
13.9486 10.06 -2.72388 4.88966e-05 1
18.4887 13.3345 0.397899 0.000161198 10
17.7209 12.7807 1.14505 0.000187777 10
18.4781 13.3268 4.42848 0.000115032 10
8.00437 5.81551 -2.65107 0.000395864 4
8.89512 6.46268 -2.53839 0.000229374 4
11.3512 8.24711 -2.72732 0.000113885 1
13.9304 10.1211 -2.72722 4.88973e-05 1
18.3534 13.3345 0.395987 0.000165058 10
17.5787 12.7717 1.13874 0.000192205 10
18.349 13.3313 4.40867 0.000117806 10
7.96958 5.83285 -2.64628 0.000408475 4
8.85725 6.48253 -2.53403 0.000196133 4
11.3221 8.28655 -2.72727 0.000113886 1
13.884 10.1615 -2.72505 4.88981e-05 1
18.2034 13.3229 0.39375 0.000168974 10
17.4496 12.7711 1.13326 0.000196696 10
18.2146 13.3311 4.38754 0.000120621 10
7.9533 5.86368 -2.64765 0.000416042 4
8.8572 6.53009 -2.54051 0.000229378 4
11.2902 8.32386 -2.72656 0.000113887 1
13.8578 10.2168 -2.72689 4.88988e-05 1
18.1789 13.4027 -1.97598 0.000229785 10
18.1769 13.4012 -1.18352 0.000232495 10
18.1786 13.4024 -0.394225 0.000233858 10
18.0604 13.3153 0.391662 0.000172945 10
17.3333 12.7792 1.1286 0.000201249 10
18.1892 13.4102 1.97709 0.000114374 10
18.1723 13.3978 2.77214 0.000112373 10
18.1845 13.4067 3.57828 0.000109748 10
18.0802 13.3299 4.36634 0.000123476 10
18.186 13.4079 5.2163 0.000102777 10
18.1783 13.4022 6.05157 9.85243e-05 10
7.92804 5.88788 -2.64607 0.000332836 4
8.81138 6.54391 -2.53391 0.00019115 4
11.262 8.36388 -2.72678 0.000113889 1
13.8225 10.2655 -2.72698 4.88996e-05 1
17.4456 12.9563 -2.66817 0.000189671 10
17.46 12.967 -1.90274 0.000193009 10
17.44 12.9521 -1.13848 0.000195262 10
17.4441 12.9552 -0.379275 0.000196402 10
17.9508 13.3314 0.39029 0.000176973 10
17.1941 12.7695 1.12243 0.000205865 10
17.4489 12.9587 1.90153 0.000150529 10
17.4406 12.9525 2.6674 0.000147941 10
17.4357 12.9489 3.43981 0.000144542 10
17.9303 13.3162 4.34133 0.000126371 10
17.456 12.9639 5.01986 0.000135504 10
17.4477 12.9578 5.82335 0.000129985 10
7.91727 5.92287 -2.64936 0.000393355 4
8.79709 6.58107 -2.53639 0.000241018 4
11.2227 8.39567 -2.72436 0.00011389 1
13.7837 10.3115 -2.72642 4.89003e-05 1
17.3742 12.9975 -2.66416 0.000261272 10
17.3857 13.0061 -1.89957 0.000265853 10
17.387 13.0071 -1.13798 0.000268941 10
17.3674 12.9925 -0.37859 0.000270495 10
17.8116 13.3248 0.388273 0.000181056 10
17.0747 12.7735 1.11754 0.000210544 10
17.3894 13.0089 1.89998 0.000207284 10
17.3715 12.9955 2.66375 0.000203711 10
17.3746 12.9978 3.43668 0.000199022 10
17.8077 13.3218 4.32287 0.000129307 10
17.3793 13.0014 5.01084 0.000186562 10
17.3791 13.0012 5.81558 0.000178957 10
7.90104 5.95386 -2.65087 0.000279889 4
8.76999 6.60866 -2.53521 0.000242682 4
11.2134 8.44994 -2.72925 0.000113891 1
13.7421 10.3554 -2.72532 4.89011e-05 1
17.3688 13.0883 -2.67033 0.000258107 10
17.3686 13.0882 -1.90269 0.000262637 10
17.3766 13.0942 -1.14028 0.00026569 10
17.368 13.0877 -0.379597 0.000267227 10
17.6789 13.322 0.386391 0.000185196 10
16.9542 12.7759 1.11257 0.000215286 10
17.3702 13.0894 1.90287 0.000204777 10
17.375 13.093 2.67128 0.000201243 10
17.3769 13.0944 3.44617 0.000196607 10
17.6758 13.3197 4.30212 0.000132284 10
17.3726 13.0912 5.02205 0.000184287 10
17.3806 13.0972 5.83135 0.000176767 10
7.87583 5.97808 -2.6494 0.000168944 4
8.74959 6.6413 -2.536 0.000171209 4
11.172 8.48 -2.72634 0.000113893 1
13.7054 10.403 -2.72523 4.89018e-05 1
17.3748 13.1882 -2.67831 0.000254955 10
17.3882 13.1984 -1.90987 0.000259434 10
17.3777 13.1904 -1.14337 0.000262453 10
17.383 13.1944 -0.380928 0.000263972 10
17.5412 13.3145 0.384395 0.000189392 10
16.8191 12.7664 1.10661 0.000220091 10
17.3774 13.1902 1.90869 0.000202279 10
17.3846 13.1956 2.67982 0.000198785 10
17.3839 13.1951 3.45666 0.000194201 10
17.5526 13.3232 4.28343 0.000135301 10
17.3691 13.1838 5.0343 0.000182021 10
17.3828 13.1943 5.84751 0.000174586 10
7.85995 6.00939 -2.65109 0.000237027 4
8.72475 6.67057 -2.53554 0.000236037 4
11.152 8.52638 -2.72872 0.000113894 1
13.68 10.4591 -2.72741 4.89025e-05 1
17.3705 13.2808 -2.68478 0.000251816 10
17.3699 13.2803 -1.91294 0.000256243 10
17.3788 13.2871 -1.14648 0.000259228 10
17.3649 13.2765 -0.381546 0.00026073 10
17.4228 13.3207 0.382817 0.000193643 10
16.7094 12.7753 1.10233 0.000224958 10
17.3649 13.2765 1.91239 0.000199791 10
17.387 13.2933 2.68732 0.000196338 10
17.3665 13.2777 3.46241 0.000191806 10
17.413 13.3132 4.26067 0.000138359 10
17.3693 13.2799 5.04778 0.000179764 10
17.3722 13.2821 5.8595 0.000172415 10
7.80957 6.01417 -2.64116 0.000795208 4
8.70147 6.70103 -2.53555 0.00019947 4
11.1106 8.55631 -2.72587 0.000113895 1
13.6336 10.4993 -2.72545 4.89033e-05 1
17.2855 13.3116 -2.6788 0.000191148 10
17.2947 13.3187 -1.90977 0.000194517 10
17.2942 13.3183 -1.14396 0.000196791 10
17.2915 13.3163 -0.380952 0.000197941 10
17.2958 13.3195 0.381046 0.000197951 10
16.5816 12.7695 1.09683 0.000229888 10
17.2865 13.3124 1.90886 0.000151704 10
17.2892 13.3144 2.67938 0.000149092 10
17.2862 13.3121 3.45563 0.000145661 10
17.2845 13.3109 4.24058 0.000141458 10
17.2899 13.315 5.03816 0.000136539 10
17.2977 13.321 5.85 0.000130969 10
7.75463 6.01511 -2.62967 0.000931027 4
8.6921 6.74228 -2.53966 0.000217757 4
11.0736 8.58958 -2.72414 0.000113897 1
13.6046 10.5528 -2.727 4.8904e-05 1
17.1595 13.3103 -2.66647 0.000195374 10
17.1647 13.3143 -1.90053 0.000198811 10
17.1658 13.3151 -1.13854 0.000201132 10
17.1581 13.3092 -0.379035 0.000202305 10
17.1746 13.322 0.379398 0.000202315 10
16.4548 12.7637 1.09138 0.000234881 10
17.1739 13.3215 1.90156 0.000155053 10
17.1611 13.3115 2.66671 0.000152387 10
17.1588 13.3097 3.43944 0.000148887 10
17.1553 13.307 4.22026 0.000144598 10
17.175 13.3223 5.01822 0.000139578 10
17.1712 13.3194 5.82293 0.000133894 10
7.72644 6.03655 -2.62724 0.000772645 4
8.65353 6.76088 -2.53528 0.000255991 4
11.061 8.6418 -2.72844 0.000113898 1
13.5689 10.6012 -2.72725 4.89047e-05 1
17.0508 13.3215 -2.65678 0.000199654 10
17.0508 13.3216 -1.89306 0.000203161 10
17.045 13.317 -1.1336 0.000205528 10
17.0454 13.3173 -0.37757 0.000206725 10
17.0461 13.3179 0.377585 0.000206735 10
16.3389 12.7653 1.08664 0.000239937 10
17.0323 13.3071 1.89101 0.000158445 10
17.0346 13.3089 2.65426 0.000155726 10
17.0352 13.3093 3.42394 0.000152154 10
17.0502 13.321 4.2058 0.000147778 10
17.0474 13.3189 4.99449 0.000142657 10
17.0443 13.3165 5.79561 0.000136856 10
7.66211 6.02949 -2.61251 0.000847224 4
8.62521 6.78737 -2.5339 0.000161243 4
11.0255 8.6762 -2.72713 0.000113899 1
13.528 10.6455 -2.72648 4.89054e-05 1
16.9211 13.3156 -2.6438 0.000203989 10
16.911 13.3076 -1.88268 0.000207566 10
16.9096 13.3065 -1.12768 0.00020998 10
16.9142 13.3102 -0.37569 0.000211201 10
16.9083 13.3055 0.375558 0.000211211 10
16.2187 12.7628 1.0816 0.000245056 10
16.9076 13.3049 1.8823 0.00016188 10
16.9255 13.3191 2.64449 0.000159107 10
16.9088 13.3059 3.40787 0.000155463 10
16.9183 13.3134 4.18472 0.000151 10
16.9222 13.3164 4.97138 0.000145775 10
16.9092 13.3062 5.76544 0.000139858 10
7.61014 6.03172 -2.60195 0.00061789 4
8.60453 6.81986 -2.53481 0.000164569 4
10.9833 8.70522 -2.72419 0.000113901 1
13.4897 10.6918 -2.72627 4.89062e-05 1
16.8057 13.32 -2.63302 0.000208378 10
16.7989 13.3146 -1.87537 0.000212026 10
16.7982 13.3141 -1.12334 0.000214489 10
16.7924 13.3095 -0.374015 0.000215733 10
16.7867 13.3049 0.373886 0.000215744 10
16.1071 12.7663 1.07712 0.000250238 10
16.789 13.3068 1.87426 0.000165359 10
16.7867 13.3049 2.63004 0.00016253 10
16.7924 13.3095 3.39375 0.000158815 10
16.7947 13.3113 4.16561 0.000154262 10
16.7861 13.3045 4.94501 0.000148933 10
16.8008 13.3162 5.7443 0.000142897 10
7.56785 6.04133 -2.59468 0.000764486 4
8.58489 6.85323 -2.53605 0.000202804 4
10.961 8.75005 -2.72623 0.000113902 1
13.4617 10.7463 -2.72816 4.89069e-05 1
16.6648 13.3033 -2.61821 0.000212822 10
16.6688 13.3066 -1.86602 0.000216542 10
16.686 13.3202 -1.11894 0.000219052 10
16.6702 13.3076 -0.372324 0.000220322 10
16.6683 13.3061 0.372281 0.000220332 10
15.9938 12.7677 1.07252 0.000255482 10
16.6676 13.3055 1.86588 0.00016888 10
16.6779 13.3138 2.62027 0.000165996 10
16.6777 13.3136 3.37993 0.000162207 10
16.6746 13.3112 4.14732 0.000157565 10
16.6758 13.3121 4.92618 0.00015213 10
16.6814 13.3166 5.71932 0.000145975 10
7.51934 6.04571 -2.58527 0.000874716 4
8.55768 6.88055 -2.5351 0.000197819 4
10.9326 8.79003 -2.72678 0.000113903 1
13.4087 10.7809 -2.72504 4.89076e-05 1
16.5592 13.3139 -2.6089 0.000217321 10
16.5464 13.3036 -1.8575 0.000221113 10
16.559 13.3138 -1.11354 0.000223673 10
16.5585 13.3134 -0.370866 0.000224966 10
16.5443 13.3019 0.370547 0.000224977 10
15.8651 12.7559 1.06688 0.000260789 10
16.5441 13.3018 1.85725 0.000172445 10
16.5517 13.3079 2.60772 0.000169504 10
16.554 13.3098 3.36426 0.000165642 10
16.5545 13.3102 4.12898 0.000160909 10
16.542 13.3001 4.90033 0.000155368 10
16.5501 13.3066 5.69019 0.000149091 10
7.4865 6.06244 -2.58124 0.000635871 4
8.53354 6.91033 -2.53508 0.000247691 4
10.8941 8.82185 -2.72484 0.000113904 1
13.3737 10.8298 -2.72559 4.89084e-05 1
16.4338 13.3078 -2.59644 0.000221874 10
16.4396 13.3125 -1.85072 0.000225739 10
16.4281 13.3032 -1.10785 0.000228348 10
16.4271 13.3024 -0.36896 0.000229667 10
16.4313 13.3058 0.369056 0.000229678 10
15.7588 12.7612 1.06271 0.000266159 10
16.4351 13.3089 1.85021 0.000176053 10
16.4314 13.3059 2.59606 0.000173055 10
16.4355 13.3092 3.3496 0.000169118 10
16.4231 13.2992 4.10776 0.000164293 10
16.4228 13.2989 4.87875 0.000158645 10
16.4306 13.3052 5.66503 0.000152246 10
7.44058 6.06839 -2.5727 0.000712658 4
8.51717 6.94643 -2.5374 0.000229407 4
10.8664 8.86239 -2.72562 0.000113906 1
13.3341 10.875 -2.72524 4.89091e-05 1
16.3277 13.3166 -2.58702 0.000226482 10
16.3061 13.299 -1.84091 0.000230421 10
16.306 13.2989 -1.10274 0.00023308 10
16.3219 13.3118 -0.367638 0.000234423 10
16.3137 13.3051 0.367454 0.000234434 10
15.6492 12.7632 1.05832 0.000271592 10
16.3134 13.3049 1.84173 0.000179704 10
16.3061 13.2989 2.58359 0.000176649 10
16.3217 13.3117 3.33586 0.000172636 10
16.3123 13.304 4.09164 0.000167718 10
16.3234 13.3131 4.863 0.000161961 10
16.326 13.3152 5.64497 0.000155439 10
7.38367 6.06501 -2.56032 0.000943962 4
8.49489 6.97778 -2.538 0.0001812 4
10.8415 8.90533 -2.72718 0.000113907 1
13.3084 10.9317 -2.72778 4.89098e-05 1
16.199 13.306 -2.57397 0.000231143 10
16.2046 13.3106 -1.83468 0.000235157 10
16.1975 13.3048 -1.09854 0.000237866 10
16.1882 13.2971 -0.365671 0.000239236 10
16.1883 13.2972 0.365674 0.000239247 10
16.1991 13.3061 1.83406 0.000183397 10
16.1909 13.2993 2.57267 0.000180284 10
16.2091 13.3143 3.32231 0.000176195 10
16.1971 13.3045 4.07437 0.000171184 10
16.1951 13.3028 4.83857 0.000165317 10
16.1877 13.2967 5.61315 0.00015867 10
7.32966 6.06362 -2.54892 0.00111774 4
8.45823 6.99725 -2.53433 0.000187851 4
10.8178 8.94926 -2.72905 0.000113908 1
13.2677 10.976 -2.72727 4.89105e-05 1
16.0812 13.3035 -2.5626 0.00023586 10
16.0864 13.3078 -1.82654 0.000239949 10
16.0817 13.3039 -1.09383 0.000242709 10
16.0804 13.3028 -0.364282 0.000244104 10
16.0751 13.2985 0.364162 0.000244115 10
16.0757 13.299 1.82533 0.000187134 10
16.0907 13.3114 2.56412 0.000183963 10
16.0918 13.3123 3.30778 0.000179796 10
16.0805 13.3029 4.05668 0.000174691 10
16.082 13.3041 4.81862 0.000168712 10
16.0804 13.3028 5.59201 0.000161939 10
7.29124 6.07483 -2.54292 0.000776003 4
8.44565 7.03665 -2.53791 0.00019949 4
10.7727 8.97545 -2.72555 0.00011391 1
13.219 11.0136 -2.72514 4.89112e-05 1
15.9654 13.3019 -2.55154 0.00024063 10
15.9623 13.2993 -1.81772 0.000244795 10
15.9581 13.2958 -1.08857 0.000247607 10
15.9789 13.3131 -0.363033 0.000249028 10
15.972 13.3074 0.362877 0.000249039 10
15.9622 13.2992 1.8177 0.000190914 10
15.9687 13.3046 2.55207 0.000187683 10
15.9735 13.3087 3.293 0.000183439 10
15.967 13.3032 4.03976 0.000178238 10
15.967 13.3032 4.79806 0.000172147 10
15.9685 13.3045 5.56923 0.000165247 10
7.25444 6.0872 -2.53748 0.000341655 4
8.40797 7.05513 -2.53397 0.00025269 4
10.7446 9.01575 -2.72638 0.000113911 1
13.1913 11.0688 -2.72738 4.89119e-05 1
15.8466 13.2969 -2.53995 0.000245455 10
15.8536 13.3027 -1.81061 0.000249697 10
15.8436 13.2944 -1.08392 0.00025256 10
15.8452 13.2957 -0.361049 0.000254008 10
15.8538 13.3029 0.361244 0.000254019 10
15.8584 13.3067 1.81116 0.000194736 10
15.8504 13.3001 2.54056 0.000191446 10
15.8542 13.3033 3.27796 0.000187123 10
15.856 13.3048 4.0234 0.000181825 10
15.8443 13.295 4.77512 0.000175622 10
15.849 13.2989 5.5437 0.000168593 10
7.24282 6.12066 -2.54087 0.000441308 4
8.39106 7.091 -2.53632 0.000189519 4
10.7095 9.05024 -2.72549 0.000113912 1
13.1563 11.118 -2.72816 4.89127e-05 1
15.741 13.3022 -2.53046 0.000250334 10
15.7438 13.3045 -1.80336 0.000254654 10
15.7333 13.2957 -1.07954 0.000257569 10
15.7406 13.3018 -0.35972 0.000259043 10
15.7429 13.3038 0.359774 0.000259055 10
15.7462 13.3065 1.80364 0.000198602 10
15.7384 13.3 2.53003 0.000195251 10
15.732 13.2946 3.26227 0.000190849 10
15.7327 13.2951 4.00384 0.000185453 10
15.7364 13.2982 4.75654 0.000179135 10
15.7424 13.3034 5.52263 0.000171976 10
7.20796 6.13445 -2.53614 0.000395757 4
8.36027 7.11515 -2.5345 0.000232745 4
10.6852 9.09385 -2.72738 0.000113913 1
13.1009 11.1498 -2.72473 4.89134e-05 1
15.6999 13.3616 -2.53133 0.000301113 10
15.705 13.366 -1.80425 0.000306294 10
15.6911 13.3542 -1.07983 0.000309785 10
15.6867 13.3504 -0.359552 0.000311542 10
15.7001 13.3618 0.359858 0.00031154 10
15.6862 13.35 1.8021 0.000238815 10
15.6847 13.3487 2.52887 0.000234774 10
15.6935 13.3562 3.26392 0.000229469 10
15.7009 13.3625 4.0076 0.00022297 10
15.7024 13.3638 4.76034 0.000215362 10
15.6896 13.3529 5.52042 0.000206744 10
7.18635 6.15945 -2.53608 0.000412843 4
8.33604 7.14485 -2.5347 0.00017456 4
10.6501 9.12821 -2.72651 0.000113915 1
13.0652 11.1982 -2.7254 4.89141e-05 1
15.7021 13.4583 -2.53924 0.000297041 10
15.6852 13.4439 -1.80737 0.000302157 10
15.6834 13.4423 -1.08253 0.000305605 10
15.6923 13.45 -0.360755 0.00030734 10
15.6852 13.4438 0.36059 0.000307338 10
15.6935 13.451 1.80832 0.00023559 10
15.6894 13.4475 2.5372 0.000231599 10
15.6865 13.4449 3.2722 0.00022636 10
15.7036 13.4596 4.02026 0.000219943 10
15.6916 13.4494 4.77128 0.00021243 10
15.6977 13.4546 5.53978 0.000203921 10
7.17387 6.19232 -2.53929 0.000390068 4
8.31314 7.17571 -2.53534 0.000144637 4
10.628 9.17386 -2.72905 0.000113916 1
13.0238 11.2419 -2.72494 4.89148e-05 1
15.704 13.5553 -2.54719 0.000292992 10
15.6974 13.5497 -1.81421 0.000298043 10
15.7028 13.5543 -1.08712 0.000301448 10
15.7018 13.5534 -0.362058 0.000303161 10
15.7036 13.5549 0.362098 0.000303159 10
15.6982 13.5503 1.81429 0.000232382 10
15.6956 13.5481 2.54582 0.000228442 10
15.6911 13.5442 3.28302 0.000223269 10
15.6922 13.5451 4.02942 0.000216933 10
15.6849 13.5389 4.78359 0.000209515 10
15.6964 13.5488 5.55596 0.000201114 10
7.15104 6.2163 -2.53888 0.000398613 4
8.30101 7.21596 -2.53931 0.000124688 4
10.5919 9.20743 -2.72802 0.000113917 1
13.0001 11.3008 -2.72822 4.89155e-05 1
15.64 13.5956 -2.54449 4.71332e-05 10
15.7025 13.6499 -1.82029 0.000293952 10
15.6986 13.6466 -1.09013 0.000297314 10
15.6935 13.6422 -0.362963 0.000299005 10
15.6878 13.6372 0.362829 0.000299004 10
15.6829 13.633 1.81802 0.000229193 10
15.6922 13.641 2.55298 0.000225302 10
15.6937 13.6424 3.29351 0.000220195 10
15.6935 13.6422 4.04197 0.00021394 10
15.6892 13.6384 4.79938 0.000206617 10
15.6857 13.6353 5.56898 0.000198323 10
7.13418 6.2455 -2.54061 0.000392921 4
8.27502 7.24423 -2.53908 3.8238e-05 4
10.5554 9.24053 -2.7269 0.000113918 1
12.9409 11.3289 -2.72408 4.89162e-05 1
15.5913 13.6492 -2.54431 4.71342e-05 10
15.6823 13.7288 -1.82349 0.000289885 10
15.6926 13.7378 -1.09303 0.000293204 10
15.6896 13.7352 -0.36398 0.000294874 10
15.6957 13.7405 0.364119 0.000294872 10
15.7001 13.7444 1.82556 0.000226022 10
15.6923 13.7376 2.56079 0.000222181 10
15.6821 13.7287 3.30111 0.00021714 10
15.6851 13.7312 4.05211 0.000210964 10
15.6908 13.7363 4.81451 0.000203735 10
15.7013 13.7455 5.59154 0.000195548 10
7.10518 6.26405 -2.53806 0.000395771 4
8.24536 7.26926 -2.53775 3.99008e-05 4
10.5115 9.26712 -2.7239 0.00011392 1
12.9023 11.3749 -2.7243 4.89169e-05 1
15.5499 13.7091 -2.54534 4.71351e-05 10
15.6865 13.8295 -1.82958 0.000285842 10
15.6836 13.8269 -1.09576 0.000289118 10
15.6826 13.8261 -0.364934 0.000290766 10
15.7009 13.8422 0.365359 0.000290764 10
15.6851 13.8283 1.82942 0.000222869 10
15.6851 13.8283 2.56748 0.000219078 10
15.6933 13.8355 3.3136 0.000214101 10
15.6875 13.8304 4.06518 0.000208006 10
15.693 13.8352 4.82997 0.000200871 10
15.6883 13.8311 5.60406 0.00019279 10
7.07472 6.28123 -2.535 0.000424247 4
8.21436 7.29305 -2.53602 0.00026767 4
10.4833 9.30754 -2.72501 0.000113921 1
12.8608 11.4184 -2.72394 4.89176e-05 1
15.5044 13.7655 -2.54575 4.7136e-05 10
15.6895 13.9298 -1.8356 0.000281822 10
15.6844 13.9252 -1.0992 0.000285056 10
15.6865 13.9272 -0.366155 0.000286682 10
15.684 13.9249 0.366096 0.000286681 10
15.6858 13.9265 1.83516 0.000219735 10
15.6904 13.9306 2.57628 0.000215993 10
15.7005 13.9396 3.32539 0.000211082 10
15.6842 13.9251 4.07691 0.000205065 10
15.6881 13.9285 4.84339 0.000198024 10
15.6798 13.9212 5.61835 0.000190049 10
7.06873 6.32017 -2.54074 0.000370151 4
8.18409 7.31742 -2.53455 0.000184545 4
10.4549 9.34772 -2.72607 0.000113922 1
12.8233 11.4654 -2.72446 4.89183e-05 1
15.4521 13.8158 -2.54506 4.7137e-05 10
15.6847 14.0238 -1.84075 0.000277827 10
15.6952 14.0332 -1.10339 0.000281018 10
15.698 14.0356 -0.367563 0.000282624 10
15.6983 14.0359 0.367569 0.000282622 10
15.6889 14.0275 1.84124 0.00021662 10
15.6945 14.0325 2.58498 0.000212927 10
15.6789 14.0186 3.33116 0.00020808 10
15.6926 14.0308 4.09179 0.000202143 10
15.6795 14.0191 4.85583 0.000195194 10
15.6851 14.0241 5.63776 0.000187325 10
7.0339 6.33335 -2.53615 0.00043849 4
8.17463 7.36047 -2.53956 0.000222785 4
10.4142 9.37695 -2.72398 0.000113924 1
12.7982 11.5236 -2.72766 4.8919e-05 1
15.4139 13.8787 -2.54673 4.71379e-05 10
15.677 14.1156 -1.84561 0.000273857 10
15.698 14.1345 -1.10705 0.000277006 10
15.6869 14.1245 -0.368455 0.00027859 10
15.6804 14.1187 0.368303 0.000278589 10
15.6917 14.1289 1.84734 0.000213524 10
15.6937 14.1306 2.59295 0.00020988 10
15.6969 14.1335 3.34544 0.000205097 10
15.694 14.1309 4.10498 0.000199239 10
15.6902 14.1275 4.87437 0.000192382 10
15.6803 14.1186 5.6537 0.000184618 10
7.00964 6.35595 -2.53539 0.000378699 4
8.14636 7.38666 -2.53877 0.000216137 4
10.4002 9.43037 -2.72893 0.000113925 1
12.7438 11.5554 -2.72464 4.89197e-05 1
15.3625 13.9298 -2.54625 4.71388e-05 10
15.6901 14.227 -1.853 0.000269911 10
15.6907 14.2274 -1.11003 0.000273018 10
15.6771 14.2151 -0.369388 0.000274582 10
15.683 14.2204 0.369526 0.00027458 10
15.6792 14.217 1.8517 0.000210448 10
15.6946 14.231 2.60131 0.000206852 10
15.6801 14.2178 3.35241 0.000202133 10
15.6926 14.2292 4.11759 0.000196353 10
15.6793 14.2171 4.88638 0.000189589 10
15.6808 14.2185 5.67175 0.000181928 10
6.98769 6.38064 -2.53549 0.000327449 4
8.11195 7.40723 -2.53609 0.000201175 4
10.3499 9.45074 -2.72435 0.000113926 1
12.7106 11.6063 -2.72617 4.89204e-05 1
15.3082 13.9783 -2.54532 4.71397e-05 10
15.684 14.3214 -1.85816 0.000265991 10
15.6844 14.3218 -1.11311 0.000269056 10
15.6788 14.3167 -0.370603 0.000270599 10
15.6804 14.3182 0.370642 0.000270597 10
15.695 14.3315 1.85947 0.000207391 10
15.6809 14.3187 2.6073 0.000203844 10
15.6787 14.3166 3.36278 0.000199188 10
15.6827 14.3202 4.12808 0.000193486 10
15.6839 14.3214 4.90337 0.000186813 10
15.6881 14.3252 5.69243 0.000179256 10
6.97862 6.41717 -2.54031 0.000370162 4
8.08526 7.43478 -2.53585 0.000216141 4
10.3329 9.50156 -2.72859 0.000113927 1
12.6772 11.6573 -2.72773 4.89211e-05 1
15.2736 14.0448 -2.54771 4.71407e-05 10
15.6887 14.4265 -1.86468 0.000262096 10
15.6916 14.4291 -1.11719 0.00026512 10
15.6759 14.4148 -0.371724 0.000266642 10
15.6767 14.4155 0.371741 0.000266641 10
15.6869 14.4249 1.86446 0.000204355 10
15.6868 14.4247 2.61663 0.000200855 10
15.6749 14.4138 3.37274 0.000196263 10
15.679 14.4176 4.14033 0.000190638 10
15.6782 14.4168 4.91728 0.000184055 10
15.6921 14.4296 5.71212 0.000176602 10
6.95358 6.43909 -2.53936 0.000375859 4
8.05738 7.46121 -2.53525 0.000202841 4
10.2835 9.52258 -2.7243 0.000113929 1
12.6347 11.6999 -2.72736 4.89218e-05 1
15.2175 14.0916 -2.54654 4.71416e-05 10
15.6831 14.5227 -1.87003 0.000258228 10
15.6898 14.5289 -1.12067 0.000261211 10
15.6862 14.5256 -0.373167 0.000262711 10
15.6763 14.5164 0.372932 0.00026271 10
15.6739 14.5142 1.86893 0.000201339 10
15.6891 14.5282 2.62546 0.000197887 10
15.6843 14.5238 3.38564 0.000193357 10
15.6827 14.5223 4.15467 0.000187809 10
15.6915 14.5305 4.93733 0.000181317 10
15.6808 14.5206 5.72645 0.000173966 10
6.93322 6.46532 -2.54015 0.000310371 4
8.03677 7.4944 -2.53698 0.000241084 4
10.254 9.56197 -2.72531 0.00011393 1
12.5792 11.7303 -2.7242 4.89225e-05 1
15.1577 14.1347 -2.54477 4.71425e-05 10
15.6858 14.6273 -1.87643 0.000254385 10
15.6845 14.626 -1.12393 0.000257327 10
15.6749 14.617 -0.374109 0.000258807 10
15.6933 14.6342 0.374548 0.000258806 10
15.6898 14.631 1.87691 0.000198342 10
15.6936 14.6345 2.63475 0.000194938 10
15.68 14.6218 3.39572 0.00019047 10
15.6812 14.6229 4.16777 0.000184999 10
15.6876 14.6289 4.95213 0.000178597 10
15.6876 14.629 5.74755 0.000171347 10
6.90777 6.48683 -2.53911 0.000469831 4
8.01174 7.52352 -2.53736 0.000226122 4
10.2335 9.60992 -2.72878 0.000113931 1
12.5458 11.7813 -2.72585 4.89232e-05 1
15.123 14.2014 -2.54726 4.71434e-05 10
15.6753 14.7201 -1.88131 0.000250569 10
15.6853 14.7295 -1.12766 0.00025347 10
15.6887 14.7327 -0.375665 0.000254929 10
15.689 14.733 0.375672 0.000254928 10
15.6721 14.717 1.88091 0.000195367 10
15.6832 14.7275 2.64162 0.00019201 10
15.6846 14.7288 3.40782 0.000187604 10
15.6846 14.7288 4.18231 0.000182209 10
15.6724 14.7173 4.96352 0.000175896 10
15.6918 14.7355 5.76787 0.000168748 10
6.87452 6.5009 -2.53521 0.000318918 4
7.98596 7.55195 -2.53753 0.000222799 4
10.1827 9.62926 -2.72417 0.000113932 1
12.5101 11.8302 -2.72704 4.89239e-05 1
15.0559 14.2377 -2.54431 4.71443e-05 10
15.6785 14.8264 -1.88789 0.000246779 10
15.6846 14.8322 -1.13133 0.00024964 10
15.6798 14.8277 -0.376689 0.000251079 10
15.6742 14.8223 0.376553 0.000251078 10
15.6814 14.8292 1.88824 0.000192412 10
15.6801 14.8279 2.64979 0.000189102 10
15.6862 14.8337 3.4194 0.000184758 10
15.6858 14.8334 4.19642 0.000179438 10
15.6884 14.8358 4.98498 0.000173214 10
15.6735 14.8217 5.78015 0.000166166 10
6.85131 6.52441 -2.53504 0.000435668 4
7.96275 7.58282 -2.53855 0.000222801 4
10.151 9.66662 -2.72469 0.000113933 1
12.4541 11.8598 -2.72384 4.89246e-05 1
15.0088 14.2926 -2.54476 4.71452e-05 10
15.6725 14.9247 -1.89342 0.000243016 10
15.6791 14.931 -1.13469 0.000245836 10
15.6706 14.9229 -0.377716 0.000247255 10
15.6832 14.9349 0.37802 0.000247254 10
15.6812 14.933 1.89447 0.000189478 10
15.6709 14.9232 2.65702 0.000186214 10
15.6815 14.9333 3.42971 0.000181932 10
15.6876 14.9391 4.21083 0.000176687 10
15.6834 14.9351 4.9999 0.000170551 10
15.6734 14.9256 5.79929 0.000163604 10
6.84369 6.56287 -2.54068 0.000358788 4
8.51989 8.17028 -2.72524 0.000221799 1
10.1324 9.71665 -2.72881 0.000113935 1
12.4307 11.9206 -2.72782 4.89252e-05 1
14.9619 14.348 -2.5453 4.71461e-05 10
15.6854 15.0418 -1.90132 0.00023928 10
15.6787 15.0353 -1.13844 0.00024206 10
15.6695 15.0265 -0.378952 0.000243459 10
15.6706 15.0276 0.378979 0.000243458 10
15.6786 15.0352 1.90049 0.000186565 10
15.6853 15.0417 2.66835 0.000183348 10
15.6771 15.0338 3.44021 0.000179126 10
15.6811 15.0377 4.22315 0.000173957 10
15.6804 15.037 5.01566 0.000167908 10
15.6773 15.034 5.82009 0.00016106 10
6.82162 6.58756 -2.54101 0.0003474 4
8.49133 8.19998 -2.72525 0.000221801 1
10.0952 9.74878 -2.72792 0.000113936 1
12.3881 11.9631 -2.72762 4.89259e-05 1
14.9194 14.4075 -2.5466 4.7147e-05 10
15.6852 15.147 -1.90769 0.000235572 10
15.6695 15.1319 -1.14161 0.000238312 10
15.6875 15.1492 -0.380663 0.000239691 10
15.6762 15.1384 0.38039 0.00023969 10
15.6722 15.1345 1.90611 0.000183674 10
15.6884 15.1501 2.67785 0.000180503 10
15.6854 15.1472 3.45361 0.000176341 10
15.6693 15.1317 4.23418 0.000171246 10
15.6855 15.1473 5.03418 0.000165284 10
15.6869 15.1487 5.84328 0.000158536 10
6.78459 6.59772 -2.53578 0.000375878 4
8.46114 8.2281 -2.72476 0.000221802 1
10.0497 9.77289 -2.72483 0.000113937 1
12.336 11.9962 -2.72535 4.89266e-05 1
14.8583 14.449 -2.54476 4.71479e-05 10
15.674 15.2423 -1.91279 0.000231891 10
15.6851 15.2531 -1.14662 0.000234592 10
15.6688 15.2372 -0.381498 0.000235951 10
15.6679 15.2364 0.381476 0.00023595 10
12.7304 12.3798 1.55357 0.000364074 10
12.7269 12.3764 2.17972 0.00035823 10
12.7237 12.3733 2.811 0.000350547 10
12.713 12.3628 3.44695 0.00034112 10
15.6845 15.2525 5.05091 0.000162681 10
12.7186 12.3683 4.75364 0.000317522 10
6.77236 6.63199 -2.53984 0.000361643 4
8.44011 8.26516 -2.72726 0.000221804 1
10.025 9.81721 -2.72741 0.000113938 1
12.2875 12.0328 -2.72389 4.89273e-05 1
14.8102 14.5032 -2.54518 4.71488e-05 10
15.6669 15.3422 -1.91845 0.000228238 10
15.6862 15.3611 -1.15061 0.0002309 10
15.6753 15.3504 -0.382959 0.000232239 10
15.6807 15.3557 0.38309 0.000232238 10
12.6452 12.3831 1.54843 0.000383981 10
12.6348 12.3729 2.17133 0.000377806 10
12.6384 12.3764 2.80168 0.000369694 10
12.6433 12.3812 3.43975 0.000359744 10
15.6116 15.288 5.04458 0.000156585 10
12.6314 12.3696 4.73716 0.000322727 10
6.73344 6.64007 -2.53392 0.000398665 4
8.41235 8.2957 -2.72763 0.000221806 1
9.97605 9.83772 -2.72342 0.00011394 1
12.2506 12.0807 -2.72505 4.8928e-05 1
14.7645 14.5598 -2.54606 4.71497e-05 10
