VERSION 0.7
FIELDS x y z intensity label
SIZE 4 4 4 4 4
TYPE F F F F F
COUNT 1 1 1 1 1
WIDTH 1165
HEIGHT 1
VIEWPOINT 31.0458 7.49147 2.72853 0.999995 0.0000096 0.000839021 -0.0029401
POINTS 1165
DATA ascii
9.58851 -12.5413 4.23006 0.000546004 10
6.18965 -8.03743 -2.71823 0.000388173 1
7.18535 -9.33037 -2.71881 0.000225269 1
8.51962 -11.063 -2.71418 0.000116155 1
9.64834 -12.5286 -2.50456 0.000761731 10
9.65279 -12.5344 -1.94251 0.00077787 10
9.66186 -12.5462 -1.38541 0.000521913 10
9.64485 -12.5241 -0.828434 0.000527375 10
9.65984 -12.5436 -0.276349 0.000530124 10
9.64883 -12.5293 0.276034 0.000530126 10
9.65267 -12.5342 0.829106 0.000527382 10
9.65919 -12.5427 1.38503 0.000616101 10
9.65438 -12.5365 1.94283 0.000606534 10
9.64977 -12.5305 2.50494 0.000593955 10
9.65093 -12.532 3.0746 0.000578516 10
9.64609 -12.5257 3.64991 0.000560401 10
9.65066 -12.5316 4.23815 0.000539824 10
5.78078 -7.45253 -2.52723 0.000458568 4
7.2148 -9.30127 -2.71765 0.000225286 1
8.55491 -11.0289 -2.71315 0.000116166 1
9.71801 -12.5284 -2.51128 0.000753097 10
9.71738 -12.5276 -1.9467 0.000769066 10
9.72206 -12.5336 -1.38776 0.000516012 10
9.72111 -12.5324 -0.831222 0.000521417 10
9.72902 -12.5426 -0.277074 0.000524136 10
9.72299 -12.5348 0.276902 0.000524139 10
9.71909 -12.5298 0.83105 0.000521424 10
9.72193 -12.5334 1.38775 0.000609136 10
9.71834 -12.5288 1.94689 0.000599669 10
9.72988 -12.5437 2.51435 0.000587223 10
9.72274 -12.5345 3.08352 0.000571947 10
9.72985 -12.5437 3.66502 0.000554023 10
9.72647 -12.5393 4.2522 0.000533664 10
5.80768 -7.4335 -2.52763 0.00044706 4
7.24449 -9.27253 -2.71663 0.000225304 1
8.588 -10.9921 -2.71146 0.000116177 1
9.78493 -12.5241 -2.51726 0.000744492 10
9.80047 -12.544 -1.95456 0.000760291 10
9.91646 -12.6925 -1.40918 0.000377156 10
9.91925 -12.6961 -0.84437 0.000381281 10
9.92718 -12.7062 -0.281453 0.000383435 10
9.92203 -12.6996 0.281306 0.000383592 10
9.91226 -12.6871 0.843775 0.000381751 10
9.7842 -12.5232 1.39039 0.000602193 10
9.80038 -12.5439 1.95454 0.000592827 10
9.7988 -12.5419 2.52083 0.000580513 10
9.79393 -12.5357 3.0922 0.0005654 10
9.78606 -12.5256 3.6697 0.000547667 10
9.78658 -12.5263 4.25933 0.000527526 10
5.83779 -7.41851 -2.52945 0.000444205 4
7.27993 -9.25115 -2.71779 0.000225322 1
8.63004 -10.9668 -2.71263 0.000116188 1
9.8678 -12.5397 -2.5273 0.000735918 10
9.87092 -12.5437 -1.95987 0.000751548 10
9.91274 -12.5968 -1.40239 0.000384511 10
9.91869 -12.6044 -0.840572 0.00038871 10
9.91185 -12.5957 -0.27977 0.000390902 10
9.91636 -12.6014 0.279897 0.000391062 10
9.92217 -12.6088 0.840867 0.000389187 10
9.86089 -12.531 1.39506 0.000595276 10
9.85862 -12.5281 1.95742 0.000586009 10
9.86918 -12.5415 2.52766 0.000573827 10
9.86752 -12.5394 3.10159 0.000558876 10
9.85708 -12.5261 3.67991 0.000541334 10
9.85949 -12.5292 4.272 0.000521409 10
5.86066 -7.39431 -2.52816 0.00039231 4
7.30914 -9.22183 -2.71666 0.000225339 1
8.66394 -10.9312 -2.71127 0.0001162 1
9.93717 -12.5376 -2.53385 0.000727374 10
9.93641 -12.5366 -1.96417 0.000742835 10
9.92544 -12.5228 -1.398 0.000498431 10
9.93782 -12.5384 -0.838479 0.000503664 10
9.93452 -12.5343 -0.279173 0.000506298 10
9.93039 -12.529 0.279057 0.000506301 10
9.92663 -12.5243 0.837535 0.000503672 10
9.93769 -12.5382 1.39972 0.000588382 10
9.93472 -12.5345 1.96383 0.000579216 10
9.93028 -12.5289 2.53209 0.000567165 10
9.93791 -12.5385 3.10994 0.000552376 10
9.93386 -12.5334 3.69222 0.000535024 10
9.93028 -12.5289 4.2837 0.000515315 10
5.89529 -7.3849 -2.53196 0.000424068 4
7.34404 -9.19972 -2.71768 0.000225357 1
8.70991 -10.9107 -2.71372 0.000116211 1
10.0077 -12.5364 -2.54065 0.000718862 10
10.0133 -12.5434 -1.9707 0.000734155 10
10.0018 -12.5291 -1.40259 0.000492613 10
10.002 -12.5293 -0.840202 0.00049779 10
10.0016 -12.5287 -0.279826 0.000500395 10
10.002 -12.5293 0.279838 0.000500397 10
10.0001 -12.5269 0.84004 0.000497796 10
10.0096 -12.5388 1.40367 0.000581514 10
10.0126 -12.5426 1.97056 0.000572448 10
10.0124 -12.5424 2.54186 0.000560529 10
9.99853 -12.5249 3.11521 0.0005459 10
10.0108 -12.5403 3.70451 0.000528737 10
10.0059 -12.5341 4.29741 0.000509244 10
5.9186 -7.36125 -2.53092 0.00035197 4
7.36483 -9.16 -2.71353 0.000225374 1
8.75299 -10.8865 -2.71529 0.000116222 1
10.0693 -12.5236 -2.54517 0.000710382 10
10.0795 -12.5364 -1.9751 0.000725508 10
10.1949 -12.68 -1.42345 0.000372456 10
10.1909 -12.6749 -0.852341 0.000376538 10
10.186 -12.6689 -0.283749 0.000378668 10
10.1974 -12.6831 0.284066 0.000378821 10
10.1822 -12.6641 0.85162 0.000376995 10
10.0816 -12.539 1.40763 0.000574673 10
10.0699 -12.5245 1.97323 0.000565705 10
10.0855 -12.5439 2.54928 0.000553917 10
10.0789 -12.5356 3.1266 0.000539449 10
10.0834 -12.5412 3.71517 0.000522475 10
10.0833 -12.541 4.31182 0.000503197 10
5.93112 -7.32433 -2.52533 0.000377959 4
7.39721 -9.1348 -2.71369 0.000225392 1
8.77667 -10.8383 -2.71088 0.000116233 1
10.1528 -12.5377 -2.55522 0.000701937 10
10.1448 -12.5278 -1.97932 0.000716894 10
10.1892 -12.5826 -1.41651 0.000379531 10
10.1825 -12.5744 -0.84797 0.000383684 10
10.1877 -12.5807 -0.282569 0.000385852 10
10.1936 -12.588 0.282733 0.000386007 10
10.1904 -12.5841 0.848625 0.000384148 10
10.1482 -12.532 1.41081 0.000567858 10
10.1424 -12.5249 1.97886 0.000558989 10
10.1473 -12.5308 2.55381 0.000547331 10
10.1412 -12.5233 3.13234 0.000533023 10
10.1509 -12.5353 3.72388 0.000516237 10
10.1565 -12.5423 4.3244 0.000497174 10
5.97254 -7.32306 -2.53206 0.000360671 4
7.43829 -9.12025 -2.71707 0.000225409 1
8.82775 -10.8239 -2.71497 0.000116244 1
10.2263 -12.5387 -2.56269 0.000693524 10
10.2263 -12.5387 -1.98667 0.000708315 10
10.2289 -12.5418 -1.41593 0.000475294 10
10.2291 -12.5422 -0.848199 0.000480301 10
10.2175 -12.5279 -0.282182 0.000482821 10
10.2273 -12.5399 0.282453 0.000482823 10
10.2208 -12.5319 0.847507 0.000480308 10
10.2278 -12.5405 1.41578 0.000561069 10
10.2124 -12.5216 1.98396 0.0005523 10
10.2208 -12.5319 2.5613 0.000540771 10
10.2248 -12.5369 3.14465 0.000526623 10
10.2146 -12.5243 3.7312 0.000510025 10
10.22 -12.5309 4.33277 0.000491175 10
5.9963 -7.30001 -2.53132 0.000398206 4
7.4607 -9.08281 -2.71365 0.000225426 1
8.86626 -10.794 -2.71521 0.000116255 1
10.2959 -12.5345 -2.56914 0.000685145 10
10.3022 -12.5421 -1.99289 0.000699771 10
17.9984 -21.9116 -2.48082 8.80871e-05 10
17.9396 -21.84 0.493337 9.0982e-05 10
10.2945 -12.5327 1.41895 0.000554309 10
10.2879 -12.5248 1.99014 0.000545638 10
10.2993 -12.5386 2.56998 0.000534239 10
10.2897 -12.5269 3.15114 0.00052025 10
10.2916 -12.5292 3.74333 0.000503838 10
10.3017 -12.5415 4.34883 0.000485201 10
6.0216 -7.27886 -2.53126 0.000349173 4
7.50519 -9.07222 -2.7183 0.000225444 1
8.89975 -10.758 -2.71395 0.000116266 1
10.3675 -12.5321 -2.57607 0.000676802 10
10.3626 -12.5262 -1.9961 0.000691262 10
10.4565 -12.6398 -1.43519 0.000367842 10
10.4657 -12.6508 -0.860466 0.000371881 10
10.4605 -12.6446 -0.286448 0.000373989 10
10.457 -12.6403 0.286351 0.000374138 10
10.4571 -12.6404 0.85976 0.000372327 10
10.3728 -12.5385 1.4237 0.000547576 10
10.3655 -12.5297 1.99666 0.000539002 10
10.3696 -12.5347 2.57659 0.000527733 10
10.364 -12.5279 3.16046 0.000513902 10
10.3662 -12.5306 3.75454 0.000497678 10
10.3717 -12.5372 4.35988 0.000479253 10
6.0384 -7.24751 -2.52767 0.000470404 4
7.53147 -9.03955 -2.71637 0.000225461 1
8.93808 -10.7278 -2.7142 0.000116277 1
10.4373 -12.5272 -2.58253 0.000668495 10
10.4399 -12.5303 -2.00256 0.00068279 10
10.4699 -12.5663 -1.431 0.00037465 10
10.4503 -12.5429 -0.855602 0.000378759 10
10.4554 -12.5489 -0.285106 0.000380902 10
10.4655 -12.5611 0.285381 0.000381053 10
10.4585 -12.5527 0.856273 0.00037921 10
10.4385 -12.5287 1.42671 0.000540873 10
10.4435 -12.5347 2.00325 0.000532397 10
10.442 -12.5329 2.5837 0.000521256 10
10.4327 -12.5217 3.16807 0.000507583 10
10.4356 -12.5252 3.76379 0.000491544 10
10.431 -12.5196 4.36639 0.00047333 10
6.06288 -7.22546 -2.52734 0.000372306 4
7.55902 -9.00849 -2.71495 0.000225478 1
8.96571 -10.6849 -2.71125 0.000116288 1
10.5061 -12.5207 -2.58873 0.000660225 10
10.519 -12.536 -2.00932 0.000674356 10
10.5177 -12.5345 -1.43154 0.000452531 10
10.5119 -12.5276 -0.857056 0.000457314 10
10.5096 -12.5249 -0.285392 0.000459722 10
10.5049 -12.5192 0.285262 0.000459724 10
10.5186 -12.5356 0.857606 0.000457321 10
10.5112 -12.5268 1.43066 0.000534198 10
10.5111 -12.5266 2.00782 0.00052582 10
10.5133 -12.5293 2.5905 0.000514807 10
10.5194 -12.5365 3.18108 0.000501292 10
10.514 -12.5301 3.7763 0.000485437 10
10.5153 -12.5316 4.38334 0.000467434 10
6.09249 -7.20949 -2.52918 0.000415623 4
7.5919 -8.9838 -2.71548 0.000225495 1
9.01511 -10.6679 -2.71491 0.000116299 1
10.5865 -12.5274 -2.59774 0.000651991 10
10.5909 -12.5326 -2.01469 0.000665958 10
10.7301 -12.6973 -1.45441 0.000356809 10
10.7357 -12.704 -0.871681 0.000360741 10
10.7234 -12.6894 -0.289992 0.000362792 10
10.7312 -12.6987 0.290203 0.000362935 10
10.7247 -12.691 0.870793 0.000361169 10
10.5969 -12.5397 1.43636 0.000527554 10
10.5798 -12.5195 2.01257 0.000519273 10
10.5698 -12.5076 2.59364 0.000426635 10
10.5725 -12.5108 3.18391 0.000415596 10
10.58 -12.5197 3.78426 0.000402612 10
10.5935 -12.5357 4.39767 0.000461565 10
6.12272 -7.19417 -2.53129 0.000329056 4
7.62244 -8.95634 -2.71521 0.000225512 1
9.05149 -10.6355 -2.71467 0.00011631 1
10.6609 -12.5265 -2.60525 0.000643796 10
10.654 -12.5185 -2.01838 0.0006576 10
10.7376 -12.6166 -1.44945 0.000363298 10
10.7264 -12.6035 -0.867353 0.000367297 10
10.7254 -12.6022 -0.288854 0.000369381 10
10.7321 -12.6102 0.289036 0.000369526 10
10.7202 -12.5962 0.866849 0.00036773 10
10.6672 -12.534 1.43995 0.00052094 10
10.665 -12.5313 2.02045 0.000512755 10
10.5814 -12.4331 2.58583 0.000434374 10
10.5764 -12.4272 3.172 0.000423149 10
10.5691 -12.4186 3.76483 0.000409944 10
10.6675 -12.5342 4.4102 0.000455724 10
6.14723 -7.1721 -2.53106 0.000329076 4
7.65472 -8.93092 -2.71558 0.000225529 1
9.08329 -10.5977 -2.7131 0.000116321 1
10.7334 -12.5228 -2.61227 0.000635639 10
10.7381 -12.5283 -2.026 0.000649281 10
10.7454 -12.5369 -1.44459 0.000435723 10
10.7315 -12.5207 -0.864225 0.000440341 10
10.7457 -12.5373 -0.288222 0.000442666 10
10.7477 -12.5395 0.288274 0.000442668 10
10.7351 -12.5248 0.864512 0.000440347 10
10.7361 -12.5261 1.44334 0.000514357 10
10.7422 -12.5331 2.02678 0.000506269 10
10.564 -12.3253 2.57106 0.000442188 10
10.5722 -12.3349 3.15783 0.000430774 10
10.5725 -12.3351 3.75068 0.000417347 10
10.737 -12.5271 4.42084 0.00044991 10
6.15672 -7.13263 -2.5247 0.000383946 4
7.68572 -8.904 -2.71554 0.000225546 1
9.11384 -10.5585 -2.7112 0.000116332 1
10.8175 -12.5322 -2.62209 0.000627521 10
10.8148 -12.5291 -2.03221 0.000641001 10
10.8222 -12.5377 -1.44903 0.000430173 10
10.8138 -12.5279 -0.86732 0.000434736 10
10.8185 -12.5334 -0.288999 0.000437034 10
10.8107 -12.5243 0.288789 0.000437035 10
10.8196 -12.5346 0.867785 0.000434743 10
10.8161 -12.5305 1.4482 0.000507806 10
10.7959 -12.5072 2.02867 8.02311e-05 10
10.573 -12.2489 2.56282 0.000450075 10
10.5716 -12.2473 3.14484 0.000438472 10
10.5689 -12.2442 3.73425 0.000424821 10
10.8134 -12.5275 4.43429 0.000444125 10
6.18128 -7.11075 -2.52457 0.000453257 4
7.72033 -8.88123 -2.7168 0.000225563 1
9.15201 -10.5282 -2.7116 0.000116343 1
10.8931 -12.531 -2.62978 0.000619443 10
10.8942 -12.5323 -2.0389 0.000632762 10
11.0091 -12.6646 -1.46812 0.000352561 10
10.9999 -12.6539 -0.8787 0.000356455 10
11.0002 -12.6543 -0.292671 0.000358484 10
10.9908 -12.6435 0.292421 0.000358624 10
10.9915 -12.6443 0.878029 0.000356872 10
10.8904 -12.528 1.45229 0.000501286 10
10.8451 -12.4758 2.0297 8.02186e-05 10
10.5809 -12.1719 2.55442 0.000531821 10
10.5743 -12.1644 3.13302 0.000517919 10
10.5873 -12.1794 3.7257 0.000501609 10
10.8858 -12.5227 4.446 0.000438369 10
6.20996 -7.09358 -2.52616 0.000288717 4
7.74648 -8.84874 -2.71511 0.00022558 1
9.19595 -10.5045 -2.71374 0.000116353 1
10.9626 -12.5224 -2.63599 0.000611406 10
10.9583 -12.5176 -2.04271 0.000624564 10
11.0053 -12.5712 -1.46175 0.00035881 10
11.0086 -12.575 -0.875885 0.000362767 10
10.9961 -12.5607 -0.291393 0.000364829 10
10.9881 -12.5516 0.29118 0.00036497 10
10.9916 -12.5556 0.874531 0.000363189 10
10.9602 -12.5198 1.45576 0.000494799 10
10.8893 -12.4388 2.02985 8.02061e-05 10
10.6502 -12.1656 2.56088 0.000524981 10
10.6577 -12.1742 3.14511 0.000511246 10
10.6464 -12.1613 3.73152 0.000495131 10
10.961 -12.5206 4.45884 0.000432642 10
6.23324 -7.07022 -2.52557 0.000398453 4
7.767 -8.80993 -2.71151 0.000225597 1
9.23211 -10.4718 -2.71361 0.000116364 1
11.0386 -12.5208 -2.64375 0.000603409 10
11.0433 -12.5261 -2.05038 0.000616408 10
11.0505 -12.5343 -1.46193 0.000413686 10
11.0432 -12.526 -0.875152 0.000418088 10
11.0499 -12.5336 -0.291657 0.000420303 10
11.0503 -12.5341 0.291669 0.000420305 10
11.0349 -12.5167 0.874498 0.000418094 10
11.0445 -12.5275 1.46114 0.000488344 10
10.9277 -12.395 2.02892 8.01936e-05 10
10.8047 -12.2555 3.77199 0.000145699 10
11.0347 -12.5165 4.47104 0.000426944 10
6.27023 -7.06234 -2.53056 0.000320515 4
7.81389 -8.80099 -2.71714 0.000225614 1
9.26404 -10.4343 -2.71227 0.000116375 1
11.1166 -12.5209 -2.65194 0.000595455 10
11.1204 -12.5252 -2.05658 0.000608294 10
11.2792 -12.704 -1.48631 0.000342385 10
11.2726 -12.6967 -0.889819 0.000346179 10
11.2726 -12.6966 -0.296364 0.000348156 10
11.2698 -12.6934 0.296289 0.00034829 10
11.2701 -12.6938 0.889617 0.000346581 10
11.1196 -12.5243 1.46528 0.000481924 10
10.9751 -12.3615 2.0297 8.01812e-05 10
10.8474 -12.2177 3.77198 0.000145687 10
11.1153 -12.5195 4.48596 0.000421277 10
6.28233 -7.0264 -2.52552 0.000360962 4
7.83281 -8.76053 -2.71307 0.00022563 1
9.30958 -10.4122 -2.71494 0.000116385 1
11.1995 -12.5259 -2.66127 0.000587542 10
11.2079 -12.5353 -2.06465 0.000600223 10
11.2683 -12.6029 -1.47907 0.000348348 10
11.2687 -12.6033 -0.886028 0.000352203 10
11.2766 -12.6121 -0.295309 0.000354211 10
11.2666 -12.6011 0.295049 0.000354347 10
11.2673 -12.6018 0.88592 0.00035261 10
11.1898 -12.5151 1.46877 0.000475537 10
11.0298 -12.3362 2.03184 8.01688e-05 10
11.2604 -12.5941 2.67575 0.000287262 10
11.2678 -12.6024 3.28602 0.000279646 10
10.8924 -12.1825 3.77282 0.000145675 10
11.1984 -12.5248 4.50182 0.00041564 10
6.30946 -7.00736 -2.52658 0.000254133 4
7.8715 -8.74219 -2.71588 0.000225647 1
9.33593 -10.3686 -2.71206 0.000116396 1
11.2744 -12.5215 -2.66867 0.000579673 10
11.2854 -12.5337 -2.07086 0.000592196 10
11.2809 -12.5287 -1.47497 0.000397455 10
11.287 -12.5355 -0.884021 0.000401696 10
11.2696 -12.5161 -0.29398 0.000403831 10
11.2854 -12.5338 0.294394 0.000403832 10
11.2832 -12.5312 0.883722 0.000401702 10
11.2787 -12.5262 1.47468 0.000469184 10
11.0698 -12.2943 2.0313 8.01565e-05 10
10.9542 -12.1658 3.77949 0.000469552 10
11.2867 -12.5351 4.51969 0.000410034 10
6.32808 -6.9789 -2.52427 0.000378334 4
7.90707 -8.72028 -2.71763 0.000225664 1
9.37013 -10.3338 -2.7115 0.000116407 1
11.3649 -12.5337 -2.67972 0.000571847 10
11.3563 -12.5242 -2.07583 0.000584213 10
11.3578 -12.5259 -1.4793 0.000392104 10
11.3668 -12.5359 -0.886844 0.000396291 10
11.351 -12.5184 -0.294963 0.000398399 10
11.3657 -12.5347 0.295345 0.000398401 10
11.3566 -12.5246 0.886046 0.000599972 10
11.3599 -12.5283 1.47958 0.000462867 10
11.112 -12.2549 2.03118 8.01442e-05 10
11.0313 -12.1659 3.79143 0.000463244 10
11.3471 -12.5141 4.52636 0.00040446 10
6.3587 -6.96367 -2.52677 0.000346587 4
7.93564 -8.69064 -2.71701 0.00022568 1
9.41812 -10.3142 -2.71495 0.000116417 1
11.4329 -12.5206 -2.68543 0.000564065 10
11.4423 -12.531 -2.08355 0.000576275 10
11.4434 -12.5321 -1.48475 0.000585567 10
11.4359 -12.5239 -0.888814 0.000591827 10
11.4448 -12.5336 -0.296261 0.000594978 10
11.4445 -12.5334 0.296254 0.000594981 10
11.4412 -12.5297 0.889224 0.000591836 10
11.4337 -12.5215 1.48349 0.000456585 10
11.1414 -12.2014 2.02875 8.01319e-05 10
11.1119 -12.169 3.80449 0.00045697 10
11.445 -12.5338 4.54791 0.000398918 10
6.3802 -6.93842 -2.52568 0.000303281 4
7.9588 -8.65513 -2.71458 0.000225697 1
9.45274 -10.2798 -2.71457 0.000116428 1
11.521 -12.529 -2.69584 0.000556328 10
11.5094 -12.5164 -2.0878 0.000568382 10
11.5222 -12.5302 -1.48928 0.000577556 10
11.5258 -12.5342 -0.892394 0.000583737 10
11.5117 -12.5189 -0.29686 0.000586847 10
11.5171 -12.5248 0.296999 0.00058685 10
11.5128 -12.5201 0.891391 0.000583745 10
11.5074 -12.5142 1.48737 0.000450339 10
11.197 -12.1767 2.03112 8.01197e-05 10
11.1772 -12.1551 3.8123 0.000450731 10
11.5114 -12.5186 4.55694 0.000393407 10
6.40168 -6.91319 -2.52461 0.000453505 4
7.98977 -8.62816 -2.71485 0.000225713 1
9.48731 -10.2454 -2.71421 0.000116438 1
11.5918 -12.518 -2.70217 0.000548635 10
11.5899 -12.5159 -2.09445 0.000560535 10
11.5894 -12.5154 -1.49231 0.000569592 10
11.5969 -12.5235 -0.894513 0.000575693 10
11.5895 -12.5155 -0.297738 0.000578764 10
11.5884 -12.5143 0.297709 0.000578767 10
11.6029 -12.5299 0.894971 0.000575702 10
11.5949 -12.5214 1.49303 0.000444129 10
11.2605 -12.1602 2.03493 0.000481669 10
11.2574 -12.1569 3.82516 0.000444529 10
11.6047 -12.5319 4.57651 0.00038793 10
6.43045 -6.89582 -2.52645 0.000306206 4
8.02392 -8.6046 -2.71623 0.000225729 1
9.50589 -10.1938 -2.70933 0.000116449 1
11.6656 -12.5098 -2.70916 5.03378e-05 1
11.6766 -12.5216 -2.10222 0.000552735 10
11.6857 -12.5314 -1.49907 0.000561674 10
11.6867 -12.5324 -0.898055 0.000567697 10
11.6728 -12.5176 -0.298754 0.000570728 10
11.6801 -12.5254 0.298941 0.000570731 10
11.6742 -12.5191 0.8971 0.000567705 10
11.6875 -12.5333 1.49931 0.000437955 10
11.3359 -12.1563 2.04088 0.000475026 10
11.7492 -12.5994 2.72858 0.000264465 10
11.7389 -12.5884 3.34577 0.000257412 10
11.3343 -12.1546 3.83687 0.000438363 10
11.6739 -12.5188 4.58655 0.000382485 10
6.46687 -6.88652 -2.5313 0.000323558 4
8.05197 -8.57448 -2.71558 0.000225746 1
9.55411 -10.1741 -2.71293 0.000116459 1
11.714 -12.4742 -2.71029 5.03436e-05 1
11.7675 -12.5311 -2.11069 0.000544982 10
20.5688 -21.9036 -1.57471 6.0887e-05 10
20.5692 -21.904 -0.524488 6.13172e-05 10
20.4965 -21.8265 0.522633 6.69732e-05 10
11.7688 -12.5325 1.50412 0.000431819 10
11.4288 -12.1704 2.04993 0.000468423 10
11.7669 -12.5305 2.72253 0.000265508 10
11.7542 -12.517 3.33767 0.000258432 10
11.4215 -12.1627 3.85199 0.000432235 10
11.7547 -12.5175 4.60109 0.000377074 10
6.4773 -6.84956 -2.52601 0.000384248 4
8.07813 -8.54239 -2.71433 0.000225762 1
9.59389 -10.1453 -2.71416 0.00011647 1
11.7483 -12.4234 -2.70816 5.03495e-05 1
11.843 -12.5236 -2.11638 0.000537276 10
20.6471 -21.8337 -1.57487 6.5378e-05 10
20.6455 -21.832 -0.524487 6.58098e-05 10
20.6366 -21.8226 0.52426 6.58102e-05 10
11.7765 -12.4533 1.49954 0.000405569 10
11.5038 -12.165 2.05577 0.000461859 10
11.7683 -12.4446 2.71277 0.000390931 10
11.7707 -12.4471 3.32997 0.000380666 10
11.5046 -12.1658 3.86567 0.000426143 10
11.7666 -12.4429 4.58873 0.000354872 10
6.50995 -6.83612 -2.52942 0.000265811 4
8.11739 -8.5241 -2.71751 0.000225778 1
9.61487 -10.0966 -2.71011 0.00011648 1
11.7933 -12.3842 -2.70855 5.03553e-05 1
11.9316 -12.5294 -2.12439 0.000529619 10
20.7894 -21.831 -1.57989 6.42325e-05 10
20.7844 -21.8258 -0.526078 6.46573e-05 10
20.7788 -21.8199 0.525936 6.46577e-05 10
11.7739 -12.3638 1.4937 0.000412214 10
11.5788 -12.159 2.06158 0.000455336 10
11.7627 -12.3521 2.70154 0.000397352 10
11.7675 -12.3571 3.31686 0.000386931 10
11.5887 -12.1693 3.87961 0.00042009 10
11.76 -12.3492 4.56931 0.00036074 10
6.52591 -6.80516 -2.52638 0.000132913 4
8.14344 -8.4919 -2.71629 0.000225795 1
9.6549 -10.068 -2.71146 0.00011649 1
11.8399 -12.3465 -2.70934 5.03611e-05 1
12.0027 -12.5163 -2.12926 0.00052201 10
20.9369 -21.8328 -1.5853 6.30976e-05 10
20.9392 -21.8352 -0.528063 6.35155e-05 10
20.9379 -21.8338 0.528029 6.35159e-05 10
11.7733 -12.2771 1.48817 0.000418913 10
11.656 -12.1548 2.06775 0.000448853 10
11.7773 -12.2813 2.69503 0.000403825 10
11.7732 -12.2769 3.30635 0.000393245 10
11.6667 -12.1659 3.89148 0.000414075 10
11.7681 -12.2716 4.55578 0.000366657 10
6.54616 -6.77875 -2.52504 8.95774e-05 4
8.16678 -8.45695 -2.71421 0.000225811 1
9.69196 -10.0363 -2.71202 0.000116501 1
11.8677 -12.2894 -2.70588 5.03669e-05 1
12.0853 -12.5147 -2.13614 0.000514451 10
11.7823 -12.201 1.48393 0.000425664 10
11.7453 -12.1626 2.07604 0.000442412 10
11.7721 -12.1904 2.68408 0.000410349 10
11.7642 -12.1822 3.29187 0.00039961 10
11.7626 -12.1805 3.90927 0.000386983 10
11.7768 -12.1953 4.54266 0.00037262 10
6.56792 -6.75394 -2.52432 0.000228291 4
8.18941 -8.42136 -2.71195 0.000225827 1
9.71532 -9.99049 -2.70878 0.000116511 1
11.9206 -12.2582 -2.70817 5.03727e-05 1
12.1817 -12.5267 -2.14544 0.000506941 10
11.8215 -12.1563 1.4835 0.000443039 10
11.8326 -12.1678 2.08396 0.000436012 10
11.8262 -12.1612 2.68672 0.000426778 10
11.8297 -12.1647 3.2983 0.000415448 10
11.8341 -12.1693 3.91891 0.000402161 10
11.8234 -12.1583 4.54422 0.000387078 10
6.60198 -6.74173 -2.52835 0.000338122 4
8.22549 -8.39959 -2.71417 0.000225843 1
9.76151 -9.96813 -2.71194 0.000116521 1
11.9572 -12.2103 -2.70678 5.03784e-05 1
12.2548 -12.5142 -2.15061 0.000499482 10
11.9033 -12.1553 1.48844 0.000436586 10
11.9039 -12.1558 2.08902 0.000429654 10
11.9103 -12.1624 2.69617 0.000420545 10
11.9015 -12.1534 3.30647 0.000409369 10
11.9195 -12.1718 3.93308 0.000396263 10
11.918 -12.1703 4.56423 0.000381386 10
6.61536 -6.70838 -2.52449 0.000404614 4
8.26001 -8.37616 -2.7159 0.000225859 1
9.78429 -9.92187 -2.70863 0.000116531 1
12.0054 -12.1742 -2.70805 5.03841e-05 1
12.3421 -12.5156 -2.15825 0.000492073 10
11.9861 -12.1546 1.49348 0.000430176 10
11.9874 -12.1559 2.09622 0.000423339 10
11.991 -12.1597 2.70482 0.000414354 10
11.9944 -12.163 3.32045 0.000403331 10
11.9834 -12.1519 3.94016 0.000390405 10
11.9878 -12.1564 4.57468 0.000375732 10
6.64533 -6.69189 -2.527 0.000413308 4
8.27512 -8.3331 -2.71128 0.000225875 1
9.83293 -9.90182 -2.71251 0.000116542 1
12.0442 -12.1286 -2.70723 5.03898e-05 1
12.4341 -12.5212 -2.16667 0.000484715 10
12.0807 -12.1654 1.49996 0.00042381 10
12.0803 -12.1649 2.10503 0.000417067 10
12.0832 -12.1678 2.716 0.000408206 10
12.0724 -12.1569 3.33028 0.000397334 10
12.0747 -12.1593 3.95619 0.000384587 10
12.0728 -12.1574 4.59089 0.000370117 10
6.66719 -6.66719 -2.52645 0.000427784 4
8.31838 -8.31838 -2.71593 0.000225891 1
9.85445 -9.85445 -2.70894 0.000116552 1
12.0923 -12.0923 -2.70854 5.03955e-05 1
12.5093 -12.5093 -2.17216 0.000477409 10
12.1609 -12.1609 1.50464 0.000417487 10
12.1523 -12.1523 2.11017 0.000410838 10
12.1543 -12.1543 2.72243 0.0004021 10
12.1553 -12.1553 3.34143 0.00039138 10
12.153 -12.153 3.96791 0.000378809 10
12.1625 -12.1625 4.60884 0.000364542 10
6.69597 -6.64938 -2.52854 0.00048273 4
8.349 -8.29092 -2.71646 0.000225906 1
9.89591 -9.82706 -2.71089 0.000116562 1
12.1381 -12.0537 -2.70937 5.04012e-05 1
12.6018 -12.5141 -2.18062 0.000470155 10
12.2546 -12.1693 1.51097 0.000411209 10
12.2391 -12.1539 2.11786 0.000404652 10
12.2438 -12.1586 2.73296 0.000396036 10
12.246 -12.1608 3.35468 0.000385467 10
12.2353 -12.1502 3.98092 0.000373073 10
12.2437 -12.1585 4.62348 0.000359006 10
6.72257 -6.62935 -2.52983 0.000312203 4
8.36373 -8.24776 -2.71187 0.000225922 1
9.93891 -9.8011 -2.71328 0.000116572 1
12.1625 -11.9938 -2.70544 5.04068e-05 1
12.6994 -12.5233 -2.18993 0.000462954 10
20.8283 -20.5395 -1.53304 4.70233e-05 10
20.8261 -20.5373 -0.510544 4.73508e-05 10
20.82 -20.5313 0.510394 4.73717e-05 10
12.3395 -12.1684 1.51618 0.000404975 10
12.3296 -12.1587 2.12617 0.000398511 10
12.3259 -12.155 2.7418 0.000390017 10
12.3305 -12.1595 3.36617 0.000379596 10
12.3352 -12.1641 3.99957 0.000367378 10
12.3276 -12.1567 4.63912 0.000353511 10
6.73172 -6.59219 -2.5246 0.000375821 4
8.39292 -8.21895 -2.71201 0.000225938 1
9.9659 -9.75933 -2.71133 0.000116582 1
12.2108 -11.9577 -2.70689 5.04125e-05 1
12.7789 -12.514 -2.19609 0.000455805 10
20.9069 -20.4736 -1.53356 4.66368e-05 10
20.9121 -20.4787 -0.510898 4.69413e-05 10
20.9028 -20.4696 0.51067 4.69416e-05 10
12.4097 -12.1525 1.51959 0.000398787 10
12.4128 -12.1555 2.13319 0.000392414 10
12.4074 -12.1502 2.75047 0.000384041 10
12.4119 -12.1547 3.37681 0.000373769 10
12.4088 -12.1516 4.00968 0.000361725 10
12.4165 -12.1591 4.65655 0.000348055 10
6.75149 -6.56554 -2.52341 0.000424991 4
8.42677 -8.19468 -2.71369 0.000225954 1
9.99008 -9.71493 -2.70867 0.000116592 1
12.244 -11.9067 -2.70501 5.04181e-05 1
12.8661 -12.5118 -2.20357 0.000448711 10
20.8323 -20.2586 -1.52289 4.87877e-05 10
20.8297 -20.256 -0.507154 4.91263e-05 10
20.8195 -20.2461 0.506905 4.91478e-05 10
12.5047 -12.1603 1.52602 0.000392644 10
12.5112 -12.1666 2.14278 0.000386363 10
12.4938 -12.1497 2.76021 0.000378109 10
12.4972 -12.153 3.38843 0.000367984 10
12.5065 -12.162 4.02748 0.000356114 10
12.5061 -12.1617 4.67424 0.000342642 10
6.77919 -6.54659 -2.5252 0.000375864 4
8.44927 -8.15937 -2.71175 0.000225969 1
10.03 -9.68589 -2.71032 0.000116602 1
12.2889 -11.8672 -2.70576 5.04237e-05 1
12.9516 -12.5073 -2.21072 0.00044167 10
20.9242 -20.2063 -1.52444 4.7545e-05 10
20.9239 -20.2059 -0.507726 4.78546e-05 10
20.9364 -20.2181 0.50803 4.78549e-05 10
12.5825 -12.1508 1.53033 0.000386547 10
12.5948 -12.1627 2.14982 0.000380356 10
12.5888 -12.1569 2.77181 0.000372221 10
12.5874 -12.1555 3.40136 0.000362243 10
12.5946 -12.1625 4.04218 0.000350545 10
12.5976 -12.1654 4.69253 0.000337268 10
6.80349 -6.52431 -2.52575 0.000427931 4
8.49164 -8.14319 -2.71621 0.000225985 1
10.0665 -9.65345 -2.71106 0.000116612 1
12.3369 -11.8307 -2.70724 5.04292e-05 1
13.0473 -12.5119 -2.21958 0.000434683 10
20.8239 -19.9694 -1.51204 5.0587e-05 10
20.8283 -19.9736 -0.503711 5.09369e-05 10
20.8107 -19.9568 0.503287 5.09589e-05 10
12.6833 -12.1629 1.53741 0.000380495 10
12.6802 -12.1599 2.15714 0.000374395 10
12.6771 -12.1569 2.78188 0.000366379 10
12.6862 -12.1657 3.41659 0.000356546 10
12.6858 -12.1652 4.05778 0.000345018 10
12.6743 -12.1543 4.70528 0.000331936 10
6.8203 -6.49489 -2.52357 0.000283375 4
8.52017 -8.11365 -2.71626 0.000226 1
10.1013 -9.61933 -2.71136 0.000116622 1
12.3809 -11.7902 -2.70784 5.04348e-05 1
13.1326 -12.506 -2.22666 0.000427751 10
20.9419 -19.9427 -1.51555 4.84778e-05 10
20.9271 -19.9286 -0.504415 4.87926e-05 10
20.9435 -19.9443 0.504812 4.87929e-05 10
12.7672 -12.158 1.54243 0.00037449 10
12.7659 -12.1568 2.16449 0.00036848 10
12.7574 -12.1487 2.79018 0.000360581 10
12.7608 -12.152 3.42523 0.000350893 10
12.7741 -12.1646 4.07241 0.000339534 10
12.757 -12.1484 4.72021 0.000326646 10
6.85123 -6.47889 -2.52662 0.000355685 4
8.5353 -8.07143 -2.71208 0.000226016 1
10.1236 -9.57338 -2.70835 0.000116631 1
12.4221 -11.747 -2.70787 5.04403e-05 1
13.2381 -12.5187 -2.23712 0.000420874 10
20.835 -19.7027 -2.5088 7.83105e-05 10
20.8288 -19.6968 -1.50238 5.24207e-05 10
20.8306 -19.6985 -0.500429 5.27821e-05 10
20.8127 -19.6816 0.5 5.28047e-05 10
12.8655 -12.1663 1.54916 0.000368533 10
12.8456 -12.1475 2.17079 0.00036261 10
12.8493 -12.1509 2.80098 0.000354829 10
12.859 -12.1601 3.44015 0.000345284 10
12.8609 -12.162 4.08654 0.000334094 10
12.8569 -12.1582 4.74142 0.000321397 10
6.87393 -6.45505 -2.52667 0.000367273 4
8.56266 -8.04088 -2.71184 0.000226031 1
10.1684 -9.54872 -2.7114 0.000116641 1
12.4486 -11.6901 -2.70474 5.04458e-05 1
13.3278 -12.5156 -2.24488 0.000414053 10
20.8179 -19.5493 -2.4985 7.97011e-05 10
20.9418 -19.6656 -1.50557 4.94365e-05 10
20.9359 -19.6602 -0.501309 4.97566e-05 10
20.9365 -19.6607 0.501322 4.97569e-05 10
12.9372 -12.1489 1.55269 0.000362622 10
12.9405 -12.1519 2.17965 0.000356788 10
12.9346 -12.1464 2.81033 0.000349122 10
12.9407 -12.1521 3.45064 0.00033972 10
12.9454 -12.1566 4.09989 0.000328698 10
12.9477 -12.1587 4.75924 0.000316191 10
6.89831 -6.43278 -2.52736 0.000329696 4
8.60108 -8.02064 -2.71513 0.000226046 1
10.1946 -9.50659 -2.70953 0.000116651 1
12.4939 -11.6508 -2.70572 5.04513e-05 1
13.4252 -12.5192 -2.25391 0.000407287 10
13.5984 -12.6807 -1.62672 5.12313e-05 10
20.8283 -19.4227 -1.49253 5.42887e-05 10
20.8129 -19.4083 -0.496736 5.46617e-05 10
20.8255 -19.4201 0.497039 5.46849e-05 10
13.0406 -12.1606 1.55999 0.000356758 10
13.0334 -12.1538 2.18813 0.000351012 10
13.0404 -12.1603 2.82407 0.000343462 10
13.0282 -12.149 3.46265 0.000334201 10
13.0354 -12.1557 4.11492 0.000323345 10
13.0389 -12.159 4.77713 0.000311028 10
6.92514 -6.41275 -2.52898 0.000373098 4
8.02461 -7.43087 -2.52494 0.000179572 4
10.2289 -9.47209 -2.70986 0.000116661 1
12.5498 -11.6213 -2.70903 5.04568e-05 1
13.5081 -12.5087 -2.26049 0.000400577 10
13.6301 -12.6216 -1.62523 5.12415e-05 10
20.9385 -19.3893 -1.49556 5.04224e-05 10
20.9442 -19.3945 -0.498252 5.0748e-05 10
20.951 -19.4009 0.498415 5.07483e-05 10
13.1244 -12.1533 1.56493 0.000350943 10
13.1294 -12.158 2.19711 0.000345283 10
13.1337 -12.162 2.83507 0.000337847 10
13.1242 -12.1532 3.47688 0.000328728 10
13.1195 -12.1488 4.12806 0.000318037 10
13.1231 -12.1521 4.7924 0.000305907 10
6.94051 -6.38213 -2.52644 0.000384688 4
8.05066 -7.40297 -2.525 0.000162642 4
10.2629 -9.43725 -2.71012 0.00011667 1
12.5759 -11.5641 -2.70593 5.04622e-05 1
13.6169 -12.5214 -2.27136 0.000393924 10
13.6718 -12.5719 -1.62496 5.12517e-05 10
20.8288 -19.1531 -1.48295 5.61902e-05 10
20.8081 -19.134 -0.493422 5.65751e-05 10
20.8062 -19.1323 0.493376 5.65989e-05 10
13.2184 -12.1549 1.57107 0.000345176 10
13.2166 -12.1533 2.20459 0.000339603 10
13.2093 -12.1466 2.84222 0.00033228 10
13.2165 -12.1532 3.49006 0.0003233 10
13.2158 -12.1525 4.14497 0.000312773 10
13.2117 -12.1488 4.80923 0.00030083 10
6.96502 -6.35994 -2.52726 0.000335536 4
8.07779 -7.37604 -2.52541 0.000208399 4
10.3045 -9.40927 -2.7124 0.00011668 1
12.6164 -11.5204 -2.70598 5.04676e-05 1
13.7104 -12.5193 -2.27966 0.000387328 10
13.7283 -12.5357 -1.62646 5.12619e-05 10
20.946 -19.1263 -1.48653 5.14371e-05 10
20.9509 -19.1308 -0.495221 5.17683e-05 10
20.9463 -19.1266 0.495113 5.17687e-05 10
13.3006 -12.1451 1.57579 0.000339457 10
13.3042 -12.1484 2.21211 0.00033397 10
13.313 -12.1565 2.85539 0.00032676 10
13.3152 -12.1585 3.50491 0.000317918 10
13.3052 -12.1493 4.15968 0.000307553 10
13.3063 -12.1503 4.82821 0.000295795 10
6.98773 -6.33609 -2.52746 0.000419443 4
8.10147 -7.34597 -2.52478 0.000238912 4
10.3379 -9.37385 -2.71257 0.00011669 1
12.6667 -11.4855 -2.70815 5.04731e-05 1
13.792 -12.5058 -2.28595 0.000380788 10
13.7961 -12.5095 -1.62931 0.000387118 10
13.9363 -12.6366 -0.985914 0.000271747 10
13.934 -12.6345 -0.328316 0.000273339 10
13.9355 -12.6359 0.328352 0.000273437 10
13.936 -12.6364 0.985894 0.000272039 10
13.4089 -12.1584 1.58358 0.000333787 10
13.4102 -12.1596 2.22267 0.000328384 10
13.3978 -12.1484 2.86445 0.000321287 10
13.4035 -12.1536 3.51695 0.000312582 10
13.4084 -12.158 4.17865 0.000302379 10
13.4107 -12.1601 4.85065 0.000290804 10
7.00504 -6.30737 -2.52575 0.000376073 4
8.12258 -7.3136 -2.52339 0.000259262 4
10.3645 -9.33227 -2.71099 0.000116699 1
12.6992 -11.4344 -2.70655 5.04784e-05 1
13.8909 -12.5074 -2.2951 0.000374306 10
13.8849 -12.502 -1.63464 0.000380536 10
13.9489 -12.5596 -0.983699 0.000275676 10
13.9334 -12.5457 -0.32727 0.00027729 10
13.9381 -12.5499 0.32738 0.000277389 10
13.9455 -12.5566 0.983461 0.000275972 10
13.4999 -12.1554 1.58931 0.000328165 10
13.4991 -12.1546 2.23036 0.000322847 10
13.4925 -12.1487 2.87562 0.00031586 10
13.495 -12.151 3.52982 0.000307292 10
13.4873 -12.144 4.19002 0.000297249 10
13.5035 -12.1586 4.86885 0.000285857 10
7.03651 -6.29136 -2.52916 0.0003732 4
8.15591 -7.29222 -2.52582 0.000155906 4
10.3884 -9.28835 -2.70875 0.000116709 1
12.7354 -11.3867 -2.70577 5.04838e-05 1
13.9909 -12.5093 -2.30439 0.000367882 10
13.9983 -12.5159 -1.64283 0.000374013 10
13.986 -12.5049 -0.983229 0.000249774 10
13.9987 -12.5163 -0.327775 0.000251149 10
13.9906 -12.5091 0.327586 0.00025115 10
13.9946 -12.5126 0.983835 0.000249779 10
13.5994 -12.1593 1.59602 0.000322593 10
13.5902 -12.151 2.23839 0.000317359 10
13.6004 -12.1601 2.88954 0.000310482 10
13.5964 -12.1566 3.54521 0.00030205 10
13.585 -12.1464 4.20718 0.000292166 10
13.5957 -12.156 4.88676 0.000280954 10
7.05043 -6.25966 -2.52629 0.000384793 4
8.17577 -7.25879 -2.52411 0.000218622 4
10.4186 -9.25004 -2.70817 0.000116718 1
12.783 -11.3493 -2.70745 5.04891e-05 1
14.0821 -12.5026 -2.3122 0.000361516 10
14.0993 -12.518 -1.64955 0.000367549 10
14.2128 -12.6187 -0.996072 0.000265093 10
14.2176 -12.6229 -0.331866 0.00026665 10
14.2161 -12.6217 0.331832 0.000266745 10
14.2115 -12.6176 0.995983 0.000265376 10
13.6799 -12.1456 1.60048 0.00031707 10
13.6782 -12.144 2.24588 0.000311919 10
13.6828 -12.1482 2.89803 0.000305152 10
13.6774 -12.1433 3.55525 0.000296854 10
13.6763 -12.1424 4.22228 0.000287128 10
13.6921 -12.1564 4.90612 0.000276095 10
7.07257 -6.23531 -2.52641 0.000367454 4
8.21218 -7.24001 -2.52753 0.000189823 4
10.4549 -9.21723 -2.70923 0.000116728 1
12.8141 -11.2972 -2.70568 5.04945e-05 1
14.1782 -12.4997 -2.3208 0.000355209 10
14.1856 -12.5063 -1.65452 0.000361144 10
14.2158 -12.5329 -0.993213 0.000268858 10
14.2193 -12.536 -0.330884 0.000270436 10
14.2069 -12.5251 0.330595 0.000270532 10
14.1959 -12.5154 0.99182 0.000269144 10
13.7902 -12.1577 1.6084 0.000311597 10
13.7732 -12.1427 2.25451 0.000306529 10
13.7723 -12.142 2.908 0.00029987 10
13.7864 -12.1544 3.57255 0.000291705 10
13.7914 -12.1588 4.2447 0.000282136 10
13.7884 -12.1561 4.92539 0.000271281 10
7.10097 -6.21643 -2.52879 0.000416663 4
8.23808 -7.2119 -2.52774 0.000240684 4
10.4892 -9.18262 -2.70981 0.000116737 1
12.8508 -11.25 -2.7051 5.04998e-05 1
14.2924 -12.5121 -2.33235 0.00034896 10
14.2974 -12.5164 -1.66246 0.000354798 10
14.285 -12.5055 -0.994988 0.000236952 10
14.281 -12.502 -0.3313 0.000238261 10
14.2872 -12.5075 0.331445 0.000238262 10
14.2785 -12.4998 0.994534 0.000236957 10
13.8865 -12.1567 1.61468 0.000306174 10
13.8851 -12.1555 2.26587 0.000301187 10
13.8884 -12.1584 2.92353 0.000294636 10
13.8839 -12.1544 3.58679 0.000286603 10
13.8725 -12.1444 4.25658 0.000277189 10
13.8812 -12.152 4.94335 0.000266512 10
7.11827 -6.18782 -2.52724 0.000462984 4
8.24418 -7.16655 -2.52192 0.00024748 4
10.5304 -9.15397 -2.71218 0.000116747 1
12.8902 -11.2053 -2.70516 5.05051e-05 1
14.3988 -12.5167 -2.34255 0.000342769 10
14.3947 -12.5131 -1.66869 0.000348512 10
14.4792 -12.5866 -1.00545 0.000258665 10
14.4858 -12.5923 -0.33503 0.000260189 10
14.4818 -12.5889 0.334938 0.000260281 10
14.4711 -12.5795 1.00489 0.00025894 10
13.9691 -12.1432 1.61935 0.000300801 10
13.9815 -12.1539 2.27467 0.000295896 10
13.985 -12.157 2.93491 0.000289452 10
13.9725 -12.1461 3.59871 0.00028155 10
13.9757 -12.1489 4.27523 0.00027229 10
13.9769 -12.1499 4.96229 0.000261787 10
7.13036 -6.15476 -2.52389 0.000358831 4
8.27751 -7.14496 -2.52447 0.000220373 4
10.545 -9.1022 -2.70773 0.000116756 1
12.9331 -11.1636 -2.70597 5.05103e-05 1
14.4968 -12.5133 -2.35138 0.000336639 10
14.4871 -12.5049 -1.67432 0.000342286 10
14.4899 -12.5074 -1.00316 0.000228603 10
14.4895 -12.507 -0.334104 0.000229869 10
14.4883 -12.506 0.334077 0.00022987 10
14.4802 -12.499 1.00248 0.000228607 10
14.0812 -12.1545 1.62741 0.000295479 10
14.0681 -12.1432 2.28184 0.000290654 10
14.0652 -12.1408 2.94284 0.000284316 10
14.0721 -12.1467 3.61342 0.000276544 10
14.0686 -12.1437 4.29064 0.000267437 10
14.0801 -12.1536 4.98385 0.000257108 10
7.15957 -6.1365 -2.52664 0.000329911 4
8.29391 -7.10874 -2.52189 0.000206824 4
10.5869 -9.07404 -2.71033 0.000116765 1
12.9791 -11.1244 -2.70745 5.05155e-05 1
14.6019 -12.5154 -2.36133 0.000330567 10
14.5908 -12.5058 -1.68125 0.00033612 10
14.7565 -12.6479 -1.01855 0.000249009 10
14.7554 -12.6469 -0.339216 0.000250482 10
14.7374 -12.6314 0.3388 0.00025057 10
14.7375 -12.6316 1.01724 0.000249273 10
14.1841 -12.1573 1.6344 0.000290208 10
14.1817 -12.1551 2.29337 0.000285462 10
14.1758 -12.1502 2.95709 0.000279229 10
14.1722 -12.147 3.6282 0.000271586 10
14.1635 -12.1396 4.30663 0.00026263 10
14.1742 -12.1488 5.00212 0.000252473 10
7.18919 -6.11848 -2.52953 0.000344399 4
8.32947 -7.08894 -2.52517 0.00017293 4
10.6205 -9.03879 -2.71086 0.000116775 1
13.0117 -11.0738 -2.70616 5.05208e-05 1
14.6876 -12.5002 -2.36812 0.000324555 10
14.6976 -12.5086 -1.68852 0.000330015 10
14.76 -12.5617 -1.01576 0.000252449 10
14.7425 -12.5468 -0.33791 0.00025394 10
14.7509 -12.554 0.338102 0.000254029 10
14.741 -12.5456 1.01445 0.000252715 10
14.2778 -12.1514 1.6403 0.000284987 10
14.2709 -12.1455 2.30094 0.00028032 10
14.2786 -12.1521 2.96966 0.000274191 10
14.2637 -12.1394 3.64077 0.000266676 10
14.2698 -12.1446 4.32604 0.000257871 10
14.2654 -12.1408 5.0193 0.000247884 10
7.19654 -6.08155 -2.52464 0.000347311 4
8.3536 -7.05934 -2.525 0.00022211 4
10.6547 -9.00389 -2.71153 0.000116784 1
13.0416 -11.021 -2.70438 5.05259e-05 1
14.799 -12.5061 -2.37902 0.000318602 10
14.7988 -12.506 -1.69513 0.000323969 10
14.8085 -12.5142 -1.01609 0.00021638 10
14.8003 -12.5073 -0.338233 0.000217583 10
14.7995 -12.5065 0.338213 0.000217584 10
14.7996 -12.5066 1.01547 0.000216384 10
14.3815 -12.1533 1.64733 0.000279817 10
14.3761 -12.1487 2.31104 0.000275229 10
14.3836 -12.1551 2.98266 0.000269203 10
14.3707 -12.1442 3.65722 0.000261815 10
14.3729 -12.1461 4.34442 0.000253158 10
14.3641 -12.1386 5.03911 0.000243341 10
7.21743 -6.05614 -2.52453 0.00036759 4
8.36724 -7.02095 -2.5217 0.000171256 4
10.6715 -8.95447 -2.70785 0.000116793 1
13.0951 -10.9881 -2.70749 5.05311e-05 1
14.8959 -12.4992 -2.38757 0.00031271 10
14.9061 -12.5077 -1.70241 0.000317985 10
15.0307 -12.6123 -1.02831 0.000243132 10
15.0167 -12.6005 -0.342169 0.000244574 10
15.021 -12.6041 0.342267 0.00024466 10
15.008 -12.5932 1.02675 0.000243388 10
14.4721 -12.1435 1.65283 0.000274698 10
14.4703 -12.142 2.31935 0.000270188 10
14.4862 -12.1554 2.99511 0.000264264 10
14.4731 -12.1444 3.67248 0.000257002 10
14.4669 -12.1392 4.35999 0.000248492 10
14.4825 -12.1523 5.06574 0.000238843 10
7.23307 -6.02637 -2.52263 0.000413923 4
8.39746 -6.9965 -2.52343 6.10455e-05 4
10.706 -8.91991 -2.70869 0.000116802 1
13.12 -10.9312 -2.70474 5.05363e-05 1
15.0123 -12.5077 -2.39921 0.000306877 10
15.0073 -12.5036 -1.70897 0.000312062 10
15.0251 -12.5184 -1.02492 0.00024643 10
15.0266 -12.5197 -0.341398 0.00024789 10
15.0079 -12.5041 0.340972 0.000247977 10
15.0221 -12.5159 1.02472 0.000246689 10
14.5803 -12.1478 1.66034 0.000269631 10
14.5699 -12.1392 2.32851 0.000265198 10
14.584 -12.1509 3.00654 0.000259376 10
14.5718 -12.1408 3.68675 0.000252238 10
14.5799 -12.1475 4.38124 0.000243875 10
14.5791 -12.1469 5.08467 0.000234392 10
7.25434 -6.00131 -2.52273 0.000231577 4
8.43569 -6.97861 -2.52758 0.000103445 4
10.7321 -8.87836 -2.70743 0.000116811 1
13.1567 -10.8842 -2.70445 5.05414e-05 1
15.1234 -12.5112 -2.40998 0.000301106 10
15.1157 -12.5048 -1.71633 0.0003062 10
15.2836 -12.6437 -1.03954 0.000234289 10
15.2818 -12.6422 -0.346191 0.000235683 10
15.2866 -12.6461 0.346299 0.000235766 10
15.2975 -12.6552 1.04048 0.000234535 10
14.6702 -12.1363 1.66574 0.000264615 10
14.6855 -12.1489 2.34019 0.000260259 10
14.6826 -12.1465 3.01811 0.000254537 10
14.6793 -12.1438 3.70321 0.000247522 10
14.6749 -12.1401 4.39703 0.000239304 10
14.692 -12.1543 5.1092 0.000229986 10
7.27767 -5.97795 -2.52357 0.000344489 4
8.45665 -6.94637 -2.52658 0.000222165 4
10.7621 -8.84009 -2.7072 0.00011682 1
13.2079 -10.8491 -2.70717 5.05465e-05 1
15.2294 -12.5096 -2.4199 0.000295394 10
15.2128 -12.4959 -1.72239 0.000300399 10
15.2877 -12.5575 -1.03683 0.000237435 10
15.2819 -12.5527 -0.345198 0.000238846 10
15.2959 -12.5642 0.345514 0.00023893 10
15.2951 -12.5635 1.03733 0.000237683 10
14.7772 -12.1381 1.67307 0.000259651 10
14.7756 -12.1368 2.34779 0.00025537 10
14.7909 -12.1494 3.03165 0.000249748 10
14.7798 -12.1403 3.71784 0.000242856 10
14.7754 -12.1367 4.41443 0.000234781 10
14.776 -12.1371 5.12364 0.000225626 10
7.31194 -5.96348 -2.52822 0.000451622 4
8.47568 -6.91259 -2.52504 0.000254403 4
10.7993 -8.80769 -2.7088 0.00011683 1
13.2383 -10.7969 -2.70566 5.05516e-05 1
15.3321 -12.5045 -2.42926 0.000289744 10
15.3175 -12.4926 -1.72929 0.00029466 10
15.3287 -12.5018 -1.03665 0.00019682 10
15.3174 -12.4925 -0.345012 0.000197922 10
15.3388 -12.51 0.345495 0.000197923 10
15.3359 -12.5077 1.03714 0.000196823 10
14.8982 -12.1507 1.68196 0.000254738 10
14.8902 -12.1442 2.35925 0.000250533 10
14.8906 -12.1445 3.04337 0.00024501 10
14.8984 -12.1509 3.73699 0.000238238 10
14.8933 -12.1467 4.43695 0.000230306 10
14.882 -12.1374 5.14567 0.000221313 10
7.34062 -5.94432 -2.53094 0.00102029 4
8.50723 -6.88902 -2.52726 0.000200143 4
10.8294 -8.76951 -2.70867 0.000116839 1
13.2756 -10.7504 -2.70561 5.05566e-05 1
15.4343 -12.4985 -2.43853 0.000284154 10
15.4436 -12.506 -1.73859 0.000288983 10
15.7429 -12.7484 -1.06164 0.000332379 10
15.7306 -12.7384 -0.353317 0.000334371 10
15.7372 -12.7437 0.353464 0.000334487 10
15.7452 -12.7502 1.0618 0.000332728 10
15.003 -12.1492 1.68899 0.000249879 10
14.9982 -12.1453 2.36963 0.000245748 10
14.9967 -12.1441 3.05636 0.000240322 10
14.9901 -12.1388 3.74935 0.000233671 10
14.9975 -12.1448 4.45534 0.000225879 10
14.9956 -12.1432 5.17028 0.000217046 10
7.38896 -5.94088 -2.54045 0.00105042 4
8.5211 -6.85114 -2.52426 0.000212029 4
10.8569 -8.72916 -2.70789 0.000116848 1
13.3083 -10.7002 -2.70464 5.05617e-05 1
15.5551 -12.5066 -2.4507 0.000278625 10
15.5458 -12.4992 -1.74518 0.000283367 10
15.7329 -12.6495 -1.05798 0.000336779 10
15.7368 -12.6527 -0.352462 0.000338795 10
15.7417 -12.6567 0.352571 0.000338912 10
15.742 -12.6569 1.0586 0.000337131 10
15.5498 -12.5023 1.74562 0.000220952 10
15.634 -12.5701 2.46314 0.000166693 10
15.6363 -12.5719 3.17775 0.00016302 10
15.151 -12.1817 3.77892 6.94165e-05 10
15.5471 -12.5002 4.6056 0.000199498 10
15.553 -12.5049 5.34737 0.000191607 10
7.439 -5.93848 -2.55051 0.00102309 4
8.54316 -6.81991 -2.52373 0.000206953 4
10.899 -8.70059 -2.71082 0.000116856 1
13.347 -10.6547 -2.70492 5.05667e-05 1
15.6583 -12.4999 -2.46008 0.000273158 10
15.6551 -12.4973 -1.75254 0.000277813 10
15.7427 -12.5673 -1.05569 0.000341201 10
15.7397 -12.5649 -0.351543 0.00034324 10
15.727 -12.5547 0.351259 0.000343359 10
15.7305 -12.5575 1.05487 0.000341556 10
15.6623 -12.5031 1.75334 0.000216621 10
15.7035 -12.536 2.46718 0.000166554 10
15.7005 -12.5335 3.18189 0.000162882 10
15.2016 -12.1353 3.78095 0.000224683 10
15.6685 -12.508 4.62863 0.000195557 10
15.6514 -12.4944 5.3662 0.000187811 10
7.48299 -5.93094 -2.55848 0.00118429 4
8.56859 -6.79138 -2.52422 0.000196787 4
10.921 -8.65588 -2.70875 0.000116865 1
13.3941 -10.616 -2.70695 5.05717e-05 1
15.7713 -12.5002 -2.47096 0.000267751 10
15.7676 -12.4973 -1.76024 0.000272322 10
15.7595 -12.4908 -1.05388 0.000275403 10
15.7772 -12.5049 -0.351403 0.000276955 10
15.7647 -12.4949 0.351124 0.000276956 10
15.7592 -12.4906 1.05386 0.000275408 10
15.7644 -12.4947 1.75988 0.000212339 10
15.7229 -12.4618 2.46337 0.000262479 10
15.7241 -12.4627 3.17783 0.000256694 10
15.3256 -12.1469 3.80121 0.000220263 10
15.7768 -12.5046 4.6477 0.000191662 10
15.7712 -12.5001 5.39227 0.000184058 10
7.52994 -5.92548 -2.56744 0.00103163 4
8.58485 -6.75561 -2.52205 0.000196798 4
10.9598 -8.62455 -2.7109 0.000116874 1
13.4305 -10.5688 -2.70684 5.05767e-05 1
15.8814 -12.4974 -2.48135 0.000262406 10
15.8709 -12.4891 -1.76689 0.000266892 10
15.8876 -12.5023 -1.05953 0.000269917 10
15.8908 -12.5048 -0.352958 0.00027144 10
15.8711 -12.4894 0.352522 0.000271441 10
15.8795 -12.496 1.05899 0.000269922 10
15.8838 -12.4994 1.76833 0.000208106 10
15.7329 -12.3805 2.45815 0.000265875 10
15.7204 -12.3707 3.16834 0.00026002 10
15.4239 -12.1374 3.81507 0.000215893 10
15.875 -12.4924 4.66375 0.000187811 10
15.8837 -12.4992 5.41576 0.000180349 10
7.5684 -5.91309 -2.5735 0.000651766 4
8.60354 -6.72182 -2.52063 0.00022226 4
10.9816 -8.57973 -2.70884 0.000116883 1
13.4532 -10.5108 -2.70399 5.05817e-05 1
16.0051 -12.5046 -2.49385 0.000257122 10
15.9889 -12.4919 -1.77516 0.000261525 10
16.0032 -12.5031 -1.06431 0.000264493 10
15.9952 -12.4968 -0.354307 0.000265988 10
15.9916 -12.494 0.354225 0.000265989 10
15.9919 -12.4943 1.06357 0.000264498 10
15.9853 -12.4891 1.77476 0.000203921 10
15.7384 -12.2962 2.45229 0.000269286 10
15.7311 -12.2905 3.16183 0.000263362 10
15.5408 -12.1418 3.83348 0.000211573 10
15.9879 -12.4911 4.68406 0.000184005 10
16.0032 -12.5031 5.4416 0.000176683 10
7.62089 -5.91137 -2.58432 0.00088459 4
8.63945 -6.70144 -2.52428 0.000217183 4
11.0031 -8.53486 -2.70679 0.000116892 1
13.5054 -10.4758 -2.70711 5.05866e-05 1
16.1131 -12.4986 -2.50386 0.0002519 10
16.1059 -12.493 -1.7833 0.00025622 10
16.1136 -12.499 1.78415 0.000199784 10
15.7272 -12.1993 2.4439 0.000272714 10
15.7296 -12.2012 3.15297 0.00026672 10
15.6588 -12.1462 3.85211 0.000207302 10
16.1196 -12.5036 4.70983 0.000180243 10
16.1125 -12.4981 5.46389 0.000173059 10
7.65476 -5.89496 -2.58881 0.000681262 4
8.65692 -6.66673 -2.52257 0.000210408 4
11.0329 -8.49646 -2.70681 0.000116901 1
13.5234 -10.4144 -2.70343 5.05915e-05 1
16.2237 -12.4939 -2.51426 0.000246739 10
16.2304 -12.4991 -1.79225 0.000250977 10
16.2168 -12.4886 1.79074 0.000195696 10
15.7555 -12.1333 2.44169 0.000213691 10
15.7616 -12.1381 3.15086 0.000208924 10
15.7738 -12.1474 3.86994 0.000203082 10
16.2286 -12.4977 4.72891 0.000176526 10
16.2334 -12.5014 5.49006 0.00016948 10
7.70581 -5.89154 -2.5991 0.000939959 4
8.69112 -6.64487 -2.52576 0.000220603 4
11.0653 -8.46007 -2.7075 0.000116909 1
13.5752 -10.379 -2.70653 5.05964e-05 1
16.3469 -12.4981 -2.52657 0.00024164 10
16.3362 -12.4899 -1.7991 0.000245797 10
16.3427 -12.495 1.79982 0.000191657 10
16.3499 -12.5004 2.52703 0.000188418 10
16.339 -12.4921 3.25754 0.000184165 10
16.3334 -12.4878 3.99652 0.000178955 10
16.3537 -12.5033 4.75261 0.000172855 10
16.3483 -12.4992 5.51414 0.000165944 10
7.76355 -5.89286 -2.61162 0.000863138 4
8.70857 -6.61016 -2.52411 0.000264739 4
11.1065 -8.43028 -2.71036 0.000116918 1
13.6018 -10.3243 -2.70462 5.06013e-05 1
16.4575 -12.4919 -2.53691 0.000236602 10
16.4656 -12.498 -1.80853 0.00024068 10
16.4585 -12.4927 1.08289 0.000189808 10
16.464 -12.4969 1.80836 0.000187667 10
16.4554 -12.4903 2.53659 0.00018449 10
16.4711 -12.5023 3.27516 0.000180319 10
16.4697 -12.5012 4.01916 0.000175209 10
16.4511 -12.487 4.76821 0.000169227 10
16.46 -12.4938 5.53707 0.000162451 10
7.79585 -5.8746 -2.61558 0.000927935 4
8.73479 -6.58214 -2.52504 0.0002376 4
11.1299 -8.38699 -2.70891 0.000116927 1
13.6403 -10.2787 -2.70514 5.06061e-05 1
16.59 -12.5014 -2.55059 0.000231627 10
16.5732 -12.4888 -1.81555 0.000235625 10
16.5809 -12.4946 1.08807 0.000185825 10
16.5805 -12.4943 1.81635 0.000183725 10
16.5816 -12.4952 2.54931 0.00018061 10
16.5886 -12.5004 3.28983 0.000176521 10
16.5709 -12.487 4.03319 0.00017151 10
16.5686 -12.4853 4.78961 0.000165645 10
16.5696 -12.4861 5.55926 0.000159001 10
7.84529 -5.86903 -2.62528 0.000752479 4
8.74252 -6.54024 -2.52066 0.000241008 4
11.1497 -8.34106 -2.70664 0.000116935 1
13.6685 -10.2253 -2.70362 5.06109e-05 1
16.7091 -12.5 -2.56218 0.000226712 10
16.7046 -12.4967 -1.82516 0.000230632 10
16.6919 -12.4871 1.09248 0.000181891 10
16.7114 -12.5017 1.8259 0.000179832 10
16.697 -12.491 2.56033 0.000176778 10
16.6956 -12.4899 3.30239 0.000172769 10
16.698 -12.4917 4.0535 0.000167857 10
16.6938 -12.4885 4.81318 0.000162108 10
