VERSION 0.7
FIELDS x y z intensity label
SIZE 4 4 4 4 4
TYPE F F F F F
COUNT 1 1 1 1 1
WIDTH 1174
HEIGHT 1
VIEWPOINT 5.06593 3.93127 2.72898 0.72902 0.000396108 0.000455808 -0.684492
POINTS 1174
DATA ascii
8.25601 -12.5209 -1.31214 0.000620847 10
8.26491 -12.5344 -0.78685 0.000627228 10
8.25916 -12.5257 -0.261888 0.000630431 10
8.25681 -12.5221 0.261813 0.000630417 10
8.25798 -12.5239 0.78619 0.000627186 10
8.25315 -12.5166 1.31168 0.000553509 10
8.25524 -12.5197 1.84133 0.000545204 10
8.3037 -12.5932 2.38914 0.00044403 10
8.31011 -12.603 2.93439 0.000432634 10
8.30765 -12.5992 3.48418 0.000419262 10
7.93095 -12.0279 3.86043 0.000554626 10
5.62368 -8.46432 -2.72296 0.00038575 1
6.51904 -9.81195 -2.71967 0.000223601 1
7.75045 -11.6654 -2.72237 0.000115101 1
8.2597 -12.4318 -2.36398 0.000696738 10
8.25883 -12.4305 -1.83244 0.00071146 10
8.32746 -12.5338 -1.31653 0.000613998 10
8.32014 -12.5228 -0.787942 0.000620313 10
8.32435 -12.5292 -0.262566 0.000623483 10
8.32729 -12.5336 0.262659 0.000623468 10
8.3286 -12.5356 0.788743 0.000620271 10
8.26609 -12.4415 1.30683 0.000564329 10
8.26811 -12.4445 1.8345 0.000555871 10
8.33512 -12.5454 2.38557 0.000446221 10
8.32998 -12.5376 2.92593 0.000330919 10
8.32313 -12.5273 3.47231 0.000421347 10
7.93287 -11.9399 3.84105 0.000565431 10
5.64425 -8.43128 -2.71865 0.00038577 1
6.55419 -9.79054 -2.72006 0.000223615 1
7.78717 -11.6323 -2.72099 0.00011511 1
8.2791 -12.3672 -2.35717 0.000710281 10
8.27197 -12.3565 -1.82577 0.000725268 10
8.38898 -12.5313 -1.31934 0.000607169 10
8.4012 -12.5496 -0.791465 0.000613419 10
8.39907 -12.5464 -0.26354 0.000616556 10
8.39481 -12.54 0.263406 0.000616542 10
8.39991 -12.5476 0.791343 0.000613378 10
8.27648 -12.3633 1.30164 0.000575264 10
8.27085 -12.3549 1.82553 0.000566653 10
7.94577 -11.8693 2.26226 0.000631799 10
7.94063 -11.8616 2.77461 0.000616031 10
7.9353 -11.8536 3.29323 0.000597478 10
7.93311 -11.8503 3.82112 0.000576352 10
5.68581 -8.42956 -2.72448 0.00038579 1
6.59099 -9.77155 -2.72115 0.000223629 1
7.82467 -11.6006 -2.71992 0.000115119 1
8.28519 -12.2833 -2.34668 0.000723969 10
8.28317 -12.2803 -1.81877 0.000739225 10
8.27197 -12.2637 -1.29419 0.000495977 10
8.28365 -12.281 -0.776347 0.00050121 10
8.28179 -12.2783 -0.258514 0.000503915 10
8.28249 -12.2793 0.258536 0.00050406 10
8.27334 -12.2657 0.775381 0.000501643 10
8.27562 -12.2691 1.29476 0.000586317 10
8.27101 -12.2623 1.8161 0.00057755 10
7.94165 -11.774 2.24937 0.000643826 10
7.94584 -11.7802 2.76204 0.000627777 10
7.9427 -11.7755 3.27922 0.000608893 10
7.93332 -11.7616 3.80142 0.000587389 10
5.70187 -8.39006 -2.71813 0.00038581 1
6.61998 -9.741 -2.71907 0.000223643 1
7.86798 -11.5774 -2.72091 0.000115127 1
8.27538 -12.1769 -2.33185 0.000737803 10
8.28205 -12.1867 -1.80918 0.000753329 10
8.32925 -12.2561 -1.29645 0.000638456 10
8.32918 -12.256 -0.7766 0.000644995 10
8.3377 -12.2686 -0.258921 0.000648277 10
8.33244 -12.2608 0.258757 0.000648262 10
8.34271 -12.2759 0.777861 0.000644951 10
8.27414 -12.175 1.28788 0.000597485 10
8.27229 -12.1723 1.80705 0.000588563 10
7.99942 -11.7708 2.25409 0.000830054 10
7.98794 -11.7539 2.7624 0.000809099 10
7.99535 -11.7648 3.28398 0.000784498 10
8.00062 -11.7726 3.81395 0.000756535 10
5.73967 -8.38257 -2.72218 0.000385829 1
6.65165 -9.7145 -2.71813 0.000223656 1
7.90189 -11.5404 -2.71869 0.000115136 1
8.28337 -12.0976 -2.32218 0.00075178 10
8.28126 -12.0945 -1.79977 0.000767578 10
8.40481 -12.2749 -1.30154 0.000631231 10
8.39452 -12.2599 -0.778697 0.000637701 10
8.3924 -12.2568 -0.259289 0.000640948 10
8.39581 -12.2618 0.259395 0.000640934 10
8.40045 -12.2686 0.779248 0.000637658 10
8.29201 -12.1102 1.28407 0.000608769 10
8.28356 -12.0978 1.80027 0.000599689 10
8.06031 -11.7718 2.25965 0.000820747 10
8.05542 -11.7646 2.77152 0.000800012 10
8.05835 -11.7689 3.29297 0.000775669 10
8.05535 -11.7645 3.82044 0.000748 10
5.76174 -8.35212 -2.7188 0.000385849 1
6.69069 -9.69871 -2.72023 0.00022367 1
7.94298 -11.514 -2.71899 0.000115145 1
8.29742 -12.0278 -2.31434 0.0007659 10
8.28748 -12.0134 -1.792 0.000781974 10
14.3201 -20.7582 -2.20633 0.000144886 10
14.4082 -20.8858 -1.32977 7.44201e-05 10
14.4099 -20.8884 -0.44295 7.49026e-05 10
14.4106 -20.8894 0.44297 7.49281e-05 10
8.29646 -12.0264 1.27825 0.000620169 10
8.2892 -12.0159 1.79237 0.000610929 10
8.12811 -11.7824 2.26711 0.000811471 10
8.11322 -11.7608 2.77726 0.000790955 10
8.12327 -11.7753 3.30268 0.00076687 10
8.12176 -11.7732 3.83243 0.000739493 10
5.8055 -8.35303 -2.72568 0.000385868 1
6.72583 -9.67721 -2.72077 0.000223684 1
7.98007 -11.4818 -2.71795 0.000115153 1
8.29979 -11.9418 -2.30336 0.000780165 10
8.29464 -11.9344 -1.78453 0.000796516 10
14.4339 -20.7677 -2.21268 0.000142895 10
14.4253 -20.7553 -1.32465 9.55466e-05 10
14.4259 -20.7561 -0.441211 9.613e-05 10
14.4355 -20.77 0.441505 9.61274e-05 10
8.29867 -11.9402 1.27216 0.000631684 10
8.29836 -11.9398 1.78533 0.000622283 10
8.17605 -11.7638 2.26902 0.000802228 10
8.1915 -11.786 2.78996 0.000781929 10
8.18947 -11.7831 3.31285 0.000758102 10
8.19025 -11.7842 3.84531 0.000731017 10
5.82913 -8.32485 -2.72311 0.000385888 1
6.75351 -9.64501 -2.71833 0.000223697 1
8.02064 -11.4547 -2.71813 0.000115162 1
8.29971 -11.8532 -2.29184 0.000794571 10
8.3013 -11.8555 -1.77705 0.000811203 10
8.31001 -11.8679 -1.26754 0.00082391 10
8.3052 -11.861 -0.758847 0.000832544 10
8.29865 -11.8517 -0.252544 0.000837004 10
8.30087 -11.8549 0.252612 0.000837238 10
8.29224 -11.8425 0.757663 0.000833243 10
8.30737 -11.8642 1.26714 0.000643313 10
8.308 -11.8651 1.77848 0.000633751 10
8.24411 -11.7738 2.27649 0.000793017 10
8.25248 -11.7858 2.7967 0.000772937 10
8.24078 -11.7691 3.31697 0.000749364 10
8.2499 -11.7821 3.85398 0.000722572 10
5.85324 -8.2975 -2.72083 0.000385907 1
6.7935 -9.6304 -2.72088 0.000223711 1
8.06137 -11.4277 -2.7184 0.000115171 1
8.30977 -11.7798 -2.28325 0.00080912 10
8.30311 -11.7704 -1.76863 0.000826035 10
8.31101 -11.7816 -1.26141 0.000838958 10
8.30253 -11.7696 -0.754845 0.000847738 10
8.30631 -11.7749 -0.251525 0.000852273 10
8.31087 -11.7814 0.251663 0.00085251 10
8.31094 -11.7815 0.755609 0.000848445 10
8.30568 -11.774 1.2606 0.000655057 10
8.31132 -11.7821 1.77038 0.000645331 10
8.30372 -11.7713 2.28159 0.000632477 10
8.30085 -11.7672 2.79915 0.000616645 10
8.29946 -11.7652 3.32403 0.000598019 10
8.30449 -11.7724 3.86027 0.000576813 10
5.88036 -8.27447 -2.71999 0.000385927 1
6.82382 -9.60204 -2.71958 0.000223724 1
8.10454 -11.4042 -2.71951 0.000115179 1
8.31432 -11.6994 -2.27326 0.000823811 10
8.31257 -11.6969 -1.76193 0.000841011 10
8.30585 -11.6875 -1.25443 0.000854151 10
8.31535 -11.7008 -0.752293 0.000863079 10
8.31348 -11.6982 -0.250504 0.000867689 10
8.30472 -11.6859 0.25024 0.000867929 10
8.30264 -11.6829 0.751143 0.000863795 10
8.30983 -11.6931 1.25503 0.000666916 10
8.30746 -11.6897 1.76085 0.000657025 10
8.30534 -11.6867 2.27081 0.000643952 10
8.30333 -11.6839 2.78622 0.000627851 10
8.30878 -11.6916 3.3114 0.000608909 10
8.31373 -11.6986 3.84556 0.000587341 10
5.9198 -8.26869 -2.72486 0.000385946 1
6.85554 -9.57572 -2.71889 0.000223738 1
8.14283 -11.3738 -2.71902 0.000115188 1
8.31178 -11.6098 -2.26148 0.000838643 10
8.31089 -11.6085 -1.75298 0.000856131 10
8.32482 -11.628 -1.25116 0.00086949 10
8.32487 -11.6281 -0.749477 0.000878566 10
8.3242 -11.6271 -0.249603 0.000883252 10
8.30956 -11.6067 0.249164 0.000883495 10
8.3071 -11.6032 0.747877 0.000879291 10
8.31195 -11.61 1.24922 0.000678887 10
8.31144 -11.6093 1.7531 0.000668829 10
8.31108 -11.6088 2.26128 0.000655537 10
8.31942 -11.6205 2.77799 0.000639165 10
8.31336 -11.612 3.29705 0.000619903 10
8.3054 -11.6009 3.82295 0.000597971 10
5.93795 -8.23317 -2.71997 0.000385966 1
6.8987 -9.56529 -2.72275 0.000223751 1
8.1821 -11.3448 -2.7189 0.000115196 1
8.33239 -11.5532 -2.2561 0.000853617 10
8.32069 -11.5369 -1.74654 0.000871394 10
8.32006 -11.536 -1.24438 0.0010765 10
8.31905 -11.5347 -0.745325 0.00108739 10
8.32822 -11.5474 -0.248513 0.00109286 10
8.33005 -11.5499 0.248568 0.00109284 10
8.333 -11.554 0.746574 0.00108732 10
8.31985 -11.5358 1.24435 0.000690972 10
8.32539 -11.5434 1.74753 0.000680746 10
8.3226 -11.5396 2.25345 0.000667232 10
8.32443 -11.5421 2.76619 0.000650587 10
8.31061 -11.523 3.27999 0.000631003 10
8.3123 -11.5253 3.80758 0.000608704 10
5.9647 -8.20971 -2.71908 0.000385985 1
6.92667 -9.53375 -2.72064 0.000223765 1
8.22754 -11.3242 -2.72085 0.000115205 1
8.33685 -11.4747 -2.24645 0.000868731 10
8.32731 -11.4616 -1.73952 0.000886801 10
8.38772 -11.5447 -1.24847 0.00106375 10
8.38473 -11.5406 -0.747595 0.00107452 10
8.38986 -11.5477 -0.249148 0.00107993 10
8.38209 -11.537 0.248917 0.00107991 10
8.39016 -11.5481 0.748079 0.00107445 10
8.31848 -11.4494 1.23816 0.00070317 10
8.32266 -11.4552 1.73855 0.000692775 10
8.32557 -11.4592 2.24341 0.000679037 10
8.3263 -11.4602 2.7535 0.000662116 10
8.32569 -11.4593 3.27013 0.000642207 10
8.31962 -11.451 3.7926 0.000619538 10
6.0007 -8.19892 -2.72243 0.000386005 1
6.9663 -9.51824 -2.72313 0.000223778 1
8.25344 -11.2769 -2.71638 0.000115214 1
8.34244 -11.3985 -2.23722 0.000883984 10
8.32986 -11.3813 -1.73175 0.000902349 10
8.45509 -11.5524 -1.25248 0.00105105 10
8.45623 -11.554 -0.750369 0.00106171 10
8.44722 -11.5417 -0.249654 0.00106706 10
8.44839 -11.5433 0.249688 0.00106703 10
8.4618 -11.5616 0.750863 0.00106163 10
8.33852 -11.3931 1.23522 0.00071548 10
8.32953 -11.3809 1.73168 0.000704914 10
8.33606 -11.3898 2.23551 0.00069095 10
8.32282 -11.3717 2.73921 0.000673752 10
8.33486 -11.3882 3.25811 0.000653516 10
8.33543 -11.3889 3.78166 0.000630473 10
6.0253 -8.17252 -2.72063 0.000386024 1
6.99051 -9.4817 -2.71964 0.000223791 1
8.30546 -11.2653 -2.72054 0.000115222 1
8.34615 -11.3204 -2.2276 0.000899378 10
8.34018 -11.3123 -1.72567 0.00091804 10
8.52687 -11.5656 -1.25713 0.0010384 10
8.52543 -11.5636 -0.752924 0.00104894 10
8.51449 -11.5488 -0.250449 0.00105423 10
8.52624 -11.5647 0.250794 0.00105421 10
8.51606 -11.5509 0.752096 0.00104887 10
8.34192 -11.3147 1.22986 0.000727902 10
8.33439 -11.3045 1.72447 0.000717164 10
8.33381 -11.3037 2.22431 0.000702974 10
8.32484 -11.2915 2.72688 0.000685494 10
8.32499 -11.2917 3.23882 0.000664928 10
8.32694 -11.2944 3.7599 0.000641509 10
6.05349 -8.15104 -2.7205 0.000386043 1
7.02174 -9.45479 -2.71894 0.000223805 1
8.33356 -11.2212 -2.7169 0.000115231 1
8.3484 -11.2411 -2.21772 0.000914909 10
8.34531 -11.237 -1.7186 0.00093387 10
8.58784 -11.5635 -1.26016 0.00102581 10
8.58144 -11.5549 -0.754303 0.00103623 10
8.58652 -11.5618 -0.251379 0.00104146 10
8.58389 -11.5582 0.251302 0.00104144 10
8.58493 -11.5596 0.75461 0.00103616 10
8.34122 -11.2315 1.22397 0.000740436 10
8.33676 -11.2255 1.71684 0.000729524 10
8.33211 -11.2192 2.21339 0.000715104 10
8.3438 -11.2349 2.72023 0.000697343 10
8.33929 -11.2289 3.22911 0.000676444 10
8.34309 -11.234 3.74946 0.000652645 10
6.08914 -8.13952 -2.72373 0.000386062 1
7.05392 -9.42917 -2.71863 0.000223818 1
8.34618 -11.1566 -2.70829 0.000906986 10
8.34377 -11.1534 -2.20613 0.000930579 10
8.348 -11.159 -1.71113 0.000949842 10
8.65197 -11.5653 -1.26364 0.00101328 10
8.65703 -11.5721 -0.757392 0.00102358 10
8.65022 -11.563 -0.252061 0.00102875 10
8.65668 -11.5716 0.252249 0.00102872 10
8.65752 -11.5728 0.757435 0.00102351 10
8.34488 -11.1548 1.21879 0.000753079 10
8.33782 -11.1454 1.70904 0.000741993 10
8.34802 -11.159 2.20725 0.000727342 10
8.34604 -11.1564 2.70825 0.000709296 10
8.34845 -11.1596 3.21756 0.000688061 10
8.34109 -11.1498 3.73105 0.00066388 10
6.12099 -8.12282 -2.72528 0.000386081 1
7.0841 -9.40092 -2.7176 0.000223831 1
8.35348 -11.0854 -2.69809 0.00092242 10
8.35219 -11.0837 -2.19811 0.000946386 10
8.36108 -11.0955 -1.70586 0.000965953 10
8.71201 -11.5612 -1.26651 0.0010008 10
8.71192 -11.5611 -0.758659 0.00101098 10
8.71538 -11.5657 -0.252781 0.00101609 10
8.71089 -11.5597 0.252651 0.00101606 10
8.72467 -11.578 0.759769 0.00101091 10
8.35258 -11.0843 1.21425 0.000765834 10
8.34802 -11.0782 1.70319 0.000754571 10
8.35361 -11.0856 2.19849 0.000739688 10
8.34805 -11.0782 2.69634 0.000721354 10
8.34006 -11.0676 3.19941 0.000699782 10
8.34415 -11.0731 3.71511 0.000675215 10
6.14614 -8.09725 -2.72388 0.0003861 1
7.13237 -9.39656 -2.72352 0.000223844 1
8.36236 -11.017 -2.68852 0.000937985 10
8.35247 -11.004 -2.18806 0.000962328 10
8.36551 -11.0212 -1.6989 0.000982202 10
8.77587 -11.5618 -1.26992 0.000988373 10
8.79132 -11.5821 -0.762048 0.000998437 10
8.78159 -11.5693 -0.253529 0.00100349 10
8.79013 -11.5806 0.253775 0.00100346 10
8.77725 -11.5636 0.760829 0.000998367 10
8.35051 -11.0014 1.20836 0.000778697 10
8.35279 -11.0044 1.69632 0.000767257 10
8.34814 -10.9983 2.18693 0.000752139 10
8.35005 -11.0008 2.68457 0.000733516 10
8.35456 -11.0067 3.19022 0.000711603 10
8.35276 -11.0044 3.70182 0.000686648 10
6.16337 -8.06136 -2.71903 0.000386119 1
7.15992 -9.3648 -2.72154 0.000223858 1
8.37067 -10.9484 -2.67889 0.000953685 10
8.3549 -10.9278 -2.17869 0.000978407 10
8.36454 -10.9404 -1.69094 0.00099859 10
8.84613 -11.5703 -1.27423 0.000976007 10
8.85231 -11.5783 -0.763827 0.000985952 10
8.84517 -11.569 -0.254197 0.000990944 10
8.85935 -11.5876 0.254604 0.00099092 10
8.85714 -11.5847 0.764244 0.000985883 10
8.36194 -10.937 1.20449 0.00079167 10
8.36482 -10.9407 1.691 0.000780051 10
8.35073 -10.9223 2.17761 0.000764697 10
8.36184 -10.9368 2.67607 0.000745783 10
8.35743 -10.9311 3.17672 0.000723526 10
8.35796 -10.9318 3.68719 0.00069818 10
6.20292 -8.05466 -2.72405 0.000386138 1
7.19232 -9.33942 -2.72145 0.000223871 1
8.36224 -10.8586 -2.66405 0.000969518 10
8.36884 -10.8672 -2.17242 0.000994621 10
8.36417 -10.8611 -1.68319 0.00101511 10
12.7076 -16.5012 -1.82215 0.000253443 10
12.6999 -16.4912 -1.09084 0.000256421 10
12.6944 -16.4841 -0.363163 0.000257957 10
12.6915 -16.4802 0.363078 0.000258034 10
8.35992 -10.8556 1.19873 0.000804752 10
8.35695 -10.8517 1.68174 0.000792952 10
8.35693 -10.8517 2.16933 0.000777359 10
8.3654 -10.8627 2.66505 0.000758152 10
8.36552 -10.8629 3.16537 0.00073555 10
8.35982 -10.8555 3.67127 0.00070981 10
6.23309 -8.03565 -2.72497 0.000386157 1
7.22109 -9.30937 -2.72002 0.000223884 1
8.36773 -10.7876 -2.65378 0.000985482 10
8.36688 -10.7865 -2.16213 0.00101097 10
8.374 -10.7957 -1.67758 0.00103178 10
12.7117 -16.3879 -1.81452 0.00025818 10
12.7142 -16.3911 -1.08715 0.000261208 10
12.7022 -16.3756 -0.361748 0.000262771 10
12.7003 -16.3731 0.361692 0.000262848 10
8.37034 -10.791 1.19481 0.000817942 10
8.3735 -10.7951 1.67748 0.00080596 10
8.36393 -10.7827 2.16137 0.000790128 10
8.36636 -10.7859 2.65335 0.000770625 10
8.3729 -10.7943 3.15388 0.000747675 10
8.35592 -10.7724 3.65302 0.000721536 10
6.25228 -8.00255 -2.72113 0.000386176 1
7.25455 -9.2854 -2.7204 0.000223897 1
8.37733 -10.7225 -2.64494 0.00100158 10
8.38446 -10.7316 -2.15698 0.00102745 10
8.38388 -10.7309 -1.67204 0.00104857 10
12.7126 -16.2713 -1.80652 0.000262963 10
12.7044 -16.2609 -1.08145 0.000266043 10
12.7164 -16.2762 -0.360531 0.000267633 10
12.7086 -16.2663 0.360312 0.000267711 10
8.37201 -10.7157 1.18971 0.000831239 10
8.3674 -10.7098 1.66876 0.000819074 10
8.37395 -10.7182 2.15427 0.000803 10
8.36252 -10.7035 2.64026 0.000783199 10
8.36943 -10.7124 3.13847 0.000759898 10
8.37033 -10.7135 3.64295 0.00073336 10
6.2763 -7.97575 -2.71945 0.000386195 1
7.28082 -9.25228 -2.71812 0.00022391 1
8.38135 -10.6508 -2.63446 0.0010178 10
8.37919 -10.648 -2.14605 0.00104407 10
8.37429 -10.6418 -1.66271 0.00106551 10
12.7584 -16.213 -1.80498 0.000296452 10
12.7603 -16.2154 -1.08138 0.000299826 10
12.7603 -16.2155 -0.36017 0.000301521 10
12.7624 -16.2181 0.360229 0.000301513 10
8.37749 -10.6459 1.1852 0.000844642 10
8.37917 -10.648 1.66368 0.000832293 10
8.37205 -10.639 2.14422 0.000815976 10
8.36799 -10.6338 2.63026 0.000795875 10
8.37395 -10.6414 3.12622 0.00077222 10
8.37408 -10.6416 3.62839 0.000745279 10
6.31041 -7.96175 -2.72217 0.000386214 1
7.32543 -9.2424 -2.72272 0.000223923 1
8.39364 -10.5901 -2.62668 0.00103416 10
8.38785 -10.5828 -2.13879 0.00106081 10
8.38211 -10.5756 -1.65692 0.00108257 10
12.8455 -16.207 -1.80929 0.000292164 10
12.8524 -16.2157 -1.08439 0.000295493 10
12.8572 -16.2217 -0.361303 0.000297164 10
12.8628 -16.2288 0.361461 0.000297156 10
8.38532 -10.5796 1.18107 0.000858152 10
8.3716 -10.5623 1.65484 0.000845618 10
8.38075 -10.5739 2.13698 0.000829055 10
8.38319 -10.577 2.62341 0.000808652 10
8.3795 -10.5723 3.11449 0.000784641 10
8.38269 -10.5763 3.6161 0.000757293 10
6.33899 -7.94072 -2.72253 0.000386233 1
7.35037 -9.20766 -2.72002 0.000223936 1
8.3818 -10.4997 -2.61149 0.00105064 10
8.39312 -10.5139 -2.13076 0.00107769 10
8.38536 -10.5042 -1.65031 0.00109977 10
12.9565 -16.2304 -1.81694 0.000287903 10
12.9549 -16.2283 -1.08825 0.000291187 10
12.9477 -16.2193 -0.362254 0.000292836 10
12.9531 -16.2261 0.362406 0.000292828 10
8.38423 -10.5027 1.17575 0.000871766 10
8.39027 -10.5103 1.65127 0.000859045 10
8.38147 -10.4993 2.12781 0.000842236 10
8.37483 -10.491 2.60932 0.000821528 10
8.37718 -10.4939 3.1 0.00079716 10
8.37549 -10.4918 3.59718 0.000769403 10
6.36979 -7.92242 -2.72386 0.000386251 1
7.37712 -9.17529 -2.71805 0.000223949 1
8.39599 -10.4425 -2.60454 0.00106725 10
8.39681 -10.4435 -2.12243 0.0010947 10
8.40172 -10.4496 -1.64634 0.00111711 10
13.0501 -16.231 -1.8221 0.00028367 10
13.0394 -16.2177 -1.09059 0.000286909 10
13.0457 -16.2256 -0.363409 0.000288536 10
13.0434 -16.2227 0.363345 0.000288528 10
8.39887 -10.4461 1.17268 0.000885485 10
8.39256 -10.4382 1.64454 0.000872577 10
8.38071 -10.4235 2.11836 0.000855519 10
8.39562 -10.442 2.60443 0.000834505 10
8.39021 -10.4353 3.09132 0.000809775 10
8.39426 -10.4404 3.58956 0.000781608 10
6.38799 -7.88851 -2.71985 0.00038627 1
7.41727 -9.15956 -2.72105 0.000223962 1
8.38958 -10.3603 -2.59132 0.00108398 10
8.39697 -10.3694 -2.11331 0.00111184 10
8.39515 -10.3672 -1.63795 0.000206658 10
13.144 -16.2315 -1.82729 0.000279466 10
13.1421 -16.2291 -1.09443 0.000282661 10
13.1443 -16.2319 -0.364575 0.000284265 10
13.1431 -16.2304 0.364541 0.000284258 10
8.38671 -10.3567 1.16593 0.000899308 10
8.39141 -10.3625 1.63722 0.000886209 10
8.38642 -10.3564 2.11065 0.000868901 10
8.38459 -10.3541 2.58978 0.000847579 10
8.38601 -10.3559 3.07644 0.000822487 10
8.38841 -10.3588 3.57158 0.000793904 10
6.41912 -7.87063 -2.72139 0.000386288 1
7.43857 -9.12059 -2.71717 0.000223975 1
8.39696 -10.2957 -2.58248 0.00110085 10
8.39785 -10.2968 -2.10447 0.0011291 10
8.44596 -10.3558 -1.6408 0.000206681 10
13.251 -16.2473 -1.83427 0.00027529 10
13.2488 -16.2446 -1.09859 0.000278441 10
13.2431 -16.2376 -0.365741 0.000280023 10
13.2423 -16.2367 0.365719 0.000280016 10
8.39465 -10.2929 1.16203 0.000913233 10
8.39601 -10.2945 1.6311 0.000899945 10
8.39023 -10.2874 2.10257 0.000882384 10
8.39173 -10.2893 2.58087 0.000860753 10
8.38866 -10.2855 3.06422 0.000835294 10
8.39746 -10.2963 3.56011 0.000806294 10
6.45312 -7.85616 -2.72416 0.000386307 1
7.47506 -9.10029 -2.71888 0.000223988 1
8.41464 -10.2441 -2.5769 0.00111783 10
8.40841 -10.2366 -2.09815 0.0011465 10
8.47849 -10.3219 -1.64011 0.000206704 10
17.1086 -20.8283 -2.35817 9.56339e-05 10
17.1112 -20.8315 -1.41282 9.68752e-05 10
17.1052 -20.8242 -0.470392 9.75161e-05 10
17.1142 -20.8352 0.47064 9.7547e-05 10
8.41074 -10.2394 1.1593 0.000927262 10
8.39274 -10.2175 1.62352 0.000913781 10
8.40257 -10.2295 2.0967 0.000895968 10
8.40925 -10.2376 2.57525 0.000874024 10
8.40693 -10.2348 3.05782 0.000848197 10
8.39536 -10.2207 3.54407 0.000818777 10
6.48045 -7.83353 -2.72414 0.000386325 1
7.50874 -9.07651 -2.71958 0.000224001 1
8.41629 -10.1736 -2.56652 0.00113494 10
8.40287 -10.1573 -2.08791 0.00116402 10
8.51761 -10.296 -1.64072 0.000206727 10
17.1683 -20.7529 -2.35641 0.000102627 10
17.1799 -20.7669 -1.4125 0.000103922 10
17.1723 -20.7577 -0.470242 0.000104573 10
17.1778 -20.7644 0.470393 0.00010457 10
8.41008 -10.166 1.15431 0.000941391 10
8.39745 -10.1508 1.61757 0.000927718 10
8.40559 -10.1606 2.08859 0.000909649 10
8.40177 -10.156 2.56209 0.00088739 10
8.4094 -10.1652 3.04579 0.000861193 10
8.39722 -10.1505 3.52988 0.000831352 10
6.4983 -7.79951 -2.72018 0.000386344 1
7.53514 -9.04395 -2.7177 0.000224014 1
8.41695 -10.1023 -2.55595 0.00115218 10
8.40981 -10.0938 -2.08087 0.00118166 10
8.54839 -10.2601 -1.63974 0.00020675 10
17.3081 -20.7738 -2.36563 0.0001009 10
17.2929 -20.7556 -1.41583 0.000102175 10
17.3044 -20.7694 -0.471871 0.000102816 10
17.3079 -20.7736 0.471966 0.000102813 10
8.40241 -10.0849 1.14842 0.000955622 10
8.40555 -10.0887 1.61234 0.000941754 10
8.40927 -10.0931 2.08073 0.000923429 10
8.41811 -10.1037 2.5563 0.000900854 10
8.40174 -10.0841 3.03025 0.000874284 10
8.41383 -10.0986 3.52202 0.000844017 10
6.51927 -7.76936 -2.71759 0.000386362 1
7.5675 -9.0186 -2.718 0.000224026 1
8.42424 -10.0396 -2.54751 0.00116953 10
8.42269 -10.0378 -2.07537 0.00119943 10
8.57139 -10.215 -1.6373 0.000206772 10
17.4364 -20.7799 -2.37324 9.91882e-05 10
17.4397 -20.7838 -1.4219 0.000100444 10
17.4262 -20.7677 -0.473213 0.000101075 10
17.4404 -20.7847 0.473598 0.000101071 10
8.40846 -10.0208 1.14446 0.000969952 10
8.419 -10.0334 1.60819 0.000955889 10
8.414 -10.0274 2.07323 0.000937306 10
8.08114 -9.63073 2.44375 0.00103479 10
8.08171 -9.6314 2.90268 0.00100462 10
8.07633 -9.62499 3.36666 0.000970228 10
6.55353 -7.75505 -2.72057 0.000386381 1
7.61166 -9.00718 -2.72255 0.000224039 1
8.41534 -9.95822 -2.53429 0.00118701 10
8.42572 -9.9705 -2.06753 0.00121732 10
13.31 -15.7502 -2.53194 4.82402e-05 10
17.5565 -20.7754 -2.3797 9.74914e-05 10
17.5713 -20.7929 -1.4267 9.8727e-05 10
17.5562 -20.775 -0.474771 9.93481e-05 10
17.5687 -20.7898 0.47511 9.9345e-05 10
8.41233 -9.95465 1.14025 0.000984383 10
8.41178 -9.954 1.60016 0.000970122 10
8.41556 -9.95847 2.06504 0.000951279 10
8.09026 -9.57353 2.43639 0.00105008 10
8.08783 -9.57066 2.89287 0.00101949 10
8.08567 -9.5681 3.35661 0.000984619 10
6.57318 -7.72346 -2.71752 0.000386399 1
7.63232 -8.96795 -2.71873 0.000224052 1
8.43036 -9.90564 -2.52838 0.00120461 10
8.43569 -9.9119 -2.06147 0.00123534 10
13.3794 -15.7207 -2.53469 4.82463e-05 10
17.8609 -20.9864 -2.41101 9.2214e-05 10
17.8503 -20.974 -1.4434 6.16858e-05 10
17.8575 -20.9825 -0.480936 6.20759e-05 10
17.8476 -20.9708 0.480668 6.20739e-05 10
8.42988 -9.90507 1.13794 0.00099891 10
8.42352 -9.89761 1.59581 0.000984452 10
8.41333 -9.88564 2.05601 0.000965347 10
8.12076 -9.54187 2.43553 0.00108698 10
8.13087 -9.55374 2.89631 0.001055 10
8.11564 -9.53584 3.35521 0.00101862 10
6.60449 -7.70559 -2.71933 0.000386417 1
7.66767 -8.94603 -2.72018 0.000224065 1
8.43287 -9.8388 -2.51882 0.00122232 10
8.42229 -9.82646 -2.04981 0.00125347 10
13.4376 -15.6779 -2.53533 4.82523e-05 10
17.9867 -20.9854 -2.41809 9.06041e-05 10
18.0858 -21.101 -1.45647 5.75908e-05 10
18.083 -21.0978 -0.485023 5.79762e-05 10
18.0807 -21.0952 0.484961 5.79944e-05 10
8.42058 -9.82446 1.13204 0.00101353 10
8.41838 -9.8219 1.58834 0.000998877 10
8.42134 -9.82535 2.04957 0.000979509 10
8.17944 -9.54311 2.44312 0.0010723 10
8.18934 -9.55467 2.90525 0.00104072 10
8.18806 -9.55318 3.37135 0.0010048 10
6.63535 -7.68713 -2.72097 0.000386435 1
7.70493 -8.92625 -2.72233 0.000224077 1
8.44482 -9.78342 -2.51217 0.00124015 10
8.43326 -9.77003 -2.04416 0.00127173 10
13.479 -15.6156 -2.53285 4.82583e-05 10
18.1259 -20.999 -2.42693 8.90089e-05 10
18.1307 -21.0046 -1.45418 5.95438e-05 10
18.1248 -20.9978 -0.484175 5.99215e-05 10
18.1165 -20.9881 0.483952 5.99196e-05 10
8.434 -9.77088 1.12926 0.00102826 10
8.44092 -9.7789 1.58614 0.0010134 10
8.32898 -9.64921 2.01888 0.000231589 10
8.24945 -9.55709 2.45406 0.0010577 10
8.24107 -9.54737 2.91175 0.00102653 10
8.25463 -9.56308 3.38499 0.000991071 10
6.66966 -7.67256 -2.72404 0.000386454 1
7.73658 -8.89992 -2.72251 0.00022409 1
8.4429 -9.71245 -2.5015 0.0012581 10
8.44243 -9.7119 -2.03815 0.00129011 10
13.5293 -15.5637 -2.53208 4.82642e-05 10
18.2556 -21.0006 -2.43447 8.74285e-05 10
18.3636 -21.1249 -1.46693 5.63825e-05 10
18.3686 -21.1307 -0.488715 5.67609e-05 10
18.3602 -21.1209 0.488489 5.67787e-05 10
8.42827 -9.69561 1.12395 0.00104307 10
8.43177 -9.69964 1.57805 0.00102801 10
8.37503 -9.63437 2.02188 0.00023157 10
8.3117 -9.56152 2.46263 0.00104319 10
8.31197 -9.56183 2.925 0.00101242 10
8.30577 -9.55469 3.39226 0.000977419 10
6.68775 -7.63935 -2.72052 0.000386472 1
7.7572 -8.86098 -2.71887 0.000224103 1
8.4471 -9.64904 -2.49275 0.00127617 10
8.43998 -9.64092 -2.02943 0.0013086 10
13.5929 -15.527 -2.53382 4.82703e-05 10
18.4031 -21.0217 -2.44434 8.58631e-05 10
18.3926 -21.0098 -1.46339 5.74417e-05 10
18.3987 -21.0166 -0.487559 5.7807e-05 10
18.4019 -21.0203 0.487644 5.78051e-05 10
8.43367 -9.6337 1.12018 0.00105798 10
8.44591 -9.64769 1.57438 0.00104272 10
8.40782 -9.60418 2.02169 0.000231551 10
8.36383 -9.55393 2.46818 0.00102877 10
8.37393 -9.56546 2.93503 0.000998398 10
8.36333 -9.55335 3.40213 0.00096385 10
6.72 -7.62235 -2.7228 0.00038649 1
7.79208 -8.83838 -2.72026 0.000224115 1
8.45057 -9.58529 -2.48389 0.00129435 10
8.4445 -9.57841 -2.02246 0.00132721 10
13.649 -15.4818 -2.53419 4.82762e-05 10
18.5349 -21.0237 -2.45209 8.4313e-05 10
18.6332 -21.1353 -1.47665 5.52098e-05 10
18.626 -21.1271 -0.491626 5.55812e-05 10
18.633 -21.135 0.49181 5.55985e-05 10
8.4437 -9.5775 1.11706 0.00107299 10
8.45011 -9.58477 1.56892 0.00105753 10
8.44463 -9.57855 2.02249 0.000231531 10
8.43549 -9.56819 2.47946 0.00101443 10
8.43352 -9.56595 2.9442 0.00098446 10
8.43642 -9.56925 3.41826 0.000950364 10
6.73599 -7.58693 -2.71853 0.000386508 1
7.8115 -8.79831 -2.71631 0.000224128 1
8.44769 -9.51486 -2.47326 0.00131264 10
8.4527 -9.52051 -2.01645 0.00134594 10
13.6992 -15.4298 -2.53349 4.82821e-05 10
18.6644 -21.0222 -2.4595 8.27779e-05 10
18.6736 -21.0325 -1.47402 5.53797e-05 10
18.675 -21.0342 -0.490979 5.5733e-05 10
18.6773 -21.0367 0.491038 5.57312e-05 10
8.43912 -9.50522 1.11206 0.00108809 10
8.45476 -9.52283 1.5636 0.00107242 10
8.4493 -9.51668 2.01564 0.00105171 10
8.45957 -9.52824 2.47674 0.000644994 10
8.46679 -9.53638 2.94417 0.000625936 10
8.47106 -9.54118 3.41877 0.000604256 10
6.77425 -7.57659 -2.72328 0.000386526 1
7.84774 -8.77721 -2.71824 0.00022414 1
8.45575 -9.45725 -2.46594 0.00133105 10
8.45298 -9.45414 -2.00863 0.00136478 10
13.7539 -15.3829 -2.53366 4.8288e-05 10
18.8092 -21.037 -2.46889 8.1258e-05 10
18.8936 -21.1314 -1.48556 5.40707e-05 10
18.8971 -21.1353 -0.494875 5.44354e-05 10
18.8998 -21.1383 0.494946 5.44523e-05 10
8.45262 -9.45374 1.10949 0.00110328 10
8.45082 -9.45173 1.55676 0.0010874 10
8.45951 -9.46144 2.01019 0.00106642 10
8.52029 -9.52943 2.48476 0.000649463 10
8.52236 -9.53174 2.95191 0.00063044 10
8.51987 -9.52896 3.42503 0.000608766 10
6.7862 -7.53683 -2.71749 0.000386544 1
7.88429 -8.75639 -2.72029 0.000224153 1
8.46097 -9.39686 -2.45788 0.00134956 10
8.46131 -9.39723 -2.00281 0.00138373 10
13.8059 -15.333 -2.53337 4.8294e-05 10
18.9535 -21.05 -2.47817 7.97535e-05 10
18.9465 -21.0422 -1.48393 5.33584e-05 10
18.9445 -21.04 -0.494191 5.36998e-05 10
18.9502 -21.0464 0.494339 5.3698e-05 10
8.46276 -9.39885 1.1065 0.00111856 10
8.45655 -9.39195 1.55176 0.00110248 10
8.45977 -9.39553 2.00244 0.00108122 10
6.81555 -7.5165 -2.71872 0.000386562 1
7.90866 -8.72204 -2.71818 0.000224165 1
8.4663 -9.33703 -2.44995 0.00136819 10
8.45447 -9.32398 -1.99347 0.0014028 10
13.8568 -15.282 -2.53291 4.82998e-05 10
19.0931 -21.0568 -2.4868 7.82643e-05 10
19.1676 -21.1389 -1.49546 5.29637e-05 10
19.1738 -21.1458 -0.498244 5.33218e-05 10
19.1699 -21.1415 0.498141 5.33382e-05 10
8.45956 -9.3296 1.10182 0.00113393 10
8.46612 -9.33683 1.54753 0.00111764 10
8.4565 -9.32622 1.99395 0.00109611 10
6.85461 -7.50676 -2.72383 0.000386579 1
7.93619 -8.69124 -2.7172 0.000224177 1
8.46981 -9.27563 -2.44158 0.00138692 10
8.4692 -9.27497 -1.9893 0.00142197 10
13.9021 -15.2248 -2.53146 4.83057e-05 10
19.2313 -21.061 -2.4952 7.67906e-05 10
19.2456 -21.0767 -1.4958 5.13781e-05 10
19.2325 -21.0623 -0.497855 5.17078e-05 10
19.2437 -21.0745 0.498143 5.17061e-05 10
8.46949 -9.27528 1.09889 0.00114939 10
8.46629 -9.27177 1.54164 0.00113289 10
8.47155 -9.27753 1.98985 0.00111109 10
6.87413 -7.47556 -2.7212 0.000386597 1
7.97538 -8.67316 -2.72024 0.00022419 1
8.47621 -9.21782 -2.43414 0.00140576 10
8.46778 -9.20864 -1.9814 0.00144126 10
13.9587 -15.18 -2.5321 4.83116e-05 10
19.3825 -21.0783 -2.50525 7.53322e-05 10
19.4361 -21.1366 -1.50486 5.1887e-05 10
19.4329 -21.1331 -0.501129 5.22387e-05 10
19.4397 -21.1405 0.501303 5.22548e-05 10
8.47132 -9.21249 1.09495 0.00116493 10
8.45928 -9.1994 1.5345 0.00114822 10
8.47251 -9.21379 1.98251 0.00112615 10
6.90041 -7.45177 -2.72129 0.000386615 1
8.0073 -8.6471 -2.72081 0.000224202 1
8.47603 -9.15328 -2.42489 0.00142471 10
8.48271 -9.16049 -1.9774 0.00146065 10
14.0225 -15.1429 -2.53406 4.83174e-05 10
19.5164 -21.0758 -2.51305 7.38894e-05 10
19.5232 -21.0832 -1.5059 4.9439e-05 10
19.5265 -21.0867 -0.501643 4.97572e-05 10
19.5189 -21.0785 0.501448 4.97556e-05 10
8.47256 -9.14953 1.09097 0.00118057 10
8.47437 -9.15149 1.53144 0.00116365 10
8.46018 -9.13617 1.97215 0.00114129 10
6.92166 -7.42258 -2.71944 0.000386632 1
8.04126 -8.6232 -2.72211 0.000224214 1
8.48626 -9.1004 -2.41872 0.00144376 10
8.48475 -9.09878 -1.97046 0.00148015 10
14.0727 -15.0911 -2.5336 4.83232e-05 10
19.6677 -21.0911 -2.52303 7.2462e-05 10
19.7173 -21.1442 -1.51516 5.08395e-05 10
19.718 -21.145 -0.504662 5.1185e-05 10
19.7045 -21.1305 0.504318 5.12006e-05 10
8.47634 -9.08976 1.08737 0.00119629 10
8.46659 -9.07931 1.52429 0.00117915 10
8.46556 -9.07821 1.96601 0.00115652 10
6.95101 -7.40207 -2.7208 0.00038665 1
8.05901 -8.58197 -2.71796 0.000224226 1
8.47884 -9.02905 -2.40761 0.00146292 10
8.4808 -9.03113 -1.96221 0.00149976 10
14.1177 -15.0339 -2.53225 4.8329e-05 10
19.9807 -21.2772 -1.52969 4.89612e-05 10
19.9828 -21.2795 -0.509535 4.92952e-05 10
19.9707 -21.2666 0.509226 4.93103e-05 10
8.4828 -9.03327 1.08415 0.00121209 10
8.48352 -9.03403 1.52166 0.00119475 10
8.47126 -9.02098 1.96001 0.00117182 10
6.98245 -7.38373 -2.723 0.000386668 1
8.1022 -8.56784 -2.72242 0.000224238 1
8.48984 -8.97776 -2.40182 0.00148218 10
8.48162 -8.96906 -1.95515 0.00151947 10
14.1706 -14.9849 -2.53232 4.83348e-05 10
19.9726 -21.1204 -1.52342 4.98197e-05 10
19.9771 -21.1252 -0.507508 5.0159e-05 10
19.9864 -21.135 0.507742 5.01743e-05 10
8.4768 -8.96397 1.07937 0.00122798 10
8.48838 -8.97621 1.5169 0.00121042 10
8.48594 -8.97363 1.95614 0.00118722 10
8.54176 -9.03266 2.4165 0.000723287 10
8.54172 -9.03262 2.8701 0.000702238 10
8.5371 -9.02773 3.32928 0.000678255 10
7.00634 -7.35739 -2.72229 0.000386685 1
8.12764 -8.53486 -2.72094 0.000224251 1
8.48278 -8.9078 -2.39101 0.00150153 10
8.4799 -8.90477 -1.94757 0.00153928 10
14.221 -14.9335 -2.532 4.83406e-05 10
20.2488 -21.2634 -1.53881 4.79944e-05 10
20.2393 -21.2534 -0.51228 4.83226e-05 10
20.2428 -21.257 0.512368 4.83373e-05 10
8.49536 -8.921 1.07776 0.00124395 10
8.49461 -8.92022 1.51244 0.00122617 10
8.49016 -8.91555 1.94993 0.00120269 10
7.02025 -7.32065 -2.71775 0.000386703 1
8.15957 -8.50872 -2.72167 0.000224263 1
8.49743 -8.86103 -2.3864 0.00152099 10
8.48767 -8.85086 -1.94225 0.0015592 10
14.2696 -14.8802 -2.53139 4.83463e-05 10
20.2605 -21.1275 -1.53409 4.47734e-05 10
20.2637 -21.1308 -0.511029 4.50639e-05 10
20.2746 -21.1422 0.511302 4.50624e-05 10
8.48239 -8.84536 1.0722 0.00126 10
8.4826 -8.84558 1.50479 0.00124201 10
8.49611 -8.85966 1.94418 0.00121823 10
7.04273 -7.29296 -2.71658 0.00038672 1
8.18488 -8.4757 -2.72023 0.000224275 1
8.48817 -8.78977 -2.37517 0.00154054 10
8.49076 -8.79245 -1.93592 0.00157921 10
14.3311 -14.8403 -2.5331 4.83521e-05 10
20.5164 -21.2454 -1.54784 4.70519e-05 10
20.5241 -21.2533 -0.51572 4.73744e-05 10
20.505 -21.2336 0.515241 4.73888e-05 10
8.48589 -8.7874 1.06875 0.00127613 10
8.49035 -8.79201 1.50071 0.00125792 10
8.49095 -8.79264 1.93597 0.00123386 10
8.15532 -8.44508 2.28203 0.00135895 10
8.15664 -8.44645 2.71084 0.00131995 10
8.14576 -8.43519 3.14205 0.0012755 10
7.07127 -7.27155 -2.71778 0.000386737 1
8.20785 -8.44032 -2.71805 0.000224287 1
8.503 -8.74383 -2.37077 0.00156019 10
8.50717 -8.74812 -1.93269 0.00159932 10
14.376 -14.7832 -2.5319 4.83577e-05 10
20.5625 -21.1448 -1.54574 4.29806e-05 10
20.5744 -21.1572 -0.515126 4.32604e-05 10
20.5626 -21.1449 0.514829 4.3259e-05 10
8.50363 -8.74448 1.06714 0.00129234 10
8.49435 -8.73493 1.49602 0.00127391 10
8.49124 -8.73173 1.92907 0.00124956 10
8.15033 -8.38117 2.27244 0.00137609 10
8.14719 -8.37794 2.69797 0.00133663 10
8.16342 -8.39463 3.13754 0.00129165 10
7.09396 -7.24411 -2.71676 0.000386754 1
8.23194 -8.40618 -2.7163 0.000224299 1
8.50812 -8.68821 -2.36373 0.00157994 10
8.50942 -8.68953 -1.9263 0.00161953 10
14.4362 -14.7418 -2.53343 4.83634e-05 10
20.7869 -21.2268 -1.55703 4.61327e-05 10
20.7934 -21.2335 -0.518749 4.64496e-05 10
20.7957 -21.2359 0.518807 4.64637e-05 10
8.50619 -8.68624 1.06365 0.00130863 10
8.49119 -8.67092 1.49013 0.00128998 10
8.50336 -8.68335 1.92493 0.00126534 10
8.17654 -8.34961 2.27161 0.00124744 10
8.184 -8.35722 2.70048 0.00121136 10
8.16586 -8.3387 3.12727 0.0011703 10
7.11978 -7.21989 -2.71699 0.000386772 1
8.27558 -8.39194 -2.72101 0.000224311 1
8.51123 -8.63091 -2.3562 0.00159978 10
8.50891 -8.62856 -1.91935 0.00163983 10
8.4999 -8.61942 -1.48637 0.00110473 10
8.51044 -8.63011 -1.06041 0.0011212 10
8.50496 -8.62455 -0.634799 0.00113236 10
8.51548 -8.63522 -0.211689 0.0011381 10
8.50035 -8.61987 0.211313 0.00113836 10
8.50082 -8.62035 0.63449 0.00113312 10
8.50292 -8.62248 1.05947 0.00112245 10
8.49699 -8.61647 1.48586 0.00130612 10
8.49367 -8.6131 1.91592 0.0012812 10
8.235 -8.3508 2.27973 0.00122841 10
8.22797 -8.34366 2.70536 0.00119285 10
8.24052 -8.35639 3.14467 0.00115238 10
7.15113 -7.20123 -2.71934 0.000386789 1
8.30758 -8.36578 -2.72192 0.000224323 1
8.51185 -8.57148 -2.34808 0.00161971 10
8.51766 -8.57734 -1.91456 0.00166023 10
8.51738 -8.57705 -1.48418 0.000989908 10
8.52544 -8.58517 -1.05853 0.0010044 10
8.51895 -8.57863 -0.633604 0.00101414 10
8.5214 -8.5811 -0.211091 0.00101903 10
8.51021 -8.56984 0.210813 0.001019 10
8.52954 -8.5893 0.634392 0.00101407 10
8.52111 -8.58081 1.058 0.00100427 10
8.50231 -8.56188 1.48155 0.00132234 10
8.50073 -8.56029 1.91076 0.00129713 10
8.28849 -8.34656 2.28646 0.00120952 10
8.29695 -8.35508 2.71844 0.00117448 10
8.30187 -8.36003 3.15693 0.00113459 10
7.17205 -7.17205 -2.71776 0.000386806 1
8.33478 -8.33479 -2.72128 0.000224335 1
8.51196 -8.51197 -2.3399 0.00163974 10
8.51688 -8.51688 -1.90769 0.00168073 10
8.59201 -8.59201 -1.49195 0.000974512 10
8.578 -8.578 -1.06134 0.000988792 10
8.58671 -8.58671 -0.636411 0.000998392 10
8.59295 -8.59295 -0.212119 0.00100321 10
8.5745 -8.5745 0.211663 0.00100318 10
8.59211 -8.59211 0.636811 0.000998316 10
8.56752 -8.56753 1.06004 0.000153414 10
8.50557 -8.50557 1.47694 0.00133864 10
8.5016 -8.5016 1.90427 0.00131312 10
8.36908 -8.36908 2.30062 0.00119078 10
8.35069 -8.35069 2.72648 0.00115625 10
8.35461 -8.35461 3.16587 0.00111694 10
7.21225 -7.16208 -2.7235 0.000386823 1
8.35885 -8.3007 -2.71966 0.000224346 1
8.51372 -8.45449 -2.33225 0.00165985 10
8.52313 -8.46383 -1.90246 0.00170131 10
8.65068 -8.59049 -1.49692 0.000959234 10
8.65384 -8.59364 -1.067 0.000973305 10
8.64354 -8.58341 -0.638398 0.000982764 10
8.64179 -8.58167 -0.212584 0.000987509 10
8.64455 -8.58441 0.212651 0.000987483 10
8.65113 -8.59095 0.638959 0.000982689 10
8.60845 -8.54856 1.0614 0.000153392 10
8.52061 -8.46133 1.47441 0.001355 10
8.50653 -8.44735 1.89876 0.00132919 10
8.42741 -8.36878 2.30861 0.00117218 10
8.42671 -8.36808 2.74174 0.00113815 10
8.41999 -8.36142 3.17957 0.00109943 10
7.22329 -7.12314 -2.71827 0.00038684 1
8.38621 -8.26993 -2.71916 0.000224358 1
8.5244 -8.4062 -2.32713 0.00168005 10
8.51193 -8.3939 -1.89341 0.00172198 10
14.6738 -14.4703 -2.53041 4.83917e-05 10
8.63063 -8.51096 1.06047 0.00015337 10
8.51968 -8.40155 1.46917 0.00137143 10
8.5258 -8.40758 1.89649 0.00134533 10
8.48386 -8.36622 2.31606 0.00115373 10
8.48715 -8.36947 2.75189 0.0011202 10
8.47805 -8.36049 3.19045 0.00108205 10
7.26283 -7.11229 -2.72379 0.000386857 1
8.40744 -8.23317 -2.7167 0.00022437 1
8.53303 -8.35616 -2.32151 0.00170033 10
8.51936 -8.34278 -1.88857 0.00174274 10
8.52773 -8.35097 -1.46552 0.00117397 10
8.52644 -8.34971 -1.04408 0.00119139 10
8.52219 -8.34554 -0.625117 0.00120321 10
8.51521 -8.33871 -0.208033 0.00120928 10
8.51466 -8.33817 0.208019 0.00120955 10
8.5308 -8.35397 0.625748 0.001204 10
8.52805 -8.35129 1.04428 0.0011927 10
8.524 -8.34732 1.46488 0.00138794 10
8.52183 -8.34519 1.88912 0.00136154 10
8.52859 -8.35181 2.3203 0.00132902 10
8.52596 -8.34923 2.755 0.00129073 10
8.52054 -8.34393 3.19547 0.00124709 10
7.28681 -7.08612 -2.72349 0.000386874 1
8.4488 -8.2161 -2.72079 0.000224382 1
8.53232 -8.29733 -2.31342 0.0017207 10
8.5205 -8.28583 -1.8824 0.00176358 10
8.55106 -8.31555 -1.46453 0.00101201 10
8.53671 -8.30159 -1.04178 0.00102677 10
8.53559 -8.3005 -0.623971 0.0010367 10
8.54022 -8.305 -0.207934 0.00104167 10
8.54293 -8.30764 0.208 0.00104165 10
8.55162 -8.31609 0.625143 0.00103662 10
8.54909 -8.31363 1.04329 0.00102664 10
8.52867 -8.29377 1.4607 0.00140451 10
8.53283 -8.29782 1.88513 0.00137782 10
8.52937 -8.29445 2.31262 0.00134493 10
8.51621 -8.28165 2.74249 0.00130621 10
8.52413 -8.28936 3.18594 0.00126207 10
7.29793 -7.04753 -2.71843 0.000386891 1
8.46663 -8.17614 -2.71732 0.000224393 1
8.52253 -8.23011 -2.30296 0.00174116 10
8.52486 -8.23237 -1.87701 0.00178451 10
8.60269 -8.30752 -1.4684 0.000995762 10
8.60172 -8.30659 -1.04617 0.0010103 10
8.60364 -8.30844 -0.626822 0.00102008 10
8.61845 -8.32274 -0.20913 0.00102498 10
8.60753 -8.3122 0.208865 0.00102496 10
8.61944 -8.3237 0.627973 0.00102 10
8.61217 -8.31668 1.04744 0.00101017 10
8.52448 -8.23199 1.45505 0.00142115 10
8.53494 -8.24209 1.87922 0.00139416 10
8.525 -8.2325 2.30363 0.0013609 10
8.53653 -8.24363 2.73975 0.00132175 10
8.5163 -8.2241 3.17227 0.00127712 10
7.31757 -7.0173 -2.7166 0.000386907 1
8.50709 -8.15801 -2.72115 0.000224405 1
8.52998 -8.17996 -2.29725 0.00176169 10
8.52815 -8.1782 -1.87143 0.00180553 10
8.66913 -8.3134 -1.47478 0.000979651 10
8.66949 -8.31374 -1.05088 0.000993971 10
8.66429 -8.30876 -0.629124 0.0010036 10
8.66651 -8.31089 -0.209591 0.00100843 10
8.66879 -8.31307 0.209646 0.0010084 10
8.67891 -8.32278 0.630185 0.00100352 10
8.6667 -8.31107 1.05054 0.000993841 10
8.52651 -8.17663 1.45052 0.00143785 10
8.53914 -8.18875 1.87385 0.00141057 10
8.52641 -8.17654 2.29628 0.00137694 10
8.53 -8.17998 2.72848 0.00133735 10
8.52803 -8.17809 3.16598 0.00129223 10
7.3445 -6.99407 -2.71752 0.000386924 1
8.53199 -8.1249 -2.72002 0.000224417 1
8.54915 -8.14125 -2.29474 0.00178231 10
8.5438 -8.13615 -1.86862 0.00182662 10
14.9369 -14.2242 -2.53258 4.84194e-05 10
17.389 -16.5593 -2.1008 0.000171665 10
17.3755 -16.5465 -1.25745 0.000173785 10
17.388 -16.5584 -0.419112 0.000174876 10
8.54558 -8.13785 0.205978 0.00126757 10
8.53203 -8.12495 0.617457 0.00126177 10
8.52482 -8.11808 1.0299 0.00124996 10
8.52729 -8.12043 1.44582 0.00145463 10
8.52818 -8.12128 1.86521 0.00142704 10
8.52635 -8.11954 2.28862 0.00139304 10
8.54103 -8.13352 2.72291 0.00135302 10
8.53981 -8.13235 3.15979 0.0013074 10
7.37923 -6.97819 -2.72134 0.000386941 1
8.55318 -8.08835 -2.71776 0.00175043 10
8.53969 -8.07558 -2.28462 0.001803 10
8.54706 -8.08255 -1.86316 0.0018478 10
8.53539 -8.07152 -1.4424 0.00124465 10
8.53447 -8.07065 -1.02766 0.00126305 10
8.54117 -8.07699 -0.616074 0.00127553 10
8.53757 -8.07358 -0.205105 0.00128194 10
8.55056 -8.08587 0.205417 0.00128222 10
8.54049 -8.07634 0.616025 0.00127635 10
8.54346 -8.07915 1.02874 0.00126441 10
8.53364 -8.06987 1.44211 0.00147146 10
8.54387 -8.07954 1.86246 0.00144357 10
8.54583 -8.08139 2.28626 0.0014092 10
8.54492 -8.08053 2.71514 0.00136874 10
8.53991 -8.0758 3.14938 0.00132262 10
7.40467 -6.95345 -2.72176 0.000386957 1
8.55206 -8.03092 -2.70848 0.00177063 10
8.54878 -8.02784 -2.27954 0.00182377 10
8.54149 -8.021 -1.85583 0.00186905 10
8.57229 -8.04992 -1.44388 0.00103515 10
8.55753 -8.03605 -1.02705 0.0010502 10
8.55527 -8.03394 -0.615065 0.00106032 10
8.56145 -8.03974 -0.205003 0.00106539 10
8.554 -8.03274 0.204824 0.00106536 10
8.55413 -8.03287 0.614983 0.00106023 10
8.56868 -8.04653 1.02839 0.00105006 10
8.53101 -8.01115 1.43693 0.00148835 10
8.54791 -8.02702 1.85722 0.00146016 10
8.53522 -8.0151 2.27593 0.00142542 10
8.54556 -8.02482 2.70642 0.00138452 10
8.5315 -8.01162 3.13595 0.0013379 10
7.43292 -6.93131 -2.72323 0.000386974 1
8.54524 -7.96856 -2.6975 0.00179091 10
8.54602 -7.96929 -2.27137 0.00184461 10
8.54678 -7.97 -1.85092 0.00189038 10
8.63124 -8.04876 -1.44907 0.001018 10
8.62474 -8.0427 -1.03174 0.00103282 10
8.63086 -8.04841 -0.618476 0.00104278 10
8.63574 -8.05295 -0.206107 0.00104777 10
8.63415 -8.05147 0.206069 0.00104774 10
8.62164 -8.03981 0.617815 0.00104269 10
8.62198 -8.04013 1.03141 0.00103268 10
8.53965 -7.96335 1.43369 0.00150531 10
8.5401 -7.96377 1.84947 0.00147681 10
8.55238 -7.97522 2.27306 0.0014417 10
8.54145 -7.96503 2.6963 0.00140036 10
8.53397 -7.95806 3.12663 0.00135324 10
7.45361 -6.90212 -2.72197 0.00038699 1
8.56099 -7.92757 -2.69372 0.00181125 10
8.54684 -7.91446 -2.26424 0.00186553 10
8.55093 -7.91825 -1.84582 0.00191178 10
8.70264 -8.05874 -1.45633 0.001001 10
8.6952 -8.05184 -1.0368 0.00101558 10
8.68918 -8.04627 -0.620638 0.00102538 10
8.68571 -8.04306 -0.206629 0.0010303 10
8.69782 -8.05427 0.206917 0.00103027 10
8.68924 -8.04633 0.620643 0.0010253 10
8.68363 -8.04113 1.03542 0.00101545 10
8.54569 -7.9134 1.43006 0.00152232 10
8.54557 -7.91329 1.84467 0.00149352 10
8.55276 -7.91995 2.26581 0.00145804 10
8.54107 -7.90911 2.68745 0.00141626 10
8.55485 -7.92188 3.12413 0.00136863 10
7.47848 -6.87682 -2.72227 0.000387007 1
8.56425 -7.87523 -2.68608 0.00183167 10
8.55225 -7.8642 -2.25838 0.00188652 10
8.5611 -7.87234 -1.84207 0.00193326 10
12.9802 -11.9359 -2.16515 0.000527587 10
12.9948 -11.9494 -1.5445 0.000536328 10
12.9916 -11.9464 -0.924963 0.00054226 10
12.9762 -11.9322 -0.307704 0.000545311 10
12.9799 -11.9356 0.307792 0.00054544 10
12.9819 -11.9374 0.924268 0.000542648 10
8.92221 -8.20439 1.06045 0.00019815 10
8.55321 -7.86508 1.42672 0.00153939 10
8.54451 -7.85708 1.8385 0.00151029 10
8.54671 -7.8591 2.25692 0.00147443 10
8.55863 -7.87007 2.68431 0.00143221 10
8.5474 -7.85974 3.11137 0.00138408 10
7.48591 -6.83557 -2.71627 0.000387023 1
8.55609 -7.81278 -2.67495 0.00185216 10
8.5682 -7.82385 -2.25537 0.00190758 10
8.55084 -7.80799 -1.83399 0.00195481 10
8.55608 -7.81278 -1.42264 0.00131663 10
8.55583 -7.81255 -1.01365 0.00133603 10
8.55283 -7.80981 -0.60699 0.00134918 10
8.56097 -7.81724 -0.202358 0.00135594 10
8.55816 -7.81467 0.202291 0.00135622 10
8.56188 -7.81807 0.607632 0.00135004 10
8.55601 -7.81271 1.01367 0.00133745 10
8.55135 -7.80846 1.42185 0.00155652 10
8.54947 -7.80674 1.8337 0.00152712 10
8.55308 -7.81004 2.25139 0.00149088 10
8.54328 -7.80109 2.67094 0.00144821 10
8.54903 -7.80634 3.10203 0.00139957 10
7.51986 -6.81859 -2.71993 0.00038704 1
8.56163 -7.76322 -2.66819 0.00187271 10
8.5595 -7.76128 -2.24593 0.00192871 10
8.5555 -7.75766 -1.82917 0.00197642 10
8.56298 -7.76444 -1.41927 0.00105953 10
8.57396 -7.77439 -1.01258 0.00107488 10
8.56319 -7.76463 -0.605798 0.00108519 10
8.56915 -7.77003 -0.201909 0.00109037 10
8.56587 -7.76706 0.201831 0.00109034 10
8.56692 -7.76801 0.606062 0.00108511 10
8.57197 -7.77259 1.01235 0.00107474 10
8.56486 -7.76615 1.41958 0.00157371 10
8.55103 -7.75361 1.82822 0.00154399 10
8.55616 -7.75825 2.24506 0.00150738 10
8.56701 -7.76809 2.66987 0.00146427 10
8.56242 -7.76393 3.09703 0.00141512 10
7.53742 -6.78672 -2.7177 0.000387056 1
8.57572 -7.72161 -2.66417 0.00189333 10
8.57091 -7.71729 -2.24185 0.0019499 10
8.55655 -7.70436 -1.82364 0.00199811 10
8.63801 -7.7777 -1.4272 0.00104141 10
8.62473 -7.76574 -1.01537 0.00105651 10
8.64561 -7.78454 -0.609702 0.00106666 10
8.63989 -7.7794 -0.202935 0.00107175 10
8.63741 -7.77716 0.202876 0.00107172 10
8.64257 -7.78181 0.609488 0.00106657 10
8.64216 -7.78144 1.01742 0.00105637 10
8.55764 -7.70533 1.41392 0.00159095 10
8.56393 -7.711 1.82521 0.00156093 10
8.56162 -7.70892 2.23942 0.00152393 10
8.5562 -7.70404 2.6581 0.00148037 10
8.55344 -7.70155 3.08404 0.00143072 10
7.56496 -6.76386 -2.7191 0.000387072 1
8.57005 -7.66251 -2.65408 0.00191401 10
8.56707 -7.65984 -2.23383 0.00197116 10
8.5712 -7.66354 -1.82105 0.00201986 10
8.69141 -7.77102 -1.43153 0.00102346 10
8.69281 -7.77227 -1.02018 0.00103831 10
8.70415 -7.78241 -0.611911 0.00104829 10
8.69491 -7.77415 -0.203588 0.0010533 10
8.69 -7.76975 0.203473 0.00105327 10
8.69261 -7.77209 0.6111 0.00104821 10
8.6897 -7.76949 1.01982 0.00103817 10
8.55447 -7.64858 1.40898 0.00160824 10
8.57309 -7.66523 1.82145 0.00157791 10
8.56704 -7.65982 2.23383 0.00154054 10
8.55807 -7.6518 2.65037 0.00149653 10
8.55913 -7.65274 3.07644 0.00144637 10
7.58884 -6.73769 -2.71921 0.000387088 1
8.56194 -7.60165 -2.64333 0.00193475 10
8.56348 -7.60302 -2.22597 0.00199249 10
8.57203 -7.61061 -1.81557 0.00204168 10
13.3548 -11.8569 -2.19278 0.000400632 10
13.362 -11.8633 -1.56329 0.000407185 10
13.3676 -11.8683 -0.936838 0.000411596 10
13.3524 -11.8548 -0.31167 0.000413809 10
13.3676 -11.8683 0.312025 0.000413796 10
13.3494 -11.8522 0.935566 0.000411558 10
9.06404 -8.04743 1.06045 0.000198016 10
8.5625 -7.60215 1.40592 0.00162558 10
8.557 -7.59726 1.81238 0.00159494 10
8.57409 -7.61243 2.22872 0.00155719 10
8.5703 -7.60907 2.64591 0.00151274 10
8.56515 -7.6045 3.06904 0.00146206 10
7.6201 -6.71802 -2.722 0.000387104 1
8.57933 -7.5637 -2.64053 0.00195555 10
8.57077 -7.55615 -2.22099 0.00201387 10
8.58254 -7.56653 -1.81219 0.00206356 10
8.58236 -7.56637 -1.40483 0.00138979 10
8.57303 -7.55814 -0.999909 0.0014102 10
8.56595 -7.5519 -0.598475 0.00142403 10
8.56779 -7.55353 -0.199372 0.00143113 10
8.58216 -7.56619 0.199706 0.00143143 10
8.57176 -7.55702 0.59888 0.00142491 10
8.57208 -7.55731 0.999799 0.00141167 10
8.56176 -7.54821 1.40146 0.00164297 10
8.57157 -7.55686 1.80987 0.00161202 10
8.56518 -7.55122 2.21954 0.00157389 10
8.56746 -7.55324 2.63688 0.00152899 10
8.57509 -7.55996 3.06313 0.0014778 10
7.62695 -6.67689 -2.7161 0.00038712 1
8.58504 -7.51564 -2.6342 0.00197641 10
8.57873 -7.51011 -2.21625 0.00203531 10
8.56872 -7.50134 -1.80373 0.0020855 10
8.58439 -7.51507 -1.40086 0.00140455 10
8.57849 -7.5099 -0.997482 0.00142516 10
8.57542 -7.50722 -0.597302 0.00143912 10
8.57301 -7.5051 -0.198883 0.0014463 10
8.57835 -7.50978 0.199007 0.0014466 10
8.57294 -7.50504 0.597129 0.00144002 10
8.57091 -7.50326 0.996601 0.00142664 10
8.5735 -7.50553 1.39909 0.00166041 10
8.57019 -7.50263 1.80404 0.00162915 10
8.56365 -7.49691 2.21235 0.00159064 10
8.57835 -7.50978 2.63215 0.00154528 10
8.57737 -7.50892 3.05456 0.00149358 10
7.66336 -6.66166 -2.72077 0.000387136 1
8.57748 -7.45629 -2.62388 0.00199733 10
8.58093 -7.45928 -2.21007 0.00205682 10
8.58856 -7.46592 -1.80241 0.00210749 10
8.6298 -7.50177 -1.40399 0.00106619 10
8.62536 -7.49791 -0.999883 0.00108159 10
8.63724 -7.50824 -0.599778 0.00109194 10
