VERSION 0.7
FIELDS x y z intensity label
SIZE 4 4 4 4 4
TYPE F F F F F
COUNT 1 1 1 1 1
WIDTH 1170
HEIGHT 1
VIEWPOINT 5.06626 3.91584 2.72844 0.728661 0.000528361 0.000698287 -0.684874
POINTS 1170
DATA ascii
7.88444 -12.6177 1.30171 0.000548192 10
7.88824 -12.6238 1.82774 0.000540062 10
7.88125 -12.6126 2.35558 0.00052929 10
7.88138 -12.6128 2.89098 0.000516003 10
7.88175 -12.6134 3.43382 0.000500355 10
7.8818 -12.6135 3.98537 0.00048253 10
5.41202 -8.59415 -2.72136 0.000386744 1
6.27204 -9.95983 -2.71736 0.000224272 1
7.45406 -11.8368 -2.71906 0.000115517 1
8.2346 -13.0763 -2.44753 0.000605262 10
8.22686 -13.064 -1.89562 0.000618265 10
8.22614 -13.0629 -1.35058 0.00041496 10
8.22092 -13.0546 -0.808519 0.000419454 10
8.2231 -13.0581 -0.269359 0.000585829 10
8.23007 -13.0691 0.269587 0.000585797 10
8.22894 -13.0673 0.809307 0.000582753 10
7.9282 -12.5898 1.30167 0.000765674 10
7.93598 -12.6021 1.8286 0.000753948 10
7.93205 -12.5959 2.35761 0.000738543 10
7.92854 -12.5903 2.89214 0.00071964 10
7.93352 -12.5982 3.43719 0.00069746 10
7.93609 -12.6023 3.99055 0.00067226 10
5.43181 -8.55916 -2.71627 0.000386774 1
6.30548 -9.93585 -2.7168 0.000224293 1
7.49479 -11.8099 -2.71886 0.00011553 1
8.22983 -12.9682 -2.43265 0.000617799 10
8.23028 -12.9689 -1.88597 0.000631051 10
8.28706 -13.0583 -1.35309 0.000570759 10
8.2862 -13.057 -0.810452 0.000576659 10
8.29594 -13.0723 -0.270248 0.000579611 10
8.29595 -13.0723 0.270248 0.00057958 10
8.29248 -13.0669 0.811065 0.000576566 10
7.9882 -12.5874 1.3043 0.000757624 10
7.98641 -12.5846 1.83008 0.000746013 10
7.99083 -12.5915 2.362 0.000730759 10
7.99946 -12.6051 2.90194 0.000712042 10
7.98648 -12.5847 3.44108 0.00069008 10
7.98964 -12.5897 3.99535 0.000665128 10
5.47673 -8.56373 -2.72377 0.000386805 1
6.33714 -9.90911 -2.71552 0.000224314 1
7.53683 -11.785 -2.71917 0.000115544 1
8.23071 -12.87 -2.41961 0.000630483 10
8.23309 -12.8737 -1.8763 0.000643988 10
8.22875 -12.8669 -1.33623 0.000432203 10
8.24045 -12.8852 -0.801572 0.000436868 10
8.22701 -12.8642 -0.266538 0.00043931 10
8.23263 -12.873 0.26672 0.000439499 10
8.22757 -12.8651 0.800319 0.000437434 10
8.06454 -12.6102 1.30957 0.000749594 10
8.05743 -12.5991 1.83627 0.000738098 10
8.05178 -12.5902 2.36701 0.000722995 10
8.05536 -12.5958 2.90625 0.000704462 10
8.05773 -12.5995 3.45281 0.000682718 10
8.0567 -12.5979 4.00688 0.000658015 10
5.50286 -8.53877 -2.72192 0.000386835 1
6.37165 -9.88687 -2.71551 0.000224335 1
7.57028 -11.7468 -2.71643 0.000115557 1
8.25044 -12.8022 -2.41226 0.000643314 10
8.24089 -12.7874 -1.86789 0.000657073 10
8.24502 -12.7938 -1.33161 0.000599273 10
8.23849 -12.7836 -0.797037 0.000605438 10
8.23895 -12.7844 -0.265478 0.000608522 10
8.25104 -12.8031 0.265867 0.00060849 10
8.24244 -12.7898 0.797418 0.00060534 10
8.12427 -12.6064 1.31211 0.000741585 10
8.12394 -12.6059 1.84139 0.000730203 10
8.12096 -12.6013 2.37441 0.000715251 10
8.12406 -12.6061 2.91514 0.000696904 10
8.12773 -12.6118 3.46392 0.000675377 10
8.11665 -12.5946 4.0148 0.000650922 10
5.53059 -8.51636 -2.72091 0.000386865 1
6.41282 -9.87488 -2.71834 0.000224356 1
7.61856 -11.7316 -2.71905 0.00011557 1
8.24922 -12.7027 -2.39893 0.000656293 10
8.24735 -12.6998 -1.8593 0.000670308 10
8.3135 -12.8017 -1.33545 0.000592792 10
8.30854 -12.794 -0.799488 0.000598894 10
8.30864 -12.7942 -0.266282 0.000601948 10
8.31473 -12.8036 0.266478 0.000601916 10
8.30141 -12.7831 0.798802 0.000598797 10
8.18578 -12.605 1.31493 0.000733598 10
8.18304 -12.6008 1.8448 0.000722331 10
8.18569 -12.6049 2.38045 0.000707529 10
8.19141 -12.6137 2.92349 0.000689366 10
8.18421 -12.6026 3.46922 0.000668057 10
8.18849 -12.6092 4.02854 0.000643849 10
5.5644 -8.50329 -2.72293 0.000386895 1
6.45415 -9.86298 -2.72125 0.000224377 1
7.64782 -11.6871 -2.71491 0.000115584 1
8.25347 -12.6126 -2.38734 0.000669417 10
8.25367 -12.6129 -1.85079 0.000683691 10
8.36742 -12.7868 -1.33693 0.00058633 10
8.37508 -12.7985 -0.801587 0.00059237 10
8.24957 -12.6067 -0.262978 0.000466325 10
8.25613 -12.6167 0.263186 0.000466522 10
8.25493 -12.6149 0.790087 0.000464336 10
8.24259 -12.596 1.31699 0.000542758 10
8.25538 -12.6155 1.85117 0.000534674 10
8.25334 -12.6124 2.3873 0.00033449 10
8.24839 -12.6049 2.92811 0.00032606 10
8.25171 -12.6099 3.47916 0.000316134 10
7.92327 -12.108 3.87724 0.00054437 10
5.5803 -8.46296 -2.71624 0.000386925 1
6.48425 -9.83389 -2.71946 0.000224398 1
7.69928 -11.6766 -2.71869 0.000115597 1
8.26747 -12.5383 -2.37872 0.000682687 10
8.26521 -12.5348 -1.84355 0.000697224 10
8.26601 -12.5361 -1.31373 0.000467888 10
8.26284 -12.5313 -0.786653 0.000472906 10
8.25894 -12.5253 -0.261881 0.000475532 10
8.25506 -12.5195 0.261758 0.000632439 10
8.25872 -12.525 0.786261 0.000629179 10
8.2477 -12.5083 1.31082 0.000553481 10
8.25711 -12.5226 1.84175 0.000545248 10
8.29436 -12.5791 2.38646 0.000445405 10
8.30483 -12.5949 2.93252 0.000433962 10
8.29678 -12.5827 3.47962 0.000420537 10
7.92878 -12.0246 3.85938 0.000555087 10
5.61847 -8.45648 -2.72043 0.000386955 1
6.51176 -9.80099 -2.71663 0.000224419 1
7.73373 -11.6402 -2.71649 0.00011561 1
8.26259 -12.4362 -2.36481 0.000696104 10
8.25944 -12.4315 -1.83258 0.000710905 10
8.32897 -12.5361 -1.31677 0.000616044 10
8.31507 -12.5152 -0.787462 0.000622359 10
8.32042 -12.5232 -0.262443 0.000625519 10
8.31907 -12.5212 0.2624 0.000625485 10
8.32598 -12.5316 0.788495 0.000622258 10
8.25863 -12.4302 1.30565 0.000564321 10
8.25745 -12.4285 1.83213 0.000555937 10
8.31744 -12.5187 2.38051 0.000447612 10
8.32839 -12.5352 2.92537 0.00043612 10
8.32645 -12.5323 3.47369 0.000422638 10
7.91919 -11.9193 3.83443 0.000565921 10
5.64483 -8.43215 -2.71893 0.000386985 1
6.54681 -9.77952 -2.71699 0.00022444 1
7.77735 -11.6177 -2.71756 0.000115624 1
8.27742 -12.3647 -2.35669 0.000709666 10
8.26577 -12.3473 -1.82441 0.000724733 10
8.38712 -12.5285 -1.31904 0.000609209 10
8.38595 -12.5268 -0.790028 0.000615459 10
8.38723 -12.5287 -0.263169 0.000618586 10
8.38495 -12.5253 0.263097 0.000618553 10
8.38909 -12.5315 0.790324 0.000615359 10
8.27276 -12.3577 1.30106 0.000575278 10
8.25789 -12.3355 1.82267 0.000566741 10
7.93941 -11.8598 2.26045 0.000632108 10
7.941 -11.8621 2.77474 0.000616415 10
7.93936 -11.8597 3.29491 0.000597932 10
7.93681 -11.8559 3.8229 0.000576871 10
5.67674 -8.41612 -2.72013 0.000387015 1
6.58978 -9.76975 -2.72065 0.000224461 1
7.81544 -11.5869 -2.71672 0.000115637 1
8.28209 -12.2787 -2.3458 0.000723374 10
8.27059 -12.2617 -1.81601 0.000738711 10
8.26698 -12.2563 -1.29341 0.000495695 10
8.27781 -12.2724 -0.775799 0.000500988 10
8.27685 -12.2709 -0.25836 0.000503756 10
8.2787 -12.2737 0.258417 0.000503964 10
8.27209 -12.2639 0.775264 0.000501611 10
8.2631 -12.2506 1.29281 0.000586353 10
8.26917 -12.2595 1.8157 0.000577662 10
7.93381 -11.7624 2.24715 0.000644164 10
7.93406 -11.7627 2.75795 0.00062819 10
7.93969 -11.7711 3.27798 0.000609376 10
7.93331 -11.7616 3.80142 0.000587937 10
5.71035 -8.40253 -2.72217 0.000387045 1
6.62263 -9.7449 -2.72016 0.000224481 1
7.86018 -11.5659 -2.71822 0.00011565 1
8.28624 -12.1928 -2.33491 0.000737226 10
8.27612 -12.1779 -1.80788 0.000752836 10
8.32943 -12.2564 -1.29648 0.00064062 10
8.3275 -12.2536 -0.776444 0.00064716 10
8.32175 -12.2451 -0.258426 0.000650431 10
8.33427 -12.2635 0.258814 0.000650396 10
8.33158 -12.2596 0.776824 0.000647054 10
8.27643 -12.1784 1.28823 0.000597544 10
8.27109 -12.1705 1.80678 0.000588697 10
7.99269 -11.7609 2.25219 0.000832655 10
7.98269 -11.7462 2.76058 0.000811613 10
7.99582 -11.7655 3.28418 0.000786915 10
7.9933 -11.7618 3.81047 0.000758846 10
5.73506 -8.37584 -2.71999 0.000387074 1
6.65338 -9.71702 -2.71884 0.000224502 1
7.89924 -11.5366 -2.71778 0.000115663 1
8.29292 -12.1115 -2.32486 0.000751224 10
8.29048 -12.1079 -1.80177 0.000767108 10
8.39458 -12.26 -1.29995 0.000633388 10
8.39697 -12.2635 -0.778924 0.000639859 10
8.39207 -12.2563 -0.259279 0.000643096 10
8.38909 -12.252 0.259187 0.000643061 10
8.40131 -12.2698 0.779327 0.000639754 10
8.27745 -12.0889 1.28181 0.000608852 10
8.27173 -12.0806 1.7977 0.000599848 10
8.04435 -11.7485 2.25518 0.000823341 10
8.05498 -11.764 2.77136 0.000802518 10
8.04856 -11.7546 3.28897 0.000778079 10
8.0516 -11.7591 3.81867 0.000750303 10
5.76652 -8.35905 -2.72106 0.000387104 1
6.67862 -9.68122 -2.71533 0.000224523 1
7.92864 -11.4932 -2.71408 0.000115676 1
8.29659 -12.0266 -2.31411 0.000765366 10
8.29579 -12.0254 -1.79379 0.000781527 10
14.3045 -20.7356 -2.20393 0.00014549 10
14.4091 -20.8871 -1.32985 7.42001e-05 10
14.4039 -20.8797 -0.442765 7.46925e-05 10
14.4056 -20.8822 0.442818 7.47291e-05 10
8.29089 -12.0183 1.27739 0.000620276 10
8.28615 -12.0115 1.79171 0.000611112 10
8.11669 -11.7658 2.26393 0.000814057 10
8.1149 -11.7632 2.77784 0.000793454 10
8.11174 -11.7586 3.29799 0.000769273 10
8.11243 -11.7596 3.82802 0.000741791 10
5.79563 -8.33881 -2.72104 0.000387134 1
6.7171 -9.66464 -2.71724 0.000224543 1
7.97992 -11.4816 -2.7179 0.00011569 1
8.29678 -11.9375 -2.30252 0.000779652 10
8.29814 -11.9395 -1.78528 0.000796092 10
14.4178 -20.7445 -2.21021 0.000143495 10
14.415 -20.7405 -1.32371 7.5868e-05 10
14.4131 -20.7377 -0.440819 9.65258e-05 10
14.4195 -20.7469 0.441015 9.65195e-05 10
8.28421 -11.9194 1.26994 0.000631816 10
8.28219 -11.9165 1.78185 0.000622492 10
8.18275 -11.7734 2.27088 0.000804806 10
8.17825 -11.767 2.78544 0.000784421 10
8.18217 -11.7726 3.3099 0.000760497 10
8.1785 -11.7673 3.8398 0.000733308 10
5.81917 -8.31063 -2.71845 0.000387163 1
6.76062 -9.65516 -2.72119 0.000224564 1
8.00959 -11.4389 -2.71438 0.000115703 1
8.29758 -11.8502 -2.29125 0.000794081 10
8.3043 -11.8598 -1.77769 0.000810803 10
8.29563 -11.8474 -1.26535 0.000823606 10
8.30453 -11.8601 -0.758787 0.000832338 10
8.29522 -11.8468 -0.25244 0.000836899 10
8.29895 -11.8521 0.252553 0.000837236 10
8.29499 -11.8465 0.757915 0.000833343 10
8.29689 -11.8492 1.26554 0.000643471 10
8.30132 -11.8555 1.77705 0.000633985 10
8.23624 -11.7626 2.27431 0.000795587 10
8.24195 -11.7707 2.79313 0.00077542 10
8.24531 -11.7755 3.31879 0.000751752 10
8.24774 -11.779 3.85297 0.000724855 10
5.85439 -8.29913 -2.72136 0.000387193 1
6.78429 -9.61734 -2.71719 0.000224584 1
8.04696 -11.4073 -2.71354 0.000115716 1
8.30526 -11.7735 -2.28201 0.000808654 10
8.3087 -11.7783 -1.76982 0.00082566 10
8.31376 -11.7855 -1.26183 0.00083868 10
8.29719 -11.762 -0.75436 0.00084756 10
8.29673 -11.7614 -0.251235 0.000852197 10
8.30016 -11.7662 0.251339 0.000852538 10
8.3057 -11.7741 0.755133 0.000848577 10
8.29477 -11.7586 1.25895 0.000655241 10
8.29626 -11.7607 1.76717 0.000645592 10
8.29719 -11.762 2.27979 0.000632814 10
8.30629 -11.7749 2.80099 0.000617054 10
8.3028 -11.77 3.32537 0.000598495 10
8.29214 -11.7549 3.85452 0.000577351 10
5.88177 -8.27646 -2.72064 0.000387222 1
6.81463 -9.58912 -2.71592 0.000224605 1
8.08623 -11.3784 -2.71337 0.000115729 1
8.30583 -11.6874 -2.27094 0.000823369 10
8.30296 -11.6834 -1.7599 0.000840663 10
8.3046 -11.6857 -1.25424 0.000853901 10
8.30568 -11.6872 -0.751418 0.00086293 10
8.31032 -11.6938 -0.250409 0.000867645 10
8.29969 -11.6788 0.250088 0.000867989 10
8.30483 -11.686 0.751341 0.00086396 10
8.30373 -11.6845 1.25411 0.000667125 10
8.3013 -11.6811 1.75955 0.000657312 10
8.31294 -11.6974 2.27289 0.000644317 10
8.3083 -11.6909 2.78789 0.000628288 10
8.3022 -11.6823 3.30878 0.000609413 10
8.30256 -11.6828 3.84039 0.000587907 10
5.91015 -8.25521 -2.72042 0.000387252 1
6.85398 -9.57354 -2.71827 0.000224625 1
8.13983 -11.3696 -2.71802 0.000115742 1
8.31807 -11.6186 -2.26319 0.000838226 10
8.32446 -11.6275 -1.75584 0.000855809 10
8.31478 -11.614 -1.24965 0.000869268 10
8.30572 -11.6013 -0.747754 0.000878447 10
8.30793 -11.6044 -0.249115 0.000883239 10
8.31316 -11.6117 0.249272 0.000883588 10
8.31398 -11.6128 0.748497 0.00087949 10
8.30902 -11.6059 1.24878 0.000679124 10
8.3177 -11.618 1.75442 0.000669145 10
8.31635 -11.6162 2.26272 0.00065593 10
8.31038 -11.6078 2.77497 0.00063963 10
8.30452 -11.5996 3.29355 0.000620436 10
8.31025 -11.6076 3.82518 0.000598566 10
5.93128 -8.22393 -2.71692 0.000387281 1
6.88169 -9.5417 -2.71603 0.000224646 1
8.18057 -11.3426 -2.71839 0.000115755 1
8.32715 -11.5459 -2.25468 0.000853225 10
8.31215 -11.5251 -1.74475 0.0008711 10
8.3203 -11.5364 -1.24442 0.000884782 10
8.32153 -11.5381 -0.745546 0.000894112 10
8.3109 -11.5234 -0.247997 0.000898982 10
8.3117 -11.5245 0.24802 0.00109661 10
8.32336 -11.5406 0.74571 0.00109103 10
8.31907 -11.5347 1.24423 0.000691236 10
8.30732 -11.5184 1.74374 0.000681091 10
8.31976 -11.5356 2.25268 0.000667654 10
8.31903 -11.5346 2.7644 0.000651082 10
8.30443 -11.5144 3.27755 0.000631565 10
8.31312 -11.5264 3.80796 0.000609329 10
5.96407 -8.20884 -2.7188 0.00038731 1
6.92597 -9.53279 -2.72036 0.000224666 1
8.21622 -11.3087 -2.7171 0.000115768 1
8.31804 -11.4488 -2.24138 0.000868366 10
8.32091 -11.4527 -1.73818 0.000886535 10
8.37988 -11.5339 -1.2473 0.00106755 10
8.39035 -11.5483 -0.748096 0.00107833 10
8.37806 -11.5314 -0.248798 0.00108372 10
8.38662 -11.5432 0.249052 0.00108366 10
8.38469 -11.5405 0.747591 0.00107815 10
8.31306 -11.4419 1.23735 0.000703463 10
8.32732 -11.4616 1.73952 0.000693148 10
8.3255 -11.4591 2.24339 0.000679488 10
8.31524 -11.445 2.74985 0.00066264 10
8.31592 -11.4459 3.2663 0.000642799 10
8.31867 -11.4497 3.79217 0.000620193 10
5.99293 -8.1883 -2.71891 0.00038734 1
6.95932 -9.50871 -2.72041 0.000224686 1
8.25882 -11.2843 -2.71815 0.000115781 1
8.32707 -11.3775 -2.2331 0.000883646 10
8.32514 -11.3749 -1.73076 0.000902112 10
8.45229 -11.5486 -1.25207 0.00105484 10
8.45166 -11.5477 -0.749964 0.0010655 10
8.43974 -11.5315 -0.249433 0.00107083 10
8.45565 -11.5532 0.249902 0.00107077 10
8.43906 -11.5305 0.748845 0.00106532 10
8.32242 -11.3712 1.23283 0.000715802 10
8.32627 -11.3764 1.731 0.000705317 10
8.32185 -11.3704 2.2317 0.000691432 10
8.33008 -11.3816 2.7416 0.000674306 10
8.31761 -11.3646 3.25136 0.000654138 10
8.32984 -11.3813 3.77913 0.000631158 10
6.01503 -8.15859 -2.71599 0.000387369 1
6.97956 -9.46685 -2.71538 0.000224707 1
8.29108 -11.2457 -2.71583 0.000115794 1
8.33416 -11.3042 -2.2244 0.000899067 10
8.3413 -11.3139 -1.7259 0.000917832 10
8.5116 -11.5449 -1.25488 0.00104218 10
8.51505 -11.5495 -0.752007 0.00105272 10
8.52024 -11.5566 -0.250618 0.00105799 10
8.50939 -11.5419 0.250299 0.00105793 10
8.50877 -11.541 0.751452 0.00105254 10
8.32975 -11.2982 1.22807 0.000728254 10
8.32681 -11.2942 1.7229 0.000717597 10
8.33292 -11.3025 2.22407 0.000703485 10
8.32089 -11.2862 2.72559 0.00068608 10
8.33552 -11.306 3.24292 0.000665582 10
8.33232 -11.3017 3.76233 0.000642225 10
6.04734 -8.14275 -2.71773 0.000387398 1
7.01703 -9.44844 -2.71711 0.000224727 1
8.32766 -11.2132 -2.71497 0.000115807 1
8.33315 -11.2206 -2.21366 0.000914627 10
8.34534 -11.237 -1.71861 0.000933693 10
8.57534 -11.5467 -1.25833 0.00102957 10
8.58181 -11.5554 -0.754335 0.00103999 10
8.57178 -11.5419 -0.250947 0.0010452 10
8.57759 -11.5497 0.251117 0.00104515 10
8.58117 -11.5546 0.754279 0.00103982 10
8.33422 -11.222 1.22294 0.000740817 10
8.32543 -11.2102 1.71451 0.000729988 10
8.33011 -11.2165 2.21286 0.000715647 10
8.33679 -11.2255 2.71795 0.00069796 10
8.32551 -11.2103 3.22378 0.000677129 10
8.32344 -11.2075 3.74064 0.000653393 10
6.0818 -8.12971 -2.72045 0.000387427 1
7.04888 -9.42243 -2.71669 0.000224747 1
8.34618 -11.1566 -2.7083 0.000906633 10
8.34219 -11.1512 -2.20571 0.000930326 10
8.35 -11.1617 -1.71154 0.000949696 10
8.65101 -11.5641 -1.2635 0.00101702 10
8.64025 -11.5497 -0.755924 0.00102732 10
8.64472 -11.5556 -0.2519 0.00103247 10
8.64756 -11.5594 0.251983 0.00103241 10
8.64371 -11.5543 0.756227 0.00102715 10
8.34027 -11.1487 1.21811 0.000753492 10
8.34196 -11.1509 1.70989 0.000742489 10
8.33472 -11.1412 2.20374 0.000727918 10
8.34604 -11.1564 2.70825 0.000709946 10
8.34363 -11.1532 3.2157 0.000688779 10
8.33696 -11.1442 3.7292 0.00066466 10
6.10436 -8.10076 -2.71787 0.000387457 1
7.07816 -9.39303 -2.71532 0.000224767 1
8.34686 -11.0767 -2.69595 0.000922095 10
8.35623 -11.0891 -2.19918 0.000946163 10
8.35213 -11.0837 -1.70403 0.000965839 10
8.70463 -11.5514 -1.26543 0.00100452 10
8.70024 -11.5456 -0.757642 0.0010147 10
8.70131 -11.547 -0.252373 0.0010198 10
8.71208 -11.5613 0.252685 0.00101974 10
8.70312 -11.5494 0.757893 0.00101453 10
8.33817 -11.0651 1.21216 0.000766278 10
8.33792 -11.0648 1.70113 0.000755099 10
8.34453 -11.0736 2.1961 0.000740295 10
8.34747 -11.0775 2.69615 0.000722037 10
8.33386 -11.0594 3.19703 0.000700533 10
8.34902 -11.0795 3.71728 0.000676028 10
6.13196 -8.07857 -2.71759 0.000387486 1
7.11982 -9.38002 -2.71873 0.000224788 1
8.35997 -11.0139 -2.68776 0.000937689 10
8.34762 -10.9976 -2.18679 0.000962136 10
8.35856 -11.012 -1.69749 0.00098212 10
8.77442 -11.5599 -1.2697 0.000992081 10
8.76842 -11.552 -0.760063 0.00100215 10
8.77917 -11.5661 -0.253459 0.00100718 10
8.77722 -11.5636 0.253403 0.00100712 10
8.77463 -11.5602 0.760602 0.00100198 10
8.35299 -11.0047 1.20872 0.000779173 10
8.3443 -10.9932 1.6946 0.000767817 10
8.34315 -10.9917 2.18562 0.000752779 10
8.33988 -10.9874 2.6813 0.000734232 10
8.34941 -10.9999 3.18825 0.000712387 10
8.34687 -10.9966 3.69921 0.000687495 10
6.16592 -8.06469 -2.72015 0.000387514 1
7.14193 -9.34127 -2.7147 0.000224808 1
8.35782 -10.9316 -2.67478 0.000953418 10
8.35231 -10.9244 -2.17802 0.000978247 10
8.35067 -10.9222 -1.68814 0.000998541 10
8.84673 -11.571 -1.27432 0.000979697 10
8.84144 -11.5641 -0.762889 0.000989645 10
8.8407 -11.5632 -0.254069 0.000994621 10
8.83668 -11.5579 0.253953 0.000994565 10
8.83865 -11.5605 0.762648 0.000989478 10
8.34811 -10.9189 1.20249 0.000792179 10
8.34802 -10.9188 1.6876 0.000780645 10
8.3483 -10.9191 2.17697 0.000765371 10
8.35285 -10.9251 2.67319 0.000746533 10
8.34599 -10.9161 3.17237 0.000724345 10
8.35179 -10.9237 3.68447 0.000699061 10
6.19446 -8.04367 -2.72034 0.000387543 1
7.18153 -9.32542 -2.71737 0.000224828 1
8.3623 -10.8587 -2.66407 0.000969282 10
8.37075 -10.8696 -2.17292 0.000994493 10
8.35886 -10.8542 -1.68212 0.0010151 10
12.7102 -16.5045 -1.82251 0.000252991 10
12.7001 -16.4914 -1.09086 0.000255996 10
12.6945 -16.4842 -0.363165 0.000257564 10
12.7005 -16.4919 0.363335 0.000257674 10
8.35395 -10.8478 1.19787 0.000805294 10
8.35076 -10.8437 1.68049 0.00079358 10
8.35819 -10.8533 2.16966 0.000778068 10
8.3578 -10.8528 2.66263 0.000758937 10
8.3469 -10.8387 3.15832 0.000736404 10
8.35206 -10.8454 3.66786 0.000710725 10
6.22567 -8.02609 -2.72172 0.000387572 1
7.22071 -9.30889 -2.71988 0.000224848 1
8.36523 -10.7844 -2.65299 0.000985277 10
8.37004 -10.7906 -2.16295 0.00101088 10
8.3595 -10.777 -1.67467 0.0010318 10
12.7056 -16.38 -1.81365 0.000257729 10
12.7147 -16.3917 -1.08719 0.000260786 10
12.702 -16.3753 -0.361742 0.000262381 10
12.7016 -16.3748 0.361731 0.000262492 10
8.37087 -10.7917 1.19489 0.000818517 10
8.37023 -10.7908 1.67682 0.000806623 10
8.35915 -10.7766 2.16013 0.000790872 10
8.35529 -10.7716 2.64984 0.000771444 10
8.36248 -10.7809 3.14996 0.000748563 10
8.36469 -10.7837 3.65685 0.000722487 10
6.24216 -7.9896 -2.71672 0.000387601 1
7.25379 -9.28443 -2.72011 0.000224868 1
8.37177 -10.7154 -2.64319 0.0010014 10
8.37673 -10.7217 -2.15499 0.00102739 10
8.36627 -10.7083 -1.66853 0.00104863 10
12.7121 -16.2707 -1.80645 0.000262516 10
12.7225 -16.284 -1.08299 0.000265624 10
12.7096 -16.2676 -0.360339 0.000267245 10
12.7133 -16.2723 0.360444 0.000267359 10
8.37372 -10.7179 1.18995 0.000831849 10
8.37476 -10.7192 1.67022 0.000819771 10
8.36288 -10.704 2.15143 0.00080378 10
8.37192 -10.7156 2.64323 0.000784055 10
8.37162 -10.7152 3.13929 0.000760822 10
8.36001 -10.7003 3.63846 0.000734346 10
6.28006 -7.98053 -2.72108 0.000387629 1
7.27367 -9.24319 -2.71545 0.000224887 1
8.37514 -10.6429 -2.6325 0.00101766 10
8.37989 -10.6489 -2.14623 0.00104404 10
8.37019 -10.6366 -1.6619 0.0010656 10
12.7538 -16.2072 -1.80434 0.000297749 10
12.741 -16.191 -1.07975 0.000301125 10
12.746 -16.1972 -0.359765 0.000302815 10
12.7467 -16.1981 0.359785 0.000302795 10
8.38031 -10.6495 1.18559 0.000845287 10
8.36954 -10.6358 1.66177 0.000833027 10
8.37586 -10.6438 2.1452 0.000816792 10
8.37108 -10.6377 2.63123 0.000796768 10
8.36443 -10.6293 3.12266 0.000773182 10
8.36984 -10.6362 3.62655 0.000746302 10
6.29926 -7.94769 -2.71736 0.000387658 1
7.3126 -9.22621 -2.71795 0.000224907 1
8.37404 -10.5654 -2.62055 0.00103405 10
8.3729 -10.564 -2.13498 0.00106082 10
8.37808 -10.5705 -1.65613 0.00108271 10
12.8439 -16.205 -1.80906 0.000293452 10
12.8332 -16.1915 -1.08277 0.000296783 10
12.8344 -16.193 -0.360664 0.00029845 10
12.8452 -16.2066 0.360967 0.000298431 10
8.36681 -10.5563 1.17846 0.000858833 10
8.36833 -10.5582 1.6542 0.000846388 10
8.37368 -10.565 2.13518 0.000829908 10
8.37207 -10.5629 2.61993 0.000809581 10
8.37714 -10.5693 3.11362 0.00078564 10
8.37054 -10.561 3.61086 0.000758354 10
6.32954 -7.92888 -2.71847 0.000387687 1
7.3447 -9.20055 -2.71792 0.000224927 1
8.395 -10.5162 -2.6156 0.00105056 10
8.38303 -10.5012 -2.1282 0.00107774 10
8.38526 -10.504 -1.65029 0.00109994 10
12.9322 -16.1999 -1.81352 0.000289183 10
12.9464 -16.2177 -1.08754 0.000292469 10
12.9308 -16.1981 -0.36178 0.000294114 10
12.9367 -16.2056 0.361947 0.000294095 10
8.38796 -10.5074 1.17627 0.000872484 10
8.38251 -10.5006 1.64975 0.000859852 10
8.37918 -10.4964 2.12722 0.000843126 10
8.37118 -10.4864 2.60818 0.000822496 10
8.36823 -10.4827 3.09669 0.000798196 10
8.37635 -10.4929 3.59755 0.000770501 10
6.3573 -7.90689 -2.71852 0.000387715 1
7.36689 -9.16256 -2.71428 0.000224947 1
8.38619 -10.4303 -2.6015 0.00106721 10
8.38737 -10.4318 -2.12005 0.00109478 10
8.38134 -10.4243 -1.64234 0.00111732 10
13.031 -16.2073 -1.81943 0.000284941 10
13.0421 -16.2211 -1.09081 0.000288183 10
13.0442 -16.2237 -0.363366 0.000289806 10
13.0425 -16.2216 0.363319 0.000289787 10
8.3929 -10.4387 1.17185 0.000886241 10
8.38285 -10.4262 1.64264 0.000873422 10
8.39046 -10.4356 2.12083 0.000856447 10
8.38306 -10.4264 2.60053 0.000835511 10
8.37399 -10.4151 3.08534 0.00081085 10
8.38436 -10.428 3.58533 0.000782743 10
6.37633 -7.87412 -2.71489 0.000387743 1
7.40244 -9.14126 -2.71561 0.000224967 1
8.40079 -10.3741 -2.59478 0.00108398 10
8.39085 -10.3618 -2.11177 0.00111196 10
8.40117 -10.3746 -1.63912 0.00113482 10
13.1306 -16.2149 -1.82542 0.000280729 10
13.143 -16.2302 -1.0945 0.000283926 10
13.1393 -16.2257 -0.364438 0.000285526 10
13.1378 -16.2239 0.364396 0.000285508 10
8.38355 -10.3528 1.16549 0.000900101 10
8.38938 -10.36 1.63682 0.000887092 10
8.39094 -10.362 2.11179 0.000869868 10
8.38563 -10.3554 2.5901 0.000848624 10
8.39386 -10.3656 3.07932 0.0008236 10
8.37942 -10.3477 3.56775 0.000795079 10
6.41112 -7.86081 -2.718 0.000387772 1
7.44482 -9.12826 -2.71945 0.000224987 1
8.3967 -10.2954 -2.5824 0.00110088 10
8.39282 -10.2906 -2.10321 0.00112926 10
8.41087 -10.3128 -1.63398 0.000208457 10
13.2336 -16.226 -1.83186 0.000276544 10
13.226 -16.2166 -1.09669 0.000279698 10
13.2368 -16.2299 -0.365567 0.000281276 10
13.2279 -16.219 0.36532 0.000281257 10
8.38501 -10.281 1.16069 0.000914065 10
8.38737 -10.2839 1.62942 0.000900867 10
8.39437 -10.2925 2.1036 0.000883391 10
8.38251 -10.278 2.57804 0.000861837 10
8.39387 -10.2919 3.06612 0.000836447 10
8.38607 -10.2823 3.55528 0.000807509 10
6.43385 -7.8327 -2.71603 0.0003878 1
7.46333 -9.08601 -2.71461 0.000225006 1
8.40502 -10.2324 -2.57396 0.0011179 10
8.39468 -10.2199 -2.09473 0.00114669 10
8.44695 -10.2835 -1.63401 0.000208492 10
17.1162 -20.8376 -2.35923 9.538e-05 10
17.1177 -20.8395 -1.41336 9.66317e-05 10
17.111 -20.8313 -0.470553 9.72845e-05 10
17.1228 -20.8456 0.470876 9.73289e-05 10
8.38897 -10.2129 1.1563 0.000928133 10
8.40062 -10.2271 1.62505 0.000914744 10
8.40243 -10.2293 2.09666 0.000897015 10
8.3864 -10.2098 2.56826 0.000875148 10
8.40261 -10.2295 3.05625 0.00084939 10
8.38876 -10.2126 3.54129 0.000820032 10
6.46046 -7.80936 -2.71574 0.000387828 1
7.49172 -9.05593 -2.71342 0.000225026 1
8.39821 -10.1517 -2.56101 0.00113505 10
8.41309 -10.1697 -2.09045 0.00116425 10
8.49617 -10.2701 -1.63658 0.000208527 10
17.1479 -20.7282 -2.35361 0.000103151 10
17.148 -20.7284 -1.40988 0.000104448 10
17.1627 -20.7461 -0.469979 0.000105098 10
17.1615 -20.7447 0.469946 0.00010509 10
8.41071 -10.1668 1.1544 0.000942303 10
8.40918 -10.165 1.61983 0.000928721 10
8.40694 -10.1623 2.08892 0.000910737 10
8.40519 -10.1601 2.56314 0.000888556 10
8.40086 -10.1549 3.0427 0.000862427 10
8.3948 -10.1476 3.52886 0.000832646 10
6.49656 -7.79741 -2.71945 0.000387856 1
7.52725 -9.03449 -2.71485 0.000225045 1
8.40646 -10.0897 -2.55277 0.00115232 10
8.4128 -10.0974 -2.08161 0.00118194 10
8.52876 -10.2365 -1.63597 0.000208562 10
17.2846 -20.7457 -2.36242 0.00010142 10
17.2824 -20.7429 -1.41496 0.000102697 10
17.2937 -20.7565 -0.471579 0.000103336 10
17.2788 -20.7386 0.471172 0.000103329 10
8.40259 -10.0851 1.14845 0.000956574 10
8.41373 -10.0985 1.61391 0.000942798 10
8.40794 -10.0915 2.0804 0.000924558 10
8.41065 -10.0948 2.55404 0.000902061 10
8.40948 -10.0934 3.03304 0.000875559 10
8.39995 -10.0819 3.51621 0.000845352 10
6.52807 -7.77985 -2.72126 0.000387885 1
7.56754 -9.01865 -2.71801 0.000225065 1
8.42279 -10.0379 -2.54707 0.00116972 10
8.41513 -10.0288 -2.07351 0.00119975 10
8.56954 -10.2128 -1.63694 0.000208596 10
17.4186 -20.7587 -2.37082 9.97038e-05 10
17.4232 -20.7642 -1.42055 0.000100961 10
17.4082 -20.7462 -0.472723 0.00010159 10
17.4051 -20.7426 0.47264 0.000101583 10
8.40439 -10.016 1.14391 0.000970945 10
8.40352 -10.0149 1.60523 0.000956974 10
8.40609 -10.018 2.07128 0.000938477 10
8.07031 -9.61782 2.44048 0.0010364 10
8.07002 -9.61747 2.89848 0.00100629 10
8.06468 -9.61111 3.3618 0.000971964 10
6.54995 -7.75082 -2.71909 0.000387913 1
7.59329 -8.98545 -2.71598 0.000225084 1
8.41446 -9.95717 -2.53402 0.00118724 10
8.41328 -9.95578 -2.06448 0.00121769 10
13.2981 -15.7362 -2.52968 4.8712e-05 10
17.5391 -20.7547 -2.37734 9.80025e-05 10
17.5372 -20.7525 -1.42393 9.92398e-05 10
17.5497 -20.7673 -0.474596 9.98595e-05 10
17.5481 -20.7654 0.474553 9.98522e-05 10
8.40718 -9.94856 1.13955 0.000985417 10
8.40636 -9.94759 1.59913 0.000971249 10
8.40734 -9.94875 2.06302 0.000952492 10
8.07771 -9.55868 2.43261 0.00105174 10
8.08107 -9.56265 2.89045 0.00102121 10
8.08177 -9.56348 3.35499 0.000986405 10
6.58139 -7.73311 -2.72092 0.00038794 1
7.63129 -8.96673 -2.71836 0.000225104 1
8.42125 -9.89494 -2.52565 0.00120487 10
8.41367 -9.88603 -2.05609 0.00123575 10
13.3429 -15.6779 -2.52778 4.87212e-05 10
17.8393 -20.9611 -2.4081 9.27034e-05 10
17.8344 -20.9554 -1.44211 6.20102e-05 10
17.8386 -20.9602 -0.480426 6.23994e-05 10
17.8335 -20.9542 0.480287 6.23948e-05 10
8.42597 -9.90048 1.13741 0.000999986 10
8.41273 -9.88493 1.59377 0.000985622 10
8.4146 -9.88713 2.05632 0.000966603 10
8.10802 -9.52689 2.43171 0.00109107 10
8.11406 -9.53399 2.89033 0.00105894 10
8.12637 -9.54845 3.35965 0.0010224 10
6.59561 -7.69523 -2.71567 0.000387969 1
7.66391 -8.94164 -2.71884 0.000225123 1
8.42597 -9.83075 -2.51676 0.00122263 10
8.43406 -9.84019 -2.05267 0.00125392 10
13.3905 -15.6229 -2.52644 4.87304e-05 10
17.9811 -20.9789 -2.41734 9.1089e-05 10
18.1017 -21.1196 -1.45775 5.74485e-05 10
18.086 -21.1013 -0.485103 5.7841e-05 10
18.0866 -21.102 0.485119 5.78671e-05 10
8.4253 -9.82997 1.13268 0.00101465 10
8.42656 -9.83144 1.58988 0.00100009 10
8.41604 -9.81917 2.04828 0.00098081 10
8.16901 -9.53095 2.44001 0.00107637 10
8.16912 -9.53108 2.89807 0.00104465 10
8.17169 -9.53408 3.36461 0.00100857 10
6.6357 -7.68754 -2.72111 0.000387996 1
7.69323 -8.9127 -2.71819 0.000225143 1
8.42318 -9.75835 -2.50574 0.00124051 10
8.43529 -9.77239 -2.04465 0.00127223 10
13.4494 -15.5813 -2.52728 4.87397e-05 10
18.1001 -20.9692 -2.42349 8.94894e-05 10
18.1156 -20.9871 -1.45296 5.98623e-05 10
18.1012 -20.9704 -0.483544 6.02391e-05 10
18.1054 -20.9753 0.483656 6.02346e-05 10
8.42462 -9.76003 1.128 0.00102942 10
8.41719 -9.75141 1.58168 0.00101466 10
8.41827 -9.75266 2.04053 0.000995111 10
8.2398 -9.54591 2.45119 0.00106175 10
8.22983 -9.53436 2.90779 0.00103043 10
8.23585 -9.54133 3.37729 0.000994812 10
6.65252 -7.65285 -2.71704 0.000388024 1
7.72564 -8.88734 -2.71867 0.000225162 1
8.43892 -9.70788 -2.50033 0.0012585 10
8.44366 -9.71332 -2.03845 0.00129065 10
13.5142 -15.5463 -2.52925 4.87489e-05 10
18.2364 -20.9786 -2.43191 8.79044e-05 10
18.3592 -21.1198 -1.46658 5.62448e-05 10
18.3677 -21.1296 -0.48869 5.66301e-05 10
18.3707 -21.133 0.488769 5.66556e-05 10
8.42963 -9.69719 1.12413 0.00104428 10
8.42341 -9.69003 1.57648 0.00102932 10
8.39168 -9.65352 2.0259 0.000229935 10
8.29822 -9.54602 2.45864 0.00104722 10
8.30723 -9.55638 2.92333 0.0010163 10
8.29226 -9.53915 3.38674 0.000981139 10
6.68408 -7.63516 -2.71903 0.000388052 1
7.74847 -8.85101 -2.71581 0.000225181 1
8.44496 -9.6466 -2.49212 0.00127661 10
8.43681 -9.63729 -2.02866 0.00130919 10
13.5575 -15.4866 -2.52722 4.87581e-05 10
18.3768 -20.9916 -2.44084 8.63346e-05 10
18.3848 -21.0007 -1.46276 5.77542e-05 10
18.3775 -20.9925 -0.486998 5.81188e-05 10
18.3747 -20.9893 0.486924 5.81144e-05 10
8.43022 -9.62976 1.11972 0.00105924 10
8.42606 -9.62502 1.57068 0.00104407 10
8.41121 -9.60805 2.02251 0.000229906 10
8.36525 -9.55555 2.4686 0.00103277 10
8.36463 -9.55484 2.93177 0.00100226 10
8.36428 -9.55444 3.40252 0.000967549 10
6.70228 -7.60225 -2.71562 0.000388079 1
7.77426 -8.81817 -2.71405 0.0002252 1
8.45295 -9.58799 -2.48459 0.00129483 10
8.43657 -9.56941 -2.02056 0.00132785 10
13.6124 -15.4403 -2.52739 4.87672e-05 10
18.5089 -20.9942 -2.44864 8.47798e-05 10
18.6263 -21.1274 -1.4761 5.50765e-05 10
18.6318 -21.1336 -0.491778 5.54547e-05 10
18.6417 -21.1448 0.492039 5.54796e-05 10
8.44193 -9.57549 1.11683 0.00107429 10
8.43969 -9.57295 1.56698 0.00105892 10
8.4394 -9.57262 2.02124 0.00103857 10
8.42903 -9.56085 2.47756 0.00101841 10
8.43176 -9.56396 2.94358 0.000988298 10
8.43107 -9.56317 3.41609 0.000954042 10
6.72867 -7.57869 -2.71558 0.000388107 1
7.8089 -8.79537 -2.7154 0.00022522 1
8.45498 -9.52307 -2.4754 0.00131317 10
8.45115 -9.51876 -2.01608 0.00134662 10
13.6658 -15.3922 -2.52731 4.87763e-05 10
18.6622 -21.0197 -2.45921 8.32402e-05 10
18.6444 -20.9997 -1.47172 5.56862e-05 10
18.6465 -21.0021 -0.49023 5.60387e-05 10
18.6478 -21.0035 0.490263 5.60344e-05 10
8.44169 -9.5081 1.1124 0.00108943 10
8.44407 -9.51078 1.56162 0.00107386 10
8.43274 -9.49803 2.01169 0.00105324 10
8.4511 -9.51871 2.47426 0.000647544 10
8.45275 -9.52056 2.93929 0.000628394 10
8.46709 -9.53672 3.41717 0.000606611 10
6.75428 -7.55425 -2.71525 0.000388135 1
7.84812 -8.77765 -2.71837 0.000225239 1
8.45823 -9.46001 -2.46667 0.00133162 10
8.45194 -9.45298 -2.00839 0.00136551 10
13.7123 -15.3363 -2.52599 4.87854e-05 10
18.7859 -21.0109 -2.46583 8.17157e-05 10
18.9002 -21.1388 -1.48608 5.39418e-05 10
18.9129 -21.1529 -0.495288 5.4313e-05 10
18.9102 -21.1499 0.495217 5.43373e-05 10
8.43911 -9.43863 1.10771 0.00110467 10
8.4493 -9.45003 1.55648 0.00108889 10
8.43634 -9.43553 2.00468 0.001068 10
8.49675 -9.5031 2.4779 0.000650476 10
8.50303 -9.51012 2.94521 0.000631496 10
8.51185 -9.51998 3.4218 0.000609858 10
6.77678 -7.52638 -2.71372 0.000388162 1
7.86355 -8.73336 -2.71314 0.000225258 1
8.45346 -9.38852 -2.4557 0.00135019 10
8.45867 -9.3943 -2.00218 0.00138451 10
13.7703 -15.2935 -2.52684 4.87945e-05 10
18.9276 -21.0212 -2.47478 8.02065e-05 10
18.9264 -21.0199 -1.48236 5.36588e-05 10
18.935 -21.0295 -0.493943 5.39995e-05 10
18.936 -21.0306 0.493968 5.39953e-05 10
8.45635 -9.39173 1.10567 0.00112 10
8.44465 -9.37873 1.54958 0.00110401 10
8.45354 -9.38861 2.00097 0.00108285 10
6.8202 -7.52163 -2.72058 0.000388189 1
7.89555 -8.70758 -2.71368 0.000225277 1
8.46395 -9.33444 -2.44927 0.00136886 10
8.44979 -9.31882 -1.99237 0.00140363 10
13.8192 -15.2404 -2.52603 4.88036e-05 10
19.0661 -21.027 -2.48328 7.87127e-05 10
19.1709 -21.1425 -1.49572 5.28389e-05 10
19.1761 -21.1483 -0.498303 5.32034e-05 10
19.1724 -21.1443 0.498207 5.32271e-05 10
8.44638 -9.31506 1.1001 0.00113542 10
8.4585 -9.32843 1.54614 0.00111923 10
8.44203 -9.31026 1.99054 0.00109779 10
6.83334 -7.48346 -2.71538 0.000388217 1
7.93185 -8.68649 -2.71571 0.000225296 1
8.46335 -9.26855 -2.43972 0.00138764 10
8.46766 -9.27328 -1.98894 0.00142286 10
13.8742 -15.1942 -2.52638 4.88126e-05 10
19.2238 -21.0527 -2.49423 7.72343e-05 10
19.2131 -21.041 -1.49327 5.16724e-05 10
19.2259 -21.055 -0.497683 5.20014e-05 10
19.2219 -21.0507 0.49758 5.19974e-05 10
8.46126 -9.26627 1.09782 0.00115093 10
8.45269 -9.25688 1.53916 0.00113452 10
8.45957 -9.26441 1.98704 0.00111281 10
6.8706 -7.47172 -2.71981 0.000388244 1
7.95587 -8.65195 -2.71358 0.000225315 1
8.4724 -9.21367 -2.43304 0.00140653 10
8.46676 -9.20753 -1.98116 0.0014422 10
13.9379 -15.1574 -2.52833 4.88217e-05 10
19.3557 -21.0492 -2.50179 7.57713e-05 10
19.4432 -21.1444 -1.50541 5.17664e-05 10
19.4488 -21.1504 -0.501539 5.21243e-05 10
19.4405 -21.1414 0.501326 5.21474e-05 10
8.45752 -9.19749 1.09317 0.00116652 10
8.45144 -9.19088 1.53308 0.00114991 10
8.4502 -9.18952 1.97729 0.00112792 10
6.89505 -7.44598 -2.71918 0.000388271 1
7.98399 -8.62193 -2.71289 0.000225334 1
8.47817 -9.15559 -2.42551 0.00142553 10
8.46677 -9.14328 -1.97369 0.00146164 10
13.9904 -15.1083 -2.52826 4.88307e-05 10
19.514 -21.0732 -2.51273 7.43237e-05 10
19.5056 -21.0641 -1.50454 4.9727e-05 10
19.5047 -21.0632 -0.501082 5.00447e-05 10
19.5015 -21.0597 0.500999 5.00408e-05 10
8.47373 -9.1508 1.09112 0.00118221 10
8.45389 -9.12938 1.52774 0.00116538 10
8.4548 -9.13035 1.9709 0.00114312 10
6.92301 -7.42402 -2.71997 0.000388298 1
8.02112 -8.60161 -2.71529 0.000225353 1
8.46693 -9.07967 -2.41321 0.00144463 10
8.48193 -9.09576 -1.96981 0.0014812 10
14.0392 -15.0552 -2.52757 4.88397e-05 10
19.715 -21.1418 -1.51499 5.07228e-05 10
19.7081 -21.1344 -0.50441 5.10743e-05 10
19.7098 -21.1362 0.504452 5.10968e-05 10
8.45818 -9.07028 1.08504 0.00119798 10
8.46067 -9.07296 1.52323 0.00118094 10
8.46771 -9.08051 1.96651 0.00115839 10
6.94406 -7.39467 -2.71808 0.000388325 1
8.04866 -8.57096 -2.71447 0.000225371 1
8.47138 -9.0211 -2.40549 0.00146384 10
8.47003 -9.01967 -1.95972 0.00150086 10
14.0916 -15.0061 -2.52756 4.88486e-05 10
19.7941 -21.0786 -1.51541 4.78232e-05 10
19.8065 -21.0917 -0.505039 4.81297e-05 10
19.8046 -21.0898 0.504991 4.81259e-05 10
8.47009 -9.01973 1.08252 0.00121383 10
8.4656 -9.01495 1.51844 0.00119659 10
8.47302 -9.02286 1.96041 0.00117375 10
6.9611 -7.36116 -2.71468 0.000388352 1
8.07219 -8.5361 -2.71234 0.00022539 1
8.47782 -8.96504 -2.39841 0.00148315 10
8.47599 -8.96311 -1.95385 0.00152062 10
14.1329 -14.9451 -2.52559 4.88575e-05 10
19.9837 -21.1321 -1.52426 4.97069e-05 10
19.9836 -21.1321 -0.507672 5.00521e-05 10
19.9856 -21.1341 0.507721 5.00741e-05 10
8.46862 -8.95532 1.07833 0.00122977 10
8.47292 -8.95987 1.51414 0.00121231 10
8.47829 -8.96554 1.95438 0.0011892 10
8.53443 -9.0249 2.41443 0.000724551 10
8.53672 -9.02732 2.86842 0.000703544 10
8.52951 -9.0197 3.32632 0.000679594 10
6.98876 -7.33892 -2.71546 0.000388379 1
8.11384 -8.52037 -2.71632 0.000225409 1
8.48557 -8.91072 -2.39179 0.00150256 10
8.49035 -8.91574 -1.94997 0.00154049 10
14.1961 -14.9073 -2.52757 4.88665e-05 10
20.2601 -21.2752 -1.53967 4.78852e-05 10
20.2433 -21.2575 -0.512381 4.82191e-05 10
20.2483 -21.2628 0.512507 4.82403e-05 10
8.48548 -8.91064 1.07651 0.00124579 10
8.48122 -8.90616 1.51005 0.00122812 10
8.48326 -8.9083 1.94834 0.00120472 10
7.01806 -7.31836 -2.7169 0.000388406 1
8.13963 -8.48793 -2.71502 0.000225428 1
8.47861 -8.84141 -2.38112 0.00152207 10
8.49594 -8.85949 -1.94414 0.00156046 10
14.2364 -14.8456 -2.52551 4.88753e-05 10
20.264 -21.1311 -1.53435 4.87172e-05 10
20.2633 -21.1304 -0.511018 4.90564e-05 10
20.2463 -21.1126 0.510588 4.90779e-05 10
8.47723 -8.83998 1.07154 0.0012619 10
8.48559 -8.8487 1.50532 0.00124401 10
8.48296 -8.84595 1.94117 0.00122033 10
7.04751 -7.29791 -2.71842 0.000388433 1
8.17381 -8.46423 -2.71655 0.000225446 1
8.49775 -8.79968 -2.37785 0.00154168 10
8.49975 -8.80176 -1.93797 0.00158053 10
14.2887 -14.7964 -2.5256 4.88842e-05 10
20.5212 -21.2503 -1.5482 4.69463e-05 10
20.524 -21.2532 -0.515719 4.72744e-05 10
20.5102 -21.239 0.515371 4.72951e-05 10
8.49251 -8.79426 1.06959 0.00127808 10
8.48429 -8.78574 1.49964 0.00125998 10
8.48629 -8.78781 1.9349 0.00123601 10
8.1366 -8.4257 2.2768 0.00136169 10
8.15135 -8.44097 2.70908 0.00132276 10
8.14142 -8.43069 3.14037 0.00127836 10
7.076 -7.27641 -2.7196 0.00038846 1
8.19714 -8.42931 -2.71451 0.000225465 1
8.49749 -8.73817 -2.36923 0.00156139 10
8.49552 -8.73614 -1.93004 0.0016007 10
14.3486 -14.755 -2.52708 4.8893e-05 10
20.5487 -21.1307 -1.5447 4.32468e-05 10
20.5515 -21.1335 -0.514552 4.35261e-05 10
20.5474 -21.1294 0.514449 4.35226e-05 10
8.49907 -8.73979 1.06657 0.00129435 10
8.49949 -8.74023 1.49693 0.00127602 10
8.47974 -8.71991 1.92646 0.00125177 10
8.14255 -8.37317 2.27027 0.00137891 10
8.14529 -8.37599 2.69734 0.00133951 10
8.14865 -8.37944 3.13186 0.00129458 10
7.08932 -7.23938 -2.71499 0.000388486 1
8.23239 -8.40664 -2.71645 0.000225483 1
8.49915 -8.67905 -2.36123 0.00158119 10
8.49653 -8.67637 -1.92338 0.00162097 10
14.385 -14.6894 -2.52443 4.89019e-05 10
20.7915 -21.2315 -1.55737 4.60306e-05 10
20.7859 -21.2258 -0.518562 4.6353e-05 10
20.801 -21.2413 0.518939 4.63732e-05 10
8.51325 -8.69345 1.06453 0.00015133 10
8.50121 -8.68115 1.49188 0.00129215 10
8.4839 -8.66348 1.92052 0.0012676 10
8.16286 -8.33564 2.26781 0.00125277 10
8.1681 -8.34099 2.69523 0.0012165 10
8.15576 -8.32839 3.1234 0.00117523 10
7.11916 -7.21927 -2.71675 0.000388513 1
8.25845 -8.37458 -2.71538 0.000225501 1
8.51105 -8.63073 -2.35615 0.00160109 10
8.49472 -8.61417 -1.91615 0.00164134 10
8.51049 -8.63016 -1.48822 0.00110585 10
8.49066 -8.61005 -1.05794 0.00112244 10
8.49223 -8.61164 -0.633849 0.00113373 10
8.49342 -8.61284 -0.211141 0.00113959 10
8.49846 -8.61795 0.211266 0.00113995 10
8.49522 -8.61468 0.634073 0.00113482 10
8.4902 -8.60958 1.05788 0.00112425 10
8.48998 -8.60936 1.48463 0.00130835 10
8.49726 -8.61674 1.91672 0.00128351 10
8.22225 -8.33787 2.2762 0.0012337 10
8.2234 -8.33904 2.70386 0.00119796 10
8.23189 -8.34764 3.14138 0.00115728 10
7.14965 -7.19975 -2.71878 0.000388539 1
8.29177 -8.34986 -2.71674 0.00022552 1
8.50853 -8.56814 -2.34716 0.00162108 10
8.5157 -8.57537 -1.91412 0.0016618 10
8.50712 -8.56672 -1.48239 0.000994551 10
8.49915 -8.55869 -1.05527 0.00100907 10
8.50594 -8.56553 -0.632637 0.00101882 10
8.51011 -8.56973 -0.210811 0.00102369 10
8.51602 -8.57569 0.210957 0.00102363 10
8.51151 -8.57114 0.633051 0.00101863 10
8.50462 -8.5642 1.05595 0.00100876 10
8.49797 -8.5575 1.4808 0.00132462 10
8.49126 -8.55075 1.90863 0.0012995 10
8.29732 -8.35545 2.2889 0.00121478 10
8.28277 -8.34079 2.71379 0.00117955 10
8.28616 -8.34421 3.15095 0.00113946 10
7.1687 -7.1687 -2.71649 0.000388566 1
8.30545 -8.30545 -2.7117 0.000225538 1
8.50799 -8.508 -2.33881 0.00164116 10
8.50522 -8.50522 -1.90508 0.00168235 10
8.56997 -8.56998 -1.48812 0.00097912 10
8.57582 -8.57582 -1.06107 0.000993428 10
8.57804 -8.57804 -0.635768 0.00100303 10
8.56447 -8.56447 -0.211416 0.00100783 10
8.57659 -8.57659 0.211715 0.00100777 10
8.56776 -8.56776 0.635006 0.00100285 10
8.56604 -8.56604 1.05986 0.000993122 10
8.49443 -8.49444 1.475 0.00134097 10
8.49593 -8.49593 1.903 0.00131555 10
8.34865 -8.34865 2.295 0.001196 10
8.35317 -8.35317 2.72728 0.00116128 10
8.35147 -8.35147 3.16469 0.00112177 10
7.18594 -7.13595 -2.71357 0.000388592 1
8.35139 -8.29329 -2.71723 0.000225557 1
8.50433 -8.44517 -2.32968 0.00166133 10
8.51626 -8.45701 -1.90093 0.00170299 10
8.64116 -8.58105 -1.49527 0.000963807 10
8.63376 -8.5737 -1.06453 0.000977905 10
8.64026 -8.58014 -0.638156 0.000987371 10
8.63183 -8.57178 -0.212338 0.0009921 10
8.64769 -8.58753 0.212728 0.000992039 10
8.628 -8.56798 0.637251 0.000987188 10
8.64201 -8.58189 1.06554 0.000151197 10
8.51343 -8.4542 1.47317 0.0013574 10
8.50155 -8.44241 1.89765 0.00133168 10
8.41708 -8.35852 2.30578 0.00117736 10
8.40202 -8.34357 2.73371 0.00114315 10
8.41869 -8.36012 3.17908 0.00110422 10
7.22439 -7.12421 -2.71868 0.000388618 1
8.36816 -8.25213 -2.7133 0.000225575 1
8.52631 -8.40808 -2.32765 0.00168159 10
8.50726 -8.3893 -1.89237 0.00172373 10
14.653 -14.4498 -2.52682 4.89457e-05 10
8.67617 -8.55586 1.06606 0.000151164 10
8.51395 -8.3959 1.46818 0.00137389 10
8.5175 -8.3994 1.89465 0.00134788 10
8.46887 -8.35144 2.31197 0.00115887 10
8.46688 -8.34948 2.74531 0.00112516 10
8.46575 -8.34836 3.18583 0.00108681 10
7.25338 -7.10303 -2.72024 0.000388644 1
8.39462 -8.22062 -2.71256 0.000225593 1
8.51505 -8.33855 -2.31661 0.00170194 10
8.52115 -8.34453 -1.88897 0.00174455 10
8.52477 -8.34807 -1.46501 0.0011753 10
8.5158 -8.33928 -1.04278 0.00119286 10
8.52222 -8.34558 -0.625119 0.0012048 10
8.50859 -8.33222 -0.207871 0.001211 10
8.5225 -8.34585 0.208211 0.00121138 10
8.50582 -8.32952 0.623917 0.00120594 10
8.52007 -8.34347 1.0433 0.00119474 10
8.50467 -8.32839 1.46156 0.00139045 10
8.5027 -8.32646 1.88488 0.00136415 10
8.50955 -8.33316 2.31512 0.0013317 10
8.51768 -8.34113 2.75233 0.00129347 10
8.51896 -8.34238 3.19487 0.00124988 10
7.26457 -7.06448 -2.71517 0.00038867 1
8.42873 -8.19658 -2.71432 0.000225611 1
8.51396 -8.27947 -2.30844 0.00172237 10
8.53144 -8.29646 -1.88482 0.00176546 10
8.52644 -8.2916 -1.46032 0.00101691 10
8.54581 -8.31044 -1.04289 0.0010317 10
8.53307 -8.29805 -0.623787 0.00104163 10
8.5452 -8.30985 -0.208055 0.00104659 10
8.54294 -8.30765 0.208 0.00104653 10
8.53987 -8.30467 0.624284 0.00104144 10
8.52668 -8.29184 1.04056 0.00103138 10
8.52682 -8.29198 1.46038 0.00140709 10
8.50972 -8.27534 1.88002 0.00138049 10
8.51944 -8.2848 2.30993 0.00134767 10
8.51978 -8.28512 2.74364 0.00130901 10
8.50737 -8.27305 3.17967 0.00126492 10
7.29327 -7.04303 -2.71669 0.000388696 1
8.45943 -8.16918 -2.71501 0.000225629 1
8.51872 -8.22644 -2.30193 0.00174289 10
8.53079 -8.23809 -1.87831 0.00178646 10
8.60701 -8.3117 -1.46914 0.00100062 10
8.59493 -8.30003 -1.04535 0.00101519 10
8.59484 -8.29994 -0.62618 0.00102498 10
8.59588 -8.30094 -0.208582 0.00102986 10
8.60436 -8.30914 0.208788 0.0010298 10
8.59615 -8.30121 0.626276 0.00102478 10
8.60731 -8.31199 1.04685 0.00101488 10
8.51442 -8.22228 1.45333 0.00142379 10
8.52335 -8.23091 1.87667 0.00139689 10
8.51115 -8.21912 2.29989 0.00136371 10
8.51945 -8.22714 2.73427 0.00132461 10
8.51962 -8.2273 3.1735 0.00128003 10
7.32721 -7.02654 -2.72018 0.000388722 1
8.48094 -8.13293 -2.71279 0.000225647 1
8.52312 -8.17338 -2.2954 0.00176349 10
8.51916 -8.16959 -1.86946 0.00180754 10
8.65957 -8.30423 -1.47315 0.000984471 10
8.66813 -8.31244 -1.05071 0.000998821 10
8.66507 -8.3095 -0.62918 0.00100846 10
8.66778 -8.3121 -0.209622 0.00101327 10
8.67104 -8.31523 0.209701 0.0010132 10
8.65478 -8.29964 0.628433 0.00100826 10
8.67054 -8.31475 1.05101 0.000998506 10
8.53178 -8.18168 1.45141 0.00144055 10
8.51639 -8.16693 1.86885 0.00141336 10
8.52 -8.17039 2.29456 0.00137981 10
8.52106 -8.17141 2.72562 0.00134028 10
8.51548 -8.16605 3.16132 0.0012952 10
7.3468 -6.99627 -2.71837 0.000388748 1
8.52411 -8.1174 -2.71751 0.000225665 1
8.54128 -8.13376 -2.29263 0.00178417 10
8.52669 -8.11986 -1.86488 0.0018287 10
14.8929 -14.1823 -2.52512 4.89888e-05 10
17.3942 -16.5643 -2.10143 0.000171436 10
17.3824 -16.553 -1.25795 0.000173574 10
17.3944 -16.5645 -0.419266 0.000174684 10
17.3853 -16.5558 0.419046 0.000174752 10
8.82447 -8.40343 1.0661 0.000195359 10
8.53786 -8.1305 1.44761 0.00145739 10
8.53196 -8.12487 1.86603 0.00142989 10
8.52094 -8.11439 2.28717 0.00139597 10
8.53279 -8.12566 2.72028 0.001356 10
8.52088 -8.11432 3.15279 0.00131043 10
7.37479 -6.97399 -2.7197 0.000388774 1
8.54692 -8.08242 -2.71577 0.00175214 10
8.53601 -8.07211 -2.28364 0.00180493 10
8.54089 -8.07672 -1.86181 0.00184994 10
8.53255 -8.06883 -1.44192 0.00124621 10
8.54022 -8.07608 -1.02835 0.00126475 10
8.53364 -8.06987 -0.615531 0.00127737 10
8.53151 -8.06784 -0.204959 0.00128391 10
8.53507 -8.07122 0.205045 0.0012843 10
8.53437 -8.07056 0.615584 0.00127855 10
8.52733 -8.0639 1.0268 0.00126671 10
8.53197 -8.06828 1.44183 0.00147428 10
8.52335 -8.06013 1.85799 0.00144648 10
8.53744 -8.07346 2.28402 0.0014122 10
8.53703 -8.07307 2.71263 0.00137179 10
8.53559 -8.07171 3.14779 0.00132571 10
7.38686 -6.93672 -2.71521 0.0003888 1
8.53034 -8.01052 -2.7016 0.0017724 10
8.5493 -8.02833 -2.27968 0.00182576 10
8.54048 -8.02005 -1.85561 0.00187126 10
8.55923 -8.03765 -1.44168 0.00104033 10
8.54768 -8.02681 -1.02587 0.00105541 10
8.55696 -8.03552 -0.615186 0.00106553 10
8.55733 -8.03587 -0.204904 0.00107059 10
8.55256 -8.03139 0.20479 0.00107052 10
8.56058 -8.03892 0.615446 0.00106533 10
8.54521 -8.02449 1.02557 0.00105507 10
8.53362 -8.01361 1.43737 0.00149124 10
8.52964 -8.00987 1.85325 0.00146314 10
8.5385 -8.01818 2.2768 0.00142848 10
8.52831 -8.00862 2.70096 0.00138764 10
8.54133 -8.02085 3.13956 0.00134106 10
7.42355 -6.92257 -2.7198 0.000388825 1
8.54257 -7.96608 -2.69665 0.00179274 10
8.54703 -7.97024 -2.27164 0.00184667 10
8.53728 -7.96114 -1.84886 0.00189266 10
8.61567 -8.03425 -1.44646 0.00102313 10
8.61128 -8.03015 -1.03013 0.00103798 10
8.61034 -8.02927 -0.617005 0.00104794 10
8.62239 -8.0405 -0.205789 0.00105292 10
8.61285 -8.03161 0.205561 0.00105285 10
8.60927 -8.02827 0.616928 0.00104774 10
8.61123 -8.0301 1.03012 0.00103765 10
8.53477 -7.9588 1.43287 0.00150826 10
8.53894 -7.96269 1.84922 0.00147986 10
8.54383 -7.96725 2.27079 0.00144482 10
8.53976 -7.96346 2.69577 0.00140354 10
8.53318 -7.95731 3.12634 0.00135646 10
7.44861 -6.89749 -2.72014 0.000388851 1
8.55114 -7.91844 -2.69062 0.00181315 10
8.55536 -7.92236 -2.26649 0.00186766 10
8.53516 -7.90365 -1.84242 0.00191414 10
8.67284 -8.03113 -1.45134 0.00100609 10
8.67262 -8.03094 -1.03411 0.0010207 10
8.67513 -8.03325 -0.619634 0.00103051 10
8.6756 -8.03369 -0.206388 0.00103541 10
8.68569 -8.04304 0.206628 0.00103534 10
8.67169 -8.03007 0.619389 0.00103031 10
8.68629 -8.0436 1.03574 0.00102037 10
8.53619 -7.9046 1.42847 0.00152534 10
8.5421 -7.91007 1.84391 0.00149663 10
8.53192 -7.90065 2.26028 0.00146122 10
8.54569 -7.91339 2.6889 0.0014195 10
8.54801 -7.91554 3.12163 0.00137191 10
7.46456 -6.86402 -2.7172 0.000388876 1
8.54913 -7.86133 -2.68133 0.00183363 10
8.54731 -7.85966 -2.25708 0.00188872 10
8.54806 -7.86035 -1.83927 0.00193568 10
12.9929 -11.9476 -2.16727 0.000527443 10
12.9927 -11.9474 -1.54424 0.000536238 10
12.9777 -11.9336 -0.92397 0.000542226 10
12.9747 -11.9309 -0.30767 0.000545332 10
12.9713 -11.9277 0.307588 0.000545519 10
12.9893 -11.9443 0.924795 0.000542783 10
8.96554 -8.24424 1.0656 0.000195151 10
8.5436 -7.85625 1.42511 0.00154248 10
8.54035 -7.85325 1.83761 0.00151347 10
8.53999 -7.85293 2.25515 0.00147768 10
8.53106 -7.84472 2.67567 0.00143551 10
8.53205 -7.84563 3.10578 0.00138742 10
7.48746 -6.83699 -2.71683 0.000388902 1
8.55354 -7.81046 -2.67415 0.00185418 10
8.54289 -7.80073 -2.24871 0.00190984 10
8.54169 -7.79964 -1.83203 0.0019573 10
8.54919 -7.80649 -1.42149 0.00131844 10
8.56175 -7.81795 -1.01436 0.00133799 10
8.54655 -7.80407 -0.606544 0.00135128 10
8.56011 -7.81646 -0.202338 0.00135817 10
8.55692 -7.81355 0.202262 0.00135858 10
8.55226 -7.80929 0.606949 0.00135251 10
