VERSION 0.7
FIELDS x y z intensity label
SIZE 4 4 4 4 4
TYPE F F F F F
COUNT 1 1 1 1 1
WIDTH 1142
HEIGHT 1
VIEWPOINT 10.0688 3.97078 2.73041 0.73107 0.000370819 0.000259145 -0.682303
POINTS 1142
DATA ascii
-23.5995 -9.53481 1.33393 6.1368e-05 10
-23.6692 -9.56298 2.23342 7.87312e-05 10
-23.6664 -9.56185 3.13408 7.7274e-05 10
-23.5925 -9.53198 4.03014 5.80621e-05 10
-23.5901 -9.531 4.94556 5.62851e-05 10
-22.8441 -9.22959 5.68815 6.19156e-05 10
-23.6677 -9.56236 6.83978 6.72658e-05 10
-9.32706 -3.8063 -2.69927 8.33999e-05 4
-10.8279 -4.4188 -2.69997 3.16963e-05 4
-12.6878 -5.17778 -2.66371 4.2224e-05 4
-15.9892 -6.52506 -2.7352 0.000237921 4
-23.4117 -9.55414 -2.21225 8.05702e-05 10
-23.4008 -9.54967 0.441165 8.20755e-05 10
-23.3857 -9.54355 1.32372 6.36085e-05 10
-23.3992 -9.54904 4.0028 6.01916e-05 10
-23.3999 -9.54933 4.91266 5.83546e-05 10
-22.6511 -9.24372 5.6481 6.41683e-05 10
-9.32591 -3.84386 -2.70281 0.000178719 4
-10.8076 -4.45456 -2.69876 9.09574e-05 4
-15.8619 -6.5378 -2.71731 0.00013648 4
-23.209 -9.56604 -2.19623 8.348e-05 10
-22.4598 -9.25724 -1.27313 0.00019407 10
-22.4737 -9.26301 -0.424296 0.000195208 10
-23.1981 -9.56155 0.43797 8.50353e-05 10
-23.1985 -9.56171 1.315 6.59035e-05 10
-22.4708 -9.2618 2.12639 0.000149402 10
-22.4522 -9.25414 2.98177 0.00014669 10
-22.4631 -9.25862 3.84817 0.000143142 10
-23.2077 -9.56551 4.87927 6.04747e-05 10
-22.4578 -9.25642 5.60792 0.000133751 10
-22.4644 -9.25916 6.51057 0.000128037 10
-9.30712 -3.87418 -2.70126 0.000209702 4
-10.8145 -4.50166 -2.7044 0.000118524 4
-12.6499 -5.26564 -2.66341 4.07456e-05 4
-15.7362 -6.55033 -2.69967 0.000185531 4
-23.0022 -9.5749 -2.17982 8.64597e-05 10
-22.4607 -9.34948 -1.27502 0.000192413 10
-22.4682 -9.3526 -0.424804 0.000193541 10
-23.0011 -9.57444 0.43488 8.80658e-05 10
-23.0152 -9.58032 1.3065 6.82533e-05 10
-22.4672 -9.3522 2.12912 0.000148125 10
-22.4744 -9.3552 2.98904 0.000145434 10
-23.0145 -9.58003 3.94834 6.46068e-05 10
-23.0018 -9.57473 4.84299 6.26461e-05 10
-22.4709 -9.35375 5.61933 0.000132597 10
-22.4702 -9.35345 6.52167 0.000126929 10
-9.30144 -3.90996 -2.70356 6.4342e-05 4
-15.6287 -6.5697 -2.68515 0.000204872 4
-22.8088 -9.58794 -2.16465 8.95098e-05 10
-22.4799 -9.44967 -1.27798 0.000190754 10
-22.4759 -9.448 -0.425571 0.000191874 10
-22.8012 -9.58473 0.43173 9.11678e-05 10
-22.8037 -9.58577 1.29638 7.06586e-05 10
-22.4674 -9.44441 2.13225 0.000146846 10
-22.4672 -9.44436 2.99245 0.000144177 10
-22.8036 -9.58575 3.91787 6.68936e-05 10
-22.7998 -9.58416 4.80747 6.48691e-05 10
-22.4717 -9.44624 5.62774 0.000131442 10
-22.4917 -9.45464 6.53745 0.000125819 10
-9.26606 -3.93321 -2.69725 0.000214479 4
-10.7813 -4.5764 -2.70402 7.85614e-05 4
-12.6002 -5.34848 -2.66075 3.70443e-05 4
-15.5002 -6.57944 -2.66701 0.000197537 4
-22.6191 -9.60123 -2.14981 9.26307e-05 10
-22.4695 -9.53771 -1.27927 0.000189094 10
-22.4931 -9.54774 -0.426525 0.000190205 10
-22.6114 -9.59797 0.428768 9.43417e-05 10
-22.6116 -9.59806 1.28736 7.31197e-05 10
-22.4875 -9.54537 2.13731 0.000145567 10
-22.4833 -9.54357 2.999 0.000142919 10
-22.6092 -9.59703 3.8902 6.92339e-05 10
-22.6161 -9.59996 4.77577 6.71442e-05 10
-22.4886 -9.54584 5.64028 0.000130287 10
-22.4879 -9.54556 6.546 0.00012471 10
-9.25736 -3.96771 -2.69873 0.00018112 4
-10.7521 -4.60835 -2.70071 9.37254e-05 4
-15.372 -6.58845 -2.64889 0.000243799 4
-22.4311 -9.61399 -2.13513 9.58236e-05 10
-22.4458 -9.62028 -1.27983 9.69928e-05 10
-22.4262 -9.61188 -0.425891 9.7584e-05 10
-22.4378 -9.61686 0.426111 9.75887e-05 10
-22.4233 -9.61062 1.27854 7.56374e-05 10
-22.4236 -9.61077 2.13441 7.47329e-05 10
-22.4447 -9.61981 2.99832 7.33901e-05 10
-22.4464 -9.62053 3.86794 7.16283e-05 10
-22.4344 -9.61538 4.74446 6.94721e-05 10
-22.4396 -9.61761 5.63637 6.69516e-05 10
-22.4317 -9.61423 6.53936 6.41019e-05 10
-9.25017 -4.0029 -2.70069 7.62632e-05 4
-10.7473 -4.65078 -2.70357 8.40798e-05 4
-15.2541 -6.60103 -2.63252 0.000148333 4
-22.243 -9.62539 -2.1204 9.90889e-05 10
-22.2389 -9.62364 -1.26994 0.000100295 10
-22.2472 -9.6272 -0.423126 0.000100904 10
-22.2549 -9.63057 0.423273 0.000100909 10
-22.2453 -9.6264 1.2703 7.82122e-05 10
-22.2623 -9.63375 2.12224 7.72793e-05 10
-22.2605 -9.63296 2.97818 7.58945e-05 10
-22.2532 -9.6298 3.84041 7.40773e-05 10
-22.2349 -9.62189 4.70935 7.18532e-05 10
-22.2423 -9.6251 5.59522 6.92531e-05 10
-22.2419 -9.62491 6.49377 6.63133e-05 10
-9.23583 -4.03503 -2.7006 7.14986e-05 4
-10.7112 -4.67959 -2.69857 0.000115786 4
-15.1481 -6.61805 -2.61821 0.000196884 4
-22.0745 -9.6441 -2.10754 0.000102427 10
-22.0668 -9.64074 -1.26202 0.00010367 10
-22.0736 -9.64373 -0.420463 0.000104299 10
-22.0687 -9.64156 0.420368 0.000104304 10
-22.058 -9.63692 1.26152 8.08444e-05 10
-22.059 -9.63734 2.10606 7.98826e-05 10
-22.0638 -9.63942 2.95635 7.84548e-05 10
-22.0594 -9.63753 3.81276 7.65812e-05 10
-22.059 -9.63735 4.67919 7.42879e-05 10
-22.0625 -9.63887 5.55842 7.16068e-05 10
-22.0747 -9.64421 6.45476 6.85749e-05 10
-9.23196 -4.07178 -2.70361 0.000114401 4
-10.7166 -4.7266 -2.70409 6.61653e-05 4
-12.5321 -5.52732 -2.66241 5.187e-05 4
-15.0381 -6.63258 -2.60317 0.000252299 4
-21.8932 -9.65603 -2.09343 0.000105839 10
-21.8995 -9.65881 -1.25437 0.00010712 10
-21.8736 -9.64742 -0.417292 0.000107768 10
-21.878 -9.64936 0.417376 0.000107773 10
-21.8843 -9.65215 1.25351 8.35347e-05 10
-21.8725 -9.64693 2.09145 8.25434e-05 10
-21.8956 -9.65712 2.93832 8.10719e-05 10
-21.89 -9.65464 3.78928 7.91407e-05 10
-21.8862 -9.65296 4.64966 7.67768e-05 10
-21.8774 -9.64906 5.52023 7.40129e-05 10
-21.8767 -9.64877 6.40666 7.08873e-05 10
-9.21135 -4.10116 -2.70175 0.000131088 4
-10.6915 -4.76018 -2.70193 0.000135092 4
-12.5081 -5.56898 -2.66143 3.18643e-05 4
-14.9298 -6.64718 -2.58843 0.000235712 4
-21.7053 -9.66381 -2.07868 0.000109325 10
-21.7171 -9.66906 -1.24585 0.000110645 10
-21.7056 -9.66394 -0.414727 0.000111312 10
-21.6993 -9.66114 0.414607 0.000111318 10
-21.7075 -9.66479 1.2453 8.62834e-05 10
-21.696 -9.65967 2.07779 8.52621e-05 10
-21.6961 -9.65974 2.91606 8.37459e-05 10
-21.6996 -9.66128 3.76213 8.17561e-05 10
-21.704 -9.66325 4.61809 7.93203e-05 10
-21.7098 -9.66581 5.48642 7.64721e-05 10
-21.7172 -9.66912 6.36981 7.32508e-05 10
-9.19676 -4.13319 -2.70169 7.62713e-05 4
-10.6714 -4.7959 -2.70104 0.000295006 4
-12.4974 -5.61657 -2.6633 6.81774e-05 4
-14.8045 -6.65338 -2.57071 0.000241675 4
-21.5276 -9.6749 -2.06489 0.000112886 10
-21.5392 -9.68011 -1.23758 0.000114246 10
-21.5465 -9.68337 -0.412331 0.000114933 10
-21.5234 -9.67299 0.411888 0.000114938 10
-21.5233 -9.67295 1.23667 8.90911e-05 10
-21.5392 -9.68011 2.066 8.80392e-05 10
-21.5302 -9.67605 2.89828 8.64775e-05 10
-21.53 -9.67596 3.73856 8.4428e-05 10
-21.5238 -9.67319 4.58691 8.19188e-05 10
-21.5454 -9.68286 5.45338 7.89847e-05 10
-21.5334 -9.67749 6.32576 7.56659e-05 10
-9.18182 -4.16506 -2.70155 0.000200217 4
-10.6436 -4.82816 -2.69827 0.000279851 4
-12.4886 -5.66509 -2.66563 6.44747e-05 4
-14.7074 -6.67156 -2.55788 0.000280509 4
-21.3678 -9.69288 -2.05279 0.000116523 10
-21.3483 -9.68403 -1.22855 0.000117922 10
-21.3699 -9.69382 -0.409597 0.00011863 10
-21.3664 -9.69224 0.40953 0.000118635 10
-21.3626 -9.69049 1.22937 9.19582e-05 10
-21.3703 -9.69399 2.05303 9.08751e-05 10
-21.3639 -9.69107 2.88042 8.92671e-05 10
-21.3571 -9.68802 3.71439 8.71566e-05 10
-21.3608 -9.6897 4.55935 8.45728e-05 10
-21.3469 -9.68338 5.41167 8.15511e-05 10
-21.3644 -9.69132 6.28602 7.81329e-05 10
-9.1642 -4.1957 -2.70066 0.000140633 4
-10.6519 -4.87681 -2.70466 0.000261938 4
-14.6379 -6.70175 -2.54985 4.71264e-05 4
-20.4989 -9.38515 -1.97245 0.000136368 10
-20.4946 -9.38315 -1.18129 0.000137982 10
-20.5164 -9.39316 -0.393864 0.000138798 10
-21.1916 -9.70225 0.406825 0.00012241 10
-20.4923 -9.38213 1.18117 0.000107601 10
-20.5019 -9.3865 1.97274 0.000106352 10
-20.5172 -9.39349 2.77067 0.000104498 10
-20.4993 -9.38529 3.57087 0.000102063 10
-21.1969 -9.70469 4.53156 8.72827e-05 10
-20.5024 -9.38672 5.20585 9.55941e-05 10
-20.5045 -9.38771 6.04263 9.16465e-05 10
-9.1553 -4.23034 -2.70238 0.000114416 4
-10.6165 -4.90552 -2.70002 0.000242645 4
-12.4479 -5.75173 -2.66544 0.000132665 4
-14.6154 -6.75327 -2.55002 3.49784e-05 4
-20.4137 -9.43244 -1.96741 0.0002523 10
-20.4286 -9.43932 -1.17938 0.000255228 10
-20.4327 -9.44122 -0.392887 0.000256679 10
-21.0255 -9.71513 0.404285 0.000126261 10
-20.3434 -9.39994 1.17446 0.000110946 10
-20.4371 -9.44328 1.96966 0.000196553 10
-20.443 -9.44598 2.76508 0.000193086 10
-20.4244 -9.43739 3.56354 0.00018855 10
-21.0137 -9.70967 4.49961 9.00488e-05 10
-20.4363 -9.44288 5.1974 0.000176528 10
-20.4377 -9.44353 6.0326 0.000169203 10
-9.14556 -4.26464 -2.70388 0.000174013 4
-10.5974 -4.94163 -2.69952 0.000259198 4
-12.407 -5.78546 -2.66098 0.000143788 4
-14.6125 -6.81392 -2.55365 4.74995e-05 4
-20.442 -9.53228 -1.97333 0.000249981 10
-20.4219 -9.5229 -1.18091 0.000252884 10
-20.438 -9.5304 -0.393627 0.000254324 10
-20.8482 -9.72165 0.401526 0.000130192 10
-20.1698 -9.40532 1.16633 0.000114358 10
-20.4445 -9.53342 1.97357 0.000194745 10
-20.4333 -9.52818 2.76825 0.000191309 10
-20.4249 -9.52426 3.56941 0.000186812 10
-20.8651 -9.72954 4.47504 9.28717e-05 10
-20.451 -9.53648 5.20959 0.000174891 10
-20.4487 -9.5354 6.04565 0.00016763 10
-9.1285 -4.29554 -2.70325 4.7676e-05 4
-10.5901 -4.98332 -2.70208 0.0002661 4
-12.4059 -5.83776 -2.6651 0.000137865 4
-15.2379 -7.17041 -2.6673 2.93286e-05 4
-20.4282 -9.61276 -1.97522 0.000247663 10
-20.4388 -9.61777 -1.18382 0.000250541 10
-20.4528 -9.62435 -0.394556 0.000251969 10
-20.6953 -9.73845 0.399233 0.000134201 10
-20.0195 -9.42044 1.15953 0.000117837 10
-20.4316 -9.61436 1.97555 0.000192939 10
-20.4452 -9.6208 2.77441 0.000189532 10
-20.4437 -9.62009 3.57855 0.000185073 10
-20.6901 -9.73604 4.44478 9.57518e-05 10
-20.4476 -9.62192 5.21725 0.000173256 10
-20.4447 -9.62056 6.05436 0.000166056 10
-9.10909 -4.32531 -2.70196 0.000123961 4
-10.5819 -5.02467 -2.70446 5.92885e-05 4
-12.3867 -5.88166 -2.66539 0.000145283 4
-15.2056 -7.22017 -2.66605 5.19654e-05 4
-20.4346 -9.70308 -1.97911 0.000245347 10
-20.4537 -9.71211 -1.18664 0.0002482 10
-20.4506 -9.71068 -0.395166 0.000249614 10
-20.5206 -9.7439 0.396518 0.00013829 10
-19.8675 -9.4338 1.15263 0.000121384 10
-20.4463 -9.70862 1.98024 0.000191134 10
-20.4614 -9.71579 2.78119 0.000187756 10
-20.4419 -9.70651 3.58413 0.000183336 10
-20.5384 -9.75235 4.41947 9.86896e-05 10
-20.4635 -9.71678 5.22992 0.000171621 10
-20.4511 -9.7109 6.06625 0.000164484 10
-9.08483 -4.35272 -2.69925 7.39019e-05 4
-12.3614 -5.92259 -2.66437 0.000148254 4
-15.1819 -7.27394 -2.66632 3.794e-05 4
-20.4137 -9.7806 -1.98038 0.000244401 10
-20.4321 -9.78943 -1.18736 0.000247243 10
-20.4278 -9.78738 -0.395383 0.000248652 10
-20.3648 -9.75716 0.394162 0.000142458 10
-19.6996 -9.43845 1.14479 0.000125 10
-20.4326 -9.78967 1.98221 0.000121546 10
-20.4165 -9.78194 2.77971 0.000119397 10
-20.4311 -9.78892 3.58821 0.000116585 10
-20.3675 -9.75848 4.39 0.000101685 10
-20.4294 -9.78813 5.22991 0.000109134 10
-20.4261 -9.78653 6.06892 0.000104595 10
-9.06886 -4.38406 -2.69904 9.77439e-05 4
-10.5264 -5.08865 -2.69927 0.000153057 4
-12.3385 -5.96467 -2.6639 0.000142329 4
-15.1616 -7.32939 -2.66723 4.4e-05 4
-20.2189 -9.77422 0.391998 0.000146707 10
-19.561 -9.45617 1.13865 0.000128683 10
-20.1992 -9.7647 4.36105 0.000104739 10
-9.05467 -4.41626 -2.69939 0.00022887 4
-10.52 -5.13093 -2.7022 6.34312e-05 4
-12.3235 -6.01056 -2.66517 4.2997e-05 4
-20.0428 -9.77551 -2.73805 0.000145808 10
-20.0465 -9.77731 0.389313 0.000151036 10
-19.3931 -9.45866 1.13079 0.000132437 10
-20.064 -9.78587 4.3392 0.000107852 10
-9.03898 -4.44773 -2.69932 0.000236029 4
-10.4966 -5.16498 -2.70082 0.000114456 4
-12.3553 -6.07957 -2.67663 0.000189809 4
-15.1002 -7.43022 -2.66549 3.89027e-05 4
-19.8993 -9.79169 -2.72311 0.000150079 10
-19.9045 -9.79424 0.387218 0.000155447 10
-19.2666 -9.48033 1.12534 0.000136259 10
-19.8994 -9.79172 4.31097 0.000111023 10
-9.01942 -4.47728 -2.69813 7.39101e-05 4
-10.4814 -5.203 -2.70156 6.48145e-05 4
-12.4126 -6.16165 -2.69367 0.00015396 4
-15.0706 -7.48109 -2.66486 0.000170075 4
-19.7346 -9.79636 -2.70523 0.000154428 10
-19.7341 -9.79607 0.384565 0.00015994 10
-19.0984 -9.48055 1.11744 0.000140151 10
-19.7343 -9.79617 4.28257 0.000114254 10
-9.00184 -4.50778 -2.69756 5.96066e-05 4
-10.4507 -5.23332 -2.69835 5.93003e-05 4
-12.4545 -6.23676 -2.70749 0.000191733 4
-14.9656 -7.49421 -2.6509 0.000185468 4
-19.5832 -9.80655 -2.68916 0.000158858 10
-19.5913 -9.81061 0.382449 0.000164515 10
-18.9477 -9.48832 1.11056 0.000144113 10
-19.6044 -9.81714 4.2618 0.000117545 10
-8.99823 -4.54533 -2.70122 5.96083e-05 4
-10.4356 -5.27137 -2.69917 4.82694e-05 4
-12.5125 -6.32052 -2.72487 0.000174445 4
-14.8529 -7.50273 -2.63556 0.000139416 4
-19.4391 -9.81942 -2.67406 0.000163368 10
-19.56 -9.88048 -1.91722 0.000162525 10
-19.5607 -9.8808 -1.1485 0.000164427 10
-19.5649 -9.88293 -0.382603 0.000165388 10
-19.4445 -9.8221 0.380248 0.000169173 10
-18.8266 -9.51001 1.1054 0.000148146 10
-19.5604 -9.88064 1.91725 8.09202e-05 10
-19.5591 -9.88003 2.69057 7.9524e-05 10
-19.5603 -9.88064 3.47088 7.76907e-05 10
-19.443 -9.82138 4.23415 0.000120895 10
-19.5595 -9.88022 5.05909 7.28111e-05 10
-19.5548 -9.87785 5.87025 6.98357e-05 10
-8.98649 -4.57884 -2.70247 0.000195521 4
-10.4164 -5.30742 -2.69899 5.10294e-05 4
-12.5484 -6.39372 -2.73753 0.000124708 4
-14.7493 -7.51512 -2.62181 0.000169361 4
-19.3062 -9.83699 -2.66048 0.000167959 10
-19.3017 -9.83471 0.378126 0.000173913 10
-18.6783 -9.51708 1.09863 0.00015225 10
-19.2881 -9.82776 4.20785 0.000124306 10
-8.96116 -4.60541 -2.69967 9.53787e-05 4
-10.4091 -5.34957 -2.70193 4.68935e-05 4
-12.5236 -6.43628 -2.73702 0.000111703 1
-14.6746 -7.5417 -2.6132 0.000133837 4
-18.5212 -9.51858 -2.55686 0.000194939 10
-18.5362 -9.52633 -1.82334 0.000198315 10
-18.5268 -9.52149 -1.09167 0.000200594 10
-18.5309 -9.52358 -0.363674 0.000201745 10
-18.5436 -9.53009 0.363923 0.000201753 10
-18.5339 -9.52512 1.09209 0.000156424 10
-18.524 -9.52003 1.82214 0.00015466 10
-18.5307 -9.52348 2.55818 0.000152039 10
-18.5211 -9.51855 3.29818 0.000148597 10
-19.1602 -9.84701 4.18743 0.000127778 10
-18.542 -9.52931 4.81301 0.000139441 10
-18.5309 -9.52359 5.5827 0.000133845 10
-8.94997 -4.63922 -2.70117 9.53815e-05 4
-10.3789 -5.3799 -2.69893 6.75841e-05 4
-12.5263 -6.493 -2.74253 0.000111707 1
-14.5623 -7.54839 -2.59789 0.000216502 4
-18.5167 -9.59812 -2.56085 0.000321013 10
-18.5078 -9.59351 -1.82383 0.000326504 10
-18.5008 -9.5899 -1.0921 0.000330186 10
-18.5163 -9.59794 -0.364044 0.000332011 10
-18.5114 -9.59539 0.363946 0.000331955 10
-18.3997 -9.53749 1.08613 0.000206064 10
-18.5071 -9.59316 1.82376 0.000254361 10
-18.523 -9.6014 2.56172 0.000249996 10
-18.53 -9.60506 3.30572 0.000244282 10
-19.0037 -9.85059 4.16072 0.000131311 10
-18.5101 -9.59474 4.81339 0.000229122 10
-18.5212 -9.6005 5.58985 0.000219875 10
-8.92247 -4.66456 -2.69777 0.000193153 4
-10.3783 -5.42562 -2.70368 4.13794e-05 4
-12.5032 -6.53653 -2.74247 0.000111712 1
-14.4696 -7.56452 -2.58604 0.000183304 4
-18.5223 -9.68323 -2.56629 0.000317825 10
-18.5236 -9.68391 -1.82871 0.000323266 10
-18.5152 -9.67953 -1.09494 0.000326915 10
-18.5276 -9.68601 -0.364929 0.000328723 10
-18.514 -9.67886 0.364659 0.000328667 10
-18.2469 -9.53925 1.07907 0.000211602 10
-18.5309 -9.68773 1.82943 0.000251838 10
-18.523 -9.68359 2.56638 0.000247513 10
-18.5265 -9.68542 3.3111 0.000241851 10
-18.8566 -9.85797 4.13601 0.000134904 10
-18.5291 -9.68677 4.82708 0.000226831 10
-18.5355 -9.69014 5.60434 0.000217669 10
-8.90585 -4.69552 -2.69768 0.000414933 4
-10.3524 -5.45818 -2.70188 0.000131039 4
-12.478 -6.5789 -2.74195 0.000111717 1
-14.3694 -7.57613 -2.57284 0.000170258 4
-18.5247 -9.76699 -2.57133 0.000314643 10
-18.5147 -9.76167 -1.83117 0.000320033 10
-18.5294 -9.76943 -1.09779 0.000323648 10
-18.5193 -9.76411 -0.365433 0.000325439 10
-18.53 -9.76978 0.365645 0.000325383 10
-18.1228 -9.55507 1.0737 0.000217232 10
-18.532 -9.77082 1.83289 0.000249319 10
-18.5312 -9.77038 2.57223 0.000245034 10
-18.5338 -9.77174 3.31847 0.000239424 10
-18.7343 -9.8775 4.11674 0.00013856 10
-18.5245 -9.76688 4.83475 0.000224543 10
-18.5391 -9.77456 5.61569 0.000215466 10
-8.9066 -4.73572 -2.7029 0.000376789 4
-10.3328 -5.49404 -2.70176 4.68999e-05 4
-12.4324 -6.6104 -2.73698 0.000111722 1
-14.2932 -7.59982 -2.56393 0.000149682 4
-18.5289 -9.85201 -2.57667 0.000311465 10
-18.5239 -9.84933 -1.83548 0.000316804 10
-18.5204 -9.8475 -1.09929 0.000320385 10
-18.5252 -9.85001 -0.366226 0.00032216 10
-18.5218 -9.84821 0.366159 0.000322104 10
-17.9925 -9.56678 1.06795 0.000222955 10
-18.5446 -9.86034 1.83753 0.000246803 10
-18.5373 -9.85644 2.57783 0.000242558 10
-18.5367 -9.85612 3.32514 0.000237 10
-18.5913 -9.88519 4.09287 0.000142277 10
-18.5327 -9.85403 4.84584 0.000222259 10
-18.5458 -9.86099 5.62812 0.000213267 10
-8.87696 -4.75979 -2.69893 0.000512735 4
-10.3212 -5.53418 -2.70376 4.13837e-05 4
-12.41 -6.65418 -2.73715 0.000111727 1
-14.1911 -7.60918 -2.55036 4.56977e-05 4
-18.4528 -9.89428 -2.57087 0.000197221 10
-18.445 -9.89014 -1.83107 0.000200642 10
-18.4453 -9.89031 -1.09688 0.000202951 10
-18.4586 -9.89744 -0.365591 0.000204117 10
-18.4551 -9.89555 0.365521 0.000204125 10
-17.8464 -9.56916 1.06126 0.000228771 10
-18.4487 -9.8921 1.83144 0.000156474 10
-18.4382 -9.88649 2.56884 0.000153818 10
-18.448 -9.89173 3.3154 0.00015033 10
-18.4426 -9.88884 4.0677 0.000146056 10
-18.4409 -9.88795 4.83083 0.000141051 10
-18.457 -9.89655 5.61161 0.000135382 10
-8.8641 -4.7928 -2.70009 0.000479361 4
-10.3017 -5.5701 -2.70373 0.000103463 4
-12.3953 -6.70212 -2.73905 0.000111732 1
-14.1788 -7.66645 -2.55295 3.75921e-05 4
-18.3001 -9.89482 -2.55439 0.000202388 10
-18.3128 -9.90169 -1.82137 0.000205891 10
-18.3217 -9.90653 -1.09157 0.000208255 10
-18.3141 -9.90241 -0.363411 0.00020945 10
-18.3148 -9.90279 0.363425 0.000209458 10
-17.7209 -9.58166 1.05578 0.000234681 10
-18.3009 -9.89523 1.82018 0.000160567 10
-18.3165 -9.90367 2.55668 0.000157847 10
-18.2965 -9.89289 3.29437 0.000154275 10
-18.3146 -9.90268 4.04707 0.000149897 10
-18.305 -9.89747 4.80424 0.000144771 10
-18.3122 -9.90136 5.57807 0.000138964 10
-8.83617 -4.81763 -2.69669 0.000546155 4
-10.2684 -5.59854 -2.70012 2.89707e-05 4
-12.3658 -6.74204 -2.73771 0.000111737 1
-14.1463 -7.71279 -2.55192 4.05428e-05 4
-18.1875 -9.91615 -2.54349 0.000207638 10
-18.1828 -9.9136 -1.81187 0.000211225 10
-18.1819 -9.91308 -1.0853 0.000213646 10
-18.164 -9.90333 -0.361116 0.000214868 10
-18.179 -9.91151 0.361414 0.000214877 10
-17.5947 -9.59295 1.05025 0.000240684 10
-18.174 -9.90876 1.81099 0.000164726 10
-18.1629 -9.90274 2.54006 0.000161941 10
-18.1731 -9.9083 3.27835 0.000158283 10
-18.1741 -9.90882 4.02363 0.0001538 10
-18.1624 -9.90245 4.77585 0.000148551 10
-18.1767 -9.91027 5.54731 0.000142604 10
-8.81745 -4.84743 -2.69612 0.000414994 4
-10.2435 -5.63139 -2.6987 9.38131e-05 4
-12.3293 -6.77809 -2.73486 0.000262403 4
-14.1243 -7.76492 -2.55284 4.6074e-05 4
-18.0454 -9.92054 -2.52845 0.000212972 10
-18.0386 -9.91681 -1.80094 0.000216644 10
-18.0392 -9.91711 -1.07884 0.000219122 10
-18.0415 -9.91841 -0.359367 0.000220373 10
-18.0466 -9.9212 0.359468 0.000220382 10
-17.4512 -9.5939 1.04368 0.000246782 10
-18.0296 -9.91185 1.80004 0.000168952 10
-18.0345 -9.91457 2.52693 0.000166101 10
-18.0537 -9.92512 3.26305 0.000162356 10
-18.0372 -9.91601 4.00096 0.000157767 10
-18.0362 -9.91548 4.75174 0.000152393 10
-18.0389 -9.91698 5.51578 0.000146303 10
-8.8182 -4.88801 -2.70155 0.000572422 4
-10.2228 -5.66656 -2.69844 6.07047e-05 4
-12.2347 -6.78178 -2.7191 0.000357858 4
-14.0864 -7.80821 -2.5509 5.45547e-05 4
-17.898 -9.921 -2.51263 0.00021839 10
-17.9097 -9.92752 -1.79152 0.000222148 10
-17.9148 -9.93034 -1.07347 0.000224684 10
-17.9086 -9.92691 -0.357408 0.000225965 10
-17.9015 -9.92298 0.357266 0.000225974 10
-17.3191 -9.60014 1.03777 0.000252973 10
-17.8976 -9.9208 1.79031 0.000173244 10
-17.9117 -9.9286 2.51455 0.000170327 10
-17.9025 -9.92351 3.24195 0.000166494 10
-17.9178 -9.93201 3.98215 0.000161796 10
-17.9201 -9.93327 4.73026 0.000156295 10
-17.9168 -9.93147 5.48902 0.000150062 10
-8.80098 -4.9187 -2.70152 0.000519966 4
-10.2028 -5.70216 -2.69841 8.41619e-05 4
-12.165 -6.79879 -2.70887 0.000381036 4
-14.0587 -7.85717 -2.55084 4.71851e-05 4
-17.7907 -9.9429 -2.50243 0.000223892 10
-17.7806 -9.93723 -1.78206 0.000227738 10
-17.7886 -9.94169 -1.06797 0.000230333 10
-17.7854 -9.93994 -0.35564 0.000231643 10
-17.7821 -9.93805 0.355572 0.000231652 10
-17.7738 -9.93343 1.78138 0.000177603 10
-17.7756 -9.93444 2.5003 0.000174618 10
-17.7864 -9.94046 3.22719 0.000170696 10
-17.7665 -9.92936 3.9562 0.000165888 10
-17.7782 -9.93587 4.70192 0.000160259 10
-17.78 -9.93689 5.45768 0.000153879 10
-8.76796 -4.94049 -2.69666 0.000517596 4
-10.1798 -5.73601 -2.6976 6.20888e-05 4
-12.0649 -6.79822 -2.69185 0.000310256 4
-14.0462 -7.91464 -2.55357 4.93997e-05 4
-17.6559 -9.94856 -2.48833 0.000229479 10
-17.6411 -9.94023 -1.77154 0.000233413 10
-17.6442 -9.94199 -1.06138 0.000236068 10
-17.6534 -9.94718 -0.353692 0.000237408 10
-17.6413 -9.94039 0.35345 0.000237417 10
-17.6525 -9.9467 1.7727 0.000182029 10
-17.6385 -9.93877 2.48588 0.000178975 10
-17.6515 -9.94609 3.20899 0.000174962 10
-17.6581 -9.94984 3.93978 0.000170044 10
-17.6374 -9.93817 4.67384 0.000164284 10
-17.6511 -9.94589 5.42875 0.000157756 10
-8.75039 -4.97092 -2.69658 0.000472291 4
-10.1684 -5.77645 -2.69991 0.000129701 4
-11.9863 -6.80919 -2.67961 0.000352322 4
-14.0016 -7.95401 -2.55049 4.82965e-05 4
-17.5329 -9.96007 -2.47589 0.000235151 10
-17.5159 -9.95041 -1.76245 0.000239174 10
-17.5154 -9.95011 -1.05572 0.00024189 10
-17.5207 -9.95314 -0.351727 0.000243261 10
-17.5171 -9.95109 0.351655 0.00024327 10
-17.5333 -9.96032 1.76421 0.000186522 10
-17.5141 -9.94937 2.47322 0.000183398 10
-17.5119 -9.94813 3.18991 0.000179294 10
-17.5117 -9.94806 3.91485 0.000174263 10
-17.5155 -9.9502 4.65072 0.000168371 10
-17.5288 -9.95777 5.4018 0.000161693 10
-8.75562 -5.01439 -2.70357 0.000424598 4
-11.9098 -6.82081 -2.66781 0.000431259 4
-13.966 -7.99839 -2.54907 4.20314e-05 4
-17.4007 -9.96547 -2.46211 0.000240907 10
-17.3892 -9.95887 -1.75319 0.000245022 10
-17.3876 -9.95796 -1.05011 0.000247798 10
-17.391 -9.9599 -0.349819 0.0002492 10
-17.3899 -9.95931 0.349798 0.000372874 10
-17.4013 -9.9658 1.75441 0.000285782 10
-17.4103 -9.97099 2.46348 0.000280943 10
-17.3901 -9.95938 3.17403 0.000274609 10
-17.3921 -9.96054 3.89584 0.000266859 10
-17.4005 -9.96534 4.62938 0.000257794 10
-17.4038 -9.96724 5.37395 0.000247531 10
-8.73059 -5.04061 -2.70125 3.81672e-05 4
-10.1409 -5.85486 -2.7034 7.45147e-05 4
-11.8393 -6.83543 -2.65734 0.000411274 4
-13.9566 -8.05783 -2.55247 4.20338e-05 4
-17.3899 -10.0401 -2.46553 0.000356884 10
-17.4016 -10.0468 -1.75796 0.000362907 10
-17.3948 -10.0429 -1.05265 0.000366944 10
-17.3908 -10.0406 -0.350518 0.000368944 10
-17.4041 -10.0483 0.350786 0.00036888 10
-17.3926 -10.0416 1.75706 0.000282716 10
-17.4093 -10.0513 2.46828 0.000277927 10
-17.4055 -10.0491 3.18323 0.000271654 10
-17.4139 -10.0539 3.90856 0.000263982 10
-17.4037 -10.048 4.63954 0.000255007 10
-17.4016 -10.0468 5.38406 0.000244847 10
-8.71254 -5.07082 -2.70113 8.82644e-05 4
-10.1042 -5.88075 -2.69906 4.55384e-05 4
-11.7691 -6.8498 -2.64694 0.000359546 4
-13.932 -8.10859 -2.55313 5.01485e-05 4
-17.4103 -10.1331 -2.47343 0.000353021 10
-17.3979 -10.1258 -1.76115 0.000358983 10
-17.4181 -10.1376 -1.0562 0.000362981 10
-17.4086 -10.132 -0.351587 0.00036496 10
-17.4177 -10.1373 0.351771 0.000364897 10
-17.4046 -10.1297 1.76183 0.000279659 10
-17.4069 -10.1311 2.47294 0.000274917 10
-17.4006 -10.1274 3.18879 0.000268708 10
-17.4183 -10.1377 3.91747 0.000261112 10
-17.4152 -10.1359 4.652 0.000252228 10
-17.423 -10.1404 5.40162 0.00024217 10
-8.68424 -5.09501 -2.69785 0.000176534 4
-10.0782 -5.91284 -2.69762 0.00029532 4
-11.6676 -6.84536 -2.62947 0.000380959 4
-13.9006 -8.15542 -2.55258 4.97826e-05 4
-17.422 -10.2214 -2.48014 0.000349168 10
-17.4029 -10.2102 -1.76526 0.00035507 10
-17.4012 -10.2092 -1.05732 0.000359027 10
-17.4246 -10.223 -0.35263 0.000360987 10
-17.4108 -10.2149 0.35235 0.000360924 10
-17.4041 -10.2109 1.76538 0.00027661 10
-17.4249 -10.2231 2.48055 0.000271916 10
-17.4169 -10.2184 3.19828 0.000265769 10
-17.4062 -10.2122 3.92275 0.00025825 10
-17.4168 -10.2184 4.66193 0.000249456 10
-17.4194 -10.2199 5.41152 0.0002395 10
-8.68336 -5.13532 -2.70313 8.82698e-05 4
-10.0581 -5.94832 -2.69777 0.000306372 4
-11.6065 -6.86404 -2.62107 0.000237604 4
-13.8665 -8.20064 -2.55157 4.94168e-05 4
-17.4213 -10.3029 -2.48515 0.000345326 10
-17.4094 -10.2959 -1.76955 0.000351168 10
-17.4164 -10.3001 -1.06043 0.000355084 10
-17.4092 -10.2958 -0.353042 0.000357024 10
-17.4333 -10.31 0.353532 0.000356961 10
-17.4318 -10.3091 1.77183 0.000273569 10
-17.4244 -10.3047 2.48558 0.000268922 10
-17.4166 -10.3001 3.20482 0.000262838 10
-17.4356 -10.3114 3.93747 0.000255395 10
-17.4288 -10.3074 4.67475 0.000246691 10
-17.4184 -10.3012 5.42237 0.000236838 10
-8.65393 -5.15878 -2.69956 0.000109744 4
-10.0452 -5.98811 -2.6999 0.000245659 4
-11.5172 -6.86562 -2.60631 0.000267328 4
-13.8362 -8.24805 -2.55128 4.75756e-05 4
-17.428 -10.3892 -2.49126 0.000341494 10
-17.4251 -10.3875 -1.77482 0.000347276 10
-17.4323 -10.3917 -1.0636 0.000351152 10
-17.4315 -10.3912 -0.354228 0.000353072 10
-17.4257 -10.3878 0.35411 0.00035301 10
-17.4229 -10.3861 1.77459 0.000270536 10
-17.4404 -10.3966 2.49304 0.000265937 10
-17.4255 -10.3877 3.21311 0.000259915 10
-17.4371 -10.3946 3.94596 0.000252549 10
-17.438 -10.3952 4.68693 0.000243935 10
-17.4221 -10.3857 5.43476 0.000234183 10
-8.62427 -5.18198 -2.69593 0.000112133 4
-10.0176 -6.01916 -2.69812 0.000245668 4
-11.4789 -6.89724 -2.60309 0.000385905 4
-13.795 -8.2889 -2.549 5.12667e-05 4
-17.4267 -10.471 -2.49627 0.000337673 10
-17.4337 -10.4752 -1.77941 0.000343395 10
-17.4259 -10.4705 -1.06543 0.000347231 10
-17.4215 -10.4679 -0.354767 0.000349131 10
-17.4258 -10.4705 0.354853 0.000349069 10
-17.4368 -10.4771 1.77973 0.000267513 10
-17.4253 -10.4702 2.49608 0.000262961 10
-17.4323 -10.4744 3.22108 0.000257001 10
-17.4389 -10.4783 3.95463 0.000249711 10
-17.435 -10.476 4.69593 0.000241186 10
-17.4456 -10.4824 5.45348 0.000231536 10
-8.61324 -5.21636 -2.69816 0.000229046 4
-10.0064 -6.06012 -2.7008 0.00026638 4
-11.3877 -6.89664 -2.58784 0.000349914 4
-13.7863 -8.3493 -2.55276 4.02043e-05 4
-17.424 -10.5523 -2.50115 0.000333864 10
-17.426 -10.5536 -1.78237 0.000339526 10
-17.4257 -10.5534 -1.06767 0.000343322 10
-17.449 -10.5675 -0.356074 0.000345202 10
-17.4382 -10.561 0.355854 0.000345141 10
-17.4289 -10.5553 1.78267 0.000264498 10
-17.4444 -10.5647 2.50408 0.000259993 10
-17.4373 -10.5604 3.2288 0.000254095 10
-17.4476 -10.5666 3.96494 0.000246882 10
-17.4536 -10.5703 4.71084 0.000238446 10
-17.4315 -10.5569 5.46055 0.000228897 10
-8.5947 -5.24622 -2.69807 0.000121684 4
-9.97215 -6.08703 -2.69727 0.000245686 4
-11.3661 -6.93788 -2.58841 9.94669e-05 4
-13.7367 -8.38493 -2.54898 4.57397e-05 4
-17.4415 -10.6463 -2.50898 0.000330066 10
-17.4496 -10.6513 -1.78857 0.000335669 10
-17.4557 -10.655 -1.07178 0.000339425 10
-17.4518 -10.6526 -0.356889 0.000341285 10
-17.4358 -10.6429 0.356562 0.000341224 10
-17.4408 -10.6459 1.78768 0.000261492 10
-17.4477 -10.6501 2.50988 0.000257035 10
-17.4362 -10.6431 3.23545 0.000251199 10
-17.4531 -10.6534 3.97461 0.000244061 10
-17.4597 -10.6575 4.72251 0.000235715 10
-17.4606 -10.658 5.48128 0.000226267 10
-8.58889 -5.28392 -2.70202 7.15812e-05 4
-9.96044 -6.1277 -2.69986 5.7973e-05 4
-11.3345 -6.97302 -2.58675 9.7854e-05 4
-13.716 -8.43811 -2.55058 5.01691e-05 4
-17.4607 -10.7419 -2.51713 0.000326281 10
-17.4389 -10.7285 -1.7913 0.000331824 10
-17.4576 -10.74 -1.07419 0.000335541 10
-17.4548 -10.7383 -0.357714 0.000337381 10
-17.4625 -10.743 0.357872 0.000337321 10
-16.8986 -10.3961 1.03979 0.00037766 10
-17.4595 -10.7412 1.79343 0.000258497 10
-17.4621 -10.7428 2.51733 0.000254086 10
-17.4501 -10.7354 3.24496 0.000248312 10
-17.4515 -10.7362 3.98276 0.00024125 10
-17.4552 -10.7385 4.7314 0.000232992 10
-17.4549 -10.7383 5.49122 0.000223645 10
-8.55708 -5.30561 -2.69783 0.00011692 4
-9.93479 -6.15983 -2.69872 6.4877e-05 4
-11.3305 -7.02522 -2.59142 8.81536e-05 4
-13.6969 -8.49242 -2.55252 4.94342e-05 4
-17.4627 -10.8274 -2.52285 0.000322508 10
-17.4515 -10.8204 -1.79647 0.000327992 10
-17.4478 -10.8181 -1.0759 0.000331669 10
-17.4669 -10.8299 -0.358734 0.000333489 10
-17.4557 -10.823 0.358504 0.00033343 10
-16.9001 -10.4785 1.04212 0.000373351 10
-17.4589 -10.825 1.79723 0.000255511 10
-17.4523 -10.8209 2.52135 0.000251147 10
-17.4662 -10.8295 3.25497 0.000245435 10
-17.4574 -10.824 3.9927 0.000238449 10
-17.4664 -10.8296 4.74465 0.000230279 10
-17.4539 -10.8219 5.50275 0.000221033 10
-8.55253 -5.34421 -2.70226 5.96547e-05 4
-9.96118 -6.22444 -2.71178 8.76922e-05 4
-11.6125 -7.25628 -2.66168 0.000124708 4
-13.6507 -8.5299 -2.54945 3.65245e-05 4
-17.4584 -10.9092 -2.52772 0.000318749 10
-17.4648 -10.9132 -1.80175 0.000324173 10
-17.464 -10.9127 -1.07925 0.00032781 10
-17.4514 -10.9048 -0.359196 0.000329611 10
-17.4707 -10.9169 0.359593 0.000329551 10
-16.9067 -10.5645 1.0448 0.000369056 10
-17.4615 -10.9112 1.80142 0.000252535 10
-17.4642 -10.9129 2.52855 0.000248218 10
-17.4596 -10.91 3.26082 0.000242568 10
-17.4682 -10.9153 4.00387 0.000235657 10
-17.467 -10.9146 4.75511 0.000227576 10
-17.4673 -10.9148 5.51897 0.00021843 10
-8.53127 -5.37243 -2.70145 0.000186129 4
-9.97601 -6.28223 -2.72177 0.000114445 4
-11.5834 -7.29444 -2.66084 0.000132137 4
-13.64 -8.58957 -2.55304 4.09542e-05 4
-17.4547 -10.9918 -2.53272 0.000315002 10
-17.4767 -11.0057 -1.80693 0.000320368 10
-17.4697 -11.0012 -1.08196 0.000323965 10
-17.4634 -10.9973 -0.360232 0.000325746 10
-17.479 -11.0071 0.360552 0.000325687 10
-16.911 -10.6494 1.04736 0.000364776 10
-17.4654 -10.9986 1.80577 0.000249569 10
-17.4639 -10.9976 2.53404 0.0002453 10
-17.4744 -11.0042 3.27073 0.00023971 10
-17.4635 -10.9974 4.01157 0.000232874 10
-17.4684 -11.0005 4.76594 0.000224882 10
-17.4818 -11.0089 5.53567 0.000215836 10
-8.50013 -5.39435 -2.69753 0.000231475 4
-9.99426 -6.34255 -2.73277 8.06218e-05 4
-11.5701 -7.3426 -2.66365 6.9041e-05 4
-13.6062 -8.63475 -2.55234 3.76358e-05 4
-17.4706 -11.0872 -2.54062 0.000311269 10
-17.4653 -11.0838 -1.80974 0.000316576 10
-17.4668 -11.0848 -1.08417 0.000320133 10
-17.4821 -11.0945 -0.361413 0.000321895 10
-17.466 -11.0843 0.36108 0.000321837 10
-16.9062 -10.729 1.04938 0.00036051 10
-17.4789 -11.0925 1.81115 0.000246615 10
-17.4798 -11.093 2.54196 0.000242392 10
-17.4699 -11.0867 3.27711 0.000236863 10
-17.4784 -11.0921 4.02386 0.000230103 10
-17.4764 -11.0908 4.77864 0.000222198 10
-17.4729 -11.0886 5.54506 0.000213251 10
-8.49175 -5.4307 -2.70088 0.000155117 4
-9.99623 -6.39286 -2.7394 0.000218425 1
-11.5758 -7.40301 -2.67089 7.4738e-05 4
-13.5734 -8.68056 -2.55186 4.76011e-05 4
-17.4879 -11.184 -2.54881 0.00030755 10
-17.4831 -11.1809 -1.81562 0.000312798 10
-17.4768 -11.1769 -1.08721 0.000316316 10
-17.4806 -11.1793 -0.362186 0.000318058 10
-17.494 -11.1879 0.362464 0.000318001 10
-16.9219 -10.822 1.05268 0.00035626 10
-17.482 -11.1802 1.8155 0.000243671 10
-17.4764 -11.1766 2.54712 0.000239494 10
-17.4752 -11.1758 3.28541 0.000234027 10
-17.4802 -11.179 4.03323 0.000227341 10
-17.482 -11.1802 4.79082 0.000219524 10
-17.4874 -11.1837 5.56202 0.000210677 10
-8.4722 -5.45996 -2.7007 0.000145576 4
-9.97608 -6.42914 -2.74001 0.000218433 1
-11.5721 -7.45773 -2.67605 0.000209911 4
-17.4857 -11.2688 -2.5542 0.000303845 10
-17.4934 -11.2737 -1.82077 0.000309035 10
-17.4746 -11.2616 -1.08951 0.000312514 10
-17.4907 -11.272 -0.36321 0.000314236 10
-17.4881 -11.2703 0.363156 0.000314179 10
-16.9313 -10.9115 1.05564 0.000352026 10
-17.4816 -11.2661 1.81953 0.000240739 10
-17.4874 -11.2698 2.55444 0.000236609 10
-17.4835 -11.2674 3.29435 0.000231202 10
-17.4857 -11.2688 4.04356 0.000224591 10
-17.4814 -11.266 4.8014 0.000216861 10
-17.5049 -11.2811 5.58007 0.000208113 10
-8.46076 -5.49448 -2.70315 0.000107395 4
-9.93583 -6.4524 -2.73512 0.000218442 1
-11.5748 -7.51677 -2.68272 7.87229e-05 4
-17.479 -11.351 -2.55899 0.000300155 10
-17.5021 -11.366 -1.82579 0.000305286 10
-17.4867 -11.356 -1.09273 0.000308726 10
-17.4969 -11.3626 -0.36416 0.000310429 10
-17.4902 -11.3583 0.364019 0.000310373 10
-16.9382 -10.9998 1.05845 0.000347808 10
-17.4983 -11.3635 1.82539 0.000237818 10
-17.4984 -11.3636 2.56183 0.000233734 10
-17.4911 -11.3589 3.30323 0.000228388 10
-17.4938 -11.3606 4.05457 0.000221851 10
-17.5062 -11.3686 4.81907 0.000214208 10
-17.4945 -11.3611 5.58936 0.000205559 10
-8.41986 -5.5098 -2.69621 7.87592e-05 4
-9.91754 -6.48986 -2.73631 0.00021845 1
-11.5732 -7.57326 -2.68844 0.000201703 4
-13.4684 -8.8135 -2.54933 3.50615e-05 4
-17.4987 -11.4508 -2.56771 0.000296481 10
-17.5015 -11.4526 -1.82988 0.000301553 10
-17.5041 -11.4544 -1.09631 0.000304954 10
-17.4988 -11.4509 -0.365028 0.000306638 10
-17.4894 -11.4448 0.364832 0.000306582 10
-16.9344 -11.0815 1.06062 0.000343606 10
-17.4907 -11.4456 1.82875 0.000234909 10
-17.5107 -11.4587 2.56947 0.000230871 10
-17.504 -11.4543 3.31318 0.000225586 10
-17.4993 -11.4512 4.0651 0.000219123 10
-17.5089 -11.4575 4.83081 0.000211566 10
-17.5133 -11.4604 5.60812 0.000203016 10
-8.40316 -5.54086 -2.69704 5.72813e-05 4
-9.90474 -6.53097 -2.73905 0.000218458 1
-11.5808 -7.63611 -2.69639 0.000205424 4
-13.4345 -8.85843 -2.54875 4.53982e-05 4
-17.5069 -11.5437 -2.57481 0.000292821 10
-17.5086 -11.5448 -1.83483 0.000297836 10
-17.5083 -11.5446 -1.09909 0.000301198 10
-17.5042 -11.5419 -0.36598 0.000302862 10
-17.4967 -11.5369 0.365821 0.000302806 10
-16.9519 -11.1777 1.06416 0.000339422 10
-17.497 -11.5371 1.83361 0.000232012 10
-17.5047 -11.5422 2.57449 0.00022802 10
-17.4978 -11.5376 3.31962 0.000222795 10
-17.507 -11.5437 4.0762 0.000216406 10
-17.5056 -11.5428 4.84099 0.000208936 10
-17.5227 -11.5541 5.62402 0.000200484 10
-8.38822 -5.57312 -2.69847 0.000102632 4
-9.8747 -6.56073 -2.73706 0.000218467 1
-11.5851 -7.69711 -2.70363 0.000109852 4
-13.4026 -8.90465 -2.54857 5.79508e-05 4
-17.5222 -11.6417 -2.58303 0.000289177 10
-17.5226 -11.642 -1.84055 0.000294134 10
-17.5212 -11.6411 -1.10244 0.000297457 10
-17.5064 -11.6313 -0.366873 0.000299102 10
-17.5018 -11.6282 0.366776 0.000299047 10
-16.9505 -11.2619 1.06654 0.000335254 10
-17.5247 -11.6434 1.84077 0.000229128 10
-17.5271 -11.645 2.58374 0.000225181 10
-17.5064 -11.6312 3.32893 0.000220016 10
-17.5133 -11.6358 4.08711 0.000213701 10
-17.5207 -11.6407 4.85637 0.000158662 10
-17.5152 -11.6371 5.6346 0.000152273 10
-8.37595 -5.60721 -2.70081 0.000193337 4
-9.8485 -6.593 -2.73616 0.000218476 1
-11.525 -7.71529 -2.69587 0.000285666 4
-13.3914 -8.96474 -2.55238 4.83568e-05 4
-17.4071 -11.653 -2.57203 0.000226639 10
-17.4 -11.6483 -1.83193 0.00023057 10
-17.4003 -11.6485 -1.09739 0.000233222 10
-17.3996 -11.648 -0.365484 0.000234564 10
-17.5095 -11.7216 0.367792 0.000295304 10
-16.9636 -11.3561 1.06984 0.000331104 10
-17.4006 -11.6487 1.83199 0.000179811 10
-17.4009 -11.6489 2.57112 0.000176758 10
-17.3925 -11.6433 3.31499 0.000172748 10
-17.5345 -11.7383 4.10159 0.000211007 10
-17.3998 -11.6482 4.8341 0.000162083 10
-17.402 -11.6496 5.61123 0.000155567 10
-8.34942 -5.63175 -2.69857 7.39955e-05 4
-9.83936 -6.63673 -2.74004 0.000218484 1
-11.4608 -7.73041 -2.68716 0.000260145 4
-13.3504 -9.00495 -2.55054 4.39299e-05 4
-17.2867 -11.66 -2.56025 0.00023145 10
-17.2737 -11.6512 -1.8229 0.000235457 10
-17.2866 -11.66 -1.09278 0.000238164 10
-17.2734 -11.6511 -0.363685 0.00023953 10
-17.5377 -11.8293 0.36925 0.000291577 10
-16.948 -11.4316 1.07137 0.000326973 10
-17.276 -11.6528 1.82315 0.000183622 10
-17.2802 -11.6556 2.55928 0.000180509 10
-17.2791 -11.6549 3.3011 0.000176421 10
-17.5264 -11.8217 4.10934 0.000208326 10
-17.2845 -11.6586 4.81335 0.000165546 10
-17.2858 -11.6594 5.58685 0.000158901 10
-8.3433 -5.6701 -2.70298 8.59331e-05 4
-9.81008 -6.66692 -2.73835 0.000218493 1
-11.3984 -7.74636 -2.67886 0.000257116 4
-13.3091 -9.04484 -2.54866 4.35635e-05 4
-17.1741 -11.6715 -2.54958 0.000236322 10
-17.1514 -11.6561 -1.81428 0.000240407 10
-17.167 -11.6667 -1.08778 0.000243164 10
-17.1713 -11.6696 -0.36239 0.000244555 10
-17.541 -11.9208 0.370192 0.000287868 10
-16.9655 -11.5297 1.07501 0.000322859 10
-17.1643 -11.6649 1.81564 0.00018748 10
-17.1545 -11.6582 2.54668 0.000184307 10
-17.1676 -11.6671 3.28756 0.000180139 10
-17.5425 -11.9219 4.12284 0.000205658 10
-17.1687 -11.6678 4.79241 0.000169052 10
-17.1597 -11.6617 5.55923 0.000162277 10
-8.31045 -5.69028 -2.69875 0.000174259 4
-9.78615 -6.70072 -2.73818 0.000218501 1
-11.3205 -7.75133 -2.66689 0.000310856 4
-13.2762 -9.09042 -2.54843 4.72582e-05 4
-17.1491 -11.7422 -2.55194 0.000297791 10
-17.1519 -11.7441 -1.81865 0.000302876 10
-17.1688 -11.7557 -1.09049 0.000306284 10
-17.1601 -11.7498 -0.363019 0.00030797 10
-17.5354 -12.0068 0.370957 0.000284176 10
-16.9767 -11.6242 1.07829 0.000318765 10
-17.1502 -11.743 1.81847 0.000235936 10
-17.1553 -11.7465 2.55287 0.000231888 10
-17.1621 -11.7511 3.29434 0.000226589 10
-17.5495 -12.0164 4.13431 0.000203002 10
-17.1534 -11.7452 4.79956 0.000212534 10
-17.1637 -11.7522 5.57377 0.000203961 10
-8.29454 -5.72202 -2.70006 8.83259e-05 4
-9.7487 -6.72518 -2.73426 0.00021851 1
-11.2527 -7.76269 -2.65727 0.000310728 4
-13.244 -9.1364 -2.54835 3.91382e-05 4
-17.5487 -12.1061 -2.61769 0.000271201 10
-17.5418 -12.1013 0.371984 0.000280502 10
-16.9844 -11.7168 1.08137 0.000314689 10
-17.561 -12.1145 4.14697 0.000200359 10
-17.179 -11.851 4.81826 0.000209781 10
-8.27499 -5.75126 -2.70021 0.000121751 4
-9.725 -6.75905 -2.73421 0.000218518 1
-11.1964 -7.78169 -2.65038 0.000310491 4
-14.2008 -9.86979 -2.73907 4.78169e-05 1
-17.5613 -12.2054 -2.62591 0.000267658 10
-17.5588 -12.2037 0.373246 0.000276845 10
-16.9947 -11.8116 1.08465 0.000310633 10
-17.5486 -12.1966 4.15405 0.000197729 10
-8.24751 -5.77497 -2.69781 5.96836e-05 4
-9.70571 -6.79601 -2.73544 0.000218527 1
-11.1299 -7.79324 -2.64107 0.000292776 4
-14.1809 -9.92959 -2.74191 4.782e-05 1
-17.5666 -12.3003 -2.6331 0.000264132 10
-17.5641 -12.2985 0.374268 0.000273207 10
-16.9915 -11.8976 1.08708 0.000306596 10
-17.5728 -12.3046 4.16994 0.000195112 10
-8.22869 -5.8047 -2.69826 0.000162345 4
-9.68714 -6.83352 -2.73691 0.000218536 1
-11.0652 -7.80563 -2.63216 0.000276953 4
-14.1397 -9.97449 -2.74066 4.7823e-05 1
-17.567 -12.3922 -2.63963 0.000260624 10
-17.636 -12.4408 -1.88822 0.000212271 10
-17.6415 -12.4447 -1.13144 0.000214739 10
-17.6392 -12.4431 -0.376791 0.000215986 10
-17.5711 -12.395 0.375336 0.000269587 10
-17.0018 -11.9934 1.09041 0.000302579 10
-17.633 -12.4387 1.8879 0.000105676 10
-17.6308 -12.4372 2.64921 0.000103862 10
-17.6485 -12.4496 3.42074 0.00010148 10
-17.568 -12.3929 4.17903 0.000192509 10
-17.6511 -12.4515 4.98698 9.51459e-05 10
-17.6428 -12.4456 5.78524 0.000112048 10
-8.22004 -5.84168 -2.7021 4.77501e-05 4
-9.65688 -6.86278 -2.73511 0.000218545 1
-10.9946 -7.81342 -2.62183 0.000301445 4
-14.0993 -10.0198 -2.73957 4.78262e-05 1
-17.5679 -12.4849 -2.64629 0.000257134 10
-17.5714 -12.4874 0.376273 0.000265987 10
-16.9968 -12.079 1.09279 0.000298584 10
-17.5638 -12.4819 4.18837 0.00018992 10
-8.19194 -5.86485 -2.69957 0.000307998 4
-9.63151 -6.89548 -2.73473 0.000218554 1
-10.9107 -7.8113 -2.60832 0.000318786 4
-14.0789 -10.0795 -2.74244 4.78293e-05 1
-17.5691 -12.5782 -2.65306 0.000253663 10
-17.5843 -12.5891 0.377486 0.000262405 10
-17.0221 -12.1866 1.09715 0.000294608 10
-17.573 -12.581 4.201 0.000187345 10
-8.16776 -5.89077 -2.69836 0.00018385 4
-9.62066 -6.93864 -2.73851 0.000218562 1
-10.8464 -7.82266 -2.59946 0.000389115 4
-14.0303 -10.1189 -2.73983 4.78324e-05 1
-17.5777 -12.6774 -2.66104 0.000250212 10
-8.73108 -6.29705 -0.564168 0.00143579 8
-17.5872 -12.6843 0.378496 0.000258843 10
-17.0183 -12.274 1.09966 0.000290654 10
-17.5914 -12.6873 4.21596 0.000184784 10
-8.14116 -5.9149 -2.69638 0.00012655 4
-9.60001 -6.97481 -2.73954 0.000218571 1
-10.7876 -7.83765 -2.59191 0.000317351 4
-13.9899 -10.1643 -2.73886 4.78355e-05 1
-17.5843 -12.7758 -2.66878 0.000246779 10
-8.74434 -6.35314 -0.566455 0.00173761 8
-17.5833 -12.775 0.379371 0.000255301 10
-17.016 -12.3628 1.10229 0.000286721 10
-17.5954 -12.7838 4.22761 0.000182238 10
-8.1309 -5.95092 -2.69985 0.000140882 4
-9.54305 -6.98445 -2.73023 0.000533206 4
-10.7518 -7.8691 -2.58988 0.000104438 4
-13.9651 -10.2209 -2.74096 4.78386e-05 1
-17.6009 -12.8819 -2.6781 0.000243366 10
-8.7472 -6.40198 -0.568084 0.00175558 8
-17.592 -12.8754 0.380526 0.000251778 10
-17.0237 -12.4595 1.1056 0.00028281 10
-17.6025 -12.8831 4.24008 0.000179706 10
-8.1025 -5.97368 -2.69732 0.000222075 4
-9.49001 -6.99664 -2.72203 0.000512791 4
-10.7216 -7.90466 -2.58925 9.2299e-05 4
-13.9341 -10.2731 -2.7419 4.78418e-05 1
-17.6061 -12.9804 -2.68577 0.000239973 10
-8.73457 -6.43968 -0.56872 0.00176349 8
-17.6095 -12.9829 0.381883 0.000248277 10
-17.047 -12.5682 1.10996 0.000278921 10
-17.6156 -12.9873 4.25413 0.000177188 10
-8.09634 -6.01287 -2.70224 0.000119399 4
-9.42378 -6.99871 -2.71002 0.000594023 4
-10.6793 -7.93113 -2.58569 0.000119023 4
-13.8884 -10.3144 -2.73998 4.78449e-05 1
-17.6124 -13.0801 -2.69368 0.0002366 10
-8.7525 -6.50018 -0.953822 0.00159993 8
-8.75332 -6.50079 -0.571415 0.00178919 8
-8.74924 -6.49776 -0.190228 0.00188031 8
-17.6094 -13.0779 0.382868 0.000244795 10
-17.0467 -12.66 1.1128 0.000275055 10
-17.6822 -13.132 1.92696 0.000117896 10
-17.6783 -13.129 2.70375 0.00011583 10
-17.6849 -13.134 3.48898 0.000113127 10
-17.6225 -13.0876 4.26681 0.000174686 10
-17.6826 -13.1323 5.08504 0.000105964 10
-17.6849 -13.134 5.90253 0.000101599 10
-8.066 -6.03414 -2.69913 0.000126568 4
-9.35258 -6.99662 -2.69655 0.000573544 4
-10.6512 -7.96812 -2.58562 0.000107693 4
-13.8608 -10.3692 -2.74166 4.78481e-05 1
-17.6101 -13.1741 -2.70035 0.000233247 10
-8.76132 -6.55431 -0.957271 0.00160843 8
-8.75552 -6.54996 -0.573048 0.00180483 8
-8.74928 -6.5453 -0.190725 0.00182219 8
-17.6232 -13.1838 0.384166 0.000241335 10
-17.053 -12.7573 1.11612 0.000271211 10
-17.616 -13.1785 1.92474 0.000118006 10
-17.6164 -13.1787 2.7013 0.000115939 10
-17.6191 -13.1807 3.48504 0.000113234 10
-17.6339 -13.1918 4.28069 0.000172199 10
-17.6351 -13.1927 5.08457 0.000106067 10
-17.6201 -13.1815 5.89622 0.000101699 10
-8.04809 -6.06467 -2.7002 0.000121796 4
-9.3105 -7.01596 -2.69146 0.000543853 4
-10.6422 -8.01949 -2.59022 0.000113367 4
-13.8168 -10.4117 -2.74014 4.78512e-05 1
-17.5206 -13.2027 -2.69366 0.000203955 10
-8.74952 -6.59324 -0.95849 0.00162525 8
-8.75071 -6.59413 -0.574236 0.00181971 8
-8.74519 -6.58997 -0.191136 0.001774 8
-17.6267 -13.2827 0.385252 0.000237896 10
-17.057 -12.8534 1.11931 0.00026739 10
-17.5235 -13.2049 1.91965 0.000161857 10
-17.5151 -13.1985 2.69282 0.000159062 10
-17.5139 -13.1977 3.47333 0.000155392 10
-17.6299 -13.285 4.29094 0.000169728 10
-17.5181 -13.2008 5.0641 0.000145637 10
-17.5282 -13.2084 5.88087 0.000139682 10
-8.01971 -6.08729 -2.6978 6.68704e-05 4
-9.23401 -7.00899 -2.67641 0.000649972 4
-10.599 -8.04505 -2.58651 9.55567e-05 4
-13.7889 -10.4663 -2.74182 4.78544e-05 1
-17.3936 -13.2024 -2.6812 0.00020788 10
-8.75862 -6.64815 -0.962023 0.00164131 8
-8.74779 -6.63993 -0.575562 0.00182498 8
-8.7464 -6.63888 -0.191668 0.00171764 8
-17.6363 -13.3867 0.386481 0.000234478 10
-17.0632 -12.9517 1.12267 0.000263592 10
-17.3972 -13.2052 1.91086 0.000164968 10
-17.403 -13.2096 2.68266 0.000162123 10
-17.3932 -13.2021 3.45851 0.000158389 10
-17.6419 -13.391 4.30523 0.000167272 10
-17.4039 -13.2103 5.04439 0.00014846 10
-17.4116 -13.2161 5.85718 0.000142398 10
-8.00461 -6.11999 -2.69989 0.000203006 4
-9.18745 -7.02434 -2.67 0.000537757 4
-8.76197 -6.69903 -2.14391 0.00117118 8
-8.77637 -6.71004 -1.74977 0.00119962 8
-8.76808 -6.7037 -1.35519 0.00122276 8
-8.76167 -6.6988 -0.96492 0.00165663 8
-8.77085 -6.70582 -0.578616 0.00182095 8
-8.75166 -6.69115 -0.192294 0.00166219 8
-17.63 -13.4791 0.38737 0.000231081 10
-17.0678 -13.0493 1.12597 0.000259817 10
-17.2941 -13.2224 1.9046 0.000168112 10
-17.2914 -13.2202 2.67255 0.000165217 10
-17.2994 -13.2264 3.44902 0.000161416 10
-17.636 -13.4837 4.31523 0.000164832 10
-17.2941 -13.2223 5.02591 0.000151312 10
-17.296 -13.2238 5.8338 0.000145143 10
-7.97272 -6.13982 -2.69634 9.0759e-05 4
-8.72752 -6.72109 -2.54314 0.00129811 8
-8.72 -6.7153 -2.13936 0.00133597 8
-8.73005 -6.72304 -1.7452 0.00136812 8
-8.71639 -6.71252 -1.35082 0.00139423 8
-8.72256 -6.71728 -0.96319 0.001414 8
-8.73865 -6.72967 -0.578038 0.00142722 8
-8.75696 -6.74377 -0.192926 0.00160767 8
-17.6519 -13.5938 0.388892 0.000227707 10
-17.0786 -13.1523 1.1297 0.000256067 10
-17.2747 -13.3033 1.90756 0.000189325 10
-17.272 -13.3012 2.67671 0.000186019 10
-17.272 -13.3012 3.4528 0.000181695 10
-17.647 -13.59 4.32951 0.000162408 10
-17.2604 -13.2923 5.02956 0.000170233 10
-17.2658 -13.2965 5.83924 0.000163248 10
-7.95472 -6.17031 -2.69752 0.000164805 4
-9.11029 -7.06666 -2.66185 0.000610586 4
-10.5299 -8.16781 -2.59038 0.000116629 4
-13.6738 -10.6065 -2.74087 4.7864e-05 1
-8.76095 -6.79569 -0.970042 0.00168503 8
-8.76212 -6.7966 -0.581156 0.00170936 8
-8.78005 -6.8105 -0.193957 0.00155406 8
-17.6663 -13.7034 0.39026 0.000224355 10
-17.0771 -13.2464 1.13265 0.00025234 10
-17.6651 -13.7024 1.95594 0.000171827 10
-17.6617 -13.6998 2.7445 0.0001688 10
-17.6636 -13.7013 3.54063 0.00016484 10
-17.6478 -13.689 4.3414 0.00016 10
-17.6573 -13.6964 5.15912 0.000154346 10
-17.6675 -13.7043 5.99121 0.000147955 10
-7.94166 -6.2047 -2.70042 9.31538e-05 4
-9.11315 -7.11997 -2.66993 0.00057482 4
-10.5005 -8.20388 -2.59018 0.000114205 4
-13.6305 -10.6493 -2.73963 4.78673e-05 1
-8.76211 -6.84571 -0.972811 0.00169813 8
-8.77024 -6.85206 -0.583277 0.00165494 8
-8.7659 -6.84867 -0.194172 0.00150137 8
-17.6745 -13.8089 0.391505 0.000221025 10
-17.0866 -13.3496 1.13637 0.000248638 10
-17.6755 -13.8096 1.96242 0.000169273 10
-17.6532 -13.7922 2.75065 0.000166287 10
-17.6607 -13.798 3.54967 0.000162381 10
-17.6605 -13.7979 4.35634 0.000157608 10
-17.6743 -13.8087 5.17815 0.000152033 10
-17.657 -13.7951 6.00395 0.000145729 10
-7.91769 -6.2306 -2.69965 0.000107489 4
-9.12305 -7.17913 -2.68016 0.000692572 4
-10.4595 -8.23084 -2.58715 8.82909e-05 4
-13.5983 -10.7008 -2.74065 4.78705e-05 1
-8.77554 -6.90567 -0.976972 0.00170224 8
-8.76884 -6.9004 -0.584783 0.00160144 8
-8.78455 -6.91276 -0.195118 0.00144958 8
-17.681 -13.9136 0.392721 0.000217718 10
-17.1034 -13.459 1.1406 0.000244961 10
-17.67 -13.9049 1.96718 0.000166737 10
-17.6616 -13.8983 2.7595 0.000163792 10
-17.6772 -13.9106 3.56273 0.00015994 10
-17.6681 -13.9034 4.37017 0.000155233 10
-17.6702 -13.9051 5.19114 0.000149735 10
-17.6798 -13.9126 6.02819 0.000143519 10
-7.90147 -6.26262 -2.70156 6.68843e-05 4
-9.11 -7.2205 -2.68371 0.000599759 4
-10.4349 -8.27063 -2.58819 9.39658e-05 4
-13.5621 -10.7492 -2.7409 4.78737e-05 1
-8.77592 -6.9557 -0.979711 0.00169768 8
