VERSION 0.7
FIELDS x y z intensity label
SIZE 4 4 4 4 4
TYPE F F F F F
COUNT 1 1 1 1 1
WIDTH 1197
HEIGHT 1
VIEWPOINT 0.0545575 3.88719 2.72834 0.727696 0.00074927 0.000555226 -0.685899
POINTS 1197
DATA ascii
21.9895 15.7429 7.24642 5.7866e-05 10
7.98542 5.75926 -2.63812 0.000128235 4
8.04521 5.80239 -2.29006 0.000706621 6
8.22765 5.93397 -1.97185 0.000310211 6
8.10413 5.84488 -1.58257 0.000289076 6
17.1701 12.3835 -2.59933 7.14412e-05 4
21.842 15.753 -2.35608 8.91279e-05 10
21.9282 15.8152 -1.41692 7.18511e-05 10
21.9415 15.8247 -0.472207 7.23352e-05 10
21.9352 15.8201 0.472071 7.23663e-05 10
21.844 15.7544 1.41148 7.03556e-05 10
21.8495 15.7584 2.35688 6.94723e-05 10
21.8314 15.7453 3.30499 6.8166e-05 10
21.8339 15.7471 4.26373 6.64558e-05 10
21.8309 15.745 5.23202 6.43669e-05 10
21.833 15.7465 6.21473 6.193e-05 10
21.8316 15.7455 7.21247 5.918e-05 10
7.96034 5.78352 -2.63649 0.000156436 4
8.051 5.84939 -2.2975 0.000368378 6
8.17989 5.94303 -1.96536 0.000321477 6
8.1134 5.89473 -1.58839 0.000288339 6
17.0842 12.4124 -2.59287 7.86312e-05 4
21.7036 15.7685 -2.34706 9.1107e-05 10
21.6899 15.7586 -1.40506 6.09346e-05 10
21.6866 15.7562 -0.467902 6.13135e-05 10
21.6838 15.7542 0.467842 6.13098e-05 10
21.6926 15.7606 1.40524 7.19163e-05 10
21.77 15.8168 2.35425 4.45961e-05 10
21.7864 15.8287 3.30652 4.37574e-05 10
21.6838 15.7542 4.24512 6.7937e-05 10
21.6849 15.755 5.21016 6.58053e-05 10
21.7748 15.8203 6.21386 3.9755e-05 10
21.7705 15.8172 7.21046 3.79899e-05 10
7.93538 5.80782 -2.63492 0.000143604 4
8.04941 5.89127 -2.3029 0.00282642 6
8.11847 5.94182 -1.95557 0.000305224 6
8.09727 5.9263 -1.58927 0.000277741 6
16.956 12.4099 -2.57997 8.00095e-05 4
21.5437 15.7676 -2.33571 9.31119e-05 10
21.6597 15.8525 -1.40669 7.36169e-05 10
21.6531 15.8476 -0.46837 7.41115e-05 10
21.6676 15.8583 0.468683 7.41435e-05 10
21.5388 15.764 1.39883 7.34975e-05 10
21.5536 15.7749 4.23039 6.94376e-05 10
21.5473 15.7703 5.19032 6.72627e-05 10
7.92383 5.84195 -2.63784 6.15403e-05 4
8.04272 5.9296 -2.3069 0.00297547 6
8.08208 5.95862 -1.95181 0.000640364 6
8.10375 5.9746 -1.59463 0.000275468 6
16.8487 12.4219 -2.57023 7.10175e-05 4
21.4012 15.7783 -2.32623 9.51428e-05 10
21.3956 15.7742 -1.3931 6.36312e-05 10
21.3965 15.7749 -0.464009 6.40255e-05 10
21.4021 15.779 0.464129 6.40216e-05 10
21.4059 15.7818 1.39377 7.50991e-05 10
21.4001 15.7775 4.21105 7.09579e-05 10
21.4055 15.7815 5.16938 6.87392e-05 10
7.90068 5.86756 -2.63694 0.000338449 4
8.04419 5.97414 -2.31329 0.00245305 6
8.05591 5.98285 -1.95052 0.000552336 6
8.10662 6.02051 -1.59932 0.000278453 6
16.7445 12.4355 -2.56093 8.94169e-05 4
21.262 15.7906 -2.31707 9.71996e-05 10
21.4072 15.8984 -1.39746 7.54388e-05 10
21.3977 15.8914 -0.465235 7.59444e-05 10
21.4031 15.8953 0.46535 7.59772e-05 10
21.264 15.792 1.38811 7.67209e-05 10
21.254 15.7846 4.19311 7.24975e-05 10
21.2689 15.7957 5.14969 7.02346e-05 10
7.88895 5.90168 -2.63988 0.000174341 4
8.06062 6.03011 -2.32405 0.00203751 6
8.04367 6.01743 -1.95263 0.000707839 6
8.08706 6.0499 -1.59962 0.000262238 6
16.6472 12.4537 -2.55269 7.30464e-05 4
21.111 15.793 -2.30661 9.92821e-05 10
21.1127 15.7943 -1.38182 7.84971e-05 10
21.1159 15.7967 -0.460303 7.90209e-05 10
21.1124 15.7941 0.460228 7.90551e-05 10
21.1052 15.7887 1.38133 7.83632e-05 10
21.1257 15.8041 4.17867 7.40566e-05 10
21.1152 15.7962 5.12579 7.17489e-05 10
7.87389 5.9334 -2.64176 0.000220475 4
8.07214 6.08279 -2.33348 0.00235908 6
8.03157 6.05222 -1.95481 0.000748717 6
8.08666 6.09373 -1.60374 0.000272498 6
16.5411 12.4646 -2.54307 6.81517e-05 4
20.979 15.8088 -2.2982 0.000101391 10
21.1318 15.924 -1.38671 7.73198e-05 10
21.1184 15.9138 -0.461566 7.78366e-05 10
21.1219 15.9165 0.461642 7.78703e-05 10
20.9687 15.8011 1.376 8.00257e-05 10
20.9847 15.8131 4.16167 7.56351e-05 10
20.9836 15.8122 5.1072 7.32822e-05 10
7.84473 5.95448 -2.63893 0.000497317 4
8.07787 6.13143 -2.34131 0.00273844 6
8.0213 6.08849 -1.95747 0.000690303 6
8.09349 6.14329 -1.60933 0.000273454 6
16.4339 12.474 -2.53327 5.80226e-05 4
20.8353 15.8149 -2.28849 0.000103525 10
20.8579 15.832 -1.37235 8.04832e-05 10
20.8433 15.821 -0.456759 8.10189e-05 10
20.8582 15.8322 0.457083 8.1054e-05 10
20.8288 15.8099 1.37043 8.17085e-05 10
20.8302 15.811 4.14195 7.72329e-05 10
20.8317 15.8121 5.08365 7.48345e-05 10
7.82627 5.98364 -2.63973 6.92095e-05 4
8.06252 6.16426 -2.34308 0.0030117 6
8.0063 6.12128 -1.95901 0.000692957 6
8.08334 6.18018 -1.6116 0.000269736 6
16.3293 12.4847 -2.52385 8.84638e-05 4
20.6931 15.8211 -2.27892 0.000105685 10
20.8566 15.946 -1.37591 7.92628e-05 10
20.8533 15.9435 -0.458193 7.97912e-05 10
20.8506 15.9415 0.458135 7.98258e-05 10
20.6941 15.8218 1.36519 8.34117e-05 10
20.684 15.8141 2.27792 8.23789e-05 10
20.6929 15.8209 3.19829 8.08511e-05 10
20.7047 15.8299 4.12794 7.88503e-05 10
20.6905 15.8191 5.06263 7.64056e-05 10
20.7034 15.8289 6.0167 7.35522e-05 10
20.696 15.8232 6.98057 7.03308e-05 10
7.79917 6.00616 -2.63765 0.000492123 4
8.06252 6.20897 -2.34937 0.00305953 6
8.00048 6.16119 -1.96284 0.000692279 6
8.08472 6.22607 -1.61619 0.000267346 6
20.5534 15.8282 -2.26961 0.00010787 10
20.5929 15.8587 -1.36216 8.25365e-05 10
20.5741 15.8442 -0.453271 8.30843e-05 10
20.5854 15.8529 0.453521 8.31203e-05 10
20.5546 15.8292 1.35963 8.5135e-05 10
20.5517 15.8269 2.26942 8.40826e-05 10
20.5516 15.8268 3.18496 8.25257e-05 10
20.5447 15.8216 4.10704 8.04869e-05 10
20.5649 15.8371 5.04538 7.79955e-05 10
20.554 15.8287 5.9893 7.50876e-05 10
20.5522 15.8273 6.95068 7.18043e-05 10
7.79215 6.04421 -2.64239 0.00023323 4
8.21115 6.36922 -2.39914 0.000988004 6
7.99969 6.20519 -1.96795 0.00068671 6
8.07035 6.26 -1.61768 0.000264959 6
20.4075 15.8297 -2.25959 0.000110081 10
20.5883 15.9699 -1.36554 8.12713e-05 10
20.5918 15.9726 -0.454887 8.18115e-05 10
20.5789 15.9627 0.454603 8.18472e-05 10
20.4284 15.8459 1.35494 8.68786e-05 10
20.4157 15.8361 2.2605 8.58065e-05 10
20.4137 15.8344 3.17214 8.42202e-05 10
20.4133 15.8342 4.09179 8.21429e-05 10
20.4188 15.8385 5.02309 7.96045e-05 10
20.4294 15.8467 5.96908 7.66413e-05 10
20.4233 15.842 6.92575 7.32956e-05 10
7.76155 6.06399 -2.63918 5.63814e-05 4
8.14084 6.36032 -2.38507 0.0011768 6
7.99643 6.24749 -1.9725 0.000608169 6
8.07361 6.30779 -1.62274 0.000232972 6
20.2825 15.8465 -2.25186 0.000112318 10
20.3014 15.8612 -1.35017 8.46602e-05 10
20.3207 15.8763 -0.450121 8.52207e-05 10
20.3055 15.8644 0.449784 8.52577e-05 10
20.2836 15.8472 1.34899 8.86425e-05 10
20.2894 15.8518 2.25263 8.75503e-05 10
20.2807 15.845 3.16006 8.59345e-05 10
20.276 15.8414 4.07533 8.38183e-05 10
20.2917 15.8536 5.00539 8.12323e-05 10
20.2737 15.8396 5.93971 7.82133e-05 10
20.283 15.8468 6.89687 7.48045e-05 10
7.73978 6.09061 -2.63899 0.000151194 4
8.06096 6.34335 -2.36814 0.00116751 6
8.0046 6.299 -1.97992 0.000538672 6
8.07642 6.35551 -1.62775 0.000232129 6
20.1504 15.8568 -2.24332 0.000114581 10
20.3294 15.9976 -1.35574 8.33484e-05 10
20.3278 15.9964 -0.451511 8.39009e-05 10
20.3201 15.9904 0.45134 8.39376e-05 10
20.1399 15.8486 1.34311 9.04265e-05 10
20.1505 15.8569 2.24333 8.93141e-05 10
20.1434 15.8513 3.14727 8.76684e-05 10
20.1409 15.8493 4.05926 8.5513e-05 10
20.1556 15.8609 4.98546 8.28788e-05 10
20.1582 15.863 5.92207 7.98037e-05 10
20.1421 15.8503 6.86774 7.63311e-05 10
7.7082 6.10944 -2.63548 8.45605e-05 4
8.0172 6.35435 -2.36179 0.00246698 6
8.01667 6.35393 -1.98838 0.00027669 6
8.08556 6.40853 -1.63409 0.000229622 6
20.0127 15.8619 -2.23415 0.000116869 10
20.0384 15.8822 -1.34002 8.68585e-05 10
20.0431 15.886 -0.446417 8.74318e-05 10
20.0448 15.8873 0.446454 8.747e-05 10
20.0122 15.8615 1.33827 9.22306e-05 10
20.0145 15.8633 2.23434 9.10979e-05 10
20.0117 15.8611 3.13532 8.94219e-05 10
20.0234 15.8703 4.04673 8.72269e-05 10
20.0213 15.8687 4.96591 8.45442e-05 10
20.0115 15.8609 5.89518 8.14122e-05 10
20.0234 15.8704 6.84612 7.78752e-05 10
7.70255 6.14886 -2.64087 0.00021523 4
8.01034 6.39457 -2.36633 0.000778365 6
8.36717 6.67942 -2.08109 0.000137296 6
8.08715 6.45588 -1.63896 0.000153881 6
19.8732 15.8645 -2.22474 0.000119183 10
20.0517 16.0071 -1.34464 8.54979e-05 10
20.0505 16.0061 -0.447823 8.60631e-05 10
20.0533 16.0084 0.447886 8.61008e-05 10
19.8798 15.8698 1.33311 9.40548e-05 10
19.8715 15.8632 2.22455 9.29015e-05 10
19.8857 15.8745 3.12423 9.1195e-05 10
19.8879 15.8763 4.03051 8.896e-05 10
19.8691 15.8613 4.94185 8.62283e-05 10
19.8866 15.8753 5.87469 8.30389e-05 10
19.8707 15.8626 6.81279 7.94369e-05 10
7.67429 6.17028 -2.63855 0.000297201 4
7.99668 6.4295 -2.36891 0.0007467 6
8.28351 6.66011 -2.06605 9.50337e-05 6
8.09768 6.5107 -1.64569 0.000136671 6
19.7567 15.8848 -2.21789 0.000121522 10
19.7359 15.8681 -1.32717 0.000123014 10
19.7397 15.8711 -0.442116 0.000123762 10
19.7554 15.8838 0.442468 0.000123755 10
19.7573 15.8853 1.32861 9.58991e-05 10
19.319 15.5329 2.16876 0.000103192 10
19.3238 15.5367 3.04446 0.000101316 10
19.7562 15.8844 4.01504 9.07123e-05 10
19.7553 15.8836 4.9273 8.79312e-05 10
19.3307 15.5422 5.72644 9.23422e-05 10
19.328 15.5401 6.64528 8.83768e-05 10
7.64488 6.1907 -2.63585 4.09904e-05 4
7.98669 6.4675 -2.37262 0.000655562 6
8.21089 6.64904 -2.05371 0.000102853 6
19.6075 15.8778 -2.20735 0.000123886 10
19.6062 15.8768 -1.32217 0.000125405 10
19.6217 15.8893 -0.440712 0.000126166 10
19.6263 15.893 0.440815 0.000126159 10
19.6178 15.8862 1.32295 9.77633e-05 10
19.1959 15.5445 2.16102 0.000105183 10
19.2997 15.6286 3.04924 0.000110924 10
19.6071 15.8775 3.99598 9.24837e-05 10
19.6187 15.8869 4.90705 8.96526e-05 10
19.201 15.5487 5.70408 9.41397e-05 10
19.2928 15.623 6.65191 9.69529e-05 10
7.62618 6.21976 -2.63687 3.58642e-05 4
8.84994 7.21783 -2.63654 6.11996e-05 4
7.99014 6.5166 -2.00418 0.00109143 6
19.4919 15.8972 -2.20057 0.000126276 10
19.4808 15.8881 -1.31744 0.000127822 10
19.482 15.8891 -0.438817 0.000128597 10
19.4938 15.8988 0.439084 0.000128589 10
19.4937 15.8986 1.31831 9.96473e-05 10
19.083 15.5637 2.1544 0.000107195 10
19.317 15.7546 3.06065 0.000109167 10
19.0714 15.5542 3.89784 0.000102705 10
19.4887 15.8946 4.88838 9.13926e-05 10
19.0728 15.5554 5.68208 9.59565e-05 10
19.2908 15.7332 6.67009 9.54013e-05 10
7.60672 6.24823 -2.63767 9.99002e-05 4
7.96124 6.53943 -2.00264 0.00165464 6
19.3618 15.9039 -2.19213 0.000128691 10
19.3585 15.9013 -1.31292 0.000130264 10
19.3574 15.9004 -0.43726 0.000131052 10
19.3608 15.9031 0.437336 0.000131045 10
19.3573 15.9002 1.31283 0.000101551 10
18.9458 15.5623 2.14504 0.000109227 10
19.3226 15.8717 3.07029 0.000107424 10
18.9537 15.5688 3.88488 0.000104659 10
19.3469 15.8917 4.8667 9.3151e-05 10
18.9462 15.5626 5.66051 9.77924e-05 10
19.3104 15.8617 6.69597 9.38619e-05 10
7.59009 6.27907 -2.63949 0.000143436 4
8.7913 7.27279 -2.63413 5.67121e-05 4
7.97784 6.59984 -2.0126 0.00105805 6
19.2393 15.9161 -2.18454 0.000131131 10
19.3337 15.9942 -1.31501 0.000139456 10
19.3283 15.9898 -0.43786 0.000140371 10
19.3335 15.9941 0.437978 0.000140433 10
19.2348 15.9124 1.30829 0.000103475 10
18.8303 15.5778 2.1381 0.000111281 10
19.2986 15.9652 3.07532 6.79174e-05 10
18.833 15.58 3.87126 0.000106634 10
19.2194 15.8997 4.84855 9.4928e-05 10
18.817 15.5667 5.63811 3.35382e-05 10
19.2771 15.9474 6.70369 5.93381e-05 10
7.57754 6.31336 -2.64277 9.22026e-05 4
7.98684 6.65438 -2.02072 0.001037 6
19.104 15.9169 -2.17548 0.000133596 10
19.3464 16.1188 -1.3197 0.000137196 10
19.3409 16.1142 -0.439417 0.000138097 10
19.34 16.1135 0.439396 0.000138158 10
19.113 15.9243 1.30378 0.000105418 10
18.696 15.5769 2.12902 0.000113355 10
18.6902 15.5721 3.85306 0.000108628 10
19.0971 15.9111 4.83167 9.67235e-05 10
18.7724 15.6406 5.64108 3.35418e-05 10
7.54442 6.33052 -2.63891 0.000105001 4
8.02566 6.73433 -2.03647 9.69064e-05 6
18.9742 15.9212 -2.16701 0.000136086 10
19.3404 16.2285 -1.32315 0.000134954 10
19.3351 16.2241 -0.440569 0.000135842 10
19.3339 16.2231 0.440541 0.000135903 10
18.564 15.5771 1.27003 0.000116856 10
18.5796 15.5901 2.12195 0.00011545 10
18.5655 15.5783 2.97576 0.000113369 10
18.5824 15.5925 3.84202 0.000110643 10
18.9771 15.9237 4.81535 9.85374e-05 10
18.7108 15.7002 5.639 3.35455e-05 10
7.52523 6.35931 -2.63994 8.19463e-05 4
8.73484 7.38151 -2.64023 9.99669e-05 4
10.3487 8.74535 -2.63367 6.8846e-05 4
12.6788 10.7145 -2.62915 4.00795e-05 4
18.8604 15.9382 -2.16035 0.000138601 10
18.4483 15.59 1.26583 0.000118995 10
18.446 15.5881 2.11289 0.000117566 10
18.4512 15.5925 2.96613 0.00011545 10
18.4454 15.5876 3.82493 0.000112678 10
18.4528 15.5938 4.69609 0.000109287 10
18.4505 15.5919 5.57692 0.000105327 10
18.4509 15.5922 6.4728 0.00010085 10
7.49832 6.38157 -2.6383 0.000133153 4
8.69645 7.40126 -2.63642 0.00011637 4
10.3179 8.7812 -2.63361 5.1049e-05 4
12.642 10.7592 -2.62929 7.34129e-05 4
18.7226 15.9342 -2.15093 0.000141141 10
18.3525 15.6192 1.26298 8.71617e-05 10
18.3631 15.6282 2.10963 8.61155e-05 10
18.4037 15.6628 2.96727 0.000120884 10
18.3304 15.6004 3.81235 0.000114732 10
18.3418 15.6101 4.68167 0.000111285 10
18.3604 15.6259 5.56615 7.71584e-05 10
18.3827 15.6449 6.46799 0.000105817 10
7.48595 6.41623 -2.64181 0.000153627 4
8.68283 7.44209 -2.64015 3.87865e-05 4
10.3003 8.82846 -2.63698 3.09355e-05 4
12.6212 10.8176 -2.63278 6.53219e-05 4
18.608 15.949 -2.14415 0.000143705 10
18.201 15.6002 1.2563 0.000115677 10
18.2423 15.6356 2.10201 8.76679e-05 10
18.4112 15.7803 2.97735 0.000118895 10
18.2108 15.6086 3.79879 0.000116806 10
18.2144 15.6117 4.66306 0.000113302 10
18.2345 15.6289 5.54449 7.85616e-05 10
18.3929 15.7646 6.4909 0.000104059 10
8.64955 7.46609 -2.63794 7.01081e-05 4
10.2655 8.86096 -2.63597 3.55721e-05 4
12.5716 10.8515 -2.63032 6.26195e-05 4
18.4794 15.951 -2.13573 0.000146294 10
18.0954 15.6196 1.25277 0.000117742 10
18.1189 15.6398 2.09407 8.92348e-05 10
18.4084 15.8897 2.98585 0.000116923 10
18.0904 15.6152 3.78502 0.0001189 10
18.0908 15.6155 4.64533 0.000115338 10
18.1253 15.6453 5.52784 7.99783e-05 10
18.4037 15.8857 6.51427 0.000102315 10
7.43229 6.46079 -2.63873 0.000248329 4
10.2327 8.89518 -2.63551 7.57759e-05 4
12.5397 10.9006 -2.6316 6.29475e-05 4
18.3488 15.9504 -2.12706 0.000148907 10
17.9696 15.6207 1.24782 0.000119826 10
17.9922 15.6404 2.08572 9.08164e-05 10
18.4146 16.0076 2.9959 0.000114968 10
17.9656 15.6172 4.62715 0.000117393 10
18.0004 15.6475 5.50637 8.14083e-05 10
18.4173 16.0099 6.53879 0.000100587 10
7.40935 6.4864 -2.63861 0.000120316 4
8.58991 7.51989 -2.6357 0.00010589 4
12.5018 10.9445 -2.63165 5.95731e-05 4
18.2456 15.9729 -2.12155 0.000151545 10
17.8513 15.6276 1.24339 0.000121928 10
17.8711 15.645 2.078 9.24123e-05 10
18.4298 16.1341 3.00751 0.000113029 10
17.8527 15.6289 4.61211 0.000119467 10
17.8734 15.647 5.4842 8.28516e-05 10
18.4253 16.1301 6.56159 9.88732e-05 10
7.39288 6.5177 -2.64083 0.000197099 4
8.56515 7.55119 -2.63617 3.42994e-05 4
10.1695 8.96565 -2.63529 3.24685e-05 4
18.1173 15.9725 -2.11309 0.000154206 10
17.7429 15.6425 1.23964 0.00012405 10
17.7488 15.6477 2.07012 9.40229e-05 10
18.4433 16.2599 3.01895 0.000111108 10
17.7247 15.6264 4.5931 0.00012156 10
17.7651 15.662 5.46771 8.43082e-05 10
18.4328 16.2507 6.58442 9.71749e-05 10
7.37361 6.5466 -2.64209 0.000148453 4
8.54853 7.58974 -2.63919 0.000156571 4
10.1466 9.00861 -2.63749 6.87949e-05 4
12.5754 11.165 -2.66349 6.5917e-05 4
18.0092 15.9893 -2.10699 0.000156892 10
17.9885 15.9709 -1.26068 0.000104878 10
17.9913 15.9734 -0.419951 0.000105503 10
18.0002 15.9813 0.420159 0.000105498 10
17.6282 15.6511 1.23543 0.00012619 10
17.6408 15.6623 2.06389 9.56477e-05 10
18.4329 16.3655 3.02659 0.000109203 10
18.4291 16.3621 3.90329 0.000106615 10
17.6274 15.6503 4.582 0.000123672 10
17.639 15.6606 5.44569 8.57779e-05 10
18.4394 16.3713 6.60718 9.54918e-05 10
7.34852 6.57033 -2.6413 0.000125408 4
8.52749 7.62445 -2.6409 0.000108844 4
10.0959 9.0268 -2.63248 5.02381e-05 4
12.7531 11.4025 -2.70952 7.24864e-05 4
17.8745 15.9816 -2.09774 0.000159602 10
17.9845 16.08 -1.26433 0.000103668 10
17.9838 16.0793 -0.421084 0.000104339 10
17.9724 16.0692 0.420818 0.000104386 10
17.4945 15.6419 1.22988 0.00012835 10
17.533 15.6763 2.05767 9.72867e-05 10
18.4517 16.4977 3.03911 0.000107315 10
18.4404 16.4876 3.91787 0.000104769 10
17.5046 15.6509 4.56427 0.000125802 10
17.523 15.6673 5.42673 8.72607e-05 10
18.4473 16.4937 6.63056 9.3824e-05 10
7.31831 6.58943 -2.6387 0.000409466 4
8.48993 7.64437 -2.63751 8.19989e-05 4
10.0762 9.07267 -2.63558 3.40036e-05 4
12.7151 11.4488 -2.70994 5.03346e-05 1
17.7681 15.9984 -2.09179 0.000162335 10
17.7594 15.9906 -1.25242 0.000108513 10
17.7602 15.9913 -0.417153 0.000109158 10
17.7724 16.0023 0.41744 0.000109152 10
17.3981 15.6653 1.22694 0.000130527 10
17.4038 15.6704 2.04891 9.89399e-05 10
18.4651 16.6261 3.05087 0.000105445 10
18.4556 16.6175 3.93339 0.000102939 10
17.3938 15.6614 4.54959 0.000127951 10
17.4134 15.6791 5.40971 8.87566e-05 10
18.4526 16.6148 6.6533 9.21717e-05 10
7.307 6.62558 -2.64294 0.000237985 4
8.46657 7.67702 -2.63857 5.36673e-05 4
10.0346 9.09881 -2.63298 6.10454e-05 4
12.6612 11.4805 -2.70697 5.03275e-05 1
17.6512 16.0051 -2.08459 0.000165092 10
17.7158 16.0637 -1.25329 0.000106601 10
17.7003 16.0496 -0.417059 0.000107289 10
17.7163 16.0641 0.417436 0.000107337 10
17.2728 15.662 1.22195 0.000132724 10
17.287 15.6749 2.04158 0.000100607 10
18.458 16.7367 3.05932 0.000103591 10
18.4604 16.7389 3.94685 0.000101127 10
17.2735 15.6627 4.53241 0.000130119 10
17.2964 15.6835 5.39035 9.02653e-05 10
18.4613 16.7397 6.67745 9.0535e-05 10
7.27553 6.64347 -2.63993 0.000150969 4
8.44583 7.7121 -2.64048 6.85689e-05 4
10.0088 9.13929 -2.63457 3.47689e-05 4
12.6262 11.5293 -2.70807 5.03204e-05 1
17.5232 16.0009 -2.07607 0.000167872 10
17.7045 16.1664 -0.418486 0.000105423 10
17.7199 16.1805 0.418849 0.000105471 10
17.1568 15.6663 1.21761 0.000134939 10
17.1913 15.6978 2.03674 0.000102288 10
18.4786 16.8733 3.07248 0.000101755 10
18.4676 16.8632 3.96094 9.93311e-05 10
17.1603 15.6695 4.51702 0.000132304 10
17.1845 15.6916 5.3725 9.17869e-05 10
18.4595 16.8558 6.69805 8.89137e-05 10
7.25045 6.66713 -2.63926 8.95511e-05 4
8.41581 7.73874 -2.63952 4.32244e-05 4
12.5933 11.5801 -2.70967 5.03132e-05 1
17.4155 16.0144 -2.06991 0.000170675 10
17.438 16.035 -1.24153 0.000109658 10
17.4458 16.0422 -0.413692 0.000110363 10
17.4314 16.029 0.41335 0.000110414 10
17.0384 15.6676 1.21308 0.000137171 10
17.0598 15.6873 2.02763 0.000103984 10
18.4754 16.989 3.08179 9.99369e-05 10
18.466 16.9804 3.9733 9.75527e-05 10
17.0525 15.6806 4.50303 0.000134508 10
17.0811 15.7068 5.35728 9.33213e-05 10
18.4695 16.9836 6.72316 8.73082e-05 10
7.23567 6.7003 -2.64238 0.00016118 4
9.95368 9.2172 -2.63694 5.63907e-05 4
12.5403 11.6124 -2.70697 5.03061e-05 1
17.2992 16.0192 -2.06272 0.000173502 10
17.438 16.1478 -1.24554 0.00010773 10
17.4482 16.1572 -0.415084 0.000108424 10
17.445 16.1542 0.415007 0.000108474 10
16.9402 15.6868 1.20998 0.000139422 10
16.9479 15.6939 2.02083 0.000105692 10
18.4868 17.1189 3.09363 9.81361e-05 10
18.4734 17.1066 3.98771 9.57916e-05 10
16.9329 15.68 4.48588 0.00013673 10
16.9523 15.698 5.33405 9.48682e-05 10
18.4788 17.1116 6.74823 8.57185e-05 10
7.21557 6.72863 -2.6436 0.000102329 4
8.36656 7.80194 -2.64109 7.15312e-05 4
9.92003 9.25057 -2.63656 8.57354e-05 4
12.5138 11.6693 -2.71002 5.02989e-05 1
17.1931 16.0328 -2.05674 0.000176351 10
17.1908 16.0306 -1.23187 0.000117873 10
17.1798 16.0204 -0.410026 0.000118569 10
17.1869 16.027 0.410196 0.000118563 10
16.8344 15.6984 1.20633 0.000141691 10
16.8385 15.7021 2.01431 0.000107415 10
18.5031 17.2544 3.10642 9.63527e-05 10
18.481 17.2338 4.0023 9.40476e-05 10
16.823 15.6877 4.47125 0.000138971 10
16.8501 15.713 5.31912 9.64277e-05 10
18.4891 17.2414 6.77393 8.41445e-05 10
7.18427 6.74647 -2.64074 0.000138134 4
8.3217 7.8146 -2.63553 8.49359e-05 4
12.4726 11.7126 -2.70995 5.02916e-05 1
17.0653 16.0254 -2.04813 0.000179224 10
17.1639 16.118 -1.23397 0.000110842 10
17.1635 16.1176 -0.410979 0.000111554 10
17.1611 16.1153 0.41092 0.000111606 10
16.7232 15.7042 1.20228 0.000143978 10
16.7418 15.7216 2.0093 0.000109151 10
18.4906 17.3638 3.11447 9.45869e-05 10
18.4954 17.3683 4.01853 9.2321e-05 10
16.7125 15.6941 4.45641 0.000141229 10
16.7362 15.7164 5.30045 9.79997e-05 10
18.502 17.3745 6.80084 8.25862e-05 10
7.16791 6.77836 -2.64341 0.000214859 4
8.3062 7.85478 -2.63928 0.000126648 4
9.85502 9.31942 -2.63651 0.000117378 4
12.4198 11.7448 -2.70737 5.02844e-05 1
16.9621 16.0402 -2.04244 0.000182118 10
16.973 16.0506 -1.22426 0.000121724 10
16.9714 16.049 -0.407716 0.000122442 10
16.9611 16.0393 0.40747 0.000122435 10
16.6036 15.7013 1.19762 0.000146283 10
16.6298 15.726 2.00243 0.000110901 10
18.5086 17.5027 3.12778 9.28389e-05 10
18.5078 17.502 4.03448 9.06117e-05 10
16.6093 15.7066 4.44347 0.000143504 10
16.6287 15.7249 5.28373 9.95842e-05 10
18.4911 17.4861 6.81921 8.1044e-05 10
7.12936 6.7892 -2.63792 0.000107422 4
8.27141 7.87676 -2.63695 4.46951e-05 4
9.81701 9.34861 -2.63506 4.16954e-05 4
12.3548 11.7653 -2.70214 0.00017113 4
16.8516 16.0476 -2.03588 0.000185036 10
16.8929 16.0869 -1.22252 0.000114092 10
16.8947 16.0886 -0.407222 0.000114823 10
16.8993 16.093 0.407333 0.000114875 10
16.4881 15.7014 1.19323 0.000148605 10
16.5245 15.736 1.99636 0.000112664 10
18.5052 17.6222 3.13758 9.11087e-05 10
18.5094 17.6263 4.04821 8.89198e-05 10
16.4865 15.6999 4.42528 0.000145797 10
16.5256 15.7371 5.26841 0.000101181 10
18.5103 17.6271 6.84896 7.95177e-05 10
7.11482 6.82287 -2.64133 0.000148333 4
8.23768 7.89965 -2.63497 4.76706e-05 4
9.78349 9.38202 -2.63483 4.16908e-05 4
12.2804 11.7765 -2.69484 0.000162938 4
16.749 16.0617 -2.03024 0.000187975 10
16.9068 16.213 -1.22762 0.000112027 10
16.9021 16.2086 -0.408761 0.000112745 10
16.9077 16.2139 0.408897 0.000112798 10
16.3981 15.7252 1.19068 0.000150944 10
16.42 15.7462 1.99036 0.00011444 10
18.5042 17.7449 3.1479 0.000116889 10
18.5133 17.7536 4.0626 9.4302e-05 10
16.394 15.7213 4.41514 0.000148108 10
16.4035 15.7304 5.24695 0.00010279 10
18.5198 17.7598 6.87535 0.000101773 10
7.08442 6.84135 -2.6389 0.000227598 4
8.22845 7.94612 -2.64087 8.04369e-05 4
12.2036 11.7849 -2.687 0.000133694 4
16.633 16.0623 -2.02297 0.000190937 10
16.6313 16.0607 -1.21168 0.000127613 10
16.6351 16.0643 -0.403657 0.000128362 10
16.6242 16.0538 0.403393 0.000128355 10
16.277 15.7186 1.18587 0.000153301 10
16.2957 15.7366 1.98194 0.000116229 10
18.4644 17.8308 3.15169 0.000117095 10
18.3892 17.7582 4.04894 9.58537e-05 10
16.2729 15.7145 4.39727 0.000150435 10
16.3008 15.7415 5.23164 0.000104411 10
18.4614 17.828 6.87676 0.00010195 10
7.06641 6.87178 -2.64111 0.000120183 4
12.1235 11.7896 -2.67839 8.8878e-05 4
16.5175 16.0625 -2.01572 0.00019392 10
16.6425 16.1841 -1.2166 0.000115339 10
16.6342 16.1761 -0.405004 0.000116077 10
16.6338 16.1757 0.404993 0.000116131 10
16.1664 15.7211 1.1818 0.000155675 10
16.1871 15.7412 1.9754 0.000118032 10
18.2812 17.7777 4.0388 9.74178e-05 10
16.1704 15.725 4.38437 0.00015278 10
16.1956 15.7495 5.21549 0.000106044 10
7.04854 6.90244 -2.64342 7.1593e-05 4
8.16896 7.99964 -2.63964 3.87219e-05 4
9.68098 9.48032 -2.63382 4.55359e-05 4
12.0453 11.7957 -2.67021 0.000154088 4
16.4229 16.0825 -2.01102 0.000196925 10
16.408 16.0679 -1.20356 0.000131611 10
16.4187 16.0783 -0.40112 0.000132382 10
16.4094 16.0693 0.400893 0.000132375 10
16.0655 15.7325 1.17843 0.000158065 10
16.0848 15.7514 1.96962 0.000119847 10
18.1451 17.769 4.0224 9.89942e-05 10
16.0588 15.726 4.36898 0.000155142 10
16.0977 15.7641 5.20168 0.000107688 10
7.02271 6.92533 -2.64278 6.90309e-05 4
8.14666 8.0337 -2.64148 6.70127e-05 4
9.6469 9.51313 -2.63357 6.71387e-05 4
11.9807 11.8146 -2.66502 0.000151418 4
16.3123 16.0861 -2.00433 0.000199951 10
16.3582 16.1314 -1.20402 0.000118804 10
16.368 16.1411 -0.401257 0.000119561 10
16.3559 16.1291 0.40096 0.000119617 10
15.9638 15.7425 1.175 0.000160472 10
15.9787 15.7571 1.96335 0.000121675 10
18.0253 17.7754 4.00958 0.000100583 10
15.9551 15.7338 4.35567 0.00015752 10
15.9824 15.7607 5.18214 0.000109345 10
7.00081 6.95211 -2.64366 0.000506189 4
8.10986 8.05344 -2.63865 6.25395e-05 4
9.6254 9.55843 -2.63679 4.47541e-05 4
11.894 11.8112 -2.65487 0.000171298 4
16.1976 16.0849 -1.99713 0.000202998 10
16.3672 16.2533 -1.20886 0.00011659 10
16.3749 16.261 -0.402814 0.000117335 10
16.368 16.2541 0.402644 0.00011739 10
15.8611 15.7508 1.17148 0.000162896 10
15.8792 15.7687 1.95788 0.000123515 10
17.9088 17.7842 3.99746 0.000102183 10
15.8477 15.7375 4.34133 0.000159915 10
15.8807 15.7702 5.167 0.000111013 10
6.96626 6.96626 -2.63978 0.000587952 4
8.08063 8.08063 -2.6383 8.78452e-05 4
9.59713 9.59713 -2.6382 4.93783e-05 4
11.8231 11.8231 -2.64826 0.000149511 4
16.0937 16.0937 -1.99123 0.000206067 10
24.4307 24.4307 -1.8107 3.53074e-05 10
24.4368 24.4368 -0.603228 3.55538e-05 10
24.4287 24.4287 0.603028 3.55518e-05 10
15.7508 15.7508 1.16739 0.000165337 10
15.7692 15.7692 1.95109 0.000125368 10
17.7857 17.7857 3.98382 0.000103796 10
15.7516 15.7516 4.33005 0.000162326 10
15.7844 15.7844 5.15355 0.000112692 10
6.95228 7.00099 -2.64372 0.000508668 4
8.06079 8.11726 -2.64106 5.21068e-05 4
9.55379 9.62072 -2.63551 5.24586e-05 4
11.7475 11.8298 -2.64055 0.000168352 4
15.99 16.102 -1.98534 0.000209156 10
19.9922 20.1323 -1.48694 8.60585e-05 10
19.997 20.1371 -0.495362 8.66075e-05 10
19.981 20.1209 0.494964 8.66029e-05 10
15.6544 15.764 1.16431 0.000167793 10
15.6691 15.7788 1.9455 0.000127234 10
17.68 17.8039 3.97403 0.00010542 10
15.6416 15.7512 4.3149 0.000164754 10
15.6755 15.7853 5.13595 0.000114383 10
6.92031 7.01762 -2.64087 0.000503518 4
8.02426 8.13709 -2.63838 5.80566e-05 4
9.52441 9.65833 -2.63669 3.23972e-05 4
11.6786 11.8428 -2.63434 0.000174074 4
15.8826 16.106 -1.97899 0.000212266 10
19.8653 20.1446 -1.48272 8.74581e-05 10
19.8602 20.1395 -0.493712 8.80154e-05 10
19.8538 20.133 0.493552 8.80106e-05 10
15.5497 15.7683 1.16061 0.000170266 10
15.5727 15.7917 1.94037 0.000129111 10
17.5561 17.8029 3.96012 0.000107056 10
15.5435 15.7621 4.30298 0.000167198 10
15.571 15.7899 5.11974 0.000116086 10
6.8973 7.04329 -2.64145 0.000393583 4
7.98885 8.15794 -2.63608 4.61433e-05 4
9.49325 9.69418 -2.63741 3.54787e-05 4
11.5907 11.836 -2.6238 0.000151885 4
15.7739 16.1078 -1.97243 0.000215396 10
19.7295 20.1472 -1.47783 8.88685e-05 10
19.7303 20.1479 -0.492228 8.9434e-05 10
19.7184 20.1358 0.491931 8.94293e-05 10
15.4408 15.7677 1.15659 0.000172754 10
15.4636 15.7909 1.93363 0.000131001 10
17.4459 17.8152 3.0616 0.000134703 10
17.4528 17.8223 3.95084 0.000108704 10
15.4497 15.7767 4.29223 0.000169657 10
15.4742 15.8017 5.10603 0.000117799 10
17.447 17.8163 6.68166 0.000117468 10
6.87668 7.07144 -2.64299 0.000518774 4
7.9745 8.20036 -2.64078 5.65577e-05 4
11.5225 11.8488 -2.61772 0.000150209 4
15.6805 16.1246 -1.96778 0.000218546 10
19.5944 20.1494 -1.47297 9.02897e-05 10
19.5953 20.1503 -0.490611 9.08635e-05 10
19.5947 20.1496 0.490595 9.08587e-05 10
15.3507 15.7855 1.15395 0.000175258 10
15.3538 15.7886 1.92677 0.000132903 10
17.3334 17.8243 3.05275 0.000113109 10
17.3381 17.8291 3.93893 0.000110363 10
15.3476 15.7823 4.27916 0.000172132 10
15.3597 15.7948 5.08642 0.000119523 10
17.3407 17.8318 6.66472 9.86542e-05 10
6.84319 7.08633 -2.63961 0.000549398 4
11.4592 11.8663 -2.61274 0.000150951 4
15.577 16.1305 -1.96185 0.000221716 10
19.5795 20.2752 -1.47715 7.67141e-05 10
19.5783 20.274 -0.491956 7.72466e-05 10
19.5874 20.2833 0.492183 7.72868e-05 10
15.2324 15.7736 1.14919 0.000177778 10
15.2577 15.7998 1.92163 0.000134816 10
17.2143 17.8259 3.04271 0.000114818 10
17.2089 17.8203 3.92368 0.000112034 10
15.243 15.7846 4.26532 0.000174623 10
15.2561 15.7982 5.07034 0.000121259 10
17.222 17.8339 6.64302 0.000100161 10
6.82074 7.1126 -2.64051 0.00044715 4
7.9061 8.2444 -2.63712 0.000206844 4
9.38315 9.78466 -2.63515 6.09101e-05 4
11.3846 11.8718 -2.60516 0.000133182 4
15.4586 16.1201 -1.95401 0.000224905 10
19.6015 20.4403 -1.48419 7.50855e-05 10
19.5869 20.425 -0.49396 7.56078e-05 10
19.5806 20.4185 0.493801 7.56474e-05 10
15.1382 15.7859 1.14623 0.000192251 10
15.1354 15.7831 1.91315 0.000190027 10
15.1475 15.7957 2.68714 0.000186734 10
15.1478 15.796 3.4663 0.000182415 10
15.1392 15.787 4.25166 0.000177129 10
15.1404 15.7883 5.05016 0.000170946 10
15.1488 15.797 5.86454 0.00016395 10
6.80259 7.14342 -2.64312 0.000447116 4
7.88235 8.27728 -2.63882 0.000160699 4
11.3032 11.8696 -2.596 0.000143723 4
15.3715 16.1417 -1.95011 0.000228114 10
23.3298 24.4987 -1.77296 3.98593e-05 10
23.3339 24.503 -0.590607 4.01347e-05 10
23.3273 24.4961 0.59044 4.01324e-05 10
15.043 15.7967 1.14319 0.000194969 10
15.0443 15.798 1.90859 0.000192717 10
15.0502 15.8043 2.67965 0.00018938 10
15.0392 15.7927 3.45403 0.000185005 10
15.0336 15.7868 4.23745 0.00017965 10
15.0505 15.8046 5.03854 0.000173386 10
15.0351 15.7884 5.84183 0.000166297 10
6.76698 7.15588 -2.63897 0.000135402 4
7.85414 8.30551 -2.63907 5.35612e-05 4
11.2398 11.8857 -2.59095 0.000161813 4
15.2567 16.1335 -1.94268 0.000231342 10
23.1721 24.5038 -1.76746 4.05322e-05 10
23.1701 24.5016 -0.588622 4.08119e-05 10
23.1836 24.5159 0.588965 4.08096e-05 10
14.9952 15.8569 1.14376 0.000164101 10
14.9771 15.8378 1.90707 0.00016229 10
14.9913 15.8528 2.67899 0.000159565 10
14.986 15.8473 3.45452 0.000155963 10
14.9748 15.8354 4.23645 0.000151531 10
14.9821 15.8432 5.03415 0.000146329 10
14.982 15.843 5.84265 0.000140427 10
6.74279 7.18034 -2.6393 9.45185e-05 4
7.83401 8.34237 -2.64207 0.000117526 4
11.1514 11.875 -2.58011 0.000156291 4
15.1541 16.1375 -1.93677 0.000234588 10
15.1691 16.1534 -1.16132 0.000237324 10
15.1632 16.1472 -0.386642 0.000238695 10
15.1642 16.1483 0.386668 0.000238683 10
15.0008 15.9742 1.14844 0.000160885 10
14.9878 15.9603 1.91551 0.000159108 10
14.9886 15.9612 2.68844 0.000156433 10
14.9922 15.9651 3.46876 0.000152896 10
14.9817 15.9539 4.25412 0.000148545 10
14.9906 15.9633 5.05568 0.000143438 10
14.9765 15.9483 5.86216 0.000137643 10
6.725 7.21168 -2.64217 0.000424023 4
7.79344 8.35744 -2.63821 9.81774e-05 4
9.2515 9.92101 -2.63682 3.69917e-05 4
11.0877 11.8901 -2.57497 0.000177072 4
15.0722 16.1629 -1.9335 0.000237854 10
15.0656 16.1559 -1.15771 0.000240624 10
15.0697 16.1603 -0.385694 0.000242013 10
15.0579 16.1477 0.385393 0.000242001 10
14.9982 16.0836 1.15253 0.000157706 10
14.9984 16.0838 1.92403 0.000155961 10
15.0063 16.0923 2.70169 0.000153335 10
15.0065 16.0925 3.48505 0.000149863 10
14.9861 16.0706 4.27127 0.000145592 10
14.9942 16.0794 5.07581 0.00014058 10
14.9943 16.0794 5.89108 0.000134892 10
6.69121 7.22585 -2.63879 8.93955e-05 4
7.77184 8.39282 -2.6408 0.0001889 4
11.02 11.9005 -2.56887 0.000121078 4
14.9694 16.1654 -2.70518 0.00023697 10
14.9726 16.1689 -1.92795 0.000241137 10
14.971 16.1673 -1.15477 0.000243943 10
14.9672 16.1631 -0.384512 0.000245349 10
14.9663 16.1621 0.384489 0.000245338 10
14.9573 16.1524 1.15371 0.000190178 10
14.9724 16.1687 1.92793 0.000187973 10
14.9701 16.1663 2.70531 0.000184707 10
14.9636 16.1592 3.48816 0.000180425 10
14.9678 16.1637 4.2821 0.000175184 10
14.9572 16.1524 5.08234 0.000169054 10
14.9677 16.1636 5.90275 0.000162118 10
6.67669 7.26085 -2.64305 0.000114928 4
7.74008 8.41727 -2.63998 5.80031e-05 4
10.9401 11.8973 -2.55992 0.000139316 4
14.8731 16.1744 -2.69796 0.000240219 10
14.8628 16.1632 -1.92107 0.000244439 10
14.8734 16.1747 -1.15158 0.00024728 10
14.8689 16.1698 -0.383434 0.000248704 10
14.8648 16.1654 0.383329 0.000248693 10
14.8557 16.1555 1.15022 0.00019278 10
14.8569 16.1568 1.92031 0.000190547 10
14.8714 16.1725 2.69765 0.00018724 10
14.8734 16.1747 3.48027 0.000182904 10
14.8607 16.1608 4.26758 0.000177596 10
14.8623 16.1626 5.06921 0.000171389 10
14.8637 16.1642 5.88398 0.000164364 10
6.64156 7.27344 -2.63917 6.63978e-05 4
7.70869 8.4421 -2.63931 0.000142764 4
10.8761 11.9108 -2.55465 0.000181851 4
14.7571 16.161 -2.68713 0.000243486 10
14.7621 16.1666 -1.91534 0.000247758 10
14.7753 16.1811 -1.14836 0.000250635 10
14.7644 16.1691 -0.382193 0.000252077 10
14.768 16.173 0.382286 0.000252065 10
14.7617 16.1661 1.1473 0.000195396 10
14.7568 16.1608 1.91465 0.000193135 10
14.7571 16.1611 2.68714 0.000189786 10
14.7682 16.1732 3.46884 0.000185396 10
14.7759 16.1816 4.25942 0.000180021 10
14.7576 16.1617 5.05273 0.000173736 10
14.7736 16.1792 5.87062 0.000166622 10
6.62787 7.30952 -2.64385 0.00011491 4
7.6834 8.47361 -2.64076 7.28621e-05 4
9.10701 10.0436 -2.63536 4.54481e-05 4
10.8046 11.9159 -2.54762 0.000163423 4
14.6665 16.175 -2.68092 0.00024677 10
14.6596 16.1673 -1.90936 0.000251095 10
14.6662 16.1745 -1.14426 0.000254008 10
14.6616 16.1695 -0.380991 0.000255468 10
14.6694 16.1781 0.381192 0.000255456 10
14.6707 16.1796 1.14461 0.000198025 10
14.6754 16.1847 1.9114 0.000195736 10
14.6594 16.1671 2.67961 0.000192346 10
14.6691 16.1778 3.45881 0.000187901 10
14.6713 16.1802 4.24553 0.00018246 10
14.665 16.1733 5.04033 0.000176095 10
14.668 16.1766 5.85107 0.000168892 10
6.58675 7.31532 -2.63762 0.000125115 4
7.64686 8.4927 -2.63838 8.92105e-05 4
9.08174 10.0863 -2.63822 5.3145e-05 4
10.732 11.919 -2.54027 0.000135859 4
14.5783 16.1909 -2.67511 0.00025007 10
14.5676 16.179 -1.90471 0.000254449 10
14.6661 16.2883 -1.14868 0.000201065 10
14.66 16.2816 -0.382424 0.000202331 10
14.6621 16.2839 0.382478 0.00020243 10
14.564 16.175 1.14069 0.000200668 10
14.5625 16.1733 1.90405 0.000198351 10
14.58 16.1927 2.67541 0.000194919 10
14.5809 16.1937 3.45132 0.000190419 10
14.5675 16.1788 4.23181 0.00018491 10
14.5755 16.1877 5.02894 0.000178467 10
14.5633 16.1741 5.83177 0.000171175 10
6.57623 7.35511 -2.64368 0.000130211 4
7.62515 8.52827 -2.64114 0.000111503 4
9.04553 10.1169 -2.63794 3.77362e-05 4
10.6714 11.9353 -2.53579 0.000183972 4
14.4718 16.1859 -2.66591 0.000253388 10
14.4749 16.1893 -1.89997 0.00025782 10
14.6577 16.3937 -1.1525 0.000196918 10
14.6637 16.4005 -0.384012 0.000198161 10
14.6623 16.3989 0.383974 0.000198259 10
14.4666 16.1801 1.13748 0.000203324 10
14.48 16.195 1.90064 0.000200979 10
14.4648 16.178 2.66462 0.000197505 10
14.4674 16.1809 3.43781 0.00019295 10
14.472 16.186 4.22045 0.000187374 10
14.4825 16.1978 5.01633 0.000180851 10
14.469 16.1827 5.8166 0.000173469 10
6.54387 7.37054 -2.64099 9.70125e-05 4
7.5915 8.55051 -2.6398 0.000101086 4
9.00883 10.1469 -2.63755 4.85124e-05 4
10.6003 11.9394 -2.52878 0.000113628 4
14.3756 16.1916 -2.65858 0.000256722 10
14.3827 16.1996 -1.89528 0.000261208 10
14.6711 16.5245 -1.15808 0.000192821 10
14.6634 16.5158 -0.38551 0.00019404 10
14.6685 16.5215 0.385644 0.000194137 10
14.3769 16.1931 1.13486 0.000205993 10
14.3714 16.1869 1.89379 0.00020362 10
14.3722 16.1878 2.65795 0.000200104 10
14.369 16.1842 3.42782 0.000195493 10
14.3768 16.193 4.20916 0.000189849 10
14.3708 16.1862 4.99717 0.000183248 10
14.3771 16.1934 5.80237 0.000175775 10
6.52489 7.40103 -2.64374 0.000127638 4
7.55632 8.57096 -2.63796 5.05384e-05 4
8.97715 10.1826 -2.63867 5.15865e-05 4
10.5252 11.9385 -2.5208 5.9518e-05 4
14.2814 16.1991 -2.6516 0.000260072 10
14.2761 16.193 -1.88866 0.000264612 10
21.685 24.5968 -1.7185 4.75581e-05 10
21.6779 24.5887 -0.572179 4.7882e-05 10
21.6818 24.5932 0.572282 4.78794e-05 10
14.2842 16.2022 1.13199 0.000208676 10
14.2835 16.2015 1.88965 0.000206273 10
14.2729 16.1895 2.65003 0.000202715 10
14.2837 16.2016 3.42094 0.000198049 10
14.2824 16.2002 4.19805 0.000192337 10
14.2889 16.2076 4.98836 0.000185656 10
14.2769 16.194 5.7847 0.000178093 10
6.49454 7.41865 -2.64192 0.000283334 4
7.5249 8.59562 -2.63745 0.00019173 4
8.93138 10.2022 -2.63566 3.69532e-05 4
10.4898 11.9824 -2.52232 5.71905e-05 4
14.1921 16.2115 -2.6455 0.000263437 10
14.1876 16.2063 -1.88443 0.000268032 10
21.5437 24.6092 -1.7141 4.82891e-05 10
21.5442 24.6097 -0.570915 4.86176e-05 10
21.5315 24.5953 0.570578 4.86149e-05 10
14.1899 16.209 1.129 0.00021137 10
14.1788 16.1963 1.88326 0.00020894 10
14.1897 16.2088 2.64507 0.000205339 10
14.1802 16.1979 3.40969 0.000200617 10
14.1903 16.2094 4.18757 0.000194837 10
14.1837 16.2019 4.97132 0.000188075 10
14.1898 16.2089 5.7723 0.000180421 10
6.47034 7.44327 -2.64263 6.89136e-05 4
7.49812 8.6256 -2.6386 0.000114433 4
8.90268 10.2414 -2.63773 3.46395e-05 4
10.4441 12.0146 -2.5214 3.78637e-05 4
14.0881 16.2066 -2.63666 0.000266819 10
14.0946 16.214 -1.87959 0.000271468 10
21.3964 24.6138 -1.7092 4.90251e-05 10
21.3878 24.6039 -0.569043 4.93581e-05 10
21.4032 24.6216 0.569453 4.93555e-05 10
14.1003 16.2205 1.12637 0.000214078 10
14.0913 16.2102 1.87915 0.000211618 10
14.0917 16.2107 2.63733 0.000207975 10
14.0932 16.2124 3.40235 0.000203197 10
14.099 16.219 4.17731 0.000197349 10
14.0959 16.2155 4.96037 0.000190506 10
14.0977 16.2175 5.7578 0.000182761 10
6.43695 7.45728 -2.63961 7.91167e-05 4
8.86233 10.2671 -2.63638 3.15568e-05 4
10.4055 12.0549 -2.52221 4.98335e-05 4
13.9948 16.2131 -2.62977 0.000270215 10
13.999 16.218 -1.87437 0.000274919 10
21.2617 24.632 -1.7053 4.97658e-05 10
21.2517 24.6203 -0.567705 5.01036e-05 10
21.2635 24.6339 0.568018 5.01008e-05 10
14.0055 16.2255 1.12332 0.000216797 10
13.999 16.218 1.87437 0.000214309 10
14.001 16.2203 2.63094 0.000210623 10
14.0074 16.2277 3.39529 0.000205789 10
13.9993 16.2183 4.16452 0.000199871 10
14.0035 16.2232 4.94775 0.000192948 10
13.9971 16.2158 5.73981 0.000185111 10
6.41919 7.48939 -2.64303 8.67663e-05 4
7.43241 8.67154 -2.63672 0.000117383 4
10.374 12.1035 -2.5248 6.0641e-05 4
13.9129 16.2324 -2.625 0.000273627 10
13.8966 16.2135 -1.86823 0.000278385 10
21.1206 24.6418 -1.70087 5.05113e-05 10
21.1184 24.6393 -0.566439 5.08537e-05 10
21.105 24.6236 0.566078 5.0851e-05 10
13.9103 16.2294 1.12021 0.000219528 10
13.6044 15.8725 1.82894 0.000234826 10
13.6084 15.8772 2.56756 0.000230822 10
13.6181 15.8886 3.31436 0.00022557 10
13.902 16.2197 4.1524 0.000202405 10
13.6157 15.8857 4.8303 0.000211614 10
13.6091 15.878 5.60338 0.000203093 10
6.38777 7.50561 -2.64087 8.42076e-05 4
10.7886 12.6766 -2.63647 7.05823e-05 4
13.8138 16.2311 -2.61698 0.000277053 10
13.8031 16.2186 -1.86326 0.000281867 10
20.9618 24.6301 -1.695 5.12618e-05 10
20.965 24.6337 -0.564625 5.16088e-05 10
20.9692 24.6387 0.564738 5.16061e-05 10
13.8094 16.226 1.11665 0.000222271 10
13.5516 15.9231 1.82931 0.00017788 10
13.5432 15.9132 2.56572 0.000174944 10
13.5435 15.9135 3.30969 0.00017106 10
13.8109 16.2278 4.14209 0.000204951 10
13.5219 15.8882 4.81666 0.000214262 10
13.5401 15.9096 5.59783 0.000154286 10
6.3592 7.5251 -2.6399 0.000117371 4
8.76411 10.3709 -2.63932 4.77031e-05 4
10.7307 12.6981 -2.63314 4.28111e-05 4
13.7186 16.2337 -2.60967 0.000280494 10
13.7103 16.2239 -1.85836 0.000285362 10
20.8205 24.6378 -1.69052 5.20168e-05 10
20.8241 24.6419 -0.563144 5.23685e-05 10
20.8363 24.6564 0.563474 5.23657e-05 10
13.7187 16.2339 1.11389 0.000225025 10
13.5628 16.0494 1.83837 0.000174059 10
13.5566 16.042 2.57885 0.000171182 10
13.5484 16.0323 3.32454 0.000167375 10
13.7264 16.243 4.13371 0.000207506 10
13.4366 15.9001 4.80603 0.00021692 10
13.555 16.0402 5.62711 0.000150937 10
7.34493 8.75335 -2.63806 0.000105466 4
8.7154 10.3866 -2.63555 7.53927e-05 4
10.6935 12.7441 -2.63491 3.77884e-05 4
13.6331 16.2473 -2.60418 0.000283949 10
13.6314 16.2452 -1.85534 0.000288872 10
20.6845 24.6508 -1.68645 5.27764e-05 10
20.682 24.6478 -0.561624 5.31328e-05 10
20.6889 24.6561 0.561813 5.31301e-05 10
13.632 16.246 1.11145 0.000227791 10
13.5619 16.1624 1.84588 0.000170286 10
13.5551 16.1544 2.58929 0.000167467 10
13.5645 16.1656 3.34234 0.000163737 10
13.6347 16.2492 4.12316 0.000210073 10
13.3475 15.9069 4.79397 0.000219589 10
13.5488 16.1468 5.64787 0.000147632 10
6.3109 7.57458 -2.64174 7.6534e-05 4
7.32233 8.78854 -2.64094 9.65439e-05 4
8.69262 10.4332 -2.63966 3.69227e-05 4
10.6395 12.7699 -2.63257 0.000119656 4
13.5348 16.2449 -2.59621 0.000287417 10
13.5259 16.2343 -1.84869 0.000292396 10
20.5399 24.6527 -1.68166 5.35405e-05 10
20.5509 24.6659 -0.560399 5.39017e-05 10
20.545 24.6589 0.560239 5.38989e-05 10
13.5438 16.2558 1.10887 0.000230567 10
13.5451 16.2574 1.85131 0.000107271 10
13.5285 16.2373 2.595 0.000105494 10
13.5354 16.2457 3.34911 0.000139751 10
13.5431 16.255 4.1126 0.000212649 10
13.2439 15.8958 4.77666 0.000222269 10
13.5336 16.2435 5.66514 0.000125773 10
6.28597 7.59843 -2.64239 0.000145403 4
7.29351 8.81633 -2.64163 0.000188614 4
8.64814 10.4538 -2.63722 3.30726e-05 4
10.5714 12.7787 -2.62675 0.000110449 4
13.4515 16.2601 -2.59112 0.000290898 10
13.4487 16.2566 -1.84588 0.000295933 10
20.2678 24.4996 -1.66638 5.60623e-05 10
20.2611 24.4914 -0.554825 5.64387e-05 10
20.2638 24.4947 0.554898 5.64358e-05 10
13.4415 16.2479 1.10513 0.000233354 10
13.5026 16.3218 1.85328 0.000145132 10
13.4928 16.31 2.59907 0.000142647 10
13.4998 16.3184 3.35437 0.000139387 10
13.4359 16.2412 4.09724 0.000215236 10
13.1558 15.9026 4.76488 0.000224958 10
13.5035 16.323 5.67638 0.000125438 10
6.25222 7.61157 -2.63935 0.000176 4
7.26015 8.83865 -2.64071 0.00010989 4
10.5078 12.7924 -2.62202 8.14737e-05 4
13.3526 16.2558 -2.58298 0.000294393 10
13.3427 16.2436 -1.8391 0.000299484 10
20.1403 24.5193 -1.66293 5.68577e-05 10
20.1239 24.4992 -0.553405 5.72391e-05 10
20.129 24.5055 0.553547 5.72361e-05 10
13.3448 16.2463 1.10184 0.000236152 10
13.3571 16.2612 4.09049 0.000217832 10
13.063 15.9031 4.75135 0.000227659 10
6.23493 7.64477 -2.6433 4.33588e-05 4
7.22249 8.85564 -2.63824 0.00010394 4
10.4278 12.7858 -2.61317 0.000128842 4
13.2672 16.2672 -2.57742 0.000297901 10
13.2569 16.2545 -1.83508 0.000303047 10
19.988 24.5077 -1.6574 5.76574e-05 10
19.9981 24.5201 -0.552298 5.80438e-05 10
19.993 24.5138 0.552156 5.80407e-05 10
13.2543 16.2514 1.09904 0.000238959 10
13.2556 16.2529 4.07674 0.000220438 10
12.9805 15.9156 4.74151 0.000230369 10
6.20993 7.66862 -2.64403 9.94622e-05 4
7.20378 8.89593 -2.64273 4.30568e-05 4
8.55011 10.5585 -2.6409 4.7669e-05 4
10.3578 12.7908 -2.6068 8.85995e-05 4
13.1641 16.2563 -2.5684 0.000301421 10
13.1653 16.2578 -1.83025 0.000306623 10
19.8593 24.5242 -1.65382 5.84616e-05 10
19.8677 24.5346 -0.551059 5.88528e-05 10
19.8612 24.5266 0.550878 5.88498e-05 10
13.1717 16.2657 1.0969 0.000241777 10
13.1732 16.2676 4.06886 0.000223054 10
12.9009 15.9313 4.73275 0.000233088 10
6.17388 7.67875 -2.64008 0.000165757 4
7.1683 8.91557 -2.64112 0.000105405 4
8.50081 10.5729 -2.63706 5.53509e-05 4
13.0779 16.2657 -2.56265 0.000304952 10
13.0793 16.2674 -1.82618 0.000310212 10
19.847 24.6847 -1.65996 4.10078e-05 10
19.8467 24.6843 -0.552862 4.13104e-05 10
19.8479 24.6858 0.552894 4.13358e-05 10
13.0798 16.268 1.09397 0.000244604 10
13.0884 16.2787 4.06018 0.000225678 10
12.8368 15.9658 4.72965 6.59469e-05 10
6.1574 7.71324 -2.64453 9.9446e-05 4
7.12844 8.92965 -2.6379 7.42215e-05 4
8.47049 10.6108 -2.63913 0.000101465 4
10.2295 12.8142 -2.59695 7.76154e-05 4
12.9921 16.275 -2.55696 0.000308496 10
12.9969 16.2809 -1.8226 0.000313812 10
19.8508 24.8667 -1.66753 3.9905e-05 10
19.8578 24.8754 -0.555586 4.02002e-05 10
19.8465 24.8613 0.55527 4.02251e-05 10
12.9852 16.2663 1.0908 0.00024744 10
12.9985 16.2829 4.0499 0.000228312 10
12.7836 16.0138 4.73061 6.59546e-05 10
6.13059 7.73488 -2.6446 0.000326361 4
7.11195 8.97304 -2.64337 3.117e-05 4
10.1669 12.8274 -2.59242 0.000105329 4
12.9118 16.2906 -2.55232 0.000312051 10
12.9002 16.2759 -1.81699 0.000317423 10
19.8672 25.0661 0.558293 3.9134e-05 10
12.9123 16.2912 1.08944 0.000250286 10
12.9098 16.2881 4.03996 0.000230954 10
12.7331 16.0652 4.73265 6.59623e-05 10
6.10584 7.75914 -2.64559 4.33412e-05 4
7.07088 8.98548 -2.63974 0.000105374 4
10.1006 12.8356 -2.58694 0.000131362 4
12.8221 16.294 -2.54582 0.000315618 10
12.8204 16.2919 -1.81376 0.000321047 10
19.8786 25.2612 0.561088 3.80621e-05 10
12.8178 16.2885 1.08626 0.00025314 10
12.8176 16.2882 4.02886 0.000233604 10
12.6767 16.1092 4.73254 6.59699e-05 10
6.07349 7.77371 -2.64331 0.00014021 4
7.03383 9.00289 -2.63763 4.15519e-05 4
8.35526 10.6942 -2.63797 4.45668e-05 4
10.0294 12.837 -2.58014 0.000132345 4
12.7225 16.284 -2.53731 0.000319195 10
12.7309 16.2948 -1.80913 0.00032468 10
19.8869 25.4541 0.563829 3.70097e-05 10
12.7304 16.2942 1.08367 0.000256003 10
12.7301 16.2938 4.01922 0.000236262 10
12.6157 16.1474 4.73079 6.59776e-05 10
6.04765 7.79657 -2.64389 0.000231965 4
7.00492 9.03069 -2.6386 0.00010387 4
9.95762 12.8373 -2.5732 0.000126389 4
12.6374 16.292 -2.53166 0.000322782 10
12.6354 16.2894 -1.80362 0.000328324 10
19.9003 25.6553 0.566742 3.59764e-05 10
12.6478 16.3055 1.08148 0.000258874 10
12.642 16.298 4.00936 0.000238928 10
12.5632 16.1964 4.73228 6.59854e-05 10
6.9727 9.05424 -2.63835 5.48971e-05 4
9.90004 12.8555 -2.5699 0.000100486 4
12.5602 16.3097 -2.52759 0.00032638 10
12.5505 16.2971 -1.79961 0.000331979 10
19.9081 25.8511 0.56953 3.4962e-05 10
12.5564 16.3048 1.07852 0.000261753 10
12.5587 16.3078 4.00096 0.000241602 10
12.502 16.2341 4.73053 6.59931e-05 10
5.98858 7.83273 -2.64191 4.58757e-05 4
8.24911 10.7894 -2.63999 4.22462e-05 4
9.82806 12.8546 -2.56285 0.000117011 4
12.4756 16.3174 -2.52201 0.000329987 10
12.4665 16.3054 -1.79571 0.000335643 10
19.9176 26.0511 0.572402 3.39668e-05 10
12.4642 16.3025 1.07548 0.00026464 10
12.5186 16.3736 1.80322 0.000164638 10
12.4755 16.3173 3.99258 0.000244283 10
12.4401 16.271 4.72859 6.60009e-05 10
5.95664 7.84758 -2.63989 6.3711e-05 4
6.90841 9.10149 -2.638 0.000127574 4
9.77492 12.878 -2.5607 0.000132673 4
12.3893 16.3223 -2.51607 0.000333603 10
12.3837 16.315 -1.79199 0.000339317 10
12.3844 16.3158 -1.0735 0.000226668 10
12.3782 16.3077 -0.357366 0.000227941 10
12.3866 16.3188 0.357608 0.000227932 10
12.379 16.3087 1.07303 0.000267534 10
12.3788 16.3085 3.97982 0.000246971 10
12.3892 16.3222 4.73087 0.000238554 10
5.93346 7.87396 -2.64178 8.15434e-05 4
6.89002 9.14336 -2.64315 8.75127e-05 4
8.17754 10.852 -2.64126 5.06831e-05 4
9.70974 12.8853 -2.55539 9.45506e-05 4
12.2978 16.3197 -2.50904 0.000337229 10
12.2903 16.3098 -1.7867 0.000342999 10
12.3185 16.3472 -1.07273 0.000151356 10
12.3148 16.3423 -0.357179 0.000152295 10
12.3118 16.3384 0.357093 0.000152377 10
12.2951 16.3162 1.07069 0.000270435 10
12.0428 15.9813 3.8897 0.000269875 10
12.3004 16.3232 4.71867 0.000241163 10
5.90241 7.88991 -2.64021 5.09604e-05 4
6.8608 9.17103 -2.64421 3.41118e-05 4
9.63278 12.8764 -2.54695 0.000107587 4
12.2096 16.3209 -2.50265 0.000340863 10
12.2143 16.3272 -1.78392 0.000346691 10
12.3154 16.4623 -1.07746 0.000147701 10
12.3277 16.4787 -0.359218 0.00014862 10
12.3173 16.4649 0.358916 0.0001487 10
11.9583 15.985 3.88041 0.000272773 10
12.2202 16.3351 4.70975 0.00024378 10
5.88882 7.92931 -2.64649 0.000107008 4
6.81298 9.17368 -2.6381 3.85573e-05 4
8.09133 10.895 -2.63792 4.9903e-05 4
9.57377 12.8911 -2.54323 0.000129292 4
12.1243 16.3254 -2.49683 0.000344505 10
12.1304 16.3336 -1.77999 0.00035039 10
12.1183 16.3172 -1.06519 0.000234059 10
12.1173 16.3159 -0.354745 0.000235371 10
12.1202 16.3198 0.354829 0.000235361 10
12.1342 16.3387 1.06658 0.000234029 10
11.8644 15.9754 3.86801 0.000275677 10
12.1344 16.3389 4.69863 0.000246402 10
5.85784 7.94539 -2.64502 0.00018088 4
6.78358 9.20102 -2.63914 8.15555e-05 4
8.05726 10.9286 -2.63924 8.90468e-05 4
