VERSION 0.7
FIELDS x y z intensity label
SIZE 4 4 4 4 4
TYPE F F F F F
COUNT 1 1 1 1 1
WIDTH 1184
HEIGHT 1
VIEWPOINT 0.56235 4.09724 2.72871 0.876513 0.000356496 0.00066478 -0.481378
POINTS 1184
DATA ascii
9.42575 -2.8458 -2.63822 0.000106477 4
8.78538 -2.65247 -2.11869 0.000302389 6
8.43381 -2.54632 -1.71246 0.0030336 6
8.53145 -2.5758 -1.41149 0.000393538 6
8.80972 -2.62629 -2.12234 0.000363341 6
8.43463 -2.51448 -1.71083 0.00303309 6
8.52447 -2.54126 -1.40886 0.00039312 6
8.4656 -2.49156 -2.36456 0.000964483 6
8.80982 -2.59287 -2.12017 0.000382965 6
8.4445 -2.48535 -1.71106 0.00303245 6
8.55639 -2.51828 -1.41268 0.000392686 6
8.47292 -2.46161 -2.36419 0.0010101 6
8.6344 -2.50853 -2.07583 0.000215509 6
8.44929 -2.45475 -1.71029 0.00303167 6
8.55732 -2.48613 -1.41139 0.000412881 6
8.48614 -2.43336 -2.36549 0.00110633 6
8.56255 -2.45527 -2.05649 0.000240589 6
8.459 -2.42558 -1.71053 0.00302882 6
8.57202 -2.45799 -1.41239 0.000412392 6
8.50321 -2.40617 -2.36789 0.00103891 6
8.5153 -2.40959 -2.0431 0.000830943 6
8.47318 -2.39767 -1.71169 0.00302712 6
8.59111 -2.43104 -1.41413 0.000411886 6
8.51904 -2.37856 -2.36997 0.000886489 6
8.50956 -2.37591 -2.03973 0.00107731 6
8.49336 -2.37139 -1.71408 0.00302529 6
8.57693 -2.39472 -1.41041 0.000408024 6
8.52706 -2.34874 -2.36991 0.00438444 6
8.51033 -2.34414 -2.03794 0.00112537 6
8.49694 -2.34045 -1.71315 0.00302333 6
8.61144 -2.37199 -1.41471 0.00042194 6
8.53554 -2.31906 -2.37 0.00437601 6
8.52891 -2.31726 -2.04044 0.00112784 6
8.50501 -2.31076 -1.71314 0.00301225 6
8.59954 -2.33645 -1.41141 0.000421357 6
8.54128 -2.28863 -2.36936 0.00426965 6
8.52471 -2.28419 -2.03751 0.00112548 6
8.52064 -2.2831 -1.71467 0.0029993 6
8.6141 -2.30814 -1.41247 0.000420757 6
8.56567 -2.26315 -2.37392 0.004209 6
8.53717 -2.25562 -2.03859 0.000982761 6
8.50894 -2.24816 -1.71073 0.00299526 6
8.62703 -2.27936 -1.41328 0.000420141 6
8.58991 -2.23751 -2.37846 0.00163927 6
8.56816 -2.23184 -2.04412 0.000982154 6
8.54555 -2.22595 -1.71651 0.00286105 6
8.64194 -2.25106 -1.41442 0.000419508 6
8.60849 -2.21029 -2.38146 0.00376984 6
8.59413 -2.2066 -2.04847 0.000768912 6
8.54628 -2.19431 -1.71511 0.00285502 6
8.64564 -2.21982 -1.41375 0.000418858 6
8.65972 -2.19125 -2.3935 0.00363001 6
8.60841 -2.17826 -2.05005 0.000764754 6
8.56707 -2.1678 -1.71775 0.00284887 6
8.6814 -2.19673 -1.41834 0.000416675 6
8.64483 -2.1554 -2.38729 0.000433075 6
8.61789 -2.14868 -2.0505 0.00078127 6
8.56753 -2.13613 -1.71634 0.00285118 6
8.68054 -2.1643 -1.41695 0.000413783 6
8.65434 -2.12571 -2.38785 0.00413096 6
8.62779 -2.11919 -2.05109 0.000779141 6
8.583 -2.10819 -1.71796 0.00284143 6
8.68626 -2.13355 -1.41666 0.000412984 6
8.69311 -2.10309 -2.39651 0.000487832 6
8.63491 -2.08901 -2.05104 0.000808554 6
8.60115 -2.08084 -1.72013 0.00283574 6
8.71623 -2.10868 -1.42034 0.000412169 6
8.66502 -2.0643 -2.38676 0.00443929 6
8.64567 -2.05969 -2.05187 0.000808446 6
8.60725 -2.05054 -1.7199 0.00282993 6
8.71769 -2.07685 -1.41939 0.000411339 6
10.2303 -2.43719 -1.29127 0.000127804 6
8.66358 -2.03202 -2.3844 0.0030817 6
8.6669 -2.03281 -2.05521 0.000848376 6
8.62191 -2.02225 -1.72141 0.00282399 6
8.7291 -2.04739 -1.42007 0.000410493 6
10.0438 -2.35575 -1.26669 4.25229e-05 6
8.89418 -2.05339 -2.44588 0.000685694 6
8.67145 -2.00196 -2.05462 0.00101631 6
8.62092 -1.9903 -1.71982 0.00281793 6
8.75066 -2.02025 -1.42243 0.000414336 6
9.84236 -2.27229 -1.24028 4.64496e-05 6
8.80605 -2.00069 -2.41971 0.000661677 6
8.68016 -1.97209 -2.05504 0.00110739 6
8.64033 -1.96304 -1.72231 0.00286211 6
8.7471 -1.98729 -1.42071 0.000401902 6
9.66337 -2.19546 -1.21675 5.27497e-05 6
8.72446 -1.95015 -2.3954 0.00212696 6
8.67166 -1.93835 -2.05142 0.00110875 6
8.65688 -1.93504 -1.72425 0.00285233 6
8.77019 -1.96037 -1.42334 0.000401026 6
9.49949 -2.12339 -1.19517 5.41739e-05 6
9.97463 -2.22959 -0.894202 4.71579e-05 6
8.71226 -1.91551 -2.3902 0.00425089 6
8.68579 -1.9097 -2.05317 0.00110653 6
8.67737 -1.90784 -1.727 0.00284245 6
8.78044 -1.93051 -1.4239 0.000400134 6
9.32624 -2.05051 -1.17247 6.02515e-05 6
8.7262 -1.88667 -2.3922 0.00103246 6
8.71334 -1.88389 -2.05811 0.000960202 6
8.68178 -1.87707 -1.72656 0.00282123 6
8.78622 -1.89965 -1.42375 0.000411823 6
9.19049 -1.98705 -1.15452 6.48614e-05 6
8.70941 -1.85124 -2.38581 0.00109794 6
8.73167 -1.85597 -2.0609 0.000577546 6
8.70773 -1.85089 -1.73043 0.00278967 6
8.80464 -1.87148 -1.42567 0.000410893 6
9.0279 -1.91894 -1.13325 0.000251299 6
8.73034 -1.82386 -2.38979 0.00107668 6
9.09199 -1.89942 -2.14437 0.000192371 6
8.71403 -1.82046 -1.7304 0.00277803 6
8.81833 -1.84225 -1.42684 0.000409777 6
8.95035 -1.86983 -1.12269 0.000331915 6
8.75944 -1.79806 -2.39602 0.000753702 6
9.12964 -1.87405 -2.15169 0.000230246 6
8.7313 -1.79228 -1.73258 0.00276631 6
8.84469 -1.81556 -1.43007 0.00036422 6
8.94572 -1.83629 -1.1213 0.000424266 6
9.68844 -1.98875 -0.865303 5.11493e-05 6
9.64172 -1.94411 -2.63549 0.000113088 4
9.13104 -1.84114 -2.15049 0.000248775 6
8.75805 -1.76593 -1.73665 0.00161055 6
8.84398 -1.78326 -1.42894 0.000418699 6
8.95923 -1.8065 -1.12219 0.000402059 6
9.66504 -1.94881 -0.862599 5.15509e-05 6
9.65228 -1.9112 -2.63653 4.62642e-05 4
9.15157 -1.81206 -2.15382 0.000248105 6
8.78334 -1.73915 -1.74045 0.00042267 6
8.85702 -1.75374 -1.43005 0.000417456 6
8.96682 -1.77548 -1.12236 0.000259905 6
9.64609 -1.90998 -0.860308 4.73773e-05 6
9.65623 -1.87698 -2.63581 0.000221043 4
9.12329 -1.77339 -2.1457 0.000216869 6
8.76803 -1.70433 -1.73623 0.000448417 6
8.88144 -1.72638 -1.43301 0.000104879 6
8.99415 -1.74829 -1.12501 0.000413574 6
9.65752 -1.87723 -0.860738 4.74292e-05 6
9.66199 -1.84312 -2.63561 0.000125945 4
8.77609 -1.67413 -2.06265 0.00258311 6
8.77812 -1.67452 -1.73706 0.000424575 6
8.85712 -1.68959 -1.42813 0.000418819 6
9.00274 -1.71737 -1.12533 0.000412481 6
9.64962 -1.84076 -0.859455 4.48522e-05 6
9.66221 -1.80823 -2.63393 9.51028e-05 4
8.80381 -1.64759 -2.06781 0.00238371 6
8.79894 -1.64668 -1.74003 0.000356791 6
8.88357 -1.66252 -1.43145 0.000417937 6
9.02176 -1.68838 -1.12696 0.000417593 6
9.67249 -1.81016 -0.860925 4.49963e-05 6
9.67959 -1.77654 -2.63696 4.62669e-05 4
8.81464 -1.61779 -2.06901 0.00245495 6
8.82328 -1.61938 -1.74372 0.000447529 6
8.88621 -1.63092 -1.43095 0.000417038 6
9.02232 -1.65591 -1.1263 0.000416449 6
9.65355 -1.77176 -0.858683 4.24428e-05 6
9.69498 -1.7444 -2.63948 9.51055e-05 4
8.83788 -1.59019 -2.07315 0.00121808 6
8.8328 -1.58927 -1.74449 0.000435335 6
8.89208 -1.59994 -1.43098 0.000404888 6
9.02802 -1.6244 -1.1263 0.00032509 6
9.66974 -1.73986 -0.859578 4.24152e-05 6
9.68818 -1.70829 -2.63599 0.000133664 4
8.84684 -1.55994 -2.07396 0.000386581 6
8.84375 -1.55939 -1.74557 0.000411995 6
8.92459 -1.57365 -1.43532 0.000403666 6
9.06154 -1.5978 -1.12978 0.000331724 6
9.66843 -1.70481 -0.858927 4.23872e-05 6
9.69678 -1.67493 -2.63672 6.68327e-05 4
8.93809 -1.54388 -2.09408 4.1182e-05 6
8.84961 -1.5286 -1.74566 0.000432009 6
8.94239 -1.54462 -1.43731 0.00040243 6
9.05458 -1.564 -1.12823 0.000330824 6
9.68126 -1.67225 -0.859543 4.18201e-05 6
9.69191 -1.63927 -2.63382 0.00014909 4
8.88352 -1.50254 -2.08005 0.000316358 6
8.855 -1.49771 -1.74568 0.000430324 6
8.93978 -1.51205 -1.43603 0.000401076 6
9.07621 -1.53513 -1.13025 0.000329911 6
9.69705 -1.64013 -0.860431 4.01766e-05 6
9.70714 -1.60701 -2.63642 0.000179939 4
8.90346 -1.47396 -2.0835 0.000379286 6
8.87806 -1.46975 -1.74921 0.000428625 6
8.96802 -1.48465 -1.43973 0.000399761 6
9.09272 -1.50529 -1.13164 0.000328986 6
9.70469 -1.6066 -0.860606 4.21545e-05 6
9.70216 -1.57141 -2.63356 0.000133671 4
8.91108 -1.44328 -2.08409 0.000281765 6
8.90775 -1.44274 -1.75406 0.000430381 6
8.97243 -1.45322 -1.43961 0.000398471 6
9.11613 -1.47649 -1.13391 0.000328014 6
9.71882 -1.57411 -0.861368 4.20176e-05 6
9.70895 -1.53775 -2.63393 7.19774e-05 4
8.91461 -1.41194 -2.08376 0.000354417 6
8.90708 -1.41074 -1.75294 0.000428831 6
8.97457 -1.42143 -1.43915 0.000396986 6
9.10684 -1.44238 -1.13212 0.000368015 6
9.73485 -1.54185 -0.862305 3.9048e-05 6
9.73702 -1.50737 -2.64011 0.000100255 4
8.95171 -1.3858 -2.09128 0.000371408 6
8.91805 -1.38059 -1.75414 0.000427266 6
9.00186 -1.39356 -1.44274 0.000395652 6
9.13881 -1.41476 -1.13547 0.00032438 6
9.74206 -1.50815 -0.862473 4.09057e-05 6
9.71859 -1.4698 -2.6337 0.000123393 4
8.96212 -1.35539 -2.0926 0.000391413 6
8.93637 -1.3515 -1.75681 0.000426716 6
8.99764 -1.36076 -1.44129 0.000387327 6
9.12654 -1.38026 -1.13334 0.00032336 6
9.75023 -1.47458 -0.862734 4.08424e-05 6
9.74662 -1.43926 -2.63992 0.000236506 4
8.97244 -1.32494 -2.09391 0.000384943 6
8.95345 -1.32213 -1.75925 0.000425173 6
9.02769 -1.33309 -1.44535 0.000385755 6
9.14211 -1.34999 -1.13468 0.000322328 6
9.77995 -1.44418 -0.864913 4.07788e-05 6
9.733 -1.40255 -2.63489 0.000226226 4
8.97133 -1.29279 -2.09259 0.000383493 6
8.9674 -1.29222 -1.76109 0.000424265 6
9.03303 -1.30168 -1.44547 0.00040439 6
9.1706 -1.32151 -1.13764 0.000321285 6
9.79295 -1.41119 -0.865622 4.07149e-05 6
9.7489 -1.37012 -2.63788 0.000185096 4
8.98044 -1.26212 -2.09367 0.00037368 6
8.96798 -1.26037 -1.76033 0.000423398 6
9.05647 -1.2728 -1.4485 0.000402711 6
9.18978 -1.29154 -1.13945 0.000320229 6
9.8018 -1.37756 -0.865974 4.06506e-05 6
9.74867 -1.3354 -2.63654 0.000105403 4
9.00948 -1.23415 -2.09943 0.000375924 6
8.97705 -1.2297 -1.76126 0.000421891 6
9.06118 -1.24123 -1.44855 0.000381003 6
9.18235 -1.25783 -1.13798 0.000320202 6
9.79933 -1.34234 -0.865337 3.74784e-05 6
9.7472 -1.30056 -2.6349 6.42707e-05 4
9.02941 -1.20478 -2.10308 0.000374533 6
8.99729 -1.2005 -1.7644 0.000420156 6
9.07612 -1.21101 -1.45026 0.000407189 6
9.21079 -1.22898 -1.14097 0.00031917 6
9.82378 -1.31077 -0.867086 3.70778e-05 6
9.75182 -1.26654 -2.63494 0.000398483 4
9.0308 -1.1729 -2.10244 0.000371405 6
9.02224 -1.17179 -1.76848 0.000418613 6
9.10159 -1.18209 -1.45366 0.000405739 6
9.20769 -1.19587 -1.14006 0.000318126 6
9.80857 -1.27391 -0.865346 3.69762e-05 6
9.7689 -1.2341 -2.63837 0.000172249 4
9.0447 -1.14261 -2.10473 0.000369536 6
9.03228 -1.14104 -1.76965 0.000417054 6
9.10854 -1.15068 -1.45412 0.000404276 6
9.23636 -1.16682 -1.1431 0.000317071 6
9.84071 -1.24317 -0.867793 3.50307e-05 6
9.77269 -1.19994 -2.63825 0.000164538 4
9.05568 -1.1119 -2.10637 0.000349769 6
9.05325 -1.1116 -1.77299 0.000416894 6
9.11579 -1.11928 -1.45464 0.000402799 6
9.25066 -1.13584 -1.14437 0.000316005 6
9.83298 -1.20734 -0.866735 3.4934e-05 6
9.76953 -1.16495 -2.63628 0.000105408 4
9.05877 -1.08019 -2.1062 0.000348465 6
9.06355 -1.08076 -1.77426 0.000415221 6
9.13918 -1.08978 -1.45776 0.000401308 6
9.25581 -1.10369 -1.14452 0.000314927 6
9.85384 -1.175 -0.868207 3.90374e-05 6
9.76262 -1.12958 -2.63334 0.000159399 4
9.0828 -1.05092 -2.11092 0.000347149 6
9.07449 -1.04996 -1.77567 0.000413677 6
9.13548 -1.05701 -1.45657 0.000399804 6
9.26368 -1.07185 -1.14503 0.00031373 6
9.87315 -1.14236 -0.869552 3.8661e-05 6
9.77081 -1.09597 -2.6345 9.25553e-05 4
9.10574 -1.02137 -2.11541 0.000345818 6
9.09415 -1.02007 -1.77881 0.000412118 6
9.1643 -1.02794 -1.46059 0.000398287 6
9.26355 -1.03907 -1.14455 0.000312644 6
9.88622 -1.10892 -0.870356 3.85118e-05 6
9.77364 -1.06176 -2.63425 0.000347085 4
9.10285 -0.988887 -2.11392 0.000355246 6
9.07909 -0.986307 -1.77518 0.000410545 6
9.18523 -0.997837 -1.46336 0.000416595 6
9.29336 -1.00958 -1.14779 0.000310215 6
9.90326 -1.07584 -0.871521 3.83626e-05 6
9.7765 -1.02755 -2.63403 0.000136264 4
9.13362 -0.959983 -2.12028 0.000353861 6
9.114 -0.957921 -1.78134 0.00040605 6
9.17435 -0.964265 -1.46108 0.000393892 6
9.30504 -0.978001 -1.14881 0.000309051 6
9.89929 -1.04046 -0.870847 3.81492e-05 6
9.77889 -0.993304 -2.63373 0.000107984 4
9.14721 -0.929141 -2.12267 0.000352462 6
9.13018 -0.92741 -1.78386 0.000384115 6
9.20227 -0.934733 -1.465 0.000392291 6
9.32243 -0.946939 -1.15054 0.000307877 6
9.92251 -1.00789 -0.872574 3.7946e-05 6
9.78679 -0.959604 -2.63494 7.7132e-05 4
9.16289 -0.89843 -2.12556 0.000351051 6
9.12858 -0.895065 -1.78293 0.000387985 6
9.20921 -0.902972 -1.46559 0.000390679 6
9.32281 -0.91411 -1.15019 0.000306693 6
9.93561 -0.974196 -0.873422 3.77433e-05 6
9.78664 -0.92511 -2.63401 0.00016455 4
9.15301 -0.865215 -2.12256 0.000349626 6
9.1305 -0.863086 -1.7827 0.000386502 6
9.22203 -0.871739 -1.46714 0.000369602 6
9.33073 -0.882014 -1.15078 0.000305573 6
9.95747 -0.941258 -0.875049 3.17016e-05 6
9.79781 -0.891671 -2.63616 3.08533e-05 4
9.18128 -0.835562 -2.12843 0.000347726 6
9.16041 -0.833662 -1.78796 0.000385006 6
9.22657 -0.839684 -1.46738 0.000309935 6
9.33829 -0.849851 -1.15134 0.000380699 6
9.98711 -0.908898 -0.87737 3.07475e-05 6
9.81534 -0.858733 -2.64006 0.000149125 4
9.19749 -0.804678 -2.13152 0.00034631 6
9.17498 -0.802709 -1.79025 0.000385855 6
9.24547 -0.808876 -1.46993 0.000411079 6
9.36864 -0.819652 -1.15472 0.000380401 6
9.81723 -0.824378 -2.63978 0.000169696 4
9.20662 -0.773103 -2.133 0.000344882 6
9.19189 -0.771866 -1.79301 0.00040237 6
9.26453 -0.777966 -1.47252 0.000390017 6
9.36166 -0.786123 -1.15351 0.000333184 6
9.79735 -0.788278 -2.63368 7.71349e-05 4
9.22857 -0.742515 -2.13747 0.000165085 6
9.19747 -0.740013 -1.79359 0.000380733 6
9.37984 -0.754685 -1.15542 0.000374708 6
9.81635 -0.755328 -2.63806 0.000100276 4
9.22446 -0.709785 -2.13593 0.000358516 6
9.29931 -0.715544 -1.47722 0.000382943 6
9.41741 -0.724631 -1.15973 0.000294756 6
9.82709 -0.721657 -2.64025 0.000143987 4
9.23467 -0.678153 -2.13773 0.000356938 6
9.217 -0.676855 -1.79643 0.000393939 6
9.31374 -0.68396 -1.47912 0.000372935 6
9.40617 -0.690747 -1.15804 0.000293358 6
9.82942 -0.687341 -2.64022 0.000377968 4
9.26327 -0.647751 -2.14382 0.000355347 6
9.21872 -0.644636 -1.79631 0.000392167 6
9.31437 -0.651325 -1.47885 0.000390922 6
9.44673 -0.66058 -1.16274 0.000291951 6
9.80414 -0.651191 -2.6328 0.000177415 4
9.26299 -0.615248 -2.14324 0.000353745 6
9.25232 -0.614539 -1.80243 0.000392258 6
9.33471 -0.620011 -1.48173 0.00017188 6
9.44148 -0.627103 -1.16182 0.000289864 6
9.82948 -0.618419 -2.63901 0.000118277 4
9.27437 -0.583494 -2.14539 0.000333635 6
9.25365 -0.58219 -1.80228 0.00039052 6
9.35378 -0.58849 -1.48442 0.000128304 6
9.46906 -0.595743 -1.16495 0.000289259 6
9.83362 -0.584225 -2.63956 0.000179988 4
9.29806 -0.552406 -2.15041 0.000327402 6
9.28274 -0.551496 -1.80756 0.00038877 6
9.34283 -0.555066 -1.48237 0.000184448 6
9.47941 -0.56318 -1.16598 0.000287803 6
9.82135 -0.549101 -2.63573 6.6853e-05 4
9.29966 -0.519934 -2.15035 0.000325806 6
9.27357 -0.518475 -1.80542 0.000387009 6
9.37556 -0.524177 -1.48726 0.000198138 6
9.48554 -0.530326 -1.1665 0.00028634 6
9.83445 -0.515403 -2.63875 0.000146563 4
9.30748 -0.487786 -2.15175 0.0003242 6
9.28756 -0.486742 -1.8078 0.000385774 6
9.39463 -0.492354 -1.49001 0.000160222 6
9.49359 -0.49754 -1.16727 0.00028394 6
9.83326 -0.480928 -2.63796 6.42823e-05 4
9.34545 -0.45707 -2.16015 0.000322583 6
9.30796 -0.455237 -1.81145 0.000383165 6
9.38435 -0.458972 -1.48811 0.000208517 6
9.51292 -0.465261 -1.16944 0.000284224 6
9.35568 -0.42484 -2.16216 0.000320955 6
9.31261 -0.422884 -1.81205 0.000383447 6
9.40155 -0.426923 -1.49059 0.000182098 6
9.53465 -0.432967 -1.17191 0.000282735 6
9.82058 -0.411605 -2.63373 0.000200562 4
9.36735 -0.392609 -2.16452 0.000303351 6
9.32997 -0.391043 -1.81516 0.000381698 6
9.4313 -0.39529 -1.49508 0.000217394 6
9.55371 -0.40042 -1.17408 0.00028124 6
9.82748 -0.377535 -2.63521 0.000159422 4
9.38453 -0.360518 -2.16819 0.000301786 6
9.3498 -0.359184 -1.81876 0.000377108 6
9.44242 -0.362742 -1.49663 0.000154684 6
9.55333 -0.367002 -1.17387 0.000279738 6
9.82069 -0.342947 -2.63305 0.000411413 4
9.39639 -0.328129 -2.17065 0.000300211 6
9.37736 -0.327465 -1.82389 0.000375262 6
9.44591 -0.329859 -1.497 0.000184663 6
9.5903 -0.334901 -1.17826 0.00027823 6
9.82978 -0.308913 -2.63518 9.25682e-05 4
9.39508 -0.295252 -2.1701 0.000314344 6
9.37109 -0.294498 -1.82245 0.000373405 6
9.46264 -0.297376 -1.49948 0.000142879 6
9.58548 -0.301236 -1.17753 0.000276714 6
9.84419 -0.274975 -2.63877 6.42837e-05 4
9.41243 -0.262915 -2.17388 0.000312667 6
9.39358 -0.262388 -1.82664 0.000352961 6
9.49123 -0.265116 -1.50385 0.000102168 6
9.61561 -0.26859 -1.18111 0.000275193 6
9.82899 -0.240217 -2.63446 0.000164567 4
9.44425 -0.230814 -2.18103 0.00031098 6
9.3936 -0.229577 -1.82648 0.000351177 6
9.50654 -0.232337 -1.50614 0.000152465 6
9.62976 -0.235348 -1.18274 0.000264417 6
9.83957 -0.206111 -2.63708 0.000118283 4
9.45061 -0.197964 -2.18232 0.000308891 6
9.42238 -0.197372 -1.83193 0.000349384 6
9.51069 -0.199222 -1.50668 0.000111229 6
9.65736 -0.202294 -1.18603 0.000262905 6
9.84435 -0.171835 -2.63819 0.000143996 4
9.47511 -0.16539 -2.18784 0.000307178 6
9.43883 -0.164757 -1.835 0.000363957 6
9.5316 -0.166376 -1.50989 7.04127e-05 6
9.65741 -0.168572 -1.18596 0.000305346 6
9.83434 -0.137323 -2.63536 6.17129e-05 4
9.48272 -0.132413 -2.18947 0.000305456 6
9.43421 -0.131736 -1.834 0.00036199 6
9.5491 -0.13334 -1.51258 0.000279877 6
9.67182 -0.135054 -1.18767 0.00030634 6
9.84716 -0.103124 -2.63868 0.000154282 4
9.48835 -0.0993661 -2.19068 0.000304635 6
9.46469 -0.0991185 -1.83985 0.000360013 6
9.55406 -0.100054 -1.5133 0.00027844 6
9.68243 -0.101399 -1.18892 8.325e-05 6
9.82869 -0.0686188 -2.63365 7.457e-05 4
9.5045 -0.0663555 -2.19434 0.000302883 6
9.4786 -0.0661747 -1.8425 0.000358527 6
9.57215 -0.0668279 -1.51612 0.000276997 6
9.71628 -0.0678341 -1.19304 0.000295581 6
31.1581 -0.21753 1.63296 4.72893e-05 10
31.1153 -0.217231 3.82058 2.88097e-05 10
31.1484 -0.217462 4.93354 4.45493e-05 10
32.0789 -0.223958 7.40617 3.60876e-05 10
9.84014 -0.034349 -2.63667 0.000182568 4
9.51312 -0.0332074 -2.19629 0.000286067 6
9.48139 -0.0330967 -1.84301 0.000356544 6
9.57854 -0.0334358 -1.5171 0.000275546 6
9.7174 -0.0339205 -1.19315 0.000277813 6
32.1443 -0.112206 7.42115 3.56452e-05 10
9.83675 0 -2.63575 0.000200568 4
9.53434 0 -2.20118 0.000284387 6
9.50246 0 -1.84709 0.000354553 6
9.60269 0 -1.52092 0.00027409 6
9.76308 0 -1.19876 0.000186098 6
30.7665 0 4.87294 2.98086e-05 10
32.2186 0 7.43825 3.52044e-05 10
9.8419 0.0343528 -2.63715 7.9713e-05 4
9.55988 0.0333684 -2.20709 0.000297579 6
9.51958 0.0332277 -1.85043 0.000352554 6
9.6234 0.0335901 -1.52421 0.000272626 6
9.8003 0.0342076 -1.20333 0.000698302 6
30.6024 0.106816 -2.67738 4.39212e-05 10
32.2942 0.112722 3.96525 3.85316e-05 10
30.5907 0.106776 4.84512 3.0714e-05 10
32.2875 0.112698 7.45419 3.47653e-05 10
9.82872 0.0686167 -2.63366 5.65705e-05 4
9.56124 0.0667494 -2.20744 0.000295795 6
9.53812 0.066588 -1.85407 0.00033302 6
9.63042 0.0672323 -1.52535 0.000271157 6
30.4304 0.212442 -2.66238 4.52372e-05 10
32.3698 0.225981 3.9746 3.80508e-05 10
30.4185 0.212359 4.81793 3.16374e-05 10
32.3498 0.225842 7.46873 3.43279e-05 10
9.85233 0.103176 -2.64007 0.000200568 4
9.57272 0.100247 -2.21016 0.000294004 6
9.55622 0.100075 -1.85764 0.000331105 6
9.63702 0.100921 -1.52644 0.000269681 6
30.2724 0.317019 -2.64864 4.6579e-05 10
30.2543 0.316829 1.58565 3.68436e-05 10
30.2744 0.31704 2.64881 3.63701e-05 10
30.2727 0.317022 3.71723 3.56638e-05 10
30.2691 0.316984 4.79441 3.47357e-05 10
30.2466 0.316748 5.87966 3.36003e-05 10
30.2608 0.316898 6.98665 3.2275e-05 10
30.2551 0.316838 8.10728 3.07802e-05 10
9.84556 0.137478 -2.63837 0.00011057 4
9.58772 0.133877 -2.21371 0.000292206 6
9.54851 0.13333 -1.85622 0.000346509 6
9.64226 0.134639 -1.52733 0.000334181 6
21.8523 0.305133 -2.68339 9.25619e-05 4
30.1132 0.420483 -2.63482 4.79464e-05 10
30.0957 0.420239 1.5774 3.79238e-05 10
30.1092 0.420427 2.63447 3.74375e-05 10
30.0966 0.420252 3.69576 3.67121e-05 10
30.1048 0.420366 4.7686 3.5759e-05 10
30.1079 0.420409 5.85295 3.45927e-05 10
30.1074 0.420402 6.95152 3.32315e-05 10
30.0922 0.42019 8.06397 3.1696e-05 10
9.84352 0.171818 -2.63796 0.000164569 4
9.60904 0.167725 -2.21876 0.000287512 6
9.55977 0.166865 -1.85851 0.000339579 6
9.65175 0.168471 -1.52892 0.000332399 6
21.7356 0.379393 -2.6692 5.14205e-05 4
29.9407 0.522614 -2.61987 4.93399e-05 10
29.9439 0.522669 -1.56953 5.00076e-05 10
29.9369 0.522548 -0.522631 5.03511e-05 10
29.9559 0.522879 0.522961 5.03653e-05 10
29.9352 0.522518 1.56908 3.90244e-05 10
29.9545 0.522855 2.62108 3.85251e-05 10
29.9403 0.522607 3.67677 3.77803e-05 10
29.9405 0.52261 4.74283 3.68017e-05 10
29.9261 0.522358 5.81792 3.56042e-05 10
29.9474 0.522731 6.91496 3.42063e-05 10
29.9404 0.522608 8.02372 3.26294e-05 10
9.84722 0.206269 -2.63913 0.000115712 4
9.62216 0.201555 -2.22194 0.000285568 6
9.58764 0.200832 -1.86406 0.000333548 6
9.6708 0.202574 -1.53204 0.000330609 6
21.6302 0.453086 -2.65643 8.0914e-05 4
29.7958 0.624131 -2.60737 5.07594e-05 10
29.7782 0.623763 -1.56095 5.14447e-05 10
29.7714 0.62362 -0.519776 5.17973e-05 10
29.7891 0.623991 0.520085 5.18117e-05 10
29.7707 0.623606 1.56056 4.01456e-05 10
29.7808 0.623816 2.60605 3.96331e-05 10
29.7852 0.623909 3.65796 3.88686e-05 10
29.7764 0.623724 4.71715 3.78641e-05 10
29.7764 0.623724 5.78921 3.66348e-05 10
29.7638 0.623462 6.87303 3.51997e-05 10
29.7712 0.623615 7.97891 3.35807e-05 10
9.82554 0.24013 -2.63353 7.71414e-05 4
9.65685 0.236008 -2.23013 0.000269437 6
9.61851 0.235071 -1.87021 0.000331297 6
9.67996 0.236573 -1.53361 0.000328812 6
21.5153 0.525822 -2.64254 8.54295e-05 4
29.6344 0.724248 -2.59345 5.22053e-05 10
29.6383 0.724342 -1.55374 5.29083e-05 10
29.6408 0.724403 -0.517536 5.327e-05 10
29.628 0.724091 0.517313 5.32847e-05 10
29.6273 0.724073 1.55316 4.12875e-05 10
29.6239 0.723991 2.59253 4.07616e-05 10
29.62 0.723896 3.63796 3.9977e-05 10
29.6311 0.724166 4.6945 3.89461e-05 10
29.6105 0.723664 5.75742 3.76846e-05 10
29.6302 0.724146 6.84272 3.62117e-05 10
29.6272 0.724073 7.94096 3.45499e-05 10
9.84553 0.27501 -2.63913 0.00016714 4
9.66147 0.269869 -2.2314 0.000269298 6
9.62488 0.268847 -1.87162 0.000329042 6
9.69725 0.270869 -1.53649 0.000330706 6
21.4326 0.598665 -2.63261 9.85955e-05 4
29.4746 0.823298 -2.57969 5.36775e-05 10
29.5523 0.825471 -1.54938 7.95195e-05 10
29.5477 0.825342 -0.515958 8.00633e-05 10
29.5679 0.825907 0.516311 8.00861e-05 10
29.4808 0.823472 1.54562 4.24502e-05 10
29.4775 0.823382 2.57996 4.19106e-05 10
29.4624 0.822958 3.61893 4.11058e-05 10
29.4608 0.822914 4.66795 4.00481e-05 10
29.4755 0.823325 5.73169 3.87537e-05 10
29.4578 0.822829 6.80351 3.72424e-05 10
29.4671 0.823091 7.89877 3.55371e-05 10
9.83521 0.309082 -2.63664 8.99981e-05 4
9.68948 0.304502 -2.2381 0.000281531 6
9.63156 0.302682 -1.87311 0.000310443 6
9.72304 0.305557 -1.54074 0.000135661 6
21.3087 0.669649 -2.61767 0.000100117 4
29.3165 0.921301 -2.56613 5.51762e-05 10
29.6296 0.931141 -1.55359 7.85166e-05 10
29.614 0.930651 -0.51717 7.90541e-05 10
29.6235 0.930951 0.517336 7.90767e-05 10
28.6651 0.90083 1.50302 4.79869e-05 10
28.6754 0.901153 2.51001 4.7384e-05 10
28.6745 0.901125 3.52252 4.64847e-05 10
28.6749 0.901138 4.5439 4.53025e-05 10
28.6696 0.900973 5.57556 4.38553e-05 10
28.6677 0.900912 6.62173 4.2165e-05 10
28.6792 0.901274 7.68836 4.02568e-05 10
9.8431 0.343727 -2.63906 5.65701e-05 4
9.66829 0.337622 -2.23346 0.00170965 6
9.67037 0.337695 -1.88088 0.000308292 6
9.7298 0.33977 -1.54199 0.000330491 6
21.2021 0.74039 -2.60488 9.41891e-05 4
29.1577 1.0182 -2.55253 5.67017e-05 10
29.7 1.03714 -1.55746 7.75178e-05 10
29.6989 1.0371 -0.518713 7.80492e-05 10
29.6879 1.03672 0.51852 7.80716e-05 10
28.6048 0.998897 1.50003 7.11232e-05 10
28.5972 0.998632 2.50346 7.02316e-05 10
28.6046 0.998891 3.51435 6.8901e-05 10
28.5831 0.998137 4.52987 6.71517e-05 10
28.5759 0.997887 5.55798 6.501e-05 10
28.5812 0.998072 6.60251 6.25081e-05 10
28.5948 0.998547 7.66662 5.96834e-05 10
9.82296 0.377359 -2.634 0.000249422 4
9.67566 0.3717 -2.23545 0.0019827 6
9.68979 0.372243 -1.88489 0.00028799 6
9.72839 0.373725 -1.54196 0.000312139 6
21.0954 0.810402 -2.59211 9.42318e-05 4
29.0138 1.11459 -2.54026 5.8254e-05 10
30.3913 1.16751 -1.59392 3.18684e-05 10
30.3872 1.16735 -0.530803 3.20886e-05 10
30.373 1.16681 0.530553 3.20974e-05 10
28.6724 1.10148 1.50377 7.02257e-05 10
28.6453 1.10044 2.50798 6.93445e-05 10
28.6592 1.10097 3.5215 6.80294e-05 10
28.6498 1.10061 4.54104 6.63005e-05 10
28.6676 1.10129 5.57653 6.41837e-05 10
28.6618 1.10107 6.62197 6.17112e-05 10
28.6522 1.1007 7.683 5.89196e-05 10
9.82827 0.411925 -2.63579 0.000185138 4
9.68696 0.406003 -2.23837 0.00220296 6
9.66934 0.405264 -1.88118 0.00203883 6
9.74024 0.408236 -1.54406 0.000308386 6
28.8704 1.21002 -2.52805 5.98333e-05 10
30.2791 1.26907 -1.58825 4.67914e-05 10
30.2593 1.26823 -0.528641 4.7115e-05 10
30.2644 1.26845 0.52873 4.71287e-05 10
28.7185 1.20366 1.50639 6.9332e-05 10
28.7121 1.20339 2.51419 6.84612e-05 10
28.7143 1.20348 3.52877 6.71615e-05 10
28.7186 1.20366 4.55258 6.54529e-05 10
28.7166 1.20358 5.58684 6.33611e-05 10
28.7243 1.2039 6.63735 6.09177e-05 10
28.7258 1.20396 7.70381 5.81593e-05 10
9.83565 0.446633 -2.63817 8.74259e-05 4
9.69981 0.440465 -2.24169 0.00177026 6
9.67 0.439111 -1.88159 0.00215175 6
9.771 0.443697 -1.54917 0.000322669 6
20.9189 0.949917 -2.57116 8.21641e-05 4
28.7094 1.30368 -2.51433 6.14396e-05 10
30.5589 1.38767 -1.60318 3.14187e-05 10
30.5457 1.38707 -0.533727 3.16363e-05 10
30.5296 1.38634 0.533444 3.16449e-05 10
28.7131 1.30385 1.50634 4.85799e-05 10
28.7526 1.30564 2.51812 4.33796e-05 10
28.7406 1.3051 3.53254 4.25557e-05 10
28.7224 1.30427 4.55387 4.58594e-05 10
28.7096 1.30369 5.58634 4.4393e-05 10
28.7485 1.30546 6.64396 3.85976e-05 10
28.6951 1.30303 7.69675 4.07471e-05 10
9.83113 0.480821 -2.63739 0.000277705 4
9.87445 0.48294 -2.28242 0.000310177 6
9.68858 0.47385 -1.88552 0.00214053 6
9.77207 0.477933 -1.54959 0.000320715 6
20.8047 1.01752 -2.55755 7.83264e-05 4
28.572 1.3974 -2.50272 6.30731e-05 10
30.3902 1.48633 -1.59459 4.55653e-05 10
30.4059 1.48709 -0.531372 4.58812e-05 10
30.391 1.48637 0.531111 4.58946e-05 10
28.573 1.39745 1.49924 4.98697e-05 10
28.5644 1.39703 4.52956 4.70827e-05 10
28.5466 1.39616 5.55553 4.55803e-05 10
27.9435 1.36666 7.49638 4.60376e-05 10
9.8391 0.515645 -2.64 7.45688e-05 4
9.80361 0.513785 -2.26645 0.000378848 6
9.69107 0.507887 -1.88634 0.0021611 6
9.78145 0.512623 -1.55136 0.000316002 6
20.7145 1.0856 -2.54691 8.8925e-05 4
28.4333 1.49013 -2.49101 6.47339e-05 10
33.3287 1.74668 -0.582553 4.55428e-05 10
33.3404 1.7473 0.582758 4.55568e-05 10
28.4151 1.48917 1.49122 5.11811e-05 10
28.409 1.48885 4.50571 4.83264e-05 10
28.4265 1.48977 5.53313 4.67876e-05 10
27.7973 1.4568 7.4585 4.72536e-05 10
9.83499 0.549861 -2.63939 8.22825e-05 4
9.7531 0.545282 -2.2552 0.000687985 6
9.70558 0.542626 -1.88952 0.00214109 6
9.81613 0.548807 -1.55715 0.000313969 6
20.6201 1.15284 -2.53579 9.68372e-05 4
28.2807 1.58114 -2.47811 6.64221e-05 10
30.5378 1.70733 -1.60292 6.71453e-05 10
30.5549 1.70828 -0.534171 4.46594e-05 10
30.5275 1.70675 0.533692 4.46726e-05 10
28.2696 1.58051 1.48386 5.2514e-05 10
27.6724 1.54712 2.4248 5.69378e-05 10
27.6716 1.54708 3.40295 5.58726e-05 10
28.2871 1.58149 4.48723 4.95909e-05 10
28.2774 1.58095 5.50516 4.8015e-05 10
27.6537 1.54608 6.39433 5.07533e-05 10
27.6644 1.54668 7.42422 4.84898e-05 10
9.80892 0.582757 -2.63293 0.000264846 4
9.74844 0.579164 -2.25457 0.000886797 6
9.73172 0.57817 -1.89499 0.0021303 6
9.81072 0.582864 -1.55661 0.000297745 6
20.5273 1.21955 -2.52488 9.36944e-05 4
28.1485 1.67233 -2.46702 6.81378e-05 10
28.1495 1.67239 -1.47785 4.55991e-05 10
28.1325 1.67138 -0.49192 4.59035e-05 10
28.1298 1.67122 0.491872 4.59153e-05 10
28.1275 1.67108 1.4767 5.38687e-05 10
27.5666 1.63776 2.41602 8.00941e-05 10
27.573 1.63814 3.39151 7.85994e-05 10
28.1426 1.67198 4.4652 5.08759e-05 10
28.1187 1.67056 5.47535 4.92625e-05 10
27.5663 1.63774 6.37541 7.14118e-05 10
27.5587 1.63729 7.39734 6.82327e-05 10
9.81726 0.617647 -2.63573 0.000133708 4
9.75688 0.613848 -2.25701 0.000760072 6
9.73646 0.612564 -1.89632 0.00171604 6
9.83205 0.618578 -1.56032 0.00031138 6
20.4021 1.28359 -2.51001 8.05504e-05 4
27.9938 1.76121 -2.45398 6.9881e-05 10
28.128 1.76966 -1.47704 6.29736e-05 10
28.1171 1.76897 -0.491757 6.33959e-05 10
28.1186 1.76907 0.491782 6.34141e-05 10
28.0044 1.76188 1.47055 5.52449e-05 10
27.6525 1.73974 2.42406 7.90447e-05 10
27.6455 1.7393 3.40115 7.75681e-05 10
27.9831 1.76054 4.44084 5.21817e-05 10
27.9837 1.76058 5.45023 5.05302e-05 10
27.6255 1.73804 6.39046 7.04676e-05 10
27.6286 1.73824 7.41769 6.73273e-05 10
9.82669 0.652686 -2.63886 4.62834e-05 4
9.76941 0.648882 -2.26042 0.000601676 6
10.0252 0.66587 -1.95299 0.000301446 6
9.83791 0.653431 -1.5616 0.00030934 6
27.8701 1.85112 -2.44369 7.1652e-05 10
27.8628 1.85064 -1.46345 6.53568e-05 10
27.8479 1.84965 -0.487157 6.57933e-05 10
27.8645 1.85075 0.487448 6.58121e-05 10
27.84 1.84912 1.46225 5.66432e-05 10
27.696 1.83956 2.42843 7.80003e-05 10
27.7049 1.84015 3.40923 7.65417e-05 10
27.8508 1.84984 4.42085 5.35084e-05 10
27.8458 1.84951 5.42461 5.18183e-05 10
27.7084 1.84038 6.41108 6.95281e-05 10
27.6907 1.83921 7.43604 6.64263e-05 10
9.81815 0.68655 -2.63719 0.000118279 4
9.81343 0.68622 -2.27114 0.00304334 6
9.96649 0.696923 -1.94202 0.000299475 6
9.87465 0.690501 -1.56781 0.000300347 6
27.7335 1.93931 -2.43229 7.34507e-05 10
27.917 1.95214 -1.46664 6.44847e-05 10
27.9176 1.95219 -0.488494 6.49159e-05 10
27.9285 1.95294 0.488683 6.49345e-05 10
27.7083 1.93755 1.45567 5.80632e-05 10
27.711 1.93774 2.43032 5.73429e-05 10
27.7121 1.93781 3.41092 5.62684e-05 10
27.7219 1.9385 4.40144 5.4856e-05 10
27.7006 1.93701 5.39759 5.31267e-05 10
27.7102 1.93768 6.41302 5.1106e-05 10
27.7196 1.93834 7.44557 4.88238e-05 10
9.81696 0.720911 -2.63753 0.00012085 4
9.96393 0.731704 -2.30655 0.00169764 6
9.92591 0.728912 -1.9346 0.000232796 6
9.89456 0.72661 -1.57136 0.00029814 6
27.5706 2.02466 -2.41861 7.52773e-05 10
27.6636 2.03148 -1.45369 6.6943e-05 10
27.6458 2.03018 -0.483859 6.73889e-05 10
27.6467 2.03024 0.483874 6.74082e-05 10
27.5778 2.02519 1.44919 5.95052e-05 10
27.5798 2.02533 2.41942 5.87684e-05 10
27.5828 2.02555 3.39586 5.76693e-05 10
27.5781 2.0252 4.3797 5.62246e-05 10
27.564 2.02417 5.37233 5.44555e-05 10
27.5637 2.02415 6.38072 5.23884e-05 10
27.5644 2.0242 7.40574 5.00535e-05 10
9.80283 0.754286 -2.63443 0.000138848 4
9.88601 0.760686 -2.28911 0.000359513 6
9.91095 0.762605 -1.93219 0.000245963 6
9.90182 0.761902 -1.57293 0.000281134 6
27.4375 2.1112 -2.40757 7.71319e-05 10
27.4513 2.11226 -1.44292 5.1611e-05 10
27.4541 2.11248 -0.48063 5.19517e-05 10
27.4475 2.11197 0.480515 5.19646e-05 10
27.4469 2.11192 1.44268 6.09692e-05 10
27.4298 2.11061 2.40689 6.02157e-05 10
27.4311 2.1107 3.37807 5.90918e-05 10
27.4374 2.11119 4.3585 5.76142e-05 10
27.4296 2.11059 5.34753 5.58049e-05 10
27.4428 2.11161 6.35441 5.36906e-05 10
27.429 2.11054 7.3713 5.13023e-05 10
9.80614 0.788982 -2.63604 8.228e-05 4
9.87686 0.794672 -2.28762 0.00072165 6
9.87986 0.794914 -1.92666 0.000599452 6
9.9305 0.798989 -1.57792 0.00029372 6
27.3045 2.19687 -2.39656 7.90144e-05 10
27.4468 2.20832 -1.44308 6.85758e-05 10
27.4458 2.20824 -0.480617 6.90313e-05 10
27.4536 2.20886 0.480752 6.90512e-05 10
27.3214 2.19823 1.43648 6.24554e-05 10
27.3147 2.19769 2.39745 6.16848e-05 10
27.3124 2.1975 3.36437 6.05356e-05 10
27.2941 2.19603 4.33693 5.90248e-05 10
27.3173 2.1979 5.3271 5.71748e-05 10
27.3082 2.19716 6.32497 5.50127e-05 10
27.3045 2.19687 7.33987 5.25703e-05 10
9.79538 0.82254 -2.6339 0.000282836 4
9.90833 0.832025 -2.29557 0.00227562 6
9.88274 0.829877 -1.92777 0.000586227 6
9.92777 0.833658 -1.57794 0.000290288 6
21.1938 1.77969 -2.61143 7.04209e-05 4
27.1871 2.28297 -2.38694 8.09249e-05 10
27.1807 2.28243 -1.42949 5.41462e-05 10
27.1715 2.28165 -0.47595 5.45021e-05 10
27.1794 2.28232 0.476087 5.45155e-05 10
27.1688 2.28143 1.42887 6.39635e-05 10
27.1863 2.2829 2.38687 6.31758e-05 10
27.1771 2.28213 3.34867 6.20011e-05 10
27.1661 2.2812 4.31784 6.04566e-05 10
27.1723 2.28172 5.30035 5.85652e-05 10
27.1619 2.28085 6.29289 5.63547e-05 10
27.1778 2.28218 7.3079 5.38575e-05 10
9.80359 0.857703 -2.6369 0.000172272 4
9.93059 0.868814 -2.30141 0.00224504 6
9.88434 0.864767 -1.92866 0.000695657 6
9.96191 0.871554 -1.58384 0.000288118 6
21.092 1.84531 -2.59967 6.80017e-05 4
27.0442 2.36606 -2.3751 8.28636e-05 10
27.2536 2.38438 -1.43376 7.02575e-05 10
27.2322 2.38251 -0.477155 7.07229e-05 10
27.2484 2.38392 0.477439 7.07433e-05 10
27.0284 2.36467 1.42191 6.54938e-05 10
27.0275 2.3646 2.37363 6.46888e-05 10
27.0529 2.36682 3.33437 6.34881e-05 10
27.0438 2.36602 4.29967 6.19095e-05 10
27.047 2.36631 5.27749 5.99763e-05 10
27.0259 2.36446 6.26326 5.77169e-05 10
27.0403 2.36572 7.2731 5.5164e-05 10
9.78488 0.890492 -2.63269 7.4565e-05 4
9.9311 0.903799 -2.30225 0.00299904 6
9.89498 0.900512 -1.93134 0.000705926 6
9.9833 0.908549 -1.58773 0.000267978 6
20.9996 1.91111 -2.58909 5.94495e-05 4
26.904 2.44845 -2.36352 8.48302e-05 10
26.973 2.45473 -1.41944 7.30017e-05 10
26.9677 2.45425 -0.472669 7.34833e-05 10
26.9513 2.45275 0.47238 7.35044e-05 10
26.9129 2.44926 1.41628 6.70462e-05 10
26.9247 2.45034 2.36534 6.62236e-05 10
26.9068 2.4487 3.31739 6.49966e-05 10
26.8986 2.44796 4.27793 6.33836e-05 10
26.9138 2.44934 5.25314 6.1408e-05 10
26.9065 2.44867 6.23752 5.90989e-05 10
26.9013 2.4482 7.23797 5.64898e-05 10
9.79061 0.925484 -2.63508 7.71357e-05 4
9.96628 0.942089 -2.31115 0.00314361 6
9.90078 0.935898 -1.9331 0.00070169 6
9.9842 0.943783 -1.58839 0.00026898 6
20.9228 1.97778 -2.58045 7.40672e-05 4
26.7797 2.53142 -2.35336 8.68253e-05 10
26.7856 2.53198 -1.41003 5.80896e-05 10
26.7955 2.53292 -0.469803 5.84691e-05 10
26.7869 2.53211 0.469652 5.84832e-05 10
26.7903 2.53242 1.41028 6.86209e-05 10
26.7697 2.53047 2.35248 6.77805e-05 10
26.7653 2.53006 3.30101 6.6527e-05 10
26.7781 2.53127 4.26014 6.48789e-05 10
26.786 2.53202 5.22988 6.28604e-05 10
26.7726 2.53075 6.20848 6.0501e-05 10
26.7848 2.5319 7.20896 5.7835e-05 10
9.80591 0.961476 -2.64009 8.742e-05 4
10.0014 0.980648 -2.32009 0.000640301 6
9.90842 0.971527 -1.93524 0.000667342 6
9.99743 0.980255 -1.59103 0.000266704 6
20.8359 2.04298 -2.5706 5.80228e-05 4
26.6618 2.61421 -2.34379 8.88485e-05 10
26.7509 2.62294 -1.40868 7.48248e-05 10
26.7528 2.62313 -0.469211 7.53172e-05 10
26.7456 2.62243 0.469085 7.53389e-05 10
26.6591 2.61394 1.40384 7.0218e-05 10
26.6508 2.61313 2.34282 6.93595e-05 10
26.6436 2.61242 3.28711 6.80791e-05 10
26.6648 2.6145 4.24354 6.63955e-05 10
26.6511 2.61316 5.2053 6.43336e-05 10
26.6377 2.61184 6.17928 6.19233e-05 10
26.6386 2.61194 7.17203 5.91996e-05 10
9.77801 0.993213 -2.63349 0.000164554 4
9.95621 1.01131 -2.3104 0.00323147 6
9.95172 1.01086 -1.94437 0.000635614 6
10.0388 1.0197 -1.59817 0.00026443 6
20.7295 2.10562 -2.55836 8.43232e-05 4
26.5169 2.69348 -2.33186 9.09001e-05 10
26.5416 2.69599 -1.39814 6.08128e-05 10
26.5308 2.6949 -0.46548 6.12085e-05 10
26.5169 2.69349 0.465236 6.12231e-05 10
26.5355 2.69538 1.39782 7.18373e-05 10
26.6223 2.70419 2.34113 4.45415e-05 10
26.6287 2.70484 3.28642 4.37192e-05 10
26.508 2.69258 4.22005 6.79335e-05 10
26.5217 2.69397 5.18182 6.58276e-05 10
26.6337 2.70534 6.1805 3.97666e-05 10
26.628 2.70477 7.17167 3.80176e-05 10
9.79732 1.02974 -2.63964 0.000143984 4
9.96222 1.04707 -2.31263 0.00322545 6
9.96695 1.04757 -1.94805 0.000413536 6
10.054 1.05672 -1.60117 0.000172149 6
20.6543 2.17085 -2.55 9.04578e-05 4
26.3976 2.7745 -2.32222 9.29801e-05 10
26.5263 2.78802 -1.39784 7.67055e-05 10
26.5381 2.78926 -0.465776 7.72088e-05 10
26.5218 2.78755 0.465489 7.72311e-05 10
26.412 2.77601 1.39182 7.34788e-05 10
26.4018 2.77494 4.20467 6.94928e-05 10
26.4013 2.77489 5.16017 6.73423e-05 10
9.77524 1.06193 -2.63468 9.77026e-05 4
9.9577 1.08175 -2.31244 0.00304521 6
10.0123 1.08768 -1.95764 0.000328852 6
10.0857 1.09566 -1.60681 0.000179015 6
20.5563 2.23313 -2.53885 7.34034e-05 4
26.2782 2.85472 -2.31257 9.50882e-05 10
26.2905 2.85606 -1.38593 6.36115e-05 10
26.2794 2.85485 -0.461408 6.40239e-05 10
26.2812 2.85504 0.461438 6.40389e-05 10
26.2779 2.85469 1.38527 7.51428e-05 10
26.2845 2.85541 4.18755 7.10733e-05 10
26.2558 2.85229 5.13363 6.88779e-05 10
9.791 1.09824 -2.63994 0.000154266 4
9.97589 1.11897 -2.31756 0.00260122 6
10.4659 1.17394 -2.04713 0.000141932 6
10.0981 1.13268 -1.60941 0.000181891 6
20.4883 2.29813 -2.53142 8.18649e-05 4
26.1484 2.93301 -2.30203 9.72247e-05 10
26.3255 2.95288 -1.38832 7.86465e-05 10
26.3168 2.9519 -0.462242 7.91611e-05 10
26.3147 2.95167 0.462206 7.9184e-05 10
26.1439 2.9325 1.37873 7.6829e-05 10
26.1398 2.93205 4.16611 7.26753e-05 10
26.1493 2.93311 5.11478 7.04343e-05 10
9.76372 1.1297 -2.63363 0.000154265 4
9.99941 1.15697 -2.32395 0.00277364 6
10.4478 1.20885 -2.0444 0.000146231 6
10.1221 1.17117 -1.61388 0.000163114 6
20.3894 2.35914 -2.52021 7.85839e-05 4
26.0234 3.011 -2.29194 9.93897e-05 10
26.0369 3.01258 -1.37364 8.18268e-05 10
26.0457 3.01359 -0.457663 8.23599e-05 10
26.0284 3.01159 0.457359 8.23837e-05 10
26.0345 3.0123 1.37351 7.85376e-05 10
26.0326 3.01207 4.15066 7.42986e-05 10
26.0216 3.0108 5.09184 7.20115e-05 10
9.78244 1.16648 -2.63977 0.000115698 4
10.0218 1.19503 -2.33011 0.0007809 6
10.3829 1.23809 -2.03253 9.48348e-05 6
10.2104 1.21752 -1.62863 0.00012657 6
20.3098 2.4218 -2.5114 3.91101e-05 4
25.9035 3.0888 -2.28231 0.000101583 10
26.0996 3.11218 -1.37751 8.06509e-05 10
26.0905 3.1111 -0.458637 8.1177e-05 10
26.1063 3.11299 0.458916 8.12006e-05 10
25.9027 3.08871 1.36712 8.02685e-05 10
25.9128 3.08991 4.13326 7.59434e-05 10
25.913 3.08994 5.07267 7.36096e-05 10
9.75632 1.19792 -2.63383 4.11366e-05 4
10.0067 1.22866 -2.32757 0.000706495 6
10.3017 1.26489 -2.01749 7.47017e-05 6
10.345 1.27021 -1.6508 3.23457e-05 6
25.7955 3.16728 -2.27376 0.000103804 10
25.8204 3.17034 -1.36335 8.39415e-05 10
25.8188 3.17014 -0.454053 8.44868e-05 10
25.8104 3.16911 0.453905 8.45112e-05 10
25.7976 3.16755 1.36215 8.20217e-05 10
25.7746 3.16472 4.11296 7.76093e-05 10
25.776 3.16488 5.04797 7.52284e-05 10
9.74841 1.23151 -2.63284 0.000210824 4
10.05 1.2696 -2.33866 0.000371714 6
10.0511 1.26975 -1.96927 0.0010827 6
25.6554 3.24102 -2.26239 0.000106055 10
25.8998 3.2719 -1.36814 8.27218e-05 10
25.88 3.2694 -0.455328 8.32599e-05 10
25.8927 3.271 0.45555 8.32841e-05 10
25.6527 3.24069 1.35509 8.37973e-05 10
25.6725 3.24318 2.2639 8.27865e-05 10
25.6762 3.24366 3.1777 8.1279e-05 10
25.6626 3.24194 4.09687 7.92967e-05 10
25.6593 3.24151 5.02729 7.68682e-05 10
25.652 3.2406 5.9693 7.40282e-05 10
25.6562 3.24113 6.92921 7.08173e-05 10
9.76417 1.26814 -2.63828 0.000100269 4
11.3111 1.46905 -2.6333 9.89493e-05 4
10.0336 1.30313 -1.96671 0.00178076 6
25.5488 3.31821 -2.25401 0.000108333 10
25.6078 3.32587 -1.35332 8.61278e-05 10
25.5987 3.32469 -0.450581 8.66857e-05 10
25.5888 3.3234 0.450405 8.67109e-05 10
25.5313 3.31593 1.34928 8.55953e-05 10
25.5371 3.31669 2.25297 8.45645e-05 10
25.5411 3.3172 3.16239 8.30272e-05 10
25.5521 3.31863 4.08105 8.10055e-05 10
25.5312 3.31593 5.00445 7.85288e-05 10
25.5388 3.31691 5.94562 7.56323e-05 10
25.5386 3.31688 6.90053 7.23572e-05 10
9.74263 1.29994 -2.63366 6.42743e-05 4
11.3035 1.50821 -2.63274 8.84537e-05 4
10.0728 1.34399 -1.9753 0.00119575 6
25.4222 3.39204 -2.24387 0.00011064 10
25.6674 3.42475 -1.35709 8.48626e-05 10
25.6704 3.42516 -0.45205 8.5413e-05 10
25.6714 3.42529 0.452067 8.54379e-05 10
25.4305 3.39315 1.34457 8.74155e-05 10
25.4192 3.39164 2.2436 8.63645e-05 10
25.4178 3.39145 3.14857 8.47971e-05 10
25.4244 3.39234 4.06252 8.27357e-05 10
25.4162 3.39124 4.98419 8.02102e-05 10
25.4173 3.39139 5.92005 7.72566e-05 10
25.4183 3.39153 6.87118 7.39168e-05 10
9.73943 1.33414 -2.63404 0.000192821 4
11.2949 1.5472 -2.63198 4.04784e-05 4
10.1302 1.38767 -1.98751 0.00118709 6
25.3263 3.46927 -2.23646 0.000112975 10
25.3851 3.47732 -1.3428 8.83896e-05 10
25.3886 3.47781 -0.447299 8.89605e-05 10
25.3696 3.4752 0.446963 8.89864e-05 10
25.3187 3.46823 1.33929 8.92582e-05 10
25.3164 3.46791 2.23558 8.81867e-05 10
25.3171 3.468 3.13757 8.65887e-05 10
25.3197 3.46836 4.04769 8.44873e-05 10
25.3197 3.46837 4.96761 8.19125e-05 10
25.3197 3.46836 5.90009 7.89011e-05 10
25.3173 3.46803 6.8471 7.54959e-05 10
9.75309 1.37071 -2.63902 4.62766e-05 4
11.3027 1.58849 -2.63509 5.99673e-05 4
10.1906 1.43219 -2.00031 0.000124053 6
25.2086 3.54284 -2.22714 0.000115338 10
25.21 3.54303 -1.33418 7.71424e-05 10
25.2035 3.54212 -0.444252 7.7634e-05 10
25.1854 3.53957 0.443932 7.76513e-05 10
25.1997 3.54158 1.33364 9.1123e-05 10
25.2061 3.54249 2.22692 9.00309e-05 10
25.1914 3.54042 3.12352 8.84021e-05 10
25.1918 3.54048 4.02921 8.62601e-05 10
25.1874 3.53986 4.94405 8.36356e-05 10
25.1887 3.54004 5.87243 8.05659e-05 10
25.1939 3.54077 6.81703 7.70944e-05 10
9.73467 1.40279 -2.63534 0.000100265 4
11.2937 1.62744 -2.63428 8.09549e-05 4
10.2849 1.48207 -2.01983 7.22709e-05 6
25.0879 3.61523 -2.21758 0.00011773 10
25.1576 3.62526 -1.33207 9.0731e-05 10
25.1512 3.62434 -0.443551 9.13153e-05 10
25.158 3.62532 0.44367 9.1342e-05 10
25.0704 3.6127 1.32746 9.30102e-05 10
25.0763 3.61355 2.21655 9.18972e-05 10
25.0819 3.61436 3.11148 9.02373e-05 10
25.0849 3.61479 4.0141 8.80543e-05 10
25.0758 3.61347 4.92458 8.53794e-05 10
25.0737 3.61317 5.84851 8.22507e-05 10
25.0693 3.61254 6.78669 7.87124e-05 10
9.72383 1.43589 -2.63375 0.000226237 4
11.2794 1.66559 -2.63228 0.000136422 4
24.9678 3.68692 -2.20809 0.00012015 10
24.9793 3.68862 -1.32331 0.000121656 10
24.9593 3.68567 -0.440391 0.000122429 10
24.9781 3.68844 0.440721 0.000122456 10
24.9524 3.68464 1.32188 9.49196e-05 10
24.4327 3.60791 2.16076 0.000102421 10
24.4102 3.60459 3.0297 0.00010059 10
24.9571 3.68534 3.99568 8.98697e-05 10
24.9547 3.68499 4.9033 8.7144e-05 10
24.4118 3.60483 5.69703 9.17761e-05 10
24.4019 3.60336 6.60937 8.78687e-05 10
9.73764 1.47268 -2.63886 0.000244231 4
11.2946 1.70815 -2.63722 0.000110935 4
13.3754 2.02284 -2.62949 3.89076e-05 4
24.8599 3.75971 -2.1997 0.000122597 10
24.8486 3.75799 -1.31707 0.000124132 10
24.8414 3.7569 -0.438539 0.000124919 10
24.8616 3.75995 0.438895 0.000124946 10
24.8567 3.75921 1.3175 9.68511e-05 10
24.2971 3.67459 2.1499 0.000104489 10
24.3111 3.6767 3.01897 0.000117539 10
24.3177 3.6777 3.89535 0.00010017 10
24.8482 3.75793 4.88493 8.89292e-05 10
24.3146 3.67723 5.67729 9.3645e-05 10
24.3054 3.67584 6.58666 0.000102724 10
9.72913 1.50615 -2.63797 0.000179957 4
11.2728 1.74512 -2.63353 9.29448e-05 4
13.3806 2.07142 -2.6319 3.26818e-05 4
24.7577 3.83268 -2.19182 0.000125073 10
24.7487 3.8313 -1.31248 0.000126637 10
24.7348 3.82915 -0.436891 0.000127438 10
24.7439 3.83056 0.437052 0.000127466 10
24.7502 3.83153 1.31256 9.88047e-05 10
24.186 3.74419 2.14121 0.00010658 10
24.3902 3.7758 3.03042 0.000115769 10
24.1899 3.74479 3.87694 0.000102182 10
24.7347 3.82913 4.86521 9.07352e-05 10
24.1815 3.74349 5.64924 9.55353e-05 10
24.3778 3.77387 6.60981 0.00010116 10
9.71334 1.53844 -2.63512 0.000208234 4
16.3789 2.59416 -2.6265 6.61872e-05 4
24.6194 3.89933 -2.18077 0.000127578 10
24.6275 3.90061 -1.30676 0.00012917 10
24.6233 3.89994 -0.435159 0.000129985 10
24.6374 3.90218 0.435408 0.000130014 10
24.6256 3.9003 1.30666 0.000100781 10
24.0915 3.81571 2.13401 0.000108695 10
24.4546 3.87323 3.04008 0.000114011 10
24.0849 3.81467 3.86223 0.000104216 10
24.6108 3.89796 4.84348 9.25619e-05 10
24.1632 3.82707 5.64805 3.3338e-05 10
24.438 3.87059 6.62977 9.9608e-05 10
9.71711 1.57383 -2.63762 0.000102831 4
11.2563 1.82312 -2.63258 7.34544e-05 4
13.3582 2.16355 -2.63041 5.75804e-05 4
16.3828 2.65343 -2.6286 6.95799e-05 4
24.5179 3.97103 -2.17299 0.00013011 10
24.5344 3.9737 -1.30255 0.000131731 10
24.5345 3.97372 -0.433832 0.000132561 10
24.5081 3.96944 0.433365 0.00013259 10
24.5224 3.97175 1.30191 0.000102778 10
23.969 3.88212 2.12434 0.000110832 10
24.5243 3.97206 3.05044 0.000112265 10
23.9927 3.88597 3.8496 0.000106272 10
24.5267 3.97245 4.82963 9.44092e-05 10
24.1409 3.90996 5.64599 3.33385e-05 10
24.507 3.96927 6.65222 9.80667e-05 10
9.69757 1.60542 -2.63382 0.000221083 4
11.2687 1.86553 -2.637 0.000128918 4
13.3513 2.21029 -2.63055 6.22481e-05 4
16.366 2.70937 -2.6274 7.16148e-05 4
24.4071 4.04056 -2.16441 0.00013267 10
24.5761 4.06854 -1.30551 0.000145934 10
24.5887 4.07062 -0.435038 0.000146867 10
24.5781 4.06887 0.434851 0.00014691 10
24.3989 4.03922 1.2961 0.000104798 10
23.8848 3.9541 2.11809 0.000112993 10
24.4967 4.0554 3.04876 6.38761e-05 10
23.8625 3.9504 3.83089 0.000108351 10
24.4086 4.04081 4.80912 9.62771e-05 10
24.1373 3.9959 5.64838 3.33391e-05 10
24.5036 4.05655 6.65509 5.57775e-05 10
9.70865 1.64209 -2.63837 4.62727e-05 4
11.2504 1.90285 -2.63424 9.89359e-05 4
13.3556 2.25893 -2.63294 3.26797e-05 4
16.3405 2.76379 -2.62485 5.66797e-05 4
24.3116 4.112 -2.1572 0.000135258 10
24.6396 4.16747 -1.30965 0.000143667 10
24.6277 4.16546 -0.435983 0.000144587 10
24.6311 4.16604 0.436044 0.00014463 10
24.2893 4.10823 1.29103 0.00010684 10
23.7792 4.02195 2.10996 0.000115178 10
23.7533 4.01757 3.81559 0.000110453 10
24.2849 4.10748 4.78755 9.81655e-05 10
24.1165 4.079 5.64681 3.33397e-05 10
9.69458 1.67454 -2.63612 0.000120822 4
11.2401 1.94151 -2.63342 6.44573e-05 4
13.351 2.30611 -2.63359 4.2016e-05 4
16.3476 2.82373 -2.62755 6.4145e-05 4
24.1967 4.1795 -2.14829 0.000137874 10
24.706 4.26747 -1.31396 0.000141417 10
24.7132 4.2687 -0.437758 0.000142323 10
24.7172 4.26939 0.437828 0.000142366 10
23.6751 4.08941 1.25914 0.000118778 10
23.6517 4.08535 2.09989 0.000117385 10
23.6575 4.08636 2.94779 0.000115308 10
23.657 4.08628 3.80239 0.000112576 10
23.6702 4.08855 4.66915 0.000109227 10
23.671 4.0887 5.54582 0.000105308 10
23.6578 4.08641 6.43295 0.000100871 10
11.249 1.9835 -2.63709 4.64686e-05 4
13.319 2.3485 -2.62889 3.11224e-05 4
24.0752 4.2451 -2.1388 0.000140518 10
23.5571 4.15376 1.25362 0.000113517 10
23.5534 4.1531 2.09245 0.000130692 10
23.5693 4.1559 2.93858 0.000128394 10
23.5459 4.15177 3.78683 0.000114723 10
23.5649 4.15513 4.65122 0.000111315 10
23.5584 4.15398 5.52278 0.000117304 10
23.5445 4.15153 6.40605 0.00011238 10
9.67781 1.74131 -2.6348 0.00012596 4
13.3131 2.3954 -2.62935 6.61339e-05 4
16.4275 2.95578 -2.64365 7.34043e-05 4
23.9785 4.31441 -2.13153 0.000143189 10
23.4548 4.22019 1.24895 0.000115654 10
23.4824 4.22514 2.08743 8.76624e-05 10
23.6254 4.25089 2.94742 0.000126385 10
23.44 4.21751 4.62943 0.000113423 10
23.478 4.22435 5.50735 7.86633e-05 10
23.611 4.24829 6.42814 0.000110604 10
9.66666 1.77416 -2.63344 0.000195364 4
11.2188 2.05903 -2.63332 4.64672e-05 4
16.6661 3.0588 -2.68375 5.13054e-05 4
23.884 4.38353 -2.12448 0.000145887 10
23.3395 4.28359 1.2436 0.000117812 10
23.3839 4.29173 2.07999 8.93007e-05 10
23.6881 4.34757 2.95711 0.000124391 10
23.345 4.2846 4.6136 0.000115554 10
23.3756 4.29022 5.48682 8.01459e-05 10
23.68 4.34608 6.45101 0.000108841 10
9.66727 1.80918 -2.63531 0.000226208 4
11.2038 2.09673 -2.6315 5.24621e-05 4
16.7841 3.14106 -2.7045 5.07844e-05 1
23.7693 4.4483 -2.11565 0.000148614 10
23.252 4.3515 1.23974 0.000119992 10
23.2736 4.35553 2.07153 9.09554e-05 10
23.7434 4.44346 2.96594 0.000122413 10
23.2469 4.35054 4.5972 0.000117706 10
23.2813 4.35697 5.46822 8.16436e-05 10
23.7504 4.44477 6.47439 0.000107092 10
9.65741 1.84225 -2.63436 0.000187648 4
11.2091 2.13825 -2.63449 6.89492e-05 4
16.7683 3.19872 -2.70373 5.07831e-05 1
