VERSION 0.7
FIELDS x y z intensity label
SIZE 4 4 4 4 4
TYPE F F F F F
COUNT 1 1 1 1 1
WIDTH 1146
HEIGHT 1
VIEWPOINT 0.576432 9.07274 2.72873 0.877263 0.000350111 0.000699179 -0.480009
POINTS 1146
DATA ascii
-22.5013 -13.9514 1.38752 0.00010764 10
-22.5199 -13.9629 2.31822 0.000106286 10
-22.5025 -13.9521 3.25095 0.000104289 10
-22.7911 -14.1311 4.24731 4.62308e-05 10
-22.4988 -13.9498 5.14574 9.84929e-05 10
-22.5086 -13.9559 6.11432 9.47779e-05 10
-22.5063 -13.9545 7.09565 9.05873e-05 10
-8.43118 -5.26839 -2.66392 0.00022958 4
-9.38208 -5.86258 -2.55413 0.000137785 4
-11.1658 -6.97716 -2.5593 0.000125663 4
-14.7302 -9.20442 -2.75106 4.69405e-05 1
-22.4049 -14.0002 -2.3114 0.0001376 10
-22.4109 -14.0039 -1.38495 0.000139303 10
-22.4216 -14.0105 -0.461495 0.000140148 10
-22.8818 -14.2981 0.470968 6.09432e-05 10
-22.4149 -14.0064 1.3852 0.000108559 10
-22.4113 -14.0041 2.31205 0.000107194 10
-22.4217 -14.0106 3.24632 0.000105181 10
-22.8952 -14.3065 4.276 4.45116e-05 10
-22.4183 -14.0085 5.13847 9.93396e-05 10
-22.4138 -14.0057 6.10181 9.55952e-05 10
-22.4268 -14.0138 7.08597 9.13713e-05 10
-8.42014 -5.30244 -2.66626 0.000311056 4
-9.34918 -5.88749 -2.55075 0.000179939 4
-11.1177 -7.00118 -2.55386 7.37263e-05 4
-14.698 -9.25584 -2.75107 4.69441e-05 1
-22.3215 -14.0566 -2.30784 0.000138764 10
-22.323 -14.0575 -1.38254 0.00014048 10
-22.344 -14.0707 -0.460906 0.000141332 10
-23.0185 -14.4955 0.47482 5.86627e-05 10
-22.347 -14.0727 1.38403 0.000109476 10
-22.3418 -14.0694 2.30994 0.000108101 10
-22.3396 -14.068 3.24153 0.000106073 10
-23.0197 -14.4962 4.30865 4.28366e-05 10
-22.345 -14.0714 5.13291 0.000100185 10
-22.3342 -14.0646 6.09346 9.64116e-05 10
-22.3514 -14.0754 7.07763 9.21546e-05 10
-8.40817 -5.33599 -2.66835 0.000323412 4
-9.32965 -5.92077 -2.55104 0.000144282 4
-11.108 -7.04933 -2.55727 0.000119812 4
-14.6757 -9.31349 -2.75296 4.69477e-05 1
-23.1283 -14.6777 -2.39654 5.54717e-05 10
-23.137 -14.6832 -1.43612 5.61475e-05 10
-23.1433 -14.6872 -0.478449 5.64722e-05 10
-23.1383 -14.684 0.478345 5.64411e-05 10
-23.1383 -14.684 1.4362 4.37065e-05 10
-23.1454 -14.6885 2.39831 4.31326e-05 10
-23.1346 -14.6816 3.36429 4.22947e-05 10
-23.145 -14.6882 4.34168 4.12051e-05 10
-23.1384 -14.6841 5.3269 3.98801e-05 10
-23.1541 -14.6941 6.33113 3.83391e-05 10
-23.1599 -14.6977 7.34983 3.66047e-05 10
-8.37625 -5.35683 -2.66414 0.000190105 4
-9.30962 -5.95375 -2.55124 0.000139426 4
-11.0838 -7.08837 -2.55738 0.000119819 4
-14.6323 -9.35777 -2.75094 4.69513e-05 1
-23.2404 -14.8629 -2.41351 5.33433e-05 10
-23.2506 -14.8694 -1.44639 5.39949e-05 10
-23.2497 -14.8688 -0.481718 5.4308e-05 10
-23.2564 -14.8731 0.481858 5.42778e-05 10
-23.2725 -14.8834 1.44775 4.20302e-05 10
-23.2678 -14.8804 2.41636 4.14763e-05 10
-23.2533 -14.8711 3.38908 4.06678e-05 10
-23.278 -14.8869 4.37635 3.96167e-05 10
-23.2735 -14.884 5.36994 3.83386e-05 10
-23.2643 -14.8782 6.37543 3.68523e-05 10
-23.2763 -14.8858 7.40324 3.51797e-05 10
-8.37065 -5.39452 -2.66833 0.00014814 4
-9.29358 -5.9893 -2.55255 0.000165373 4
-11.0444 -7.11763 -2.55401 9.72017e-05 4
-14.5962 -9.40661 -2.7503 4.69549e-05 1
-23.3651 -15.0577 -2.4319 5.12715e-05 10
-23.3762 -15.0649 -1.45746 5.18996e-05 10
-23.3931 -15.0758 -0.485778 5.22013e-05 10
-23.3935 -15.0761 0.485786 5.21719e-05 10
-23.3838 -15.0698 1.45794 4.03985e-05 10
-23.3857 -15.0711 2.43405 3.98642e-05 10
-23.3887 -15.073 3.41647 3.90845e-05 10
-23.3857 -15.071 4.40646 3.80709e-05 10
-23.3951 -15.0771 5.4101 3.68386e-05 10
-23.4008 -15.0808 6.42721 3.54057e-05 10
-23.4115 -15.0877 7.46293 3.37935e-05 10
-8.35055 -5.42291 -2.66794 0.000338265 4
-9.27823 -6.02536 -2.5541 0.000238343 4
-11.0329 -7.16483 -2.55711 0.000117319 4
-14.5627 -9.45711 -2.75019 4.69586e-05 1
-23.5094 -15.2672 -2.45246 4.92556e-05 10
-23.5107 -15.268 -1.46916 4.98609e-05 10
-23.5023 -15.2626 -0.489148 5.01514e-05 10
-23.5158 -15.2713 0.489428 5.01229e-05 10
-23.5197 -15.2739 1.46973 3.88107e-05 10
-23.525 -15.2773 2.45408 3.82957e-05 10
-23.5284 -15.2796 3.44465 3.7544e-05 10
-23.5307 -15.281 4.44381 3.6567e-05 10
-23.5281 -15.2793 5.45315 3.53794e-05 10
-23.535 -15.2838 6.47868 3.39987e-05 10
-23.531 -15.2812 7.51799 3.24453e-05 10
-8.32033 -5.44468 -2.66434 0.00039507 4
-9.25502 -6.05632 -2.55351 0.000175117 4
-10.9951 -7.19498 -2.55416 0.00011565 4
-14.5344 -9.51106 -2.7511 4.69623e-05 1
-26.194 -17.1409 1.64057 5.29687e-05 10
-26.2037 -17.1472 2.73975 5.22525e-05 10
-26.2081 -17.1501 3.84571 5.11974e-05 10
-26.2086 -17.1504 4.96082 4.98204e-05 10
-26.2077 -17.1498 6.08805 4.81429e-05 10
-26.2043 -17.1476 7.22992 4.61914e-05 10
-26.2054 -17.1483 8.39151 4.39964e-05 10
-8.31244 -5.48104 -2.66793 3.21008e-05 4
-9.22736 -6.08432 -2.55173 0.00022215 4
-10.9671 -7.23149 -2.55351 8.54857e-05 4
-14.4946 -9.55745 -2.74987 4.69661e-05 1
-26.1101 -17.2164 1.63907 5.34245e-05 10
-26.0978 -17.2083 2.73494 5.27026e-05 10
-26.1008 -17.2103 3.83876 5.16393e-05 10
-26.109 -17.2157 4.9533 5.02513e-05 10
-26.1091 -17.2157 6.07905 4.85605e-05 10
-26.0964 -17.2074 7.21668 4.65936e-05 10
-26.117 -17.221 8.38239 4.43809e-05 10
-8.27949 -5.50088 -2.6635 0.000412388 4
-9.21532 -6.12264 -2.55429 0.000192972 4
-10.9544 -7.27809 -2.55645 9.13578e-05 4
-14.4648 -9.6104 -2.75056 4.69698e-05 1
-31.0727 -20.6447 -0.651174 2.99716e-05 10
-31.0757 -20.6467 0.651236 2.99655e-05 10
-25.9904 -17.268 1.63533 5.38796e-05 10
-25.9918 -17.2689 2.73014 5.31522e-05 10
-26.0052 -17.2778 3.83354 5.20804e-05 10
-26.0078 -17.2795 4.94551 5.06816e-05 10
-25.9972 -17.2725 6.06701 4.89775e-05 10
-25.996 -17.2717 7.20554 4.69951e-05 10
-26.0024 -17.276 8.36493 4.47649e-05 10
-8.27079 -5.53681 -2.6669 0.000269175 4
-9.19305 -6.15421 -2.55406 0.000139789 4
-10.9395 -7.32333 -2.55891 7.87904e-05 4
-14.4308 -9.66057 -2.75049 4.69736e-05 1
-25.9054 -17.3421 1.63378 5.4334e-05 10
-25.9075 -17.3435 2.72762 5.36009e-05 10
-25.8966 -17.3363 3.82644 5.25209e-05 10
-25.9041 -17.3413 4.93728 5.11112e-05 10
-25.9064 -17.3428 6.05992 4.93939e-05 10
-25.9094 -17.3448 7.19828 4.7396e-05 10
-25.9062 -17.3427 8.3534 4.51484e-05 10
-8.2458 -5.56186 -2.66509 5.43311e-05 4
-9.22321 -6.22113 -2.56845 0.000429038 4
-10.896 -7.34941 -2.55472 8.21482e-05 4
-14.3958 -9.71008 -2.75026 4.69773e-05 1
-25.7971 -17.4004 1.63077 5.47875e-05 10
-25.7956 -17.3993 2.72222 5.40487e-05 10
-25.7968 -17.4002 3.82064 5.29605e-05 10
-25.799 -17.4017 4.9288 5.154e-05 10
-25.8136 -17.4115 6.05239 4.98095e-05 10
-25.8033 -17.4045 7.18563 4.77961e-05 10
-25.8148 -17.4123 8.34349 4.55311e-05 10
-8.21475 -5.58274 -2.66133 0.000180288 4
-9.24889 -6.28554 -2.5817 0.000428661 4
-10.8752 -7.39077 -2.55588 0.000117362 4
-14.3716 -9.76691 -2.75213 4.69812e-05 1
-25.712 -17.4739 1.62924 5.524e-05 10
-25.6915 -17.4599 2.71765 5.44958e-05 10
-25.6923 -17.4605 3.81416 5.33993e-05 10
-25.6919 -17.4602 4.91995 5.1968e-05 10
-25.7067 -17.4703 6.04159 5.02243e-05 10
-25.7082 -17.4713 7.17609 4.81955e-05 10
-25.707 -17.4704 8.32829 4.59131e-05 10
-8.20396 -5.61736 -2.66417 0.000190175 4
-9.29613 -6.36519 -2.60107 0.000385499 4
-10.8507 -7.4296 -2.5562 0.000114015 4
-14.3247 -9.80831 -2.74969 4.6985e-05 1
-24.4502 -16.7414 -2.59251 3.665e-05 10
-25.5998 -17.5285 1.62599 5.56917e-05 10
-25.5958 -17.5258 2.71398 5.49418e-05 10
-25.6055 -17.5325 3.81034 5.38371e-05 10
-25.6145 -17.5386 4.91683 5.2395e-05 10
-25.596 -17.5259 6.02991 5.06382e-05 10
-25.6051 -17.5322 7.16434 4.85941e-05 10
-25.6008 -17.5292 8.31365 4.62944e-05 10
-8.19222 -5.65143 -2.66675 0.000360606 4
-9.32276 -6.43134 -2.61479 0.000349944 4
-10.8253 -7.4679 -2.55636 9.97697e-05 4
-14.3026 -9.86672 -2.75205 4.69889e-05 1
-24.5924 -16.9652 -2.61385 3.50552e-05 10
-25.501 -17.592 1.62361 5.61422e-05 10
-25.4976 -17.5896 2.71006 5.53868e-05 10
-25.5152 -17.6018 3.80602 5.42739e-05 10
-25.4992 -17.5907 4.90645 5.28211e-05 10
-25.5129 -17.6001 6.02476 5.10512e-05 10
-25.5028 -17.5932 7.15285 4.89918e-05 10
-25.4987 -17.5904 8.30041 4.66748e-05 10
-7.82106 -5.43578 -2.55209 0.000423943 4
-9.35631 -6.5028 -2.63055 0.000353415 4
-10.7862 -7.49658 -2.55327 9.80989e-05 4
-14.2733 -9.92022 -2.75306 4.69927e-05 1
-24.7435 -17.1972 -2.63628 3.35097e-05 10
-25.4073 -17.6585 1.62156 5.65917e-05 10
-25.3991 -17.6528 2.70612 5.58308e-05 10
-25.403 -17.6556 3.79846 5.47097e-05 10
-25.4036 -17.6559 4.89987 5.32462e-05 10
-25.399 -17.6527 6.01238 5.14632e-05 10
-25.3999 -17.6534 7.14125 4.93886e-05 10
-25.4057 -17.6574 8.29015 4.70543e-05 10
-7.79972 -5.46142 -2.55133 0.000412804 4
-9.39363 -6.57749 -2.64748 0.000342316 4
-10.7607 -7.53469 -2.55345 0.000118229 4
-14.2388 -9.9701 -2.75309 4.69966e-05 1
-24.8813 -17.4221 -2.65742 3.20123e-05 10
-27.5314 -19.2777 -1.76141 4.97392e-05 10
-27.5465 -19.2882 -0.586979 5.00752e-05 10
-27.5495 -19.2903 0.587043 5.00656e-05 10
-25.2944 -17.7113 1.61828 5.70401e-05 10
-25.3041 -17.7182 2.70258 5.62737e-05 10
-25.3011 -17.716 3.79243 5.51443e-05 10
-25.3053 -17.719 4.89283 5.36703e-05 10
-25.3028 -17.7172 6.00421 5.18742e-05 10
-25.3213 -17.7302 7.13651 4.97844e-05 10
-25.3155 -17.7261 8.28085 4.74329e-05 10
-7.77246 -5.48286 -2.54866 0.000264987 4
-9.41834 -6.64391 -2.66097 0.000336998 4
-10.7446 -7.57947 -2.55589 0.000122429 4
-14.1875 -10.0081 -2.74991 4.70005e-05 1
-25.0484 -17.6697 -2.68183 3.05628e-05 10
-27.4177 -19.3411 -1.75844 5.01446e-05 10
-27.4274 -19.3479 -0.585878 5.0483e-05 10
-27.4308 -19.3503 0.585949 5.04734e-05 10
-25.2184 -17.7896 1.61739 5.74872e-05 10
-25.2096 -17.7834 2.69909 5.67152e-05 10
-25.2164 -17.7882 3.78903 5.55779e-05 10
-25.2113 -17.7846 4.88663 5.40931e-05 10
-25.2096 -17.7834 5.9968 5.22841e-05 10
-25.2059 -17.7808 7.12143 5.01791e-05 10
-25.2052 -17.7803 8.26502 4.78106e-05 10
-7.7577 -5.51311 -2.55011 0.000267787 4
-9.41274 -6.68928 -2.66596 0.000244391 4
-10.713 -7.61331 -2.55468 0.00012076 4
-14.1463 -10.0533 -2.74872 4.70045e-05 1
-25.1922 -17.9031 -2.7039 2.916e-05 10
-27.3115 -19.4092 -1.75596 5.05489e-05 10
-27.3299 -19.4223 -0.585239 5.08899e-05 10
-27.3287 -19.4215 0.585214 5.08803e-05 10
-25.1004 -17.8379 1.61381 5.7933e-05 10
-25.1172 -17.8499 2.69586 5.71556e-05 10
-25.1169 -17.8497 3.78342 5.60101e-05 10
-25.1226 -17.8537 4.88149 5.45148e-05 10
-25.1195 -17.8515 5.99014 5.26929e-05 10
-25.1156 -17.8487 7.11347 5.05727e-05 10
-25.1171 -17.8498 8.25651 4.81871e-05 10
-7.75165 -5.54964 -2.55448 0.000292905 4
-9.38165 -6.7166 -2.66378 0.000164365 4
-10.6841 -7.64908 -2.55415 0.000103994 4
-14.12 -10.1089 -2.75044 4.70084e-05 1
-25.0043 -17.9013 1.61163 5.83775e-05 10
-25.019 -17.9118 2.69201 5.75946e-05 10
-25.0138 -17.9081 3.77728 5.64412e-05 10
-25.0199 -17.9125 4.87364 5.49352e-05 10
-25.0057 -17.9023 5.97788 5.31004e-05 10
-25.0158 -17.9096 7.10288 5.09652e-05 10
-25.0102 -17.9055 8.24184 4.85626e-05 10
-7.76271 -5.59865 -2.56455 0.000594241 4
-9.37452 -6.76112 -2.66844 0.000182955 4
-10.6659 -7.69247 -2.55619 9.56137e-05 4
-14.075 -10.1512 -2.74857 4.70124e-05 1
-24.9184 -17.9717 1.61013 5.88206e-05 10
-24.909 -17.9649 2.68691 5.80323e-05 10
-24.9209 -17.9735 3.7727 5.68708e-05 10
-24.9125 -17.9674 4.8649 5.53544e-05 10
-24.914 -17.9685 5.97091 5.35067e-05 10
-24.9281 -17.9787 7.09575 5.13565e-05 10
-24.9102 -17.9658 8.22951 4.8937e-05 10
-7.80566 -5.67114 -2.58526 0.000478363 4
-9.35336 -6.79561 -2.66916 0.000160094 4
-10.6323 -7.72482 -2.55459 0.000112395 4
-13.0634 -9.49111 -2.55747 5.12189e-05 4
-24.8103 -18.0258 1.6072 5.92622e-05 10
-24.8309 -18.0407 2.68526 5.84685e-05 10
-24.8125 -18.0273 3.76579 5.7299e-05 10
-24.8294 -18.0396 4.86094 5.57721e-05 10
-24.8197 -18.0325 5.96335 5.39116e-05 10
-24.8342 -18.0431 7.0869 5.17465e-05 10
-24.8198 -18.0326 8.22039 4.93102e-05 10
-7.82517 -5.72716 -2.59833 0.000689744 4
-9.32387 -6.82404 -2.66752 0.00025159 4
-10.6067 -7.76293 -2.55494 9.73036e-05 4
-13.0513 -9.55209 -2.56161 3.95981e-05 4
-24.7105 -18.0854 1.60482 5.97024e-05 10
-24.7183 -18.0911 2.6799 5.89032e-05 10
-24.7196 -18.092 3.76125 5.77257e-05 10
-24.7315 -18.1007 4.85412 5.61884e-05 10
-24.7222 -18.0939 5.95506 5.43152e-05 10
-24.7302 -18.0997 7.07521 5.21352e-05 10
-24.7172 -18.0903 8.20729 4.96821e-05 10
-7.86247 -5.79672 -2.61742 0.000572176 4
-9.2837 -6.84453 -2.66285 0.000121513 4
-10.5725 -7.79472 -2.55324 9.05988e-05 4
-13.0147 -9.59528 -2.561 3.96014e-05 4
-24.6754 -18.1923 1.60665 5.95825e-05 10
-24.6805 -18.1961 2.68267 5.87847e-05 10
-24.6726 -18.1902 3.76375 5.76092e-05 10
-24.6746 -18.1917 4.85539 5.60746e-05 10
-24.6856 -18.1998 5.96153 5.42046e-05 10
-24.6924 -18.2048 7.08255 5.20283e-05 10
-7.89988 -5.86697 -2.63667 0.000552443 4
-9.27645 -6.8893 -2.66765 8.57782e-05 4
-10.5645 -7.84585 -2.55789 0.000115773 4
-12.9641 -9.62798 -2.55763 4.39649e-05 4
-24.5702 -18.2474 1.60393 6.00157e-05 10
-24.5834 -18.2572 2.67903 5.92126e-05 10
-24.5789 -18.2539 3.75914 5.80293e-05 10
-24.59 -18.2621 4.85126 5.64844e-05 10
-24.573 -18.2495 5.94967 5.46018e-05 10
-24.5933 -18.2646 7.07235 5.2411e-05 10
-7.94339 -5.94241 -2.6581 0.000521531 4
-9.25319 -6.92227 -2.6679 0.000122955 4
-10.516 -7.86701 -2.55281 0.000116619 4
-12.9338 -9.67573 -2.55831 4.68757e-05 4
-24.495 -18.3246 1.60319 6.04474e-05 10
-24.4882 -18.3195 2.67561 5.9639e-05 10
-24.4855 -18.3175 3.75462 5.84478e-05 10
-24.4756 -18.3101 4.84127 5.68927e-05 10
-24.4844 -18.3167 5.94368 5.49976e-05 10
-24.4806 -18.3138 7.05829 5.27922e-05 10
-7.98906 -6.02018 -2.6804 0.000465289 4
-9.21145 -6.94132 -2.66283 0.000235915 4
-10.4978 -7.91068 -2.55507 0.000106558 4
-12.9078 -9.7267 -2.55985 5.19674e-05 4
-8.02996 -6.09507 -2.70124 0.000323454 4
-9.19359 -6.97831 -2.66469 4.43259e-05 4
-10.4717 -7.94844 -2.55545 0.00013006 4
-12.8641 -9.76437 -2.55793 5.66965e-05 4
-25.591 -19.4246 1.68376 3.09678e-05 10
-25.597 -19.4292 2.8115 3.05443e-05 10
-25.5919 -19.4253 5.08877 2.91064e-05 10
-8.0612 -6.16325 -2.71897 0.000510559 4
-9.16991 -7.01092 -2.66491 0.000290279 4
-10.435 -7.97815 -2.55327 7.55238e-05 4
-12.8326 -9.81125 -2.55846 5.99727e-05 4
-25.5071 -19.5016 1.68271 4.86343e-05 10
-25.5137 -19.5067 2.80981 4.79693e-05 10
-25.5276 -19.5174 5.08951 4.57114e-05 10
-25.5282 -19.5178 6.24634 4.41547e-05 10
-8.10117 -6.23874 -2.73978 0.00045418 4
-9.15956 -7.05381 -2.66904 0.000204493 4
-10.427 -8.02988 -2.55816 0.000112454 4
-12.7909 -9.85032 -2.55699 4.28932e-05 4
-25.4183 -19.5747 1.68135 4.89766e-05 10
-25.4093 -19.5678 2.80583 4.83073e-05 10
-25.4163 -19.5732 5.0809 4.60348e-05 10
-25.4224 -19.5778 6.23712 4.44681e-05 10
-25.4161 -19.573 8.59561 4.05974e-05 10
-8.09491 -6.27906 -2.74506 0.000375475 1
-9.11904 -7.07345 -2.66441 0.000184483 4
-10.4265 -8.08764 -2.56495 0.000224265 4
-12.7767 -9.91062 -2.56105 4.50782e-05 4
-25.3198 -19.64 1.67936 4.93174e-05 10
-25.3054 -19.6289 2.8019 4.86439e-05 10
-25.3182 -19.6388 5.07497 4.63569e-05 10
-25.3176 -19.6383 6.2282 4.478e-05 10
-25.3314 -19.6491 8.59013 4.08843e-05 10
-8.05352 -6.2921 -2.73846 0.000375492 1
-8.70312 -6.79962 -2.5498 0.000168839 4
-10.4761 -8.18486 -2.58417 0.000103281 4
-12.7424 -9.95542 -2.56112 5.05356e-05 4
-8.03343 -6.32169 -2.73911 0.00037551 1
-8.68726 -6.8362 -2.55214 0.000193201 4
-10.5025 -8.26463 -2.59777 0.00020217 4
-12.7059 -9.99858 -2.5608 4.76313e-05 4
-8.02522 -6.36071 -2.74387 0.000375527 1
-8.66283 -6.86607 -2.55198 0.000186718 4
-10.5537 -8.3648 -2.61766 0.000199321 4
-12.6555 -10.0307 -2.55769 5.70898e-05 4
-8.0033 -6.38895 -2.74398 0.000375545 1
-8.63072 -6.88981 -2.54959 0.000194846 4
-10.6026 -8.46392 -2.63708 0.000253996 4
-12.6387 -10.0893 -2.56137 5.09127e-05 4
-7.96426 -6.40343 -2.73824 0.000375562 1
-8.6289 -6.93781 -2.55619 0.0003628 4
-10.647 -8.56042 -2.65555 0.000161905 4
-12.595 -10.1266 -2.55968 4.7644e-05 4
-7.96072 -6.44646 -2.74475 0.00037558 1
-8.66618 -7.01773 -2.57448 0.000322886 4
-10.6682 -8.63894 -2.66834 4.62633e-05 4
-12.5609 -10.1716 -2.55994 6.07424e-05 4
-7.91987 -6.45929 -2.73842 0.000375598 1
-8.72654 -7.11719 -2.59977 0.000287542 4
-10.6269 -8.66705 -2.66555 6.24232e-05 4
-12.5123 -10.2048 -2.55729 5.6019e-05 4
-7.91317 -6.49995 -2.74393 0.000375616 1
-8.77836 -7.21063 -2.6227 0.000328368 4
-10.6139 -8.71839 -2.66993 7.49131e-05 4
-12.4853 -10.2555 -2.55906 5.38413e-05 4
-7.88968 -6.52691 -2.74367 0.000375634 1
-8.81934 -7.29599 -2.64253 0.0003197 4
-12.4386 -10.2901 -2.55683 4.98441e-05 4
-7.85356 -6.54334 -2.73903 0.000253713 4
-8.86309 -7.38445 -2.66335 0.000288735 4
-10.5348 -8.77724 -2.66536 8.59418e-05 4
-12.4207 -10.3485 -2.56057 5.60343e-05 4
-7.79078 -6.53724 -2.72508 0.000226128 4
-8.92764 -7.49118 -2.69058 0.000315593 4
-10.5159 -8.82389 -2.66836 8.30096e-05 4
-12.3794 -10.3876 -2.55953 4.62143e-05 4
-7.74485 -6.5449 -2.71699 0.000241435 4
-8.97315 -7.58289 -2.71226 0.000233709 4
-12.3367 -10.4253 -2.5582 4.14875e-05 4
-7.71221 -6.56361 -2.71356 0.000218497 4
-9.04005 -7.69368 -2.74058 0.000279876 4
-7.66664 -6.5711 -2.70558 0.000237711 4
-9.02705 -7.73711 -2.74481 0.000216643 1
-10.4143 -8.92614 -2.66616 9.69879e-05 4
-12.2614 -10.5093 -2.55774 4.29512e-05 4
-7.62163 -6.57881 -2.69778 0.000208491 4
-8.99578 -7.76495 -2.74353 0.000216655 1
-10.3945 -8.97233 -2.6691 5.29063e-05 4
-12.2358 -10.5617 -2.56007 3.64027e-05 4
-7.57701 -6.5866 -2.69011 0.000279252 4
-8.96864 -7.79632 -2.74354 0.000216668 1
-10.3552 -9.00164 -2.66705 0.000102881 4
-12.1814 -10.5891 -2.5564 4.7692e-05 4
-7.51857 -6.58201 -2.6775 0.000240154 4
-8.92828 -7.81612 -2.73952 0.000216681 1
-9.88047 -8.6497 -2.55254 0.000115116 4
-12.1637 -10.6485 -2.56047 4.62401e-05 4
-7.48913 -6.60256 -2.67521 0.00024093 4
-8.91181 -7.85682 -2.74286 0.000216694 1
-9.86675 -8.69871 -2.55682 9.41162e-05 4
-12.1229 -10.6877 -2.55972 4.00543e-05 4
-7.43174 -6.59821 -2.66292 0.000235791 4
-8.88128 -7.88517 -2.74192 0.000216707 1
-9.83688 -8.73359 -2.55697 0.000114292 4
-7.4197 -6.63398 -2.66689 0.00017318 4
-8.85161 -7.91426 -2.74128 0.00021672 1
-9.7908 -8.75399 -2.55292 0.000119343 4
-12.2164 -10.9227 -2.59551 7.96092e-05 4
-7.38254 -6.64727 -2.66186 0.00052204 4
-8.81772 -7.93951 -2.73935 0.000216733 1
-9.85483 -8.87333 -2.57767 0.000186547 4
-12.279 -11.0561 -2.61699 8.4474e-05 4
-7.35829 -6.67209 -2.6615 0.000423097 4
-8.79203 -7.97213 -2.73999 0.000124028 4
-9.92357 -8.99814 -2.60385 0.000181434 4
-12.3547 -11.2026 -2.64145 9.26087e-05 4
-7.33785 -6.70037 -2.66254 0.000418169 4
-8.73038 -7.97193 -2.72944 0.000134017 4
-10.0042 -9.13506 -2.63335 0.000124033 4
-12.4379 -11.3574 -2.66769 7.00743e-05 4
-7.31778 -6.72904 -2.66377 0.00044541 4
-8.69057 -7.99139 -2.7257 0.000122304 4
-10.0662 -9.25635 -2.65817 0.000124627 4
-7.28618 -6.74707 -2.66082 0.000465229 4
-8.63116 -7.99255 -2.7158 0.000166406 4
-10.1495 -9.39854 -2.68881 0.000119298 4
-12.3678 -11.4527 -2.66974 6.93833e-05 4
-7.26638 -6.776 -2.66221 0.000482576 4
-8.55712 -7.97964 -2.70125 0.000141853 4
-10.2193 -9.52962 -2.71609 0.000116257 4
-7.23564 -6.79472 -2.65963 0.000126219 4
-8.50307 -7.98492 -2.69297 0.000124206 4
-10.2869 -9.66 -2.743 0.000110779 1
-12.2856 -11.5369 -2.66931 3.05978e-05 4
-7.22936 -6.83646 -2.66607 0.000160875 4
-8.44173 -7.98294 -2.68235 0.000109352 4
-10.2646 -9.70676 -2.74609 0.000110788 1
-12.251 -11.5852 -2.67057 8.04455e-05 4
-7.19653 -6.85317 -2.66277 7.92043e-05 4
-8.40025 -7.99945 -2.67803 0.00014221 4
-10.2362 -9.7478 -2.74757 0.000110796 1
-12.2113 -11.6287 -2.67075 5.14272e-05 4
-7.17039 -6.87616 -2.66197 0.000106436 4
-8.33655 -7.99446 -2.6666 0.000171403 4
-10.1834 -9.7655 -2.74253 0.000110805 1
-12.175 -11.6754 -2.6717 8.04617e-05 4
-7.15587 -6.91035 -2.66551 0.000247539 4
-8.30035 -8.01555 -2.66395 5.87409e-05 4
-10.1576 -9.8091 -2.7448 0.000110813 1
-12.133 -11.7167 -2.67145 4.00771e-05 4
-8.26745 -8.03974 -2.66238 0.000295156 4
-10.1178 -9.8391 -2.74329 0.000110822 1
-8.24968 -8.07868 -2.66573 0.000293742 4
-10.0854 -9.87637 -2.74385 0.000110831 1
-11.5366 -11.2975 -2.55744 4.48536e-05 4
-7.0848 -6.98656 -2.66615 4.70398e-05 4
-8.20814 -8.09433 -2.66142 0.000249338 4
-10.0517 -9.91237 -2.74409 0.00011084 1
-11.5018 -11.3423 -2.55849 4.48581e-05 4
-7.05608 -7.00699 -2.66453 0.000237688 4
-8.18991 -8.13294 -2.6647 0.000318141 4
-9.9825 -9.91305 -2.73461 7.32079e-05 4
-11.4774 -11.3975 -2.56189 6.79208e-05 4
-7.03635 -7.03635 -2.66633 0.000178275 4
-8.15757 -8.15757 -2.66342 0.000273733 4
-11.5813 -11.5813 -2.5941 5.81537e-05 4
-6.99838 -7.0474 -2.66125 0.000103999 4
-8.13142 -8.18838 -2.6642 0.000139025 4
-9.83529 -9.90419 -2.71316 4.19888e-05 4
-11.7035 -11.7855 -2.63067 6.8756e-05 4
-14.7618 -14.8653 -2.57229 3.04742e-05 4
-6.97869 -7.07681 -2.66314 0.000121339 4
-8.10677 -8.22076 -2.66551 3.15335e-05 4
-9.74886 -9.88594 -2.69882 5.76998e-05 4
-11.8026 -11.9686 -2.66232 6.94658e-05 4
-14.8778 -15.087 -2.60167 3.03815e-05 4
-6.96134 -7.10868 -2.66597 4.45759e-05 4
-8.07287 -8.24375 -2.66381 6.02042e-05 4
-9.68094 -9.88585 -2.68956 7.61972e-05 4
-11.9305 -12.183 -2.70073 4.43435e-05 4
-6.92395 -7.12005 -2.66116 5.20081e-05 4
-8.04811 -8.27605 -2.66515 4.58729e-05 4
-9.61001 -9.88219 -2.67942 6.6603e-05 4
-12.0411 -12.3822 -2.73555 4.58166e-05 4
-6.90521 -7.15055 -2.66353 8.91615e-05 4
-8.01473 -8.29949 -2.66368 7.45482e-05 4
-9.53331 -9.87202 -2.66762 6.13227e-05 4
-12.0455 -12.4735 -2.74642 4.72423e-05 1
-7.98057 -8.32206 -2.66196 6.16497e-05 4
-9.49228 -9.89846 -2.6658 8.17333e-05 4
-11.9991 -12.5126 -2.74578 4.72473e-05 1
-6.85193 -7.19524 -2.66229 0.000138711 4
-7.96143 -8.36033 -2.6653 8.31608e-05 4
-9.45984 -9.93381 -2.66641 0.000142861 4
-11.9715 -12.5713 -2.74949 4.72523e-05 1
-6.81709 -7.20887 -2.65852 4.95423e-05 4
-7.93742 -8.39358 -2.66705 3.87153e-05 4
-9.42385 -9.96544 -2.66605 0.000146555 4
-11.9157 -12.6005 -2.74675 4.72574e-05 1
-6.81052 -7.25247 -2.66581 0.000118908 4
-7.89304 -8.40523 -2.66198 7.45678e-05 4
-9.38508 -9.9941 -2.66494 0.000146567 4
-11.8705 -12.6408 -2.74649 4.72625e-05 1
-6.77398 -7.2642 -2.66142 3.71608e-05 4
-7.86939 -8.43888 -2.66392 5.73636e-05 4
-9.35339 -10.0303 -2.66586 0.000147315 4
-11.8351 -12.6916 -2.74853 4.72676e-05 1
-6.75127 -7.29071 -2.66248 0.000121399 4
-7.83155 -8.4573 -2.66109 5.73674e-05 4
-9.32795 -10.0733 -2.66862 4.19883e-05 4
-11.7379 -12.6758 -2.73623 3.22653e-05 4
-6.7217 -7.30979 -2.66086 0.000163526 4
-7.80285 -8.48553 -2.66139 3.44227e-05 4
-11.6265 -12.6437 -2.72051 3.13956e-05 4
-6.7036 -7.34138 -2.66383 5.94672e-05 4
-7.77629 -8.51612 -2.66245 5.59407e-05 4
-9.24853 -10.1284 -2.66606 4.34687e-05 4
-6.66703 -7.35271 -2.65948 0.000109029 4
-7.7499 -8.54695 -2.66362 5.88133e-05 4
-11.4335 -12.6094 -2.6959 3.96139e-05 4
-6.65729 -7.39367 -2.66587 8.17765e-05 4
-7.71502 -8.56839 -2.66189 6.02519e-05 4
-9.17674 -10.1918 -2.66581 3.02121e-05 4
-11.3333 -12.5869 -2.68262 3.55725e-05 4
-6.61962 -7.40364 -2.66112 6.939e-05 4
-7.69359 -8.60481 -2.66484 0.000114773 4
-9.13451 -10.2164 -2.66389 3.38994e-05 4
-6.58996 -7.42245 -2.65959 0.000114004 4
-7.66408 -8.63226 -2.66504 8.03467e-05 4
-11.184 -12.5968 -2.66803 6.64229e-05 4
-6.5779 -7.46117 -2.66522 0.000123925 4
-7.63411 -8.65919 -2.66512 6.31338e-05 4
-11.1549 -12.6528 -2.67161 5.63075e-05 4
-9.03308 -10.3184 -2.66568 4.86505e-05 4
-11.0923 -12.6707 -2.66719 6.13756e-05 4
-6.50867 -7.48737 -2.65829 8.42784e-05 4
-7.56079 -8.69769 -2.66065 4.73568e-05 4
-8.99916 -10.3523 -2.66631 3.98083e-05 4
-11.0569 -12.7195 -2.66932 6.29644e-05 4
-6.49995 -7.53026 -2.66544 0.000109072 4
-7.54404 -8.73985 -2.66548 0.000127729 4
-8.97054 -10.3925 -2.66857 3.24391e-05 4
-6.46449 -7.54225 -2.66168 6.69346e-05 4
-7.50446 -8.7556 -2.66228 0.000110514 4
-8.9231 -10.4108 -2.66525 2.87553e-05 4
-6.42923 -7.55432 -2.65801 0.000119002 4
-7.4791 -8.78791 -2.66415 5.3108e-05 4
-6.40744 -7.58218 -2.65992 0.000158678 4
-7.43863 -8.80243 -2.66066 0.000122013 4
-8.85719 -10.4811 -2.66735 7.37443e-05 4
-6.3896 -7.61483 -2.66354 3.96718e-05 4
-7.41037 -8.83134 -2.66156 8.46975e-05 4
-8.77526 -10.5324 -2.66476 3.83536e-05 4
-6.32308 -7.64329 -2.65798 6.44742e-05 4
-7.34972 -8.88428 -2.66199 0.00012491 4
-8.74119 -10.5663 -2.6656 3.54064e-05 4
-6.30817 -7.67969 -2.66297 0.000173595 4
-7.3253 -8.91796 -2.6644 5.7434e-05 4
-6.2843 -7.70531 -2.66423 0.000178565 4
-7.29373 -8.943 -2.66426 9.62088e-05 4
-8.67575 -10.6375 -2.66822 3.24615e-05 4
-6.24367 -7.71029 -2.6584 0.000109129 4
-7.25069 -8.95386 -2.65994 3.30292e-05 4
-8.63051 -10.6578 -2.66573 3.68913e-05 4
-6.21573 -7.73081 -2.65798 0.000257957 4
-7.22384 -8.98464 -2.66158 6.74992e-05 4
-8.58587 -10.6787 -2.66344 4.0584e-05 4
-6.19791 -7.76399 -2.66193 8.92982e-05 4
-7.19116 -9.00821 -2.66111 0.000123518 4
-8.55789 -10.7203 -2.66636 2.95182e-05 4
-6.17792 -7.79459 -2.66501 0.000121552 4
-8.50805 -10.7345 -2.66249 5.68276e-05 4
-6.134 -7.79493 -2.65779 5.20968e-05 4
-7.12654 -9.05622 -2.66053 7.18231e-05 4
-6.11105 -7.82178 -2.65966 0.000198476 4
-7.09725 -9.08406 -2.66141 0.000129291 4
-8.43653 -10.7983 -2.66363 3.17405e-05 4
-6.09583 -7.8587 -2.66496 9.18007e-05 4
-7.0751 -9.12116 -2.66503 3.59167e-05 4
-8.39486 -10.8226 -2.66239 6.05338e-05 4
-6.05829 -7.86685 -2.66054 0.0001191 4
-7.04335 -9.14597 -2.66508 6.8965e-05 4
-8.36625 -10.8638 -2.66532 3.54376e-05 4
-10.2694 -13.3351 -2.66578 3.04334e-05 4
-6.03064 -7.88775 -2.66047 0.00014144 4
-8.33317 -10.8993 -2.66689 5.09461e-05 4
-10.2354 -13.3874 -2.66907 3.77292e-05 4
-5.99694 -7.90068 -2.65775 0.000312675 4
-6.98176 -9.19812 -2.66601 0.000146572 4
-8.28053 -10.9092 -2.66221 3.61823e-05 4
-5.97777 -7.93277 -2.66151 0.000124085 4
-6.9439 -9.21487 -2.66382 6.89799e-05 4
-8.25403 -10.9535 -2.66597 5.31707e-05 4
-5.94744 -7.95011 -2.66035 0.000116647 4
-6.91277 -9.24049 -2.66423 0.000143719 4
-8.21483 -10.981 -2.66567 5.90839e-05 4
-5.91635 -7.96636 -2.65886 0.000171258 4
-6.87544 -9.25779 -2.66229 4.88679e-05 4
-5.89827 -8.00022 -2.66327 0.000183679 4
-6.84423 -9.28329 -2.66273 4.31219e-05 4
-5.86265 -8.01029 -2.6598 9.68097e-05 4
-6.80685 -9.30037 -2.6608 9.05626e-05 4
-8.10043 -11.0678 -2.66602 3.39825e-05 4
-5.83343 -8.02903 -2.65924 0.000124123 4
-6.7866 -9.34095 -2.66562 7.47556e-05 4
-8.05019 -11.0801 -2.66219 2.88139e-05 4
-5.80561 -8.04967 -2.65935 0.0001142 4
-6.73729 -9.34148 -2.65904 3.59428e-05 4
-6.70631 -9.36728 -2.6597 6.47019e-05 4
-7.97655 -11.1415 -2.6635 3.69476e-05 4
-5.74383 -8.08236 -2.65684 0.000206082 4
-6.67745 -9.39608 -2.66125 0.000109282 4
-7.93946 -11.1719 -2.66412 3.91681e-05 4
-5.72726 -8.11891 -2.66227 0.000414672 4
-6.64619 -9.42157 -2.66188 5.89594e-05 4
-7.90244 -11.2024 -2.6648 3.39981e-05 4
-5.6918 -8.12874 -2.65896 0.000116711 4
-6.60589 -9.43418 -2.65891 8.34122e-05 4
-7.85803 -11.2224 -2.66302 4.36102e-05 4
-5.66533 -8.15134 -2.65986 0.000173836 4
-6.58444 -9.47376 -2.66357 3.88327e-05 4
-7.81408 -11.243 -2.66141 3.91789e-05 4
-5.63958 -8.17504 -2.66116 0.000196199 4
-6.548 -9.49186 -2.66222 0.000126575 4
-5.60336 -8.1835 -2.65753 8.94128e-05 4
-6.51247 -9.51122 -2.66126 0.000189877 4
-7.74993 -11.3185 -2.66641 4.73192e-05 4
-6.48586 -9.54365 -2.66398 5.46658e-05 4
-5.54951 -8.22749 -2.65917 0.00019872 4
-6.44994 -9.56242 -2.66292 4.89152e-05 4
-7.66056 -11.3572 -2.66288 3.47565e-05 4
-5.53104 -8.26217 -2.66412 6.45881e-05 4
-6.42166 -9.59255 -2.66505 6.1868e-05 4
-5.49664 -8.2731 -2.66144 5.21706e-05 4
-6.37666 -9.59765 -2.66027 8.48951e-05 4
-7.57909 -11.4074 -2.66218 5.32541e-05 4
-5.46059 -8.28142 -2.65797 5.46584e-05 4
-6.35339 -9.63542 -2.66457 0.000135267 4
-7.54222 -11.4384 -2.66323 2.88487e-05 4
-5.42973 -8.2975 -2.65703 0.000154047 4
-6.31611 -9.65202 -2.66305 4.31736e-05 4
-7.49965 -11.4607 -2.66231 4.66061e-05 4
-5.41203 -8.33379 -2.66259 0.000146603 4
-6.28519 -9.67834 -2.66424 0.000138166 4
-7.46458 -11.4944 -2.66409 3.32932e-05 4
-5.38033 -8.34864 -2.66131 0.000121762 4
-6.23857 -9.68037 -2.65879 6.62096e-05 4
-7.42962 -11.5285 -2.66596 0.000125786 4
-5.34222 -8.3534 -2.65687 0.0002336 4
-6.20666 -9.70507 -2.65961 8.6367e-05 4
-7.38429 -11.5465 -2.66414 3.77395e-05 4
-9.06273 -14.171 -2.6642 3.33868e-05 4
-5.3239 -8.38912 -2.6623 0.000173969 4
-6.17639 -9.73243 -2.66118 3.45495e-05 4
-7.34684 -11.5768 -2.66519 5.25444e-05 4
-5.29321 -8.40548 -2.66162 6.95919e-05 4
-6.13712 -9.74559 -2.6589 0.000102217 4
-5.26064 -8.41879 -2.66 0.000121794 4
-5.22807 -8.43201 -2.6584 0.000248575 4
-6.07289 -9.79457 -2.66064 0.000120951 4
-7.22269 -11.649 -2.66426 4.88581e-05 4
-5.2069 -8.46369 -2.66264 0.000196387 4
-6.04198 -9.8211 -2.6621 0.000286561 4
-7.17526 -11.6632 -2.66177 3.33156e-05 4
-5.16817 -8.46683 -2.65793 8.70125e-05 4
-6.00525 -9.83817 -2.66103 8.06467e-05 4
-7.13854 -11.6948 -2.66327 3.70209e-05 4
-5.14826 -8.50079 -2.66293 0.000109394 4
-5.97236 -9.86154 -2.66169 5.32886e-05 4
-7.09563 -11.7163 -2.66251 3.70245e-05 4
-8.71484 -14.3899 -2.66452 5.3784e-05 4
-5.11099 -8.50612 -2.659 5.22143e-05 4
-5.93219 -9.87282 -2.65913 6.48155e-05 4
-7.05491 -11.7413 -2.66259 4.8877e-05 4
-5.08293 -8.52669 -2.65987 9.69758e-05 4
-5.90019 -9.89765 -2.66026 6.48206e-05 4
-5.05696 -8.55085 -2.66188 8.45485e-05 4
-6.97341 -11.7914 -2.66283 3.7776e-05 4
-5.01744 -8.55203 -2.65678 0.000179056 4
-5.82568 -9.92962 -2.65785 0.000145509 4
-4.98852 -8.57114 -2.65729 5.72021e-05 4
-5.80477 -9.97359 -2.66418 7.78031e-05 4
-6.88711 -11.8332 -2.66136 4.22284e-05 4
-4.968 -8.60483 -2.66234 4.47698e-05 4
-5.75826 -9.9736 -2.6588 3.89046e-05 4
-6.84809 -11.8612 -2.66227 3.26006e-05 4
-4.92745 -8.60381 -2.65669 0.000116907 4
-5.7213 -9.98995 -2.65782 4.17898e-05 4
-8.36117 -14.5994 -2.66469 3.85424e-05 4
-4.90787 -8.63941 -2.66238 0.000106964 4
-4.87594 -8.6534 -2.66143 0.00018409 4
-5.65714 -10.0398 -2.66051 8.21516e-05 4
-4.84474 -8.66865 -2.6609 0.000102003 4
-5.61657 -10.0497 -2.65791 4.32411e-05 4
-6.67501 -11.9435 -2.65956 5.33675e-05 4
-4.8167 -8.68956 -2.66214 6.96651e-05 4
-5.59254 -10.0892 -2.66319 9.22551e-05 4
-4.78334 -8.70086 -2.66047 0.00016671 4
-5.54897 -10.0935 -2.6592 0.00018885 4
-6.60374 -12.0122 -2.66451 3.11372e-05 4
-4.74946 -8.71112 -2.65852 0.00012193 4
-4.72428 -8.73738 -2.66149 8.21218e-05 4
-5.48448 -10.1433 -2.66217 0.000134091 4
-6.52034 -12.0591 -2.66476 4.22661e-05 4
-4.69453 -8.75527 -2.66193 0.000151811 4
-5.451 -10.1661 -2.66313 0.000129776 4
-6.47663 -12.0789 -2.66411 4.07871e-05 4
-4.65214 -8.74939 -2.65519 0.000151821 4
-5.41393 -10.1821 -2.66236 4.03779e-05 4
-4.6242 -8.77057 -2.6567 0.000107029 4
-5.37163 -10.1882 -2.65903 5.91295e-05 4
-6.38164 -12.1039 -2.65974 4.52457e-05 4
-7.84448 -14.8784 -2.66398 3.12566e-05 4
-4.59475 -8.78893 -2.65739 0.000191669 4
-6.34302 -12.1331 -2.66127 3.8574e-05 4
-4.57281 -8.82184 -2.6625 0.000156831 4
-5.30445 -10.2333 -2.66108 3.02908e-05 4
-7.73681 -14.9258 -2.66273 5.04065e-05 4
-4.53284 -8.81996 -2.65714 0.000201654 4
-5.27264 -10.2594 -2.66307 8.0782e-05 4
-6.26047 -12.1816 -2.66226 4.30335e-05 4
-7.69002 -14.9632 -2.66459 5.51992e-05 4
-4.50722 -8.84592 -2.6602 0.000151873 4
-5.22742 -10.2594 -2.65831 7.64606e-05 4
-6.21504 -12.1977 -2.66103 4.30379e-05 4
-7.63355 -14.9817 -2.66313 5.61638e-05 4
-4.47126 -8.85159 -2.6572 0.000161843 4
-5.19663 -10.2876 -2.66089 5.77109e-05 4
-6.16984 -12.2142 -2.65991 3.04264e-05 4
-4.44403 -8.87453 -2.65941 0.000124503 4
-5.16261 -10.3095 -2.66189 4.90583e-05 4
-6.13519 -12.2517 -2.6634 4.00779e-05 4
-4.41283 -8.8896 -2.65929 0.000161865 4
-5.12412 -10.3225 -2.6606 3.60752e-05 4
-6.08542 -12.259 -2.66035 0.000169235 4
-4.37882 -8.89892 -2.6575 0.00018678 4
-5.08498 -10.334 -2.65899 9.52464e-05 4
-6.04635 -12.2878 -2.66201 0.000142528 4
-4.34654 -8.91173 -2.65677 0.000194265 4
-5.05225 -10.3586 -2.66077 8.08218e-05 4
-5.99573 -12.2931 -2.6586 0.000137346 4
-4.31844 -8.93312 -2.65864 6.22686e-05 4
-5.01029 -10.3643 -2.6577 7.79417e-05 4
-5.95857 -12.3259 -2.66118 0.000132163 4
-4.28882 -8.95147 -2.65963 0.000102128 4
-4.97381 -10.3811 -2.65756 4.61915e-05 4
-5.91049 -12.3362 -2.65893 0.000112127 4
-4.25457 -8.9601 -2.65776 6.97504e-05 4
-4.93721 -10.3977 -2.65738 6.9293e-05 4
-5.86843 -12.3589 -2.65939 4.23304e-05 4
-4.2251 -8.9788 -2.65892 5.48077e-05 4
-4.19139 -8.98845 -2.65743 0.00013952 4
-4.87096 -10.4458 -2.66091 3.17646e-05 4
-4.83611 -10.4663 -2.66181 6.64223e-05 4
-5.74812 -12.4401 -2.66377 5.57151e-05 4
-4.13278 -9.02677 -2.66016 8.72123e-05 4
-4.79514 -10.4735 -2.65937 3.4658e-05 4
-5.70225 -12.4548 -2.66264 5.12632e-05 4
-4.10196 -9.04272 -2.66063 0.000142041 4
-4.76006 -10.4935 -2.66021 5.92124e-05 4
-5.6555 -12.4675 -2.66111 3.04639e-05 4
-4.06237 -9.03918 -2.6554 0.000184417 4
-4.7234 -10.51 -2.66021 5.34401e-05 4
-5.60893 -12.4804 -2.65968 9.06581e-05 4
-4.04063 -9.0754 -2.66188 0.00046606 4
-4.686 -10.5249 -2.65983 7.65557e-05 4
-4.00389 -9.07804 -2.65854 0.0004636 4
-4.65053 -10.5442 -2.66057 0.000118455 4
-5.52609 -12.5293 -2.66182 4.53385e-05 4
-3.96928 -9.08533 -2.6566 0.000501023 4
-4.60882 -10.5492 -2.65776 4.76748e-05 4
-5.48532 -12.5554 -2.66327 4.38566e-05 4
-3.9383 -9.10088 -2.65711 0.000473637 4
-4.57225 -10.5658 -2.65792 8.66887e-05 4
-5.43639 -12.5628 -2.66079 5.42688e-05 4
-6.67179 -15.4176 -2.66074 2.87895e-05 4
-3.90984 -9.12234 -2.65937 0.00037395 4
-4.53451 -10.5798 -2.65743 5.34626e-05 4
-5.38887 -12.5732 -2.659 3.12264e-05 4
-3.87078 -9.11899 -2.65444 0.000438799 4
-4.49712 -10.5945 -2.65717 4.91319e-05 4
-3.84242 -9.14075 -2.65686 0.000164561 4
-5.30044 -12.6092 -2.65873 5.72605e-05 4
-3.81279 -9.15963 -2.65846 0.000214444 4
-4.42421 -10.6285 -2.65788 5.78121e-05 4
-5.26349 -12.6447 -2.66232 3.49549e-05 4
-3.78144 -9.17446 -2.65891 0.000259346 4
-4.39142 -10.6544 -2.6605 0.000141652 4
-5.2165 -12.6562 -2.66089 4.23966e-05 4
-3.7511 -9.19178 -2.66012 0.000234425 4
-4.35541 -10.6726 -2.66124 6.0713e-05 4
-5.17293 -12.6759 -2.66121 3.94255e-05 4
-3.71807 -9.20254 -2.65947 9.22803e-05 4
-4.31301 -10.6751 -2.65808 4.33701e-05 4
-3.68615 -9.21602 -2.65963 0.000159631 4
-4.27988 -10.7005 -2.66067 0.000108435 4
-5.07635 -12.6918 -2.65705 8.92842e-05 4
-3.64955 -9.21772 -2.65642 0.000184587 4
-4.23448 -10.6951 -2.65564 7.51877e-05 4
-3.62203 -9.24233 -2.65986 5.98703e-05 4
-4.99133 -12.7364 -2.65902 4.68841e-05 4
-3.58311 -9.23782 -2.65494 6.48641e-05 4
-4.16856 -10.7472 -2.66129 0.000101232 4
-3.55044 -9.24921 -2.65464 3.74243e-05 4
-4.13013 -10.7593 -2.66071 6.21904e-05 4
-3.52279 -9.27381 -2.65815 7.73491e-05 4
-4.0926 -10.7739 -2.66075 3.90532e-05 4
-4.85398 -12.7782 -2.657 4.46658e-05 4
-3.4933 -9.29376 -2.66036 0.000339362 4
-4.04826 -10.7702 -2.65635 6.07546e-05 4
-3.45828 -9.29903 -2.6584 0.000152225 4
-4.00864 -10.7789 -2.65502 8.24598e-05 4
-3.42831 -9.31788 -2.66035 0.000119792 4
-3.97409 -10.8013 -2.6571 0.00011285 4
-3.39567 -9.32953 -2.66027 0.00016223 4
-3.94082 -10.8273 -2.66011 0.000128775 4
-4.67876 -12.8548 -2.65908 3.35137e-05 4
-3.35643 -9.32284 -2.65501 0.000386885 4
-3.90289 -10.8407 -2.66003 0.000101293 4
-4.63589 -12.8767 -2.66025 2.90483e-05 4
-3.33081 -9.35401 -2.66056 0.000154765 4
-3.85777 -10.8339 -2.65504 0.000104196 4
-5.64051 -15.8404 -2.66318 4.65049e-05 4
-3.28932 -9.34053 -2.65344 7.48918e-05 4
-3.82428 -10.8596 -2.65806 4.77606e-05 4
-4.54597 -12.909 -2.6603 5.06593e-05 4
-3.26092 -9.36408 -2.65688 8.73801e-05 4
-3.78311 -10.8636 -2.65579 4.92122e-05 4
-4.50269 -12.93 -2.66136 4.84295e-05 4
-3.22406 -9.36335 -2.65347 0.000317088 4
-3.74869 -10.887 -2.65829 4.34263e-05 4
-3.19221 -9.37705 -2.65418 0.000239706 4
-3.71191 -10.9036 -2.65917 8.97554e-05 4
-3.16085 -9.39228 -2.65535 7.74107e-05 4
-3.67076 -10.9074 -2.65696 8.39721e-05 4
-3.12924 -9.40685 -2.65636 8.99029e-05 4
-3.63607 -10.9304 -2.65945 3.6198e-05 4
-4.32071 -12.9885 -2.66074 6.26129e-05 4
-3.09873 -9.42485 -2.65837 8.74119e-05 4
-3.59793 -10.9432 -2.65948 0.000104259 4
-4.27587 -13.0051 -2.66107 6.03833e-05 4
-3.06011 -9.41806 -2.65343 0.000102404 4
-3.52227 -10.9706 -2.6601 3.91041e-05 4
-2.99715 -9.44821 -2.65596 6.74469e-05 4
-3.48279 -10.9791 -2.65921 0.00014774 4
-2.96073 -9.4477 -2.6529 9.49322e-05 4
-3.4434 -10.9879 -2.6584 6.08394e-05 4
-4.09297 -13.0607 -2.66048 4.0273e-05 4
-2.92838 -9.46007 -2.65349 0.000122422 4
-3.40617 -11.0036 -2.6593 0.000144868 4
-2.89584 -9.47188 -2.65395 0.000134924 4
-3.36139 -10.9946 -2.65429 4.92596e-05 4
-2.8638 -9.48536 -2.65491 7.4963e-05 4
-3.32255 -11.0048 -2.65393 8.83853e-05 4
-2.83604 -9.51331 -2.65994 0.000177426 4
-3.28627 -11.0236 -2.65568 7.10043e-05 4
-4.79337 -16.079 -2.65743 3.76043e-05 4
-2.79582 -9.49939 -2.65331 0.000162444 4
-4.73686 -16.0944 -2.65722 3.56809e-05 4
-2.76335 -9.5115 -2.65398 0.000187449 4
-3.81306 -13.1246 -2.65666 6.56733e-05 4
-2.72865 -9.51594 -2.65254 9.49813e-05 4
-3.1724 -11.0635 -2.65713 6.37759e-05 4
-3.76858 -13.1426 -2.65761 4.25431e-05 4
-4.62826 -16.1407 -2.65945 4.40512e-05 4
-2.70282 -9.55156 -2.65983 6.74917e-05 4
-3.13425 -11.0762 -2.65755 0.000110168 4
-3.72067 -13.1486 -2.65618 3.43368e-05 4
-4.56943 -16.148 -2.65802 3.40883e-05 4
-3.09089 -11.0703 -2.65353 6.08879e-05 4
-3.67772 -13.1721 -2.65832 0.000116459 4
-2.63005 -9.54834 -2.65375 9.75025e-05 4
-3.0573 -11.0995 -2.65794 8.40907e-05 4
-2.6001 -9.56997 -2.65723 0.000160016 4
-3.01672 -11.1034 -2.65634 6.81486e-05 4
-3.58433 -13.1925 -2.65733 3.65882e-05 4
-5.79282 -21.3211 -2.71281 3.31163e-05 4
-2.56656 -9.57853 -2.6571 0.000142525 4
-2.97777 -11.1132 -2.65619 7.83053e-05 4
-5.66761 -21.1518 -2.68873 3.20419e-05 4
-2.53135 -9.58077 -2.65525 0.000125031 4
-2.93713 -11.1166 -2.65453 4.20566e-05 4
-3.48952 -13.2073 -2.65534 5.60148e-05 4
-5.53812 -20.9609 -2.66199 3.71461e-05 4
-2.49761 -9.58849 -2.65496 0.000130042 4
-2.90151 -11.1391 -2.65747 7.39683e-05 4
-3.44736 -13.2346 -2.65839 3.43595e-05 4
-5.41455 -20.7868 -2.63746 3.82804e-05 4
-2.46662 -9.60685 -2.65764 6.75268e-05 4
-3.40145 -13.2478 -2.65863 4.40747e-05 4
-5.29026 -20.6042 -2.61193 4.51762e-05 4
-2.42992 -9.60294 -2.6542 8.00378e-05 4
-2.82332 -11.1576 -2.65713 7.68827e-05 4
-5.17118 -20.4363 -2.58835 4.65687e-05 4
-2.39577 -9.60892 -2.65352 0.000157586 4
-2.78691 -11.1777 -2.65957 0.000123314 4
-3.30369 -13.2504 -2.65446 4.55789e-05 4
-5.04937 -20.2519 -2.56275 3.96963e-05 4
-2.36664 -9.63522 -2.65849 0.000155096 4
-2.7452 -11.1765 -2.65698 7.97983e-05 4
-3.26213 -13.281 -2.6583 3.2133e-05 4
-2.33031 -9.63234 -2.65543 0.000102571 4
-2.70462 -11.1796 -2.65546 0.000181376 4
-2.29485 -9.63275 -2.65332 0.00022017 4
-2.66355 -11.1804 -2.65344 3.33762e-05 4
-2.26065 -9.63831 -2.65266 8.00678e-05 4
-2.62703 -11.2004 -2.65599 8.85274e-05 4
-3.11889 -13.2975 -2.65491 2.99011e-05 4
-2.22672 -9.64498 -2.65234 4.50415e-05 4
-2.58904 -11.2144 -2.65714 0.000190133 4
-3.77772 -16.3631 -2.65983 5.89695e-05 4
-2.19322 -9.65351 -2.65257 0.000115115 4
-2.54659 -11.2088 -2.65371 5.51582e-05 4
-3.02786 -13.3272 -2.65656 4.11232e-05 4
-3.71949 -16.3714 -2.65905 5.34992e-05 4
-2.16419 -9.68203 -2.65831 8.50912e-05 4
-2.50967 -11.2276 -2.65607 7.54864e-05 4
-3.66058 -16.3765 -2.65779 5.8342e-05 4
-2.12725 -9.67527 -2.6544 0.000157681 4
-2.46765 -11.2235 -2.65304 3.62948e-05 4
-2.93783 -13.362 -2.65935 2.91666e-05 4
-3.60128 -16.3796 -2.65623 6.80219e-05 4
-2.09603 -9.69453 -2.65766 7.50918e-05 4
-2.42782 -11.2291 -2.65234 4.93654e-05 4
-4.54982 -21.0438 -2.64355 4.24985e-05 4
-2.06003 -9.69169 -2.6549 0.000120156 4
-2.8444 -13.3819 -2.65928 3.06692e-05 4
-4.44395 -20.9071 -2.62442 4.08302e-05 4
-2.0248 -9.69216 -2.65307 3.00413e-05 4
-2.35381 -11.2671 -2.65736 9.294e-05 4
-2.79575 -13.3825 -2.65745 3.06727e-05 4
-4.33854 -20.7674 -2.60497 3.96342e-05 4
-1.99171 -9.70286 -2.65408 6.50943e-05 4
-2.3103 -11.2549 -2.65258 0.000124899 4
-4.23046 -20.6092 -2.58325 3.82839e-05 4
-1.95889 -9.71503 -2.65552 8.01222e-05 4
-2.27363 -11.276 -2.65565 5.08358e-05 4
-4.12923 -20.4787 -2.56507 5.06968e-05 4
-1.92298 -9.71175 -2.65278 9.01443e-05 4
-2.23357 -11.2804 -2.65484 0.000184478 4
-2.65537 -13.4106 -2.65737 6.7353e-05 4
-3.35537 -16.9459 -2.73607 4.82637e-05 1
-1.89076 -9.72711 -2.65515 0.000147748 4
-2.19603 -11.2976 -2.65708 4.79396e-05 4
-3.29201 -16.9359 -2.73259 4.82708e-05 1
-1.85897 -9.74508 -2.65827 0.00010268 4
-2.56273 -13.4343 -2.65845 3.51811e-05 4
-3.23427 -16.9546 -2.73377 4.82779e-05 1
-1.82466 -9.74999 -2.65786 4.00732e-05 4
-2.11316 -11.2916 -2.65212 9.73496e-05 4
-2.515 -13.4388 -2.65758 3.1442e-05 4
-3.17379 -16.959 -2.73267 4.82851e-05 1
-1.79029 -9.75454 -2.65738 9.51812e-05 4
-2.07825 -11.3235 -2.6579 3.34215e-05 4
-2.46685 -13.4408 -2.65627 3.21942e-05 4
-3.11623 -16.979 -2.73413 4.82922e-05 1
-1.75485 -9.75303 -2.65528 0.000100198 4
-2.4199 -13.4492 -2.65625 3.14491e-05 4
-3.05762 -16.9935 -2.73473 4.82994e-05 1
-1.7189 -9.74838 -2.65236 0.000122752 4
-2.37131 -13.4483 -2.65442 3.74436e-05 4
-2.98413 -16.9238 -2.72183 8.49427e-05 4
-6.42334 -36.4286 -0.645672 3.15397e-05 10
-6.42606 -36.4439 0.645944 3.15333e-05 10
-1.68613 -9.76164 -2.65436 7.26549e-05 4
-1.95846 -11.3383 -2.65641 4.36052e-05 4
-2.9038 -16.8112 -2.70206 6.76e-05 4
-6.30549 -36.5049 -0.646631 3.12665e-05 10
-6.30443 -36.4988 0.646522 3.12603e-05 10
-1.65116 -9.76224 -2.65294 0.000105232 4
-1.91584 -11.3271 -2.65221 9.3033e-05 4
-2.82499 -16.7023 -2.68296 3.90462e-05 4
-6.18555 -36.5711 -0.647418 3.0993e-05 10
-6.18727 -36.5813 0.647598 3.09867e-05 10
-1.61722 -9.76884 -2.65318 5.76316e-05 4
-1.87747 -11.3409 -2.65389 5.81509e-05 4
-2.74925 -16.6069 -2.66607 0.000109737 4
-1.58292 -9.77324 -2.65286 0.000185438 4
-2.1852 -13.4918 -2.65672 9.96451e-05 4
-2.66952 -16.4821 -2.64453 0.00013001 4
-1.55053 -9.78965 -2.65583 8.52076e-05 4
-1.79865 -11.3562 -2.65447 0.000104691 4
-2.13534 -13.482 -2.6533 3.22197e-05 4
-2.59278 -16.3702 -2.6251 0.000122217 4
-1.51416 -9.78089 -2.652 0.00015539 4
-1.75799 -11.3559 -2.65296 0.000154142 4
-2.08888 -13.4933 -2.65408 6.89431e-05 4
-2.51915 -16.2727 -2.60804 0.000129757 4
-1.48136 -9.79504 -2.65442 0.000132844 4
-1.71829 -11.3617 -2.65288 6.39895e-05 4
-2.04301 -13.5088 -2.6557 3.74733e-05 4
-2.44644 -16.1763 -2.59121 0.000124036 4
-1.4467 -9.797 -2.65356 0.000122827 4
-1.68011 -11.3777 -2.65522 5.38143e-05 4
-1.99506 -13.5105 -2.65466 0.000140166 4
-2.37398 -16.0766 -2.57389 0.00010882 4
-4.95338 -33.5442 2.96656 3.62739e-05 10
-4.951 -33.528 6.58786 3.33182e-05 10
-1.41201 -9.79869 -2.65267 5.7658e-05 4
-1.63805 -11.3673 -2.65145 0.000132366 4
-1.94903 -13.5254 -2.65622 0.000136434 4
-2.30106 -15.9682 -2.55524 0.000116191 4
-4.90937 -34.0686 -0.600813 2.91935e-05 10
-4.90651 -34.0488 0.600462 2.91878e-05 10
-4.84118 -33.5954 2.96958 3.59484e-05 10
-4.84332 -33.6103 6.60066 3.3017e-05 10
-1.37691 -9.79723 -2.65096 0.000100283 4
-1.59991 -11.384 -2.65402 8.29183e-05 4
-1.899 -13.5121 -2.6523 0.000155192 4
-2.23424 -15.8974 -2.54265 5.11753e-05 4
-4.75609 -33.8413 -0.596508 3.01374e-05 10
-4.75543 -33.8366 0.596424 3.01314e-05 10
-1.3449 -9.81797 -2.65528 0.000140406 4
-1.55954 -11.3849 -2.65297 5.52839e-05 4
-1.8555 -13.5454 -2.65756 0.000131216 4
-2.17983 -15.9132 -2.54394 4.18429e-05 4
-4.60287 -33.6018 -0.591998 3.11159e-05 10
-4.60416 -33.6112 0.592164 3.11098e-05 10
-1.31121 -9.82705 -2.65649 4.76415e-05 4
-1.5193 -11.3866 -2.6521 4.51042e-05 4
-1.80595 -13.535 -2.65425 0.000122982 4
-2.12301 -15.9112 -2.54243 5.2685e-05 4
-4.45573 -33.3941 -0.588063 3.21307e-05 10
-4.45433 -33.3836 0.587877 3.21244e-05 10
-1.27535 -9.81966 -2.65327 7.77368e-05 4
-1.48249 -11.4145 -2.65739 5.96594e-05 4
-1.75949 -13.5473 -2.65545 3.67489e-05 4
-2.16084 -16.6375 -2.65725 3.2033e-05 4
-1.24012 -9.81653 -2.65124 7.27272e-05 4
-1.44078 -11.4049 -2.65396 3.78363e-05 4
-1.71516 -13.5769 -2.66005 5.88522e-05 4
-4.14581 -32.8174 -0.577383 5.26202e-05 10
-4.14771 -32.8324 0.577647 5.26099e-05 10
-1.20812 -9.83932 -2.65624 9.27969e-05 4
-1.40181 -11.4168 -2.65557 8.00456e-05 4
-1.67507 -13.6424 -2.67172 6.813e-05 4
-2.0445 -16.6511 -2.65708 3.10715e-05 4
-4.03982 -32.9017 -0.578614 5.21279e-05 10
-4.03944 -32.8985 0.578558 5.21178e-05 10
-1.17317 -9.83851 -2.6549 0.000105345 4
-1.36076 -11.4116 -2.65325 6.11314e-05 4
-1.63596 -13.7196 -2.68571 4.48731e-05 4
-1.98545 -16.6504 -2.65585 4.95275e-05 4
-3.93279 -32.9813 -0.57977 5.16356e-05 10
-3.93301 -32.9832 0.579801 5.16255e-05 10
-1.13769 -9.83278 -2.65226 0.000218232 4
-1.3203 -11.411 -2.65201 0.000100439 4
-1.59537 -13.7883 -2.69806 4.31155e-05 4
-1.92779 -16.6614 -2.65651 3.78796e-05 4
-3.82162 -33.0293 -0.580374 5.11432e-05 10
-3.82303 -33.0415 0.580588 5.11332e-05 10
-1.10509 -9.85209 -2.65641 7.52581e-05 4
-1.28154 -11.4252 -2.65426 7.71562e-05 4
-1.55665 -13.8779 -2.7145 5.24501e-05 4
-1.86904 -16.6628 -2.65569 3.4971e-05 4
-3.57395 -31.8624 -1.68031 2.95181e-05 10
-1.07056 -9.85464 -2.65608 8.02815e-05 4
-1.24125 -11.4259 -2.65339 5.67806e-05 4
-1.51558 -13.9511 -2.72778 4.86255e-05 4
-1.81109 -16.6713 -2.65601 4.40441e-05 4
-3.44098 -31.6747 -1.66977 3.06965e-05 10
-1.03558 -9.85292 -2.65462 0.000203228 4
-1.46996 -13.9858 -2.73353 0.000113073 1
-1.7497 -16.6473 -2.65119 0.000139213 4
-3.30502 -31.4452 -1.65705 3.19071e-05 10
-1.00135 -9.85812 -2.65507 0.000168115 4
-1.16143 -11.4341 -2.65334 4.22292e-05 4
-1.42072 -13.9868 -2.73274 0.000113086 1
-1.68308 -16.5696 -2.63788 0.000114514 4
-3.0915 -30.4353 1.60325 2.90467e-05 10
-3.0926 -30.4461 2.67739 2.86789e-05 10
-0.965098 -9.84282 -2.65002 0.00028356 4
-1.12078 -11.4306 -2.65161 8.59226e-05 4
-1.37191 -13.9918 -2.73278 0.000113099 1
-1.61446 -16.4655 -2.62039 0.000110362 4
-3.04435 -31.0487 -2.72943 3.39494e-05 10
-2.96479 -30.2372 1.59227 3.01512e-05 10
-2.9643 -30.2322 2.65766 2.97705e-05 10
-2.96548 -30.2443 3.73134 2.91988e-05 10
-0.931477 -9.85399 -2.65214 6.02297e-05 4
-1.08104 -11.4362 -2.65201 4.66064e-05 4
-1.32256 -13.9912 -2.73173 0.000113112 1
-1.54852 -16.3816 -2.60615 0.000131374 4
-2.91607 -30.8488 -2.71095 3.52424e-05 10
-2.91724 -30.8612 -1.62458 4.56831e-05 10
-2.91714 -30.8601 -0.541066 4.598e-05 10
-2.91882 -30.8779 0.541378 4.59712e-05 10
-2.84034 -30.0477 1.58175 3.12842e-05 10
-2.84075 -30.052 2.64093 3.08903e-05 10
-2.83944 -30.0381 3.70466 3.02987e-05 10
-2.83857 -30.0289 4.77732 2.95186e-05 10
-0.897358 -9.8603 -2.65298 0.000158115 4
-1.04077 -11.4362 -2.65116 5.82634e-05 4
-1.27429 -14.0021 -2.73297 0.000113125 1
-1.48407 -16.3071 -2.59347 0.000166867 4
-2.78866 -30.6422 -2.69192 3.65689e-05 10
-2.71636 -29.8478 1.57072 3.24459e-05 10
-2.71675 -29.8521 2.62251 3.20385e-05 10
-2.71586 -29.8422 3.67931 3.14266e-05 10
-2.71645 -29.8488 4.74712 3.06198e-05 10
-2.71506 -29.8335 5.82301 2.96305e-05 10
-0.862607 -9.85963 -2.65197 0.000148087 4
-1.00124 -11.4442 -2.65219 6.84658e-05 4
-1.22515 -14.0035 -2.73241 0.000113138 1
-1.4197 -16.2272 -2.57995 0.000155898 4
-2.66449 -30.4552 -2.67467 3.7929e-05 10
-2.61548 -29.895 1.57272 6.21416e-05 10
-2.61681 -29.9103 2.62681 6.13168e-05 10
-2.6155 -29.8952 3.68469 6.01016e-05 10
-2.61519 -29.8917 4.75246 5.8515e-05 10
-2.61641 -29.9057 5.83528 5.65814e-05 10
-2.61707 -29.9132 6.93239 5.43306e-05 10
-2.61621 -29.9034 8.0432 5.17968e-05 10
-0.829541 -9.87872 -2.65631 0.000261056 4
-1.17613 -14.0062 -2.73211 0.000113151 1
-1.35503 -16.1365 -2.56477 0.000160676 4
-2.54164 -30.2676 -2.65739 3.93234e-05 10
-2.517 -29.9741 1.5764 6.15295e-05 10
-2.51566 -29.9582 2.63022 6.07121e-05 10
-2.51662 -29.9696 3.69276 5.95079e-05 10
-2.51718 -29.9763 4.76448 5.79357e-05 10
-2.51647 -29.9678 5.84566 5.60197e-05 10
