VERSION 0.7
FIELDS x y z intensity label
SIZE 4 4 4 4 4
TYPE F F F F F
COUNT 1 1 1 1 1
WIDTH 1196
HEIGHT 1
VIEWPOINT 4.56981 4.05328 2.72931 -0.539328 -0.000211014 -0.000997708 0.842095
POINTS 1196
DATA ascii
6.28966 7.54908 -2.63284 0.000165686 4
7.29079 8.75068 -2.62957 9.82696e-05 4
10.5775 12.6955 -2.61721 7.74365e-05 4
13.2497 15.9028 -2.54153 9.34706e-05 4
18.6071 22.333 -2.54318 4.3892e-05 10
18.6065 22.3322 4.60386 3.07307e-05 10
6.25906 7.5659 -2.63107 0.000100964 4
7.24957 8.76322 -2.62572 7.10558e-05 4
8.60977 10.4074 -2.62552 6.05526e-05 4
13.1066 15.8432 -2.52468 0.000107246 4
18.3897 22.2293 -2.52405 4.56269e-05 10
18.3792 22.2166 4.56678 3.19494e-05 10
6.23412 7.58953 -2.63171 8.54306e-05 4
7.22724 8.79859 -2.62874 0.000105827 4
8.56882 10.4318 -2.62412 5.42607e-05 4
10.5072 12.7917 -2.62187 8.71106e-05 4
12.9825 15.8052 -2.51139 9.80712e-05 4
18.1863 22.1403 -2.50672 4.74086e-05 10
18.1842 22.1379 4.53752 3.32009e-05 10
18.1688 22.1191 7.66989 2.9509e-05 10
6.21611 7.6217 -2.63532 0.000196747 4
7.18962 8.81534 -2.62623 7.25661e-05 4
8.52615 10.4541 -2.62221 6.84147e-05 4
10.5295 12.9105 -2.63867 7.81398e-05 4
17.9721 22.036 -2.48779 4.9237e-05 10
17.973 22.037 4.50396 3.44855e-05 10
17.9583 22.0191 7.61344 3.06619e-05 10
6.17605 7.62678 -2.62961 8.02515e-05 4
7.16603 8.84931 -2.62888 0.000191995 4
8.48846 10.4824 -2.62186 4.0891e-05 4
10.5749 13.0589 -2.66144 0.000100396 4
17.7659 21.939 -2.46983 5.11133e-05 10
17.7615 21.9336 1.47912 4.04165e-05 10
17.7701 21.9442 2.47041 3.99134e-05 10
17.7742 21.9493 3.46786 3.91622e-05 10
17.7729 21.9477 4.47301 3.81742e-05 10
17.7723 21.9469 5.48938 3.69643e-05 10
17.7581 21.9294 6.51462 3.55505e-05 10
17.7678 21.9414 7.56511 3.39537e-05 10
6.14901 7.64782 -2.62945 0.00012167 4
7.14255 8.88353 -2.63162 7.70996e-05 4
10.6017 13.1859 -2.67976 8.24378e-05 4
17.5762 21.8604 -2.45405 5.30375e-05 10
17.5662 21.8479 1.46919 4.19359e-05 10
17.5592 21.8392 2.45168 4.14154e-05 10
17.5576 21.8372 3.44045 4.06381e-05 10
17.5716 21.8547 4.44151 3.96159e-05 10
17.5633 21.8444 5.44836 3.83639e-05 10
17.5665 21.8483 6.47226 3.69009e-05 10
17.5663 21.8481 7.51173 3.52483e-05 10
6.12359 7.67088 -2.63001 3.10645e-05 4
7.11161 8.90856 -2.63167 6.04696e-05 4
10.6211 13.3048 -2.69637 5.1505e-05 1
17.3659 21.7539 -2.43528 5.50107e-05 10
17.3728 21.7626 -1.45937 5.57329e-05 10
17.3659 21.7539 -0.485868 5.61051e-05 10
17.3654 21.7533 0.485854 5.61215e-05 10
17.3772 21.768 1.45974 4.34939e-05 10
17.3761 21.7667 2.43671 4.29555e-05 10
17.3697 21.7586 3.41849 4.21517e-05 10
17.3669 21.7552 4.40895 4.10944e-05 10
17.3679 21.7564 5.41126 3.97995e-05 10
17.3682 21.7567 6.42713 3.8286e-05 10
17.3675 21.7558 7.45913 3.65764e-05 10
6.10049 7.6969 -2.63161 0.000134611 4
7.07358 8.92463 -2.62911 7.10508e-05 4
8.38757 10.5825 -2.62478 4.01028e-05 4
10.5691 13.3349 -2.69498 5.15039e-05 1
17.1782 21.6735 -2.41955 5.70328e-05 10
17.1685 21.6613 -1.44855 5.77793e-05 10
17.1706 21.6639 -0.482515 5.81638e-05 10
17.1755 21.6701 0.482653 5.81807e-05 10
17.1801 21.6759 1.44953 4.50905e-05 10
17.1749 21.6693 2.41908 4.45339e-05 10
17.1697 21.6628 3.394 4.37028e-05 10
17.1731 21.667 4.3789 4.26098e-05 10
17.1782 21.6735 5.37571 4.12708e-05 10
17.1785 21.6739 6.38491 3.9706e-05 10
17.1691 21.662 7.40637 3.79381e-05 10
6.08252 7.72951 -2.63549 0.000150142 4
7.04061 8.94702 -2.62844 9.97721e-05 4
8.34665 10.6067 -2.62355 6.36916e-05 4
10.5195 13.3679 -2.69422 5.15028e-05 1
16.9945 21.5961 -2.40427 5.9105e-05 10
16.9806 21.5785 -1.43904 0.000117106 10
16.9817 21.5799 -0.479322 0.000117895 10
16.9915 21.5923 0.479598 0.00011794 10
16.9869 21.5865 1.43957 4.67265e-05 10
16.989 21.5892 2.4035 4.61513e-05 10
16.9878 21.5877 3.37292 4.52925e-05 10
16.9873 21.587 4.35073 4.41628e-05 10
16.987 21.5866 5.33941 4.2779e-05 10
16.9829 21.5814 6.34017 4.11615e-05 10
16.9713 21.5667 7.35347 3.93339e-05 10
6.04727 7.74015 -2.6319 0.000364995 4
7.00915 8.9713 -2.62838 8.61657e-05 4
10.4724 13.4041 -2.69413 5.15017e-05 1
16.8008 21.504 -2.38748 6.12272e-05 10
16.9441 21.6874 -1.44235 0.000116021 10
16.9341 21.6747 -0.480112 0.000116803 10
16.935 21.6758 0.480136 0.000116849 10
16.3139 20.8808 1.38871 0.00010583 10
16.3044 20.8686 2.31693 0.000104557 10
16.3126 20.8792 3.25331 0.00010265 10
16.3053 20.8698 4.19468 0.000100138 10
16.3139 20.8809 5.15073 9.70567e-05 10
16.3071 20.8722 6.11504 9.34509e-05 10
16.2981 20.8606 7.09328 8.93727e-05 10
6.01453 7.75388 -2.62942 0.000261448 4
6.98472 9.00464 -2.63099 3.77915e-05 4
10.4275 13.443 -2.69462 5.15005e-05 1
16.6119 21.4159 -2.37124 6.34002e-05 10
16.889 21.7731 -1.44412 0.000114937 10
16.8954 21.7814 -0.481167 0.000115712 10
16.8944 21.7801 0.481138 0.000115758 10
16.269 20.9739 1.39111 0.000104857 10
16.2616 20.9643 2.32124 0.000103594 10
16.2591 20.9612 3.25722 0.000101704 10
16.2645 20.968 4.20298 9.9213e-05 10
16.2699 20.975 5.1599 9.61578e-05 10
16.2671 20.9714 6.12746 9.25828e-05 10
16.257 20.9584 7.1072 8.85395e-05 10
5.99677 7.78697 -2.63352 8.8011e-05 4
6.9432 9.01593 -2.62719 6.19771e-05 4
8.23913 10.6987 -2.62483 4.5604e-05 4
10.3707 13.4667 -2.69208 5.14993e-05 1
16.4267 21.3305 -2.35543 6.56248e-05 10
16.8408 21.8682 -1.44652 0.000113852 10
16.8433 21.8715 -0.481855 0.000114621 10
16.844 21.8723 0.481873 0.000114666 10
16.2189 21.0607 1.39311 0.000103883 10
16.227 21.0712 2.32679 0.000102631 10
16.2146 21.0551 3.263 0.000100757 10
16.2215 21.0641 4.21086 9.82877e-05 10
16.2164 21.0575 5.16623 9.52588e-05 10
16.2145 21.055 6.13528 9.17146e-05 10
16.2127 21.0526 7.11992 8.77063e-05 10
5.95858 7.79349 -2.62868 0.000144957 4
6.90754 9.03468 -2.62561 0.000117906 4
8.20548 10.7323 -2.62602 3.45955e-05 4
10.3313 13.5127 -2.69406 5.14981e-05 1
16.2407 21.242 -2.33937 6.79008e-05 10
16.1887 21.174 1.39685 0.000102909 10
16.1726 21.1529 2.32956 0.000101669 10
16.1725 21.1527 3.26936 9.98108e-05 10
16.1709 21.1507 4.21687 9.73627e-05 10
16.1737 21.1543 5.17612 9.43601e-05 10
16.1784 21.1605 6.14953 9.08468e-05 10
16.1727 21.1531 7.13475 8.68735e-05 10
5.93943 7.82491 -2.63226 0.00010354 4
6.88841 9.07514 -2.63036 4.38361e-05 4
8.16807 10.761 -2.62606 3.77399e-05 4
10.2388 13.4891 -2.68221 0.000208207 4
16.0591 21.157 -2.32383 7.02296e-05 10
17.0637 22.4806 -1.47911 3.64746e-05 10
17.0555 22.4698 -0.492401 3.6719e-05 10
17.0521 22.4653 0.492302 3.67293e-05 10
16.0642 21.1638 1.39247 5.55085e-05 10
16.1128 21.2279 2.33161 6.46283e-05 10
16.1068 21.2199 3.27104 6.34469e-05 10
16.0515 21.1471 4.20495 5.25027e-05 10
16.0557 21.1526 5.16196 5.08797e-05 10
16.1055 21.2182 6.14995 5.77476e-05 10
16.1069 21.2201 7.13835 5.52214e-05 10
5.90985 7.84263 -2.63127 0.000354619 4
6.85623 9.09853 -2.63019 9.37172e-05 4
8.13137 10.7907 -2.62635 3.3808e-05 4
10.1386 13.4544 -2.66826 0.00020876 4
15.8777 21.0703 -2.30821 7.26108e-05 10
16.9623 22.5097 -1.47712 6.86749e-05 10
16.9638 22.5118 -0.49202 6.91429e-05 10
16.9592 22.5056 0.491885 6.91703e-05 10
15.882 21.0761 1.38305 5.7388e-05 10
15.8702 21.0605 4.17669 5.42883e-05 10
15.8815 21.0755 5.12957 5.26145e-05 10
5.88568 7.86755 -2.63272 0.000129421 4
6.82212 9.11932 -2.6293 9.22041e-05 4
10.024 13.3993 -2.65038 0.000112658 4
15.7001 20.9867 -2.29303 7.50455e-05 10
17.0309 22.7657 -1.49002 3.58436e-05 10
17.0331 22.7687 -0.496332 3.60844e-05 10
17.0284 22.7623 0.496194 3.60945e-05 10
15.7043 20.9924 1.37395 5.93097e-05 10
15.2482 20.3827 2.22703 6.5983e-05 10
15.2442 20.3774 3.12468 6.47918e-05 10
15.6965 20.982 4.15023 5.61142e-05 10
15.6927 20.9769 5.0922 5.43886e-05 10
15.2498 20.3849 5.8774 5.90548e-05 10
15.2453 20.3788 6.81935 5.65122e-05 10
5.85413 7.88258 -2.6309 9.83588e-05 4
6.78369 9.13424 -2.62676 7.55759e-05 4
8.04367 10.8308 -2.62239 4.16686e-05 4
9.92915 13.3696 -2.63763 0.000170292 4
15.5271 20.9072 -2.27841 7.75336e-05 10
16.8654 22.7092 -1.48245 6.73227e-05 10
16.867 22.7114 -0.493796 6.77823e-05 10
16.8567 22.6976 0.493497 6.78093e-05 10
15.5332 20.9154 1.36536 6.12735e-05 10
15.1798 20.4397 2.22745 0.000121149 10
15.1939 20.4586 3.12898 0.000118976 10
15.5297 20.9107 4.12539 5.79803e-05 10
15.5242 20.9033 5.06117 5.62019e-05 10
15.1786 20.438 5.87741 0.000108478 10
15.1886 20.4515 6.82592 0.00010382 10
5.83365 7.91257 -2.63409 7.50622e-05 4
6.76558 9.17661 -2.63213 0.000107316 4
8.01445 10.8705 -2.62521 5.42467e-05 4
9.82209 13.3224 -2.62153 0.000239845 4
15.3628 20.8377 -2.26497 8.00762e-05 10
15.4062 20.8965 -1.3606 9.57876e-05 10
15.409 20.9003 -0.453247 9.64186e-05 10
15.4165 20.9105 0.453468 9.64559e-05 10
15.3641 20.8394 1.35688 6.32802e-05 10
15.1495 20.5483 2.23352 0.000119985 10
15.1372 20.5317 3.13205 0.000117831 10
15.3583 20.8315 4.09915 5.98875e-05 10
15.3543 20.8261 5.02946 5.80551e-05 10
15.1348 20.5283 5.88814 0.000107427 10
15.1409 20.5366 6.83663 0.00010281 10
5.80585 7.93268 -2.63403 0.000121651 4
6.72799 9.19263 -2.62998 6.4993e-05 4
7.97045 10.8902 -2.62324 4.00945e-05 4
9.72841 13.2922 -2.6089 0.000218512 4
15.1887 20.7527 -2.24996 8.2673e-05 10
15.1852 20.7479 -1.34747 5.53e-05 10
15.201 20.7695 -0.449258 5.56561e-05 10
15.1943 20.7603 0.449059 5.56707e-05 10
15.1944 20.7605 1.34828 6.53298e-05 10
15.1038 20.6368 2.23739 0.000118822 10
15.0969 20.6272 3.13858 0.000116687 10
15.1876 20.7512 4.0729 6.18356e-05 10
15.179 20.7395 4.99572 5.99483e-05 10
15.1043 20.6374 5.90429 0.000106376 10
15.101 20.6329 6.8511 0.000101801 10
5.77556 7.94937 -2.63286 8.80014e-05 4
6.701 9.22313 -2.63199 4.68546e-05 4
7.93792 10.9256 -2.62506 7.70427e-05 4
9.62113 13.2423 -2.59251 0.000220458 4
15.0226 20.6768 -2.23603 8.5325e-05 10
15.1453 20.8458 -1.35038 9.85929e-05 10
15.1442 20.8441 -0.449726 9.92404e-05 10
15.1444 20.8445 0.449734 9.92787e-05 10
15.0326 20.6906 1.34033 6.74227e-05 10
15.0196 20.6727 2.23559 6.66155e-05 10
15.0199 20.6731 3.13756 6.54106e-05 10
15.0222 20.6762 4.04786 6.38252e-05 10
15.0134 20.6642 4.96492 6.18819e-05 10
15.02 20.6732 5.8995 5.96087e-05 10
15.0273 20.6833 6.8504 5.70378e-05 10
5.74595 7.96696 -2.63203 0.000204471 4
6.66762 9.24487 -2.63154 7.7082e-05 4
9.52585 13.2079 -2.57924 0.000224114 4
14.8666 20.613 -2.22351 8.80327e-05 10
14.9256 20.6948 -1.33722 0.000102511 10
14.911 20.6745 -0.444941 0.000103181 10
14.9171 20.683 0.445123 0.000103221 10
14.8604 20.6045 1.33138 6.95595e-05 10
14.85 20.5901 2.22103 6.87288e-05 10
14.8602 20.6041 3.1192 6.74885e-05 10
14.8611 20.6054 4.02383 6.58567e-05 10
14.8626 20.6075 4.93881 6.38565e-05 10
14.8473 20.5863 5.85987 6.15165e-05 10
14.8466 20.5853 6.80072 5.88698e-05 10
5.71177 7.97811 -2.62911 0.00015788 4
6.63634 9.26953 -2.63195 0.000145093 4
9.41637 13.1526 -2.56201 0.000215328 4
14.6944 20.5249 -2.20845 9.07959e-05 10
14.7041 20.5385 -1.32379 6.07274e-05 10
14.7035 20.5377 -0.440888 6.11152e-05 10
14.704 20.5383 0.440901 6.11307e-05 10
14.6989 20.5312 1.32332 7.17401e-05 10
14.6898 20.5184 2.20776 7.08853e-05 10
14.6909 20.5201 3.09869 6.96091e-05 10
14.6979 20.5298 3.99902 6.793e-05 10
14.6907 20.5197 4.90545 6.58718e-05 10
14.6846 20.5112 5.82387 6.34638e-05 10
14.6891 20.5175 6.76133 6.07399e-05 10
5.68953 8.00594 -2.63172 0.000183759 4
6.60384 9.29251 -2.63191 0.000108818 4
9.32046 13.1152 -2.54836 0.000180838 4
14.5469 20.4695 -2.19702 9.36159e-05 10
14.6565 20.6236 -1.32597 0.000105554 10
14.6575 20.6251 -0.441663 0.000106242 10
14.6543 20.6206 0.441568 0.000106283 10
14.539 20.4584 1.31535 7.39653e-05 10
14.5347 20.4523 2.19517 7.30861e-05 10
14.5336 20.4508 3.08055 7.17734e-05 10
14.5251 20.4388 3.97139 7.00461e-05 10
14.5284 20.4434 4.87505 6.79289e-05 10
14.5328 20.4497 5.79194 6.54516e-05 10
14.5374 20.4561 6.72435 6.26491e-05 10
5.66604 8.03212 -2.63381 0.000131994 4
6.56743 9.30993 -2.63034 5.74304e-05 4
7.77954 11.0282 -2.62336 4.95228e-05 4
9.23438 13.0906 -2.5373 0.000275594 4
14.3751 20.378 -2.1818 9.64921e-05 10
14.4284 20.4536 -1.31179 0.000109812 10
14.4314 20.4578 -0.436999 0.000110525 10
14.4346 20.4624 0.437097 0.000110568 10
14.3784 20.3827 1.30725 7.62349e-05 10
14.3803 20.3854 2.18258 7.53307e-05 10
14.3713 20.3727 3.0612 7.39809e-05 10
13.9609 19.7908 3.83598 8.11132e-05 10
14.3807 20.3859 4.84934 7.00272e-05 10
14.3728 20.3747 5.75647 6.74794e-05 10
14.3725 20.3743 6.68091 6.45969e-05 10
5.63553 8.04837 -2.63267 6.72899e-05 4
6.53568 9.33392 -2.63065 3.17372e-05 4
7.73975 11.0535 -2.62294 4.32332e-05 4
9.13822 13.0507 -2.52338 0.000328472 4
14.2189 20.3066 -2.16883 9.94257e-05 10
14.2175 20.3047 -1.29906 6.6493e-05 10
14.2185 20.3061 -0.432697 6.69142e-05 10
14.2208 20.3095 0.432768 6.69309e-05 10
14.2172 20.3043 1.29903 7.85498e-05 10
14.225 20.3154 2.16976 7.76202e-05 10
14.2224 20.3117 3.04457 7.62325e-05 10
13.8042 19.7144 3.81181 8.35578e-05 10
14.2129 20.2981 4.81662 7.21678e-05 10
14.2099 20.2938 5.71957 6.95482e-05 10
14.2231 20.3126 6.64438 6.65843e-05 10
5.604 8.0631 -2.63107 0.000147518 4
6.49779 9.34908 -2.62852 4.68492e-05 4
9.03937 13.0059 -2.50861 0.000197126 4
14.0742 20.2501 -2.15753 0.000102416 10
14.1712 20.3897 -1.30132 0.00011312 10
14.1732 20.3926 -0.433484 0.000113853 10
14.1731 20.3924 0.433478 0.000113896 10
14.0646 20.2364 1.29154 8.09096e-05 10
14.0636 20.2349 2.15591 7.99541e-05 10
14.0562 20.2242 3.02408 7.8528e-05 10
14.067 20.2397 4.7911 7.43505e-05 10
14.0538 20.2208 5.68514 7.16578e-05 10
14.0641 20.2356 6.60309 6.86111e-05 10
5.58465 8.09541 -2.63524 0.000157867 4
6.4662 9.37329 -2.62896 8.61403e-05 4
8.98841 13.0294 -2.50707 5.87428e-05 4
13.9128 20.1678 -2.14357 0.000105465 10
13.9462 20.2161 -1.28713 0.000117756 10
13.9465 20.2166 -0.428704 0.000118515 10
13.9497 20.2212 0.428802 0.00011856 10
13.9047 20.1561 1.28331 8.33152e-05 10
13.9145 20.1702 2.14382 8.23336e-05 10
13.9107 20.1647 3.0079 8.08683e-05 10
13.9016 20.1515 4.75869 7.65757e-05 10
13.9093 20.1627 5.65511 7.38089e-05 10
13.9075 20.1601 6.56255 7.06779e-05 10
5.55396 8.11135 -2.6341 0.000219975 4
6.43414 9.39682 -2.62925 0.000120896 4
7.63685 11.1533 -2.6275 4.32298e-05 4
8.93896 13.055 -2.50597 4.88184e-05 4
13.7664 20.1053 -2.13181 0.000108572 10
13.7554 20.0892 -1.27599 7.26032e-05 10
13.7556 20.0895 -0.424988 7.30597e-05 10
13.7633 20.1008 0.425227 7.30774e-05 10
13.7525 20.0851 1.27572 8.57663e-05 10
13.7675 20.1069 2.13198 8.4758e-05 10
13.8252 20.1912 3.00463 8.73175e-05 10
13.762 20.0988 4.73488 7.88435e-05 10
13.7649 20.1031 5.62489 7.60012e-05 10
13.811 20.1705 6.55022 7.63649e-05 10
5.51967 8.12195 -2.63127 0.000165625 4
6.39343 9.40764 -2.62601 0.000139028 4
7.5829 11.1579 -2.62233 0.00012104 4
8.89115 13.0829 -2.50536 5.23887e-05 4
13.6139 20.0322 -2.11901 0.000111737 10
13.6933 20.149 -1.27674 0.00012136 10
13.6805 20.1302 -0.424836 0.00012214 10
13.6907 20.1452 0.425153 0.000122187 10
13.6069 20.022 1.26869 8.82636e-05 10
13.6046 20.0186 2.11757 8.72282e-05 10
13.6123 20.0298 4.7074 8.11544e-05 10
13.6085 20.0242 5.58949 7.82352e-05 10
5.49078 8.14041 -2.63102 0.000240669 4
6.36423 9.43536 -2.62753 3.77784e-05 4
7.54664 11.1884 -2.62328 0.000157977 4
9.2395 13.6981 -2.61697 3.06076e-05 4
13.4648 19.9624 -2.10664 0.000114962 10
13.4635 19.9604 -1.2618 0.000126415 10
13.4601 19.9554 -0.420153 0.000127225 10
13.4679 19.9669 0.420396 0.000127273 10
13.4684 19.9677 1.26226 9.08075e-05 10
13.4673 19.9661 2.10703 8.97446e-05 10
13.4569 19.9507 4.67774 8.35089e-05 10
13.4665 19.9649 5.55976 8.05116e-05 10
5.46906 8.16959 -2.63427 0.000450277 4
6.33043 9.45628 -2.62719 4.3822e-05 4
7.51771 11.2298 -2.62683 0.000150899 4
13.3175 19.8934 -2.09444 0.000118245 10
13.4258 20.0552 -1.26482 0.000125098 10
13.4256 20.0549 -0.421259 0.000125899 10
13.423 20.051 0.421177 0.000125948 10
13.3201 19.8973 1.25486 9.33978e-05 10
13.3246 19.9041 2.09556 9.23067e-05 10
13.3127 19.8863 3.7903 5.65189e-05 10
13.312 19.8851 4.65145 8.59065e-05 10
13.3079 19.8791 5.52292 8.28299e-05 10
5.43114 8.17452 -2.62973 0.000121624 4
6.30039 9.48285 -2.62844 0.000178306 4
7.47935 11.2573 -2.62714 0.000157968 4
9.15489 13.7792 -2.62019 5.05505e-05 4
13.1695 19.8217 -2.08204 0.000121588 10
13.2091 19.8813 -1.25094 0.000130351 10
13.2142 19.889 -0.416803 0.000131182 10
13.2088 19.8808 0.41663 0.000131233 10
13.1647 19.8145 1.24673 9.60353e-05 10
13.1692 19.8213 2.082 9.49157e-05 10
13.1651 19.815 3.76793 5.81216e-05 10
13.174 19.8284 4.62739 8.83483e-05 10
13.1648 19.8146 5.49219 8.51911e-05 10
5.40355 8.19491 -2.6302 7.24555e-05 4
6.26231 9.49728 -2.62637 9.0662e-05 4
7.43017 11.2684 -2.62367 0.00016818 4
9.09659 13.7957 -2.61727 3.78255e-05 4
13.029 19.7596 -2.07072 0.000124991 10
13.0258 19.7547 -1.2401 8.35707e-05 10
13.0299 19.7609 -0.413163 8.40897e-05 10
13.0292 19.7599 0.413141 8.41092e-05 10
13.0374 19.7722 1.24121 9.87195e-05 10
13.0223 19.7493 2.06965 9.7571e-05 10
13.0268 19.7562 4.5999 9.08337e-05 10
13.0233 19.7509 5.46189 8.75946e-05 10
5.37133 8.20826 -2.62845 0.000124207 4
6.23107 9.52207 -2.6272 9.21709e-05 4
9.05203 13.833 -2.61833 5.43291e-05 4
12.8971 19.7089 -2.06068 0.000128454 10
12.9587 19.803 -1.24029 0.000134436 10
12.9569 19.8002 -0.413036 0.000135291 10
12.9542 19.7961 0.41295 0.000135344 10
12.8957 19.7067 1.23426 0.000101451 10
12.8833 19.6877 2.05847 0.000100274 10
12.8876 19.6943 2.88989 9.85154e-05 10
12.8857 19.6914 3.72723 9.62015e-05 10
12.8789 19.681 4.57189 9.33637e-05 10
12.883 19.6873 5.43184 9.00414e-05 10
12.8821 19.6859 6.30385 8.62798e-05 10
5.3568 8.24875 -2.63542 0.000126792 4
6.20655 9.55724 -2.63091 0.00012541 4
7.35874 11.3315 -2.62632 0.00016718 4
9.01113 13.8759 -2.62049 4.22926e-05 4
12.7565 19.6432 -2.04915 0.000131977 10
12.7567 19.6435 -1.22751 8.8237e-05 10
12.7451 19.6258 -0.408467 8.87823e-05 10
12.7471 19.6288 0.408529 8.88027e-05 10
12.7541 19.6397 1.22726 0.00010423 10
12.7471 19.6289 2.04765 0.000103023 10
12.7527 19.6374 2.87499 0.00010122 10
12.7512 19.6351 3.70813 9.88476e-05 10
12.7496 19.6326 4.55029 9.59379e-05 10
12.7387 19.6158 5.39982 9.2531e-05 10
12.7424 19.6216 6.26897 8.86734e-05 10
5.31478 8.24693 -2.62889 0.00015784 4
6.1674 9.56993 -2.62846 4.53278e-05 4
7.36157 11.4229 -2.64154 0.000173622 4
8.93635 13.8665 -2.61281 0.000181157 4
12.6191 19.581 -2.03805 0.000135561 10
12.7023 19.7101 -1.22889 0.00013868 10
12.6919 19.694 -0.408962 0.000139559 10
12.6958 19.7 0.409087 0.000139613 10
12.6102 19.5672 1.21998 0.000107058 10
12.6087 19.5649 2.03638 0.00010582 10
12.6065 19.5615 2.85741 0.000103972 10
12.6104 19.5676 3.68704 0.00010154 10
12.6033 19.5565 4.52243 9.8557e-05 10
12.6026 19.5555 5.37106 9.50643e-05 10
12.6127 19.571 6.2387 9.11093e-05 10
5.28499 8.2639 -2.6284 0.000100912 4
6.13654 9.59544 -2.62956 8.91424e-05 4
7.363 11.5132 -2.65646 0.000178405 4
8.84816 13.8355 -2.60113 0.000179438 4
12.4678 19.4954 -2.0246 0.000139206 10
12.4808 19.5156 -1.21404 0.00014466 10
12.4914 19.5323 -0.404696 0.000145573 10
12.4802 19.5148 0.404333 0.000145628 10
12.4689 19.4971 1.21289 0.000109932 10
12.4677 19.4952 2.02457 0.000108664 10
12.4749 19.5064 2.843 0.00010677 10
12.4726 19.5028 3.66661 0.000104278 10
12.4707 19.4999 4.49925 0.00010122 10
12.4725 19.5027 5.34459 9.76407e-05 10
12.4641 19.4896 6.19885 9.35869e-05 10
5.25812 8.28546 -2.62941 9.05602e-05 4
6.0966 9.6067 -2.6268 0.000138998 4
7.36891 11.6115 -2.6732 0.000119757 4
8.76877 13.8174 -2.59195 0.000183044 4
12.3375 19.4408 -2.01445 0.000142912 10
12.4487 19.616 -1.21758 0.000143091 10
12.4395 19.6014 -0.405227 0.000143995 10
12.4441 19.6088 0.405379 0.000144051 10
12.3314 19.4311 1.2061 0.000112855 10
12.3385 19.4423 2.0146 0.000111556 10
12.3366 19.4394 2.82694 0.000109615 10
12.3308 19.4303 3.64485 0.000107062 10
12.3352 19.4371 4.4748 0.000103929 10
12.328 19.4258 5.31168 0.000100261 10
12.3369 19.4399 6.16929 9.61067e-05 10
5.23221 8.30861 -2.63094 7.24466e-05 4
6.07014 9.63922 -2.62988 4.07919e-05 4
7.37261 11.7075 -2.68935 8.00402e-05 4
8.67584 13.777 -2.57868 0.000164721 4
12.2079 19.3858 -2.00432 0.00014668 10
12.2252 19.4132 -1.20233 0.000149316 10
12.2265 19.4154 -0.400495 0.000150255 10
12.2249 19.4129 0.400444 0.000150313 10
12.2044 19.3803 1.20029 0.000115827 10
12.203 19.378 2.00351 0.000114496 10
12.2105 19.3899 2.81352 0.000112508 10
12.2004 19.3738 3.62626 0.000109892 10
12.2016 19.3758 4.45085 0.000106683 10
12.1992 19.3721 5.28531 0.000102925 10
12.1986 19.3711 6.13389 9.86693e-05 10
5.20081 8.32303 -2.62975 0.000256145 4
6.02999 9.64999 -2.62706 0.000105754 4
7.3674 11.7903 -2.70244 0.000118412 1
8.58209 13.7342 -2.56505 0.000151452 4
12.0687 19.314 -1.99253 0.000150508 10
12.0726 19.3202 -1.19395 0.000152323 10
12.0736 19.3218 -0.397694 0.000153254 10
12.0685 19.3135 0.397524 0.000153288 10
12.0768 19.3269 1.19437 0.000118847 10
12.0742 19.3227 1.99342 0.000117483 10
11.7238 18.762 2.71645 0.000196107 10
11.7339 18.7781 3.50707 0.000191635 10
12.0753 19.3246 4.42937 0.000109482 10
12.0752 19.3244 5.26077 0.000105634 10
11.7343 18.7788 5.93335 0.000172389 10
5.17 8.33835 -2.62887 0.00016041 4
6.00274 9.68143 -2.6299 6.7983e-05 4
7.31713 11.8013 -2.6991 0.000118408 1
8.4998 13.7088 -2.55474 4.78131e-05 4
11.9452 19.2656 -1.98322 0.0001544 10
11.9373 19.2529 -1.18721 0.000156257 10
11.9354 19.2498 -0.395351 0.00015721 10
11.9403 19.2577 0.395514 0.000157245 10
11.9448 19.265 1.18796 0.000121916 10
11.936 19.2508 1.98169 0.00012052 10
11.6936 18.8599 2.7247 0.000193964 10
11.6979 18.8667 3.51597 0.000189538 10
11.933 19.2459 4.40175 0.000112328 10
11.9344 19.2482 5.22866 0.000108386 10
11.6812 18.8399 5.93973 0.000170487 10
5.14073 8.35613 -2.6288 0.000217325 4
5.97324 9.70936 -2.63181 6.94918e-05 4
7.28896 11.848 -2.70395 0.000118404 1
8.41547 13.6791 -2.54373 0.00019496 4
11.8197 19.2126 -1.9735 0.000158352 10
11.8136 19.2027 -1.18156 0.000160254 10
11.8187 19.211 -0.393704 0.000161229 10
11.8084 19.1942 0.393361 0.000161264 10
11.8155 19.2058 1.18175 0.000125034 10
11.8115 19.1992 1.97213 0.000123604 10
11.6481 18.9337 2.72948 0.000191828 10
11.6527 18.9411 3.52224 0.000187447 10
11.817 19.2082 4.38368 0.000115218 10
11.8146 19.2044 5.20552 0.000111183 10
11.6477 18.933 5.95623 0.000168591 10
5.11565 8.38078 -2.63092 9.57245e-05 4
5.92922 9.71363 -2.62734 7.70432e-05 4
7.24479 11.8689 -2.70292 0.0001184 1
8.33418 13.6536 -2.53355 0.000210219 4
11.6888 19.1493 -1.9628 0.000162368 10
11.6897 19.1509 -1.17586 0.000164314 10
11.6817 19.1376 -0.391363 0.000165311 10
11.6847 19.1427 0.391467 0.000165347 10
11.6854 19.1438 1.17543 0.000128201 10
11.676 19.1283 1.96065 0.000126738 10
11.6142 19.0271 2.73708 0.000189697 10
11.6147 19.0279 3.53081 0.000185361 10
11.6826 19.1391 4.35858 0.000118155 10
11.6736 19.1244 5.17277 0.000114025 10
11.6052 19.0123 5.9684 0.0001667 10
5.09383 8.41092 -2.63478 0.00012418 4
5.90526 9.75075 -2.63179 0.000138976 4
7.19591 11.8818 -2.70013 0.000118396 1
8.25608 13.6324 -2.52426 0.000224322 4
11.5613 19.0899 -1.95256 0.000166446 10
11.5803 19.1213 -1.17155 0.000247228 10
11.5774 19.1165 -0.390102 0.000248769 10
11.5842 19.1279 0.390334 0.000248865 10
11.5599 19.0877 1.16949 0.000131416 10
11.5622 19.0914 1.95271 0.000129919 10
11.5584 19.0852 2.73961 0.000120481 10
11.5625 19.0919 3.53518 0.000117726 10
11.5528 19.0759 4.33497 0.000121137 10
11.5615 19.0902 5.15257 0.000116911 10
11.5486 19.069 5.97352 7.15773e-05 10
5.87233 9.7732 -2.6323 8.45918e-05 4
7.16276 11.9208 -2.70329 0.000118392 1
8.1602 13.5808 -2.50942 6.92499e-05 4
11.4384 19.0367 -1.94302 0.000170586 10
11.5337 19.1953 -1.17362 0.00024444 10
11.5366 19.2002 -0.390986 0.000245966 10
11.5332 19.1945 0.39087 0.00024606 10
11.4361 19.0328 1.16368 0.000134681 10
11.4278 19.019 1.94122 0.00013315 10
11.4855 19.1151 2.73813 8.1855e-05 10
11.4915 19.125 3.53386 7.99695e-05 10
11.4348 19.0306 4.31558 0.000124165 10
11.426 19.016 5.12173 0.000119842 10
11.4887 19.1204 5.97702 7.18773e-05 10
5.02543 8.43023 -2.62978 0.000131935 4
5.82714 9.77512 -2.62732 0.000140479 4
7.11825 11.941 -2.70221 0.000118387 1
8.11204 13.6081 -2.50921 4.60075e-05 4
11.3086 18.9703 -1.9322 0.000174789 10
11.4957 19.2843 -1.17659 0.00024166 10
11.4981 19.2883 -0.391961 0.00024317 10
11.5043 19.2987 0.392171 0.000243264 10
10.974 18.4091 1.12319 0.000153911 10
10.9761 18.4127 1.87541 0.000152183 10
10.9758 18.4121 2.63193 0.000149603 10
10.9852 18.4279 3.39794 0.000146207 10
10.9832 18.4244 4.1694 0.000142038 10
10.9857 18.4287 4.95319 0.000137154 10
10.9768 18.4137 5.74408 0.000131617 10
4.9981 8.45131 -2.6309 8.53678e-05 4
5.79456 9.79807 -2.62804 7.25031e-05 4
7.07935 11.9705 -2.70329 0.000118383 1
8.05868 13.6265 -2.5074 4.32292e-05 4
11.1798 18.904 -1.92147 0.000179055 10
11.466 19.3879 -1.18047 0.00023889 10
11.4662 19.3882 -0.393176 0.000240383 10
11.4598 19.3774 0.392956 0.000240477 10
10.8552 18.3552 1.11759 0.000147835 10
10.8786 18.3947 1.8697 0.00011195 10
10.9007 18.4321 2.62933 0.000218597 10
10.892 18.4173 3.38896 0.000213674 10
10.8634 18.3689 4.14823 0.000145484 10
10.8754 18.3893 4.93238 0.000100906 10
10.8799 18.3968 5.72694 9.68374e-05 10
4.96483 8.46235 -2.62892 9.83e-05 4
5.75895 9.8159 -2.62741 9.36471e-05 4
7.02591 11.9754 -2.69883 0.000118379 1
8.00837 13.6499 -2.50656 5.27451e-05 4
11.0704 18.869 -2.68613 0.000180177 10
11.0682 18.8653 -1.91359 0.000183384 10
15.0812 25.7052 -1.56189 7.59795e-05 10
15.0841 25.7103 -0.52031 7.65125e-05 10
15.0838 25.7098 0.5203 7.65459e-05 10
10.7453 18.3149 1.11285 0.000151367 10
10.7673 18.3524 1.86156 0.000114628 10
10.868 18.5241 2.63703 0.000216111 10
10.8604 18.5111 3.39921 0.00021124 10
10.7408 18.3072 4.12581 0.000148981 10
10.7655 18.3494 4.91156 0.00010334 10
10.7579 18.3365 5.69642 9.91805e-05 10
4.94863 8.50259 -2.63604 9.82975e-05 4
5.73508 9.85386 -2.6322 7.703e-05 4
6.97184 11.9788 -2.6941 0.000312818 4
7.96583 13.6867 -2.50818 4.63976e-05 4
10.9467 18.8083 -2.67204 0.000184499 10
10.9414 18.7992 -1.903 0.000187776 10
10.6211 18.2489 1.10658 0.000154949 10
10.6388 18.2793 1.85037 0.000117346 10
10.8209 18.5921 2.64131 0.000213633 10
10.8289 18.6059 3.40967 0.000208814 10
10.6222 18.2507 4.10469 0.000152529 10
10.6499 18.2984 4.88793 0.000105809 10
10.639 18.2797 5.66721 0.000101557 10
4.90683 8.49889 -2.62956 8.79482e-05 4
5.70086 9.87417 -2.63229 9.36415e-05 4
6.90198 11.9546 -2.68322 0.000401413 4
7.91232 13.7045 -2.50638 4.91712e-05 4
10.8195 18.74 -2.65694 0.000188883 10
10.8193 18.7395 -1.89312 0.000192232 10
10.5092 18.2024 1.10152 0.000158583 10
10.5342 18.2458 1.84325 0.000120101 10
10.7897 18.6883 2.64961 0.000211163 10
10.7868 18.6834 3.41694 0.000206395 10
10.5057 18.1964 4.08419 0.000156127 10
10.5031 18.1919 4.84967 0.000141433 10
10.5241 18.2283 5.63985 0.000103969 10
4.88914 8.53692 -2.63604 0.000108639 4
5.66692 9.89499 -2.63255 9.66592e-05 4
6.83634 11.9369 -2.67388 0.000373627 4
7.86903 13.7401 -2.50784 4.52036e-05 4
10.7098 18.7003 -2.646 0.000193329 10
10.7124 18.7049 -1.88584 0.000196751 10
10.3985 18.1568 1.09656 0.000162267 10
10.414 18.1839 1.83332 0.000122896 10
10.7491 18.769 2.65572 0.000208701 10
10.7408 18.7545 3.42308 0.000203986 10
10.3946 18.15 4.06561 0.000159776 10
10.3894 18.141 4.82639 0.000144747 10
10.4059 18.1698 5.61047 0.000106415 10
4.85745 8.55066 -2.63503 0.000155195 4
5.61882 9.89091 -2.62623 0.000128372 4
6.76773 11.9134 -2.6633 0.000402195 4
7.82907 13.7817 -2.51042 4.44084e-05 4
10.5837 18.6306 -2.6309 0.000197839 10
10.581 18.6259 -1.87414 0.000201334 10
10.3073 18.1441 1.82566 0.000125729 10
10.7037 18.842 2.66075 0.000206248 10
10.7087 18.8508 3.43379 0.000201584 10
10.286 18.1067 4.04785 0.000163476 10
10.2832 18.1017 4.80636 0.000148108 10
10.2973 18.1264 5.58596 0.000108895 10
4.82393 8.56109 -2.63304 0.000121566 4
5.59711 9.93327 -2.63228 8.30614e-05 4
6.69635 11.8841 -2.65152 0.000324152 4
7.7691 13.7879 -2.50661 5.82832e-05 4
10.4789 18.5971 -2.62099 0.000202411 10
10.4733 18.5871 -1.86655 0.00020598 10
10.1885 18.0817 1.81579 0.000128601 10
10.6705 18.937 2.66889 0.000203804 10
10.6683 18.9331 3.442 0.000199191 10
10.1713 18.0512 4.02749 0.000167227 10
10.1666 18.0428 4.78128 0.000151515 10
10.1859 18.077 5.55975 0.00011141 10
4.79859 8.58605 -2.63555 0.000124149 4
5.55007 9.93068 -2.62644 8.00384e-05 4
6.62027 11.8456 -2.63775 0.000324851 4
7.72814 13.8279 -2.50895 4.28182e-05 4
10.3535 18.5253 -2.60576 0.000207045 10
10.36 18.537 -1.85787 0.00021069 10
10.3654 18.5468 -1.1135 0.000192949 10
10.3651 18.5461 -0.370851 0.000194131 10
10.3568 18.5313 0.370554 0.000194206 10
10.0735 18.0244 1.8065 0.000131511 10
10.6227 19.0071 2.67353 0.000201369 10
10.6232 19.008 3.44885 0.000196807 10
10.0534 17.9885 4.00563 0.000171029 10
10.0498 17.9819 4.75581 0.000154968 10
10.072 18.0216 5.53186 0.000113959 10
4.76508 8.59643 -2.63361 0.00020691 4
5.51959 9.9576 -2.62845 8.00358e-05 4
6.54389 11.8055 -2.62372 0.000235697 4
7.67637 13.8485 -2.50782 5.11413e-05 4
10.2403 18.4741 -2.5935 0.000211743 10
10.2432 18.4793 -1.84849 0.000215463 10
10.3238 18.6247 -1.116 0.00019065 10
10.3195 18.6169 -0.371544 0.000191819 10
10.3243 18.6255 0.371714 0.000191894 10
9.96072 17.9696 1.79751 0.000134461 10
10.5842 19.0944 2.68059 0.000198943 10
10.5948 19.1136 3.46127 0.000194432 10
9.94201 17.9359 3.98616 0.000174882 10
9.94316 17.9379 4.73497 0.000158469 10
9.96672 17.9804 5.5085 0.000116543 10
4.73222 8.60787 -2.63204 0.000147419 4
5.48378 9.97496 -2.62796 9.06037e-05 4
6.48409 11.7945 -2.61623 0.000311878 4
7.63254 13.8835 -2.50932 5.94636e-05 4
10.126 18.4192 -2.58082 0.000216503 10
10.1313 18.4288 -1.8399 0.000220301 10
10.1319 18.4299 -1.10221 0.000147215 10
10.1252 18.4177 -0.36686 0.000148086 10
10.1348 18.4351 0.367208 0.000148115 10
9.85548 17.927 1.7898 0.000137449 10
10.5466 19.1842 2.68801 0.000196526 10
10.5532 19.1961 3.46952 0.000192066 10
9.83402 17.888 3.96788 0.000178785 10
9.84205 17.9026 4.71655 0.000162015 10
9.8516 17.92 5.47941 0.000119161 10
4.69682 8.61458 -2.62906 0.000227589 4
5.45722 10.0092 -2.63196 9.81507e-05 4
6.41488 11.7657 -2.60486 0.000312234 4
7.58441 13.9108 -2.50945 5.58929e-05 4
10.0268 18.3904 -2.57187 0.000221327 10
10.0203 18.3786 -1.83137 0.000225202 10
10.077 18.4825 -1.10324 0.0001973 10
10.0768 18.4821 -0.36744 0.000198505 10
10.084 18.4953 0.367703 0.000198582 10
9.7425 17.869 1.7806 0.000140476 10
10.5128 19.2819 2.69654 0.000194119 10
10.5024 19.2627 3.47491 0.00018971 10
9.72252 17.8324 3.94798 0.000182741 10
9.73026 17.8466 4.6928 0.000165609 10
9.74107 17.8664 5.45259 0.000121814 10
4.6778 8.65141 -2.6353 0.000206893 4
5.4239 10.0313 -2.63276 0.000179685 4
6.34705 11.7386 -2.59394 0.00028648 4
7.53491 13.9355 -2.50915 5.03406e-05 4
9.91182 18.3315 -2.55878 0.000226213 10
9.90307 18.3153 -1.82162 0.000230167 10
9.90453 18.318 -1.09135 0.000153802 10
9.91276 18.3332 -0.363791 0.000154708 10
9.91106 18.3301 0.363728 0.000154738 10
9.63604 17.8215 1.7725 0.000143542 10
10.4648 19.3543 2.70155 0.000191723 10
10.4618 19.3487 3.48381 0.000187364 10
9.61915 17.7902 3.9312 0.000186746 10
9.62348 17.7982 4.67124 0.000180454 10
9.63157 17.8132 5.42607 0.000124501 10
4.64929 8.6709 -2.63628 8.01687e-05 4
5.38047 10.0345 -2.62867 0.000147971 4
6.27619 11.705 -2.58166 0.000429661 4
7.48837 13.9658 -2.50987 5.1527e-05 4
9.79748 18.2722 -2.54571 0.000231163 10
9.8059 18.2879 -1.81548 0.000235196 10
9.84506 18.361 -1.09186 0.000204261 10
9.85174 18.3734 -0.363903 0.000205505 10
9.84899 18.3683 0.363802 0.000205585 10
9.53009 17.7736 1.76441 0.000146647 10
10.4223 19.4375 2.70807 0.000189336 10
10.4215 19.436 3.49296 0.000185027 10
9.50738 17.7312 3.91079 0.000190804 10
9.51986 17.7545 4.651 0.000184385 10
9.52737 17.7685 5.40228 0.000127223 10
4.60895 8.66816 -2.63054 4.13762e-05 4
5.35372 10.0689 -2.63276 5.43549e-05 4
6.21245 11.6839 -2.57221 0.000433929 4
7.4349 13.983 -2.50829 3.9634e-05 4
9.69532 18.2342 -2.53569 0.000236175 10
9.68834 18.2211 -1.80548 0.000240288 10
9.68891 18.2222 -1.08159 0.000160559 10
9.68319 18.2114 -0.360023 0.000161502 10
9.68698 18.2185 0.360164 0.000161533 10
9.68948 18.2233 1.08165 0.000160652 10
9.42173 17.7197 1.75579 0.000255424 10
10.3893 19.5394 2.71719 0.000186959 10
10.388 19.5369 3.50456 0.000182701 10
9.41454 17.7062 3.898 0.000194912 10
9.40179 17.6822 4.62344 0.000188365 10
9.42355 17.7231 5.37846 0.00022187 10
4.57612 8.67939 -2.62908 0.000227563 4
6.14809 11.6609 -2.5624 0.00038453 4
7.38463 14.0062 -2.50781 4.99361e-05 4
9.58082 18.1716 -2.52232 0.00024125 10
9.58286 18.1755 -1.79763 0.000245445 10
9.61292 18.2325 -1.0802 0.000211555 10
9.61556 18.2375 -0.359874 0.000212838 10
9.61106 18.229 0.359705 0.000212921 10
9.60629 18.22 1.07946 0.000211802 10
9.31958 17.6762 1.74824 0.000152973 10
10.3521 19.6346 2.72538 0.000184593 10
10.3535 19.6371 3.51603 0.000180385 10
9.30569 17.6498 3.87842 0.000199071 10
9.30668 17.6517 4.60695 0.000192395 10
9.32486 17.6862 5.35734 0.000132771 10
4.55858 8.71976 -2.63647 0.000103435 4
5.27098 10.0825 -2.62662 0.000271756 4
6.08154 11.6329 -2.55157 0.000294952 4
7.34003 14.0402 -2.5093 4.35926e-05 4
9.47721 18.1282 -2.51169 0.000246388 10
9.48108 18.1356 -1.7904 0.000250665 10
9.567 18.3 -1.08221 0.000208931 10
9.57571 18.3166 -0.360773 0.0002102 10
9.57845 18.3219 0.360876 0.000210283 10
9.57579 18.3168 1.08321 0.000209177 10
9.21317 17.6232 1.73981 0.000156194 10
10.3022 19.7062 2.73032 0.000182238 10
10.3007 19.7034 3.52143 0.000178079 10
9.19366 17.5858 3.85729 0.000203281 10
9.19477 17.588 4.58191 0.000196475 10
9.2117 17.6203 5.32762 0.000135597 10
4.51714 8.71444 -2.63008 9.30884e-05 4
5.23763 10.1044 -2.62756 0.000298921 4
6.0139 11.602 -2.54017 0.000388924 4
7.29092 14.0656 -2.50927 4.67604e-05 4
9.36458 18.0661 -2.49854 0.000251589 10
9.37583 18.0878 -1.78244 0.000255949 10
9.37354 18.0834 -1.06746 0.000219203 10
9.37978 18.0954 -0.355768 0.000220528 10
9.37113 18.0787 0.35544 0.000220614 10
9.37509 18.0864 1.06764 0.00021946 10
9.109 17.573 1.73171 0.000159454 10
10.2618 19.7971 2.73793 0.000179894 10
10.2617 19.7969 3.53172 0.000175785 10
9.09795 17.5517 3.84281 0.000207543 10
9.10218 17.5599 4.56628 0.000200604 10
9.10763 17.5704 5.30288 0.000138457 10
4.49413 8.74464 -2.63444 9.8257e-05 4
5.20554 10.1289 -2.62918 0.000280794 4
5.94314 11.5641 -2.52731 0.000444733 4
7.23999 14.0875 -2.50866 4.83427e-05 4
9.26863 18.0348 -2.48972 0.000256853 10
9.26096 18.0199 -1.77255 0.000261297 10
9.34613 18.1856 -1.07156 0.000216456 10
9.3448 18.183 -0.356847 0.000217766 10
9.3358 18.1655 0.356503 0.000217851 10
9.3317 18.1575 1.06991 0.000216711 10
9.01785 17.5468 1.72602 0.000162753 10
10.2273 19.9001 2.74722 0.000177561 10
10.2246 19.8949 3.54283 0.000173501 10
8.99776 17.5077 3.82629 0.000211855 10
9.00049 17.5131 4.54591 0.000204783 10
9.00933 17.5303 5.28124 0.000141352 10
4.4624 8.75795 -2.63375 0.000160309 4
5.16659 10.14 -2.62737 0.000313995 4
5.87913 11.5384 -2.5172 0.00039315 4
7.19542 14.1218 -2.51028 3.68493e-05 4
9.16898 17.9951 -2.47981 0.000262179 10
9.16031 17.9781 -1.76529 0.000266708 10
9.16455 17.9864 -1.05794 0.000178196 10
9.1595 17.9765 -0.352165 0.000179233 10
9.16182 17.9811 0.352254 0.000179266 10
9.1644 17.9861 1.05792 0.000178296 10
8.91597 17.4986 1.7182 0.000166091 10
10.1893 19.9975 2.75575 0.00017524 10
10.176 19.9715 3.55011 0.000171229 10
8.89403 17.4555 3.80806 0.000216218 10
8.89767 17.4627 4.52474 0.000209011 10
8.90668 17.4803 5.2568 0.000144281 10
4.43428 8.77838 -2.63522 7.75666e-05 4
5.13994 10.1753 -2.63186 0.000276245 4
5.83707 11.5554 -2.51645 0.000119267 4
7.14642 14.1475 -2.5104 5.58652e-05 4
9.06305 17.9418 -2.46808 0.000267569 10
9.05699 17.9298 -1.75743 0.000272184 10
9.10524 18.0253 -1.05835 0.000224353 10
9.10956 18.0339 -0.352663 0.000225706 10
9.11189 18.0385 0.352753 0.000225794 10
9.10699 18.0288 1.05855 0.000224617 10
8.80815 17.4372 1.70914 0.000169467 10
10.145 20.0838 2.76273 0.00017293 10
10.1428 20.0793 3.56295 0.000168968 10
8.79014 17.4015 3.78957 0.000220633 10
8.79078 17.4028 4.50125 0.000213289 10
8.80784 17.4366 5.23436 0.000147245 10
4.39398 8.77457 -2.62946 0.000413676 4
5.09677 10.178 -2.62794 0.000292839 4
5.79237 11.5671 -2.51457 0.000113881 4
7.09141 14.1612 -2.50842 4.87306e-05 4
8.95178 17.8763 -2.45476 0.000273021 10
8.95342 17.8796 -1.74943 0.000277722 10
8.95351 17.8797 -1.04796 0.000185547 10
8.96339 17.8995 -0.349421 0.000186624 10
8.95943 17.8916 0.349266 0.000186658 10
8.95235 17.8774 1.04782 0.00018565 10
8.71513 17.4037 1.70287 0.000172882 10
10.0975 20.1643 2.76894 0.000170631 10
10.0963 20.1618 3.57132 0.000166719 10
8.72233 17.4181 3.78652 6.84471e-05 10
8.6921 17.3577 4.48172 0.000217616 10
8.71299 17.3994 5.21405 0.000150243 10
4.37359 8.81054 -2.63565 0.00013444 4
5.07073 10.2149 -2.63288 0.000291319 4
5.75365 11.5907 -2.51531 0.000126429 4
7.03934 14.1807 -2.5075 5.90279e-05 4
8.86141 17.8512 -2.44705 0.000278536 10
8.85211 17.8325 -1.74179 0.000283325 10
8.87713 17.8829 -1.04632 0.000232647 10
8.88193 17.8925 -0.348678 0.000234045 10
8.87972 17.8881 0.348592 0.000234137 10
8.87502 17.8786 1.04607 0.000232922 10
8.61796 17.3608 1.69571 0.000176335 10
10.063 20.2718 2.77887 0.000168345 10
10.0563 20.2582 3.58217 0.000164481 10
8.66221 17.4499 3.78684 6.84507e-05 10
8.59443 17.3134 4.46249 0.000221993 10
8.61371 17.3522 5.19085 0.000153276 10
4.34284 8.82581 -2.63566 9.56565e-05 4
5.02728 10.2168 -2.62882 0.000101128 4
5.71178 11.6079 -2.51471 0.000120147 4
6.9905 14.2066 -2.50775 5.5063e-05 4
8.75266 17.7878 -2.43415 0.000284113 10
8.75616 17.7949 -1.73512 0.00028899 10
8.84018 17.9656 -1.04935 0.000229648 10
8.83783 17.9608 -0.349406 0.000231029 10
8.84368 17.9727 0.349637 0.00023112 10
8.84018 17.9656 1.04935 0.00022992 10
8.52039 17.3157 1.6884 0.000179826 10
10.0108 20.3447 2.78405 0.000166071 10
10.0131 20.3493 3.59207 0.000162255 10
8.60608 17.4899 3.78897 6.84544e-05 10
8.49956 17.2734 4.44451 0.000226418 10
8.52269 17.3204 5.17241 0.000156343 10
4.30307 8.82261 -2.6302 0.000157699 4
4.9947 10.2407 -2.63046 0.000432651 4
5.91972 12.1372 -2.62489 5.65043e-05 4
6.93924 14.2275 -2.50716 4.43646e-05 4
8.65757 17.7507 -2.42492 0.000289752 10
8.65345 17.7422 -1.72703 0.000294718 10
14.7661 30.2751 -1.76531 3.37386e-05 10
14.7608 30.2642 -0.587748 3.39809e-05 10
14.7618 30.2661 0.587784 3.39885e-05 10
8.42603 17.2759 1.68164 0.000183357 10
9.95034 20.4012 2.78702 0.000163402 10
9.95377 20.4083 3.59632 0.000159611 10
9.89531 20.2884 4.38773 0.000130505 10
8.40661 17.2361 4.42734 0.000230894 10
8.41609 17.2556 5.14424 0.000159444 10
4.271 8.83499 -2.62943 0.000103406 4
4.97656 10.2945 -2.63982 0.000296217 4
5.88172 12.1669 -2.62686 0.00015538 4
6.89002 14.2527 -2.50734 4.83228e-05 4
8.56097 17.7092 -2.41517 0.000295454 10
8.56402 17.7155 -1.72151 0.00030051 10
14.5913 30.1836 -1.75699 3.45635e-05 10
14.5921 30.1852 -0.585221 3.48112e-05 10
14.5944 30.1899 0.585311 3.4819e-05 10
8.32302 17.217 1.67306 0.000186925 10
9.84017 20.3554 2.77604 0.000201825 10
9.83698 20.3488 3.57976 0.000197193 10
9.78668 20.2447 4.37087 0.000133212 10
8.30724 17.1843 4.40657 0.000235417 10
8.32998 17.2314 5.12833 0.000162579 10
4.24097 8.85158 -2.62995 0.000248166 4
4.96966 10.3725 -2.65534 0.000273339 4
5.84011 12.1892 -2.62726 0.000189114 4
6.84687 14.2905 -2.50977 5.86175e-05 4
8.45621 17.6495 -2.40298 0.000301217 10
8.46636 17.6707 -1.71427 0.000306364 10
14.4313 30.1205 -1.75038 3.54009e-05 10
14.4282 30.114 -0.58286 3.5654e-05 10
14.4295 30.1166 0.58291 3.5662e-05 10
8.22906 17.1754 1.66622 0.000190532 10
9.67957 20.2028 4.3545 0.000135951 10
8.21293 17.1417 4.38826 0.00023999 10
8.22405 17.1649 5.09997 0.000165749 10
4.21473 8.8762 -2.63288 5.68695e-05 4
4.95727 10.44 -2.66818 0.000304006 4
5.79174 12.1974 -2.62464 7.53282e-05 4
6.79368 14.3074 -2.50857 5.06931e-05 4
8.36712 17.6211 -2.39513 0.000307043 10
8.36149 17.6092 -1.70547 0.000312282 10
14.2685 30.0494 -1.74334 3.62508e-05 10
14.2661 30.0442 -0.580542 3.65095e-05 10
14.2636 30.0391 0.580442 3.65176e-05 10
8.13465 17.1315 1.6592 0.000194177 10
9.56488 20.1436 4.33451 0.000138722 10
8.11911 17.0988 4.36999 0.000244612 10
8.13157 17.125 5.07966 0.000168953 10
4.18509 8.89376 -2.63374 9.82259e-05 4
4.94316 10.5047 -2.6803 0.000286058 4
5.75762 12.2356 -2.62852 0.000130249 4
6.74341 14.3305 -2.50846 5.2274e-05 4
8.26518 17.5644 -2.38348 0.00031293 10
8.26348 17.5608 -1.69797 0.000318261 10
14.1025 29.9693 -1.73583 3.71131e-05 10
14.0973 29.9583 -0.577928 3.73773e-05 10
14.1045 29.9737 0.578223 3.73856e-05 10
8.04623 17.0991 1.65333 0.000197859 10
9.4552 20.0933 4.31657 0.000141524 10
8.02444 17.0528 4.35105 0.000249282 10
8.04391 17.0942 5.06215 0.00017219 10
4.1554 8.91128 -2.63461 0.000227463 4
4.92412 10.5598 -2.68995 0.000313303 4
5.70478 12.2339 -2.62388 0.000100428 4
6.69915 14.3664 -2.51064 3.00952e-05 4
8.16908 17.5186 -2.37339 0.000318879 10
8.16673 17.5136 -1.69064 0.000324304 10
13.8183 29.6335 -1.71358 3.9505e-05 10
13.8257 29.6493 -0.571032 3.97847e-05 10
13.8205 29.6382 0.570818 3.97933e-05 10
7.94012 17.0276 1.64373 0.000280532 10
7.94008 17.0275 2.30685 0.000275983 10
7.93579 17.0184 2.97409 0.000269992 10
7.94066 17.0288 3.65225 0.000262634 10
7.93878 17.0248 4.3368 0.000254002 10
7.93963 17.0266 5.0339 0.000244204 10
4.12487 8.92704 -2.635 0.000126651 4
4.90956 10.6253 -2.70224 0.000251464 4
5.66613 12.2626 -2.62577 9.1008e-05 4
6.64098 14.3724 -2.50762 5.26633e-05 4
8.07971 17.4861 -2.36514 0.000324889 10
8.0766 17.4794 -1.6846 0.000330408 10
13.6627 29.5687 -1.70706 4.04241e-05 10
13.6578 29.5581 -0.568354 4.07096e-05 10
13.6653 29.5745 0.568668 4.07184e-05 10
7.84318 16.9742 1.63592 0.000285759 10
7.84178 16.9712 2.29549 0.000281131 10
7.84424 16.9765 2.96197 0.000275036 10
7.83768 16.9623 3.63209 0.000267551 10
7.8381 16.9632 4.31412 0.000258769 10
7.8482 16.985 5.01349 0.000248801 10
4.09359 8.94118 -2.63494 0.000126647 4
4.87832 10.6552 -2.7055 0.000228485 1
5.62327 12.2823 -2.62576 0.000120815 4
6.59447 14.4036 -2.50903 4.47411e-05 4
7.98377 17.4381 -2.35486 0.000330962 10
7.98906 17.4496 -1.67904 0.000336575 10
13.5013 29.4895 -1.69975 4.13561e-05 10
13.4963 29.4785 -0.565914 4.16476e-05 10
13.5067 29.5012 0.566349 4.16566e-05 10
7.78301 16.9996 1.63573 0.00033329 10
7.78995 17.0147 2.29769 0.000327965 10
7.78657 17.0073 2.96259 0.000320926 10
7.78155 16.9964 3.63356 0.000312261 10
7.7885 17.0116 4.31948 0.00030208 10
7.78711 17.0085 5.01236 0.000290512 10
4.05959 8.94932 -2.63315 3.10145e-05 4
4.84234 10.6749 -2.70619 0.000228475 1
5.58658 12.3155 -2.62868 0.000150619 4
6.53979 14.4169 -2.50736 5.26565e-05 4
7.89489 17.4042 -2.34655 0.000337094 10
7.89307 17.4002 -1.67162 0.000342803 10
13.3651 29.4632 -1.69554 4.86031e-05 10
13.3654 29.4638 -0.564732 4.89588e-05 10
13.3542 29.4392 0.56426 4.89828e-05 10
7.75182 17.0888 1.64171 0.000328809 10
7.75597 17.0979 2.30526 0.00032355 10
7.74639 17.0768 2.96997 0.0003166 10
7.75024 17.0853 3.64676 0.000308044 10
7.75532 17.0965 4.33415 0.000297991 10
7.74651 17.0771 5.02457 0.000286567 10
4.03151 8.97051 -2.63523 0.000193834 4
4.80233 10.6856 -2.70466 0.000228466 1
5.52206 12.2871 -2.61849 0.000226948 4
6.49076 14.4426 -2.50787 6.05707e-05 4
7.80091 17.3578 -2.33661 0.000343287 10
7.80015 17.3561 -1.66476 0.000349093 10
7.79585 17.3465 -0.996682 0.000353027 10
7.79314 17.3405 -0.331842 0.000355037 10
7.79795 17.3512 0.332047 0.000355098 10
7.79353 17.3414 0.996385 0.00035321 10
7.71582 17.1685 1.64676 0.000324352 10
7.72105 17.1801 2.31269 0.00031916 10
7.71794 17.1732 2.98203 0.000312297 10
7.71417 17.1648 3.65796 0.00030385 10
7.7138 17.164 4.3444 0.000293924 10
7.7071 17.1491 5.0378 0.000282646 10
3.9981 8.97989 -2.63386 0.000173152 4
4.76806 10.7092 -2.7064 0.000228456 1
5.46948 12.2846 -2.61387 0.000297614 4
6.9242 15.552 -2.69631 5.13381e-05 1
7.7033 17.3019 -2.32545 0.000349541 10
7.70889 17.3145 -1.65818 0.000355445 10
7.70976 17.3164 -0.993398 0.000359445 10
7.7023 17.2997 -0.330544 0.000361489 10
7.70877 17.3142 0.330821 0.000361551 10
7.71263 17.3228 0.993767 0.00035963 10
7.68194 17.2539 1.65238 0.00031992 10
7.67591 17.2404 2.31718 0.000314795 10
7.67828 17.2457 2.98994 0.000308019 10
7.68172 17.2534 3.67111 0.000299679 10
7.68083 17.2514 4.35972 0.00028988 10
7.67117 17.2297 5.0536 0.000278746 10
3.96398 8.98754 -2.63203 0.000170562 4
4.72838 10.7207 -2.7051 0.000228446 1
5.4096 12.2652 -2.6057 0.000295331 4
6.87053 15.5776 -2.69656 5.13345e-05 1
7.61708 17.2702 -2.31761 0.000355855 10
7.61135 17.2572 -1.65014 0.000361857 10
7.61621 17.2683 -0.989105 0.000365923 10
7.62102 17.2792 -0.329642 0.000368001 10
7.61913 17.2749 0.32956 0.000368064 10
7.62089 17.2789 0.989713 0.000366112 10
7.61179 17.2582 1.65024 0.000282387 10
7.61937 17.2754 2.3183 0.0002778 10
7.62083 17.2787 2.99104 0.000271758 10
7.61512 17.2658 3.66806 0.000264338 10
7.61166 17.2579 4.35462 0.000255634 10
7.60848 17.2507 5.05193 0.000245756 10
3.93213 9.00028 -2.63173 0.000206734 4
4.6883 10.7311 -2.70359 0.000228437 1
5.34795 12.241 -2.59657 0.000239901 4
6.81041 15.5884 -2.69431 5.1331e-05 1
7.52748 17.2297 -2.30863 0.00036223 10
7.53209 17.2403 -1.646 0.000368331 10
7.52404 17.2218 -0.984936 0.000372464 10
7.52812 17.2312 -0.328223 0.000374576 10
7.5282 17.2314 0.328227 0.00037464 10
7.53185 17.2397 0.985958 0.000372655 10
7.53122 17.2383 1.6458 0.000287438 10
7.52418 17.2222 2.30762 0.000282774 10
7.52648 17.2274 2.9776 0.000276632 10
7.52251 17.2183 3.65238 0.000269089 10
7.52965 17.2347 4.3421 0.00026024 10
7.52114 17.2152 5.03382 0.000250197 10
3.90169 9.01627 -2.63241 0.0001137 4
4.6596 10.7677 -2.70869 0.000228427 1
5.28137 12.2045 -2.58492 0.000252093 4
6.75774 15.6162 -2.69502 5.13274e-05 1
7.43513 17.1816 -2.29869 0.000368664 10
7.43684 17.1855 -1.63828 0.000374865 10
7.43375 17.1784 -0.98096 0.000379065 10
7.44238 17.1983 -0.3271 0.000381212 10
7.43575 17.183 0.326809 0.000381276 10
7.44162 17.1966 0.981999 0.000379258 10
7.43274 17.176 1.63738 0.000292535 10
7.43438 17.1798 2.29845 0.000287795 10
7.43884 17.1901 2.96664 0.000281551 10
7.43478 17.1807 3.63888 0.000273884 10
7.44065 17.1943 4.32536 0.000264889 10
7.4347 17.1806 5.01607 0.00025468 10
3.8662 9.02052 -2.62969 0.000167959 4
4.62375 10.788 -2.70973 0.000228417 1
5.22573 12.1925 -2.5785 0.000264402 4
6.70762 15.65 -2.6968 5.13238e-05 1
7.34425 17.1354 -2.28907 0.000375158 10
7.35081 17.1507 -1.63251 0.00038146 10
7.35313 17.1561 -0.978218 0.000385729 10
7.35252 17.1547 -0.325781 0.00038791 10
7.34645 17.1405 0.325512 0.000387975 10
7.35364 17.1573 0.978287 0.000385924 10
7.35336 17.1567 1.63307 0.000297681 10
7.34288 17.1322 2.28864 0.000292863 10
7.34152 17.129 2.95166 0.000286517 10
7.34442 17.1358 3.62391 0.000278724 10
7.35067 17.1504 4.30783 0.000269582 10
7.34182 17.1298 4.99372 0.000259205 10
3.84213 9.05148 -2.63479 0.000196376 4
4.58157 10.7935 -2.70708 0.000228406 1
5.16699 12.1727 -2.57046 0.000270337 4
6.65262 15.6726 -2.69666 5.13201e-05 1
7.2582 17.0992 -2.28084 0.000381711 10
7.25829 17.0995 -1.6252 0.000388115 10
7.3043 17.2079 -0.979707 0.000422433 10
7.30649 17.213 -0.326401 0.000424924 10
7.30962 17.2204 0.326541 0.000425096 10
7.30702 17.2143 0.980072 0.000422946 10
7.2554 17.0927 1.62456 0.000302872 10
7.25459 17.0907 2.27971 0.000297976 10
7.25746 17.0975 2.94184 0.000291528 10
