VERSION 0.7
FIELDS x y z intensity label
SIZE 4 4 4 4 4
TYPE F F F F F
COUNT 1 1 1 1 1
WIDTH 1173
HEIGHT 1
VIEWPOINT 11.1339 7.48223 2.72939 0.99998 -9.14413e-05 0.000564289 -0.00626375
POINTS 1173
DATA ascii
16.9369 -12.3054 3.31581 0.00022573 10
17.0282 -12.3717 4.09133 0.000160739 10
17.0162 -12.363 4.85589 0.000155207 10
16.9964 -12.3486 5.62928 6.70885e-05 10
7.99468 -5.76594 -2.64118 0.000259488 4
8.88773 -6.41003 -2.52988 0.000248643 4
11.3395 -8.17831 -2.71764 0.000115472 1
13.9027 -10.0269 -2.71491 4.98005e-05 1
17.1603 -12.3764 -2.59785 0.000212507 10
17.1561 -12.3734 -1.85061 0.000216188 10
19.9817 -14.4112 -1.29114 8.07102e-05 10
19.9614 -14.3966 -0.429594 8.11958e-05 10
19.969 -14.4021 0.429757 8.11917e-05 10
17.1402 -12.3619 1.10753 0.000170471 10
17.1504 -12.3692 1.84999 0.000168524 10
16.9562 -12.2292 2.56695 0.000233743 10
16.9561 -12.2291 3.31118 0.000228491 10
17.1558 -12.3732 4.11158 0.000157221 10
17.1566 -12.3738 4.88361 0.000151801 10
17.0348 -12.2858 5.62773 6.7085e-05 10
8.01607 -5.73894 -2.64161 0.000190808 4
8.90814 -6.37761 -2.52934 0.000184811 4
11.3621 -8.13444 -2.71622 0.000115479 1
13.9423 -9.9817 -2.71583 4.98044e-05 1
17.2649 -12.3605 -2.60714 0.000207834 10
17.284 -12.3741 -1.85974 0.00021144 10
19.7981 -14.174 -1.27607 0.000114236 10
19.7915 -14.1693 -0.424869 0.000114953 10
19.8039 -14.1782 0.425136 0.000114981 10
17.2825 -12.373 1.11393 0.00016673 10
17.2782 -12.37 1.85911 0.000164822 10
16.9381 -12.1265 2.55779 0.000236573 10
16.9387 -12.1269 3.29949 0.000231261 10
17.27 -12.3641 4.12858 0.000153749 10
17.281 -12.372 4.90668 0.000148439 10
17.0663 -12.2183 5.62403 6.70817e-05 10
8.04659 -5.71842 -2.64508 0.000139931 4
8.93756 -6.35159 -2.53138 0.000220104 4
11.3973 -8.09963 -2.71787 0.000115486 1
13.9815 -9.9361 -2.71668 4.98083e-05 1
17.3938 -12.3612 -2.62007 0.000203222 10
17.3985 -12.3645 -1.86741 0.000206754 10
19.8993 -14.1417 -1.27941 8.28771e-05 10
19.8857 -14.132 -0.425831 8.33738e-05 10
19.8835 -14.1305 0.425784 8.33696e-05 10
17.391 -12.3591 1.11813 0.000163039 10
17.39 -12.3584 1.86649 0.000161169 10
16.9537 -12.0483 2.55377 0.000239414 10
16.9483 -12.0445 3.29315 0.000234043 10
17.4047 -12.3689 4.15044 0.000150324 10
17.3947 -12.3617 4.92668 0.000145123 10
17.1237 -12.1692 5.62891 6.70783e-05 10
8.07445 -5.6959 -2.64769 0.000526671 4
8.95582 -6.31764 -2.53029 0.000208352 4
11.424 -8.05875 -2.71751 0.000115493 1
14.0005 -9.87625 -2.71367 4.98122e-05 1
17.5329 -12.3681 -2.6345 0.000198672 10
17.5316 -12.3672 -1.87705 0.000202131 10
27.1822 -19.1749 -1.74334 4.57499e-05 10
17.5352 -12.3697 1.12462 0.000159396 10
17.5212 -12.3598 1.87593 0.000157565 10
17.0329 -12.0154 2.55937 0.000172391 10
17.0161 -12.0035 3.29817 0.000168473 10
17.5383 -12.3719 4.17198 0.000146944 10
17.5369 -12.3709 4.95471 0.000141851 10
17.1676 -12.1104 5.62943 6.7075e-05 10
8.07937 -5.65724 -2.64281 0.00012722 4
8.97829 -6.28667 -2.53042 0.000233567 4
11.4553 -8.02108 -2.71828 0.000115499 1
14.0393 -9.83045 -2.71453 4.9816e-05 1
17.6603 -12.3659 -2.64714 0.000194184 10
17.649 -12.358 -1.88499 0.00019757 10
19.7983 -13.8629 -1.26666 8.51472e-05 10
19.7967 -13.8618 -0.421841 8.56556e-05 10
19.794 -13.8599 0.421785 8.56513e-05 10
17.6465 -12.3562 1.12899 0.000155802 10
17.6658 -12.3697 1.88678 0.00015401 10
17.657 -12.3636 4.18992 0.00014361 10
17.6582 -12.3644 4.97675 0.000138625 10
17.2102 -12.0507 5.62956 6.70717e-05 10
8.09965 -5.62941 -2.643 0.00038931 4
8.99107 -6.24896 -2.52786 0.000263826 4
11.4815 -7.97983 -2.71786 0.000115506 1
14.0835 -9.78828 -2.71644 4.98198e-05 1
17.7737 -12.3531 -2.65766 0.000189757 10
17.777 -12.3553 -1.89403 0.000193072 10
17.9843 -12.4994 -1.1478 0.000173639 10
17.9705 -12.4899 -0.381998 0.000174686 10
17.9771 -12.4944 0.382136 0.000174726 10
17.7846 -12.3606 1.13506 0.000152258 10
17.7895 -12.364 1.89536 0.000150503 10
17.7935 -12.3668 4.21204 0.000140323 10
17.7748 -12.3538 4.99742 0.000135443 10
17.2797 -12.0097 5.63855 0.000144901 10
8.11903 -5.60094 -2.64293 0.00023156 4
9.02936 -6.22894 -2.5325 0.000211743 4
11.5168 -7.94489 -2.71964 0.000115513 1
14.1103 -9.73404 -2.71504 4.98237e-05 1
17.9186 -12.3612 -2.67286 0.000185391 10
17.9156 -12.3591 -1.90419 0.000188636 10
17.9779 -12.4021 -1.14463 0.000175695 10
17.9775 -12.4019 -0.381224 0.000176754 10
17.97 -12.3966 0.381063 0.000176794 10
17.9164 -12.3597 1.14071 0.000148763 10
17.9215 -12.3632 1.90482 0.000147045 10
17.9167 -12.3599 4.23096 0.000137081 10
17.9184 -12.3611 5.02564 0.000132305 10
17.4123 -12.012 5.6681 0.000141569 10
8.1294 -5.56632 -2.63996 0.000267195 4
9.04088 -6.19042 -2.52965 0.000258809 4
11.5283 -7.89358 -2.71584 0.00011552 1
14.1414 -9.68283 -2.71451 4.98275e-05 1
18.0356 -12.3492 -2.68386 0.000181087 10
18.0504 -12.3594 -1.91392 0.000184263 10
18.0366 -12.3499 -1.14561 0.000123122 10
18.0405 -12.3526 -0.381641 0.00012383 10
18.0557 -12.363 0.381963 0.000123824 10
18.0393 -12.3518 1.14578 0.000145317 10
18.0451 -12.3557 1.91336 0.000143635 10
18.128 -12.4125 2.69762 0.000126241 10
18.1076 -12.3985 3.47584 0.000123352 10
18.0567 -12.3637 4.25381 0.000133886 10
18.0435 -12.3547 5.04861 0.000129212 10
17.5236 -11.9986 5.69064 0.000138284 10
8.16572 -5.54942 -2.64545 0.000302832 4
9.05354 -6.15278 -2.52717 0.000191595 4
10.753 -7.30773 -2.52717 0.000123541 4
14.1659 -9.62711 -2.71274 4.98312e-05 1
18.1704 -12.3486 -2.6975 0.000176845 10
18.1683 -12.3472 -1.92184 0.000179951 10
18.2344 -12.3921 -1.15542 0.000169978 10
18.2443 -12.3988 -0.385036 0.000171006 10
18.2399 -12.3958 0.384943 0.000171046 10
18.1749 -12.3517 1.15165 0.000141919 10
18.1741 -12.3511 1.92246 0.000140274 10
18.1573 -12.3397 2.69555 0.000198816 10
18.1474 -12.3329 3.47519 0.000194268 10
18.1833 -12.3574 4.27344 0.000130736 10
18.1832 -12.3573 5.07559 0.000126164 10
17.6649 -12.0051 5.7229 0.000135046 10
8.16828 -5.50958 -2.64003 8.39821e-05 4
9.09357 -6.13369 -2.53235 0.000238664 4
10.7803 -7.27143 -2.52761 0.000143701 4
14.2028 -9.57991 -2.71339 4.9835e-05 1
18.306 -12.3475 -1.93184 0.000175702 10
18.3245 -12.3601 -1.15839 0.000117407 10
18.3142 -12.3531 -0.385598 0.000118085 10
18.3048 -12.3468 0.385401 0.000118079 10
18.3257 -12.3608 1.15846 0.000138571 10
18.312 -12.3516 1.93247 0.000136962 10
18.151 -12.243 2.68825 0.000201126 10
18.1434 -12.2379 3.46623 0.000196529 10
18.3111 -12.351 4.29331 0.000127632 10
18.3051 -12.347 5.09757 0.00012316 10
18.1553 -12.2459 5.86787 0.000176785 10
8.20963 -5.49587 -2.64718 0.000287586 4
9.09823 -6.09074 -2.52772 0.000201697 4
10.8034 -7.23228 -2.5271 0.000106029 4
14.2516 -9.5406 -2.71633 4.98388e-05 1
18.4433 -12.3467 -1.94177 0.000171515 10
18.513 -12.3934 -1.16756 0.000164499 10
18.5053 -12.3882 -0.38871 0.000165498 10
18.5077 -12.3898 0.388759 0.000165535 10
18.4489 -12.3505 1.16352 0.000135272 10
18.4518 -12.3524 1.94267 0.000133698 10
18.1548 -12.1536 2.68251 0.000203443 10
18.1338 -12.1395 3.45628 0.000198796 10
18.453 -12.3532 4.31645 0.000124573 10
18.4626 -12.3597 5.12938 0.0001202 10
18.1362 -12.1412 5.84799 0.000178842 10
8.21306 -5.45675 -2.64213 0.000498841 4
9.1363 -6.07015 -2.53239 0.000243728 4
10.8259 -7.19274 -2.52647 0.000129696 4
14.2638 -9.47684 -2.71234 4.98426e-05 1
18.5812 -12.3453 -1.95173 0.000167389 10
18.5848 -12.3477 -1.16937 0.000111857 10
18.5996 -12.3575 -0.389781 0.000112505 10
18.5823 -12.346 0.389418 0.000112499 10
18.5924 -12.3528 1.16984 0.000132021 10
18.5897 -12.351 1.95263 0.000130482 10
18.1546 -12.0619 2.67624 0.000205767 10
18.136 -12.0495 3.44866 0.000201071 10
18.5991 -12.3572 4.34051 0.00012156 10
18.6019 -12.3591 5.15604 0.000117285 10
18.1433 -12.0544 5.83667 0.000180905 10
8.22867 -5.42581 -2.64104 0.000318151 4
9.14797 -6.03197 -2.52977 0.000158011 4
10.8525 -7.15592 -2.52683 7.53682e-05 4
14.2978 -9.42765 -2.71252 4.98463e-05 1
18.7194 -12.3431 -1.96171 0.000163326 10
18.7908 -12.3903 -1.1796 0.000159245 10
18.7876 -12.3882 -0.392813 0.000160215 10
18.7769 -12.3811 0.392589 0.000160251 10
18.7175 -12.3419 1.175 0.000128818 10
18.7391 -12.3561 1.96378 0.000127314 10
18.1843 -11.9904 2.67444 0.000139568 10
18.195 -11.9974 3.45188 0.000136344 10
18.7176 -12.342 4.35807 0.000118592 10
18.7286 -12.3493 5.1792 0.000114414 10
18.1836 -11.9899 5.83614 0.000122559 10
8.25926 -5.40471 -2.64479 0.000226532 4
9.16821 -5.99951 -2.52956 0.000206768 4
10.8966 -7.13056 -2.53129 0.000119194 4
14.3471 -9.38848 -2.71565 4.985e-05 1
18.8686 -12.3472 -1.97282 0.000159323 10
18.8612 -12.3424 -1.1813 0.000106472 10
18.8711 -12.3489 -0.393654 0.000107091 10
18.8648 -12.3448 0.393523 0.000107085 10
18.864 -12.3442 1.18148 0.000125664 10
18.8679 -12.3468 1.97275 0.000124194 10
18.8791 -12.3542 2.77028 0.000122016 10
18.8707 -12.3486 3.57188 0.000119162 10
18.8737 -12.3506 4.38437 0.00011567 10
18.8655 -12.3452 5.2051 0.000111586 10
18.8611 -12.3424 6.03972 0.000106967 10
8.26218 -5.36552 -2.63971 0.000394537 4
9.20121 -5.97534 -2.5329 0.000238719 4
10.9147 -7.08812 -2.52973 9.55355e-05 4
14.363 -9.32746 -2.71248 4.98537e-05 1
18.9974 -12.337 -1.98177 0.000155382 10
19.064 -12.3803 -1.19129 0.000154202 10
19.0407 -12.3652 -0.39629 0.000155144 10
19.0607 -12.3782 0.396706 0.00015518 10
19.0186 -12.3508 1.18846 0.000122558 10
19.0085 -12.3442 1.98293 0.000121121 10
19.0093 -12.3448 2.78304 0.000118994 10
19.0054 -12.3422 3.5892 0.000116205 10
19.0151 -12.3485 4.40716 0.000112792 10
19.0054 -12.3423 5.23179 0.000108803 10
19.0035 -12.341 6.07149 0.00010429 10
7.94524 -5.12036 -2.53272 0.000350564 4
9.22099 -5.94252 -2.53262 0.000240411 4
10.9323 -7.04537 -2.52808 0.000104306 4
14.396 -9.27761 -2.71259 4.98574e-05 1
19.1526 -12.343 -1.99346 0.000151502 10
19.3159 -12.4483 -1.20431 0.000147706 10
19.3205 -12.4512 -0.401207 0.000148613 10
19.3244 -12.4538 0.401288 0.000148647 10
19.1439 -12.3374 1.19358 0.0001195 10
19.1434 -12.3371 1.9925 0.000118097 10
19.1633 -12.3499 2.79924 0.000116018 10
19.1478 -12.3399 3.60794 0.000113293 10
19.1624 -12.3493 4.43128 0.00010996 10
19.1438 -12.3373 5.258 0.000106063 10
19.1428 -12.3367 6.10219 0.000101655 10
7.94971 -5.08405 -2.52847 0.000204024 4
9.22257 -5.89808 -2.52738 0.000189983 4
10.947 -7.00091 -2.52582 8.15211e-05 4
14.4378 -9.23339 -2.71437 4.98611e-05 1
19.3031 -12.3448 -2.00462 0.000147683 10
19.3145 -12.3521 -1.20153 0.000149359 10
19.3337 -12.3644 -0.400582 0.000150275 10
19.3326 -12.3637 0.400559 0.000150309 10
19.2929 -12.3383 1.20018 0.000116491 10
19.3037 -12.3453 2.00469 0.000115119 10
19.293 -12.3384 2.81188 0.000113089 10
19.3079 -12.3479 3.62997 0.000110428 10
19.2882 -12.3353 4.45039 0.000107173 10
19.2966 -12.3407 5.28811 0.000103367 10
19.31 -12.3493 6.14171 9.90622e-05 10
7.98583 -5.06796 -2.53432 0.000454043 4
9.264 -5.87911 -2.53309 0.000220256 4
10.9921 -6.97581 -2.5306 8.85386e-05 4
14.4731 -9.18491 -2.71496 4.98648e-05 1
19.4476 -12.3418 -2.01515 0.000143925 10
19.5896 -12.432 -1.21594 0.000216681 10
19.6009 -12.4391 -0.405216 0.000218015 10
19.6034 -12.4407 0.405267 0.000218065 10
19.4327 -12.3324 1.20619 0.000113529 10
19.4334 -12.3328 2.01367 0.00011219 10
19.4558 -12.347 2.82932 0.000110207 10
19.4378 -12.3356 3.64626 0.000107609 10
19.4357 -12.3342 4.47446 0.00010443 10
19.4473 -12.3416 5.31755 0.000100714 10
19.4404 -12.3373 6.16946 9.65113e-05 10
8.00448 -5.04069 -2.53464 0.000439691 4
9.29722 -5.85477 -2.53657 0.000625819 4
11.0056 -6.93058 -2.52811 0.00012624 4
14.4951 -9.12804 -2.71309 4.98684e-05 1
19.5809 -12.3307 -2.02448 0.000140228 10
19.5849 -12.3333 -1.21296 0.000219077 10
19.6048 -12.3458 -0.404403 0.000220425 10
19.5933 -12.3386 0.404166 0.000142714 10
19.5834 -12.3323 1.21287 0.000110615 10
19.5828 -12.3319 2.02468 0.000109307 10
19.5977 -12.3413 2.84367 0.000107372 10
19.6004 -12.343 3.66867 0.000104835 10
19.6035 -12.345 4.50315 0.000101732 10
19.6039 -12.3452 5.34855 9.81043e-05 10
19.5939 -12.339 6.20447 9.40023e-05 10
8.00006 -4.999 -2.5277 0.000341995 4
9.37025 -5.85518 -2.55091 0.000582793 4
11.0205 -6.8864 -2.52601 0.000106959 4
14.5422 -9.08699 -2.71596 4.98721e-05 1
19.734 -12.3312 -2.03585 0.000136591 10
19.7498 -12.3411 -1.2205 0.000138212 10
19.7313 -12.3295 -0.406123 0.000139025 10
19.7337 -12.331 0.406172 0.000139018 10
19.7425 -12.3365 1.22005 0.000107748 10
19.7471 -12.3394 2.03721 0.000106472 10
19.7437 -12.3372 2.85859 0.000104583 10
19.7479 -12.3399 3.68819 0.000102107 10
19.7329 -12.3305 4.52296 9.90778e-05 10
19.742 -12.3361 5.37445 9.55377e-05 10
19.7377 -12.3335 6.23632 9.15348e-05 10
8.03941 -4.98465 -2.53462 0.000965402 4
9.43717 -5.8513 -2.56355 0.000532864 4
11.0649 -6.86052 -2.53067 0.000114856 4
14.5608 -9.02806 -2.71352 4.98757e-05 1
19.8796 -12.3259 -2.04642 0.000133013 10
19.8963 -12.3363 -1.22689 0.000134596 10
19.8867 -12.3303 -0.408432 0.000135389 10
19.9038 -12.3409 0.408783 0.000135382 10
19.7817 -12.2652 1.21982 0.000168601 10
19.7574 -12.2501 2.03384 0.000166652 10
19.7785 -12.2632 2.85741 0.000163742 10
19.7676 -12.2565 3.68386 0.000159913 10
19.7573 -12.25 4.51872 0.000155217 10
19.7704 -12.2582 5.37051 0.000149718 10
19.7561 -12.2493 6.22857 0.000143491 10
8.08392 -4.97326 -2.54316 0.000711277 4
9.47949 -5.83182 -2.5695 0.000333491 4
11.0695 -6.80998 -2.52626 0.000131522 4
14.5972 -8.98023 -2.71444 4.98793e-05 1
27.1408 -16.6972 -1.67001 5.80644e-05 10
27.5116 -16.9253 -0.563816 3.48765e-05 10
27.496 -16.9156 0.563495 3.48743e-05 10
19.7776 -12.1672 1.21694 0.000170424 10
19.7678 -12.1612 2.03053 0.000168456 10
19.7568 -12.1545 2.84813 0.000165517 10
19.7604 -12.1567 3.67459 0.00016165 10
19.766 -12.1601 4.51098 0.000156906 10
19.7728 -12.1643 5.35959 0.000151352 10
19.7733 -12.1646 6.22058 0.000145062 10
8.15194 -4.97597 -2.55908 0.000870223 4
9.54762 -5.8279 -2.58244 0.000288898 4
11.1085 -6.78067 -2.52976 0.000126268 4
14.6239 -8.92649 -2.71361 4.98829e-05 1
27.1412 -16.5671 -1.66646 5.87762e-05 10
19.7752 -12.0708 1.21419 0.000172251 10
19.7584 -12.0606 2.02523 0.000170263 10
19.7634 -12.0636 2.84299 0.000167296 10
19.7757 -12.0711 3.66956 0.00016339 10
19.7663 -12.0654 4.5014 0.000158599 10
19.7538 -12.0578 5.343 0.000152989 10
19.7688 -12.0669 6.20588 0.000146637 10
8.21284 -4.97387 -2.57273 0.000818515 4
9.60973 -5.81986 -2.59373 9.59634e-05 4
11.1181 -6.73334 -2.52656 0.000120136 4
14.655 -8.87539 -2.71361 4.98865e-05 1
27.1514 -16.4435 -1.66356 5.94904e-05 10
19.7634 -11.9691 1.21089 0.000108256 10
19.7652 -11.9702 2.02163 0.000106977 10
19.769 -11.9725 2.83776 0.000105084 10
19.7758 -11.9767 3.66181 0.000102602 10
19.7788 -11.9785 4.4947 9.95667e-05 10
19.7672 -11.9714 5.33528 9.60184e-05 10
19.7657 -11.9706 6.19177 9.20058e-05 10
8.25595 -4.96067 -2.5808 0.000768271 4
9.6725 -5.81183 -2.60518 0.000603786 4
11.1533 -6.70156 -2.52923 0.000128912 4
14.6856 -8.82397 -2.71355 4.98901e-05 1
27.1509 -16.3139 -1.66003 6.0207e-05 10
19.9318 -11.9762 1.21864 0.000105343 10
19.9274 -11.9736 2.03394 0.000104096 10
19.9405 -11.9815 2.85637 0.00010225 10
19.9171 -11.9674 3.68022 9.98298e-05 10
19.922 -11.9703 4.51772 9.68698e-05 10
19.9205 -11.9694 5.36535 9.34103e-05 10
19.9293 -11.9747 6.22986 8.94983e-05 10
8.32063 -4.96009 -2.59559 0.000823909 4
9.73303 -5.80205 -2.61601 0.000445129 4
11.159 -6.65213 -2.52526 0.000117518 4
14.707 -8.76713 -2.71184 4.98936e-05 1
27.1391 -16.1782 -1.65584 6.09258e-05 10
26.7736 -15.9603 1.63354 5.05099e-05 10
26.7729 -15.9599 2.72694 4.98504e-05 10
26.7747 -15.9609 3.82732 4.88678e-05 10
26.7694 -15.9577 4.93603 4.75776e-05 10
26.7614 -15.953 6.05602 4.60001e-05 10
26.7709 -15.9587 7.1954 4.41601e-05 10
26.7718 -15.9592 8.35136 4.20862e-05 10
8.36285 -4.94578 -2.60336 0.000751832 4
9.80118 -5.79641 -2.62887 0.000495826 4
11.1941 -6.62018 -2.52795 0.000123664 4
14.7549 -8.72604 -2.71504 4.98971e-05 1
27.1524 -16.0579 -1.65322 6.16466e-05 10
26.7957 -15.8469 1.6315 3.09722e-05 10
26.7863 -15.8414 2.72264 3.05582e-05 10
26.7752 -15.8348 3.81948 4.94439e-05 10
26.8109 -15.8559 4.93344 2.91468e-05 10
8.43416 -4.94829 -2.62016 0.000900043 4
9.86507 -5.7878 -2.64057 0.000469341 4
11.212 -6.57805 -2.52679 0.00013595 4
14.7678 -8.6642 -2.71182 4.99007e-05 1
27.1412 -15.9236 -1.64914 6.23696e-05 10
27.0136 -15.8488 1.64139 3.00082e-05 10
26.9978 -15.8395 2.7385 2.9606e-05 10
26.775 -15.7088 3.8116 5.00216e-05 10
8.49265 -4.94284 -2.63296 0.000707704 4
9.89917 -5.76146 -2.6443 0.000235713 4
11.2368 -6.53999 -2.52722 9.20999e-05 4
14.7965 -8.61179 -2.71157 4.99042e-05 1
27.1472 -15.8 -1.64615 6.30947e-05 10
26.7673 -15.5789 3.80273 5.0601e-05 10
8.53844 -4.92967 -2.6418 0.000651336 4
9.91188 -5.72263 -2.64235 0.000126016 4
11.2699 -6.50666 -2.52953 0.000115789 4
14.8366 -8.56594 -2.71342 4.99077e-05 1
27.1422 -15.6705 -1.64252 6.38216e-05 10
26.7734 -15.4576 3.79591 5.11818e-05 10
8.61488 -4.93379 -2.66011 0.00067596 4
9.94217 -5.69393 -2.6451 0.00014826 4
11.2735 -6.45638 -2.52527 0.000111409 4
14.8625 -8.51182 -2.7127 4.99112e-05 1
27.131 -15.538 -1.63855 6.45504e-05 10
26.7777 -15.3358 3.78892 5.17641e-05 10
8.6729 -4.92689 -2.6727 0.000621605 4
9.94814 -5.65133 -2.64143 0.000260949 4
11.3156 -6.42816 -2.52967 0.000103519 4
14.8881 -8.45759 -2.71196 4.99147e-05 1
27.1408 -15.4181 -1.63588 6.52809e-05 10
26.7667 -15.2056 3.77982 5.23478e-05 10
8.7374 -4.92327 -2.68726 0.000782362 4
9.96789 -5.61662 -2.64145 0.000124549 4
11.3384 -6.38889 -2.52977 0.000121948 4
14.9328 -8.41418 -2.71474 4.99181e-05 1
27.1278 -15.2858 -1.63187 6.60131e-05 10
27.1867 -15.3189 4.94247 3.06264e-05 10
8.79854 -4.91734 -2.70077 0.000747243 4
9.9923 -5.58451 -2.64274 9.9347e-05 4
11.3567 -6.34704 -2.52888 0.000119323 4
14.9628 -8.36241 -2.71487 4.99215e-05 1
27.1384 -15.1671 -1.62931 6.67468e-05 10
26.7554 -14.9531 4.85454 5.21162e-05 10
27.1211 -15.1575 8.325 4.34065e-05 10
8.84686 -4.90389 -2.71033 0.000581207 4
10.0194 -5.55384 -2.64476 0.000129008 4
11.3842 -6.31038 -2.53009 9.0374e-05 4
14.9887 -8.30835 -2.71429 4.99249e-05 1
27.1213 -15.0336 -1.62512 6.7482e-05 10
26.7527 -14.8293 4.84463 5.26894e-05 10
27.1057 -15.0249 8.30411 4.38917e-05 10
8.9015 -4.89364 -2.72182 0.000387059 1
10.0144 -5.50548 -2.63836 4.59704e-05 4
11.3976 -6.2659 -2.5282 0.000113193 4
15.0248 -8.25996 -2.7156 4.99284e-05 1
27.1242 -14.9117 -1.62217 6.82187e-05 10
31.4113 -17.2685 -0.625679 3.46789e-05 10
31.4067 -17.266 0.625587 3.46881e-05 10
26.7681 -14.7159 4.83809 5.32636e-05 10
27.1086 -14.9031 8.28902 4.43779e-05 10
8.91715 -4.86179 -2.7214 0.000387073 1
10.0388 -5.47332 -2.63973 0.000323289 4
11.415 -6.22365 -2.52721 7.80982e-05 4
15.042 -8.20119 -2.71352 4.99318e-05 1
31.4254 -17.1337 -0.624765 3.50807e-05 10
31.4236 -17.1327 0.624728 3.509e-05 10
26.7492 -14.5842 4.82545 5.38389e-05 10
27.1133 -14.7826 8.27463 4.4865e-05 10
8.93097 -4.82896 -2.72046 0.000387086 1
10.0645 -5.44183 -2.64147 0.000123092 4
11.4394 -6.18528 -2.52783 0.000123735 4
15.0772 -8.15223 -2.71472 4.99351e-05 1
27.1219 -14.6648 -2.69751 6.87556e-05 10
27.1294 -14.6688 -1.61632 4.60358e-05 10
27.1319 -14.6702 -0.538385 4.63545e-05 10
27.1334 -14.671 0.538413 4.63659e-05 10
26.7496 -14.4635 4.81638 5.44152e-05 10
27.1165 -14.6618 8.25993 4.53529e-05 10
8.93301 -4.78984 -2.71597 0.0003871 1
10.084 -5.407 -2.64163 0.000140895 4
11.4472 -6.13791 -2.52479 4.30023e-05 4
15.1085 -8.10113 -2.71525 4.99385e-05 1
27.1223 -14.5428 -2.69248 6.94867e-05 10
27.1133 -14.538 3.77747 3.3951e-05 10
26.7425 -14.3392 4.80606 5.49922e-05 10
27.1076 -14.535 8.24172 4.58418e-05 10
8.94991 -4.75875 -2.71604 0.000387113 1
10.108 -5.37454 -2.64299 0.000155732 4
11.4712 -6.09935 -2.52538 5.44138e-05 4
15.1219 -8.04046 -2.71259 4.99419e-05 1
27.1297 -14.4251 -2.6882 7.02189e-05 10
27.1236 -14.4219 3.77186 3.43092e-05 10
26.7554 -14.2261 4.79942 5.55702e-05 10
27.1182 -14.419 8.22961 4.63313e-05 10
8.96584 -4.72715 -2.71585 0.000387127 1
9.68508 -5.10637 -2.52773 0.000178398 4
11.4984 -6.06241 -2.52669 2.98413e-05 4
15.1589 -7.99238 -2.7142 4.99452e-05 1
27.1105 -14.2937 -2.68134 7.09521e-05 10
27.1173 -14.2973 3.76402 3.46679e-05 10
26.7586 -14.1082 4.79113 5.61488e-05 10
27.1136 -14.2954 8.21302 4.68216e-05 10
9.0052 -4.7078 -2.72278 0.00038714 1
9.70016 -5.07112 -2.52702 0.00023563 4
11.5138 -6.01925 -2.52543 6.75852e-05 4
15.1888 -7.94049 -2.71457 4.99485e-05 1
27.1234 -14.1798 -2.67771 7.1686e-05 10
27.1096 -14.1726 3.75607 3.5027e-05 10
26.7402 -13.9794 4.77908 5.67281e-05 10
27.1152 -14.1755 8.19844 4.73125e-05 10
6.11876 -3.17166 -1.84669 0.000488918 6
9.72416 -5.04053 -2.52868 0.000240688 4
11.5534 -5.9887 -2.52952 0.000122888 4
15.2128 -7.88558 -2.71394 4.99518e-05 1
27.1271 -14.0613 -2.6732 7.24207e-05 10
27.1068 -14.0508 -1.60011 4.84869e-05 10
27.1075 -14.0512 -0.532952 4.8821e-05 10
27.116 -14.0556 0.53312 4.88329e-05 10
27.1228 -14.0591 3.75107 3.53865e-05 10
26.7504 -13.8661 4.77222 5.7308e-05 10
27.1115 -14.0533 8.18244 4.7804e-05 10
6.11516 -3.14277 -1.84228 0.000528438 6
6.13103 -3.15092 -1.59145 0.00430545 6
11.5596 -5.94085 -2.52634 0.000122895 4
14.1872 -7.29122 -2.52641 5.47302e-05 4
27.1157 -13.9356 -2.66728 7.31562e-05 10
26.7504 -13.7479 4.76363 5.78884e-05 10
27.1085 -13.9319 8.16681 4.82959e-05 10
6.078 -3.0969 -1.82781 0.00171836 6
6.10385 -3.11007 -1.58157 0.00407028 6
11.5727 -5.8966 -2.52468 9.39312e-05 4
14.2059 -7.23829 -2.52523 4.97229e-05 4
27.1082 -13.8124 -2.66178 7.38922e-05 10
27.1218 -13.8193 -1.59527 4.94708e-05 10
27.0993 -13.8078 -0.530882 4.98112e-05 10
27.1162 -13.8164 0.531214 4.98232e-05 10
26.7501 -13.6299 1.5734 6.20122e-05 10
26.7561 -13.6329 2.6272 6.12155e-05 10
26.7531 -13.6314 3.68669 6.00283e-05 10
26.7466 -13.6281 4.75445 5.84692e-05 10
26.7445 -13.627 5.83452 5.65623e-05 10
26.7399 -13.6247 6.92855 5.43369e-05 10
27.0916 -13.8039 8.14716 4.87883e-05 10
6.08701 -3.07477 -1.82729 0.000494409 6
6.11374 -3.08827 -1.58132 0.00666218 6
11.5998 -5.8595 -2.52612 0.00011325 4
14.218 -7.18201 -2.5229 3.08379e-05 4
27.1068 -13.6927 -2.65693 7.46287e-05 10
26.8541 -13.565 1.57673 3.20262e-05 10
26.8498 -13.5628 2.63173 3.16043e-05 10
26.8559 -13.5659 3.69432 3.09809e-05 10
26.8682 -13.5721 4.76762 3.01658e-05 10
26.8676 -13.5718 5.85101 2.91714e-05 10
27.1079 -13.6932 8.13762 4.92811e-05 10
6.08028 -3.04478 -1.82206 0.000786839 6
11.6444 -5.83109 -2.53138 0.000293563 4
14.2541 -7.13791 -2.52487 3.89353e-05 4
27.1177 -13.5795 -2.65334 7.53655e-05 10
27.1011 -13.5712 -1.58844 5.04562e-05 10
27.1044 -13.5729 -0.529114 5.08026e-05 10
27.0983 -13.5698 0.528994 5.08148e-05 10
27.0788 -13.5601 1.58713 3.08818e-05 10
27.0836 -13.5625 2.65 3.04738e-05 10
27.092 -13.5666 3.72025 2.98709e-05 10
27.0859 -13.5636 4.79782 2.90826e-05 10
27.1073 -13.5743 8.12318 4.97742e-05 10
6.08025 -3.01826 -1.81889 0.000752549 6
6.1047 -3.0304 -1.57348 0.000779161 6
11.7408 -5.82821 -2.54791 0.000197277 4
14.2726 -7.085 -2.52376 4.85758e-05 4
27.1128 -13.4589 -2.64824 7.61027e-05 10
27.097 -13.4511 1.58544 6.01858e-05 10
27.1124 -13.4587 2.6482 5.94097e-05 10
27.0944 -13.4498 3.71412 5.82534e-05 10
27.1124 -13.4587 4.79417 5.6735e-05 10
27.1067 -13.4559 5.88247 5.4878e-05 10
27.0925 -13.4489 6.98305 5.27112e-05 10
27.1043 -13.4547 8.10815 5.02676e-05 10
6.08413 -2.99376 -1.81691 0.000757263 6
6.10298 -3.00304 -1.57032 0.000783727 6
11.8261 -5.81917 -2.56199 0.000249717 4
14.2927 -7.03289 -2.52296 4.35668e-05 4
27.12 -13.3447 -2.64438 7.68401e-05 10
27.1131 -13.3413 1.58364 6.07682e-05 10
27.0954 -13.3326 2.64198 5.99852e-05 10
27.1004 -13.3351 3.70854 5.88185e-05 10
27.0986 -13.3342 4.78346 5.72866e-05 10
27.0936 -13.3317 5.86949 5.54131e-05 10
27.11 -13.3398 6.97552 5.32268e-05 10
27.1065 -13.338 8.09483 5.07612e-05 10
6.07478 -2.96287 -1.81102 0.000802067 6
6.09577 -2.97311 -1.56579 0.000829767 6
11.902 -5.80498 -2.57402 0.000229959 4
14.3173 -6.98302 -2.52298 4.62685e-05 4
27.0957 -13.2154 -2.63749 7.75776e-05 10
27.0896 -13.2125 1.57957 6.13507e-05 10
27.1113 -13.2231 2.63901 6.05608e-05 10
27.1048 -13.2199 3.7028 5.93838e-05 10
27.105 -13.22 4.7764 5.78384e-05 10
27.098 -13.2166 5.86044 5.59481e-05 10
27.0963 -13.2157 6.96007 5.37424e-05 10
27.085 -13.2102 8.07461 5.12549e-05 10
6.08679 -2.94247 -1.81153 0.000807002 6
6.10046 -2.94908 -1.56434 0.000834545 6
11.9794 -5.79105 -2.58636 0.000148633 4
14.3497 -6.93692 -2.52441 5.01273e-05 4
27.1172 -13.109 -2.63512 7.83152e-05 10
27.0877 -13.0947 1.57678 6.19332e-05 10
27.1039 -13.1025 2.63383 6.11363e-05 10
27.0953 -13.0984 3.69522 5.99491e-05 10
27.1091 -13.1051 4.76905 5.83901e-05 10
27.1015 -13.1014 5.85126 5.64833e-05 10
27.1075 -13.1043 6.95115 5.42582e-05 10
27.0972 -13.0993 8.06455 5.17487e-05 10
6.06827 -2.90743 -1.80298 0.000811922 6
6.10459 -2.92483 -1.56277 0.000839307 6
12.0623 -5.77928 -2.5999 0.000249491 4
14.3634 -6.88177 -2.52257 4.82023e-05 4
27.1033 -12.9857 -2.62935 7.90526e-05 10
27.0895 -12.9791 -1.57424 5.29217e-05 10
27.0983 -12.9833 -0.52449 5.32836e-05 10
27.1013 -12.9848 0.524549 5.32962e-05 10
27.112 -12.9899 1.57555 6.25156e-05 10
27.0882 -12.9785 2.62788 6.17118e-05 10
27.099 -12.9837 3.68953 6.05144e-05 10
27.0965 -12.9825 4.75882 5.89418e-05 10
27.1029 -12.9855 5.84173 5.70185e-05 10
27.0885 -12.9786 6.93464 5.4774e-05 10
27.0844 -12.9767 8.04722 5.22425e-05 10
6.07498 -2.88462 -1.80197 0.000816784 6
6.11987 -2.90593 -1.56407 0.000844132 6
12.1442 -5.76651 -2.61321 0.000243972 4
14.4091 -6.84196 -2.5264 5.78464e-05 4
27.0994 -12.8677 -2.62459 7.97899e-05 10
27.0947 -12.8655 1.57192 6.30978e-05 10
27.0959 -12.8661 2.62425 6.22872e-05 10
27.0939 -12.8651 3.68269 6.10794e-05 10
27.0923 -12.8644 4.75017 5.94934e-05 10
27.0922 -12.8644 5.82973 5.75535e-05 10
27.0995 -12.8678 6.9259 5.52896e-05 10
27.0983 -12.8672 8.03796 5.27362e-05 10
6.08479 -2.86328 -1.80191 0.000821676 6
6.10934 -2.87484 -1.55881 0.000848859 6
6.62775 -3.11878 -1.42381 0.000174108 6
14.4179 -6.78457 -2.52377 4.97509e-05 4
27.0901 -12.7476 -2.61937 8.0527e-05 10
27.1031 -12.7537 -1.56982 8.16131e-05 10
27.1012 -12.7529 -0.522811 8.21702e-05 10
27.1074 -12.7558 0.522929 8.21896e-05 10
27.0922 -12.7486 1.56919 6.36799e-05 10
27.0984 -12.7516 2.62017 6.28624e-05 10
27.103 -12.7537 3.67786 6.16444e-05 10
27.089 -12.7471 4.74176 6.00448e-05 10
27.0855 -12.7455 5.81866 5.80884e-05 10
27.0781 -12.742 6.90903 5.58051e-05 10
27.0963 -12.7506 8.02411 5.32299e-05 10
6.06626 -2.82875 -1.79349 0.000826551 6
6.10162 -2.84523 -1.55429 0.00085357 6
6.64557 -3.09888 -1.42531 0.000178936 6
14.4429 -6.73483 -2.52401 5.55393e-05 4
27.1048 -12.6392 -2.61651 8.12636e-05 10
27.1103 -12.6418 -1.56767 8.23589e-05 10
27.1018 -12.6378 -0.521968 8.29206e-05 10
27.0997 -12.6368 0.521926 8.29401e-05 10
27.1041 -12.6389 1.56731 6.42617e-05 10
27.0952 -12.6347 2.61558 6.34373e-05 10
27.0981 -12.636 3.67119 6.2209e-05 10
27.0835 -12.6293 4.73306 6.0596e-05 10
27.083 -12.629 5.80863 5.8623e-05 10
27.0786 -12.627 6.89787 5.63205e-05 10
27.0783 -12.6268 8.00569 5.37233e-05 10
6.07738 -2.80814 -1.79386 0.000831413 6
6.12003 -2.82785 -1.55646 0.000855234 6
6.6881 -3.09034 -1.43211 0.000352109 6
14.4736 -6.68776 -2.52529 5.2457e-05 4
27.0965 -12.5203 -2.61147 8.19999e-05 10
27.0847 -12.5149 -1.56365 8.31041e-05 10
27.0912 -12.5179 -0.520919 8.36706e-05 10
27.0861 -12.5156 0.520822 8.36903e-05 10
27.1028 -12.5233 1.5647 6.48431e-05 10
27.0851 -12.5151 2.61038 6.40118e-05 10
27.0861 -12.5155 3.66362 6.27733e-05 10
27.0966 -12.5204 4.72768 6.11468e-05 10
27.0806 -12.513 5.7987 5.91574e-05 10
27.0934 -12.5189 6.89047 5.68355e-05 10
27.0986 -12.5213 7.99872 5.42165e-05 10
6.06069 -2.7748 -1.78607 0.000836257 6
6.10301 -2.79418 -1.54964 0.00085999 6
6.72239 -3.07775 -1.43714 0.000408717 6
14.4904 -6.63421 -2.52415 5.24601e-05 4
27.1003 -12.4075 -2.60765 8.27356e-05 10
27.0971 -12.406 -1.56186 8.38489e-05 10
27.0816 -12.3989 -0.519898 8.44199e-05 10
27.094 -12.4046 0.520137 8.44398e-05 10
27.1017 -12.4081 1.56212 6.54241e-05 10
27.0818 -12.399 2.60587 6.4586e-05 10
27.076 -12.3964 3.65639 6.33372e-05 10
27.0792 -12.3978 4.71706 6.16973e-05 10
27.0953 -12.4052 5.79256 5.96913e-05 10
27.0859 -12.4009 6.87749 5.73502e-05 10
27.0743 -12.3956 7.97872 5.47094e-05 10
6.07938 -2.75773 -1.78873 0.000840443 6
6.10837 -2.77088 -1.54854 0.0008671 6
6.78076 -3.07589 -1.44732 0.000397453 6
14.5193 -6.58626 -2.52517 4.55196e-05 4
27.108 -12.2967 -2.60424 8.34706e-05 10
27.0811 -12.2845 -1.55845 8.4593e-05 10
27.1025 -12.2942 -0.519473 8.51686e-05 10
27.0871 -12.2873 0.519178 8.51886e-05 10
27.0891 -12.2882 1.55892 6.60046e-05 10
27.0793 -12.2837 2.60149 6.51596e-05 10
27.0796 -12.2838 3.65105 6.39007e-05 10
27.0952 -12.2909 4.71235 6.22473e-05 10
27.079 -12.2836 5.77987 6.02249e-05 10
27.0857 -12.2866 6.86651 5.78645e-05 10
27.0733 -12.281 7.96575 5.52019e-05 10
6.08264 -2.73365 -1.78687 0.000803002 6
6.11112 -2.74645 -1.5468 0.000871732 6
6.84225 -3.07503 -1.45814 0.000387285 6
14.5296 -6.52987 -2.52299 4.66797e-05 4
27.2502 -12.2467 -2.61379 3.8221e-05 10
27.2521 -12.2476 -1.56583 3.87236e-05 10
27.2331 -12.2391 -0.521156 3.89753e-05 10
27.2393 -12.2418 0.521273 3.89723e-05 10
27.0875 -12.1736 1.55637 6.65845e-05 10
27.0826 -12.1714 2.5977 6.57327e-05 10
27.0799 -12.1702 3.64534 6.44635e-05 10
27.074 -12.1675 4.70124 6.27968e-05 10
27.0899 -12.1747 5.77307 6.07579e-05 10
27.086 -12.1729 6.85579 5.83783e-05 10
27.0884 -12.174 7.95762 5.56939e-05 10
6.06994 -2.70251 -1.78035 0.000807982 6
6.10783 -2.71938 -1.54355 0.000871589 6
6.91891 -3.0805 -1.47218 0.000377658 6
14.5599 -6.4825 -2.52431 5.51702e-05 4
27.4833 -12.2364 -2.63203 3.66956e-05 10
27.0807 -12.0571 1.55355 6.71637e-05 10
27.0964 -12.0641 2.59498 6.6305e-05 10
27.0779 -12.0559 3.63939 6.50257e-05 10
27.0946 -12.0633 4.69749 6.33455e-05 10
27.0702 -12.0524 5.75989 6.12904e-05 10
27.0722 -12.0533 6.84159 5.88916e-05 10
27.0808 -12.0571 7.94298 5.61855e-05 10
6.06392 -2.67451 -1.77584 0.000812517 6
6.12062 -2.69952 -1.54439 0.000832495 6
7.04429 -3.1069 -1.49654 0.000358888 6
14.5836 -6.43213 -2.5245 6.09609e-05 4
27.7467 -12.2378 -2.65314 3.5213e-05 10
27.0835 -11.9452 1.55131 6.77421e-05 10
27.0796 -11.9436 2.58936 6.68766e-05 10
27.0837 -11.9453 3.63455 6.55872e-05 10
27.0841 -11.9455 4.68841 6.38937e-05 10
27.0711 -11.9398 5.75118 6.18221e-05 10
27.0682 -11.9385 6.83001 5.94042e-05 10
27.0794 -11.9434 7.9303 5.66764e-05 10
6.0825 -2.65738 -1.77856 0.000860037 6
6.10431 -2.66691 -1.53792 0.000836964 6
7.09632 -3.10031 -1.50528 0.000348916 6
14.6053 -6.38092 -2.52439 4.82314e-05 4
28.0075 -12.2362 -2.67399 3.37725e-05 10
27.1971 -11.8821 1.55543 3.03116e-05 10
27.2095 -11.8876 2.5978 2.99145e-05 10
27.1881 -11.8782 3.64297 2.93277e-05 10
6.06377 -2.62403 -1.77039 0.000864773 6
6.10349 -2.64122 -1.53538 0.000843407 6
7.15825 -3.09765 -1.51612 0.0003398 6
14.6259 -6.32921 -2.52412 5.17071e-05 4
28.2515 -12.2255 -2.69319 3.23735e-05 10
28.5626 -12.3601 -0.543241 4.64439e-05 10
28.57 -12.3633 0.543381 4.64549e-05 10
28.3287 -12.2589 2.70055 3.56569e-05 10
28.302 -12.2474 5.99435 3.29133e-05 10
28.3029 -12.2478 7.11982 3.16022e-05 10
6.06984 -2.60154 -1.7695 0.000868776 6
6.10442 -2.61636 -1.53331 0.000847668 6
7.23864 -3.10249 -1.53084 0.000330178 6
14.6395 -6.27449 -2.52266 5.40255e-05 4
28.5235 -12.2252 -1.62637 3.14304e-05 10
28.5626 -12.2419 -0.542425 4.68413e-05 10
28.559 -12.2404 0.542356 4.68523e-05 10
28.346 -12.1491 2.69814 5.60649e-05 10
28.3324 -12.1433 5.99178 5.17519e-05 10
28.3472 -12.1496 7.12025 4.96908e-05 10
6.06422 -2.57411 -1.76523 0.000873484 6
6.10371 -2.59087 -1.53085 0.000896747 6
7.31059 -3.10316 -1.54376 0.000320746 6
14.6773 -6.23013 -2.52541 5.90456e-05 4
28.7951 -12.2228 -1.63941 3.00965e-05 10
28.8317 -12.2383 -0.546721 4.52767e-05 10
28.8311 -12.2381 0.546709 4.52874e-05 10
28.3427 -12.0308 2.69381 5.65388e-05 10
28.3549 -12.036 5.98763 5.21922e-05 10
28.336 -12.0279 7.10685 5.0115e-05 10
6.07664 -2.55438 -1.76624 0.000878172 6
6.10461 -2.56614 -1.52882 0.000901191 6
7.36977 -3.09797 -1.55396 0.000312446 6
14.6788 -6.17041 -2.52195 5.32599e-05 4
29.0675 -12.2188 -1.65248 2.88027e-05 10
29.0901 -12.2284 -0.550809 4.37715e-05 10
29.1008 -12.2328 0.55101 4.37819e-05 10
28.3333 -11.9102 2.68895 5.70118e-05 10
28.3516 -11.9179 3.7762 5.58939e-05 10
28.3455 -11.9154 5.97682 5.26317e-05 10
28.3525 -11.9183 7.1005 5.05384e-05 10
6.06299 -2.52378 -1.7597 0.000882839 6
6.10845 -2.5427 -1.52755 0.000905614 6
7.45226 -3.10208 -1.56906 0.000303279 6
14.7107 -6.12348 -2.52374 4.67015e-05 4
29.3757 -12.2279 -0.555405 4.23231e-05 10
29.3804 -12.2299 0.555493 4.23332e-05 10
6.07819 -2.50525 -1.76156 0.000891888 6
6.10386 -2.51583 -1.52419 0.000910016 6
7.52458 -3.10141 -1.582 0.000294452 6
14.726 -6.06962 -2.52272 4.01424e-05 4
29.6296 -12.2125 -0.559396 4.0929e-05 10
29.6334 -12.214 0.559467 4.09388e-05 10
6.06581 -2.47541 -1.75546 0.000896381 6
6.1281 -2.50083 -1.52806 0.000915747 6
7.58517 -3.09545 -1.59246 0.000285616 6
14.7465 -6.01794 -2.52262 4.78648e-05 4
6.08302 -2.4577 -1.75795 0.000900851 6
6.12723 -2.47556 -1.52568 0.000922032 6
7.65908 -3.09447 -1.6057 0.000276973 6
14.7883 -5.97486 -2.52618 5.86763e-05 4
6.06342 -2.4252 -1.74983 0.000905299 6
6.10487 -2.44177 -1.51798 0.00092643 6
7.73065 -3.09204 -1.61843 0.000268337 6
14.8023 -5.92049 -2.52503 5.17307e-05 4
6.06324 -2.40061 -1.74735 0.000864236 6
6.10983 -2.41906 -1.5171 0.000930805 6
7.77779 -3.07945 -1.62604 0.000646051 6
14.8132 -5.86498 -2.52339 3.16579e-05 4
30.5764 -12.1061 2.87713 4.24414e-05 10
30.5728 -12.1046 6.3916 3.90826e-05 10
6.08443 -2.38446 -1.75104 0.000867582 6
6.11376 -2.39596 -1.51599 0.000935156 6
7.75408 -3.03879 -1.61885 0.000649463 6
7.7682 -3.04433 -1.32147 0.000509264 6
31.2498 -12.2467 -0.58586 3.33123e-05 10
31.2659 -12.253 0.586161 3.33204e-05 10
30.5636 -11.9777 2.87197 4.27832e-05 10
30.5745 -11.982 6.38317 3.93994e-05 10
6.07431 -2.35607 -1.74575 0.000871876 6
6.11482 -2.37178 -1.51419 0.000939485 6
7.77365 -3.0152 -1.62073 0.000652858 6
7.7838 -3.01914 -1.32232 0.000486249 6
30.5698 -11.8572 2.86865 4.3124e-05 10
30.5637 -11.8549 6.37223 3.97154e-05 10
6.07321 -2.33129 -1.74309 0.000922261 6
6.11785 -2.34842 -1.5129 0.000943788 6
7.76934 -2.98237 -1.61765 0.000656235 6
7.77547 -2.98472 -1.31913 0.00106977 6
6.0775 -2.30863 -1.742 0.000926733 6
6.11667 -2.3235 -1.5106 0.000873275 6
7.75237 -2.94485 -1.61197 0.000659594 6
7.7844 -2.95702 -1.31889 0.00133405 6
31.7651 -12.0664 1.7808 3.70743e-05 10
31.7729 -12.0694 2.97357 3.65698e-05 10
31.7548 -12.0625 4.17083 3.58189e-05 10
31.772 -12.0691 5.38303 3.48342e-05 10
31.7645 -12.0662 6.60486 3.36318e-05 10
31.7535 -12.062 7.84197 3.22314e-05 10
31.7598 -12.0644 9.10331 3.06557e-05 10
6.06702 -2.28044 -1.7367 0.000953968 6
6.123 -2.30148 -1.51017 0.000832999 6
7.77716 -2.92324 -1.61499 0.000662936 6
7.76549 -2.91885 -1.31395 0.00131774 6
7.81954 -2.93917 -1.0257 0.000301864 6
31.7619 -11.9385 1.77828 3.73652e-05 10
31.7634 -11.9391 2.96876 3.6857e-05 10
31.7599 -11.9378 4.166 3.61007e-05 10
31.7562 -11.9364 5.37326 3.51089e-05 10
31.7649 -11.9396 6.59624 3.38977e-05 10
31.7543 -11.9356 7.83182 3.24871e-05 10
31.7662 -11.9401 9.09315 3.08999e-05 10
6.07865 -2.26063 -1.73776 0.001779 6
6.11933 -2.27576 -1.50729 0.000836359 6
7.75944 -2.88571 -1.60921 0.000666259 6
7.76431 -2.88752 -1.31203 0.00040778 6
7.81916 -2.90792 -1.02431 0.000529268 6
6.0638 -2.23105 -1.73128 0.00178727 6
6.11868 -2.25124 -1.50519 0.000839705 6
7.76737 -2.85784 -1.60878 0.000669563 6
7.77646 -2.86118 -1.31239 0.000409978 6
7.79788 -2.86906 -1.02021 0.000533185 6
6.06237 -2.20652 -1.72866 0.00179568 6
6.1104 -2.22401 -1.50123 0.00084303 6
7.76445 -2.82603 -1.60612 0.000672848 6
7.76822 -2.8274 -1.30933 0.000412165 6
7.78958 -2.83518 -1.01782 0.00137254 6
6.06369 -2.18306 -1.72685 0.00181495 6
6.11729 -2.20236 -1.50103 0.000890876 6
7.76687 -2.79625 -1.60459 0.000676114 6
7.78537 -2.80291 -1.31056 0.000414341 6
7.8096 -2.81163 -1.01915 0.00137507 6
6.05945 -2.15767 -1.72349 0.00095224 6
6.11538 -2.17759 -1.49868 0.000894328 6
7.76132 -2.76368 -1.60144 0.000679231 6
7.77895 -2.76996 -1.30784 0.000428365 6
7.79801 -2.77675 -1.01637 0.00136816 6
6.06722 -2.13661 -1.72357 0.000956785 6
6.11928 -2.15494 -1.49779 0.000897757 6
7.75639 -2.73146 -1.59845 0.000682441 6
7.7694 -2.73604 -1.30463 0.000430387 6
7.78938 -2.74307 -1.01399 0.00139133 6
6.07251 -2.11467 -1.72296 0.000954681 6
6.12734 -2.13377 -1.49793 0.000900563 6
7.76141 -2.70281 -1.59753 0.000685654 6
7.78478 -2.71095 -1.30561 0.000432396 6
7.79244 -2.71362 -1.01315 0.00139774 6
6.07961 -2.09338 -1.72289 0.000959022 6
6.12067 -2.10752 -1.49449 0.000903935 6
7.7481 -2.66788 -1.59286 0.000688847 6
7.77953 -2.67871 -1.30315 0.000434392 6
7.80152 -2.68628 -1.0131 0.00140411 6
6.07744 -2.06893 -1.72022 0.000963334 6
6.11779 -2.08266 -1.492 0.000907283 6
7.75577 -2.64028 -1.59253 0.000692018 6
7.77942 -2.64833 -1.30158 0.000436375 6
7.80773 -2.65797 -1.0127 0.00141044 6
35.7309 -12.1638 -0.658835 2.91355e-05 10
35.7403 -12.167 0.659008 2.91429e-05 10
6.0618 -2.04002 -1.71377 0.000923099 6
6.11932 -2.05938 -1.49061 0.000910606 6
7.75908 -2.61122 -1.59133 0.000695168 6
7.77625 -2.617 -1.29951 0.000438344 6
7.81222 -2.6291 -1.01208 0.0014137 6
6.0645 -2.01739 -1.71253 0.000927008 6
6.1235 -2.03702 -1.48989 0.000913972 6
7.7712 -2.58514 -1.59196 0.000698296 6
7.75943 -2.58122 -1.29519 0.0004403 6
7.79056 -2.59158 -1.0081 0.00141998 6
6.06884 -1.99533 -1.71178 0.000930887 6
6.12574 -2.01404 -1.48872 0.000917243 6
7.75918 -2.55109 -1.58766 0.000701595 6
7.77741 -2.55708 -1.29669 0.000442242 6
7.78711 -2.56027 -1.00649 0.00142622 6
6.065 -1.97064 -1.70874 0.000934738 6
6.14237 -1.99578 -1.49106 0.000920489 6
7.74904 -2.51782 -1.58378 0.000704674 6
7.782 -2.52853 -1.29598 0.000444705 6
7.80844 -2.53712 -1.0081 0.00143242 6
6.05423 -1.9438 -1.70379 0.000987958 6
6.14266 -1.97219 -1.48945 0.000923708 6
7.76741 -2.49384 -1.58574 0.00070773 6
7.77172 -2.49523 -1.29281 0.00044661 6
7.78385 -2.49912 -1.00379 0.00143857 6
6.07409 -1.92682 -1.70747 0.00101364 6
6.1266 -1.94347 -1.4839 0.000926902 6
7.76746 -2.46398 -1.58399 0.000710781 6
7.7808 -2.46822 -1.29288 0.00044897 6
7.81169 -2.47801 -1.00626 0.00144774 6
6.07142 -1.90267 -1.70484 0.00101752 6
6.12275 -1.91876 -1.48133 0.000930069 6
7.75222 -2.4294 -1.57914 0.000713795 6
7.7579 -2.43118 -1.28765 0.000450828 6
7.80334 -2.44542 -1.00408 0.00145368 6
6.06356 -1.87698 -1.70079 0.00102136 6
6.14143 -1.90109 -1.48424 0.00093321 6
7.75595 -2.40087 -1.57818 0.000716785 6
7.76311 -2.40309 -1.28712 0.000452671 6
7.80075 -2.41473 -1.00265 0.00145957 6
6.06241 -1.85347 -1.69864 0.00102517 6
6.13691 -1.87624 -1.48155 0.000889508 6
7.75346 -2.37047 -1.57598 0.00071975 6
7.78182 -2.37914 -1.28884 0.000454498 6
7.79111 -2.38198 -1.00034 0.00146408 6
6.06415 -1.83088 -1.69733 0.0010291 6
6.12541 -1.84937 -1.47721 0.000891234 6
7.76399 -2.34409 -1.57645 0.000722692 6
7.76306 -2.34381 -1.28437 0.00045631 6
7.79584 -2.35371 -0.999885 0.00146989 6
6.06003 -1.80657 -1.6944 0.00103284 6
6.14268 -1.83121 -1.47982 0.000894211 6
7.76931 -2.31613 -1.57588 0.00072561 6
7.77643 -2.31826 -1.28523 0.000459692 6
7.80426 -2.32655 -0.999917 0.00147565 6
6.07736 -1.78867 -1.69749 0.00103655 6
6.13683 -1.80617 -1.47689 0.000896587 6
7.75796 -2.28329 -1.57195 0.000728502 6
7.76244 -2.28461 -1.28159 0.000461441 6
7.78503 -2.29126 -0.996423 0.00148136 6
6.07542 -1.76507 -1.69521 0.00104022 6
6.13859 -1.78343 -1.4758 0.000899425 6
7.7561 -2.25336 -1.56997 0.000731592 6
7.75916 -2.25424 -1.27974 0.000460301 6
7.78802 -2.26263 -0.995788 0.00148703 6
6.06668 -1.73959 -1.69107 0.00104387 6
6.13537 -1.75929 -1.47354 0.000949723 6
7.74864 -2.22189 -1.56688 0.000734425 6
7.76063 -2.22532 -1.2787 0.000462139 6
7.80948 -2.23933 -0.997526 0.00149364 6
6.06074 -1.71502 -1.68774 0.00104637 6
6.15358 -1.74129 -1.47645 0.000634466 6
7.75561 -2.19462 -1.56673 0.000737234 6
7.76111 -2.19617 -1.27751 0.000463961 6
7.80421 -2.20837 -0.995862 0.00149916 6
6.06856 -1.69437 -1.68826 0.00104999 6
6.1427 -1.71507 -1.47239 0.000681707 6
7.75982 -2.16658 -1.56605 0.000740016 6
7.77253 -2.17013 -1.27813 0.000465767 6
7.80767 -2.17994 -0.995326 0.00150463 6
6.06849 -1.67154 -1.6866 0.00105355 6
6.13198 -1.68903 -1.4684 0.000683337 6
7.76035 -2.13756 -1.56464 0.000742772 6
7.77704 -2.14215 -1.27764 0.000467444 6
7.78593 -2.1446 -0.991594 0.00151029 6
6.07983 -1.65185 -1.68814 0.00105711 6
6.13347 -1.66643 -1.46736 0.00068495 6
7.75604 -2.10727 -1.56228 0.000745502 6
7.7708 -2.11128 -1.27539 0.000469185 6
7.80765 -2.12129 -0.993411 0.00151568 6
6.07322 -1.62732 -1.68472 0.00106062 6
6.14063 -1.64538 -1.46769 0.000686546 6
7.75239 -2.07725 -1.56007 0.000748048 6
7.75389 -2.07765 -1.27142 0.000470911 6
7.78581 -2.0862 -0.989701 0.00152103 6
6.07139 -1.60413 -1.68265 0.0010109 6
6.15649 -1.62662 -1.47011 0.000688124 6
7.74579 -2.04653 -1.55729 0.000750727 6
7.77088 -2.05316 -1.27302 0.000472619 6
7.78187 -2.05606 -0.988281 0.00152632 6
6.06601 -1.58008 -1.67962 0.00101418 6
6.16467 -1.60578 -1.47072 0.000689685 6
7.7387 -2.01578 -1.55445 0.000753379 6
7.7728 -2.02466 -1.27217 0.000474721 6
7.78218 -2.02711 -0.987416 0.00153155 6
6.06635 -1.55758 -1.6782 0.00101742 6
6.15978 -1.58156 -1.46822 0.000691227 6
7.75569 -1.99132 -1.55645 0.000756004 6
7.74984 -1.98982 -1.26727 0.000476376 6
7.8066 -2.0044 -0.989621 0.00153944 6
6.0739 -1.53693 -1.67879 0.00107434 6
6.14748 -1.55555 -1.46399 0.000692752 6
7.75476 -1.96226 -1.55488 0.000758601 6
7.75764 -1.96299 -1.26741 0.000478014 6
7.80347 -1.97458 -0.988344 0.00154482 6
6.07919 -1.51571 -1.67878 0.00110108 6
6.16701 -1.53761 -1.46735 0.000694259 6
7.74961 -1.93219 -1.55249 0.000761255 6
7.77676 -1.93897 -1.26943 0.000479634 6
7.78414 -1.9408 -0.985032 0.0012385 6
6.07205 -1.49144 -1.67536 0.00100024 6
6.15795 -1.51254 -1.46393 0.000663666 6
7.74374 -1.90204 -1.54997 0.00076379 6
7.76823 -1.90806 -1.26694 0.000481237 6
7.80241 -1.91646 -0.986491 0.00145911 6
6.05893 -1.46581 -1.67032 0.0124047 6
6.17386 -1.49362 -1.46647 0.000698011 6
7.76153 -1.87771 -1.55221 0.000766296 6
7.75076 -1.87511 -1.26301 0.000482671 6
7.79986 -1.88699 -0.985331 0.00146885 6
6.0792 -1.44827 -1.6745 0.00943822 6
6.16146 -1.46787 -1.46229 0.000786857 6
7.75417 -1.84731 -1.54944 0.000768774 6
7.76482 -1.84984 -1.26425 0.000484229 6
7.79566 -1.85719 -0.983974 0.000612984 6
9.4143 -2.2428 -0.846695 0.000413068 6
6.07775 -1.42553 -1.67272 0.00894099 6
6.18352 -1.45033 -1.46632 0.0007204 6
7.75635 -1.81924 -1.5486 0.000771101 6
7.76213 -1.82059 -1.26276 0.000485768 6
7.79599 -1.82853 -0.983204 0.000584119 6
6.10442 -1.40932 -1.6787 0.00874758 6
6.20053 -1.43151 -1.46916 0.000504056 6
7.7512 -1.78951 -1.54631 0.000773523 6
7.77448 -1.79488 -1.26375 0.000487289 6
7.79536 -1.7997 -0.982327 0.000585259 6
6.11347 -1.38895 -1.67984 0.01109 6
6.22474 -1.41423 -1.47372 0.000472086 6
7.74496 -1.75961 -1.54383 0.000775917 6
7.75968 -1.76296 -1.26033 0.000488792 6
7.78601 -1.76894 -0.980365 0.000617827 6
6.14648 -1.3739 -1.68759 0.0051143 6
6.26337 -1.40003 -1.4817 0.000647172 6
7.75617 -1.73371 -1.54485 0.00077828 6
7.75492 -1.73343 -1.25857 0.000488524 6
7.79527 -1.74245 -0.980759 0.000621031 6
6.15542 -1.35336 -1.68874 0.00361905 6
6.28302 -1.38141 -1.4852 0.000517835 6
7.74537 -1.70293 -1.54151 0.000780522 6
7.74729 -1.70335 -1.25636 0.000490069 6
7.80186 -1.71535 -0.980829 0.000622201 6
6.21576 -1.34389 -1.70399 0.00391641 6
6.33376 -1.36941 -1.49605 0.000481508 6
7.74992 -1.67559 -1.54124 0.00078283 6
7.75759 -1.67725 -1.25707 0.000491595 6
7.81261 -1.68915 -0.981432 0.000592687 6
6.24849 -1.32816 -1.71168 0.000870741 6
6.40362 -1.36113 -1.51142 0.000296043 6
7.7554 -1.64846 -1.54117 0.000785108 6
7.75256 -1.64786 -1.25532 0.000493103 6
7.80925 -1.65991 -0.980277 0.000625539 6
6.3321 -1.32284 -1.73331 0.000317097 6
6.47998 -1.35374 -1.52832 0.000305635 6
7.74116 -1.61721 -1.53721 0.000787355 6
7.77042 -1.62333 -1.25728 0.000503445 6
7.80574 -1.63071 -0.979115 0.000625726 6
6.43461 -1.32084 -1.7601 0.000224797 6
6.54088 -1.34265 -1.54157 0.000294752 6
7.75037 -1.59092 -1.53793 0.000789572 6
7.75508 -1.59189 -1.25389 0.00161094 6
7.81594 -1.60438 -0.979687 0.00037843 6
6.53141 -1.31696 -1.78531 0.000193637 6
6.61824 -1.33447 -1.55869 0.000227968 6
7.11607 -1.43485 -1.41106 0.000163979 6
7.74366 -1.5614 -1.25116 0.001615 6
7.87206 -1.58729 -0.98602 0.000206854 6
6.64338 -1.31543 -1.81465 0.000187956 6
6.71576 -1.32976 -1.58056 0.000217428 6
7.13331 -1.41243 -1.4135 0.000219025 6
7.75101 -1.53474 -1.25147 0.00164797 6
7.91006 -1.56624 -0.990089 6.30551e-05 6
6.80992 -1.32372 -1.85887 0.00454708 6
6.83042 -1.3277 -1.60644 0.00013835 6
7.20227 -1.39998 -1.42618 0.000220513 6
7.75379 -1.50718 -1.25107 0.000630658 6
8.02104 -1.55913 -1.00329 0.000139895 6
6.85672 -1.30799 -1.87038 0.00177466 6
6.97654 -1.33085 -1.6397 0.00013554 6
7.26155 -1.38522 -1.43696 0.00020223 6
7.76417 -1.4811 -1.2519 0.000553772 6
8.14462 -1.55367 -1.01807 0.000126501 6
6.91457 -1.29403 -1.88492 0.00173466 6
7.04288 -1.31804 -1.6542 0.00281718 6
7.34594 -1.37476 -1.4527 0.000205409 6
7.78304 -1.45656 -1.25411 0.000154617 6
8.3026 -1.55379 -1.03713 0.00010079 6
7.22547 -1.32612 -1.9684 0.00118985 6
7.11754 -1.30631 -1.67066 0.00147019 6
7.42408 -1.36257 -1.4672 0.000178756 6
7.88624 -1.4474 -1.26992 0.000144677 6
8.41375 -1.54421 -1.05033 9.73716e-05 6
7.28314 -1.31044 -1.98285 0.000798326 6
7.20724 -1.29679 -1.69064 0.00141369 6
7.50829 -1.35095 -1.4829 0.000181047 6
8.00296 -1.43996 -1.2879 0.000135807 6
8.52097 -1.53316 -1.06304 9.26931e-05 6
7.43335 -1.3107 -2.02249 0.000143955 6
7.2795 -1.28357 -1.70653 0.00123538 6
7.6188 -1.3434 -1.50379 0.000157044 6
8.16349 -1.43945 -1.31292 0.000113217 6
8.63076 -1.52184 -1.07607 9.15098e-05 6
7.56856 -1.30732 -2.05802 0.00040056 6
7.4298 -1.28335 -1.7407 0.000734017 6
7.73229 -1.3356 -1.52526 0.000115289 6
8.2375 -1.42286 -1.32401 0.000136313 6
8.77861 -1.51633 -1.09384 8.1651e-05 6
7.89774 -1.3358 -2.14625 0.00314272 6
7.58653 -1.28317 -1.77637 0.000771888 6
7.88183 -1.33311 -1.55383 0.000131556 6
8.39404 -1.41975 -1.34837 8.35745e-05 6
8.86529 -1.49945 -1.10398 6.69342e-05 6
7.90308 -1.30835 -2.14645 0.00313773 6
7.72178 -1.27833 -1.80698 0.000847569 6
7.98507 -1.32192 -1.57327 0.000988609 6
8.53091 -1.41228 -1.36955 8.91276e-05 6
9.04055 -1.49665 -1.12515 5.88415e-05 6
8.23778 -1.33423 -2.23607 4.26481e-05 6
7.971 -1.29102 -1.86423 0.00037521 6
8.03104 -1.30074 -1.58142 0.000463321 6
8.66231 -1.40299 -1.38985 7.97477e-05 6
9.21608 -1.49268 -1.14634 5.23614e-05 6
8.55319 -1.35469 -2.32039 4.73829e-05 6
8.17894 -1.29542 -1.91179 6.96906e-05 6
8.11449 -1.28521 -1.59696 0.000171694 6
8.809 -1.39521 -1.4126 7.09562e-05 6
9.41679 -1.49147 -1.17065 4.86046e-05 6
9.74136 -1.50804 -2.64128 0.000411224 4
8.40604 -1.30132 -1.9638 6.71308e-05 6
8.47075 -1.31134 -1.66616 9.90433e-05 6
8.92848 -1.3822 -1.43098 9.67671e-05 6
9.60177 -1.48643 -1.19299 4.50365e-05 6
9.75621 -1.47549 -2.64389 6.89643e-05 4
8.60012 -1.30065 -2.00807 6.05505e-05 6
8.63118 -1.30534 -1.69681 8.58157e-05 6
9.13664 -1.38179 -1.46356 5.77422e-05 6
9.76039 -1.44129 -2.64365 0.000288633 4
8.80978 -1.30092 -2.05595 5.63967e-05 6
8.83974 -1.30534 -1.7369 8.79365e-05 6
9.33691 -1.37876 -1.49486 5.27312e-05 6
