VERSION 0.7
FIELDS x y z intensity label
SIZE 4 4 4 4 4
TYPE F F F F F
COUNT 1 1 1 1 1
WIDTH 1172
HEIGHT 1
VIEWPOINT 9.55905 4.05911 2.73057 -0.537533 -0.000287416 -0.000225162 0.843242
POINTS 1172
DATA ascii
-0.89608 -36.6651 -0.640183 3.19011e-05 10
-0.210598 -10.0538 -2.6945 0.000483434 4
-0.240852 -11.4981 -2.65512 0.000164576 4
-0.286017 -13.6542 -2.6547 3.83059e-05 4
-0.351281 -16.7699 -2.65668 3.37321e-05 4
-0.44585 -21.2846 -2.61399 3.80371e-05 4
-0.17524 -10.0394 -2.69047 0.000497883 4
-0.20067 -11.4963 -2.65454 4.36947e-05 4
-0.238456 -13.6611 -2.65585 4.58193e-05 4
-0.374009 -21.4269 -2.63129 4.87911e-05 4
-0.140269 -10.0452 -2.69187 6.49436e-05 4
-0.160467 -11.4917 -2.65333 6.11751e-05 4
-0.233914 -16.7516 -2.65345 3.50343e-05 4
-0.301022 -21.5575 -2.64718 3.33385e-05 4
-0.105146 -10.0402 -2.69042 8.65946e-05 4
-0.120304 -11.4876 -2.65227 5.82646e-05 4
-0.143028 -13.6575 -2.65489 3.98145e-05 4
-0.070263 -10.0641 -2.69674 0.000101031 4
-0.0350482 -10.0403 -2.69031 0.000132307 4
-0.047656 -13.6521 -2.65372 3.98188e-05 4
-4.39792e-07 -10.0613 -2.69591 0.000134717 4
-5.02607e-07 -11.4983 -2.65459 3.35065e-05 4
0.0350409 -10.0388 -2.68991 0.000247792 4
0.0401368 -11.4987 -2.65471 3.20511e-05 4
0.0476102 -13.6398 -2.65132 5.18451e-05 4
0.0702035 -10.0559 -2.69454 9.38278e-05 4
0.080336 -11.5073 -2.65673 0.000138408 4
0.105366 -10.0615 -2.69611 0.000153979 4
0.120245 -11.4822 -2.65103 4.37098e-05 4
0.140341 -10.0505 -2.6933 0.000120301 4
0.160527 -11.4962 -2.65437 0.000186503 4
0.190778 -13.6626 -2.656 4.05809e-05 4
0.175439 -10.051 -2.69357 0.000115493 4
0.200497 -11.4866 -2.65229 0.000145712 4
0.23842 -13.6592 -2.65548 4.20862e-05 4
0.292373 -16.7502 -2.65337 3.37579e-05 4
0.366314 -20.9863 -2.57719 5.80628e-05 4
0.210712 -10.0594 -2.69599 0.000228588 4
0.24058 -11.4852 -2.65215 6.55732e-05 4
0.285708 -13.6396 -2.65186 5.26106e-05 4
0.442553 -21.1274 -2.59468 5.14663e-05 4
0.245298 -10.037 -2.69021 0.000161221 4
0.280622 -11.4824 -2.6517 7.57768e-05 4
0.409582 -16.7591 -2.65517 3.37627e-05 4
0.520577 -21.3007 -2.61618 4.97474e-05 4
0.281023 -10.0608 -2.69683 0.000120318 4
0.320577 -11.4769 -2.65068 9.03531e-05 4
0.381083 -13.643 -2.65297 3.23214e-05 4
0.598765 -21.4362 -2.63306 3.85994e-05 4
0.31606 -10.0572 -2.69616 0.000166045 4
0.361455 -11.5017 -2.6567 8.30702e-05 4
0.429058 -13.6529 -2.65517 3.0068e-05 4
0.678616 -21.594 -2.65272 3.65775e-05 4
0.351173 -10.0563 -2.69623 0.000144392 4
0.400707 -11.4748 -2.65078 6.99569e-05 4
0.476171 -13.6358 -2.65215 5.41254e-05 4
0.759619 -21.7527 -2.67253 4.07466e-05 4
0.385587 -10.0371 -2.69143 0.000197343 4
0.441129 -11.4829 -2.653 5.97575e-05 4
0.524333 -13.6488 -2.65502 4.1348e-05 4
0.84152 -21.9054 -2.69163 4.29272e-05 4
0.420495 -10.0327 -2.69062 4.33209e-05 4
0.481529 -11.4889 -2.65476 6.85054e-05 4
0.571382 -13.6328 -2.65227 3.15765e-05 4
0.70198 -16.7488 -2.65507 3.73468e-05 4
0.455659 -10.0344 -2.69148 0.000334546 4
0.520811 -11.4692 -2.6506 7.57965e-05 4
0.491663 -10.0528 -2.69686 0.000197365 4
0.561102 -11.4726 -2.65182 0.000106411 4
0.666274 -13.623 -2.65121 6.54155e-05 4
0.526701 -10.0501 -2.6966 0.000101093 4
0.601353 -11.4745 -2.65274 0.000100585 4
0.714344 -13.6305 -2.65314 4.81244e-05 4
0.560947 -10.0333 -2.69261 0.000190158 4
0.641873 -11.4807 -2.65468 3.64454e-05 4
0.761719 -13.6244 -2.65244 3.53432e-05 4
0.59635 -10.0377 -2.69434 0.000125172 4
0.682421 -11.4865 -2.65653 5.83152e-05 4
0.630668 -10.0242 -2.69129 8.42534e-05 4
0.722158 -11.4784 -2.65524 0.000188074 4
0.856646 -13.616 -2.65192 3.5347e-05 4
0.666481 -10.0344 -2.69463 0.000117959 4
0.761315 -11.4622 -2.65208 9.62284e-05 4
0.700321 -10.0151 -2.69008 0.000245556 4
0.801945 -11.4684 -2.65415 7.14454e-05 4
0.951531 -13.6075 -2.6515 8.8001e-05 4
0.735165 -10.011 -2.68967 0.000488723 4
0.842546 -11.4733 -2.65595 4.66602e-05 4
0.771211 -10.0228 -2.69354 0.000442997 4
0.881033 -11.4501 -2.65127 4.81205e-05 4
1.04738 -13.612 -2.65372 3.91158e-05 4
0.806198 -10.0201 -2.69356 0.000356336 4
0.920918 -11.446 -2.65105 5.10391e-05 4
0.840606 -10.0105 -2.69175 0.000380427 4
0.961865 -11.4546 -2.6538 3.64581e-05 4
1.14205 -13.6003 -2.65294 3.38538e-05 4
0.876888 -10.0229 -2.69588 0.000447861 4
1.00094 -11.4407 -2.65139 6.12522e-05 4
0.911182 -10.0122 -2.69385 0.000517707 4
1.04266 -11.4569 -2.65596 0.000126885 4
1.23578 -13.5789 -2.65039 3.08479e-05 4
0.946065 -10.0083 -2.69368 0.000435853 4
0.980189 -9.99675 -2.69147 0.000445502 4
1.12089 -11.4317 -2.65187 6.70945e-05 4
1.33154 -13.5801 -2.65236 7.90093e-05 4
1.0158 -10.0004 -2.69339 0.000443109 4
1.16102 -11.43 -2.65241 0.000107939 4
1.04993 -9.98947 -2.69141 0.000411818 4
1.20252 -11.4412 -2.65595 8.60635e-05 4
1.08462 -9.98411 -2.69097 0.000525027 4
1.24102 -11.4238 -2.65291 0.000115243 4
1.47418 -13.5701 -2.65328 3.6877e-05 4
1.11997 -9.9848 -2.6922 0.000467243 4
1.28139 -11.4238 -2.65394 4.81414e-05 4
1.15627 -9.99336 -2.69558 0.000505797 4
1.31992 -11.4077 -2.65125 4.23079e-05 4
1.56821 -13.5536 -2.65214 5.79558e-05 4
1.92466 -16.6343 -2.65219 3.47998e-05 4
1.19017 -9.98104 -2.69336 0.000435964 4
1.35885 -11.3956 -2.64953 4.23098e-05 4
1.61752 -13.565 -2.65544 3.08612e-05 4
1.22453 -9.97301 -2.69233 0.000538625 4
1.6624 -13.5392 -2.65151 4.5918e-05 4
1.2581 -9.9589 -2.68969 0.000558123 4
1.44103 -11.407 -2.65443 0.000275767 4
1.71069 -13.5415 -2.65312 4.96844e-05 4
1.29202 -9.94802 -2.68795 0.000396664 4
1.48072 -11.4009 -2.65422 0.000255351 4
1.75828 -13.538 -2.65363 5.72154e-05 4
1.32594 -9.93747 -2.68633 0.000277102 4
1.52022 -11.3936 -2.65372 0.000310812 4
1.35983 -9.92704 -2.68478 0.000217387 4
1.56085 -11.3945 -2.6552 0.000294773 4
1.38949 -9.88674 -2.67518 0.000715957 4
1.59925 -11.3792 -2.65292 0.000259762 4
1.90002 -13.5194 -2.65373 7.68015e-05 4
1.42603 -9.89599 -2.67901 0.000175332 4
1.63755 -11.3638 -2.65065 7.88077e-05 4
1.9467 -13.5091 -2.65304 0.000124997 4
1.45913 -9.88122 -2.67637 0.000378473 4
1.67901 -11.3702 -2.65349 0.000122595 4
1.48991 -9.85157 -2.66974 0.000388805 4
1.71828 -11.3616 -2.65286 5.40025e-05 4
2.04263 -13.5063 -2.65521 3.916e-05 4
1.5213 -9.827 -2.6645 0.000416934 4
1.75658 -11.3468 -2.65083 4.81665e-05 4
2.08875 -13.4925 -2.65392 0.000166439 4
1.55502 -9.81802 -2.66352 0.00057883 4
1.79896 -11.3582 -2.65493 4.52493e-05 4
2.13428 -13.4753 -2.65198 4.7449e-05 4
1.58741 -9.80099 -2.66039 0.000214533 4
1.83892 -11.3539 -2.6554 4.52513e-05 4
1.61926 -9.78118 -2.65653 0.000314033 4
1.87765 -11.342 -2.65414 6.42303e-05 4
2.22803 -13.4584 -2.65166 3.4649e-05 4
1.65144 -9.76392 -2.65339 0.000405248 4
1.9184 -11.3423 -2.65576 7.15324e-05 4
1.687 -9.76667 -2.65572 0.000298265 4
1.71921 -9.75012 -2.65284 6.53641e-05 4
1.99548 -11.3169 -2.65303 5.83988e-05 4
2.36916 -13.4362 -2.65201 5.49954e-05 4
1.75075 -9.73029 -2.64909 9.55356e-05 4
2.03551 -11.3129 -2.65373 9.19821e-05 4
2.41526 -13.4235 -2.65116 6.10255e-05 4
1.78437 -9.72226 -2.64859 0.000113138 4
2.07356 -11.2979 -2.6519 9.34463e-05 4
2.46226 -13.4158 -2.65133 4.89737e-05 4
1.82094 -9.73013 -2.65244 8.79997e-05 4
2.1156 -11.3046 -2.65519 0.000105132 4
2.5086 -13.4046 -2.65082 4.89763e-05 4
1.85439 -9.72107 -2.65172 6.53736e-05 4
2.15527 -11.2983 -2.65546 0.000141642 4
2.55532 -13.3955 -2.65077 3.39085e-05 4
1.89092 -9.72797 -2.65539 0.000105607 4
2.19395 -11.2869 -2.65455 0.000162092 4
2.60197 -13.386 -2.65067 4.59673e-05 4
1.92365 -9.71516 -2.65371 6.53783e-05 4
2.23388 -11.2819 -2.6552 9.05417e-05 4
1.95887 -9.7149 -2.65549 0.00034702 4
2.2699 -11.2575 -2.65129 0.0001402 4
2.69924 -13.3867 -2.65449 3.08994e-05 4
1.98965 -9.69283 -2.65134 7.29272e-05 4
2.30827 -11.245 -2.65025 0.000143127 4
2.7417 -13.3565 -2.65038 3.31621e-05 4
3.36467 -16.3914 -2.65027 4.10508e-05 4
2.0232 -9.68453 -2.65098 6.53854e-05 4
2.34846 -11.2415 -2.65133 0.000100777 4
2.79188 -13.364 -2.65378 4.97458e-05 4
2.05928 -9.68818 -2.65393 0.000188619 4
2.39033 -11.2456 -2.65426 6.86483e-05 4
2.09076 -9.67014 -2.65097 9.05401e-05 4
2.42637 -11.2224 -2.65077 0.000128539 4
2.88608 -13.3486 -2.65467 4.67359e-05 4
2.12483 -9.66427 -2.65138 0.00012324 4
2.468 -11.2251 -2.65342 8.03401e-05 4
2.93019 -13.3273 -2.65243 3.46769e-05 4
2.16099 -9.66772 -2.65438 0.000110668 4
2.50324 -11.1989 -2.64927 5.40493e-05 4
2.97915 -13.328 -2.65463 8.89585e-05 4
2.19241 -9.64991 -2.65158 8.04888e-05 4
2.22421 -9.63411 -2.64936 3.52151e-05 4
2.58275 -11.1871 -2.65069 8.03505e-05 4
2.26341 -9.65012 -2.65591 0.000108165 4
2.62155 -11.177 -2.65045 7.8893e-05 4
3.11346 -13.2743 -2.65029 3.31763e-05 4
2.29202 -9.6209 -2.65006 4.52799e-05 4
2.66432 -11.1836 -2.65421 3.06819e-05 4
3.1648 -13.2844 -2.6545 6.10777e-05 4
2.33004 -9.63124 -2.65513 0.000123266 4
2.70127 -11.1657 -2.65218 4.82165e-05 4
3.20563 -13.2505 -2.64994 5.95729e-05 4
2.35966 -9.60682 -2.65065 0.000153459 4
2.74059 -11.1577 -2.65253 7.01361e-05 4
3.25085 -13.2351 -2.64911 4.90183e-05 4
2.39176 -9.59285 -2.64908 4.78005e-05 4
2.77684 -11.1373 -2.64996 3.21471e-05 4
3.3036 -13.25 -2.65439 5.05292e-05 4
2.8194 -11.1422 -2.65345 6.72196e-05 4
3.34598 -13.2232 -2.65134 6.33534e-05 4
2.46024 -9.58199 -2.65077 0.000161024 4
2.85612 -11.1238 -2.65144 0.000154904 4
2.49275 -9.5698 -2.64979 0.00010316 4
2.89852 -11.1276 -2.65474 5.84568e-05 4
3.43983 -13.2057 -2.65259 6.10973e-05 4
3.48397 -13.1863 -2.65112 8.7502e-05 4
2.55855 -9.54866 -2.64881 0.000206334 4
2.9726 -11.0939 -2.65157 6.13849e-05 4
2.59545 -9.55286 -2.65247 4.02617e-05 4
3.01289 -11.0893 -2.65297 0.000128622 4
3.57452 -13.1564 -2.65006 3.92292e-05 4
4.39228 -16.1663 -2.65331 2.93586e-05 4
2.63163 -9.55409 -2.65535 3.52303e-05 4
3.0528 -11.0831 -2.65403 5.99286e-05 4
2.65923 -9.5243 -2.64963 0.000118277 4
3.08908 -11.0639 -2.65199 3.65434e-05 4
3.66984 -13.1439 -2.65263 4.75327e-05 4
2.69485 -9.52341 -2.65199 0.000100665 4
3.12704 -11.0507 -2.65144 5.55483e-05 4
2.7301 -9.52099 -2.65395 0.00048321 4
3.16912 -11.052 -2.65439 0.000100868 4
3.76151 -13.118 -2.65263 4.37649e-05 4
2.76421 -9.51447 -2.65481 0.000221479 4
3.20162 -11.02 -2.64937 0.000138883 4
2.79498 -9.49652 -2.65251 8.30576e-05 4
3.246 -11.029 -2.65423 8.04091e-05 4
3.85317 -13.092 -2.65275 0.000100368 4
2.82463 -9.47505 -2.64924 0.000161087 4
3.28209 -11.0096 -2.6523 4.23993e-05 4
2.85831 -9.46717 -2.64982 7.80294e-05 4
3.31994 -10.9962 -2.65185 9.64992e-05 4
3.94094 -13.053 -2.65037 8.15105e-05 4
3.98532 -13.0354 -2.6496 3.62288e-05 4
2.92831 -9.45985 -2.65343 0.000135932 4
3.39494 -10.9673 -2.65053 9.06584e-05 4
4.03489 -13.0346 -2.65229 4.00047e-05 4
2.95878 -9.44148 -2.65115 0.000206422 4
3.4365 -10.9659 -2.65308 0.000103823 4
4.08157 -13.0243 -2.65307 5.35941e-05 4
2.99481 -9.44083 -2.65389 0.000140976 4
3.47312 -10.9487 -2.65183 0.000128688 4
4.12277 -12.9966 -2.65035 4.68029e-05 4
5.06048 -15.9527 -2.65073 4.1136e-05 4
3.02471 -9.42089 -2.65124 8.05608e-05 4
3.51255 -10.9403 -2.65276 6.72713e-05 4
3.06071 -9.41991 -2.65395 0.000269385 4
3.54652 -10.9151 -2.64962 0.000179885 4
4.21878 -12.9841 -2.65373 3.92582e-05 4
3.0906 -9.40013 -2.6514 0.000198898 4
3.58605 -10.907 -2.6507 3.2176e-05 4
5.22775 -15.9003 -2.65098 4.24506e-05 4
3.12773 -9.4023 -2.65508 9.56761e-05 4
3.15279 -9.36832 -2.64857 0.000135966 4
3.66159 -10.8802 -2.65032 6.87454e-05 4
4.35016 -12.9262 -2.65108 2.86932e-05 4
5.33753 -15.8601 -2.65044 3.59246e-05 4
3.19185 -9.37601 -2.65388 0.000143524 4
3.7023 -10.8754 -2.65229 0.000121407 4
4.39516 -12.9107 -2.65102 0.000112513 4
3.22421 -9.36379 -2.65359 0.000206481 4
3.73796 -10.8558 -2.65068 0.000127263 4
3.2551 -9.34738 -2.65214 0.000128426 4
3.7741 -10.8378 -2.64946 0.000114103 4
4.48497 -12.8791 -2.65089 5.5885e-05 4
3.28643 -9.33232 -2.65111 0.000221605 4
4.52705 -12.8553 -2.64923 3.77621e-05 4
5.56092 -15.7911 -2.65162 3.82211e-05 4
3.31891 -9.32059 -2.65105 0.000138508 4
3.84819 -10.807 -2.64845 7.31488e-05 4
3.35036 -9.306 -2.65021 0.000241768 4
3.88974 -10.8042 -2.65107 6.72998e-05 4
4.62215 -12.8385 -2.65236 4.45639e-05 4
3.38356 -9.29627 -2.65079 0.000188888 4
3.92995 -10.7975 -2.65277 0.000108269 4
5.72505 -15.7295 -2.65119 3.56149e-05 4
3.96417 -10.7743 -2.65047 8.77897e-05 4
4.71285 -12.8091 -2.65303 6.26982e-05 4
5.77917 -15.7073 -2.65084 3.56174e-05 4
3.44927 -9.27482 -2.65148 0.000231718 4
3.9982 -10.7508 -2.64811 0.000182903 4
4.75216 -12.7782 -2.65003 3.0973e-05 4
3.4771 -9.25067 -2.64802 7.05255e-05 4
4.03682 -10.7398 -2.64884 0.000112673 4
4.79473 -12.7562 -2.64892 4.68397e-05 4
3.51156 -9.24425 -2.64968 9.06788e-05 4
4.07554 -10.7289 -2.64966 5.56071e-05 4
3.54446 -9.23365 -2.65017 0.000108315 4
4.11324 -10.7154 -2.64984 8.78045e-05 4
4.889 -12.7363 -2.65182 6.6489e-05 4
3.58246 -9.23612 -2.65446 0.000216637 4
4.14729 -10.6924 -2.64771 0.000127322 4
4.92801 -12.7052 -2.6489 0.000103517 4
3.61201 -9.21677 -2.6525 0.00011336 4
4.18829 -10.6873 -2.65005 7.464e-05 4
3.64455 -9.20508 -2.65278 8.5653e-05 4
4.22225 -10.6642 -2.64797 7.17159e-05 4
5.01567 -12.6682 -2.64842 6.9522e-05 4
3.67935 -9.19903 -2.65472 6.8021e-05 4
4.26137 -10.6542 -2.64916 7.17189e-05 4
5.06781 -12.6704 -2.65258 5.28999e-05 4
3.70171 -9.16205 -2.64776 0.000183915 4
4.29785 -10.6376 -2.64875 4.83025e-05 4
3.73534 -9.15318 -2.64895 0.000163766 4
4.34171 -10.639 -2.65287 5.12321e-05 4
5.15262 -12.6261 -2.65077 8.54044e-05 4
3.77299 -9.15397 -2.65298 0.000105821 4
4.37272 -10.609 -2.64918 4.24512e-05 4
5.19652 -12.6077 -2.6507 3.62799e-05 4
3.79823 -9.12466 -2.64831 0.000100786 4
5.24315 -12.5959 -2.65204 8.69249e-05 4
3.83267 -9.11757 -2.65012 0.000196539 4
4.44551 -10.5755 -2.64848 6.8806e-05 4
5.28313 -12.5681 -2.65005 5.06458e-05 4
3.86547 -9.10648 -2.6508 0.000123471 4
4.48318 -10.5617 -2.64894 8.6377e-05 4
5.33114 -12.5594 -2.65213 3.77973e-05 4
3.89489 -9.08745 -2.6492 0.000120956 4
4.52005 -10.5461 -2.64896 3.36738e-05 4
5.3669 -12.5219 -2.64816 3.47753e-05 4
3.93456 -9.09223 -2.65458 0.00015372 4
4.56233 -10.5429 -2.65215 7.17428e-05 4
5.4146 -12.5124 -2.65013 3.78012e-05 4
6.6462 -15.3585 -2.65054 3.59827e-05 4
3.96358 -9.07228 -2.65278 0.000110884 4
4.60028 -10.5296 -2.65283 0.000128849 4
5.45997 -12.4974 -2.65096 3.5535e-05 4
3.99306 -9.05348 -2.65134 0.000105847 4
4.62966 -10.4969 -2.64863 8.63913e-05 4
5.50611 -12.484 -2.65219 4.15856e-05 4
4.02325 -9.03637 -2.65043 0.000277228 4
4.66602 -10.4801 -2.64849 6.00371e-05 4
5.5396 -12.4422 -2.64739 3.93193e-05 4
4.05865 -9.0309 -2.65297 7.30899e-05 4
4.70052 -10.4591 -2.64733 9.07915e-05 4
4.08968 -9.01566 -2.65267 7.56128e-05 4
4.74782 -10.4665 -2.65337 5.71132e-05 4
4.12313 -9.0057 -2.65395 7.81359e-05 4
4.78094 -10.4425 -2.6515 8.93345e-05 4
5.67937 -12.4048 -2.65196 4.23503e-05 4
4.14962 -8.9806 -2.65081 0.000153757 4
4.81597 -10.4227 -2.65073 7.3228e-05 4
5.713 -12.3641 -2.64749 4.91591e-05 4
4.18478 -8.97429 -2.65324 8.31827e-05 4
4.84997 -10.4008 -2.64944 7.46956e-05 4
4.21585 -8.95914 -2.6531 9.32686e-05 4
4.8894 -10.3905 -2.65116 6.00519e-05 4
5.80864 -12.344 -2.65181 5.59714e-05 4
4.23718 -8.92348 -2.6469 4.03337e-05 4
4.91805 -10.3574 -2.64707 6.15191e-05 4
5.84946 -12.3189 -2.6508 4.16025e-05 4
4.27138 -8.91506 -2.64881 0.000118484 4
4.95615 -10.3443 -2.64813 3.36904e-05 4
5.88671 -12.2865 -2.64823 4.84126e-05 4
4.30287 -8.90092 -2.64906 0.000113446 4
4.99292 -10.3284 -2.64849 0.00010547 4
4.33654 -8.89122 -2.65066 0.000118492 4
5.03091 -10.3149 -2.64953 6.29915e-05 4
5.97532 -12.2512 -2.64955 4.16088e-05 4
4.37251 -8.88612 -2.65367 6.05089e-05 4
5.06464 -10.2927 -2.64835 9.37587e-05 4
6.02346 -12.2413 -2.65193 2.95059e-05 4
4.39222 -8.84806 -2.64687 0.0001185 4
5.10804 -10.2901 -2.65225 4.98113e-05 4
7.43385 -14.9754 -2.64803 3.7983e-05 4
4.42266 -8.83184 -2.64662 8.8248e-05 4
5.14211 -10.2685 -2.65131 3.95576e-05 4
4.46429 -8.83778 -2.65305 0.00010338 4
5.17781 -10.2503 -2.65125 6.59321e-05 4
6.14998 -12.1749 -2.65135 4.16172e-05 4
4.48706 -8.80636 -2.6483 0.000153814 4
7.59177 -14.8997 -2.64855 6.94307e-05 4
4.51492 -8.78508 -2.64663 0.000113473 4
5.24091 -10.1977 -2.64705 7.17985e-05 4
7.63794 -14.8618 -2.64655 6.32123e-05 4
4.55682 -8.79101 -2.65319 0.00010339 4
5.2775 -10.1813 -2.64756 4.396e-05 4
7.69874 -14.8524 -2.64963 6.55092e-05 4
4.58559 -8.77142 -2.65209 6.3045e-05 4
6.31163 -12.073 -2.64811 0.000162718 4
7.74609 -14.8169 -2.64811 5.73242e-05 4
4.61522 -8.75355 -2.65155 0.000189141 4
5.34829 -10.1439 -2.64748 7.03417e-05 4
6.36215 -12.0669 -2.65161 0.000155157 4
4.63948 -8.72559 -2.64796 0.000209323 4
5.38574 -10.1291 -2.6485 0.000310689 4
6.3989 -12.0346 -2.6494 0.000128673 4
7.88464 -14.8289 -2.66002 3.45973e-05 4
4.67536 -8.71951 -2.65106 0.000176544 4
5.42105 -10.1102 -2.6485 0.000282855 4
6.44542 -12.0207 -2.65128 0.000125652 4
4.70755 -8.70643 -2.65206 0.000501905 4
5.45818 -10.0947 -2.6494 0.000274073 4
6.48751 -11.9984 -2.65135 3.17931e-05 4
4.74079 -8.69522 -2.65367 0.0004767 4
5.49551 -10.0795 -2.65043 0.00032978 4
6.5339 -11.984 -2.65319 9.37312e-05 4
8.13885 -14.9277 -2.69289 2.95623e-05 4
4.75983 -8.65811 -2.6474 0.000479238 4
5.53345 -10.0653 -2.65176 0.000290218 4
6.60664 -12.0174 -2.66568 8.96308e-05 4
4.79052 -8.64233 -2.64767 0.00044394 4
5.5675 -10.044 -2.65126 5.86322e-05 4
6.67331 -12.039 -2.67561 8.49502e-05 4
8.32226 -15.0138 -2.71883 3.62852e-05 4
4.82336 -8.63039 -2.64915 0.000514584 4
5.59954 -10.0192 -2.64985 4.32462e-05 4
6.74016 -12.0601 -2.68552 8.90181e-05 4
8.39032 -15.0127 -2.72393 4.90326e-05 1
4.86055 -8.62609 -2.65303 0.000471718 4
5.65661 -10.0389 -2.66026 0.000106847 4
6.80528 -12.0774 -2.69465 9.88332e-05 4
8.44422 -14.9861 -2.72443 4.90358e-05 1
4.89137 -8.61038 -2.65343 0.000108473 4
5.70195 -10.0372 -2.66509 0.000170261 4
6.86818 -12.0902 -2.70283 9.15669e-05 4
8.50207 -14.9663 -2.72622 4.90389e-05 1
4.91568 -8.58327 -2.65035 0.000105954 4
5.75347 -10.0461 -2.67276 0.000182596 4
6.93918 -12.1165 -2.71411 9.90994e-05 4
8.55408 -14.9363 -2.72616 4.90421e-05 1
4.95203 -8.57718 -2.65379 0.000314492 4
5.81871 -10.0783 -2.68671 0.000155944 4
6.99825 -12.1213 -2.72064 8.76077e-05 4
8.60423 -14.903 -2.72555 4.90452e-05 1
5.00536 -8.60007 -2.66626 0.000290799 4
5.87191 -10.089 -2.695 0.000156635 4
7.0468 -12.1076 -2.72307 0.000114102 1
8.65624 -14.8729 -2.72556 4.90484e-05 1
5.03964 -8.58986 -2.66853 0.000294739 4
5.92427 -10.0977 -2.70283 0.00015099 4
7.08917 -12.0832 -2.72313 0.000114107 1
8.59767 -14.6544 -2.691 4.70349e-05 4
5.09132 -8.60895 -2.67997 0.000269382 4
5.97062 -10.0958 -2.70789 0.000179018 4
7.13125 -12.0583 -2.72311 0.000114113 1
8.45 -14.2882 -2.62916 3.48051e-05 4
5.13162 -8.60837 -2.68535 0.000315614 4
6.0184 -10.096 -2.71356 0.000183007 4
7.18456 -12.0522 -2.72738 0.000114119 1
8.30498 -13.9317 -2.56889 4.64182e-05 4
5.17471 -8.61217 -2.69215 0.000283875 4
6.08622 -10.1292 -2.72818 0.00014925 4
7.22082 -12.0175 -2.72521 0.000114124 1
8.24083 -13.715 -2.53422 3.10483e-05 4
5.22225 -8.62296 -2.70121 0.000302837 4
6.12032 -10.1059 -2.72763 0.000222021 1
7.26547 -11.9967 -2.72624 0.00011413 1
8.28644 -13.6825 -2.53354 4.12741e-05 4
5.25301 -8.60582 -2.70156 0.000278246 4
6.15392 -10.0817 -2.72691 0.00022203 1
7.31309 -11.9808 -2.7284 0.000114135 1
8.34803 -13.6763 -2.53776 4.96078e-05 4
5.30196 -8.61822 -2.71125 0.00026692 4
6.18616 -10.0555 -2.72562 0.000222039 1
7.28159 -11.8361 -2.70121 0.00010438 4
5.35076 -8.62989 -2.72078 0.000266355 4
6.21967 -10.0313 -2.72494 0.000222048 1
7.18903 -11.5947 -2.65185 8.3152e-05 4
8.80521 -14.2014 -2.64654 3.90327e-05 4
5.39363 -8.63161 -2.72724 0.000276231 4
6.26372 -10.0241 -2.7289 0.000222056 1
7.0869 -11.3414 -2.59955 4.15996e-05 4
8.86094 -14.1805 -2.6484 3.96912e-05 4
5.41975 -8.60642 -2.72524 0.000383456 1
6.28838 -9.98577 -2.72443 0.000222065 1
6.99956 -11.1151 -2.55327 0.000116396 4
5.44828 -8.58512 -2.7245 0.000383468 1
6.33488 -9.98218 -2.72947 0.000222074 1
6.98591 -11.008 -2.53426 0.000106512 4
8.96196 -14.1218 -2.64906 5.64276e-05 4
3.67333 -5.78824 -0.599773 0.000956301 8
3.67818 -5.79589 -0.359753 0.00102986 8
5.48222 -8.5723 -2.72649 0.000383481 1
6.36205 -9.94807 -2.7262 0.000222082 1
7.03506 -11.0004 -2.53814 0.000121239 4
8.99929 -14.0718 -2.64555 5.08536e-05 4
3.70547 -5.79408 -0.601715 0.000991763 8
3.69815 -5.78263 -0.35973 0.0010673 8
5.51505 -8.55768 -2.72795 0.000383493 1
6.36891 -9.88262 -2.71434 0.000152942 4
7.0639 -10.961 -2.53473 0.000130771 4
9.0476 -14.0391 -2.64533 4.856e-05 4
3.72882 -5.78599 -0.602223 0.00102201 8
3.71997 -5.77226 -0.35989 0.00109948 8
5.53922 -8.52965 -2.72516 0.000383506 1
6.3066 -9.71131 -2.67332 0.00015662 4
7.42675 -11.4362 -2.65059 0.0001114 4
9.1062 -14.0223 -2.64814 2.98597e-05 4
3.73764 -5.75546 -0.6004 0.00105822 8
3.74375 -5.76487 -0.360242 0.00113766 8
5.57094 -8.51329 -2.72613 0.000383518 1
6.23262 -9.52444 -2.62785 0.000187021 4
7.46099 -11.4016 -2.64859 7.95754e-05 4
9.15057 -13.9835 -2.64683 5.25038e-05 4
3.76225 -5.74932 -0.84364 0.00101039 8
3.764 -5.75199 -0.601405 0.00109486 8
3.76634 -5.75557 -0.36048 0.00117626 8
5.60891 -8.50636 -2.73017 0.00038353 1
6.16743 -9.35339 -2.58658 0.000181518 4
7.50458 -11.3813 -2.64994 6.21475e-05 4
9.20765 -13.9641 -2.64923 4.03648e-05 4
3.79621 -5.75725 -0.846743 0.00105135 8
3.79609 -5.75708 -0.603319 0.00113798 8
3.79244 -5.75154 -0.361054 0.00121529 8
5.6264 -8.46841 -2.72427 0.000383543 1
6.10564 -9.18972 -2.5472 0.000241672 4
7.53581 -11.3423 -2.64697 0.000106111 4
9.20654 -13.857 -2.63497 5.82317e-05 4
3.80395 -5.7254 -0.844006 0.00108079 8
3.80451 -5.72625 -0.601476 0.00116942 8
3.80622 -5.72882 -0.36046 0.00125472 8
5.66359 -8.46017 -2.72796 0.000383555 1
6.11406 -9.13307 -2.53739 0.000249733 4
7.58461 -11.3298 -2.65021 5.76056e-05 4
9.13095 -13.6397 -2.5997 5.36422e-05 4
3.83144 -5.72334 -0.845669 0.00111661 8
3.8325 -5.72493 -0.602738 0.00120732 8
3.82597 -5.71516 -0.360439 0.00130095 8
5.68569 -8.42938 -2.72442 0.000383567 1
6.14295 -9.1073 -2.53618 0.000218109 4
7.61994 -11.297 -2.64876 0.000109911 4
9.05025 -13.4176 -2.56337 4.57336e-05 4
3.85965 -5.72217 -0.847481 0.00115285 8
3.86098 -5.72414 -0.604071 0.00124562 8
3.86038 -5.72326 -0.361797 0.00133482 8
5.6375 -8.29533 -2.68744 0.000264981 4
6.16982 -9.07862 -2.53417 0.000203132 4
7.6648 -11.2784 -2.65065 6.82237e-05 4
8.99573 -13.2368 -2.53483 4.73763e-05 4
3.87228 -5.69789 -0.845882 0.00118949 8
3.87741 -5.70544 -0.603522 0.00128434 8
3.87648 -5.70406 -0.361437 0.00137548 8
5.58635 -8.15867 -2.64946 0.000238696 4
6.21185 -9.07218 -2.53841 0.000199809 4
7.6905 -11.2317 -2.64596 3.71457e-05 4
9.04351 -13.2077 -2.53528 5.00324e-05 4
3.9017 -5.6983 -0.847959 0.00123315 8
3.89468 -5.68804 -0.603116 0.00132345 8
3.89338 -5.68614 -0.36116 0.00141653 8
5.54533 -8.03842 -2.61668 0.000260791 4
6.50797 -9.43385 -2.64595 0.000189295 4
7.72991 -11.2052 -2.64605 7.5053e-05 4
9.09036 -13.1772 -2.53551 4.58658e-05 4
3.91357 -5.67304 -0.846228 0.00126395 8
3.92961 -5.6963 -0.605442 0.00136294 8
3.92976 -5.69652 -0.362688 0.00143722 8
5.52965 -7.95613 -2.59616 0.000329266 4
6.5473 -9.42032 -2.64855 0.000374202 4
7.7705 -11.1803 -2.64657 0.000109173 4
9.13624 -13.1453 -2.53549 5.49664e-05 4
3.94992 -5.68319 -0.849795 0.00130176 8
3.94435 -5.67518 -0.604657 0.00139583 8
3.95003 -5.68335 -0.362726 0.00144342 8
5.51068 -7.87007 -2.57434 0.000341101 4
6.57964 -9.3967 -2.64835 0.000193712 4
7.81847 -11.1659 -2.64962 5.76219e-05 4
9.1771 -13.1063 -2.53412 5.9519e-05 4
3.96065 -5.65639 -0.847849 0.00133292 8
3.96248 -5.659 -0.604404 0.00143594 8
3.96121 -5.65719 -0.361936 0.00145585 8
5.54085 -7.85465 -2.57561 0.000343841 4
6.61433 -9.37642 -2.64912 0.00011447 4
7.85802 -11.1395 -2.64983 0.000137237 4
9.23294 -13.0885 -2.5369 5.72478e-05 4
3.99046 -5.65684 -0.85 0.00137849 8
3.98305 -5.64634 -0.604533 0.00148366 8
3.99099 -5.65759 -0.362851 0.00146761 8
5.57843 -7.84962 -2.58033 0.000302917 4
6.65038 -9.35799 -2.65046 0.000159971 4
7.89943 -11.1156 -2.65069 0.000123595 4
9.27851 -13.0561 -2.53689 5.08057e-05 4
4.0044 -5.63474 -0.848774 0.00141741 8
4.01237 -5.64595 -0.605986 0.00151726 8
4.01341 -5.64742 -0.363095 0.0014787 8
5.59602 -7.81644 -2.57583 0.000338404 4
7.87898 -11.0053 -2.63092 0.000115268 4
9.3182 -13.0155 -2.5353 5.19462e-05 4
4.03627 -5.6378 -0.851352 0.00144189 8
4.03621 -5.63772 -0.606611 0.00155845 8
4.02744 -5.62547 -0.362586 0.00150423 8
4.03878 -5.59991 -1.85003 0.00112647 8
4.03814 -5.59902 -1.59375 0.00116217 8
4.03432 -5.59372 -1.3406 0.00119348 8
4.04008 -5.60171 -1.0939 0.00122009 8
4.02902 -5.58637 -0.845704 0.00124175 8
4.04134 -5.60346 -0.60444 0.00125823 8
4.03594 -5.59598 -0.36159 0.00126937 8
4.05528 -5.58162 -1.84865 0.00114505 8
4.05049 -5.57502 -1.59094 0.00118134 8
4.05065 -5.57524 -1.33955 0.00121316 8
4.05191 -5.57698 -1.09183 0.00124022 8
4.04894 -5.57289 -0.845797 0.00126223 8
4.04891 -5.57285 -0.602658 0.00127898 8
4.05505 -5.5813 -0.361554 0.00129031 8
5.83998 -7.97932 -2.64951 0.000272734 4
6.77455 -9.25626 -2.64818 0.000226048 4
7.74852 -10.587 -2.5502 0.000165807 4
9.45319 -12.9161 -2.53509 4.77839e-05 4
4.10087 -5.60313 -0.852554 0.0015688 8
4.10073 -5.60294 -0.607457 0.00160537 8
4.09708 -5.59795 -0.363557 0.00152433 8
5.8628 -7.95211 -2.64726 0.000401538 4
6.80998 -9.23684 -2.64941 0.000234864 4
7.74277 -10.502 -2.53622 0.000119613 4
9.49668 -12.881 -2.53468 4.6649e-05 4
4.12548 -5.59567 -0.853606 0.00160931 8
4.12339 -5.59283 -0.607918 0.00162268 8
4.12225 -5.59128 -0.364056 0.00153222 8
5.89137 -7.93274 -2.64764 0.000303057 4
6.84795 -9.22078 -2.65164 0.000133584 4
7.78454 -10.4819 -2.5379 0.000104016 4
9.54038 -12.8461 -2.53436 4.24796e-05 4
4.14555 -5.58199 -0.853721 0.00164212 8
4.13635 -5.5696 -0.606958 0.00162334 8
4.14808 -5.58539 -0.364613 0.00153946 8
5.92157 -7.91553 -2.64878 0.000373782 4
6.87484 -9.18979 -2.64962 0.000234881 4
7.82053 -10.4539 -2.53773 0.00012049 4
9.58244 -12.8091 -2.53364 5.84129e-05 4
4.16882 -5.57257 -0.854501 0.00169127 8
4.16391 -5.56601 -0.608148 0.00163133 8
4.16462 -5.56696 -0.364357 0.00154604 8
5.94418 -7.8882 -2.64656 0.000325807 4
6.9099 -9.16975 -2.65078 0.000171763 4
7.85242 -10.4205 -2.53625 0.00014997 4
9.63523 -12.7864 -2.53578 6.2589e-05 4
4.19718 -5.56985 -0.856325 0.00172446 8
4.19841 -5.57148 -0.610342 0.00164703 8
4.18229 -5.55009 -0.364206 0.0015604 8
5.97862 -7.87654 -2.64963 0.000131337 4
6.94107 -9.14452 -2.65047 0.00019526 4
7.87995 -10.3815 -2.53343 8.92923e-05 4
9.67758 -12.7497 -2.5352 4.51426e-05 4
4.21286 -5.55023 -0.855565 0.00172422 8
4.22096 -5.56092 -0.610796 0.00164534 8
4.21027 -5.54682 -0.364954 0.00155724 8
6.00173 -7.84994 -2.64772 0.000255105 4
6.96723 -9.11276 -2.6483 0.000135072 4
7.93159 -10.3741 -2.53837 0.000121374 4
9.72428 -12.7188 -2.53579 4.55246e-05 4
4.23398 -5.53782 -0.855924 0.00174008 8
4.22734 -5.52913 -0.608922 0.00165998 8
4.22773 -5.52964 -0.364792 0.00156187 8
6.03292 -7.83391 -2.6494 0.000487492 4
6.96626 -9.04587 -2.63591 0.000234008 4
7.96187 -10.3387 -2.5365 0.000117044 4
9.7689 -12.6852 -2.53586 4.97006e-05 4
4.2567 -5.52744 -0.856612 0.00174692 8
4.25712 -5.52798 -0.610428 0.00165676 8
4.24978 -5.51845 -0.365031 0.00157466 8
6.06417 -7.81789 -2.65112 0.000394047 4
6.92209 -8.92391 -2.6074 0.000242523 4
7.99389 -10.3057 -2.53522 0.000100576 4
9.80101 -12.6354 -2.53273 5.46359e-05 4
4.28741 -5.5273 -0.858903 0.0017531 8
4.28647 -5.52608 -0.611867 0.00167033 8
4.27556 -5.51202 -0.36559 0.00157812 8
6.09314 -7.79887 -2.65187 0.000348591 4
6.90828 -8.84219 -2.59055 0.00029204 4
8.03375 -10.2827 -2.53646 0.000104049 4
9.85196 -12.6099 -2.53451 4.89475e-05 4
4.31059 -5.5173 -0.859683 0.00175864 8
4.30418 -5.5091 -0.611646 0.00167454 8
4.30461 -5.50965 -0.366427 0.00158096 8
6.11233 -7.76739 -2.6484 0.000275345 4
6.86028 -8.71786 -2.56112 0.000275728 4
8.06602 -10.2501 -2.53534 0.000130067 4
9.89638 -12.5761 -2.53462 2.99773e-05 4
4.3295 -5.50182 -0.85962 0.00176354 8
4.32124 -5.49132 -0.611343 0.00166904 8
4.31931 -5.48887 -0.366045 0.00158315 8
6.13215 -7.73685 -2.64527 0.000406714 4
6.84684 -8.63856 -2.54483 0.000340642 4
8.09861 -10.2179 -2.53436 8.7582e-05 4
9.94785 -12.5511 -2.53657 4.55378e-05 4
4.34717 -5.48476 -0.85932 0.0017678 8
4.35031 -5.48873 -0.612742 0.00168104 8
4.35607 -5.496 -0.367533 0.00157546 8
6.17056 -7.72972 -2.65018 0.000255151 4
6.85747 -8.5902 -2.53762 0.00020163 4
8.12954 -10.1837 -2.5329 0.000105797 4
9.98991 -12.5142 -2.53614 4.70585e-05 4
4.37127 -5.4758 -0.860302 0.00177143 8
4.37148 -5.47605 -0.613027 0.00168335 8
4.36466 -5.46752 -0.366645 0.00157628 8
6.18948 -7.69816 -2.64675 0.000280422 4
6.87575 -8.5517 -2.53333 0.000223301 4
8.18031 -10.1743 -2.53763 0.000108403 4
10.0327 -12.4781 -2.53592 5.76879e-05 4
4.39864 -5.47081 -0.614154 0.00168502 8
4.40162 -5.47452 -0.368142 0.00158598 8
6.22767 -7.69054 -2.65159 0.000434542 4
6.92168 -8.54756 -2.53924 0.00017998 4
8.20048 -10.1268 -2.53291 0.000103205 4
10.0613 -12.4247 -2.53219 5.23776e-05 4
4.42292 -5.46186 -0.614879 0.00167654 8
4.4177 -5.45541 -0.367892 0.00158568 8
6.25236 -7.66615 -2.65069 0.00022991 4
6.94644 -8.51718 -2.5374 0.000251648 4
8.25226 -10.1183 -2.53798 0.00012229 4
10.1057 -12.3908 -2.53245 4.78257e-05 4
4.43812 -5.44168 -0.614348 0.00169614 8
4.43218 -5.4344 -0.367516 0.00158476 8
22.6401 -27.7595 3.13395 2.95702e-05 10
6.28279 -7.64879 -2.65226 0.000330979 4
6.96394 -8.47804 -2.53297 0.000233325 4
8.28055 -10.0809 -2.53584 0.000104948 4
10.1538 -12.3615 -2.53368 4.06162e-05 4
4.46511 -5.43591 -0.615453 0.00168631 8
4.46195 -5.43207 -0.36841 0.00158323 8
22.7552 -27.7027 3.13649 2.9416e-05 10
6.29964 -7.61496 -2.64813 0.000638727 4
7.00202 -8.46399 -2.53606 0.00023 4
8.32128 -10.0587 -2.53755 0.000119698 4
10.2068 -12.3379 -2.53613 5.50439e-05 4
22.8696 -27.6446 3.13893 2.92602e-05 10
6.30511 -7.56763 -2.63931 0.000465224 4
7.04028 -8.45001 -2.53922 0.000211674 4
8.34257 -10.0131 -2.53336 8.76092e-05 4
11.0144 -13.2199 -2.72533 4.91928e-05 1
6.27179 -7.47442 -2.61443 0.000408145 4
7.05231 -8.40462 -2.53296 0.000193347 4
8.38454 -9.99231 -2.5355 0.000123179 4
11.0546 -13.1744 -2.72388 4.91957e-05 1
22.955 -27.3568 -0.623351 3.92202e-05 10
22.96 -27.3627 0.623486 3.92222e-05 10
6.25787 -7.40519 -2.59783 0.000482335 4
7.08695 -8.38627 -2.53487 0.000200021 4
8.41 -9.95189 -2.53268 0.000122317 4
11.0912 -13.1246 -2.72158 4.91985e-05 1
23.0657 -27.2946 -0.623765 3.90043e-05 10
23.0675 -27.2967 0.623812 3.90064e-05 10
21.745 -25.7318 2.94743 3.94817e-05 10
21.743 -25.7294 6.54793 3.63006e-05 10
6.2404 -7.33244 -2.57994 0.000481409 4
7.12364 -8.37025 -2.53753 0.000190027 4
8.45059 -9.92941 -2.53445 0.000111044 4
11.1371 -13.086 -2.72163 4.92014e-05 1
23.18 -27.2365 -0.624281 3.87866e-05 10
23.1804 -27.2369 0.624291 3.87887e-05 10
21.8634 -25.6894 2.9513 3.92671e-05 10
21.8644 -25.6906 6.55745 3.6102e-05 10
6.26431 -7.3087 -2.57926 0.00038509 4
7.14617 -8.33758 -2.53517 0.000181698 4
8.48863 -9.90386 -2.53548 0.000104976 4
11.1835 -13.0481 -2.72183 4.92043e-05 1
23.3051 -27.1906 -0.62509 3.85671e-05 10
23.3115 -27.1981 0.625262 3.85691e-05 10
21.9623 -25.6239 2.95257 3.90507e-05 10
21.9717 -25.6348 6.56274 3.59016e-05 10
6.27864 -7.27387 -2.57469 0.000368714 4
7.18023 -8.31837 -2.53694 0.000215045 4
8.51783 -9.86801 -2.5339 8.93636e-05 4
11.2308 -13.011 -2.72226 4.92071e-05 1
21.2682 -24.6395 2.84768 4.6255e-05 10
21.2581 -24.6278 6.3239 4.25861e-05 10
6.31756 -7.26752 -2.58023 0.000355069 4
7.21436 -8.29918 -2.53875 0.000235058 4
8.55912 -9.84615 -2.53594 0.000101514 4
11.2814 -12.9778 -2.72353 4.92099e-05 1
21.3649 -24.5775 2.84911 4.59975e-05 10
21.3628 -24.5751 6.32948 4.23474e-05 10
6.32914 -7.22971 -2.57464 0.000409707 4
7.22751 -8.25591 -2.53321 0.000228397 4
8.58192 -9.80305 -2.53254 0.000100651 4
11.3257 -12.9372 -2.72331 4.92127e-05 1
21.6285 -24.7061 -0.573149 3.83443e-05 10
21.6301 -24.7079 0.573191 3.83462e-05 10
21.4726 -24.528 2.85204 4.57379e-05 10
21.4708 -24.5259 6.33608 4.21069e-05 10
6.35045 -7.20317 -2.57306 0.000376941 4
7.27182 -8.24826 -2.53864 0.00023174 4
8.63236 -9.7915 -2.53732 8.41688e-05 4
11.3698 -12.8965 -2.72307 4.92155e-05 1
6.38176 -7.18795 -2.57557 0.000404268 4
7.29367 -8.21506 -2.53624 0.000276763 4
8.66355 -9.75799 -2.53646 9.6321e-05 4
11.4146 -12.8566 -2.72305 4.92183e-05 1
21.2785 -23.9665 -0.559426 4.27099e-05 10
21.27 -23.957 0.559202 4.2712e-05 10
20.5301 -23.1236 1.62057 5.88575e-05 10
20.5266 -23.1196 2.70488 5.80798e-05 10
20.5263 -23.1193 3.79607 5.69273e-05 10
20.5215 -23.1139 4.89556 5.5418e-05 10
20.5315 -23.1252 6.01108 5.35758e-05 10
20.5279 -23.1212 7.13821 5.14292e-05 10
20.5385 -23.1331 8.289 4.90116e-05 10
6.41076 -7.17004 -2.57716 0.000393353 4
7.31457 -8.18091 -2.53356 0.000228421 4
8.68941 -9.71857 -2.53409 0.000103267 4
11.4568 -12.8137 -2.7224 4.92211e-05 1
21.2019 -23.7131 -0.555233 4.42001e-05 10
21.2056 -23.7172 0.555329 4.42023e-05 10
20.625 -23.0678 1.62169 5.85208e-05 10
20.6294 -23.0727 2.7078 5.77472e-05 10
20.6389 -23.0834 3.80198 5.66008e-05 10
20.6261 -23.069 4.90126 5.50994e-05 10
20.6285 -23.0717 6.01586 5.32669e-05 10
20.6314 -23.075 7.14615 5.11318e-05 10
20.6377 -23.0821 8.29647 4.8727e-05 10
6.43388 -7.14555 -2.57641 0.000335999 4
7.34256 -8.15474 -2.53338 0.00024677 4
8.73545 -9.7017 -2.53762 0.000128439 4
11.5101 -12.7833 -2.72447 4.92239e-05 1
20.7417 -23.036 1.62454 5.81817e-05 10
20.7406 -23.0347 2.71182 5.74122e-05 10
20.7284 -23.0212 3.80363 5.62718e-05 10
20.7366 -23.0303 4.90838 5.47786e-05 10
20.7406 -23.0348 6.02508 5.29559e-05 10
20.7255 -23.018 7.15086 5.08322e-05 10
20.7363 -23.03 8.30374 4.84404e-05 10
6.44945 -7.11275 -2.57269 0.000218542 4
7.37809 -8.1369 -2.53583 0.000215097 4
8.76959 -9.67151 -2.53771 0.000111087 4
11.553 -12.7411 -2.72406 4.92267e-05 1
20.8425 -22.9861 -2.71465 7.3182e-05 10
20.8459 -22.9899 -1.6264 7.41706e-05 10
20.8327 -22.9753 -0.54135 7.46706e-05 10
20.8461 -22.9901 0.541699 7.46742e-05 10
20.8394 -22.9827 1.62589 5.78401e-05 10
20.8342 -22.9769 2.71356 5.70748e-05 10
20.8307 -22.973 3.80766 5.59406e-05 10
20.8283 -22.9705 4.9111 5.44554e-05 10
20.8362 -22.9792 6.02952 5.26426e-05 10
20.831 -22.9734 7.15954 5.05304e-05 10
20.8363 -22.9793 8.31161 4.81517e-05 10
6.47728 -7.09353 -2.57389 0.00038246 4
7.41523 -8.12072 -2.53883 0.000235115 4
8.80006 -9.6373 -2.53678 0.000113696 4
11.5952 -12.6984 -2.72356 4.92295e-05 1
20.9382 -22.9302 -1.62735 7.37295e-05 10
20.9483 -22.9413 -0.542269 7.42269e-05 10
20.9424 -22.9349 0.542118 7.42305e-05 10
20.9496 -22.9427 1.62823 5.74962e-05 10
20.9348 -22.9266 2.71623 5.67351e-05 10
20.9351 -22.9269 3.8121 5.56071e-05 10
20.9483 -22.9413 4.92048 5.413e-05 10
20.9475 -22.9405 6.03852 5.23272e-05 10
20.9429 -22.9354 7.17044 5.02266e-05 10
20.9401 -22.9324 8.32102 4.7861e-05 10
6.51408 -7.08401 -2.57868 0.000327832 4
7.43327 -8.08362 -2.53533 0.000208442 4
8.83668 -9.60982 -2.53765 8.41903e-05 4
11.6321 -12.6498 -2.72183 4.92322e-05 1
21.0415 -22.8825 -1.62916 7.32856e-05 10
21.0386 -22.8793 -0.542536 7.37801e-05 10
21.0445 -22.8858 0.54269 7.37838e-05 10
21.0352 -22.8756 1.62867 5.715e-05 10
21.0375 -22.8781 2.71917 5.63931e-05 10
21.0397 -22.8806 3.81659 5.52713e-05 10
21.0479 -22.8895 4.92507 5.38025e-05 10
21.0503 -22.8921 6.04508 5.20096e-05 10
21.0395 -22.8803 7.17615 4.99208e-05 10
21.0426 -22.8837 8.32998 4.75685e-05 10
6.53585 -7.05807 -2.57752 0.000390678 4
7.45345 -8.04899 -2.53262 0.000203446 4
8.86926 -9.57793 -2.53739 0.000106761 4
11.6862 -12.62 -2.72418 4.9235e-05 1
21.1574 -22.8479 -1.63195 7.28387e-05 10
21.1516 -22.8416 -0.543391 7.33305e-05 10
21.1483 -22.8381 0.543308 7.3334e-05 10
21.1502 -22.8402 1.6314 5.68015e-05 10
21.1492 -22.8391 2.72329 5.60488e-05 10
21.1536 -22.8439 3.82276 5.49334e-05 10
21.1437 -22.8331 4.92881 5.34728e-05 10
21.1419 -22.8312 6.04845 5.169e-05 10
21.1383 -22.8273 7.18262 4.9613e-05 10
21.1501 -22.84 8.34089 4.7274e-05 10
6.56178 -7.03665 -2.57805 0.000398885 4
7.48283 -8.02436 -2.53307 0.000216795 4
8.89831 -9.54227 -2.53616 9.89537e-05 4
11.7234 -12.5718 -2.72259 4.92378e-05 1
21.2472 -22.7848 -1.63273 7.23888e-05 10
21.2549 -22.7931 -0.543998 7.28779e-05 10
21.2477 -22.7854 0.543814 7.28815e-05 10
21.2502 -22.7881 1.63296 5.64508e-05 10
21.2427 -22.78 2.72507 5.57024e-05 10
21.2415 -22.7787 3.82424 5.45933e-05 10
21.2496 -22.7874 4.93491 5.31409e-05 10
21.2416 -22.7788 6.05418 5.13683e-05 10
21.2554 -22.7937 7.19533 4.93032e-05 10
21.2445 -22.782 8.34672 4.69777e-05 10
6.57231 -6.9988 -2.57257 0.000346985 4
7.51177 -7.99923 -2.5334 0.000211799 4
9.58411 -10.206 -2.72145 0.000114445 1
11.7755 -12.5396 -2.72451 4.92405e-05 1
21.3574 -22.7433 1.63508 5.60979e-05 10
21.3521 -22.7377 2.72891 5.53538e-05 10
21.3447 -22.7298 3.82852 5.4251e-05 10
21.3514 -22.737 4.94011 5.28072e-05 10
21.3532 -22.7389 6.06334 5.10447e-05 10
21.3559 -22.7417 7.20242 4.89916e-05 10
21.3468 -22.732 8.35567 4.66795e-05 10
6.60775 -6.9875 -2.57688 0.00037705 4
7.54608 -7.97975 -2.53556 0.000210138 4
9.6285 -10.1819 -2.72395 0.00011445 1
11.8174 -12.4965 -2.72409 4.92433e-05 1
21.4658 -22.6995 -1.63731 7.14811e-05 10
21.4533 -22.6862 1.63636 5.57429e-05 10
21.45 -22.6828 2.73129 5.50031e-05 10
21.4633 -22.6968 3.83556 5.39068e-05 10
21.4524 -22.6853 4.94512 5.24713e-05 10
21.4603 -22.6937 6.07123 5.07193e-05 10
21.4538 -22.6867 7.20867 4.86782e-05 10
21.4587 -22.692 8.36844 4.63796e-05 10
6.63014 -6.96234 -2.57612 0.000325146 4
7.57669 -7.95631 -2.53649 0.000186796 4
9.6647 -10.1489 -2.72415 0.000114455 1
11.8435 -12.4369 -2.72008 4.9246e-05 1
21.568 -22.6486 -1.63906 7.10233e-05 10
21.5722 -22.6531 1.63939 5.53859e-05 10
21.5674 -22.648 2.73615 5.46505e-05 10
21.5648 -22.6452 3.83954 5.35606e-05 10
21.5587 -22.6389 4.95138 5.21336e-05 10
21.5644 -22.6449 6.07827 5.03919e-05 10
21.5666 -22.6472 7.22 4.83628e-05 10
21.564 -22.6444 8.37861 4.60781e-05 10
6.65164 -6.93627 -2.57505 0.000336085 4
7.60202 -7.92731 -2.5357 0.000241842 4
9.69495 -10.1098 -2.72271 0.00011446 1
11.8896 -12.3983 -2.72071 4.92487e-05 1
21.6678 -22.595 -1.64064 7.05628e-05 10
21.6694 -22.5966 1.64076 5.50268e-05 10
21.6611 -22.5879 2.73801 5.42958e-05 10
21.6655 -22.5926 3.84341 5.32124e-05 10
21.6761 -22.6036 4.96019 5.17939e-05 10
21.6694 -22.5966 6.08558 5.00626e-05 10
21.6604 -22.5872 7.22494 4.80458e-05 10
21.6662 -22.5933 8.38763 4.57748e-05 10
6.67155 -6.90859 -2.5734 0.000388012 4
7.62511 -7.89604 -2.53419 0.00025019 4
9.72885 -10.0745 -2.72234 0.000114465 1
11.9407 -12.365 -2.72252 4.92514e-05 1
21.7807 -22.5546 -1.64322 7.01e-05 10
21.7732 -22.5468 -0.547108 4.66165e-05 10
21.7769 -22.5507 0.5472 4.66188e-05 10
21.7616 -22.5348 1.64178 5.46659e-05 10
21.7684 -22.5419 2.74162 5.39393e-05 10
21.7637 -22.537 3.84685 5.28624e-05 10
21.781 -22.5549 4.96614 5.14525e-05 10
21.7623 -22.5355 6.08956 4.97317e-05 10
21.7667 -22.5401 7.2341 4.77271e-05 10
21.7747 -22.5484 8.39912 4.547e-05 10
6.70954 -6.89958 -2.57875 0.0003525 4
7.65601 -7.87285 -2.53531 0.000246862 4
9.77746 -10.0544 -2.72611 0.00011447 1
11.9765 -12.3157 -2.72087 4.92541e-05 1
21.8851 -22.5049 -1.64516 6.96346e-05 10
21.8738 -22.4933 1.64431 5.4303e-05 10
21.8782 -22.4979 2.74554 5.35808e-05 10
21.8854 -22.5053 3.85445 5.25105e-05 10
21.8737 -22.4932 4.96935 5.11092e-05 10
21.8856 -22.5055 6.10204 4.9399e-05 10
21.872 -22.4914 7.24296 4.74067e-05 10
21.8809 -22.5006 8.40973 4.51635e-05 10
6.72363 -6.86594 -2.57494 0.000292392 4
7.67983 -7.84239 -2.53412 0.000191825 4
9.7962 -10.0036 -2.72158 0.000114475 1
12.0321 -12.2868 -2.72373 4.92569e-05 1
21.9831 -22.4484 -1.64663 6.91668e-05 10
21.9778 -22.443 -0.548298 4.59963e-05 10
21.9823 -22.4476 0.54841 4.59986e-05 10
21.9913 -22.4568 1.64724 5.39382e-05 10
21.9731 -22.4382 2.7476 5.32205e-05 10
21.9899 -22.4553 3.85903 5.21569e-05 10
21.9794 -22.4446 4.97553 5.07642e-05 10
21.9824 -22.4477 6.10714 4.90646e-05 10
21.9773 -22.4425 7.25186 4.70847e-05 10
21.9827 -22.448 8.41871 4.48555e-05 10
6.74821 -6.84309 -2.57519 0.000371648 4
7.70778 -7.81616 -2.53432 0.000195168 4
9.83892 -9.97727 -2.72375 0.000114479 1
12.0623 -12.2319 -2.7209 4.92595e-05 1
22.0829 -22.3934 -1.64824 6.86968e-05 10
6.77394 -6.8214 -2.57591 0.000202226 4
7.73918 -7.7934 -2.53568 0.000221865 4
9.88238 -9.95161 -2.72615 0.000114484 1
12.1171 -12.202 -2.72363 4.92622e-05 1
22.191 -22.3465 -1.65048 6.82245e-05 10
18.2688 -18.3968 1.35876 4.41066e-05 10
18.2625 -18.3904 2.2675 4.35798e-05 10
18.2622 -18.3902 3.18224 4.27912e-05 10
18.2622 -18.3901 4.10489 4.17521e-05 10
18.2746 -18.4026 5.04122 4.04777e-05 10
18.2682 -18.3962 5.98545 3.89861e-05 10
18.2575 -18.3854 6.94274 3.72988e-05 10
6.79092 -6.79092 -2.57333 0.000314279 4
7.76346 -7.76347 -2.53475 0.000225209 4
9.89761 -9.89762 -2.72081 0.000114489 1
12.155 -12.155 -2.72258 4.92649e-05 1
22.3086 -22.3086 -1.65342 6.77501e-05 10
18.2987 -18.2987 1.35622 0.000123277 10
18.2857 -18.2857 2.26244 0.000121767 10
18.2987 -18.2987 3.17745 0.000119528 10
18.285 -18.2851 4.09566 0.000116591 10
18.2911 -18.2911 5.02815 0.000112998 10
18.2915 -18.2915 5.97211 0.000108802 10
18.2955 -18.2955 6.93286 0.000104061 10
6.82742 -6.77992 -2.57818 0.000371679 4
7.78784 -7.73366 -2.53388 0.000231889 4
9.93445 -9.86534 -2.72145 0.000114494 1
12.1893 -12.1045 -2.7208 4.92676e-05 1
22.405 -22.2491 -1.6548 6.72736e-05 10
18.3893 -18.2614 1.35821 0.00012248 10
18.3777 -18.2499 2.26594 0.00012098 10
18.3871 -18.2592 3.18172 0.000118754 10
18.3797 -18.2519 4.10257 0.000115834 10
18.3818 -18.2539 5.03551 0.000112263 10
18.387 -18.2591 5.98245 0.000108092 10
18.3797 -18.2518 6.94057 0.00010338 10
6.8499 -6.75491 -2.57775 0.000415418 4
7.82348 -7.715 -2.5367 0.000225224 4
9.97265 -9.83437 -2.7225 0.000114499 1
12.2406 -12.0708 -2.72281 4.92702e-05 1
22.5092 -22.1971 -1.65676 6.67949e-05 10
22.5093 -22.1972 -0.551809 4.44199e-05 10
22.5219 -22.2096 0.552115 4.44221e-05 10
18.4805 -18.2243 1.36023 0.00012168 10
18.4794 -18.2232 2.27062 0.000120189 10
18.4702 -18.2141 3.18507 0.000117976 10
18.468 -18.2119 4.10806 0.000115074 10
18.4696 -18.2135 5.04212 0.000111525 10
18.4733 -18.2171 5.9898 0.000107379 10
18.4651 -18.209 6.94877 0.000102696 10
6.86129 -6.71907 -2.57319 0.000379899 4
7.8431 -7.68053 -2.53435 0.000230236 4
10.0045 -9.79714 -2.72184 0.000114503 1
12.2799 -12.0253 -2.7222 4.92729e-05 1
18.58 -18.1949 -2.27516 5.74289e-05 10
18.5741 -18.1891 -1.36244 5.8165e-05 10
18.5829 -18.1977 -0.453993 5.8546e-05 10
18.5708 -18.1859 0.453697 5.85663e-05 10
18.5531 -18.1685 1.3609 0.000120877 10
18.5557 -18.1711 2.27218 0.000119394 10
18.5533 -18.1688 3.18845 0.000117195 10
18.5535 -18.1689 4.11294 0.000114311 10
18.5538 -18.1692 5.04778 0.000110783 10
18.5654 -18.1805 5.99904 0.000106662 10
18.5548 -18.1702 6.95861 0.000102008 10
6.90106 -6.71099 -2.57931 0.000409974 4
7.87405 -7.65719 -2.5357 0.00025527 4
10.0461 -9.76943 -2.72387 0.000114508 1
12.3166 -11.9773 -2.72105 4.92756e-05 1
18.4693 -17.9606 -2.25392 6.01773e-05 10
18.4996 -17.9901 -1.35236 0.000158695 10
18.5107 -18.0008 -0.450691 0.000159683 10
18.511 -18.0012 0.450699 0.000159691 10
18.4626 -17.9541 1.34966 4.75687e-05 10
17.7448 -17.2561 2.1655 5.52169e-05 10
17.7445 -17.2558 3.03908 5.42354e-05 10
18.4684 -17.9597 4.08015 4.50342e-05 10
18.465 -17.9565 5.00654 4.36627e-05 10
17.7268 -17.2386 5.7086 4.94974e-05 10
17.7216 -17.2335 6.62355 4.73943e-05 10
6.92107 -6.6836 -2.57805 0.000317056 4
7.89377 -7.62293 -2.53346 0.000233588 4
10.0816 -9.73566 -2.72425 0.000114513 1
12.3653 -11.941 -2.7226 4.92782e-05 1
18.367 -17.7368 -2.23386 6.30157e-05 10
18.5855 -17.9478 -1.35405 0.000157626 10
18.5869 -17.9492 -0.451018 0.000158609 10
18.6041 -17.9658 0.451436 0.000158616 10
18.3504 -17.7208 1.33692 4.98093e-05 10
17.8143 -17.2031 2.16664 0.000144452 10
17.8096 -17.1985 3.03993 0.000141841 10
18.3424 -17.7131 4.03864 4.71645e-05 10
18.3538 -17.7241 4.95957 4.57332e-05 10
17.8082 -17.1972 5.71545 0.000129328 10
17.8062 -17.1953 6.6327 0.000123792 10
6.93249 -6.64802 -2.57365 0.000426397 4
7.92379 -7.59864 -2.53457 0.000225253 4
10.1106 -9.6957 -2.72292 0.000114517 1
12.4033 -11.8944 -2.72181 4.92808e-05 1
18.2469 -17.4981 -2.21181 6.59455e-05 10
18.681 -17.9144 -1.35645 0.000156553 10
18.6854 -17.9187 -0.451888 0.00015753 10
18.6855 -17.9188 0.45189 0.000157537 10
18.2439 -17.4953 1.32471 5.21218e-05 10
17.9009 -17.1663 2.16987 0.000143484 10
17.8902 -17.1561 3.04345 0.00014089 10
18.2569 -17.5078 4.00634 4.93636e-05 10
18.2515 -17.5025 4.91538 4.78709e-05 10
17.8887 -17.1546 5.72201 0.000128455 10
17.8861 -17.1521 6.6401 0.000122953 10
6.95628 -6.62438 -2.57388 0.000358074 4
7.94438 -7.56533 -2.53269 0.000210243 4
10.1431 -9.65915 -2.72259 0.000114522 1
12.4458 -11.852 -2.72204 4.92834e-05 1
18.1448 -17.2791 -2.19211 6.8968e-05 10
18.7766 -17.8807 -1.35885 0.000155476 10
18.7618 -17.8666 -0.452225 0.000156446 10
18.7805 -17.8844 0.452675 0.000156453 10
18.1494 -17.2835 1.31346 5.45074e-05 10
17.9757 -17.118 2.17168 0.000142513 10
17.9758 -17.1181 3.04782 0.000139935 10
18.1553 -17.289 3.97076 5.16326e-05 10
18.1391 -17.2737 4.86886 5.00767e-05 10
17.9762 -17.1186 5.73088 0.000127577 10
17.9776 -17.1198 6.65185 0.000122111 10
6.98702 -6.6073 -2.5767 0.000303414 4
7.96951 -7.53639 -2.5323 0.000213587 4
10.181 -9.62768 -2.72372 0.000114527 1
12.4921 -11.8132 -2.72314 4.92861e-05 1
18.0567 -17.0754 -2.17426 7.20847e-05 10
18.8513 -17.8268 -1.35974 0.000154395 10
18.8536 -17.829 -0.452935 0.000155359 10
18.8546 -17.8299 0.452957 0.000155366 10
18.0541 -17.073 1.30224 5.69673e-05 10
18.0485 -17.0676 2.17327 5.62969e-05 10
18.0427 -17.0621 3.04905 5.52939e-05 10
18.0455 -17.0648 3.9337 5.39726e-05 10
18.0481 -17.0673 4.82842 5.23516e-05 10
18.0421 -17.0615 5.73284 5.04539e-05 10
18.046 -17.0652 6.65507 4.8306e-05 10
7.00089 -6.57427 -2.57334 0.000377228 4
8.60759 -8.08307 -2.72607 0.000222652 1
10.2072 -9.58516 -2.72175 0.000114531 1
12.5173 -11.7546 -2.71967 4.92887e-05 1
17.95 -16.8562 -2.15431 7.52969e-05 10
18.0065 -16.9093 -1.29454 0.000124316 10
18.0013 -16.9044 -0.43104 0.000125077 10
18.0085 -16.9112 0.431212 0.000125083 10
17.9416 -16.8483 1.28987 5.95024e-05 10
17.9508 -16.8569 2.1544 5.88045e-05 10
17.9541 -16.8601 3.02412 5.77602e-05 10
17.9392 -16.846 3.89769 5.63846e-05 10
17.9385 -16.8454 4.78333 5.46968e-05 10
17.9452 -16.8517 5.68334 5.27208e-05 10
17.9443 -16.8508 6.59585 5.0484e-05 10
7.03475 -6.56001 -2.57735 0.000396373 4
8.6326 -8.05003 -2.72507 0.000222659 1
10.2505 -9.55878 -2.7244 0.000114536 1
12.5622 -11.7145 -2.72052 4.92913e-05 1
17.8633 -16.6578 -2.13691 7.86061e-05 10
17.8748 -16.6686 -1.28089 0.00012938 10
17.8818 -16.6751 -0.426782 0.000130169 10
17.8672 -16.6614 0.426432 0.000130175 10
17.8648 -16.6592 1.28017 6.2114e-05 10
17.8542 -16.6493 2.13582 6.13877e-05 10
17.845 -16.6408 2.99594 6.03011e-05 10
17.8621 -16.6567 3.86829 5.88696e-05 10
17.8459 -16.6416 4.74311 5.71133e-05 10
17.8451 -16.6408 5.6332 5.50569e-05 10
17.849 -16.6444 6.5394 5.27287e-05 10
7.04898 -6.52743 -2.5742 0.000369047 4
8.66026 -8.01949 -2.72495 0.000222666 1
10.2863 -9.52524 -2.72506 0.000114541 1
12.614 -11.6807 -2.72289 4.92939e-05 1
17.7683 -16.4536 -2.11866 8.20137e-05 10
17.767 -16.4524 -1.26903 5.48457e-05 10
17.7542 -16.4406 -0.422364 5.51935e-05 10
17.7633 -16.449 0.42258 5.52108e-05 10
17.7571 -16.4432 1.26833 6.4803e-05 10
