VERSION 0.7
FIELDS x y z intensity label
SIZE 4 4 4 4 4
TYPE F F F F F
COUNT 1 1 1 1 1
WIDTH 1172
HEIGHT 1
VIEWPOINT 9.54565 49.0244 2.72847 -0.537016 -0.000693507 -0.000504211 0.843572
POINTS 1172
DATA ascii
3.76736 -10.8184 -2.64473 8.54649e-05 4
4.47929 -12.8628 -2.64753 5.10348e-05 4
3.28315 -9.32302 -2.64847 0.000136859 4
3.80727 -10.8113 -2.64624 9.5789e-05 4
4.51464 -12.82 -2.64196 2.97104e-05 4
5.53999 -15.7317 -2.64163 4.29247e-05 4
3.3084 -9.29107 -2.64266 6.0831e-05 4
3.84169 -10.7887 -2.64397 6.63219e-05 4
4.5628 -12.8138 -2.64395 6.01899e-05 4
3.34854 -9.30094 -2.64877 0.000119137 4
3.88208 -10.7829 -2.64585 5.30627e-05 4
3.38005 -9.28662 -2.64804 0.000403071 4
3.92301 -10.7784 -2.64808 6.19126e-05 4
3.41375 -9.27831 -2.64905 0.00014958 4
3.95205 -10.7414 -2.64236 0.000109095 4
4.69808 -12.769 -2.64471 3.27735e-05 4
3.43937 -9.24819 -2.64386 0.000141985 4
3.99332 -10.7377 -2.64488 4.42319e-05 4
3.47868 -9.25488 -2.64923 9.6355e-05 4
4.03146 -10.7255 -2.64533 4.12871e-05 4
4.7883 -12.7391 -2.64537 6.86122e-05 4
3.51041 -9.24122 -2.64881 7.10042e-05 4
4.07006 -10.7145 -2.6461 0.000109127 4
3.54284 -9.22942 -2.64896 0.00014202 4
4.1055 -10.6952 -2.64485 6.48924e-05 4
3.57301 -9.21177 -2.64745 0.00014964 4
4.14517 -10.6869 -2.64636 7.66984e-05 4
4.91816 -12.6798 -2.64361 5.18591e-05 4
3.59817 -9.18145 -2.64234 0.000134434 4
4.18017 -10.6666 -2.64492 4.86788e-05 4
4.9629 -12.6638 -2.64388 3.8899e-05 4
3.63126 -9.17153 -2.64311 0.000159811 4
4.22068 -10.6602 -2.64699 6.19608e-05 4
5.00663 -12.6453 -2.64365 3.20383e-05 4
3.66584 -9.16526 -2.64498 0.000263837 4
4.25219 -10.6312 -2.64346 8.11469e-05 4
5.0479 -12.6207 -2.64216 9.68893e-05 4
3.6955 -9.14668 -2.64332 0.000104021 4
4.29202 -10.6231 -2.64515 0.000137225 4
3.72615 -9.13064 -2.64243 0.000235969 4
4.33192 -10.6151 -2.64689 6.49301e-05 4
3.76102 -9.12492 -2.64456 0.000175088 4
4.36604 -10.5928 -2.64513 0.000163817 4
5.18714 -12.585 -2.64591 7.17391e-05 4
3.79301 -9.11211 -2.64467 8.37444e-05 4
4.39947 -10.569 -2.64301 0.000115126 4
3.82953 -9.1101 -2.64795 7.86753e-05 4
4.44171 -10.5664 -2.64622 0.00010628 4
5.26402 -12.5226 -2.64047 4.12216e-05 4
3.8519 -9.07451 -2.64149 0.000159901 4
4.47521 -10.5429 -2.64423 5.60976e-05 4
5.30815 -12.5052 -2.64069 4.96245e-05 4
3.89154 -9.07964 -2.64692 0.000121839 4
3.91708 -9.05183 -2.64279 5.3309e-05 4
4.54647 -10.5063 -2.64293 3.98664e-05 4
5.4024 -12.4842 -2.64416 5.42181e-05 4
3.95175 -9.04519 -2.64486 0.000225947 4
5.44027 -12.4523 -2.6414 4.35323e-05 4
3.98299 -9.03065 -2.64466 4.57007e-05 4
4.62701 -10.4908 -2.64711 0.000112238 4
5.4813 -12.4278 -2.64024 4.9648e-05 4
4.01713 -9.02262 -2.6464 0.000256452 4
4.65459 -10.4544 -2.642 0.000127018 4
5.52644 -12.4126 -2.6411 3.81953e-05 4
4.04967 -9.01093 -2.6471 9.64947e-05 4
4.69154 -10.4392 -2.64227 3.39733e-05 4
5.57266 -12.3997 -2.64249 4.81317e-05 4
4.07649 -8.98658 -2.64411 3.55535e-05 4
4.7342 -10.4365 -2.64576 6.35213e-05 4
6.89307 -15.1957 -2.64281 3.11586e-05 4
4.10323 -8.96223 -2.64114 0.000162543 4
4.77275 -10.4246 -2.64695 6.50048e-05 4
4.14182 -8.96371 -2.64582 6.85783e-05 4
4.80949 -10.4087 -2.64717 3.3983e-05 4
5.69628 -12.3279 -2.63974 3.82133e-05 4
4.16783 -8.93794 -2.6425 9.65253e-05 4
4.83803 -10.3752 -2.64292 0.000116735 4
5.7405 -12.3105 -2.6403 7.94929e-05 4
4.19718 -8.91946 -2.64135 0.000175283 4
4.87631 -10.3627 -2.64406 0.00010049 4
4.22889 -8.90603 -2.64172 0.000200703 4
4.91567 -10.3524 -2.64579 6.35514e-05 4
5.83387 -12.2861 -2.64373 6.11627e-05 4
4.27039 -8.913 -2.6482 6.86e-05 4
4.94529 -10.3216 -2.64232 4.28643e-05 4
5.87682 -12.2659 -2.64378 3.89958e-05 4
4.2951 -8.88484 -2.64427 0.000124506 4
4.98629 -10.3146 -2.64498 6.79981e-05 4
5.91637 -12.2386 -2.64234 5.50593e-05 4
4.32552 -8.86863 -2.64392 8.89399e-05 4
5.02146 -10.2955 -2.64456 4.43507e-05 4
5.95935 -12.2185 -2.64247 3.82401e-05 4
4.35128 -8.84297 -2.64079 0.00011436 4
5.05217 -10.2674 -2.64183 9.46238e-05 4
6.00599 -12.2058 -2.64424 3.44201e-05 4
4.39337 -8.85038 -2.64756 0.000147409 4
5.09732 -10.2685 -2.64668 3.69659e-05 4
4.41902 -8.82458 -2.64444 0.000149963 4
5.12577 -10.2359 -2.64289 9.61203e-05 4
6.08048 -12.1424 -2.63965 4.28438e-05 4
7.46015 -14.8976 -2.63886 2.95504e-05 4
4.4487 -8.80693 -2.64379 0.000114387 4
5.1627 -10.2204 -2.64352 7.09878e-05 4
6.13191 -12.1391 -2.64356 6.58035e-05 4
4.48643 -8.80513 -2.64793 4.83006e-05 4
5.1965 -10.1987 -2.64258 5.47249e-05 4
6.16799 -12.1054 -2.64089 3.13751e-05 4
7.57101 -14.8589 -2.64131 6.70897e-05 4
4.50494 -8.76566 -2.64078 9.1524e-05 4
5.23749 -10.1911 -2.64532 0.000110939 4
7.62064 -14.8282 -2.64055 6.24493e-05 4
4.54541 -8.76898 -2.64654 9.40736e-05 4
5.27331 -10.1733 -2.64546 9.61562e-05 4
6.25477 -12.0667 -2.64191 0.000148492 4
7.66356 -14.7845 -2.63753 6.27909e-05 4
4.57504 -8.75124 -2.64599 0.000119508 4
5.30826 -10.1538 -2.64519 8.285e-05 4
6.29337 -12.0381 -2.64045 0.000146978 4
7.71855 -14.7642 -2.6387 5.51579e-05 4
4.60551 -8.73513 -2.64596 0.000188176 4
5.34205 -10.1321 -2.64439 0.000276686 4
6.33385 -12.0132 -2.63982 0.000159244 4
4.63651 -8.72001 -2.64627 0.000111897 4
5.37543 -10.1097 -2.64343 0.000325542 4
6.38141 -12.0017 -2.64216 0.000152371 4
7.85148 -14.7665 -2.64883 3.44858e-05 4
4.66603 -8.70211 -2.64577 0.000111906 4
5.4132 -10.0956 -2.64466 0.000285616 4
6.41524 -11.9644 -2.63886 0.000162344 4
7.93807 -14.8044 -2.6606 3.94796e-05 4
4.69258 -8.67875 -2.64363 0.000501073 4
5.44258 -10.0658 -2.64183 0.000290082 4
6.46334 -11.9537 -2.64147 4.05906e-05 4
8.03105 -14.8531 -2.67437 3.99008e-05 4
4.72383 -8.66412 -2.64418 0.000544354 4
5.47742 -10.0463 -2.64171 0.00030343 4
6.52985 -11.9766 -2.65155 0.000112939 4
8.11886 -14.891 -2.68628 3.97164e-05 4
4.75301 -8.6457 -2.64361 0.000457903 4
5.50781 -10.0187 -2.63948 0.000281254 4
6.58502 -11.9781 -2.65696 8.50384e-05 4
4.78552 -8.63331 -2.64491 0.000531717 4
5.54372 -10.0011 -2.63994 4.88539e-05 4
6.65519 -12.0063 -2.66834 7.56307e-05 4
8.28842 -14.9527 -2.70778 4.17878e-05 4
4.81427 -8.61412 -2.64416 0.000521581 4
5.59191 -10.0056 -2.64624 0.000166169 4
6.72358 -12.0304 -2.67891 8.99743e-05 4
8.36058 -14.9595 -2.71428 4.97742e-05 1
4.85036 -8.608 -2.64746 0.000460553 4
5.64584 -10.0198 -2.6552 0.000183081 4
6.78197 -12.0361 -2.68542 0.000102555 4
8.42185 -14.9464 -2.71721 4.97816e-05 1
4.87823 -8.58724 -2.6463 0.000231566 4
5.70319 -10.0394 -2.66567 0.000166308 4
6.85923 -12.0744 -2.6993 7.6929e-05 4
8.47141 -14.9124 -2.71639 4.9789e-05 1
4.90143 -8.55838 -2.64266 0.000256105 4
5.75687 -10.0521 -2.67434 0.000201175 4
6.91647 -12.0768 -2.70522 9.89201e-05 4
8.51874 -14.8746 -2.7149 4.97963e-05 1
4.95613 -8.58427 -2.65598 0.000302481 4
5.79834 -10.043 -2.67731 0.000155929 4
6.98093 -12.0913 -2.71391 6.77136e-05 4
8.56483 -14.8347 -2.71307 4.98037e-05 1
4.99118 -8.5757 -2.65871 0.000308752 4
5.86149 -10.0711 -2.69022 0.000143817 4
7.02506 -12.0703 -2.71467 0.000115511 1
8.625 -14.8192 -2.71573 4.9811e-05 1
5.03575 -8.58324 -2.66647 0.00025326 4
5.91343 -10.0792 -2.69789 0.000123081 4
7.07596 -12.0607 -2.71805 0.000115524 1
8.55475 -14.5812 -2.67757 3.9851e-05 4
5.08342 -8.5956 -2.67581 0.000302743 4
5.96309 -10.083 -2.70447 0.000178039 4
7.11858 -12.0369 -2.71827 0.000115537 1
8.40391 -14.2102 -2.61482 3.89249e-05 4
5.12686 -8.60039 -2.68286 0.000286348 4
6.01206 -10.0853 -2.7107 0.000169723 4
7.15948 -12.0101 -2.71786 0.00011555 1
8.25366 -13.8457 -2.55301 3.79006e-05 4
5.16626 -8.5981 -2.68775 0.000299034 4
6.06391 -10.092 -2.71818 0.000224344 1
7.20113 -11.9847 -2.71778 0.000115563 1
8.21668 -13.6749 -2.52679 5.69189e-05 4
5.2083 -8.59993 -2.69399 0.000258797 4
6.10726 -10.0843 -2.72181 0.000224365 1
7.23612 -11.9483 -2.71523 0.000115576 1
8.25889 -13.637 -2.52512 4.46184e-05 4
5.25294 -8.60569 -2.70153 0.000267092 4
6.13548 -10.0515 -2.71874 0.000224385 1
7.28016 -11.9268 -2.71611 0.000115589 1
8.30255 -13.6018 -2.52393 6.11668e-05 4
5.3042 -8.62186 -2.71239 0.00027304 4
6.17617 -10.0392 -2.72122 0.000224405 1
7.23358 -11.758 -2.6834 8.63867e-05 4
5.33703 -8.60775 -2.7138 0.000274579 4
6.19781 -9.99605 -2.71536 0.000224425 1
7.13203 -11.5028 -2.63082 9.2787e-05 4
8.78152 -14.1631 -2.63942 3.89962e-05 4
5.37582 -8.60311 -2.71824 0.000386992 1
6.23504 -9.97815 -2.7164 0.000224446 1
7.0349 -11.2582 -2.58048 0.000100208 4
5.40749 -8.58695 -2.71908 0.000387021 1
6.2762 -9.96644 -2.71916 0.000224466 1
6.94741 -11.0323 -2.53425 0.000109625 4
8.87575 -14.0945 -2.6381 3.60068e-05 4
5.43822 -8.56926 -2.71947 0.00038705 1
6.31354 -9.94855 -2.72027 0.000224486 1
6.96703 -10.9783 -2.52741 0.000107893 4
5.46943 -8.55232 -2.72014 0.000387079 1
6.35006 -9.92931 -2.72106 0.000224506 1
7.00105 -10.9472 -2.52587 0.000104396 4
8.96548 -14.0189 -2.63562 6.46974e-05 4
5.50413 -8.54074 -2.72255 0.000387108 1
6.30773 -9.78769 -2.68827 0.000154606 4
7.0507 -10.9405 -2.52999 0.000134238 4
9.01356 -13.9863 -2.63538 3.63558e-05 4
5.52643 -8.50996 -2.71887 0.000387137 1
6.25556 -9.63272 -2.65168 0.000101219 4
7.38966 -11.3791 -2.63735 0.000132835 4
9.06454 -13.9582 -2.63603 3.33587e-05 4
5.56067 -8.4976 -2.72111 0.000387165 1
6.18888 -9.4576 -2.60941 0.00018374 4
7.4338 -11.36 -2.63894 0.000123635 4
9.11258 -13.9255 -2.63584 4.87106e-05 4
5.58369 -8.46811 -2.71789 0.000387194 1
6.11047 -9.26702 -2.56269 0.000198304 4
9.17234 -13.9106 -2.63907 3.63713e-05 4
5.61135 -8.44576 -2.71699 0.000387223 1
6.06679 -9.13126 -2.53099 0.000267655 4
7.51844 -11.3162 -2.64087 9.98511e-05 4
9.16049 -13.7877 -2.6218 5.34538e-05 4
5.64557 -8.43325 -2.71928 0.000387251 1
6.09265 -9.1011 -2.52851 0.000255893 4
7.56136 -11.295 -2.64208 0.000164388 4
9.08575 -13.5721 -2.58683 5.61795e-05 4
5.63266 -8.35077 -2.69901 0.000289473 4
6.1302 -9.08839 -2.53091 0.000202039 4
7.6003 -11.2679 -2.64193 5.22412e-05 4
9.00439 -13.3496 -2.55038 5.89788e-05 4
5.59821 -8.23752 -2.66871 0.000248665 4
6.15506 -9.05689 -2.52811 0.000208791 4
7.62582 -11.2211 -2.63717 0.000131385 4
8.96002 -13.1843 -2.52476 5.35781e-05 4
5.54362 -8.09626 -2.6292 0.000344849 4
6.46415 -9.44066 -2.64151 0.000317578 4
7.6764 -11.2111 -2.64111 0.000138315 4
8.99924 -13.1431 -2.52287 4.24058e-05 4
5.48846 -7.95598 -2.58985 0.000101011 4
6.50015 -9.4225 -2.64276 0.000378455 4
7.70279 -11.1658 -2.63677 0.000164459 4
9.05316 -13.1233 -2.52513 5.7063e-05 4
5.4487 -7.83966 -2.55816 0.000105688 4
6.52857 -9.39338 -2.64097 7.86661e-05 4
7.74384 -11.1419 -2.63749 6.22554e-05 4
9.0949 -13.0858 -2.52402 5.28291e-05 4
5.40786 -7.72323 -2.52631 0.00027057 4
6.55841 -9.36637 -2.6398 0.000210784 4
7.78945 -11.1245 -2.63978 4.91947e-05 4
9.14602 -13.0619 -2.52553 4.8594e-05 4
5.43723 -7.70776 -2.52744 0.000348312 4
6.58696 -9.33761 -2.63816 0.000273152 4
7.81805 -11.0828 -2.63635 0.000132225 4
9.18813 -13.025 -2.52459 6.21009e-05 4
5.47453 -7.70342 -2.53227 0.000336821 4
6.63368 -9.33449 -2.6438 9.50176e-05 4
7.87004 -11.0742 -2.64083 0.000129164 4
9.22766 -12.9846 -2.52299 5.4394e-05 4
5.50241 -7.68569 -2.53274 0.000403063 4
6.66518 -9.30983 -2.64339 0.000121752 4
7.83909 -10.9495 -2.6176 7.04922e-05 4
9.2774 -12.9585 -2.5242 5.24723e-05 4
5.52097 -7.65502 -2.52897 0.0003743 4
6.69289 -9.27993 -2.64152 0.000280647 4
7.79495 -10.808 -2.59025 0.000132008 4
9.31507 -12.9157 -2.52217 5.17076e-05 4
5.78706 -7.9652 -2.6381 0.000357101 4
6.72033 -9.24975 -2.63959 0.000126228 4
7.74835 -10.6647 -2.56238 0.000141384 4
9.37426 -12.9026 -2.52598 4.82413e-05 4
5.82925 -7.96466 -2.64465 0.000176013 4
6.74852 -9.22069 -2.638 0.00013515 4
7.69449 -10.5132 -2.53241 0.000177649 4
9.41391 -12.8625 -2.52456 4.67039e-05 4
5.85077 -7.93579 -2.64183 0.000364805 4
6.78977 -9.20943 -2.64155 7.7235e-05 4
7.71659 -10.4665 -2.52765 9.93334e-05 4
9.46139 -12.8331 -2.52526 5.32728e-05 4
5.88611 -7.92565 -2.64527 0.000147974 4
6.8249 -9.18974 -2.64272 0.000132202 4
7.74079 -10.423 -2.52364 0.000109894 4
9.49834 -12.7895 -2.52319 4.51722e-05 4
5.90764 -7.89691 -2.64255 0.00054601 4
6.85067 -9.15748 -2.6403 0.000306021 4
7.78281 -10.4035 -2.52549 0.000119577 4
9.55288 -12.7696 -2.52582 5.67625e-05 4
5.92622 -7.86437 -2.63856 0.000252611 4
6.88414 -9.13556 -2.64089 0.000202051 4
7.82713 -10.387 -2.52809 0.0001319 4
9.59248 -12.7296 -2.52453 5.36806e-05 4
5.95974 -7.85168 -2.64127 0.000173523 4
6.92066 -9.11764 -2.64268 0.00018721 4
7.86596 -10.363 -2.52893 0.000127516 4
9.62922 -12.686 -2.52253 5.44603e-05 4
5.99512 -7.8413 -2.6448 0.000370039 4
6.95174 -9.0925 -2.64241 3.71479e-05 4
7.89404 -10.325 -2.52636 0.000113457 4
9.67132 -12.6496 -2.52198 5.56264e-05 4
6.02367 -7.8219 -2.64533 0.0001761 4
6.92816 -8.9964 -2.6215 0.000279944 4
7.92291 -10.2881 -2.52408 0.00011171 4
9.72048 -12.6223 -2.52329 4.98387e-05 4
6.04468 -7.79275 -2.6426 0.000362434 4
6.89033 -8.88296 -2.59543 0.00027964 4
7.96039 -10.2625 -2.5246 0.000106443 4
9.76064 -12.5833 -2.5223 4.59813e-05 4
6.07269 -7.7727 -2.64297 0.000416062 4
6.86599 -8.78807 -2.57469 0.000272288 4
7.99757 -10.2364 -2.52504 9.58965e-05 4
9.81088 -12.5574 -2.52394 4.52145e-05 4
6.09073 -7.73994 -2.63904 0.000446724 4
6.82247 -8.66981 -2.54701 0.000304537 4
8.03859 -10.2152 -2.52672 0.000129341 4
9.85451 -12.5229 -2.5239 5.06315e-05 4
6.12833 -7.73203 -2.64362 0.000418673 4
6.80055 -8.58016 -2.52763 0.00022603 4
8.06314 -10.1732 -2.52326 0.000139914 4
9.89426 -12.4834 -2.5229 4.75458e-05 4
6.14909 -7.70283 -2.64096 0.000622948 4
6.8377 -8.56543 -2.53031 0.000180502 4
8.11486 -10.1653 -2.52832 0.000105606 4
9.94637 -12.4596 -2.52509 4.90985e-05 4
6.17499 -7.68013 -2.64056 0.000186386 4
6.85384 -8.52445 -2.52525 0.000221006 4
8.13575 -10.1188 -2.52381 0.000118819 4
9.9746 -12.4059 -2.52124 5.25848e-05 4
6.20503 -7.66257 -2.64195 0.000385566 4
6.89594 -8.51578 -2.5298 0.000244645 4
8.17913 -10.1004 -2.52632 0.000129394 4
10.0284 -12.384 -2.52389 6.07125e-05 4
6.22829 -7.63664 -2.64049 0.000255359 4
6.92752 -8.49398 -2.53049 0.000199107 4
8.22077 -10.0797 -2.52829 0.000114442 4
10.0582 -12.3326 -2.52055 5.10516e-05 4
6.26009 -7.62116 -2.64267 0.000418818 4
6.95264 -8.46429 -2.52886 0.000194061 4
8.25444 -10.0491 -2.52785 0.000113573 4
10.113 -12.3118 -2.5235 5.41527e-05 4
22.7463 -27.6918 3.13526 2.95317e-05 10
6.24132 -7.54446 -2.62362 5.23913e-05 4
6.98349 -8.44159 -2.52935 0.000197452 4
8.28357 -10.0131 -2.52605 0.000107421 4
10.1502 -12.2695 -2.52208 5.0678e-05 4
22.8696 -27.6446 3.13893 2.93762e-05 10
6.21616 -7.46086 -2.60208 8.99654e-05 4
7.00339 -8.40573 -2.52591 0.000253164 4
8.32338 -9.99003 -2.52754 9.77451e-05 4
10.9627 -13.1579 -2.71254 5.01475e-05 1
6.19354 -7.38118 -2.58181 9.40944e-05 4
7.03609 -8.38529 -2.52713 0.000204235 4
8.35461 -9.95664 -2.52645 0.000118891 4
11.0063 -13.1167 -2.71197 5.01542e-05 1
22.9306 -27.3277 -0.622687 3.93679e-05 10
22.9326 -27.33 0.62274 3.93731e-05 10
6.18625 -7.32043 -2.5681 7.29195e-05 4
7.07378 -8.37068 -2.53016 0.000194124 4
8.38684 -9.92449 -2.52571 0.000131234 4
11.0418 -13.0663 -2.70948 5.01608e-05 1
23.052 -27.2784 -0.623394 3.91524e-05 10
23.0509 -27.277 0.623362 3.91576e-05 10
21.7363 -25.7214 2.94625 3.96411e-05 10
21.7199 -25.702 6.54097 3.64572e-05 10
6.16458 -7.24336 -2.54859 8.50054e-05 4
7.09363 -8.33498 -2.52684 0.000214397 4
8.42827 -9.90318 -2.52776 0.000136532 4
11.0943 -13.0358 -2.71117 5.01674e-05 1
23.1814 -27.2381 -0.624318 3.8935e-05 10
23.1718 -27.2267 0.624058 3.89402e-05 10
21.8325 -25.6531 2.94713 3.94267e-05 10
21.8304 -25.6507 6.54726 3.62588e-05 10
6.13886 -7.16233 -2.52761 0.000395109 4
7.1305 -8.3193 -2.52961 0.000204285 4
8.44958 -9.85829 -2.52381 0.000138307 4
11.1405 -12.9978 -2.71136 5.0174e-05 1
23.2894 -27.1722 -0.624669 3.87158e-05 10
23.2929 -27.1763 0.624762 3.87209e-05 10
21.9423 -25.6006 2.94988 3.92106e-05 10
21.943 -25.6014 6.55419 3.60586e-05 10
6.16203 -7.13878 -2.52687 0.000285536 4
7.14691 -8.27977 -2.52516 0.000211055 4
8.48532 -9.83034 -2.52422 6.9601e-05 4
11.1792 -12.9513 -2.70976 5.01806e-05 1
21.2441 -24.6115 2.84444 4.64454e-05 10
21.2479 -24.616 6.32086 4.27731e-05 10
6.1954 -7.12699 -2.53034 0.000299977 4
7.18217 -8.26215 -2.52742 0.00022458 4
8.51529 -9.79573 -2.52295 9.86845e-05 4
11.233 -12.922 -2.71184 5.01871e-05 1
21.3618 -24.5739 2.84869 4.61882e-05 10
21.3595 -24.5713 6.32851 4.25346e-05 10
6.22181 -7.10712 -2.53098 0.000432688 4
7.20141 -8.22611 -2.52407 0.000194202 4
8.56062 -9.77872 -2.52625 6.25651e-05 4
11.2647 -12.8676 -2.70865 5.01936e-05 1
21.6161 -24.6919 -0.572821 3.8495e-05 10
21.6058 -24.6801 0.572546 3.84999e-05 10
21.4515 -24.5039 2.84924 4.59288e-05 10
21.4613 -24.515 6.33326 4.22942e-05 10
6.24198 -7.08013 -2.52911 0.000473104 4
7.23464 -8.20609 -2.52566 0.000187462 4
8.5949 -9.749 -2.52631 0.000113686 4
11.3075 -12.8258 -2.70814 5.02002e-05 1
21.5243 -24.4145 -0.568124 3.98226e-05 10
21.5211 -24.4109 0.568041 3.98277e-05 10
6.26799 -7.0598 -2.52965 0.000377931 4
7.26054 -8.17775 -2.52472 0.000233079 4
8.62402 -9.71347 -2.52489 0.000141019 4
11.3675 -12.8035 -2.7118 5.02067e-05 1
21.2543 -23.9393 -0.558789 4.28801e-05 10
21.2657 -23.9521 0.559089 4.28855e-05 10
20.5177 -23.1096 1.61959 5.91012e-05 10
20.5129 -23.1043 2.70309 5.83251e-05 10
20.5142 -23.1057 3.79383 5.71726e-05 10
20.5188 -23.1109 4.89491 5.56618e-05 10
20.5202 -23.1124 6.00778 5.38164e-05 10
20.5102 -23.1012 7.13204 5.16653e-05 10
20.5139 -23.1054 8.27905 4.92417e-05 10
6.29628 -7.042 -2.53113 0.000421234 4
7.29558 -8.15966 -2.52698 0.000157087 4
8.66139 -9.68724 -2.52591 0.000107538 4
11.4106 -12.7621 -2.71144 5.02132e-05 1
21.1882 -23.6977 -0.554874 4.43775e-05 10
21.1709 -23.6783 0.55442 4.43831e-05 10
20.6159 -23.0576 1.62097 5.87647e-05 10
20.6202 -23.0624 2.7066 5.79927e-05 10
20.6133 -23.0547 3.79726 5.68462e-05 10
20.623 -23.0656 4.90053 5.53434e-05 10
20.6171 -23.059 6.01255 5.35078e-05 10
20.6148 -23.0564 7.14039 5.1368e-05 10
20.6144 -23.0559 8.28708 4.89571e-05 10
6.31827 -7.01715 -2.53011 0.000395293 4
7.32623 -8.13661 -2.52775 0.000293928 4
8.69637 -9.6583 -2.52627 9.87328e-05 4
11.4399 -12.7054 -2.70786 5.02197e-05 1
20.7081 -22.9987 1.6219 5.84258e-05 10
20.7252 -23.0177 2.70981 5.76579e-05 10
20.7225 -23.0147 3.80255 5.65175e-05 10
20.7242 -23.0165 4.90545 5.50227e-05 10
20.7218 -23.0139 6.01963 5.31968e-05 10
20.7196 -23.0115 7.14883 5.10684e-05 10
20.7093 -23 8.2929 4.86706e-05 10
6.33152 -6.98269 -2.52564 0.000406861 4
7.35998 -8.11693 -2.5296 0.000182453 4
8.7221 -9.61914 -2.52397 0.000126954 4
11.4943 -12.6764 -2.71023 5.02261e-05 1
20.8291 -22.9713 -1.62509 7.44666e-05 10
20.8161 -22.9569 -0.540918 7.49743e-05 10
20.8267 -22.9686 0.541194 7.49837e-05 10
20.8237 -22.9653 1.62467 5.80845e-05 10
20.8287 -22.9709 2.71285 5.73207e-05 10
20.818 -22.9591 3.80535 5.61865e-05 10
20.8231 -22.9647 4.90986 5.46996e-05 10
20.8234 -22.965 6.0258 5.28836e-05 10
20.8169 -22.9578 7.15469 5.07668e-05 10
20.8155 -22.9563 8.30331 4.83819e-05 10
6.37066 -6.97676 -2.53152 0.000354945 4
7.37664 -8.07845 -2.52562 0.000263563 4
8.75085 -9.58341 -2.5226 0.000131375 4
11.537 -12.6347 -2.70989 5.02326e-05 1
20.922 -22.9125 -1.62609 7.40259e-05 10
20.9185 -22.9087 -0.541499 7.45309e-05 10
20.9317 -22.9231 0.541839 7.45402e-05 10
20.9285 -22.9196 1.62659 5.77407e-05 10
20.9203 -22.9107 2.71435 5.69811e-05 10
20.9231 -22.9137 3.80991 5.5853e-05 10
20.9278 -22.9189 4.91567 5.43743e-05 10
20.9301 -22.9214 6.03351 5.25682e-05 10
20.9215 -22.912 7.16312 5.0463e-05 10
20.9152 -22.9051 8.31112 4.80913e-05 10
6.38892 -6.9479 -2.52913 0.000352082 4
7.39821 -8.0455 -2.52338 0.000207826 4
8.78779 -9.55665 -2.52361 0.000113752 4
11.5699 -12.5822 -2.70728 5.0239e-05 1
21.0349 -22.8753 -1.62865 7.35822e-05 10
21.028 -22.8677 -0.542262 7.40843e-05 10
21.0173 -22.8562 0.541988 7.40937e-05 10
21.0322 -22.8723 1.62844 5.73947e-05 10
21.0228 -22.8621 2.71727 5.66392e-05 10
21.0169 -22.8557 3.81244 5.55174e-05 10
21.0326 -22.8727 4.92148 5.40468e-05 10
21.0136 -22.8522 6.03454 5.22508e-05 10
21.0304 -22.8704 7.17302 5.01572e-05 10
21.0251 -22.8646 8.32303 4.77987e-05 10
6.413 -6.92541 -2.52908 0.000441575 4
7.42988 -8.02354 -2.52461 0.000162218 4
8.82213 -9.52704 -2.52391 0.000126109 4
11.6191 -12.5475 -2.70852 5.02454e-05 1
21.1386 -22.8276 -1.63049 7.31355e-05 10
21.1211 -22.8088 -0.542609 7.36349e-05 10
21.1206 -22.8082 0.542595 7.36441e-05 10
21.1332 -22.8218 1.63008 5.70463e-05 10
21.1261 -22.8141 2.72031 5.62951e-05 10
21.1181 -22.8055 3.81634 5.51795e-05 10
21.1277 -22.8158 4.92507 5.37172e-05 10
21.1174 -22.8048 6.04145 5.19312e-05 10
21.1333 -22.8218 7.18089 4.98494e-05 10
21.1245 -22.8124 8.3308 4.75042e-05 10
6.42963 -6.89493 -2.52613 0.000427172 4
7.46554 -8.00581 -2.52721 0.000212928 4
8.85045 -9.49095 -2.52252 0.0001076 4
11.6626 -12.5066 -2.70847 5.02518e-05 1
21.227 -22.7632 -1.63118 7.2686e-05 10
21.2275 -22.7637 -0.543296 7.31825e-05 10
21.2343 -22.771 0.54347 7.31918e-05 10
21.2353 -22.7721 1.63181 5.66957e-05 10
21.234 -22.7707 2.72396 5.59487e-05 10
21.2293 -22.7657 3.82206 5.48394e-05 10
21.2248 -22.7608 4.92916 5.33854e-05 10
21.2232 -22.7591 6.04894 5.16096e-05 10
21.2205 -22.7563 7.18352 4.95397e-05 10
21.2321 -22.7686 8.34184 4.72079e-05 10
6.45887 -6.878 -2.52817 0.000357924 4
7.49082 -7.97692 -2.52633 0.000246745 4
9.54729 -10.1668 -2.711 0.000116308 1
11.7029 -12.4623 -2.7077 5.02581e-05 1
21.347 -22.7322 -1.63429 7.22337e-05 10
21.3394 -22.7242 1.63371 5.63429e-05 10
21.3326 -22.7169 2.72641 5.56002e-05 10
21.3336 -22.718 3.82653 5.44973e-05 10
21.3335 -22.7178 4.93595 5.30516e-05 10
21.3377 -22.7223 6.05893 5.12859e-05 10
21.3372 -22.7219 7.19613 4.9228e-05 10
21.3287 -22.7127 8.34859 4.69097e-05 10
6.47488 -6.847 -2.52506 0.000433 4
7.51251 -7.94425 -2.52428 0.00020789 4
9.58707 -10.138 -2.71223 0.00011632 1
11.7564 -12.432 -2.71003 5.02645e-05 1
21.4421 -22.6744 -1.6355 7.17786e-05 10
21.4292 -22.6607 1.63451 5.5988e-05 10
21.4429 -22.6752 2.73038 5.52496e-05 10
21.4294 -22.661 3.82951 5.4153e-05 10
21.4365 -22.6685 4.94145 5.27158e-05 10
21.4383 -22.6704 6.065 5.09604e-05 10
21.4454 -22.6779 7.20586 4.89145e-05 10
21.4443 -22.6767 8.36281 4.66097e-05 10
6.51155 -6.8378 -2.53004 0.000378178 4
7.54163 -7.9195 -2.52476 0.00023157 4
9.62682 -10.1092 -2.71347 0.000116331 1
11.7864 -12.3769 -2.70697 5.02708e-05 1
21.5499 -22.6296 -1.63769 7.13208e-05 10
21.5507 -22.6305 1.63775 5.5631e-05 10
21.5466 -22.6261 2.73351 5.48969e-05 10
21.5448 -22.6242 3.83598 5.38068e-05 10
21.5367 -22.6157 4.94631 5.2378e-05 10
21.5328 -22.6117 6.06937 5.06329e-05 10
21.5312 -22.61 7.20814 4.85991e-05 10
21.5444 -22.6239 8.371 4.6308e-05 10
6.53438 -6.81399 -2.52965 0.000343558 4
7.56486 -7.88856 -2.5233 0.000214684 4
9.65464 -10.0678 -2.71139 0.000116342 1
11.8336 -12.34 -2.70791 5.02771e-05 1
21.6564 -22.5831 -1.63978 7.08605e-05 10
21.64 -22.566 1.63854 5.52719e-05 10
21.6484 -22.5747 2.73641 5.45422e-05 10
21.6525 -22.579 3.8411 5.34586e-05 10
21.6522 -22.5788 4.95472 5.20382e-05 10
21.6383 -22.5642 6.07687 5.03036e-05 10
21.643 -22.5691 7.21913 4.8282e-05 10
21.6502 -22.5766 8.38144 4.60047e-05 10
6.55079 -6.78354 -2.52682 0.000430196 4
7.60987 -7.88025 -2.52912 0.000240059 4
9.69493 -10.0394 -2.71285 0.000116353 1
11.8831 -12.3054 -2.7094 5.02834e-05 1
21.7591 -22.5322 -1.64159 7.03977e-05 10
21.753 -22.5259 -0.5466 4.6818e-05 10
21.7569 -22.53 0.546698 4.6824e-05 10
21.7535 -22.5264 1.64117 5.4911e-05 10
21.7595 -22.5327 2.7405 5.41857e-05 10
21.7432 -22.5158 3.84323 5.31085e-05 10
21.7596 -22.5327 4.96125 5.16968e-05 10
21.7487 -22.5215 6.08576 4.99726e-05 10
21.7572 -22.5302 7.23096 4.79631e-05 10
21.7542 -22.5272 8.39122 4.56997e-05 10
6.57766 -6.76396 -2.52806 0.000262754 4
7.61892 -7.83471 -2.52303 0.000287416 4
9.73435 -10.0101 -2.71409 0.000116365 1
11.9327 -12.2706 -2.7109 5.02897e-05 1
21.8495 -22.4684 -1.64249 6.99323e-05 10
21.8501 -22.469 1.64254 5.4548e-05 10
21.8527 -22.4717 2.74234 5.38271e-05 10
21.8587 -22.4778 3.84974 5.27565e-05 10
21.8466 -22.4653 4.96318 5.13534e-05 10
21.8495 -22.4684 6.09198 4.96398e-05 10
21.8538 -22.4728 7.23695 4.76426e-05 10
21.8589 -22.478 8.40129 4.5393e-05 10
6.6028 -6.74255 -2.52866 0.000427364 4
7.65041 -7.81235 -2.52441 0.000204588 4
9.75895 -9.96551 -2.71123 0.000116376 1
11.9696 -12.2229 -2.70958 5.0296e-05 1
21.9595 -22.4243 -1.64486 6.94646e-05 10
21.9721 -22.4372 -0.548156 4.61979e-05 10
21.9625 -22.4274 0.547916 4.62038e-05 10
21.9702 -22.4352 1.64566 5.41832e-05 10
21.958 -22.4228 2.74572 5.34667e-05 10
21.9637 -22.4286 3.85443 5.24028e-05 10
21.9707 -22.4357 4.97356 5.10083e-05 10
21.9534 -22.4181 6.09909 4.93052e-05 10
21.9664 -22.4314 7.24826 4.73204e-05 10
21.9564 -22.4211 8.40861 4.50849e-05 10
6.63096 -6.7242 -2.53044 0.00036386 4
7.6896 -7.79772 -2.52834 0.000191076 4
9.80725 -9.94515 -2.71499 0.000116387 1
12.0069 -12.1758 -2.7084 5.03022e-05 1
22.0709 -22.3812 -1.64734 6.89945e-05 10
6.64449 -6.69104 -2.52668 0.000349443 4
7.71805 -7.77213 -2.52876 0.000209692 4
9.82157 -9.89038 -2.70938 0.000116398 1
12.0417 -12.1261 -2.70668 5.03084e-05 1
22.174 -22.3293 -1.64921 6.85222e-05 10
18.2611 -18.3891 1.35819 4.4085e-05 10
18.2479 -18.3758 2.2657 4.35795e-05 10
18.2572 -18.3851 3.18137 4.28117e-05 10
18.2508 -18.3786 4.10233 4.17928e-05 10
18.2433 -18.3712 5.03261 4.05376e-05 10
18.2534 -18.3812 5.98058 3.90641e-05 10
18.2383 -18.3661 6.93543 3.73933e-05 10
6.6625 -6.6625 -2.52467 0.000361018 4
7.73273 -7.73273 -2.52471 0.000147134 4
9.87645 -9.87645 -2.71499 0.000116409 1
12.0843 -12.0843 -2.70675 5.03146e-05 1
22.278 -22.278 -1.65115 6.80477e-05 10
18.2782 -18.2782 1.35471 0.000123846 10
18.286 -18.286 2.26249 0.000122339 10
18.2819 -18.2819 3.17453 0.000120099 10
18.2808 -18.2809 4.09472 0.000117158 10
18.2747 -18.2747 5.02364 0.000113558 10
18.2672 -18.2672 5.96418 0.000109351 10
18.2839 -18.2839 6.92845 0.000104597 10
6.70073 -6.65412 -2.53034 0.000421695 4
7.76211 -7.70811 -2.52551 0.000196194 4
9.9086 -9.83967 -2.71437 0.00011642 1
12.131 -12.0467 -2.70779 5.03208e-05 1
22.3775 -22.2218 -1.65277 6.75711e-05 10
18.3743 -18.2464 1.35709 0.00012305 10
18.3652 -18.2374 2.26439 0.000121552 10
18.3553 -18.2276 3.17622 0.000119325 10
18.3548 -18.2271 4.097 0.000116401 10
18.3541 -18.2264 5.02792 0.000112822 10
18.3576 -18.2299 5.97289 0.000108641 10
18.3569 -18.2292 6.93197 0.000103915 10
6.72138 -6.62818 -2.52938 0.000311958 4
7.79922 -7.69108 -2.52883 0.00020974 4
9.92921 -9.79154 -2.71064 0.000116431 1
12.179 -12.0101 -2.70912 5.0327e-05 1
22.4858 -22.174 -1.65504 6.70924e-05 10
22.4824 -22.1707 -0.551149 4.46211e-05 10
22.4945 -22.1826 0.551443 4.46269e-05 10
18.4583 -18.2024 1.3586 0.000122249 10
18.4516 -18.1957 2.2672 0.00012076 10
18.4577 -18.2017 3.18291 0.000118547 10
18.4598 -18.2038 4.10623 0.00011564 10
18.443 -18.1872 5.03485 0.000112083 10
18.4562 -18.2003 5.98426 0.000107927 10
18.4402 -18.1845 6.9394 0.00010323 10
6.74958 -6.60968 -2.5313 0.00032931 4
7.80857 -7.64672 -2.52319 0.000191148 4
9.96006 -9.75362 -2.70975 0.000116442 1
12.2171 -11.9638 -2.70828 5.03332e-05 1
18.5754 -18.1903 -2.27459 5.72996e-05 10
18.5704 -18.1855 -1.36217 5.80608e-05 10
18.5678 -18.1829 -0.453624 5.84679e-05 10
18.5566 -18.172 0.453351 5.85149e-05 10
18.5317 -18.1476 1.35933 0.000121445 10
18.5426 -18.1583 2.27058 0.000119965 10
18.5325 -18.1484 3.18488 0.000117765 10
18.5436 -18.1593 4.11075 0.000114876 10
18.5385 -18.1542 5.0436 0.000111341 10
17.8118 -17.4426 5.75554 4.73736e-05 10
18.5419 -18.1576 6.95378 0.000102542 10
6.77025 -6.58378 -2.53042 0.000401552 4
7.83541 -7.6196 -2.52325 0.00023853 4
9.99695 -9.72161 -2.71053 0.000116453 1
12.2604 -11.9227 -2.70864 5.03393e-05 1
18.4613 -17.9529 -2.25294 6.00525e-05 10
18.4961 -17.9866 -1.3521 0.00015941 10
18.4829 -17.9738 -0.450014 0.000160415 10
18.4966 -17.9871 0.450347 0.000160434 10
18.4462 -17.9381 1.34846 4.75562e-05 10
17.7205 -17.2324 2.16253 5.52582e-05 10
17.7111 -17.2233 3.03336 5.43009e-05 10
18.4492 -17.941 4.07591 4.50851e-05 10
18.4282 -17.9207 4.99655 4.37331e-05 10
17.7108 -17.223 5.70344 4.96279e-05 10
17.695 -17.2076 6.6136 0.000125283 10
6.78045 -6.54781 -2.52567 0.000329351 4
7.86226 -7.5925 -2.52335 0.000214862 4
10.0262 -9.68217 -2.70928 0.000116464 1
12.294 -11.8722 -2.70689 5.03454e-05 1
18.3518 -17.7221 -2.23201 6.2896e-05 10
18.5677 -17.9306 -1.35276 0.000158341 10
18.5854 -17.9477 -0.450982 0.00015934 10
18.5872 -17.9495 0.451026 0.000159359 10
18.339 -17.7098 1.3361 4.98036e-05 10
17.7955 -17.185 2.16436 0.000145151 10
17.7851 -17.1748 3.03574 0.000142539 10
18.3258 -17.6971 4.03499 4.72241e-05 10
18.337 -17.7079 4.95504 4.58128e-05 10
17.7923 -17.1818 5.71034 0.000129999 10
17.7832 -17.173 6.62411 0.000124447 10
6.80025 -6.52121 -2.52455 0.000358264 4
7.90471 -7.58034 -2.52846 0.000230106 4
10.0688 -9.65566 -2.71168 0.000116475 1
12.3381 -11.8318 -2.7075 5.03515e-05 1
18.2478 -17.499 -2.21192 6.58313e-05 10
18.6603 -17.8946 -1.35495 0.000157268 10
18.6553 -17.8898 -0.45116 0.00015826 10
18.661 -17.8952 0.451297 0.000158279 10
18.2325 -17.4844 1.32388 5.21235e-05 10
17.877 -17.1434 2.16697 0.000144183 10
17.8803 -17.1466 3.04177 0.000141588 10
18.2348 -17.4866 4.00149 4.94324e-05 10
18.2311 -17.483 4.90989 4.79601e-05 10
17.8817 -17.148 5.7198 0.000129125 10
17.8776 -17.144 6.63695 0.000123607 10
6.83205 -6.50608 -2.52791 0.000326502 4
7.9295 -7.55116 -2.52795 0.000255504 4
10.0922 -9.61066 -2.70892 0.000116485 1
12.3815 -11.7908 -2.70798 5.03576e-05 1
18.1525 -17.2864 -2.19304 6.88599e-05 10
18.7453 -17.851 -1.35659 0.00015619 10
18.7442 -17.8499 -0.4518 0.000157176 10
18.7585 -17.8635 0.452146 0.000157195 10
18.1268 -17.262 1.31183 5.4517e-05 10
17.9651 -17.1079 2.1704 0.000143211 10
17.9572 -17.1004 3.04468 0.000140632 10
18.1226 -17.258 3.96362 5.17111e-05 10
18.1314 -17.2663 4.86679 5.0176e-05 10
17.9622 -17.1052 5.72641 0.000128247 10
17.9644 -17.1073 6.64697 0.000122763 10
6.85312 -6.48067 -2.52732 0.000372756 4
7.94259 -7.51093 -2.52375 0.000201372 4
10.1367 -9.58583 -2.71188 0.000116496 1
12.4225 -11.7474 -2.70796 5.03636e-05 1
18.0398 -17.0594 -2.17221 7.19833e-05 10
18.8353 -17.8117 -1.35859 0.000155108 10
18.8335 -17.8099 -0.452451 0.000156088 10
18.8374 -17.8137 0.452545 0.000156106 10
18.0365 -17.0563 1.30097 5.69852e-05 10
18.0306 -17.0507 2.17111 5.63392e-05 10
18.0242 -17.0447 3.04593 5.53599e-05 10
18.0185 -17.0393 3.92782 5.40613e-05 10
18.0163 -17.0372 4.81989 5.24617e-05 10
18.0189 -17.0397 5.7255 5.05838e-05 10
18.0226 -17.0431 6.64645 4.84538e-05 10
6.86799 -6.44947 -2.52449 0.000242739 4
8.57167 -8.04933 -2.71469 0.000225823 1
10.1796 -9.55933 -2.71441 0.000116507 1
12.4579 -11.6987 -2.70674 5.03696e-05 1
17.9583 -16.8639 -2.1553 7.52028e-05 10
17.9943 -16.8978 -1.29367 0.000124896 10
17.9933 -16.8968 -0.430848 0.000125669 10
17.9815 -16.8857 0.430564 0.000125684 10
17.9315 -16.8388 1.28915 5.95293e-05 10
17.9237 -16.8315 2.15115 5.88563e-05 10
17.9283 -16.8358 3.01977 5.78363e-05 10
17.9195 -16.8275 3.89341 5.6484e-05 10
17.9289 -16.8364 4.78077 5.48181e-05 10
17.9133 -16.8217 5.67324 5.28623e-05 10
17.9173 -16.8255 6.58593 5.06437e-05 10
6.89308 -6.4279 -2.52545 0.000375691 4
8.60265 -8.0221 -2.71562 0.00022584 1
10.209 -9.52006 -2.71337 0.000116518 1
12.5052 -11.6613 -2.70817 5.03756e-05 1
17.8474 -16.643 -2.13501 7.85201e-05 10
17.8579 -16.6528 -1.27967 0.000129987 10
17.8605 -16.6551 -0.426272 0.000130789 10
17.8647 -16.6591 0.426372 0.000130804 10
17.8447 -16.6405 1.27873 6.21502e-05 10
17.8343 -16.6307 2.13343 6.14496e-05 10
17.8355 -16.6319 2.99434 6.0388e-05 10
17.8314 -16.628 3.86162 5.89803e-05 10
17.8295 -16.6262 4.73874 5.72464e-05 10
17.8252 -16.6223 5.62693 5.52105e-05 10
17.8224 -16.6197 6.52969 5.29009e-05 10
6.92184 -6.40969 -2.52777 0.000410395 4
8.62714 -7.98882 -2.71453 0.000225856 1
10.2275 -9.47081 -2.70949 0.000116528 1
12.5335 -11.6062 -2.70552 5.03816e-05 1
17.7614 -16.4473 -2.11784 8.1936e-05 10
17.7435 -16.4307 -1.26736 5.48164e-05 10
17.7448 -16.4319 -0.422141 5.51869e-05 10
17.739 -16.4265 0.422003 5.52271e-05 10
17.7531 -16.4396 1.26804 6.48491e-05 10
17.7459 -16.4329 2.11599 6.41201e-05 10
17.7417 -16.429 2.96894 6.30156e-05 10
17.7345 -16.4224 3.82821 6.15512e-05 10
17.7432 -16.4304 4.70054 5.97474e-05 10
17.7338 -16.4217 5.57994 5.76293e-05 10
17.7175 -16.4066 6.47022 5.52262e-05 10
6.94691 -6.38802 -2.52877 0.000369956 4
8.64396 -7.94853 -2.71108 0.000225873 1
10.2694 -9.44323 -2.71184 0.000116539 1
12.5912 -11.5782 -2.70923 5.03876e-05 1
17.6661 -16.2449 -2.09971 8.54521e-05 10
17.6614 -16.2405 -1.25743 5.7166e-05 10
17.648 -16.2282 -0.418487 5.75507e-05 10
17.6473 -16.2275 0.418469 5.75921e-05 10
17.6575 -16.2369 1.25716 6.76269e-05 10
17.6444 -16.2248 2.09712 6.68688e-05 10
17.6511 -16.231 2.94429 6.57204e-05 10
17.6462 -16.2266 3.79691 6.41979e-05 10
17.6461 -16.2264 4.65978 6.23222e-05 10
17.6312 -16.2127 5.52982 6.01197e-05 10
17.6393 -16.2202 6.42094 5.76207e-05 10
6.95895 -6.3544 -2.52506 0.000352636 4
8.67884 -7.92487 -2.71332 0.00022589 1
10.3084 -9.4129 -2.71344 0.00011655 1
12.6144 -11.5186 -2.70555 5.03936e-05 1
17.5662 -16.0401 -2.08116 8.90702e-05 10
17.6825 -16.1463 -1.25491 0.000139925 10
17.6792 -16.1434 -0.417889 0.000140781 10
17.683 -16.1468 0.417978 0.000140797 10
17.5612 -16.0356 1.24631 7.04851e-05 10
17.5546 -16.0295 2.07978 6.96972e-05 10
17.5434 -16.0193 2.91698 6.85037e-05 10
17.5597 -16.0342 3.76622 6.69213e-05 10
17.5383 -16.0147 4.61654 6.49721e-05 10
17.5536 -16.0286 5.4879 6.2683e-05 10
17.5407 -16.0169 6.36465 6.00855e-05 10
6.98309 -6.33188 -2.52579 0.000315079 4
8.70379 -7.89212 -2.71249 0.000225906 1
10.339 -9.3748 -2.71285 0.00011656 1
12.6598 -11.4792 -2.70667 5.03995e-05 1
17.4745 -15.8449 -2.06373 9.27912e-05 10
17.5498 -15.9132 -1.24155 0.000145747 10
17.5456 -15.9094 -0.413416 0.000146635 10
17.5371 -15.9017 0.413214 0.000146652 10
17.4622 -15.8338 1.23536 7.34245e-05 10
17.4663 -15.8375 2.06277 7.26058e-05 10
16.7756 -15.2112 2.78047 8.33407e-05 10
16.7773 -15.2127 3.58699 8.14502e-05 10
17.454 -15.8263 4.57976 6.76978e-05 10
17.4496 -15.8223 5.43808 6.53199e-05 10
16.7617 -15.1986 6.06271 0.000174295 10
7.00168 -6.30434 -2.52453 0.000381586 4
8.74545 -7.87443 -2.71689 0.000225923 1
10.3589 -9.32721 -2.70953 0.000116571 1
12.7031 -11.4379 -2.70737 5.04054e-05 1
17.3808 -15.6497 -2.0462 9.66167e-05 10
17.4088 -15.675 -1.2277 0.000151858 10
17.4123 -15.6781 -0.408982 0.000152779 10
17.3961 -15.6635 0.408602 0.000152796 10
17.3721 -15.6419 1.22511 7.64462e-05 10
17.3644 -15.635 2.04427 7.55961e-05 10
16.8387 -15.1616 2.78213 0.000197311 10
16.8548 -15.1761 3.59222 0.00019272 10
17.3685 -15.6387 4.54299 7.05004e-05 10
17.363 -15.6337 5.39406 6.80315e-05 10
16.8465 -15.1686 6.07418 0.000173051 10
7.03744 -6.2922 -2.52949 0.000260188 4
8.7715 -7.84263 -2.71647 0.000225939 1
10.3898 -9.28958 -2.70911 0.000116581 1
12.7347 -11.3862 -2.70564 5.04113e-05 1
17.3015 -15.4693 -2.03049 0.000100548 10
17.3 -15.468 -1.21621 6.72522e-05 10
17.2962 -15.4646 -0.404985 6.76975e-05 10
17.2944 -15.463 0.404942 6.77439e-05 10
17.28 -15.4501 1.21481 7.95511e-05 10
17.2795 -15.4496 2.02791 7.86688e-05 10
16.9307 -15.1378 2.78858 0.000195903 10
16.9311 -15.1382 3.5972 0.000191342 10
17.29 -15.459 4.5083 7.33808e-05 10
17.2845 -15.4541 5.35287 7.08186e-05 10
16.9207 -15.1289 6.08188 0.000171803 10
7.06063 -6.26872 -2.52995 0.00030068 4
8.7902 -7.80431 -2.7138 0.000225955 1
10.4275 -9.25793 -2.71048 0.000116592 1
12.7852 -11.3513 -2.70793 5.04172e-05 1
17.2211 -15.2896 -2.01478 0.000104586 10
17.3574 -15.4106 -1.21645 0.000157125 10
17.3387 -15.394 -0.40472 0.000158075 10
17.3529 -15.4066 0.40505 0.000158094 10
17.1997 -15.2706 1.2054 8.27403e-05 10
17.1938 -15.2654 2.01159 8.18251e-05 10
17.0133 -15.1051 2.79349 0.000194491 10
17.0056 -15.0983 3.60181 0.00018996 10
17.1884 -15.2605 4.46789 7.63401e-05 10
17.1995 -15.2704 5.31001 7.36823e-05 10
16.995 -15.0888 6.08959 0.000170552 10
7.0698 -6.23287 -2.52542 0.000410568 4
8.81719 -7.7734 -2.71374 0.000225972 1
10.4704 -9.23094 -2.71326 0.000116602 1
12.8325 -11.3134 -2.70955 5.04231e-05 1
17.1201 -15.0934 -1.9968 0.000108732 10
17.1976 -15.1617 -1.20154 0.000163809 10
17.2006 -15.1644 -0.400258 0.000164795 10
17.2147 -15.1768 0.400585 0.000164814 10
17.1187 -15.0922 1.19603 8.6015e-05 10
17.1274 -15.0998 1.99764 8.50659e-05 10
17.0879 -15.065 2.79709 0.000193074 10
17.0919 -15.0685 3.60892 0.000188574 10
17.115 -15.0889 4.4351 7.93792e-05 10
17.0982 -15.0741 5.26247 7.66235e-05 10
17.0834 -15.061 6.10241 0.000169297 10
7.10471 -6.21971 -2.53012 0.000364328 4
8.8518 -7.74917 -2.71605 0.000225988 1
10.5007 -9.19263 -2.71276 0.000116612 1
12.8673 -11.2644 -2.70858 5.04289e-05 1
17.037 -14.9147 -1.98101 0.000112988 10
17.0573 -14.9326 -1.18809 0.000170832 10
17.0724 -14.9458 -0.396059 0.000171856 10
17.0709 -14.9444 0.396023 0.000171876 10
17.028 -14.9069 1.18605 8.9376e-05 10
17.0422 -14.9194 1.98162 8.83922e-05 10
17.1469 -15.0109 2.79815 0.000123024 10
17.1267 -14.9933 3.6052 0.000120156 10
17.0201 -14.9 4.397 8.2499e-05 10
17.0329 -14.9112 5.22631 7.96431e-05 10
17.131 -14.997 6.10066 0.000107873 10
7.10706 -6.17808 -2.52326 0.000375917 4
8.88136 -7.72045 -2.71684 0.000226004 1
10.532 -9.15529 -2.71257 0.000116623 1
12.9019 -11.2155 -2.70761 5.04347e-05 1
16.9613 -14.7442 -1.96622 0.000117355 10
16.9546 -14.7384 -1.17735 7.84803e-05 10
16.9544 -14.7382 -0.392125 7.89919e-05 10
16.9557 -14.7394 0.392155 7.90438e-05 10
16.2944 -14.1645 1.1315 0.000107973 10
16.2843 -14.1557 1.88773 0.000106805 10
16.2838 -14.1553 2.64924 0.000105037 10
16.278 -14.1503 3.41613 0.000102693 10
16.2839 -14.1554 4.19403 9.98044e-05 10
16.2654 -14.1393 4.97564 9.64097e-05 10
16.2685 -14.142 5.7759 9.25534e-05 10
7.1336 -6.15756 -2.52504 0.000274724 4
8.88713 -7.67117 -2.7104 0.00022602 1
10.5635 -9.11819 -2.71249 0.000116633 1
12.9332 -11.1637 -2.706 5.04405e-05 1
16.8771 -14.5679 -1.95055 0.000121833 10
17.008 -14.6809 -1.17748 0.000176892 10
16.9903 -14.6656 -0.391769 0.000177948 10
16.9902 -14.6655 0.391765 0.000177969 10
16.2078 -13.9902 1.12209 0.000112024 10
16.2071 -13.9896 1.87312 0.000110815 10
16.2094 -13.9916 2.62916 0.000108986 10
16.2102 -13.9923 3.39163 0.00010656 10
16.2022 -13.9854 4.1604 0.000103571 10
16.1986 -13.9822 4.94024 0.000100057 10
16.1902 -13.9751 5.73077 9.60661e-05 10
7.14963 -6.12798 -2.52313 0.000419341 4
8.9233 -7.64819 -2.71327 0.000226037 1
10.5921 -9.07856 -2.71168 0.000116643 1
12.9848 -11.1293 -2.70864 5.04463e-05 1
16.7924 -14.3928 -1.93494 0.000126425 10
16.8088 -14.4069 -1.16021 0.000127988 10
16.7988 -14.3983 -0.386191 0.000128816 10
16.7884 -14.3894 0.385952 0.000128899 10
16.132 -13.8268 1.11349 0.000116177 10
16.135 -13.8294 1.85919 0.000114926 10
16.1336 -13.8282 2.60903 0.000113033 10
16.1335 -13.8281 3.36545 0.000110524 10
16.121 -13.8174 4.12713 0.000107431 10
16.1102 -13.8081 4.89856 0.000103797 10
16.1144 -13.8117 5.68682 9.96671e-05 10
7.18116 -6.11165 -2.52671 0.000338384 4
8.95144 -7.61828 -2.71372 0.000226053 1
10.6152 -9.03421 -2.70949 0.000116654 1
13.0195 -11.0805 -2.70779 5.0452e-05 1
16.724 -14.2333 -2.69645 0.000128779 10
16.7268 -14.2356 -1.92164 0.000131132 10
16.7193 -14.2293 -1.1506 0.000132747 10
16.7282 -14.2368 -0.383423 0.000133603 10
16.7175 -14.2277 0.383179 0.000133688 10
16.0605 -13.6686 1.10526 0.00012043 10
16.0626 -13.6703 1.84534 0.000119137 10
16.0402 -13.6513 2.58621 0.000117179 10
16.037 -13.6486 3.33537 0.000114585 10
16.0424 -13.6532 4.09478 0.000111387 10
16.0404 -13.6515 4.86282 0.000107628 10
16.0306 -13.6431 5.64041 0.000103357 10
7.20605 -6.08958 -2.52797 0.00040782 4
8.98055 -7.58915 -2.7145 0.000226068 1
10.6484 -8.99857 -2.70993 0.000116664 1
13.0435 -11.0226 -2.70476 5.04578e-05 1
16.6376 -14.0599 -2.67459 0.000133522 10
16.6467 -14.0675 -1.90678 0.000135954 10
16.6927 -14.1065 -1.14537 0.000294479 10
16.7107 -14.1217 -0.381891 0.00029622 10
16.6918 -14.1057 0.381458 0.000296254 10
15.9853 -13.5086 1.09683 0.000124787 10
15.9845 -13.508 1.83094 0.000123449 10
15.9862 -13.5094 2.56987 0.000121426 10
15.9703 -13.496 3.31169 0.000118744 10
15.9804 -13.5045 4.0669 0.000115438 10
15.9587 -13.4861 4.82373 0.000111552 10
15.9671 -13.4932 5.60145 0.000107138 10
7.21288 -6.05233 -2.52294 0.000355779 4
9.00843 -7.55897 -2.71493 0.000226084 1
10.6776 -8.95958 -2.7094 0.000116674 1
13.0888 -10.9828 -2.70619 5.04635e-05 1
16.5726 -13.9061 -2.65632 0.00013838 10
16.5686 -13.9027 -1.89227 0.000140893 10
16.7759 -14.0766 -1.1477 0.000292227 10
16.7751 -14.0759 -0.382236 0.000293956 10
16.7816 -14.0815 0.382385 0.00029399 10
15.9101 -13.3501 1.08846 0.000129246 10
15.9028 -13.3441 1.81623 0.000127864 10
15.9006 -13.3422 2.54861 0.000125773 10
15.9081 -13.3485 3.2891 0.000123002 10
15.9074 -13.3479 4.03644 0.000119586 10
15.8863 -13.3302 4.78777 0.000115571 10
15.8896 -13.333 5.55792 0.000111009 10
7.253 -6.04297 -2.52958 0.000358692 4
9.02381 -7.51835 -2.71164 0.0002261 1
10.7244 -8.93523 -2.71333 0.000116684 1
13.1199 -10.9311 -2.70472 5.04692e-05 1
16.4862 -13.7358 -2.63478 0.000143355 10
16.4859 -13.7355 -1.87734 0.00014595 10
16.8562 -14.0441 -1.14983 0.000289971 10
16.8618 -14.0487 -0.383092 0.000291688 10
16.8481 -14.0373 0.382782 0.000291722 10
15.8363 -13.1943 1.08026 0.000133809 10
15.8422 -13.1992 1.80403 0.000132382 10
15.826 -13.1858 2.52927 0.000130222 10
15.8384 -13.1961 3.26515 0.00012736 10
15.8256 -13.1854 4.00397 0.000123832 10
15.8344 -13.1928 4.75823 0.000119685 10
15.8134 -13.1752 5.51514 0.000114972 10
7.27032 -6.01454 -2.52829 9.54638e-05 4
9.04459 -7.48234 -2.71002 0.000226116 1
10.754 -8.89647 -2.71295 0.000116694 1
13.162 -10.8886 -2.70555 5.04748e-05 1
16.4268 -13.5894 -2.61768 0.000148447 10
16.4121 -13.5773 -1.86353 0.000151126 10
16.9266 -14.0029 -1.15129 0.000287711 10
16.9355 -14.0103 -0.383655 0.000289416 10
16.9227 -13.9997 0.383363 0.000289449 10
15.7536 -13.0325 1.78876 0.000137004 10
15.7494 -13.029 2.50973 0.000134774 10
15.756 -13.0345 3.23875 0.000131819 10
15.7446 -13.0251 3.97195 0.000128176 10
15.7521 -13.0313 4.71979 0.000123894 10
15.7564 -13.0348 5.47935 0.000119028 10
7.29536 -5.99248 -2.5297 0.000402128 4
9.08961 -7.46629 -2.71569 0.000226132 1
10.7794 -8.85428 -2.71154 0.000116704 1
13.2107 -10.8514 -2.70775 5.04805e-05 1
16.339 -13.421 -2.5962 0.000153657 10
16.3569 -13.4357 -1.85192 0.000156422 10
17.0093 -13.9716 -1.1536 0.000285447 10
17.0195 -13.98 -0.384449 0.000287139 10
17.0088 -13.9712 0.384207 0.000287172 10
15.6807 -12.8803 1.77536 0.000141731 10
15.6914 -12.8891 2.49331 0.00013943 10
15.6755 -12.876 3.21296 0.00013638 10
15.6908 -12.8886 3.94701 0.00013262 10
15.681 -12.8805 4.68497 0.0001282 10
15.6728 -12.8738 5.43462 0.000123177 10
7.3005 -5.95414 -2.52426 0.000312463 4
9.11532 -7.43428 -2.7156 0.000226148 1
10.8105 -8.81681 -2.7116 0.000116714 1
13.2338 -10.7932 -2.70475 5.04862e-05 1
16.265 -13.2654 -2.57708 0.000158987 10
16.272 -13.2711 -1.83705 0.00016184 10
17.0756 -13.9265 -1.15478 0.000283179 10
17.0935 -13.9411 -0.385018 0.000284859 10
17.0841 -13.9334 0.384806 0.000284892 10
15.6231 -12.7419 1.7638 0.000146565 10
15.6121 -12.7329 2.47362 0.000144191 10
15.6112 -12.7322 3.19065 0.000141044 10
15.6123 -12.7331 3.91606 0.000137165 10
15.6231 -12.7419 4.65437 0.000132604 10
15.6166 -12.7366 5.39967 0.000127421 10
7.32902 -5.93493 -2.52695 0.000205427 4
9.13045 -7.3937 -2.7124 0.000226163 1
10.8349 -8.77389 -2.71002 0.000116724 1
13.2711 -10.7467 -2.70468 5.04918e-05 1
16.1987 -13.1174 -2.55929 0.000164437 10
16.2075 -13.1245 -1.82458 0.000167379 10
25.6045 -20.7342 -1.72667 5.31359e-05 10
15.5519 -12.5937 1.75079 0.000151505 10
15.5585 -12.599 2.45816 0.000149056 10
15.5524 -12.5941 3.16961 0.000145811 10
15.5564 -12.5973 3.89097 0.00014181 10
15.5511 -12.593 4.61978 0.000137106 10
15.5465 -12.5893 5.36023 0.00013176 10
7.35575 -5.91417 -2.52903 0.000425345 4
9.16436 -7.36833 -2.71482 0.000226179 1
10.8651 -8.7358 -2.70995 0.000116734 1
13.3271 -10.7152 -2.70845 5.04974e-05 1
16.1435 -12.9797 -2.54341 0.000170009 10
16.1395 -12.9765 -1.81183 0.000173043 10
25.7129 -20.6737 -1.7291 5.26277e-05 10
15.4835 -12.4491 1.73819 0.000156554 10
15.4742 -12.4416 2.43796 0.000154029 10
15.4751 -12.4423 3.145 0.000150682 10
15.4871 -12.452 3.86276 0.000146558 10
15.4807 -12.4468 4.58593 0.000141708 10
15.4765 -12.4434 5.32108 0.000136195 10
7.36736 -5.88129 -2.52595 0.000405113 4
9.18503 -7.33232 -2.71334 0.000226194 1
10.8935 -8.69615 -2.70943 0.000116744 1
13.3447 -10.653 -2.70447 5.05029e-05 1
16.0586 -12.8194 -2.52297 0.000175704 10
16.0607 -12.8211 -1.79794 0.00017883 10
25.8275 -20.6179 -1.73196 5.21196e-05 10
15.4286 -12.3165 1.72718 0.000161711 10
15.4253 -12.3139 2.42347 0.000159109 10
15.4063 -12.2987 3.12227 0.000155659 10
15.409 -12.3009 3.83254 0.000151408 10
15.4201 -12.3097 4.55525 0.000146409 10
15.4023 -12.2955 5.28079 0.000140727 10
7.39682 -5.86265 -2.52901 0.000390667 4
9.21544 -7.30407 -2.71478 0.00022621 1
10.9221 -8.65674 -2.70902 0.000116754 1
13.3863 -10.6099 -2.70537 5.05085e-05 1
15.9886 -12.6724 -2.50501 0.000181522 10
15.9903 -12.6738 -1.7851 0.000184743 10
25.9561 -20.5725 -1.73576 5.16115e-05 10
15.3536 -12.1691 1.71401 0.000166978 10
15.3488 -12.1653 2.40476 0.000164297 10
15.3527 -12.1684 3.10277 0.000160743 10
15.355 -12.1702 3.80852 0.000156362 10
15.3551 -12.1703 4.52347 0.000151212 10
15.3384 -12.1571 5.24429 0.000145356 10
7.40537 -5.82746 -2.52497 0.000387795 4
9.23431 -7.26669 -2.71285 0.000226225 1
10.9612 -8.6256 -2.71123 0.000116764 1
13.434 -10.5715 -2.70753 5.0514e-05 1
15.9332 -12.5382 -2.48944 0.000187465 10
15.9248 -12.5316 -1.77289 0.000190783 10
26.0639 -20.5103 -1.73817 5.11036e-05 10
15.3012 -12.0409 1.70347 0.000172355 10
15.286 -12.0289 2.38833 0.000169593 10
15.2968 -12.0374 3.08297 0.000165933 10
15.2771 -12.0219 3.77875 0.000161421 10
15.2805 -12.0246 4.48909 0.000156116 10
15.283 -12.0266 5.21097 0.000150084 10
7.43408 -5.80814 -2.52783 0.000312569 4
9.2649 -7.23853 -2.71439 0.000226241 1
10.993 -8.58871 -2.71168 0.000116774 1
13.4546 -10.5119 -2.70428 5.05195e-05 1
15.8596 -12.3909 -2.47118 0.000193534 10
15.8597 -12.391 -1.76082 0.00019695 10
26.1857 -20.4585 -1.74152 5.05959e-05 10
15.2399 -11.9067 1.692 0.000177844 10
15.238 -11.9052 2.37432 0.000175 10
15.2276 -11.8971 3.06064 0.000171231 10
15.2168 -11.8887 3.75357 0.000166586 10
15.2095 -11.883 4.45602 0.000161122 10
15.2072 -11.8812 5.17095 0.000154911 10
7.43981 -5.77091 -2.52291 0.000280748 4
9.29491 -7.20987 -2.7158 0.000226256 1
11.0166 -8.54534 -2.71011 0.000116784 1
13.4908 -10.4645 -2.70419 5.0525e-05 1
15.8058 -12.2603 -2.45612 0.000199729 10
15.8031 -12.2581 -1.74977 0.000203245 10
26.296 -20.3973 -1.74411 5.00885e-05 10
15.1668 -11.7646 1.67932 0.000183445 10
15.1701 -11.7671 2.35733 0.000180517 10
15.1599 -11.7592 3.03877 0.000176638 10
15.17 -11.767 3.73185 0.000171856 10
15.1512 -11.7525 4.42689 0.000166232 10
15.1616 -11.7605 5.14144 0.000159838 10
7.47123 -5.75362 -2.52674 0.000347337 4
9.31515 -7.17363 -2.71438 0.000226271 1
11.0425 -8.5039 -2.70918 0.000116793 1
13.5325 -10.4214 -2.70524 5.05305e-05 1
15.7284 -12.1125 -2.4375 0.000206052 10
15.7234 -12.1087 -1.73626 0.00020967 10
15.7307 -12.1143 -1.04054 0.000140129 10
