VERSION 0.7
FIELDS x y z intensity label
SIZE 4 4 4 4 4
TYPE F F F F F
COUNT 1 1 1 1 1
WIDTH 1201
HEIGHT 1
VIEWPOINT 5.05737 48.8949 2.72842 0.726977 0.000631207 0.000621939 -0.686662
POINTS 1201
DATA ascii
5.79905 9.28042 -2.52645 0.000220626 4
7.40966 11.8579 -2.71794 0.000115799 1
9.07173 14.5178 -2.71139 4.99718e-05 1
9.91213 15.8627 -2.29668 0.00026588 10
9.91136 15.8615 -1.63635 0.000270464 10
9.91921 15.874 -0.980986 0.000180724 10
9.92181 15.8782 -0.326816 0.000181821 10
9.91167 15.862 0.326481 0.000181926 10
9.92132 15.8774 0.981195 0.000181038 10
9.91647 15.8697 1.63719 0.000211496 10
9.91099 15.8609 2.29642 0.000208156 10
9.90487 15.8511 2.96041 0.000203727 10
9.91324 15.8645 3.63629 0.000198265 10
9.89979 15.843 4.31301 0.000191839 10
9.91305 15.8642 5.01245 0.00018453 10
5.05613 8.15471 -2.57097 0.000259944 4
5.77887 9.32036 -2.53182 0.000217238 4
7.35687 11.8654 -2.71376 0.000115786 1
9.01828 14.545 -2.71058 4.99644e-05 1
9.9226 16.0035 -2.31204 0.000258325 10
9.93404 16.022 -1.64931 0.000262789 10
9.98492 16.104 -0.993039 0.00031658 10
9.9795 16.0953 -0.330564 0.000318328 10
9.98375 16.1021 0.330705 0.00031833 10
9.97482 16.0877 0.992035 0.000316587 10
9.91919 15.998 1.64685 0.0002055 10
9.89724 15.9626 2.30613 0.000375297 10
9.88585 15.9442 2.97134 0.000367086 10
9.89163 15.9536 3.64877 0.000357021 10
9.91004 15.9833 4.34175 0.000186364 10
9.90745 15.9791 5.03779 0.000179248 10
5.00623 8.13751 -2.56002 0.000309062 4
5.73495 9.32203 -2.52682 0.000227322 4
7.31388 11.8885 -2.71319 0.000115773 1
8.97055 14.5814 -2.71151 4.9957e-05 1
9.93624 16.1511 -2.32834 0.000250909 10
9.93124 16.143 -1.65819 0.000255255 10
9.93284 16.1456 -0.993458 0.000170571 10
9.93294 16.1458 -0.330887 0.000171613 10
9.93181 16.1439 0.330849 0.000171714 10
9.92715 16.1363 0.992888 0.000170873 10
9.92934 16.1399 1.65788 0.000199613 10
9.82298 15.967 2.3018 0.000378505 10
9.82293 15.9669 2.96916 0.00037023 10
9.82323 15.9674 3.64407 0.000360084 10
9.91783 16.1212 4.3698 0.00018099 10
9.92568 16.134 5.07567 0.000174066 10
4.97821 8.15563 -2.56024 0.00030717 4
5.70473 9.34585 -2.52786 0.000232353 4
7.28621 11.9367 -2.71837 0.000115759 1
8.92556 14.6224 -2.71333 4.99497e-05 1
9.94704 16.2959 -2.34419 0.00024363 10
9.94715 16.296 -1.67034 0.00024786 10
9.9934 16.3718 -1.00522 0.00030428 10
9.9965 16.3769 -0.334907 0.000305966 10
9.98576 16.3593 0.334547 0.000305968 10
9.98745 16.3621 1.00463 0.000304286 10
9.92999 16.2679 1.66746 0.000193835 10
9.7411 15.9585 2.29565 0.000381713 10
9.75065 15.9741 2.96415 0.000373373 10
9.74018 15.957 3.63391 0.000363147 10
9.923 16.2565 4.39705 0.000175716 10
9.92913 16.2665 5.10643 0.000168979 10
4.93811 8.15379 -2.55423 0.00030524 4
5.67201 9.3656 -2.52784 0.000228964 4
7.23601 11.9481 -2.71518 0.000115746 1
8.87457 14.6537 -2.71336 4.99422e-05 1
9.9542 16.4363 -2.35938 0.000236489 10
9.94393 16.4194 -1.67941 0.000240605 10
9.94682 16.4242 -1.0063 0.000160791 10
9.94761 16.4255 -0.335188 0.000161779 10
9.9503 16.4299 0.335278 0.000161875 10
9.94585 16.4226 1.0062 0.00016108 10
9.93615 16.4065 1.6781 0.000188167 10
9.67706 15.9787 2.29369 0.000384917 10
9.67245 15.9711 2.95731 0.000376513 10
9.66475 15.9584 3.62652 0.000366207 10
9.93873 16.4108 4.42937 0.000170542 10
9.93237 16.4003 5.13751 0.00016399 10
4.90514 8.16351 -2.5519 0.0003505 4
5.64762 9.39921 -2.53157 0.000215476 4
7.1947 11.974 -2.71535 0.000115733 1
8.83056 14.6965 -2.71557 4.99348e-05 1
9.95886 16.5743 -2.37418 0.000229483 10
9.96574 16.5858 -1.69286 0.000233488 10
9.99454 16.6337 -1.017 0.00029257 10
9.99059 16.6271 -0.338589 0.000294198 10
10.0008 16.6441 0.338934 0.0002942 10
9.99681 16.6375 1.01723 0.000292576 10
9.95897 16.5745 1.69171 0.000182606 10
9.60036 15.9777 2.28871 0.00038812 10
9.60015 15.9773 2.95224 0.00037965 10
9.59325 15.9658 3.62058 0.000369266 10
9.9444 16.5502 4.45762 0.000165468 10
9.94886 16.5577 5.1759 0.000159098 10
4.86997 8.16944 -2.54843 0.00037534 4
5.60663 9.40521 -2.5279 0.000198624 4
7.15558 12.0036 -2.71638 0.00011572 1
8.77857 14.7262 -2.71538 4.99274e-05 1
9.96318 16.7134 -2.38911 0.000222612 10
9.9649 16.7163 -1.70262 0.000226507 10
9.96145 16.7105 -1.01956 0.000151379 10
9.96902 16.7232 -0.339835 0.000152314 10
9.96548 16.7172 0.339714 0.000152407 10
9.96298 16.713 1.01971 0.000151656 10
9.9573 16.7035 1.70132 0.000177151 10
9.56371 16.0433 2.29332 0.000201347 10
9.55943 16.0361 2.95691 0.00019707 10
9.5605 16.0379 3.62933 0.000191794 10
9.95686 16.7028 4.48931 0.000160492 10
9.95995 16.708 5.21199 0.0001543 10
4.83947 8.1831 -2.5474 0.000412028 4
5.58247 9.43943 -2.53184 0.000225536 4
7.11551 12.0317 -2.7171 0.000115706 1
8.7212 14.7467 -2.71354 4.99199e-05 1
9.98163 16.878 -2.40764 0.000215877 10
9.98141 16.8776 -1.7155 0.000219664 10
9.977 16.8702 -1.02717 0.000222262 10
9.97621 16.8688 -0.342085 0.000223639 10
9.9761 16.8687 0.342081 0.000223776 10
9.96595 16.8515 1.02603 0.000222673 10
9.97095 16.8599 1.7137 0.000171803 10
9.86173 16.6753 3.76576 7.01857e-05 10
9.96514 16.8501 4.51954 0.000155614 10
9.95463 16.8323 5.23991 0.000149597 10
4.79792 8.17786 -2.54054 0.000326348 4
5.53738 9.43823 -2.52632 0.000240661 4
7.0646 12.0413 -2.71369 0.000115693 1
8.66392 14.7673 -2.71174 4.99124e-05 1
9.98069 17.0117 -2.42173 0.000209274 10
9.98585 17.0205 -1.72646 0.000212954 10
9.98419 17.0176 -1.03402 0.00021548 10
9.9841 17.0175 -0.34439 0.000216819 10
9.9848 17.0187 0.344414 0.000216953 10
9.98528 17.0195 1.03413 0.000215882 10
9.983 17.0156 1.72597 0.00016656 10
10.0369 17.1075 2.43536 0.000199212 10
10.0467 17.1241 3.14452 0.000194771 10
9.811 16.7224 3.76865 7.01947e-05 10
9.9655 16.9858 4.54657 0.000150833 10
9.97368 16.9997 5.28115 0.000144988 10
4.76211 8.18212 -2.53668 0.000101556 4
5.50932 9.46595 -2.52858 0.000203618 4
7.02767 12.0747 -2.71568 0.00011568 1
8.61117 14.7955 -2.71137 4.99049e-05 1
9.99222 17.1683 -2.43905 0.000202804 10
9.98828 17.1616 -1.73723 0.00020638 10
18.6332 32.015 -1.94132 3.01002e-05 10
9.9767 17.1417 1.73521 0.000318016 10
9.97977 17.147 2.43601 0.000312708 10
9.9866 17.1587 3.14445 0.000305738 10
9.75249 16.7564 3.76862 7.02038e-05 10
9.97923 17.146 4.58011 0.000146149 10
9.9786 17.1449 5.31541 0.000140472 10
4.73007 8.19272 -2.53484 5.52053e-05 4
5.48228 9.49558 -2.53137 0.000227156 4
6.98605 12.1002 -2.7159 0.000115666 1
8.56242 14.8306 -2.71231 4.98975e-05 1
10.0085 17.3352 -2.45777 0.000196465 10
9.99989 17.3203 -1.74975 0.000199938 10
18.4744 31.9987 -1.93641 3.04181e-05 10
9.90276 17.1521 1.73276 0.000320601 10
9.89933 17.1461 2.43097 0.000315254 10
9.91091 17.1662 3.13947 0.000308231 10
9.69637 16.7946 3.76957 7.02128e-05 10
9.906 17.1577 4.57396 0.000289544 10
9.90197 17.1507 5.30645 0.000278119 10
4.68928 8.18794 -2.52828 0.000350837 4
5.44431 9.5063 -2.52914 0.000275927 4
6.95068 12.1366 -2.7186 0.000115653 1
8.50978 14.8589 -2.71205 4.98899e-05 1
10.0085 17.4758 -2.47274 0.000190258 10
10.0046 17.469 -1.76123 0.00019363 10
18.3337 32.0124 -1.93336 3.07363e-05 10
9.83411 17.1713 1.73122 0.000323183 10
9.83032 17.1647 2.42872 0.000317795 10
9.82139 17.1491 3.13005 0.00031072 10
9.62972 16.8144 3.76645 7.02219e-05 10
9.82586 17.1569 4.56458 0.000291894 10
9.83048 17.165 5.30021 0.000280383 10
4.65846 8.20037 -2.52708 0.000347934 4
5.41502 9.53217 -2.53098 0.000242255 4
6.90476 12.1546 -2.71722 0.000115639 1
8.46995 14.9098 -2.71593 4.98824e-05 1
10.015 17.6296 -2.48955 0.000184179 10
10.0143 17.6284 -1.77377 0.000187453 10
18.1938 32.0269 -1.93039 3.10548e-05 10
9.74692 17.1577 1.72641 0.000325762 10
9.75007 17.1632 2.42368 0.000320334 10
9.75534 17.1725 3.12809 0.000313207 10
9.61188 16.92 3.78255 0.000159037 10
9.75154 17.1658 4.55787 0.00029424 10
9.7554 17.1726 5.29202 0.000282644 10
4.63636 8.22821 -2.53066 0.000345032 4
5.38482 9.55651 -2.53244 0.000171582 4
6.8536 12.1632 -2.71378 0.000115626 1
8.41646 14.9368 -2.71547 4.98749e-05 1
10.0269 17.7949 -2.50793 0.000178229 10
10.0318 17.8036 -1.78787 0.000181407 10
18.0502 32.0339 -1.927 3.13733e-05 10
9.66978 17.1611 1.72334 0.000328336 10
9.67787 17.1755 2.42062 0.000322869 10
9.6784 17.1764 3.12262 0.000315689 10
9.62074 17.0741 3.80947 0.000153961 10
9.66873 17.1592 4.54713 0.000296584 10
9.67068 17.1627 5.27853 0.000284902 10
4.60814 8.2453 -2.53095 0.000391006 4
5.33937 9.55367 -2.52673 9.92391e-05 4
6.81305 12.1905 -2.71456 0.000115613 1
8.35398 14.9477 -2.71213 4.98673e-05 1
10.0365 17.9581 -2.52597 0.000172408 10
10.0438 17.9713 -1.80117 0.00017549 10
17.9162 32.0572 -1.92462 3.16921e-05 10
9.6328 17.2358 1.72746 0.000159096 10
9.63081 17.2323 2.42388 0.000156547 10
9.62289 17.2181 3.12409 0.000153164 10
9.61918 17.2115 3.83261 0.000148992 10
9.62639 17.2244 4.55546 0.000144084 10
9.62454 17.2211 5.28613 0.000138502 10
4.57889 8.26054 -2.53071 0.000390976 4
5.31912 9.59595 -2.53299 0.000220324 4
6.77387 12.2204 -2.71593 0.000115599 1
8.3034 14.9797 -2.71267 4.98598e-05 1
10.0529 18.1359 -2.54602 0.000166712 10
10.0455 18.1226 -1.81281 0.0001697 10
17.7613 32.0422 -1.91999 3.2011e-05 10
9.63486 17.3817 1.7387 0.000153926 10
9.63737 17.3863 2.44079 0.000151454 10
9.63558 17.383 3.14789 0.000148174 10
9.63964 17.3904 3.86493 0.000144128 10
9.62811 17.3696 4.58494 0.000139369 10
9.63497 17.3819 5.32515 0.000133957 10
4.55668 8.28856 -2.5344 0.000293209 4
5.2856 9.61446 -2.53299 0.000230394 4
6.73163 12.2448 -2.71611 0.000115586 1
8.25078 15.0081 -2.71258 4.98522e-05 1
10.054 18.2882 -2.56247 0.000161142 10
10.0638 18.3059 -1.82763 0.000164039 10
17.6191 32.049 -1.9167 3.233e-05 10
9.64589 17.5458 1.75174 0.000148868 10
9.64711 17.548 2.45876 0.000146472 10
9.65168 17.5563 3.17315 0.000143293 10
9.64461 17.5435 3.89145 0.000139371 10
9.64054 17.5361 4.61998 0.000134758 10
9.6453 17.5447 5.36467 0.000129513 10
4.51834 8.28723 -2.52916 0.000411036 4
5.24199 9.61449 -2.52816 0.000262322 4
6.68876 12.268 -2.71607 0.000115572 1
8.20964 15.0575 -2.71632 4.98446e-05 1
10.0725 18.4742 -2.58359 0.000155696 10
10.071 18.4715 -1.84063 0.000158504 10
17.4781 32.0571 -1.91352 3.2649e-05 10
9.65199 17.703 1.76406 0.000143919 10
9.65575 17.7099 2.4767 0.000141598 10
9.65364 17.706 3.19409 0.000138518 10
9.6587 17.7153 3.92206 0.000134718 10
9.65251 17.7039 4.6553 0.000130248 10
9.65466 17.7079 5.40422 0.000125166 10
4.49927 8.32122 -2.53472 0.00033915 4
5.21396 9.64302 -2.53086 0.000238758 4
6.64822 12.2956 -2.71702 0.000115558 1
8.15683 15.0857 -2.71625 4.9837e-05 1
10.0812 18.6447 -2.6025 0.000150374 10
10.0831 18.6482 -1.85473 0.000153093 10
17.3457 32.0803 -1.91128 3.29679e-05 10
9.65926 17.8644 1.77677 0.000139081 10
9.65952 17.8649 2.49365 0.000136833 10
9.65867 17.8633 3.21637 0.000133849 10
9.66898 17.8824 3.95156 0.000130169 10
9.65817 17.8624 4.68808 0.000125839 10
9.6596 17.865 5.44186 0.000120917 10
4.46408 8.32547 -2.53125 0.00040235 4
5.1841 9.6683 -2.53273 0.000223604 4
6.60142 12.3116 -2.71545 0.000115545 1
8.0956 15.0982 -2.7134 4.98294e-05 1
10.0818 18.8025 -2.61959 0.000145173 10
10.0925 18.8224 -1.86854 0.000147807 10
17.2063 32.0896 -1.90825 3.32868e-05 10
9.67877 18.0508 1.07341 0.000135787 10
9.66971 18.0339 1.79026 0.000134351 10
9.66905 18.0327 2.51234 0.000132174 10
9.67962 18.0524 3.24431 0.000129285 10
9.67396 18.0419 3.97931 0.000125722 10
9.6656 18.0263 4.7222 0.00012153 10
9.66727 18.0294 5.48161 0.000116765 10
4.43482 8.34068 -2.53116 0.000416687 4
5.52479 10.3906 -2.71688 0.000224296 1
6.56769 12.352 -2.71929 0.000115531 1
8.04949 15.1389 -2.71563 4.98218e-05 1
10.1002 18.9957 -2.64158 0.000140094 10
10.0908 18.9781 -1.88048 0.000142643 10
10.2655 19.3065 -1.14595 0.000194866 10
10.2644 19.3045 -0.381632 0.000195997 10
10.2608 19.2977 0.381498 0.000195998 10
9.6803 18.206 1.08063 0.000131119 10
9.68379 18.2125 1.80463 0.00012973 10
9.68293 18.2109 2.53245 0.000127623 10
9.67941 18.2043 3.26552 0.000124826 10
9.68285 18.2108 4.00909 0.000121377 10
9.68269 18.2105 4.76158 0.00011732 10
9.67779 18.2013 5.52356 0.000112708 10
4.40347 8.35192 -2.52989 0.000241372 4
5.49237 10.4172 -2.7188 0.000224274 1
6.51749 12.3615 -2.71636 0.000115518 1
7.99161 15.1574 -2.71394 4.98141e-05 1
10.1063 19.1682 -2.66065 0.000135134 10
10.1024 19.161 -1.8951 0.000137601 10
10.1823 19.3124 -1.14418 0.00019635 10
10.1806 19.3092 -0.381021 0.000197489 10
10.1843 19.3163 0.38116 0.00019749 10
9.70175 18.401 1.09018 0.000126558 10
9.70095 18.3995 1.81978 0.000125214 10
9.69093 18.3805 2.55131 0.000123176 10
9.69122 18.381 3.29113 0.00012047 10
9.69166 18.3819 4.03928 0.000117133 10
9.69197 18.3825 4.79767 0.000113208 10
9.68127 18.3622 5.5621 0.000108746 10
4.37297 8.36472 -2.52912 0.000347664 4
5.45004 10.425 -2.71585 0.000224253 1
6.4782 12.3917 -2.71799 0.000115504 1
7.93933 15.1865 -2.71417 4.98065e-05 1
10.1158 19.3498 -2.68094 0.000130294 10
10.1243 19.366 -1.91187 0.000132679 10
10.1196 19.357 -1.14472 8.87223e-05 10
10.1169 19.3519 -0.381164 8.93001e-05 10
10.1122 19.3428 0.380985 8.93637e-05 10
9.70026 18.5549 1.09729 0.000122104 10
9.70694 18.5677 1.83305 0.000120804 10
9.70448 18.563 2.57192 0.000118833 10
9.7044 18.5628 3.31759 0.000116217 10
9.69612 18.547 4.0681 0.000112989 10
9.70262 18.5594 4.83498 0.000109193 10
9.70461 18.5632 5.6127 0.000104879 10
4.35151 8.39491 -2.53365 0.000367748 4
5.42586 10.4675 -2.72199 0.000224232 1
6.4396 12.4232 -2.71997 0.00011549 1
7.8823 15.2065 -2.71281 4.97988e-05 1
10.1309 19.5445 -2.70299 0.00012557 10
10.1231 19.5295 -1.92451 0.000127877 10
10.1466 19.5747 -1.1555 0.000189473 10
10.1452 19.572 -0.384799 0.000190577 10
10.1502 19.5817 0.384989 0.000190578 10
9.71802 18.7479 1.10669 0.000117756 10
9.70986 18.7322 1.84594 0.0001165 10
9.71775 18.7474 2.59276 0.000114594 10
9.70641 18.7256 3.3406 0.000112064 10
9.70603 18.7248 4.09965 0.000108944 10
9.70534 18.7235 4.86887 0.000105275 10
9.71241 18.7371 5.655 0.000101104 10
4.31767 8.40127 -2.531 0.000405065 4
5.38001 10.4684 -2.7173 0.00022421 1
6.39528 12.4439 -2.71959 0.000115477 1
7.84063 15.2562 -2.71678 4.97911e-05 1
10.1415 19.7332 -1.94109 0.000123192 10
10.1954 19.838 -1.16893 0.000181534 10
10.1941 19.8357 -0.389281 0.000182596 10
10.1929 19.8332 0.389233 0.000182597 10
9.72423 18.9213 1.11492 0.000113512 10
9.72586 18.9245 1.86153 0.000112298 10
9.72473 18.9223 2.61223 0.000110456 10
9.72733 18.9273 3.37052 0.000108012 10
9.72146 18.9159 4.13404 0.000104997 10
9.72618 18.9251 4.91244 0.000101451 10
9.72041 18.9139 5.69807 9.74207e-05 10
4.29181 8.42315 -2.53307 0.000370562 4
5.34664 10.4934 -2.71893 0.000224189 1
6.34048 12.4439 -2.71474 0.000115463 1
7.77768 15.2645 -2.71341 4.97835e-05 1
10.1458 19.9123 -1.95521 0.000118624 10
10.1428 19.9063 -1.17086 7.93335e-05 10
10.1459 19.9125 -0.390091 7.9856e-05 10
10.1489 19.9184 0.390207 7.99148e-05 10
9.73597 19.1079 1.1239 0.000109371 10
9.73021 19.0966 1.87511 0.000108199 10
9.73451 19.105 2.63276 0.00010642 10
9.73947 19.1148 3.39783 0.000104059 10
9.7268 19.0899 4.16462 0.000101146 10
9.72587 19.0881 4.94591 9.77214e-05 10
9.7251 19.0866 5.73984 9.38292e-05 10
4.25435 8.42218 -2.52829 0.000344682 4
5.31342 10.5188 -2.7207 0.000224167 1
6.30364 12.4791 -2.7176 0.000115449 1
7.72296 15.2889 -2.71292 4.97758e-05 1
10.1551 20.1036 -1.9705 0.000114171 10
10.1644 20.1222 -1.18146 0.000175268 10
10.1604 20.1142 -0.393345 0.000176297 10
10.1592 20.1118 0.393298 0.000176298 10
9.74754 19.2968 1.13301 0.000105333 10
9.74804 19.2978 1.89152 0.000104201 10
9.74435 19.2905 2.65362 0.000102484 10
9.74743 19.2966 3.42408 0.000100204 10
9.7472 19.2962 4.20217 9.73918e-05 10
9.73467 19.2714 4.98456 9.40849e-05 10
9.73694 19.2759 5.78651 9.03272e-05 10
4.22746 8.44204 -2.52981 0.000373376 4
5.27395 10.5318 -2.71929 0.000224145 1
6.25554 12.492 -2.71564 0.000115435 1
7.67047 15.3176 -2.71325 4.97681e-05 1
10.1772 20.3233 -1.98854 0.000109833 10
10.2088 20.3864 -1.19488 0.000168033 10
10.2016 20.3722 -0.397692 0.000169024 10
10.207 20.3828 0.397899 0.000169025 10
9.76275 19.4957 1.14268 0.000101396 10
9.75233 19.4749 1.90553 0.000100304 10
9.75484 19.48 2.67497 9.86469e-05 10
9.76035 19.491 3.4525 9.64464e-05 10
9.75037 19.471 4.23281 9.37324e-05 10
9.75126 19.4728 5.02783 9.0541e-05 10
9.75495 19.4802 5.83758 8.69146e-05 10
4.19802 8.45686 -2.52984 0.000430784 4
5.24161 10.5591 -2.7216 0.000224124 1
6.21583 12.5217 -2.71736 0.000115422 1
7.62458 15.3596 -2.71597 4.97603e-05 1
10.1786 20.5046 -2.00279 0.000105606 10
10.2473 20.6431 -1.20782 0.00016115 10
10.2548 20.6583 -0.402575 0.000162105 10
10.2582 20.665 0.402707 0.000162106 10
9.77323 19.688 1.15194 9.7559e-05 10
9.77407 19.6897 1.92319 9.65059e-05 10
9.77143 19.6844 2.69835 9.49072e-05 10
9.761 19.6634 3.47699 9.27844e-05 10
9.7623 19.666 4.26777 9.01662e-05 10
9.76756 19.6766 5.07162 8.70877e-05 10
9.75571 19.6527 5.87905 8.35898e-05 10
4.16666 8.46777 -2.52874 0.000427878 4
5.19792 10.5636 -2.71805 0.000224102 1
6.17753 12.5544 -2.71976 0.000115408 1
7.56466 15.3734 -2.71372 4.97526e-05 1
10.1917 20.7122 -2.01958 0.000101492 10
10.1936 20.716 -1.21 6.78881e-05 10
10.1983 20.7257 -0.403193 6.83424e-05 10
10.1917 20.7122 0.402931 6.83949e-05 10
9.78649 19.8888 1.16168 9.38215e-05 10
9.78648 19.8887 1.93928 9.28063e-05 10
9.77313 19.8616 2.71795 9.12648e-05 10
9.77267 19.8607 3.50582 8.92179e-05 10
9.77521 19.8658 4.3037 8.66932e-05 10
9.77044 19.8562 5.10907 8.37249e-05 10
9.77154 19.8584 5.93033 8.03524e-05 10
4.1394 8.48704 -2.53016 0.000390516 4
5.15776 10.575 -2.71634 0.000224081 1
6.1276 12.5635 -2.71707 0.000115394 1
7.51775 15.4137 -2.71618 4.97449e-05 1
10.203 20.9193 -2.03629 9.74875e-05 10
10.2875 21.0926 -1.22989 0.000228249 10
10.2928 21.1034 -0.409839 0.00022961 10
10.2969 21.1117 0.41 0.000229611 10
9.79715 20.0871 1.17126 9.01813e-05 10
9.79346 20.0796 1.95455 8.9203e-05 10
9.79137 20.0753 2.74249 8.77174e-05 10
9.78647 20.0652 3.53587 8.57447e-05 10
9.78464 20.0615 4.33865 8.33114e-05 10
9.7844 20.061 5.15296 8.04506e-05 10
9.7838 20.0598 5.98023 7.72006e-05 10
4.11166 8.50538 -2.53134 0.000295735 4
5.12179 10.5949 -2.71685 0.000224059 1
6.07946 12.576 -2.71517 0.00011538 1
7.46726 15.4468 -2.7174 4.97371e-05 1
10.2149 21.1306 -2.05337 9.35923e-05 10
10.2219 21.1451 -1.23086 9.47875e-05 10
10.2229 21.1472 -0.409994 9.54271e-05 10
10.22 21.1411 0.409876 9.55021e-05 10
9.80931 20.2915 1.18118 8.66383e-05 10
9.80438 20.2813 1.97084 8.56961e-05 10
9.80674 20.2862 2.76661 8.4265e-05 10
9.80405 20.2806 3.56778 8.23645e-05 10
9.79517 20.2623 4.37466 8.00204e-05 10
9.79289 20.2576 5.19464 7.72646e-05 10
9.79774 20.2676 6.03196 7.41341e-05 10
4.08696 8.53013 -2.53444 0.000341647 4
5.08745 10.6183 -2.71828 0.000224037 1
6.03883 12.604 -2.71666 0.000115366 1
7.41128 15.4685 -2.71666 4.97294e-05 1
10.2315 21.3547 -2.07167 8.98042e-05 10
10.232 21.3559 -1.24104 9.09554e-05 10
10.2325 21.3568 -0.413364 9.15718e-05 10
10.2322 21.3562 0.413351 9.16447e-05 10
10.2282 21.3478 1.24057 7.10887e-05 10
10.1161 21.1138 2.87465 0.000175208 10
10.1148 21.1113 3.70767 0.000171062 10
10.2215 21.334 4.59831 6.55612e-05 10
10.2228 21.3366 5.46214 6.32613e-05 10
10.12 21.1221 6.27572 0.000153345 10
4.04873 8.5266 -2.52918 0.000295688 4
5.05708 10.6502 -2.7219 0.000224015 1
6.00363 12.6436 -2.72066 0.000115353 1
7.35654 15.4928 -2.71641 4.97216e-05 1
10.245 21.576 -2.08965 8.61215e-05 10
12.3577 26.0253 -1.50988 6.56561e-05 10
12.3645 26.0396 -0.503161 6.60819e-05 10
12.3601 26.0302 0.502979 6.60824e-05 10
10.2413 21.5682 1.2513 6.81788e-05 10
10.0232 21.1087 2.86918 0.000176431 10
10.0315 21.1263 3.70413 0.000172259 10
10.2353 21.5556 4.63834 6.28624e-05 10
10.2352 21.5553 5.50896 6.06503e-05 10
10.0204 21.1029 6.2596 0.000154427 10
4.0173 8.53719 -2.52814 0.000353074 4
5.0158 10.6591 -2.71969 0.000223994 1
5.95782 12.661 -2.71991 0.000115339 1
7.30339 15.5205 -2.71677 4.97138e-05 1
10.2538 21.7905 -2.10695 8.2544e-05 10
10.2511 21.7846 1.26177 6.53518e-05 10
9.93893 21.1213 2.86615 0.00017765 10
9.9419 21.1276 3.69826 0.000173451 10
10.2444 21.7704 4.67685 6.0241e-05 10
10.243 21.7674 5.55398 5.81146e-05 10
9.93763 21.1185 6.2539 0.000155505 10
3.99071 8.55812 -2.5302 0.000419063 4
4.97419 10.6672 -2.7173 0.000223972 1
5.91352 12.6816 -2.71988 0.000115325 1
7.24965 15.5469 -2.71695 4.9706e-05 1
10.2706 22.0255 -2.12619 7.9069e-05 10
15.0165 32.203 -1.86216 3.83429e-05 10
10.2591 22.0007 1.27221 6.26057e-05 10
9.84653 21.116 2.03839 7.26021e-05 10
9.85448 21.133 2.86305 0.000178865 10
9.85084 21.1252 3.69179 0.000174639 10
10.2612 22.0053 4.71957 5.76952e-05 10
10.2566 21.9952 5.60296 5.56521e-05 10
9.85532 21.1348 6.24849 0.00015658 10
3.96375 8.57835 -2.53208 0.000393199 4
4.93858 10.6881 -2.71821 0.00022395 1
5.86579 12.6947 -2.71829 0.000115311 1
7.19533 15.5721 -2.71695 4.96982e-05 1
10.2886 22.2666 -2.14598 7.56963e-05 10
12.0355 26.0472 -1.50375 6.71303e-05 10
12.0389 26.0546 -0.500988 6.75649e-05 10
12.0365 26.0493 0.500884 6.75654e-05 10
10.2794 22.2466 1.28434 5.99401e-05 10
10.2771 22.2417 2.14358 5.92691e-05 10
10.2713 22.2292 3.00668 5.82491e-05 10
10.2719 22.2304 3.87865 5.68946e-05 10
10.2661 22.218 4.75748 5.52247e-05 10
10.2634 22.2121 5.64903 5.32628e-05 10
10.2682 22.2225 6.55943 5.10362e-05 10
3.93898 8.60348 -2.53542 0.000436214 4
4.90654 10.7168 -2.72115 0.000223928 1
5.81766 12.7069 -2.71653 0.000115297 1
7.1447 15.6054 -2.71838 4.96904e-05 1
10.3012 22.4998 -2.16498 7.24233e-05 10
14.7481 32.2126 -1.85672 3.89636e-05 10
10.2903 22.476 1.2955 5.73533e-05 10
10.2944 22.485 2.16355 5.67094e-05 10
10.2845 22.4632 3.03347 5.57304e-05 10
10.2886 22.4723 3.91457 5.44304e-05 10
10.2851 22.4646 4.80258 5.28276e-05 10
10.2776 22.4483 5.69994 5.09446e-05 10
10.2829 22.4599 6.61886 4.88079e-05 10
3.90016 8.59785 -2.52973 0.000404614 4
4.86781 10.731 -2.72043 0.000223906 1
5.78079 12.7437 -2.72007 0.000115283 1
7.09017 15.6302 -2.71837 4.96825e-05 1
10.3104 22.729 -2.18356 6.92495e-05 10
11.8158 26.0477 -1.49899 6.81046e-05 10
11.822 26.0614 -0.49952 6.8545e-05 10
11.8258 26.0698 0.499679 6.85454e-05 10
10.3 22.7062 1.30669 5.48446e-05 10
10.2976 22.701 2.18087 5.42271e-05 10
10.3004 22.707 3.06151 5.32881e-05 10
10.2937 22.6923 3.94661 5.20411e-05 10
10.2997 22.7055 4.84636 5.05036e-05 10
10.3003 22.7069 5.75645 4.86975e-05 10
10.2911 22.6866 6.67505 4.66482e-05 10
3.8786 8.63026 -2.53527 0.000401712 4
4.82421 10.7343 -2.71699 0.000223884 1
5.73903 12.7699 -2.72138 0.000115269 1
7.03368 15.6506 -2.71764 4.96747e-05 1
10.3279 22.9805 -2.20424 6.6173e-05 10
10.3141 22.95 1.31864 5.24127e-05 10
10.3158 22.9536 2.20166 5.18209e-05 10
10.3164 22.955 3.09008 5.09207e-05 10
10.3102 22.9412 3.98361 4.97252e-05 10
10.3076 22.9354 4.88772 4.82512e-05 10
10.3062 22.9324 5.80445 4.65198e-05 10
10.3051 22.9299 6.73602 4.45554e-05 10
3.83946 8.62356 -2.52935 0.000364381 4
4.45593 10.0082 -2.52924 0.000194635 4
5.69262 12.7858 -2.72052 0.000115255 1
6.98037 15.6782 -2.71818 4.96669e-05 1
10.3344 23.2115 -2.22292 6.3192e-05 10
14.3527 32.2368 -1.84934 3.98876e-05 10
10.3289 23.1991 1.33088 5.00561e-05 10
10.3319 23.2058 2.22238 4.94891e-05 10
10.3253 23.1909 3.11696 4.86267e-05 10
10.3239 23.1879 4.02016 4.74812e-05 10
10.3195 23.1779 4.93169 4.6069e-05 10
10.3285 23.1981 5.86255 4.44102e-05 10
10.315 23.1678 6.79529 4.25284e-05 10
3.81058 8.63972 -2.53017 0.000381565 4
4.42601 10.0351 -2.53212 0.0003389 4
5.64019 12.788 -2.71677 0.000115241 1
6.91708 15.6831 -2.71483 4.9659e-05 1
10.358 23.4847 -2.24561 6.03056e-05 10
11.5064 26.0884 -1.49431 6.9552e-05 10
11.4989 26.0714 -0.497376 7.00009e-05 10
11.5 26.0739 0.497422 7.00013e-05 10
10.3484 23.463 1.34393 4.77741e-05 10
10.2835 23.3158 2.22947 0.000128909 10
10.292 23.3352 3.1315 0.000126547 10
10.3411 23.4464 4.0587 4.53088e-05 10
10.3356 23.434 4.97847 4.39565e-05 10
10.2891 23.3285 5.88639 0.000115243 10
10.2863 23.3222 6.82998 0.000110247 10
3.78514 8.66384 -2.53335 0.000272524 4
4.39536 10.0606 -2.53466 0.000171111 4
5.59717 12.8114 -2.71758 0.000115227 1
6.86501 15.7134 -2.71591 4.96511e-05 1
10.3652 23.7251 -2.26512 5.75116e-05 10
14.0925 32.2564 -1.84478 4.04983e-05 10
10.3645 23.7233 1.35676 4.5565e-05 10
10.1941 23.3333 2.22772 0.000129756 10
10.1874 23.3179 3.1244 0.00012738 10
10.3597 23.7125 4.09847 4.3206e-05 10
10.356 23.7039 5.02812 4.1912e-05 10
10.1899 23.3237 5.87616 0.000116007 10
10.191 23.3262 6.82071 0.000110981 10
3.75487 8.677 -2.53335 0.000364292 4
4.35836 10.0716 -2.53358 0.000172772 4
5.55714 12.8418 -2.71989 0.000115213 1
6.81598 15.7508 -2.71824 4.96433e-05 1
10.3871 24.0032 -2.2882 5.48093e-05 10
10.524 24.3195 -1.38875 9.44616e-05 10
10.5321 24.3383 -0.462898 9.50528e-05 10
10.5333 24.3411 0.462951 9.50535e-05 10
10.3796 23.9857 1.36969 4.34282e-05 10
10.0931 23.3237 2.22343 0.000130599 10
10.1022 23.3449 3.12327 0.000128209 10
10.3719 23.9681 4.13638 4.11724e-05 10
10.3636 23.9489 5.07238 3.99349e-05 10
10.0973 23.3335 5.86973 0.000116768 10
10.1031 23.3469 6.8164 0.000111711 10
3.72873 8.69977 -2.53618 0.000387208 4
4.32054 10.0806 -2.53204 0.000229781 4
5.51265 12.862 -2.72007 0.000115199 1
6.7583 15.7683 -2.71718 4.96354e-05 1
10.4 24.2651 -2.30969 5.21964e-05 10
10.4349 24.3465 -1.3882 9.50783e-05 10
10.4351 24.347 -0.462367 9.56732e-05 10
10.4314 24.3382 0.4622 9.56738e-05 10
10.3865 24.2335 1.38176 4.13619e-05 10
9.99842 23.3281 2.2205 0.000131438 10
10.0001 23.332 3.11685 0.000129033 10
10.3889 24.239 4.17684 3.92063e-05 10
10.3842 24.2282 5.12383 3.80236e-05 10
9.99821 23.3276 5.85941 0.000117524 10
10.0025 23.3376 6.80345 0.000112438 10
3.6948 8.70441 -2.53376 0.000381441 4
4.28142 10.0864 -2.52973 0.000214665 4
5.46686 12.8791 -2.71964 0.000115185 1
6.70808 15.8032 -2.71915 4.96275e-05 1
10.412 24.5292 -2.33136 4.9672e-05 10
10.4495 24.6175 -1.40157 9.15318e-05 10
10.4449 24.6067 -0.466605 9.21067e-05 10
10.4401 24.5953 0.466387 9.21074e-05 10
10.4067 24.5167 1.39583 3.93655e-05 10
10.4032 24.5084 4.21697 3.73069e-05 10
10.4044 24.5113 5.17597 3.61774e-05 10
10.3951 24.4893 7.12859 5.92542e-05 10
3.66184 8.71118 -2.532 0.000384278 4
4.25373 10.1192 -2.53422 0.000273336 4
5.41856 12.8902 -2.71798 0.00011517 1
6.64525 15.8084 -2.71603 4.96196e-05 1
10.4307 24.8136 -2.35492 4.72338e-05 10
10.4579 24.8783 -1.41433 8.81366e-05 10
10.4594 24.8819 -0.471127 8.86924e-05 10
10.4579 24.8783 0.47106 8.8693e-05 10
10.4257 24.8018 1.40998 3.74372e-05 10
10.3082 24.5221 2.32725 0.000108991 10
10.3064 24.5179 3.26558 0.000106959 10
10.4198 24.7876 4.25874 3.54726e-05 10
10.4113 24.7676 5.2224 3.43946e-05 10
10.3116 24.5303 6.14329 9.72431e-05 10
10.3148 24.538 7.13224 9.2954e-05 10
3.63652 8.73617 -2.53555 0.000240871 4
4.20967 10.1131 -2.52899 0.000196179 4
5.38155 12.9283 -2.72204 0.000115156 1
6.59759 15.8497 -2.71915 4.96116e-05 1
10.4467 25.0965 -2.37829 4.48811e-05 10
10.4711 25.1553 -1.42799 8.48848e-05 10
10.4657 25.1423 -0.475363 8.54222e-05 10
10.4629 25.1356 0.475236 8.54228e-05 10
10.4393 25.0789 1.42365 3.55762e-05 10
10.2122 24.5331 2.3249 0.000109681 10
10.2093 24.5262 3.26192 0.000107638 10
10.4269 25.0491 4.29739 3.37026e-05 10
10.4301 25.0566 5.27563 3.26746e-05 10
10.2076 24.5222 6.1323 9.78645e-05 10
10.213 24.5353 7.12102 9.35501e-05 10
3.60542 8.7474 -2.53515 0.000444428 4
4.17778 10.136 -2.53107 0.000222986 4
5.3271 12.9245 -2.7173 0.000115142 1
6.53436 15.8535 -2.71588 4.96037e-05 1
10.4621 25.3831 -2.40197 4.26118e-05 10
10.4758 25.4163 -1.44072 8.17696e-05 10
10.476 25.4166 -0.479856 8.22893e-05 10
10.4771 25.4193 0.479906 8.22899e-05 10
10.4577 25.3723 1.43822 3.3781e-05 10
10.1185 24.5493 2.32307 0.000110367 10
10.1182 24.5485 3.26017 0.000108312 10
10.4497 25.3528 4.34321 3.19957e-05 10
10.4482 25.3492 5.32953 3.10159e-05 10
10.1092 24.5267 6.12455 9.84826e-05 10
10.1119 24.5334 7.1102 9.41431e-05 10
3.57034 8.74884 -2.53194 0.000450126 4
4.14614 10.1598 -2.53337 0.000155907 4
5.28467 12.9497 -2.7187 0.000115128 1
6.48529 15.8917 -2.71852 4.95958e-05 1
10.4745 25.6671 -2.42537 4.04242e-05 10
10.4879 25.6999 -1.45471 7.87843e-05 10
10.4777 25.6749 -0.484038 7.9287e-05 10
10.4778 25.6749 0.484039 7.92876e-05 10
10.4719 25.6606 1.45249 3.20503e-05 10
10.055 24.6391 2.32823 3.75589e-05 10
10.0464 24.618 3.26472 3.6895e-05 10
10.4685 25.6523 4.38823 3.03503e-05 10
10.4585 25.6278 5.38038 2.94173e-05 10
10.0392 24.6002 6.13413 3.36456e-05 10
10.0434 24.6106 7.12238 3.21957e-05 10
3.54144 8.76536 -2.53313 0.000361218 4
4.11158 10.1765 -2.53395 0.000253114 4
5.23866 12.9661 -2.71829 0.000115114 1
6.42952 15.9136 -2.71841 4.95878e-05 1
10.4916 25.9676 -2.45029 3.83171e-05 10
10.4924 25.9695 -1.46789 3.88495e-05 10
10.4952 25.9766 -0.489033 3.91375e-05 10
10.4899 25.9633 0.488782 3.9177e-05 10
10.491 25.966 1.46769 3.03832e-05 10
10.4847 25.9504 2.44867 3.00278e-05 10
10.4807 25.9407 3.43526 2.94859e-05 10
10.4796 25.938 4.43081 2.87656e-05 10
3.51243 8.7817 -2.53429 0.00031819 4
4.06988 10.1754 -2.53012 0.000207835 4
5.19204 12.981 -2.7176 0.0001151 1
6.37163 15.9302 -2.71743 4.95799e-05 1
10.5101 26.2771 -2.47601 3.62885e-05 10
10.5147 26.2887 -1.48385 3.67953e-05 10
10.5067 26.2687 -0.493839 3.70698e-05 10
10.5067 26.2686 0.493836 3.71077e-05 10
10.4575 26.1457 1.47578 8.76291e-05 10
10.4573 26.145 2.46357 8.65144e-05 10
10.4538 26.1364 3.45632 8.48631e-05 10
10.4559 26.1417 4.45934 8.27001e-05 10
10.4602 26.1524 5.47505 8.00577e-05 10
10.4601 26.1522 6.50276 7.69754e-05 10
10.4508 26.1287 7.54042 7.34989e-05 10
3.48326 8.79772 -2.53539 0.000341094 4
4.03956 10.2028 -2.53339 0.000162565 4
5.15163 13.0115 -2.7202 0.000115085 1
6.31812 15.9577 -2.71835 4.95719e-05 1
12.798 32.3241 -1.82198 4.34745e-05 10
10.349 26.1386 1.47333 8.81653e-05 10
10.3503 26.1419 2.45986 8.70443e-05 10
10.3557 26.1556 3.45406 8.53837e-05 10
10.352 26.1461 4.45391 8.32085e-05 10
10.3517 26.1454 5.46598 8.05512e-05 10
10.3491 26.1389 6.49042 7.74514e-05 10
10.3544 26.1523 7.53673 7.39552e-05 10
3.4542 8.81407 -2.53661 0.000358263 4
3.99967 10.206 -2.53071 0.000175955 4
5.10066 13.0154 -2.71727 0.000115071 1
6.26541 15.9874 -2.71967 4.95639e-05 1
12.6773 32.3487 -1.82086 4.37639e-05 10
12.6804 32.3565 -0.606607 2.91114e-05 10
12.671 32.3326 0.606159 2.91116e-05 10
10.2456 26.1437 1.47159 8.86982e-05 10
10.2536 26.164 2.45856 8.75711e-05 10
10.2473 26.1481 3.44833 8.59012e-05 10
10.2514 26.1585 4.44989 8.37138e-05 10
10.2533 26.1634 5.46224 8.10417e-05 10
10.2463 26.1454 6.48311 7.79247e-05 10
10.2496 26.1539 7.52685 7.44087e-05 10
3.42092 8.81966 -2.53476 0.000338172 4
3.96391 10.2196 -2.53064 0.000232908 4
5.05984 13.045 -2.71976 0.000115057 1
6.20704 16.0027 -2.71856 4.95559e-05 1
12.5524 32.3621 -1.81914 4.40517e-05 10
10.1429 26.1499 1.46994 8.92277e-05 10
10.1494 26.1667 2.45546 8.80944e-05 10
10.1503 26.1691 3.4464 8.64153e-05 10
10.1464 26.159 4.44392 8.4216e-05 10
10.1494 26.1667 5.4555 8.15291e-05 10
10.1414 26.1462 6.47449 7.83948e-05 10
10.1418 26.1472 7.51468 7.48593e-05 10
3.39271 8.83832 -2.53671 0.000378263 4
3.92714 10.2306 -2.52995 0.000221157 4
5.01316 13.0597 -2.71916 0.000115043 1
6.14619 16.0114 -2.71637 4.9548e-05 1
12.4256 32.3697 -1.81712 4.43378e-05 10
12.4247 32.3675 -0.605172 2.9493e-05 10
12.4257 32.3702 0.605222 2.94932e-05 10
12.4158 32.3444 4.25394 3.33741e-05 10
12.4223 32.3613 8.00272 2.99789e-05 10
3.35622 8.83531 -2.53247 0.000249289 4
3.89594 10.2561 -2.53289 0.000192656 4
4.97381 13.0936 -2.72259 0.000115028 1
6.0943 16.0434 -2.71817 4.95399e-05 1
12.296 32.3694 -1.81468 4.46222e-05 10
12.1606 32.0131 1.7947 3.66516e-05 10
12.1619 32.0164 2.99636 3.61425e-05 10
12.2973 32.3729 4.25201 3.35888e-05 10
12.164 32.022 5.42538 3.44045e-05 10
12.162 32.0167 6.65731 3.32044e-05 10
12.2928 32.361 7.99201 3.01734e-05 10
12.1575 32.0049 9.17358 3.02403e-05 10
3.32407 8.84355 -2.53149 0.00036101 4
3.85834 10.2649 -2.53173 0.000216088 4
4.57928 12.183 -2.52989 0.000110798 4
6.0348 16.0553 -2.71661 4.9532e-05 1
12.1635 32.3604 -1.81178 4.49047e-05 10
12.1632 32.3595 -0.603421 2.98698e-05 10
12.1715 32.3818 0.603836 2.987e-05 10
12.1657 32.3663 1.81211 3.50136e-05 10
12.1647 32.3637 3.02487 3.4525e-05 10
12.1705 32.379 4.24721 3.38021e-05 10
12.1672 32.3703 5.47717 3.2857e-05 10
12.1707 32.3797 7.98608 3.03668e-05 10
3.29128 8.84999 -2.53003 0.0003839 4
3.81896 10.2689 -2.52939 0.000236166 4
4.5401 12.2079 -2.53177 0.00010904 4
5.98671 16.0978 -2.72024 4.95239e-05 1
12.0413 32.3781 -1.81041 4.51855e-05 10
12.0411 32.3775 1.81037 3.52325e-05 10
12.0398 32.3741 3.02189 3.47411e-05 10
12.0385 32.3706 4.24057 3.4014e-05 10
12.0466 32.3923 5.47374 3.30636e-05 10
12.0402 32.3751 6.71419 3.19055e-05 10
12.0371 32.3667 7.97247 3.05589e-05 10
12.0436 32.3843 9.25799 2.90458e-05 10
3.26825 8.88285 -2.53614 0.000386733 4
3.78462 10.2863 -2.53041 0.000224419 4
4.49523 12.2177 -2.53052 0.000103793 4
5.92545 16.1049 -2.71793 4.95159e-05 1
11.921 32.4002 -1.80931 4.54643e-05 10
11.9111 32.3734 -0.602115 3.02418e-05 10
11.9151 32.3842 0.602314 3.02421e-05 10
11.9131 32.3789 1.80812 3.54499e-05 10
11.9168 32.3889 3.01937 3.49557e-05 10
11.9122 32.3764 4.23586 3.42245e-05 10
11.9173 32.3903 5.46634 3.32687e-05 10
11.9181 32.3925 6.70912 3.2104e-05 10
11.9123 32.3767 7.96463 3.07497e-05 10
11.9163 32.3876 9.247 2.92279e-05 10
3.23761 8.89527 -2.53645 0.000329412 4
3.75235 10.3095 -2.53288 0.000244492 4
4.45107 12.2292 -2.52968 0.000109013 4
5.87112 16.1308 -2.71883 4.95079e-05 1
11.7908 32.3951 -1.80671 4.57413e-05 10
11.7911 32.3957 1.80675 3.56659e-05 10
11.7921 32.3984 3.0164 3.51689e-05 10
11.7945 32.405 4.23419 3.44336e-05 10
11.7874 32.3857 5.45859 3.34724e-05 10
11.794 32.4037 6.70287 3.23012e-05 10
11.7883 32.3882 7.95729 3.09393e-05 10
11.7881 32.3877 9.2352 2.94089e-05 10
3.20101 8.89114 -2.53207 0.000355162 4
3.7163 10.3224 -2.53286 0.000189212 4
4.41173 12.2541 -2.53161 0.000119464 4
5.81387 16.1486 -2.7184 4.94998e-05 1
11.6646 32.3996 -1.80468 4.60162e-05 10
11.6635 32.3966 -0.601017 3.06087e-05 10
11.6633 32.396 0.601005 3.06089e-05 10
11.6649 32.4005 1.80474 3.58802e-05 10
11.6619 32.3921 3.01201 3.53805e-05 10
11.6602 32.3874 4.22654 3.46412e-05 10
11.66 32.3868 5.45188 3.36747e-05 10
11.6685 32.4106 6.69583 3.24969e-05 10
11.6613 32.3905 7.9478 3.11274e-05 10
11.6634 32.3964 9.22601 2.95885e-05 10
3.16768 8.89587 -2.53025 0.000312173 4
3.67997 10.3346 -2.53267 0.000212633 4
4.37111 12.2755 -2.53288 0.00011509 4
5.7541 16.1594 -2.71682 4.94918e-05 1
11.5391 32.4055 -1.80275 4.62891e-05 10
11.5442 32.4199 1.80356 3.60931e-05 10
11.5358 32.3963 3.00864 3.55906e-05 10
11.5412 32.4113 4.22438 3.48473e-05 10
11.543 32.4164 5.45004 3.38755e-05 10
11.5375 32.401 6.68548 3.26913e-05 10
11.5445 32.4207 7.94528 3.13143e-05 10
11.5418 32.4133 9.2193 2.97669e-05 10
3.14308 8.92527 -2.53548 0.000252009 4
3.64763 10.358 -2.53528 0.000257812 4
4.33034 12.2967 -2.53411 0.000105486 4
5.70649 16.2044 -2.72102 4.94837e-05 1
11.4184 32.4241 -1.80157 4.656e-05 10
11.4153 32.4155 1.80108 3.63043e-05 10
11.4186 32.425 3.00758 3.57991e-05 10
11.4187 32.4252 4.22098 3.50518e-05 10
11.4192 32.4266 5.44503 3.40748e-05 10
11.415 32.4147 6.68007 3.28842e-05 10
11.4117 32.4051 7.93165 3.14997e-05 10
11.4173 32.4212 9.21016 2.99439e-05 10
3.11171 8.93562 -2.53531 0.000346483 4
3.61145 10.3707 -2.53528 0.000217612 4
4.28319 12.2997 -2.53163 0.000105473 4
5.64978 16.224 -2.72097 4.94757e-05 1
11.2876 32.4137 -1.79878 4.68288e-05 10
11.2889 32.4173 -0.599174 4.71578e-05 10
11.2941 32.4323 0.599451 4.71582e-05 10
11.2875 32.4134 1.79877 3.65139e-05 10
11.2908 32.4226 3.00369 3.6006e-05 10
11.2861 32.4092 4.21373 3.52548e-05 10
11.2864 32.4102 5.43563 3.42725e-05 10
11.2944 32.4332 6.67571 3.30756e-05 10
11.292 32.4261 7.92708 3.16837e-05 10
11.2923 32.427 9.20056 3.01195e-05 10
3.07736 8.93729 -2.53273 0.000452395 4
3.57067 10.37 -2.53205 0.000241023 4
4.23924 12.3116 -2.53103 0.00011679 4
5.58647 16.2243 -2.71774 4.94676e-05 1
11.1709 32.4427 -1.79822 4.70955e-05 10
11.1663 32.4293 -0.598673 4.74261e-05 10
11.1629 32.4193 0.598487 4.74265e-05 10
11.1694 32.4383 1.79798 3.67218e-05 10
11.1703 32.4409 3.00175 3.62113e-05 10
11.17 32.44 4.21264 3.54561e-05 10
11.1624 32.4179 5.43035 3.44687e-05 10
11.1651 32.4257 6.66609 3.32655e-05 10
11.1659 32.4281 7.918 3.18663e-05 10
11.1655 32.4269 9.18942 3.02938e-05 10
3.04429 8.94252 -2.53118 0.000312069 4
3.5355 10.3854 -2.53279 0.000217569 4
4.20193 12.3431 -2.53446 0.00013682 4
5.53648 16.2633 -2.72102 4.94595e-05 1
11.0375 32.4224 -1.79495 4.73599e-05 10
11.0391 32.427 -0.597915 4.76923e-05 10
11.0461 32.4478 0.598298 4.76926e-05 10
11.0385 32.4253 1.79511 3.6928e-05 10
11.0394 32.4281 2.99698 3.64149e-05 10
11.0377 32.4229 4.20539 3.56558e-05 10
11.0421 32.4359 5.42686 3.46633e-05 10
11.0437 32.4405 6.66117 3.34539e-05 10
11.0457 32.4464 7.91301 3.20474e-05 10
11.0374 32.422 9.17706 3.04667e-05 10
3.01246 8.95135 -2.53069 0.000260513 4
3.50229 10.4068 -2.53501 0.000252689 4
4.15672 12.3514 -2.53319 0.000113276 4
5.47556 16.2703 -2.71898 4.94514e-05 1
10.919 32.4453 -1.79409 4.76222e-05 10
10.9183 32.4431 -0.597505 4.79562e-05 10
10.9156 32.4349 0.597354 4.79566e-05 10
10.9176 32.4411 1.79386 3.71325e-05 10
10.92 32.4482 2.9953 3.66168e-05 10
10.9136 32.4291 4.20123 3.58538e-05 10
10.9227 32.4561 5.42383 3.48563e-05 10
10.9156 32.4352 6.65221 3.36406e-05 10
10.9136 32.4292 7.89947 3.22269e-05 10
10.9172 32.4397 9.17121 3.06381e-05 10
2.98564 8.97517 -2.53446 0.000306292 4
3.46114 10.4046 -2.5315 0.000234258 4
4.10732 12.347 -2.52933 0.000116747 4
5.41695 16.2839 -2.71808 4.94433e-05 1
10.7913 32.4399 1.7917 3.73352e-05 10
10.7947 32.45 2.99197 3.68169e-05 10
10.7993 32.464 4.20084 3.60501e-05 10
10.796 32.4539 5.41713 3.50476e-05 10
10.7928 32.4444 6.64633 3.38258e-05 10
10.7983 32.4609 7.89795 3.24049e-05 10
10.7936 32.4468 9.16252 3.08081e-05 10
2.95432 8.98561 -2.53448 0.000386411 4
3.4243 10.4151 -2.53114 0.000235908 4
4.06588 12.3664 -2.53038 0.0001298 4
5.36203 16.3087 -2.71907 4.94352e-05 1
10.6746 32.467 1.79113 3.75362e-05 10
10.6702 32.4536 2.98885 3.70153e-05 10
10.6671 32.4442 4.19344 3.62447e-05 10
10.6725 32.4607 5.41202 3.52372e-05 10
10.6755 32.4697 6.64384 3.40094e-05 10
10.6738 32.4647 7.88977 3.25815e-05 10
10.6682 32.4475 9.15215 3.09766e-05 10
2.92281 8.99546 -2.53437 0.000369206 4
3.38884 10.4298 -2.53182 0.000220828 4
4.02586 12.3903 -2.53237 8.71032e-05 4
5.30773 16.3355 -2.72044 4.94271e-05 1
10.5455 32.4558 1.78847 3.77353e-05 10
10.5455 32.4558 2.98564 3.72119e-05 10
10.55 32.4694 4.19191 3.64375e-05 10
10.5516 32.4745 5.40815 3.54251e-05 10
10.5523 32.4767 6.63771 3.41913e-05 10
10.5491 32.4666 7.88125 3.27563e-05 10
10.55 32.4695 9.14792 3.11435e-05 10
2.90604 9.05126 -2.54722 9.03474e-05 4
3.35199 10.4402 -2.5315 0.000207423 4
3.98494 12.4116 -2.53388 0.000104511 4
5.25256 16.3598 -2.72142 4.9419e-05 1
10.8266 33.721 3.09853 3.12775e-05 10
10.8248 33.7155 6.88312 2.86953e-05 10
2.90167 9.14723 -2.57136 8.53652e-05 4
3.31493 10.45 -2.53105 0.000227474 4
3.94113 12.424 -2.53358 0.000115819 4
5.19324 16.3712 -2.72027 4.94109e-05 1
10.698 33.7245 3.09541 3.14417e-05 10
10.6986 33.7262 6.87764 2.88471e-05 10
2.88942 9.22013 -2.589 6.04507e-05 4
3.28099 10.4696 -2.53302 0.000230796 4
3.89808 12.4388 -2.5338 0.000129736 4
5.13799 16.3953 -2.72129 4.94028e-05 1
10.5667 33.7185 3.09145 3.16043e-05 10
10.5653 33.714 6.86759 2.89973e-05 10
2.88055 9.30555 -2.61014 6.75179e-05 4
3.24425 10.4805 -2.53288 0.000245823 4
3.85382 12.4497 -2.53327 6.35538e-05 4
4.72679 15.2698 -2.53172 3.58351e-05 4
2.87134 9.39171 -2.63148 5.21933e-05 4
3.20483 10.4825 -2.53066 0.000163866 4
3.81021 12.4626 -2.53318 0.000102718 4
2.85153 9.44474 -2.64354 0.000337009 4
3.174 10.5128 -2.53528 0.000229054 4
3.76848 12.4818 -2.53438 0.000127076 4
4.6178 15.2949 -2.53047 2.93448e-05 4
2.82314 9.47003 -2.64784 0.00016469 4
3.13887 10.5291 -2.53655 0.000215657 4
3.72155 12.4837 -2.53212 0.000123579 4
2.78538 9.4639 -2.64339 0.000412956 4
3.09642 10.5207 -2.53192 0.000197248 4
3.68001 12.5036 -2.53354 0.00010268 4
2.75472 9.48179 -2.64569 0.000496518 4
3.06214 10.5399 -2.53395 0.000123685 4
3.63845 12.5236 -2.535 0.000122678 4
2.72219 9.4934 -2.64626 0.000385022 4
3.02381 10.5453 -2.53268 0.00024066 4
3.59057 12.5218 -2.53208 0.000114833 4
2.6878 9.49847 -2.64504 0.000316603 4
3.0044 10.6173 -2.54745 0.000325745 4
3.54986 12.5449 -2.53424 0.000127866 4
2.6571 9.51664 -2.6475 0.000225402 4
2.98864 10.7041 -2.56575 0.000197432 4
3.50066 12.538 -2.53034 0.000105237 4
4.29729 15.3911 -2.53095 4.41648e-05 4
2.62276 9.52187 -2.6464 0.000336808 4
2.98504 10.8371 -2.59513 0.000216953 4
3.45782 12.5535 -2.53103 7.39179e-05 4
4.247 15.4186 -2.53302 3.80669e-05 4
2.59074 9.53549 -2.64765 0.000187381 4
2.96863 10.9263 -2.61399 0.00027416 4
3.41965 12.5864 -2.53523 0.000100864 4
4.18952 15.42 -2.53082 4.90983e-05 4
2.55779 9.54579 -2.64802 0.000278515 4
2.96161 11.0529 -2.64178 0.000267876 4
3.37615 12.5999 -2.53558 0.000125194 4
4.13795 15.443 -2.53222 4.33822e-05 4
2.52161 9.54391 -2.64504 0.000435459 4
2.92642 11.0761 -2.64486 0.00016337 4
3.32855 12.5981 -2.53285 0.000109531 4
4.08034 15.4435 -2.52994 4.90823e-05 4
2.49158 9.56532 -2.64854 0.000351881 4
2.89104 11.0989 -2.64788 0.000176598 4
3.28377 12.6066 -2.53224 0.000129509 4
4.03216 15.4797 -2.53356 5.24981e-05 4
2.45796 9.57311 -2.64831 0.000286037 4
2.85173 11.1068 -2.64737 8.97613e-05 4
3.23827 12.6122 -2.53109 9.90747e-05 4
3.97804 15.4934 -2.53351 4.71645e-05 4
2.42429 9.58071 -2.64805 0.000369539 4
2.81069 11.1077 -2.64525 0.000223644 4
3.19481 12.6258 -2.53155 9.55863e-05 4
3.92102 15.4957 -2.53164 4.48751e-05 4
2.39089 9.58931 -2.64811 0.000351791 4
2.77165 11.1165 -2.64501 0.000145648 4
3.14984 12.6333 -2.53084 9.29677e-05 4
3.86802 15.5138 -2.53236 4.98108e-05 4
2.35555 9.59007 -2.64603 0.000361883 4
2.73388 11.1303 -2.64602 0.000135336 4
3.11962 12.7008 -2.54216 0.000144241 4
3.8133 15.5249 -2.532 5.43647e-05 4
2.3218 9.59715 -2.64573 0.000354261 4
2.69484 11.1391 -2.64586 6.17774e-05 4
3.11465 12.8744 -2.57473 0.000182761 4
3.76097 15.546 -2.53327 4.56133e-05 4
2.28838 9.60561 -2.64585 0.00047315 4
2.65397 11.1402 -2.6439 0.000150015 4
3.10252 13.023 -2.60226 0.000107687 4
3.7079 15.5641 -2.5341 5.28267e-05 4
2.16079 9.21256 -2.53549 0.000302763 4
2.62121 11.1756 -2.65011 7.94116e-05 4
3.0925 13.185 -2.63245 0.000125765 4
3.65269 15.5733 -2.53351 5.16781e-05 4
2.13034 9.22751 -2.53754 0.000396985 4
2.5804 11.1769 -2.64828 0.000195568 4
3.06582 13.2795 -2.64918 0.000126874 4
3.60077 15.5966 -2.53524 4.40711e-05 4
2.09563 9.22395 -2.53453 0.00041123 4
2.53976 11.1788 -2.6466 0.000191137 4
3.0155 13.2728 -2.64572 8.05205e-05 4
3.54311 15.5951 -2.53296 4.59632e-05 4
2.06473 9.23708 -2.53615 0.000394061 4
2.50097 11.1887 -2.64686 0.000257273 4
2.97206 13.2962 -2.6483 0.000123044 4
3.48633 15.5969 -2.53127 4.48162e-05 4
2.03206 9.24234 -2.53563 0.000379751 4
2.46203 11.198 -2.647 0.000124948 4
2.92322 13.2956 -2.64613 3.64528e-05 4
3.43164 15.608 -2.53111 4.51886e-05 4
2.02293 9.35643 -2.56498 8.34397e-05 4
2.426 11.2207 -2.65036 0.000141103 4
3.37941 15.6304 -2.53281 5.3534e-05 4
2.02276 9.51631 -2.60685 8.4655e-05 4
2.38388 11.2152 -2.64709 0.00031451 4
2.82862 13.3076 -2.64452 4.55543e-05 4
3.32717 15.6531 -2.53459 4.55534e-05 4
2.01578 9.64898 -2.64125 7.67632e-05 4
2.24374 10.7402 -2.53309 0.000190115 4
3.29458 15.7702 -2.55169 6.53154e-05 4
1.43981 6.892 -0.8645 3.24264e-05 9
1.45551 7.0907 -1.93956 0.000478987 9
2.20591 10.7464 -2.53272 0.000195098 4
2.74001 13.3483 -2.64874 0.000123724 4
1.45384 7.08253 -1.14515 7.01806e-05 9
1.45143 7.07083 -0.886291 6.55748e-05 9
1.4337 7.11037 -1.94356 0.000697531 9
1.42892 7.08665 -1.66901 0.000492428 9
1.43022 7.09312 -1.40651 0.00116705 9
1.43075 7.09573 -1.14647 0.000914714 9
1.43097 7.09684 -0.88892 0.00133569 9
1.40506 7.09606 -1.9383 0.000809099 9
1.40566 7.09911 -1.67078 0.000645085 9
1.40418 7.09163 -1.40524 0.000584559 9
1.40507 7.09609 -1.14573 0.000956171 9
1.4083 7.11245 -0.890254 0.000648753 9
1.94179 9.98965 -2.72682 0.000384025 1
2.11502 10.8808 -2.55906 0.000180014 4
2.59603 13.3554 -2.64462 6.90462e-05 4
3.18577 16.3894 -2.64441 3.77737e-05 4
1.90845 10.0044 -2.72902 0.000383991 1
2.11308 11.0771 -2.60347 0.000208289 4
2.55152 13.3755 -2.64682 2.95874e-05 4
1.8697 9.99068 -2.72347 0.000383958 1
2.11086 11.2793 -2.64923 0.000141912 4
2.50675 13.3947 -2.64887 0.000193431 4
3.07102 16.4099 -2.64419 3.80894e-05 4
1.83398 9.99259 -2.72223 0.000383924 1
2.10646 11.4772 -2.69398 9.22794e-05 4
2.35546 12.8339 -2.53633 0.000137833 4
1.80331 10.0224 -2.72861 0.00038389 1
2.09104 11.6215 -2.72612 0.00022229 1
2.30745 12.8242 -2.53281 0.000104012 4
2.96154 16.4595 -2.64879 4.95652e-05 4
1.76606 10.0158 -2.72514 0.000383857 1
2.05212 11.6381 -2.72832 0.000222267 1
2.26596 12.8509 -2.5365 0.000127398 4
2.90052 16.4496 -2.64556 4.20085e-05 4
1.73189 10.0266 -2.7264 0.000383823 1
2.00754 11.6224 -2.72298 0.000222244 1
2.23584 12.9441 -2.55334 9.44667e-05 4
2.84274 16.4577 -2.64524 3.74075e-05 4
1.69446 10.0183 -2.72252 0.000383789 1
1.96972 11.6457 -2.7268 0.00022222 1
2.23469 13.2123 -2.60468 7.6294e-05 4
2.78758 16.4812 -2.64744 3.6417e-05 4
1.66181 10.0382 -2.72632 0.000383756 1
1.9303 11.66 -2.72856 0.000222197 1
2.23098 13.4762 -2.65517 6.27455e-05 4
2.73182 16.5016 -2.64917 3.05064e-05 4
1.62126 10.01 -2.71712 0.000303868 4
1.88856 11.6603 -2.72708 0.000222173 1
2.22823 13.7575 -2.70904 6.5166e-05 4
1.58139 9.98451 -2.70869 0.00027448 4
1.84752 11.6647 -2.72659 0.00022215 1
2.19095 13.8331 -2.7224 0.000114164 1
2.50458 15.8133 -2.53579 5.37712e-05 4
1.54335 9.96941 -2.70311 0.000329597 4
1.80712 11.6733 -2.72709 0.000222127 1
2.14285 13.8419 -2.72265 0.000114149 1
2.44893 15.8191 -2.53535 5.45195e-05 4
1.50773 9.9694 -2.70167 0.000295391 4
1.76396 11.6636 -2.72338 0.000222103 1
2.09495 13.8522 -2.72322 0.000114134 1
2.40499 15.9022 -2.54731 4.34331e-05 4
1.46546 9.92402 -2.68797 0.000331707 4
1.72215 11.6624 -2.72167 0.000174436 4
2.04744 13.8652 -2.72435 0.000114119 1
2.40629 16.2954 -2.60892 4.20506e-05 4
1.42778 9.90812 -2.68229 0.000310249 4
1.67641 11.6335 -2.71355 0.000185291 4
1.99804 13.8654 -2.723 0.000114104 1
2.40834 16.7127 -2.67438 3.17244e-05 4
1.38997 9.89012 -2.67609 7.26493e-05 4
1.62789 11.583 -2.70044 0.000144429 4
1.95316 13.8974 -2.72794 0.000114089 1
2.39245 17.0232 -2.7227 4.90146e-05 1
1.35132 9.86489 -2.66797 0.000324987 4
1.58248 11.5524 -2.69198 0.000156405 4
1.90181 13.8836 -2.72389 0.000114074 1
2.33495 17.0456 -2.72497 4.90063e-05 1
1.31393 9.84747 -2.66201 0.000303426 4
1.53955 11.5384 -2.68746 0.000173827 4
1.84996 13.8648 -2.71893 8.12825e-05 4
2.27507 17.0508 -2.72452 4.89979e-05 1
1.27538 9.81987 -2.65333 0.000346235 4
1.49327 11.4975 -2.67671 0.00018507 4
1.79752 13.8402 -2.71285 7.0248e-05 4
2.21752 17.074 -2.72697 4.89896e-05 1
1.2414 9.82666 -2.65397 0.000298571 4
1.45005 11.4784 -2.67105 0.00014741 4
1.74267 13.7946 -2.70272 8.56783e-05 4
2.15652 17.0706 -2.7252 4.89812e-05 1
1.20622 9.82385 -2.65206 0.000164006 4
1.40635 11.4538 -2.66418 0.00016392 4
1.6858 13.7297 -2.68882 9.95531e-05 4
2.09774 17.0847 -2.72627 4.89729e-05 1
