VERSION 0.7
FIELDS x y z intensity label
SIZE 4 4 4 4 4
TYPE F F F F F
COUNT 1 1 1 1 1
WIDTH 1157
HEIGHT 1
VIEWPOINT 5.58056 54.0571 2.72608 0.876933 0.00118903 0.0011961 -0.48061
POINTS 1157
DATA ascii
-6.54414 12.5178 -2.23721 0.000570467 10
-6.54319 12.516 -1.7341 0.00058194 10
-6.54358 12.5167 -1.23569 0.000590606 10
-6.54996 12.5289 -0.740927 0.000596364 10
-6.54188 12.5135 -0.246471 0.000599149 10
-6.54976 12.5285 0.246767 0.000598926 10
-6.54426 12.518 0.740283 0.000595699 10
-6.54621 12.5217 1.23618 0.000589505 10
-6.55551 12.5395 1.73737 0.000580415 10
-6.02896 11.5323 2.06109 0.000316036 10
-4.77937 9.06489 -2.74585 0.000370739 1
-5.56734 10.5594 -2.75592 0.000213104 1
-6.56629 12.4541 -2.73669 0.000557135 10
-6.5712 12.4634 -2.23157 0.000571296 10
-6.57645 12.4734 -1.73137 0.000582779 10
-6.57343 12.4676 -1.2331 0.000591453 10
-6.57864 12.4775 -0.739241 0.000597217 10
-6.57093 12.4629 -0.245925 0.000600004 10
-6.58164 12.4832 0.246326 0.000599782 10
-6.57507 12.4707 0.73884 0.000596553 10
-6.57269 12.4662 1.23296 0.000590355 10
-6.57421 12.4691 1.73078 0.000581259 10
-6.05466 11.4837 2.05616 0.00031644 10
-6.0541 11.4826 2.52322 0.000308535 10
-4.81278 9.05152 -2.74688 0.000370693 1
-5.60242 10.5366 -2.75506 0.000213073 1
-6.59604 12.4053 -2.73103 0.000557896 10
-6.5963 12.4058 -2.22538 0.000572067 10
-6.60649 12.425 -1.72785 0.00058356 10
-6.6023 12.4171 -1.23038 0.000592241 10
-6.60568 12.4235 -0.737402 0.00059801 10
-6.59928 12.4114 -0.245363 0.0006008 10
-6.6023 12.4171 0.245475 0.000600579 10
-6.60592 12.4239 0.737429 0.000597348 10
-6.61203 12.4354 1.23219 0.000591146 10
-6.60977 12.4312 1.7287 0.000582044 10
-6.0747 11.4248 2.04941 0.000316813 10
-6.0733 11.4222 2.51459 0.000308904 10
-4.85352 9.05178 -2.75208 0.000370648 1
-5.63482 10.5089 -2.75293 0.000213042 1
-6.6311 12.367 -2.72766 0.0005586 10
-6.63104 12.3668 -2.22252 0.000572782 10
-6.62468 12.355 -1.72131 0.000584282 10
-6.63869 12.3811 -1.2291 0.00059297 10
-6.62961 12.3642 -0.735251 0.000598743 10
-6.63099 12.3667 -0.244935 0.000601536 10
-6.63372 12.3718 0.245036 0.000601316 10
-6.6356 12.3754 0.735916 0.000598084 10
-6.63167 12.368 1.2278 0.000591878 10
-6.63999 12.3835 1.72529 0.000582771 10
-6.10564 11.387 2.04642 0.000317155 10
-6.10962 11.3944 2.51315 0.000309242 10
-4.87659 9.01907 -2.74729 0.000370603 1
-5.67326 10.4925 -2.7538 0.000213011 1
-6.66092 12.3191 -2.72222 0.000559248 10
-6.66146 12.3201 -2.21829 0.000573439 10
-6.65792 12.3136 -1.71877 0.000584947 10
-6.66474 12.3262 -1.22595 0.000593639 10
-6.65755 12.3129 -0.733578 0.000599417 10
-6.665 12.3267 -0.244601 0.000602212 10
-6.65912 12.3158 0.244385 0.000601992 10
-6.67083 12.3374 0.735041 0.000598759 10
-6.66546 12.3275 1.22608 0.000592551 10
-6.66557 12.3277 1.72075 0.00058344 10
-6.12935 11.336 2.04109 9.67199e-05 10
-6.13128 11.3396 2.50576 0.000309549 10
-4.91478 9.01434 -2.75106 0.000370558 1
-5.71014 10.4731 -2.75394 0.000212979 1
-6.68748 12.2657 -2.71556 0.00055984 10
-6.68381 12.259 -2.21147 0.000574038 10
-6.6898 12.27 -1.71594 0.000585552 10
-6.69512 12.2797 -1.22364 0.000594249 10
-6.69194 12.2739 -0.732642 0.00060003 10
-6.68619 12.2634 -0.243806 0.000602827 10
-6.69884 12.2865 0.244267 0.000602608 10
-6.68772 12.2662 0.732181 0.000599374 10
-6.70109 12.2907 1.22473 0.000593165 10
-6.69507 12.2796 1.71729 0.00058405 10
-6.18078 11.3364 2.04503 9.67403e-05 10
-6.16197 11.3019 2.50216 0.000309826 10
-4.93995 8.98575 -2.74758 0.000370513 1
-5.74544 10.4509 -2.75336 0.000212949 1
-6.72236 12.2279 -2.71237 0.000560375 10
-6.7103 12.206 -2.20612 0.000574579 10
-6.71546 12.2154 -1.71157 0.000586098 10
-6.72536 12.2334 -1.22136 0.000594799 10
-6.72437 12.2316 -0.731515 0.000600583 10
-6.72412 12.2311 -0.243631 0.000603382 10
-6.71668 12.2176 0.243361 0.000603163 10
-6.7278 12.2378 0.731887 0.000599929 10
-6.72171 12.2267 1.22069 0.000593718 10
-6.72309 12.2293 1.71351 0.0005846 10
-6.21137 11.2985 2.04209 9.67606e-05 10
-6.18751 11.255 2.49657 0.000310072 10
-4.97278 8.97114 -2.74841 0.000370468 1
-5.78836 10.4425 -2.75644 0.000212918 1
-6.74702 12.172 -2.70516 0.000560853 10
-6.73888 12.1573 -2.20155 0.000575062 10
-6.7419 12.1627 -1.70748 0.000586584 10
-6.74588 12.1699 -1.21736 0.000595289 10
-6.75212 12.1811 -0.729902 0.000601075 10
-6.74227 12.1634 -0.242748 0.000603875 10
-6.74794 12.1736 0.242952 0.000603657 10
-6.7568 12.1896 0.730408 0.000600423 10
-6.74815 12.174 1.21777 0.000594211 10
-6.75308 12.1829 1.71031 0.000585092 10
-6.26098 11.2951 2.04543 9.67809e-05 10
-6.20891 11.2012 2.48941 0.000310287 10
-5.00632 8.95776 -2.74964 0.000370424 1
-5.82361 10.4201 -2.75589 0.000212887 1
-6.77475 12.122 -2.6993 0.000561275 10
-6.77518 12.1228 -2.19957 0.000575486 10
-6.77937 12.1303 -1.70623 0.000587011 10
-6.77722 12.1264 -1.21537 0.000595717 10
-6.78094 12.1331 -0.728436 0.000601505 10
-6.77534 12.1231 -0.242414 0.000604306 10
-6.78253 12.1359 0.242671 0.000604089 10
-6.77689 12.1258 0.728001 0.000600856 10
-6.77725 12.1265 1.21538 0.000594644 10
-6.77351 12.1198 1.70476 0.000585524 10
-6.28983 11.2543 2.042 9.6801e-05 10
-6.24105 11.167 2.48665 0.00031047 10
-5.03854 8.94198 -2.75018 0.000370379 1
-5.85163 10.385 -2.75198 0.000212856 1
-6.80016 12.0683 -2.69262 0.000561638 10
-6.80482 12.0766 -2.1955 0.000575851 10
-6.8025 12.0725 -1.70144 0.000587378 10
-6.79741 12.0635 -1.21143 0.000596086 10
-6.79914 12.0665 -0.725861 0.000601874 10
-6.80864 12.0834 -0.242095 0.000604677 10
-6.80002 12.0681 0.241788 0.000604461 10
-6.80493 12.0768 0.726479 0.000601227 10
-6.80548 12.0778 1.21287 0.000595016 10
-6.81198 12.0893 1.70381 0.000585896 10
-6.3354 11.2435 2.04404 9.68211e-05 10
-6.2672 11.1225 2.48158 0.000310623 10
-5.06474 8.91555 -2.74747 0.000370335 1
-5.8972 10.381 -2.75635 0.000212826 1
-6.83357 12.0293 -2.68921 0.000561944 10
-6.83062 12.0241 -2.19027 0.000576157 10
-6.82272 12.0102 -1.696 0.000587685 10
-6.82399 12.0124 -1.20869 0.000596393 10
-6.83204 12.0266 -0.724887 0.000602182 10
-6.83638 12.0342 -0.241586 0.000604985 10
-6.83725 12.0357 0.241617 0.00060477 10
-6.83191 12.0263 0.724873 0.000601537 10
-6.84045 12.0414 1.2116 0.000595327 10
-6.83138 12.0254 1.69815 0.000586208 10
-6.37785 11.2271 2.04508 9.68412e-05 10
-6.28975 11.072 2.4752 0.000310744 10
-5.09804 8.90169 -2.74867 0.000370291 1
-5.93574 10.3644 -2.75744 0.000212795 1
-6.85408 11.9679 -2.68082 0.000562192 10
-6.85282 11.9657 -2.18398 0.000576405 10
-6.86172 11.9812 -1.69529 0.000587931 10
-6.85136 11.9631 -1.20613 0.000596639 10
-6.85233 11.9648 -0.722604 0.000602428 10
-6.86111 11.9802 -0.240981 0.000605231 10
-6.8572 11.9733 0.240843 0.000605017 10
-6.85775 11.9743 0.723176 0.000601786 10
-6.85703 11.9731 1.20713 0.000595577 10
-6.86484 11.9867 1.69606 0.00058646 10
-6.41013 11.1927 2.04289 9.68611e-05 10
-6.31566 11.0278 2.47023 0.000250643 10
-5.13893 8.90089 -2.75394 0.000370247 1
-5.96348 10.3291 -2.75356 0.000212765 1
-6.88246 11.9208 -2.67563 0.000562382 10
-6.88356 11.9227 -2.1805 0.000576592 10
-6.88247 11.9208 -1.69012 0.000588117 10
-6.88718 11.929 -1.2051 0.000596823 10
-6.8884 11.9311 -0.722011 0.000602612 10
-6.88123 11.9187 -0.240225 0.000605415 10
-6.8923 11.9378 0.240611 0.000605201 10
-6.887 11.9286 0.721865 0.000601972 10
-6.89807 11.9478 1.20701 0.000595765 10
-6.89811 11.9479 1.69396 0.000586651 10
-6.4555 11.1813 2.0449 9.6881e-05 10
-6.34855 10.996 2.46807 0.000249856 10
-5.16876 8.88081 -2.7533 0.000370204 1
-5.99601 10.3022 -2.75196 0.000212735 1
-6.90918 11.8712 -2.66989 0.000562514 10
-6.90784 11.8689 -2.17505 0.00057672 10
-6.91697 11.8845 -1.6884 0.000588242 10
-6.91134 11.8749 -1.20207 0.000596946 10
-6.90763 11.8685 -0.71968 0.000602734 10
-6.90943 11.8716 -0.239761 0.000605537 10
-6.92401 11.8966 0.240267 0.000605324 10
-6.91981 11.8894 0.720949 0.000602096 10
-6.91576 11.8825 1.20284 0.000595892 10
-6.92194 11.8931 1.68961 0.000586782 10
-6.4899 11.1508 2.04345 9.69009e-05 10
-6.36901 10.9431 2.46115 0.000249041 10
-5.19935 8.86208 -2.7531 0.00037016 1
-6.03246 10.2821 -2.75219 0.000212705 1
-6.94596 11.8391 -2.66812 0.000562587 10
-6.93865 11.8266 -2.17174 0.000576788 10
-6.94625 11.8396 -1.68544 0.000588305 10
-6.94763 11.842 -1.20118 0.000597007 10
-6.94751 11.8417 -0.719524 0.000602793 10
-6.94339 11.8347 -0.239505 0.000605596 10
-6.95019 11.8463 0.239739 0.000605383 10
-6.94574 11.8387 0.719341 0.000602158 10
-6.93964 11.8283 1.1998 0.000595957 10
-6.95407 11.8529 1.68734 0.000586852 10
-6.52697 11.125 2.04289 9.69206e-05 10
-6.4049 10.9169 2.46028 0.000248198 10
-5.22728 8.83886 -2.75154 0.000370117 1
-6.06905 10.2622 -2.75253 0.000212675 1
-6.9737 11.7919 -2.66295 0.000562602 10
-6.96653 11.7798 -2.16759 0.000576796 10
-6.97425 11.7928 -1.68224 0.000588308 10
-6.97096 11.7873 -1.1981 0.000597006 10
-6.96934 11.7845 -0.717521 0.000602789 10
-6.97771 11.7987 -0.239266 0.000605592 10
-6.96889 11.7838 0.238964 0.00060538 10
-6.97717 11.7978 0.718327 0.000602157 10
-6.96881 11.7836 1.19773 0.000595961 10
-6.97327 11.7912 1.68201 0.000586861 10
-6.56085 11.0938 2.04136 9.69404e-05 10
-6.42586 10.8655 2.45375 0.000247328 10
-5.26108 8.82555 -2.7531 0.000370073 1
-6.10406 10.2397 -2.75218 0.000212645 1
-6.99825 11.7397 -2.65666 0.000562558 10
-6.99006 11.7259 -2.16216 0.000576744 10
-6.99492 11.7341 -1.67734 0.00058825 10
-7.00395 11.7492 -1.19671 0.000596943 10
-6.99763 11.7386 -0.71621 0.000602723 10
-7.00082 11.744 -0.238651 0.000605524 10
-6.99615 11.7361 0.238492 0.000605314 10
-7.0029 11.7475 0.716749 0.000602093 10
-7.00123 11.7447 1.19624 0.000595902 10
-6.99714 11.7378 1.67787 0.000586808 10
-6.6008 11.0729 2.04175 9.696e-05 10
-6.45109 10.8218 2.44895 0.00024643 10
-5.28825 8.80113 -2.75122 0.00037003 1
-6.15131 10.2375 -2.75736 0.000212615 1
-7.016 11.6766 -2.64791 0.000562454 10
-7.01779 11.6796 -2.15811 0.000576632 10
-7.01776 11.6795 -1.67303 0.00058813 10
-7.02732 11.6954 -1.19372 0.000596817 10
-7.02873 11.6978 -0.71521 0.000602594 10
-7.02683 11.6946 -0.238145 0.000605394 10
-7.02744 11.6956 0.238166 0.000605184 10
-7.02792 11.6964 0.715127 0.000601967 10
-7.03582 11.7096 1.19516 0.00059578 10
-7.03047 11.7007 1.67606 0.000586694 10
-6.64602 11.0608 2.04378 9.69795e-05 10
-6.48012 10.7847 2.44566 0.000245504 10
-5.31803 8.7811 -2.75075 0.000369988 1
-6.18597 10.2142 -2.75689 0.000212586 1
-7.05327 11.6463 -2.64661 0.000562292 10
-7.04913 11.6395 -2.15524 0.000576458 10
-7.05236 11.6448 -1.67158 0.000587948 10
-7.05603 11.6509 -1.19168 0.000596629 10
-7.04454 11.6319 -0.712683 0.000602401 10
-7.05293 11.6458 -0.23765 0.0006052 10
-7.05567 11.6503 0.237743 0.000604991 10
-7.05212 11.6444 0.713449 0.000601778 10
-7.05847 11.6549 1.19209 0.000595597 10
-7.05199 11.6442 1.67149 0.000586518 10
-6.67486 11.0215 2.04081 9.6999e-05 10
-6.50919 10.748 2.44246 0.000244552 10
-5.3497 8.76423 -2.75129 0.000369945 1
-6.22014 10.1902 -2.75625 0.000212556 1
-7.07114 11.5844 -2.63813 0.00056207 10
-7.07023 11.5829 -2.14932 0.000576225 10
-7.08301 11.6038 -1.66923 0.000587704 10
-7.07594 11.5923 -1.1882 0.000596378 10
-7.08179 11.6018 -0.71235 0.000602146 10
-7.08658 11.6097 -0.237418 0.000604942 10
-7.07805 11.5957 0.237131 0.000604734 10
-7.08442 11.6062 0.712614 0.000601524 10
-7.08251 11.603 1.18931 0.00059535 10
-7.08552 11.608 1.66982 0.000586281 10
-6.71402 10.9993 2.04103 9.70184e-05 10
-6.54841 10.728 2.44311 0.000243572 10
-5.37259 8.73301 -2.74736 0.000369902 1
-6.25701 10.1706 -2.75684 0.000212527 1
-7.11098 11.5587 -2.63792 0.000446212 10
-7.09725 11.5364 -2.14527 0.000457482 10
-7.11166 11.5598 -1.66646 0.00046663 10
-7.11215 11.5606 -1.1875 0.000473553 10
-7.10528 11.5495 -0.710652 0.00047817 10
-7.10204 11.5442 -0.236584 0.000480429 10
-7.10533 11.5495 0.236693 0.000480302 10
-7.10639 11.5513 0.710764 0.000477793 10
-7.10424 11.5478 1.18618 0.000472929 10
-7.11845 11.5709 1.66805 0.000465767 10
-6.75053 10.9728 2.04047 9.70377e-05 10
-6.56349 10.6688 2.43482 0.000242564 10
-5.41592 8.73499 -2.75392 0.00036986 1
-6.28895 10.143 -2.75529 0.000212498 1
-7.13044 11.5002 -2.63023 0.000444368 10
-7.13701 11.5108 -2.14514 0.000455588 10
-7.1408 11.5169 -1.66386 0.000464696 10
-7.12879 11.4976 -1.18357 0.000471588 10
-7.14082 11.517 -0.710182 0.000476185 10
-7.13249 11.5035 -0.236259 0.000478434 10
-7.13274 11.5039 0.236267 0.000478309 10
-7.14501 11.5237 0.710599 0.000475812 10
-7.13654 11.5101 1.18486 0.000470971 10
-7.14298 11.5205 1.66437 0.000463841 10
-6.79941 10.9663 2.04366 9.7057e-05 10
-6.59126 10.6306 2.43134 0.00024153 10
-5.4441 8.71239 -2.75276 0.000369818 1
-6.33218 10.1336 -2.75872 0.000212469 1
-7.1619 11.4614 -2.62707 0.000442473 10
-7.17099 11.476 -2.14329 0.000453642 10
-7.16841 11.4719 -1.66095 0.000462708 10
-7.16322 11.4635 -1.18263 0.000469569 10
-7.16522 11.4667 -0.708624 0.000474145 10
-7.16886 11.4726 -0.236136 0.000476384 10
-7.16156 11.4609 0.235895 0.000476261 10
-7.17447 11.4816 0.709539 0.000473776 10
-7.16859 11.4721 1.18352 0.000468958 10
-7.16726 11.47 1.66069 0.000461862 10
-6.82572 10.9234 2.0401 9.70762e-05 10
-6.63322 10.6154 2.43314 0.000240468 10
-5.47656 8.69663 -2.75381 0.000369776 1
-6.36749 10.1114 -2.75871 0.00021244 1
-7.19124 11.4195 -2.62319 0.000440528 10
-7.1955 11.4263 -2.13869 0.000451644 10
-7.19812 11.4304 -1.65858 0.000460668 10
-7.18985 11.4173 -1.18044 0.000467496 10
-7.20252 11.4374 -0.70836 0.000472051 10
-7.20147 11.4357 -0.235894 0.000474281 10
-7.20677 11.4442 0.236067 0.000474158 10
-7.19756 11.4295 0.707872 0.000471686 10
-7.20338 11.4388 1.18267 0.000466892 10
-7.20716 11.4448 1.66066 0.00045983 10
-6.87039 10.91 2.04205 9.70954e-05 10
-6.65318 10.5651 2.42692 0.00023938 10
-5.50645 8.67678 -2.75359 0.000369734 1
-6.40133 10.0869 -2.7581 0.000212411 1
-7.22759 11.3889 -2.62193 0.000438532 10
-7.22329 11.3821 -2.13513 0.000449594 10
-7.22652 11.3872 -1.65596 0.000458574 10
-7.22457 11.3841 -1.17961 0.00046537 10
-7.23206 11.3959 -0.707349 0.000469903 10
-7.23494 11.4005 -0.235685 0.000472123 10
-7.22606 11.3865 0.235396 0.000472002 10
-7.23197 11.3958 0.70734 0.000469542 10
-7.22673 11.3875 1.17996 0.000464772 10
-7.22936 11.3917 1.65661 0.000457746 10
-6.90739 10.8843 2.04175 9.71144e-05 10
-6.6761 10.5199 2.42187 0.000238264 10
-5.53218 8.65043 -2.75134 0.000369692 1
-6.42989 10.0541 -2.75527 0.000212382 1
-7.24898 11.3349 -2.61532 0.000436485 10
-7.25744 11.3481 -2.1335 0.000447492 10
-7.2628 11.3565 -1.65518 0.000456428 10
-7.25843 11.3497 -1.17867 0.00046319 10
-7.261 11.3537 -0.706299 0.000467701 10
-7.25177 11.3393 -0.234943 0.00046991 10
-7.25494 11.3442 0.235045 0.00046979 10
-7.25294 11.3411 0.705515 0.000467344 10
-7.26209 11.3554 1.17926 0.000462599 10
-7.25463 11.3437 1.65331 0.000455609 10
-6.94851 10.8651 2.04268 9.71334e-05 10
-6.71623 10.5019 2.42311 0.000237122 10
-5.56362 8.63305 -2.75197 0.00036965 1
-6.46402 10.0302 -2.75487 0.000212353 1
-7.27824 11.2936 -2.61164 0.000434389 10
-7.27793 11.2931 -2.12792 0.00044534 10
-7.29172 11.3145 -1.65276 0.000454229 10
-7.28259 11.3004 -1.17618 0.000460957 10
-7.2905 11.3127 -0.705323 0.000465446 10
-7.27978 11.296 -0.234571 0.000467644 10
-7.28519 11.3044 0.234745 0.000467526 10
-7.28971 11.3114 0.705246 0.000465093 10
-7.28671 11.3068 1.17684 0.000460373 10
-7.29285 11.3163 1.65301 0.00045342 10
-6.98444 10.8377 2.04211 9.71523e-05 10
-6.7397 10.458 2.4184 0.000235953 10
-5.58812 8.60494 -2.74922 0.000369609 1
-6.49563 10.0024 -2.75345 0.000212325 1
-7.30874 11.2545 -2.60847 0.000432241 10
-7.31918 11.2706 -2.12846 0.000443135 10
-7.31858 11.2696 -1.64992 0.000451979 10
-7.31288 11.2609 -1.17471 0.000458671 10
-7.31132 11.2584 -0.70353 0.000463137 10
-7.31972 11.2714 -0.234589 0.000465324 10
-7.32251 11.2757 0.234678 0.000465207 10
-7.3263 11.2815 0.704972 0.000462788 10
-7.31582 11.2654 1.17518 0.000458094 10
-7.3176 11.2681 1.6497 0.000451179 10
-7.02236 10.8135 2.04215 9.71711e-05 10
-6.75619 10.4036 2.41127 0.000234757 10
-5.62139 8.59038 -2.75082 0.000369568 1
-6.53463 9.98596 -2.75519 0.000212296 1
-7.34879 11.2301 -2.60876 0.000430045 10
-7.3438 11.2225 -2.12422 0.00044088 10
-7.34552 11.2251 -1.64715 0.000449676 10
-7.33713 11.2123 -1.17231 0.000456333 10
-7.34426 11.2232 -0.702926 0.000460775 10
-7.34993 11.2319 -0.234299 0.000462951 10
-7.34722 11.2277 0.234213 0.000462836 10
-7.35635 11.2417 0.704083 0.00046043 10
-7.34372 11.2224 1.17337 0.000455762 10
-7.35138 11.2341 1.64846 0.000448885 10
-7.06335 10.7939 2.0431 9.71899e-05 10
-6.79645 10.3861 2.41268 0.000233534 10
-5.64785 8.56542 -2.74912 0.000369527 1
-6.57631 9.9735 -2.75806 0.000212268 1
-7.36809 11.1743 -2.60175 0.000427798 10
-7.37374 11.1829 -2.12158 0.000438573 10
-7.37435 11.1838 -1.64485 0.000447321 10
-7.37443 11.1839 -1.17203 0.000453942 10
-7.3805 11.1931 -0.702651 0.00045836 10
-7.37699 11.1878 -0.233915 0.000460524 10
-7.37532 11.1853 0.233862 0.00046041 10
-7.37759 11.1887 0.702373 0.000458019 10
-7.37893 11.1907 1.17274 0.000453378 10
-7.38266 11.1964 1.6467 0.00044654 10
-7.0985 10.7654 2.04238 9.72086e-05 10
-6.82378 10.3488 2.40955 0.000232285 10
-5.68304 8.55367 -2.7517 0.000369486 1
-6.60729 9.94477 -2.75648 0.00021224 1
-7.39833 11.1354 -2.59868 0.000425501 10
-7.39865 11.1359 -2.11755 0.000436216 10
-7.41044 11.1536 -1.6442 0.000444915 10
-7.4047 11.145 -1.17065 0.000451498 10
-7.40754 11.1492 -0.701515 0.000455892 10
-7.40156 11.1402 -0.23346 0.000458045 10
-7.40436 11.1445 0.233548 0.000457932 10
-7.41367 11.1585 0.702096 0.000455555 10
-7.41371 11.1585 1.17207 0.000450942 10
-7.40824 11.1503 1.64371 0.000444143 10
-7.13413 10.7377 2.04184 9.72271e-05 10
-6.84656 10.3049 2.40487 0.00023101 10
-5.71843 8.5421 -2.75438 0.000369445 1
-6.64593 9.92758 -2.75813 0.000212212 1
-7.42944 11.098 -2.59599 0.000423156 10
-7.43896 11.1122 -2.11797 0.000433809 10
-7.42428 11.0903 -1.63867 0.000442457 10
-7.43261 11.1027 -1.16893 0.000449003 10
-7.44127 11.1156 -0.701031 0.000453371 10
-7.43022 11.0991 -0.233141 0.000455512 10
-7.43744 11.1099 0.233367 0.000455401 10
-7.43821 11.1111 0.700743 0.000453039 10
-7.43134 11.1008 1.16873 0.000448453 10
-7.44587 11.1225 1.64344 0.000441695 10
-7.16609 10.7046 2.04028 9.72457e-05 10
-6.86806 10.2594 2.39983 0.000229708 10
-5.74583 8.51855 -2.75324 0.000369405 1
-6.68309 9.90808 -2.75918 0.000212184 1
-7.45918 11.0587 -2.59288 0.000420761 10
-7.45487 11.0523 -2.1115 0.000431351 10
-7.46924 11.0736 -1.64006 0.000439948 10
-7.45624 11.0543 -1.16657 0.000446455 10
-7.45811 11.0571 -0.698977 0.000450798 10
-7.47099 11.0762 -0.233205 0.000452927 10
-7.47235 11.0782 0.233247 0.000452817 10
-7.47392 11.0805 0.700459 0.00045047 10
-7.46723 11.0706 1.16829 0.000445912 10
-7.47308 11.0793 1.6409 0.000439196 10
-7.20778 10.686 2.04151 9.72642e-05 10
-6.90661 10.2395 2.4008 0.00022838 10
-5.77507 8.49776 -2.75302 0.000369364 1
-6.71438 9.87992 -2.75784 0.000212156 1
-7.48428 11.0128 -2.58822 0.000418317 10
-7.48386 11.0122 -2.10881 0.000428843 10
-7.49581 11.0298 -1.63743 0.000437388 10
-7.48591 11.0152 -1.16519 0.000443856 10
-7.48471 11.0134 -0.697863 0.000448173 10
-7.49868 11.034 -0.232866 0.000450289 10
-7.48805 11.0183 0.232536 0.000450181 10
-7.49812 11.0332 0.699113 0.000447849 10
-7.49624 11.0304 1.16679 0.00044332 10
-7.50447 11.0425 1.63932 0.000436645 10
-7.23409 10.6446 2.03843 9.72826e-05 10
-6.92263 10.1863 2.39399 0.000136901 10
-5.80037 8.47122 -2.75096 0.000369324 1
-6.74686 9.85354 -2.75704 0.000212128 1
-7.51703 10.9783 -2.58628 0.000415825 10
-7.51218 10.9713 -2.10598 0.000426285 10
-7.51972 10.9823 -1.63426 0.000434777 10
-7.52097 10.9841 -1.16467 0.000441205 10
-7.51955 10.982 -0.697532 0.000445495 10
-7.51946 10.9819 -0.232319 0.000447599 10
-7.51492 10.9753 0.232179 0.000447492 10
-7.53206 11.0003 0.698693 0.000445176 10
-7.52361 10.988 1.16508 0.000440676 10
-7.52182 10.9853 1.63472 0.000434044 10
-7.28365 10.6375 2.04192 9.73009e-05 10
-6.95581 10.1587 2.39319 0.000134885 10
-5.83085 8.4523 -2.75141 0.000369284 1
-6.78515 9.83564 -2.75864 0.000212101 1
-7.54844 10.9421 -2.58393 0.000413284 10
-7.54562 10.938 -2.10465 0.000423677 10
-7.55282 10.9484 -1.63314 0.000432115 10
-7.54191 10.9326 -1.162 0.000438503 10
-7.55815 10.9562 -0.697562 0.000442766 10
-7.55359 10.9496 -0.232191 0.000444857 10
-7.55156 10.9466 0.232129 0.000444752 10
-7.55974 10.9585 0.697709 0.000442451 10
-7.55303 10.9487 1.16371 0.000437981 10
-7.54679 10.9397 1.63184 0.000431393 10
-7.31225 10.5997 2.03955 9.73191e-05 10
-6.99439 10.1389 2.39427 0.000132854 10
-5.85787 8.42836 -2.75026 0.000369244 1
-6.82016 9.81292 -2.75893 0.000212073 1
-7.57747 10.9025 -2.58082 0.000410695 10
-7.56912 10.8905 -2.10058 0.00042102 10
-7.57808 10.9034 -1.63037 0.000429403 10
-7.58333 10.911 -1.1625 0.00043575 10
-7.57414 10.8978 -0.695522 0.000439986 10
-7.58066 10.9071 -0.231852 0.000442064 10
-7.57902 10.9048 0.231801 0.00044196 10
-7.57595 10.9004 0.695688 0.000439675 10
-7.58538 10.9139 1.16282 0.000435235 10
-7.58304 10.9106 1.63143 0.000428691 10
-7.34818 10.5726 2.03927 9.73373e-05 10
-7.01477 10.0929 2.38917 0.000130806 10
-5.89242 8.41525 -2.75268 0.000369205 1
-6.85703 9.79286 -2.76 0.000212046 1
-7.60473 10.8607 -2.57718 0.000408058 10
-7.60335 10.8587 -2.09955 0.000418315 10
-7.61313 10.8727 -1.62973 0.000426642 10
-7.61064 10.8691 -1.16087 0.000432946 10
-7.60797 10.8653 -0.695141 0.000437154 10
-7.60749 10.8646 -0.231511 0.000439219 10
-7.61017 10.8685 0.231592 0.000439117 10
-7.61179 10.8708 0.695491 0.000436848 10
-7.60518 10.8613 1.16003 0.000432439 10
-7.61898 10.881 1.63098 0.00042594 10
-7.3848 10.5466 2.0392 9.73554e-05 10
-7.04273 10.0581 2.38672 0.000128743 10
-5.91988 8.39196 -2.7518 0.000369165 1
-6.88166 9.75538 -2.75619 0.000212018 1
-7.62967 10.8157 -2.57282 0.000405373 10
-7.63921 10.8293 -2.099 0.000415559 10
-7.64055 10.8312 -1.6275 0.00042383 10
-7.63494 10.8232 -1.1588 0.000430091 10
-7.63139 10.8182 -0.693827 0.000434271 10
-7.64051 10.8311 -0.231364 0.000436323 10
-7.63382 10.8216 0.231161 0.000436222 10
-7.63648 10.8254 0.69429 0.00043397 10
-7.63768 10.8271 1.15922 0.000429592 10
-7.64653 10.8397 1.62877 0.000423138 10
-7.42959 10.5321 2.0414 9.73734e-05 10
-7.08744 10.0471 2.38997 0.000126665 10
-5.94997 8.37242 -2.75219 0.000369126 1
-6.9205 9.73809 -2.75811 0.000211991 1
-7.66913 10.7915 -2.57341 0.000231559 10
-7.67115 10.7944 -2.09741 0.000237428 10
-7.67436 10.7989 -1.62666 0.000242205 10
-7.67237 10.7961 -1.15876 0.000245834 10
-7.67334 10.7974 -0.69421 0.000248276 10
-7.66194 10.7814 -0.230872 0.000249501 10
-7.66207 10.7816 0.230876 0.000249495 10
-7.66532 10.7862 0.693484 0.000248259 10
-7.67129 10.7946 1.15859 0.000245807 10
-7.68013 10.807 1.62788 0.000242167 10
-7.46672 10.5067 2.04152 9.73914e-05 10
-7.10448 9.99698 2.38394 0.000124571 10
-5.97363 8.34389 -2.74964 0.000369087 1
-6.94701 9.70349 -2.75517 0.000211964 1
-7.70329 10.7598 -2.57225 0.000227657 10
-7.69199 10.7441 -2.09284 0.000233428 10
-7.69107 10.7428 -1.62224 0.000238124 10
-7.7028 10.7592 -1.15767 0.000241694 10
-7.70742 10.7656 -0.693889 0.000244095 10
-7.6995 10.7546 -0.230871 0.000245301 10
-7.70143 10.7572 0.230929 0.000245297 10
-7.71049 10.7699 0.694165 0.000244083 10
-7.70605 10.7637 1.15816 0.000241675 10
-7.70491 10.7621 1.62516 0.000238097 10
-7.4925 10.4654 2.03856 9.74092e-05 10
-7.1401 9.9732 2.3842 0.000122463 10
-6.0111 8.3346 -2.75348 0.000369048 1
-6.9851 9.68508 -2.75684 0.000211937 1
-7.73358 10.7229 -2.56985 0.000223726 10
-7.72424 10.7099 -2.09143 0.000229398 10
-7.73521 10.7251 -1.62365 0.000234014 10
-7.72847 10.7158 -1.1559 0.000237523 10
-7.72924 10.7169 -0.692481 0.000239884 10
-7.73265 10.7216 -0.230742 0.00024107 10
-7.72668 10.7133 0.230563 0.000241068 10
-7.73573 10.7259 0.693063 0.000239877 10
-7.73714 10.7278 1.1572 0.000237512 10
-7.73197 10.7206 1.62297 0.000233998 10
-7.5401 10.4546 2.04157 9.7427e-05 10
-7.17179 9.94393 2.38317 0.00012034 10
-6.04652 8.32232 -2.75638 0.000369009 1
-7.02018 9.66245 -2.75736 0.000211911 1
-7.76086 10.6819 -2.56651 0.000219769 10
-7.76593 10.6889 -2.09261 0.000225341 10
-7.75821 10.6783 -1.62064 0.000229876 10
-7.75742 10.6772 -1.15465 0.000233324 10
-7.76825 10.6921 -0.692629 0.000235644 10
-7.76401 10.6863 -0.230563 0.000236811 10
-7.7654 10.6882 0.230604 0.00023681 10
-7.76301 10.6849 0.692162 0.000235642 10
-7.76451 10.6869 1.15571 0.00023332 10
-7.76356 10.6856 1.62176 0.000229871 10
-7.56715 10.4153 2.03904 9.74447e-05 10
-7.20459 9.91628 2.38256 0.000118202 10
-6.07037 8.29411 -2.75404 0.000368971 1
-7.04901 9.63126 -2.75547 0.000211884 1
-7.79273 10.6474 -2.56475 0.000215784 10
-7.79091 10.6449 -2.08931 0.000221256 10
-7.79127 10.6454 -1.61977 0.00022571 10
-7.79648 10.6525 -1.15492 0.000229096 10
-7.79813 10.6548 -0.691972 0.000231375 10
-7.80471 10.6638 -0.230665 0.000232522 10
-7.79687 10.6531 0.230433 0.000232523 10
-7.79356 10.6486 0.691567 0.000231378 10
-7.80826 10.6686 1.15667 0.0002291 10
-7.80315 10.6617 1.62224 0.000225715 10
-7.61047 10.3984 2.04092 9.74623e-05 10
-7.22407 9.87044 2.37759 0.00011605 10
-6.1023 8.27696 -2.7554 0.000368932 1
-7.08542 9.61044 -2.75657 0.000211857 1
-7.82756 10.6171 -2.564 0.000211773 10
-7.83466 10.6267 -2.09108 0.000217144 10
-7.82538 10.6141 -1.61915 0.000221516 10
-7.83273 10.6241 -1.15479 0.00022484 10
-7.83691 10.6297 -0.692117 0.000227079 10
-7.83467 10.6267 -0.230452 0.000228205 10
-7.83344 10.625 0.230416 0.000228208 10
-7.84223 10.6369 0.692586 0.000227086 10
-7.83229 10.6235 1.15473 0.000224852 10
-7.84207 10.6367 1.62261 0.000221532 10
-7.63398 10.3545 2.03752 9.74799e-05 10
-7.25854 9.84525 2.37761 0.000113885 10
-6.12479 8.24703 -2.75254 0.000368894 1
-7.12379 9.59219 -2.75845 0.000211831 1
-7.85706 10.5795 -2.56155 0.000207736 10
-7.86551 10.5909 -2.08944 0.000213005 10
-7.85872 10.5818 -1.6184 0.000217295 10
-7.86117 10.5851 -1.15353 0.000220557 10
-7.86911 10.5958 -0.69169 0.000222754 10
-7.86513 10.5904 -0.230259 0.000223861 10
-7.87136 10.5988 0.230442 0.000223865 10
-7.86512 10.5904 0.691339 0.000222766 10
-7.87374 10.602 1.15537 0.000220577 10
-7.86955 10.5964 1.62063 0.000217322 10
-7.67758 10.3379 2.03951 9.74973e-05 10
-7.28469 9.80884 2.37494 0.000111706 10
-6.14938 8.22004 -2.75068 0.000368856 1
-7.15486 9.5641 -2.75754 0.000211805 1
-7.89002 10.5468 -2.56027 0.000203674 10
-7.89591 10.5547 -2.08771 0.00020884 10
-7.89818 10.5577 -1.61893 0.000213047 10
-7.89465 10.553 -1.15303 0.000216247 10
-7.89849 10.5581 -0.691028 0.000218402 10
-7.88823 10.5444 -0.229857 0.000219489 10
-7.89915 10.559 0.230175 0.000219495 10
-7.89869 10.5584 0.691046 0.000218419 10
-7.90206 10.5629 1.15411 0.000216275 10
-7.89555 10.5542 1.61839 0.000213085 10
-7.70497 10.2995 2.03723 9.75148e-05 10
-7.32741 9.79476 2.37771 0.000109513 10
-6.18608 8.2092 -2.75426 0.000368818 1
-7.19041 9.54199 -2.75838 0.000211779 1
-7.91696 10.5062 -2.5571 0.000199586 10
-7.93055 10.5242 -2.08714 0.00020465 10
-7.93556 10.5308 -1.61904 0.000208773 10
-7.92659 10.5189 -1.15233 0.00021191 10
-7.93712 10.5329 -0.691187 0.000214024 10
-7.92771 10.5204 -0.229936 0.00021509 10
-7.92177 10.5125 0.229763 0.000215097 10
-7.9251 10.517 0.69014 0.000214045 10
-7.9341 10.5289 1.15342 0.000211946 10
-7.92956 10.5229 1.61782 0.000208822 10
-7.75646 10.2932 2.04133 9.75321e-05 10
-7.34553 9.74785 2.37253 0.000107307 10
-6.20948 8.18069 -2.75195 0.00036878 1
-7.2203 9.5124 -2.7571 0.000211753 1
-7.95882 10.4854 -2.55878 0.000195474 10
-7.95939 10.4861 -2.08509 0.000200435 10
-7.96298 10.4908 -1.61716 0.000204474 10
-7.96749 10.4968 -1.15294 0.000207548 10
-7.95894 10.4855 -0.689896 0.000209619 10
-7.96227 10.4899 -0.229875 0.000210666 10
-7.96472 10.4931 0.229945 0.000210674 10
-7.96248 10.4902 0.690203 0.000209646 10
-7.96693 10.496 1.15286 0.000207591 10
-7.95761 10.4838 1.61607 0.000204534 10
-7.78577 10.2574 2.03961 9.75493e-05 10
-7.3775 9.7195 2.37189 0.000105089 10
-6.23672 8.15729 -2.75138 0.000368743 1
-7.25024 9.48293 -2.75587 0.000211727 1
-7.98784 10.4477 -2.55637 0.000191338 10
-7.99652 10.459 -2.08524 0.000196195 10
-7.98839 10.4484 -1.6149 0.00020015 10
-7.99225 10.4534 -1.15123 0.00020316 10
-8.00182 10.466 -0.690442 0.000205189 10
-8.00179 10.4659 -0.229959 0.000206215 10
-8.00176 10.4659 0.229959 0.000206226 10
-7.9926 10.4539 0.689646 0.000205221 10
-7.99456 10.4565 1.15157 0.000203212 10
-8.00034 10.464 1.61732 0.000200221 10
-7.82776 10.2383 2.04123 9.75665e-05 10
-7.41369 9.69671 2.37263 0.000102858 10
-6.26753 8.13856 -2.75243 0.000368705 1
-7.28315 9.45737 -2.75582 0.000211701 1
-8.02696 10.4232 -2.55723 0.000187178 10
-8.02591 10.4219 -2.08341 0.00019193 10
-8.02818 10.4248 -1.61558 0.000195801 10
-8.02453 10.4201 -1.15064 0.000198747 10
-8.0336 10.4318 -0.690038 0.000200734 10
-8.02157 10.4162 -0.229482 0.000201739 10
-8.02395 10.4193 0.22955 0.000201751 10
-8.01988 10.414 0.688859 0.00020077 10
-8.02405 10.4194 1.15057 0.000198806 10
-8.02555 10.4214 1.61505 0.000195883 10
-7.86226 10.2094 2.04093 9.75836e-05 10
-7.43575 9.65553 2.36889 0.000100614 10
-6.30588 8.1295 -2.75679 0.000368668 1
-7.33045 9.45037 -2.76122 0.000211675 1
-8.05834 10.3888 -2.55566 0.000182996 10
-8.04731 10.3745 -2.07955 0.000187643 10
-8.04904 10.3768 -1.61248 0.000191429 10
-8.06392 10.396 -1.15108 0.00019431 10
-8.05344 10.3824 -0.688626 0.000196254 10
-8.05339 10.3824 -0.229354 0.000197239 10
-8.05961 10.3904 0.229531 0.000197252 10
-8.05598 10.3857 0.688842 0.000196295 10
-8.06499 10.3973 1.15123 0.000194378 10
-8.06645 10.3992 1.61596 0.000191521 10
-7.89872 10.183 2.04115 9.76006e-05 10
-7.47177 9.63255 2.36963 9.83588e-05 10
-6.31999 8.08922 -2.7506 0.000368631 1
-7.36326 9.42455 -2.76117 0.00021165 1
-8.07916 10.3408 -2.5508 0.00017879 10
-8.08971 10.3544 -2.08115 0.000183332 10
-8.0927 10.3582 -1.61397 0.000187032 10
-8.08436 10.3475 -1.14883 0.000189849 10
-8.09187 10.3571 -0.688816 0.00019175 10
-8.0882 10.3524 -0.229314 0.000192714 10
-8.10038 10.368 0.22966 0.000192729 10
-8.09823 10.3653 0.689356 0.000191796 10
-8.08895 10.3534 1.14948 0.000189924 10
-8.08602 10.3496 1.61264 0.000187136 10
-7.93305 10.1538 2.04085 9.76175e-05 10
-7.50937 9.61155 2.3709 9.60913e-05 10
-6.3504 8.06992 -2.75155 0.000368594 1
-7.38391 9.38328 -2.75661 0.000211624 1
-8.1262 10.3266 -2.55426 0.000174563 10
-8.12127 10.3203 -2.07999 0.000178999 10
-8.12923 10.3304 -1.61405 0.000182613 10
-8.12633 10.3267 -1.14966 0.000185365 10
-8.13027 10.3317 -0.68901 0.000187223 10
-8.11383 10.3108 -0.229019 0.000188166 10
-8.1278 10.3286 0.229413 0.000188183 10
-8.12899 10.3301 0.688901 0.000187274 10
-8.13206 10.334 1.15047 0.000185448 10
-8.11924 10.3177 1.61207 0.000182728 10
-7.95241 10.1057 2.03674 9.76344e-05 10
-7.52912 9.56781 2.36658 9.38125e-05 10
-6.39126 8.06377 -2.75705 0.000368557 1
-7.41363 9.35368 -2.7555 0.000211599 1
-8.15072 10.2837 -2.55067 0.000170314 10
-8.14439 10.2757 -2.07671 0.000174643 10
-8.15542 10.2896 -1.61211 0.000178171 10
-8.16213 10.298 -1.14964 0.000180858 10
-8.15098 10.284 -0.687718 0.000182672 10
-8.1465 10.2783 -0.228927 0.000183594 10
-8.16041 10.2959 0.229318 0.000183613 10
-8.15285 10.2863 0.687876 0.000182728 10
-8.15224 10.2856 1.14824 0.000180949 10
-8.15123 10.2843 1.61128 0.000178297 10
-8.00176 10.0957 2.04034 9.76512e-05 10
-6.4051 8.02353 -2.75092 0.000368521 1
-7.46047 9.34557 -2.76077 0.000211574 1
-8.17905 10.2457 -2.54832 3.98463e-05 10
-8.18837 10.2574 -2.07878 4.07455e-05 10
-8.18654 10.2551 -1.61118 4.14537e-05 10
-8.1957 10.2666 -1.14931 4.19633e-05 10
-8.19417 10.2647 -0.688336 4.22685e-05 10
-8.18381 10.2517 -0.228969 4.23659e-05 10
-8.19113 10.2608 0.229173 4.22546e-05 10
-8.19711 10.2683 0.688582 4.19357e-05 10
-8.19883 10.2705 1.14975 4.14132e-05 10
-8.19916 10.2709 1.61366 4.06931e-05 10
-8.03636 10.067 2.04019 9.76678e-05 10
-6.4396 8.00924 -2.75371 0.000368485 1
-7.49406 9.32072 -2.76114 0.000211549 1
-8.22411 10.2287 -2.55122 4.43706e-05 10
-8.21996 10.2236 -2.07773 4.5383e-05 10
-8.21495 10.2173 -1.60974 4.61831e-05 10
-8.23305 10.2398 -1.14953 4.67621e-05 10
-8.23186 10.2384 -0.688495 4.71136e-05 10
-8.23233 10.239 -0.229325 4.72337e-05 10
-8.22588 10.2309 0.229145 4.7121e-05 10
-8.22974 10.2357 0.688317 4.67767e-05 10
-8.22997 10.236 1.1491 4.62053e-05 10
-8.22433 10.229 1.61158 4.54131e-05 10
-8.06133 10.0263 2.03763 9.76844e-05 10
-6.47298 7.99347 -2.75604 0.000368449 1
-7.52539 9.29309 -2.76072 0.000211524 1
-8.25714 10.1967 -2.55041 4.88888e-05 10
-8.26148 10.2021 -2.07921 5.00141e-05 10
-8.26926 10.2117 -1.61339 5.09061e-05 10
-8.26628 10.208 -1.14919 5.15546e-05 10
-8.25514 10.1943 -0.687462 5.19523e-05 10
-8.25383 10.1926 -0.228931 5.20949e-05 10
-8.26063 10.201 0.22912 5.19808e-05 10
-8.27063 10.2134 0.688752 5.16114e-05 10
-8.26666 10.2085 1.14924 5.09911e-05 10
-8.27013 10.2128 1.61356 5.01267e-05 10
-8.10623 10.0104 2.04014 9.77009e-05 10
-6.49266 7.9608 -2.75257 0.000368413 1
-7.54717 9.25375 -2.75684 0.000211499 1
-8.28656 10.1603 -2.54853 5.34011e-05 10
-8.29345 10.1688 -2.07831 5.46393e-05 10
-8.29968 10.1764 -1.61238 5.56228e-05 10
-8.28922 10.1636 -1.14744 5.63405e-05 10
-8.29227 10.1673 -0.687594 5.67846e-05 10
-8.30835 10.187 -0.229456 5.69497e-05 10
-8.29897 10.1756 0.229197 5.68343e-05 10
-8.30857 10.1873 0.688946 5.64396e-05 10
-8.29407 10.1695 1.14811 5.57704e-05 10
-8.29572 10.1716 1.61161 5.48343e-05 10
-8.12425 9.96132 2.03591 9.77174e-05 10
-6.52015 7.93776 -2.75246 0.000368377 1
-7.59027 9.24055 -2.76078 0.000211475 1
-8.32354 10.1332 -2.54901 5.79073e-05 10
-8.33109 10.1424 -2.07886 5.92582e-05 10
-8.33194 10.1435 -1.61176 6.03334e-05 10
-8.33958 10.1528 -1.14949 6.11205e-05 10
-8.33014 10.1413 -0.687795 6.16105e-05 10
-8.34183 10.1555 -0.2294 6.17981e-05 10
-8.33518 10.1474 0.229217 6.16813e-05 10
-8.3443 10.1585 0.688963 6.12616e-05 10
-8.33675 10.1493 1.1491 6.05436e-05 10
-8.33591 10.1483 1.61253 5.95356e-05 10
-8.17541 9.95291 2.04001 9.77338e-05 10
-7.73121 9.41213 2.36761 3.00832e-05 10
-6.5528 7.92098 -2.75455 0.000368341 1
-7.61756 9.20806 -2.759 0.00021145 1
-8.36858 10.1159 -2.55197 6.24057e-05 10
-8.36296 10.1091 -2.07799 6.38693e-05 10
-8.37723 10.1263 -1.61367 6.50359e-05 10
-8.37074 10.1185 -1.14891 6.5892e-05 10
-8.36864 10.116 -0.688054 6.64282e-05 10
-8.36477 10.1113 -0.229059 6.66383e-05 10
-8.37644 10.1254 0.229378 6.65202e-05 10
-8.3684 10.1157 0.688034 6.60752e-05 10
-8.38264 10.1329 1.15055 6.53085e-05 10
-8.3681 10.1153 1.61192 6.42289e-05 10
-8.20014 9.91228 2.03754 9.775e-05 10
-7.76983 9.39212 2.36939 3.2501e-05 10
-6.57689 7.89383 -2.75308 0.000368306 1
-7.65701 9.19023 -2.76165 0.000211426 1
-8.4132 10.0978 -2.55481 6.68971e-05 10
-8.40966 10.0936 -2.08083 6.84733e-05 10
-8.40833 10.092 -1.61287 6.9731e-05 10
-8.41563 10.1008 -1.15023 7.06561e-05 10
-8.41774 10.1033 -0.689186 7.12384e-05 10
-8.41243 10.0969 -0.229397 7.1471e-05 10
-8.40206 10.0845 0.229114 7.13516e-05 10
-8.40448 10.0874 0.688101 7.08814e-05 10
-8.40962 10.0935 1.14941 7.0066e-05 10
-8.41315 10.0978 1.61379 6.89148e-05 10
-8.23709 9.88646 2.03813 9.77663e-05 10
-7.80865 9.37224 2.37123 3.49152e-05 10
-6.60849 7.87569 -2.75478 0.000368271 1
-7.6887 9.16304 -2.76153 0.000211401 1
-8.4458 10.0653 -2.55403 7.13796e-05 10
-8.43634 10.054 -2.07873 7.3068e-05 10
-8.44258 10.0615 -1.61269 7.44169e-05 10
-8.45314 10.0741 -1.15054 7.5411e-05 10
-8.43873 10.0569 -0.688027 7.60391e-05 10
-8.45526 10.0766 -0.229605 7.62942e-05 10
-8.4409 10.0595 0.229215 7.61734e-05 10
-8.45707 10.0788 0.689523 7.56781e-05 10
-8.44415 10.0633 1.14932 7.48143e-05 10
-8.45483 10.0761 1.61503 7.35916e-05 10
-8.2614 9.84556 2.03563 9.77824e-05 10
-7.8267 9.3275 2.36681 3.73248e-05 10
-6.63718 7.85404 -2.7553 0.000368236 1
-7.71987 9.13523 -2.76125 0.000211377 1
-8.47124 10.0244 -2.55112 7.58539e-05 10
-8.48173 10.0368 -2.08127 7.76544e-05 10
-8.48763 10.0438 -1.61459 7.90943e-05 10
-8.49077 10.0475 -1.15088 8.01572e-05 10
-8.48267 10.0379 -0.688748 8.08311e-05 10
-8.48981 10.0463 -0.229589 8.11086e-05 10
-8.49018 10.0468 0.229599 8.09865e-05 10
-8.49176 10.0486 0.689486 8.04662e-05 10
-8.49176 10.0486 1.15102 7.9554e-05 10
-8.48455 10.0401 1.614 7.82599e-05 10
-8.30024 9.82201 2.03674 9.77984e-05 10
-7.86319 9.30482 2.36801 3.97302e-05 10
-6.65486 7.81944 -2.75129 0.000368201 1
-7.737 9.09095 -2.75601 0.000211353 1
-8.52051 10.0116 -2.55542 8.03183e-05 10
-8.51008 9.99931 -2.07965 8.22307e-05 10
-8.5265 10.0186 -1.61532 8.37612e-05 10
-8.52691 10.0191 -1.15103 8.48927e-05 10
-8.52144 10.0127 -0.689055 8.56125e-05 10
-8.51625 10.0066 -0.229359 8.59123e-05 10
-8.52354 10.0151 0.229555 8.57889e-05 10
-8.53015 10.0229 0.689759 8.52437e-05 10
-8.52898 10.0215 1.15131 8.4283e-05 10
-8.52487 10.0167 1.61501 8.29178e-05 10
-8.33694 9.79587 2.03734 9.78144e-05 10
-7.90972 9.29389 2.37224 4.21304e-05 10
-6.69694 7.81345 -2.75739 0.000368167 1
-7.77653 9.07303 -2.7588 0.000211329 1
-8.55661 9.98316 -2.55578 8.47734e-05 10
-8.54627 9.97111 -2.07998 8.67972e-05 10
-8.54962 9.97501 -1.6131 8.84184e-05 10
-8.55787 9.98463 -1.1505 8.96185e-05 10
-8.55639 9.98291 -0.689059 9.0384e-05 10
-8.54721 9.9722 -0.229253 9.0706e-05 10
-8.56455 9.99243 0.229718 9.05813e-05 10
-8.55791 9.98468 0.689181 9.00111e-05 10
-8.55803 9.98482 1.15052 8.90022e-05 10
-8.56014 9.98728 1.61508 8.7566e-05 10
-8.36566 9.76038 2.03602 9.78303e-05 10
-7.94612 9.2709 2.37343 4.45258e-05 10
-6.71282 7.77688 -2.75274 0.000368132 1
-7.81097 9.04909 -2.75979 0.000211306 1
-8.58163 9.94192 -2.55288 8.92173e-05 10
-8.5853 9.94616 -2.08101 9.13526e-05 10
-8.58802 9.94932 -1.61378 9.30642e-05 10
-8.58276 9.94322 -1.14917 9.43327e-05 10
-8.59661 9.95927 -0.689494 9.51436e-05 10
-8.5998 9.96297 -0.22973 9.5488e-05 10
-8.59826 9.96118 0.229688 9.5362e-05 10
-8.60137 9.96479 0.689876 9.47669e-05 10
-8.59601 9.95858 1.15095 9.37099e-05 10
-8.60478 9.96874 1.61693 9.22028e-05 10
-8.40261 9.73452 2.03673 9.78461e-05 10
-7.97887 9.24361 2.37356 4.69154e-05 10
-6.7395 7.75291 -2.75256 0.000368098 1
-7.83717 9.01564 -2.75791 0.000211282 1
-8.63569 9.93424 -2.55863 9.36503e-05 10
-8.62944 9.92704 -2.0833 9.58968e-05 10
-8.63448 9.93283 -1.61598 9.76986e-05 10
-8.61953 9.91564 -1.14946 9.90352e-05 10
-8.6321 9.9301 -0.689556 9.98916e-05 10
-8.62505 9.92199 -0.229478 0.000100258 10
-8.63549 9.934 0.229755 0.000100131 10
-8.6325 9.93056 0.689588 9.9511e-05 10
-8.62411 9.92091 1.15007 9.8406e-05 10
-8.64237 9.94191 1.61746 9.68283e-05 10
-8.43899 9.70796 2.03733 9.78617e-05 10
-7.99828 9.20097 2.36977 4.92993e-05 10
-6.77685 7.74113 -2.75676 0.000368064 1
-7.87565 8.99628 -2.76038 0.000211258 1
-8.66897 9.90248 -2.55823 0.000281848 10
-8.67 9.90366 -2.08473 0.00010043 10
-8.67237 9.90637 -1.61659 0.000102321 10
-8.67376 9.90795 -1.15207 0.000103726 10
-8.6754 9.90983 -0.690247 0.000104628 10
-8.66561 9.89864 -0.229636 0.000105017 10
-8.67646 9.91104 0.229923 0.000104888 10
-8.67402 9.90825 0.690137 0.000104244 10
-8.66083 9.89319 1.15035 0.000103091 10
-8.66409 9.89691 1.61505 0.000101442 10
-8.48174 9.68862 2.03947 9.78774e-05 10
-8.03077 9.17348 2.36989 5.16776e-05 10
-6.80174 7.71506 -2.75592 0.00036803 1
-7.89877 8.95941 -2.75751 0.000211235 1
-8.69559 9.86322 -2.55591 0.000285557 10
-8.69999 9.8682 -2.08365 0.000292599 10
-8.7151 9.88535 -1.61812 0.00029829 10
-8.70183 9.8703 -1.15122 0.000302566 10
-8.70421 9.873 -0.689794 0.000305377 10
-8.70597 9.87499 -0.229791 0.000306692 10
-8.70145 9.86986 0.229671 0.000306497 10
-8.71492 9.88514 0.690642 0.000304793 10
-8.70948 9.87897 1.15223 0.0003016 10
-8.70862 9.87799 1.61691 0.000296955 10
-8.49885 9.64006 2.03548 9.7893e-05 10
-8.07626 9.16072 2.37387 5.40493e-05 10
-6.82748 7.68997 -2.75545 0.000367996 1
-7.9448 8.94844 -2.76266 0.000211212 1
-8.74559 9.85039 -2.56048 0.000289233 10
-8.7537 9.85953 -2.08826 0.000296369 10
-8.74967 9.85499 -1.61814 0.000302136 10
-8.74487 9.84958 -1.15235 0.000306469 10
-8.74544 9.85023 -0.690332 0.000309319 10
-8.74546 9.85025 -0.229924 0.000310654 10
-8.74867 9.85386 0.230008 0.000310457 10
-8.75576 9.86185 0.691146 0.000308733 10
-8.75882 9.8653 1.15419 0.0003055 10
-8.74434 9.84899 1.61715 0.000300795 10
-8.54343 9.62269 2.0381 9.79084e-05 10
-8.11343 9.13837 2.3754 5.64147e-05 10
-6.86167 7.67437 -2.75843 0.000367963 1
-7.96804 8.91177 -2.75991 0.000211189 1
-8.77767 9.8173 -2.55983 0.000292873 10
-8.78241 9.8226 -2.08692 0.000300102 10
-8.79204 9.83336 -1.61962 0.000305945 10
-8.78378 9.82412 -1.15295 0.000310335 10
-8.78467 9.82513 -0.690717 0.000313223 10
-8.79057 9.83173 -0.230207 0.000314577 10
-8.78993 9.83101 0.230189 0.00031438 10
-8.78612 9.82674 0.69083 0.000312634 10
-8.79967 9.8419 1.15504 0.000309362 10
-8.79852 9.84061 1.62081 0.000304598 10
-8.56908 9.584 2.03622 9.79238e-05 10
-8.13935 9.10337 2.37367 5.87729e-05 10
-6.87113 7.63117 -2.7515 0.000367929 1
-8.00284 8.88805 -2.7612 0.000211166 1
-8.82023 9.79585 -2.56225 0.000296479 10
-8.82135 9.7971 -2.08803 0.0003038 10
-8.83973 9.81751 -1.62208 0.000309717 10
-8.83055 9.80732 -1.15459 0.000314164 10
-8.8404 9.81825 -0.692399 0.000317091 10
-8.83667 9.81412 -0.230515 0.000318463 10
-8.83411 9.81127 0.230448 0.000318265 10
-8.82801 9.80449 0.691429 0.000316499 10
-8.82622 9.80251 1.15403 0.000313187 10
-8.84491 9.82327 1.62303 0.000308365 10
-8.60439 9.55614 2.03667 9.79391e-05 10
-8.18488 9.09023 2.37768 0.000157933 10
-6.9096 7.62023 -2.75624 0.000367896 1
-8.03167 8.8577 -2.76046 0.000211143 1
-8.87557 9.7884 -2.56839 0.000300048 10
-8.87463 9.78735 -2.09254 0.00030746 10
-8.86469 9.7764 -1.62039 0.000313452 10
-8.865 9.77673 -1.15463 0.000317956 10
-8.86518 9.77693 -0.691663 0.000320919 10
-8.87635 9.78925 -0.230657 0.00032231 10
-8.87143 9.78382 0.230529 0.000322111 10
-8.87855 9.79168 0.692707 0.000320325 10
-8.87983 9.79309 1.15656 0.000316974 10
-8.87816 9.79125 1.62285 0.000312094 10
-8.63015 9.51773 2.0349 9.79543e-05 10
-8.22329 9.06903 2.37963 0.000159884 10
-6.92558 7.58448 -2.75204 0.000367863 1
-8.06081 8.82772 -2.75987 0.00021112 1
-8.92114 9.76991 -2.57169 0.000303581 10
-8.91117 9.75899 -2.09311 0.000311084 10
-8.9139 9.76198 -1.62314 0.000317149 10
-8.9105 9.75825 -1.15611 0.000321708 10
-8.90807 9.75559 -0.692349 0.000324709 10
-8.91093 9.75872 -0.230669 0.000326118 10
-8.92063 9.76934 0.23092 0.000325919 10
-8.91895 9.76751 0.693195 0.000324113 10
-8.91305 9.76104 1.15644 0.000320723 10
-8.91333 9.76135 1.62304 0.000315786 10
-8.68183 9.50783 2.03925 9.79694e-05 10
-8.2649 9.05123 2.38251 0.000161815 10
-6.95957 7.56848 -2.75503 0.00036783 1
-8.09078 8.79866 -2.7596 0.000211098 1
-8.9549 9.73838 -2.5716 0.000307078 10
-8.94794 9.73082 -2.09376 0.00031467 10
-8.95584 9.7394 -1.62458 0.000320809 10
-8.95182 9.73503 -1.15706 0.000325423 10
-8.95155 9.73474 -0.693082 0.000328461 10
-8.9603 9.74425 -0.231065 0.000329888 10
-8.95589 9.73946 0.230952 0.000329688 10
-8.95471 9.73818 0.693327 0.000327863 10
-8.96712 9.75167 1.15903 0.000324434 10
-8.9654 9.7498 1.62631 0.00031944 10
-8.70579 9.46748 2.0371 9.79845e-05 10
-8.29291 9.01848 2.3815 0.000163728 10
-6.98448 7.54256 -2.75445 0.000367798 1
-8.11559 8.76405 -2.75761 0.000211075 1
-8.99253 9.71105 -2.57266 0.000310537 10
-8.99601 9.71481 -2.09706 0.000318219 10
-8.98798 9.70614 -1.62425 0.000324429 10
-9.00412 9.72357 -1.15942 0.000329098 10
-8.99795 9.7169 -0.694045 0.000332173 10
-9.00518 9.72471 -0.231346 0.000333618 10
-9.00222 9.72152 0.23127 0.000333417 10
-8.99698 9.71586 0.69397 0.000331572 10
-8.99415 9.7128 1.15814 0.000328105 10
-8.99934 9.7184 1.62631 0.000323055 10
-8.74738 9.44632 2.0391 9.79994e-05 10
-8.32527 8.99048 2.38176 0.000165621 10
-7.01017 7.51749 -2.75421 0.000367766 1
-8.15935 8.74983 -2.76208 0.000211053 1
-9.03834 9.69244 -2.57607 0.00031396 10
-9.03733 9.69135 -2.09879 0.00032173 10
-9.04293 9.69736 -1.62806 0.000328011 10
-9.04329 9.69774 -1.1601 0.000332735 10
-9.0404 9.69465 -0.694705 0.000335845 10
-9.04955 9.70446 -0.231614 0.000337308 10
-9.03813 9.69221 0.231322 0.000337106 10
-9.03872 9.69284 0.694575 0.000335242 10
-9.04654 9.70122 1.16051 0.000331738 10
-9.05136 9.7064 1.62958 0.000326632 10
-8.77819 9.41346 2.03861 9.80143e-05 10
-8.36565 8.97107 2.38434 0.000167495 10
-7.03883 7.4956 -2.75518 0.000367734 1
-8.18626 8.71749 -2.76087 0.000211031 1
-9.07506 9.66396 -2.57691 0.000317345 10
-9.07863 9.66776 -2.10053 0.000325201 10
-9.08719 9.67688 -1.62993 0.000331554 10
-9.08943 9.67927 -1.16168 0.00033633 10
-9.08078 9.67005 -0.695209 0.000339477 10
-9.0788 9.66794 -0.231498 0.000340958 10
-9.07438 9.66323 0.231385 0.000340755 10
-9.09223 9.68224 0.696086 0.000338872 10
-9.09379 9.68391 1.16223 0.00033533 10
-9.09432 9.68448 1.63121 0.00033017 10
-8.80731 9.37884 2.03776 9.80291e-05 10
-8.4179 8.96416 2.3903 0.000169348 10
-7.06056 7.46633 -2.75346 0.000367701 1
-8.22158 8.69407 -2.76253 0.000211009 1
-9.11449 9.6383 -2.57853 0.000320691 10
-9.11741 9.64139 -2.10171 0.000328634 10
-9.13216 9.65699 -1.63194 0.000335057 10
-9.12713 9.65167 -1.16218 0.000339887 10
-9.12186 9.6461 -0.695772 0.000343069 10
-9.13109 9.65585 -0.23197 0.000344567 10
-9.13393 9.65887 0.232042 0.000344364 10
-9.13621 9.66127 0.696867 0.000342462 10
-9.13172 9.65652 1.16277 0.000338883 10
-9.12725 9.65179 1.63107 0.000333668 10
-8.82706 9.33435 2.03478 9.80438e-05 10
-8.4541 8.93996 2.3917 0.000171182 10
-7.10011 7.45585 -2.75872 0.00036767 1
-8.23809 8.65085 -2.75792 0.000210987 1
-9.15852 9.6174 -2.58148 0.000425546 10
-9.15599 9.61474 -2.10285 0.000436125 10
-9.16536 9.62458 -1.63186 0.000444686 10
-9.16231 9.62138 -1.16238 0.000451134 10
-9.17772 9.63756 -0.697463 0.000455395 10
-9.16028 9.61924 -0.231857 0.00045742 10
-9.1718 9.63135 0.232149 0.000457186 10
-9.17873 9.63862 0.697539 0.000454696 10
-9.163 9.6221 1.16246 0.000449978 10
-9.1758 9.63554 1.63372 0.000443087 10
-8.87666 9.32142 2.0387 9.80584e-05 10
-8.48381 8.90889 2.3913 0.000172996 10
-7.11242 7.41676 -2.75343 0.000367638 1
-8.26932 8.62316 -2.75828 0.000210965 1
-9.21724 9.61165 -2.58855 0.000427978 10
-9.20204 9.5958 -2.10572 0.000438621 10
-9.20421 9.59806 -1.6328 0.000447236 10
-9.20729 9.60128 -1.16383 0.000453724 10
-9.2174 9.61182 -0.697924 0.000458011 10
-9.21709 9.61149 -0.232445 0.00046005 10
-9.22256 9.6172 0.232582 0.000459815 10
-9.20934 9.60341 0.697314 0.000457311 10
-9.21848 9.61294 1.16524 0.000452566 10
-9.21251 9.60671 1.63428 0.000445634 10
-8.90939 9.29062 2.03875 9.8073e-05 10
-8.53359 8.89874 2.39656 0.00017479 10
-7.14597 7.39987 -2.7564 0.000367607 1
-8.30844 8.60365 -2.76129 0.000210943 1
-9.2652 9.5944 -2.5926 0.00043036 10
-9.26379 9.59294 -2.11218 0.000441067 10
-9.25659 9.58549 -1.63615 0.000449734 10
-9.26499 9.59418 -1.16688 0.000456261 10
-9.25766 9.58659 -0.698435 0.000460575 10
-9.25773 9.58667 -0.232624 0.000462627 10
-9.26271 9.59182 0.232749 0.000462392 10
-9.24993 9.57858 0.697851 0.000459874 10
-9.26314 9.59227 1.16664 0.000455102 10
-9.27037 9.59975 1.63859 0.00044813 10
-8.92458 9.24167 2.03483 9.80874e-05 10
-8.57582 8.88053 2.3997 0.000176562 10
-7.17268 7.37583 -2.75676 0.000367575 1
-8.33236 8.56836 -2.75929 0.000210922 1
-9.29638 9.55969 -2.59198 0.000432692 10
-9.30522 9.56878 -2.11399 0.000443462 10
