VERSION 0.7
FIELDS x y z intensity label
SIZE 4 4 4 4 4
TYPE F F F F F
COUNT 1 1 1 1 1
WIDTH 1194
HEIGHT 1
VIEWPOINT 7.56953 49.0845 2.72986 0.876726 -0.00011482 0.000258359 -0.480991
POINTS 1194
DATA ascii
14.2754 3.34825 -0.768443 0.000604277 10
14.2838 3.35024 -0.256091 0.000607426 10
14.2784 3.34897 0.255994 0.000607496 10
14.2762 3.34846 0.76849 0.000604485 10
14.2935 3.35251 1.28446 0.000706413 10
14.2875 3.35109 1.80189 0.000695755 10
14.2746 3.34808 2.32224 0.000681713 10
14.2934 3.35248 2.85375 0.000664449 10
14.2742 3.34799 3.3849 0.000644165 10
14.2828 3.35 3.93093 0.000621097 10
9.20531 2.19301 -2.53559 0.000348383 4
11.4885 2.73696 -2.72657 0.000222656 1
13.6349 3.2483 -2.72454 0.000114518 1
14.2161 3.38675 -2.31462 0.000885887 10
14.2204 3.38777 -1.79491 0.00090433 10
14.2278 3.38954 -1.27961 0.000606615 10
14.2368 3.3917 -0.767003 0.000612888 10
14.2277 3.38951 -0.255295 0.000616078 10
14.2301 3.39008 0.255338 0.000616149 10
14.2139 3.38624 0.765768 0.000613098 10
14.2279 3.38957 1.27962 0.000716485 10
14.232 3.39053 1.79637 0.000705685 10
14.2184 3.3873 2.315 0.000691455 10
14.225 3.38886 2.84244 0.000673961 10
14.2288 3.38977 3.37691 0.000653406 10
14.2084 3.38492 3.91367 0.000630029 10
9.21026 2.2282 -2.53908 0.000348389 4
11.483 2.77804 -2.72754 0.000222661 1
13.6278 3.29692 -2.7254 0.000114521 1
14.1748 3.42923 -2.30983 0.00089845 10
14.1736 3.42896 -1.7905 0.000917137 10
14.2586 3.44951 -1.28345 0.000579447 10
14.2536 3.44832 -0.768551 0.000585384 10
14.2564 3.44899 -0.256026 0.000588372 10
14.251 3.44769 0.255929 0.000588378 10
14.2686 3.45193 0.769355 0.000585401 10
14.1623 3.42622 1.27478 0.000726618 10
14.1546 3.42436 1.7881 0.000715676 10
14.1498 3.4232 2.30576 0.000701258 10
14.1637 3.42656 2.83257 0.000683532 10
14.1736 3.42897 3.36664 0.000662705 10
14.1557 3.42462 3.90243 0.000639016 10
9.19594 2.25874 -2.53728 0.000411221 4
11.4455 2.81129 -2.72095 0.000222665 1
13.6189 3.34511 -2.72592 0.000114524 1
14.1061 3.46478 -2.30059 0.000911089 10
14.1147 3.46691 -1.78458 0.00093002 10
14.2921 3.51049 -1.28757 0.000570708 10
14.2895 3.50984 -0.771142 0.000576561 10
14.3117 3.51529 -0.257237 0.000579508 10
14.314 3.51585 0.257278 0.000579514 10
14.2948 3.51113 0.771424 0.000576578 10
14.0968 3.4625 1.26997 0.000736813 10
14.0944 3.46191 1.78201 0.000725727 10
14.1081 3.46527 2.30092 0.00071112 10
14.1169 3.46743 2.8256 0.000693161 10
14.1146 3.46687 3.35546 0.00067206 10
14.0923 3.4614 3.88826 0.000648059 10
9.18862 2.29098 -2.53746 0.000379815 4
11.4382 2.85185 -2.72155 0.00022267 1
13.6026 3.39149 -2.72501 0.000114527 1
14.0339 3.49904 -2.29079 0.000923806 10
14.0502 3.5031 -1.77796 0.000942983 10
14.0439 3.50153 -1.2663 0.000632514 10
14.0369 3.49979 -0.758163 0.000639035 10
14.0399 3.50053 -0.25257 0.000642352 10
14.0402 3.50062 0.252575 0.000642424 10
14.0442 3.50162 0.758559 0.000639252 10
14.0369 3.49978 1.26566 0.000747069 10
14.0557 3.50448 1.77866 0.000735839 10
14.0361 3.4996 2.29116 0.000721042 10
14.0484 3.50265 2.81432 0.000702849 10
14.0432 3.50137 3.34139 0.000681473 10
14.0314 3.49843 3.87481 0.000657158 10
9.17483 2.32159 -2.53587 0.000405523 4
11.4309 2.89247 -2.72221 0.000222675 1
13.5798 3.4362 -2.72283 0.00011453 1
13.9882 3.53955 -2.28534 0.000936596 10
13.996 3.54153 -1.77265 0.00095602 10
14.0049 3.54379 -1.26389 0.000602672 10
13.9895 3.53988 -0.756266 0.000608819 10
13.9966 3.54168 -0.252011 0.000611914 10
13.9891 3.53978 0.251876 0.00061192 10
13.9888 3.53972 0.756231 0.000608837 10
13.991 3.54027 1.26263 0.000757386 10
13.9852 3.5388 1.77129 0.000746011 10
13.9731 3.53574 2.28288 0.000731022 10
13.9772 3.53678 2.80253 0.000712594 10
13.9899 3.53999 3.33162 0.00069094 10
13.9911 3.5403 3.86707 0.000666311 10
9.16737 2.35378 -2.53606 0.000348413 4
11.4299 2.93471 -2.7244 0.00022268 1
13.562 3.48214 -2.7217 0.000114533 1
13.939 3.57893 -2.27933 0.000949461 10
13.9216 3.57445 -1.7648 0.000969134 10
14.0317 3.60272 -1.26743 0.000593432 10
14.0472 3.60671 -0.760062 0.000599491 10
14.0355 3.60371 -0.252938 0.000602541 10
14.0338 3.60327 0.252906 0.000602548 10
14.0365 3.60395 0.759481 0.000599509 10
13.939 3.57893 1.25906 0.000767762 10
13.9175 3.5734 1.76428 0.000756241 10
13.9336 3.57753 2.27844 0.00074106 10
13.9263 3.57566 2.7948 0.000722396 10
13.9322 3.57718 3.32083 0.000700464 10
13.9207 3.57422 3.85102 0.000675517 10
9.15645 2.38507 -2.53533 0.000342708 4
11.4323 2.97788 -2.72742 0.000222684 1
13.5628 3.53283 -2.7243 0.000114536 1
13.879 3.61521 -2.27157 0.0009624 10
13.8723 3.61346 -1.76014 0.000982321 10
14.0691 3.66474 -1.27196 0.000584262 10
14.0754 3.66638 -0.762277 0.000590233 10
14.0894 3.67002 -0.254138 0.00059324 10
14.0791 3.66732 0.253951 0.000593246 10
14.0834 3.66844 0.762706 0.00059025 10
13.8778 3.61489 1.25466 0.000778197 10
13.8717 3.61329 1.76006 0.000766529 10
13.8628 3.61099 2.26892 0.000751156 10
13.881 3.61574 2.78824 0.000732253 10
13.8674 3.61218 3.30836 0.000710042 10
13.8649 3.61155 3.83907 0.000684777 10
9.15616 2.41916 -2.53757 0.000451239 4
11.4189 3.01701 -2.72673 0.000222689 1
13.5381 3.57692 -2.72184 0.000114539 1
13.8274 3.65334 -2.26519 0.00097541 10
13.8217 3.65184 -1.75532 0.000995583 10
13.8243 3.65254 -1.25097 0.00101095 10
13.8217 3.65184 -0.749219 0.00102133 10
13.8075 3.64811 -0.249282 0.00102661 10
13.8144 3.64993 0.249406 0.00102673 10
13.8111 3.64904 0.748645 0.00102167 10
13.8221 3.65196 1.25077 0.00078869 10
13.7986 3.64575 1.7524 0.000776875 10
13.8232 3.65224 2.26451 0.000761308 10
13.8081 3.64826 2.77613 0.000742167 10
13.8078 3.64819 3.29718 0.000719675 10
13.8139 3.6498 3.82845 0.000694089 10
9.13748 2.44838 -2.53475 0.000322727 4
11.4021 3.05518 -2.72524 0.000222693 1
13.5294 3.62519 -2.72262 0.000114542 1
13.7567 3.6861 -2.25571 0.000988492 10
13.7653 3.68841 -1.74979 0.00100892 10
13.7483 3.68386 -1.24525 0.00102448 10
13.7502 3.68434 -0.746036 0.00103499 10
13.747 3.68348 -0.248419 0.00104033 10
13.7679 3.68909 0.248797 0.00104045 10
13.759 3.68672 0.746516 0.00103533 10
13.7498 3.68426 1.24539 0.00079924 10
13.7642 3.6881 1.74965 0.000787277 10
13.7528 3.68505 2.25507 0.000771515 10
13.7457 3.68315 2.76615 0.000752135 10
13.7559 3.68588 3.28783 0.00072936 10
13.7544 3.68547 3.81548 0.000703453 10
9.1443 2.48445 -2.53903 0.000376998 4
11.3926 3.0953 -2.72554 0.000222698 1
13.5234 3.67424 -2.72399 0.000114545 1
13.6935 3.72045 -2.24747 0.00100164 10
13.6876 3.71883 -1.74155 0.00102232 10
13.6886 3.71911 -1.24101 0.00103807 10
13.7083 3.72447 -0.744467 0.00104872 10
13.6981 3.72169 -0.247769 0.00105413 10
13.7003 3.72229 0.247809 0.00105424 10
13.6885 3.71909 0.743393 0.00104906 10
13.6984 3.72178 1.2419 0.000809847 10
13.7028 3.72296 1.74348 0.000797736 10
13.6998 3.72215 2.24849 0.000781778 10
13.7015 3.72262 2.75985 0.000762156 10
13.7058 3.72378 3.27894 0.000739098 10
13.6902 3.71954 3.80125 0.000712868 10
9.12265 2.5128 -2.53544 0.000337019 4
11.388 3.13679 -2.72705 0.000222703 1
13.5036 3.71951 -2.72258 0.000114548 1
13.6486 3.75945 -2.24223 0.00101487 10
13.6505 3.75997 -1.73849 0.0010358 10
13.6352 3.75576 -1.23735 0.00105174 10
13.6422 3.75768 -0.741583 0.00106252 10
13.6361 3.75601 -0.246884 0.001068 10
13.6359 3.75594 0.246879 0.00106811 10
13.6535 3.7608 0.742197 0.00106287 10
13.6392 3.75687 1.23772 0.000820509 10
13.6466 3.7589 1.73799 0.000808249 10
13.6329 3.75512 2.23965 0.000792095 10
13.6499 3.75982 2.75209 0.000772231 10
13.6371 3.75629 3.26563 0.000748888 10
13.6279 3.75375 3.78758 0.000722333 10
9.12365 2.54737 -2.53817 0.000402716 4
11.3754 3.17606 -2.72666 0.000222707 1
13.4988 3.76893 -2.72425 0.000114551 1
13.58 3.7916 -2.23312 0.00102816 10
13.5928 3.79518 -1.73282 0.00104934 10
13.5765 3.79063 -1.23322 0.00106548 10
13.5989 3.79688 -0.739946 0.00107639 10
13.5886 3.794 -0.246261 0.00108193 10
13.5964 3.79618 0.246403 0.00108205 10
13.5891 3.79414 0.739411 0.00107674 10
13.5962 3.79614 1.23501 0.000831226 10
13.5969 3.79633 1.73335 0.000818816 10
13.5829 3.79241 2.2336 0.000802464 10
13.5756 3.79037 2.73975 0.000782357 10
13.5907 3.79459 3.25766 0.000758728 10
13.5808 3.79182 3.77814 0.000731847 10
9.10219 2.57566 -2.53469 0.000411291 4
11.3411 3.2092 -2.72111 0.000222712 1
13.4851 3.81591 -2.72417 0.000114554 1
13.5404 3.83156 -2.2288 0.00104152 10
13.538 3.83086 -1.72752 0.00106296 10
13.5375 3.83073 -1.23089 0.00107929 10
13.5255 3.82731 -0.736672 0.00109033 10
13.544 3.83256 -0.245694 0.00109594 10
13.5463 3.83323 0.245737 0.00109606 10
13.5451 3.83286 0.73774 0.00109069 10
13.5304 3.82871 1.23024 0.000841998 10
13.5187 3.82539 1.72506 0.000829438 10
13.5445 3.83272 2.22948 0.000812887 10
13.54 3.83144 2.73526 0.000792537 10
13.5374 3.83071 3.24808 0.00076862 10
13.5238 3.82684 3.76597 0.000741411 10
9.0847 2.60499 -2.53234 0.000339892 4
11.3298 3.24877 -2.7211 0.000222716 1
13.4757 3.86408 -2.72496 0.000114557 1
13.475 3.86389 -2.22024 0.00105494 10
13.4744 3.86372 -1.72112 0.00107664 10
13.4662 3.86138 -1.22562 0.00109317 10
13.4857 3.86696 -0.735238 0.00110434 10
13.4826 3.86606 -0.244823 0.00111002 10
13.4757 3.8641 0.244698 0.00111014 10
13.4646 3.8609 0.734085 0.0011047 10
13.4733 3.86339 1.22626 0.000852824 10
13.4769 3.86443 1.72144 0.000840112 10
13.4645 3.86087 2.2185 0.000823362 10
13.4859 3.86702 2.72703 0.000802767 10
13.4784 3.86488 3.23714 0.000778561 10
13.4669 3.86157 3.75386 0.000751023 10
9.08642 2.63985 -2.53537 0.000388455 4
11.3286 3.29126 -2.72356 0.000222721 1
13.4257 3.90053 -2.7176 0.00104149 10
13.4224 3.89955 -2.21379 0.00106843 10
13.4187 3.89851 -1.71574 0.00109039 10
13.424 3.90004 -1.22301 0.00110712 10
13.4202 3.89893 -0.732405 0.00111842 10
13.4111 3.89628 -0.24377 0.00112416 10
13.4122 3.8966 0.243791 0.00112428 10
13.4238 3.89997 0.7326 0.00111878 10
13.4099 3.89593 1.22172 0.000863701 10
13.42 3.89886 1.7159 0.000850839 10
13.4067 3.89499 2.21121 0.000833889 10
13.4269 3.90087 2.71784 0.000813046 10
13.4076 3.89526 3.22337 0.000788551 10
13.4132 3.89689 3.74266 0.000760684 10
9.0854 2.67398 -2.53767 0.000394174 4
11.311 3.32902 -2.72211 0.000222725 1
13.3923 3.94155 -2.7136 0.000913026 10
13.4035 3.94486 -2.21294 0.000936545 10
13.4045 3.94516 -1.71567 0.000955695 10
13.4169 3.94881 -1.22361 0.000970257 10
13.3924 3.94159 -0.731633 0.000980064 10
13.4137 3.94787 -0.244067 0.000985001 10
13.4111 3.94709 0.244019 0.000985011 10
13.4116 3.94723 0.73268 0.000980094 10
13.3593 3.93186 1.21836 0.000874631 10
13.371 3.9353 1.71138 0.000861616 10
13.3695 3.93487 2.20734 0.000844465 10
13.3617 3.93256 2.70741 0.000823375 10
13.3704 3.93512 3.21772 0.00079859 10
13.3761 3.9368 3.73612 0.00077039 10
9.05474 2.69933 -2.53173 0.000271356 4
11.3007 3.36887 -2.72243 0.00022273 1
13.4378 4.00598 -2.72564 0.000114565 1
13.4298 4.00358 -2.21957 0.000921146 10
13.4554 4.01123 -1.72397 0.000940003 10
13.4403 4.00673 -1.22701 0.000954342 10
13.4489 4.00928 -0.735478 0.000963998 10
13.4313 4.00405 -0.244641 0.00096886 10
13.4332 4.00461 0.244675 0.000968869 10
13.4543 4.01091 0.735778 0.000964028 10
13.3196 3.97075 1.21599 0.000885613 10
13.3189 3.97055 1.70648 0.000872444 10
13.3202 3.97093 2.20147 0.000855091 10
13.3224 3.97159 2.70224 0.000833754 10
13.3128 3.96871 3.20716 0.000808675 10
13.3223 3.97156 3.72496 0.000780144 10
9.05365 2.73346 -2.53407 0.000402756 4
11.2829 3.40651 -2.721 0.000222734 1
13.4236 4.05283 -2.72562 0.000114568 1
13.4936 4.07397 -2.23247 0.000905878 10
13.4731 4.06778 -1.72805 0.000924442 10
13.4846 4.07124 -1.23235 0.00093856 10
13.4824 4.07057 -0.738084 0.000948067 10
13.4758 4.0686 -0.245709 0.000952853 10
13.4877 4.07217 0.245925 0.000952863 10
13.4869 4.07194 0.738331 0.000948096 10
13.2529 4.00128 1.21117 0.000896643 10
13.2497 4.00032 1.69939 0.000883322 10
13.2584 4.00295 2.19355 0.000865767 10
13.2444 3.99871 2.68922 0.00084418 10
13.2631 4.00437 3.19855 0.000818809 10
13.2661 4.00528 3.71313 0.000789942 10
9.03767 2.76309 -2.53228 0.000379911 4
11.2763 3.44751 -2.72229 0.000222739 1
13.4086 4.09941 -2.72545 0.000114571 1
13.5313 4.13695 -2.24108 0.00089074 10
13.5311 4.13688 -1.73732 0.000909015 10
13.5169 4.13252 -1.23661 0.000922913 10
13.5242 4.13476 -0.741157 0.000932273 10
13.5362 4.13843 -0.247071 0.000936985 10
13.5195 4.13334 0.246767 0.000936995 10
13.5203 4.13356 0.740942 0.000932302 10
13.1906 4.03276 1.20676 0.000907724 10
13.2073 4.03786 1.69574 0.000894248 10
13.1969 4.03468 2.18568 0.00087649 10
13.2157 4.04045 2.68625 0.000854653 10
13.2152 4.04028 3.19037 0.000828987 10
13.1977 4.03495 3.6979 0.000799785 10
9.04689 2.80048 -2.53759 0.000345638 4
11.2759 3.49047 -2.72512 0.000222743 1
13.3755 4.14041 -2.72165 0.000114574 1
13.566 4.19937 -2.24923 0.000875734 10
13.5517 4.19494 -1.74183 0.000893723 10
13.5681 4.20003 -1.24263 0.000907403 10
13.5666 4.19956 -0.74428 0.000916615 10
13.5584 4.19703 -0.247743 0.000921253 10
13.5671 4.19973 0.247902 0.000921263 10
13.551 4.19473 0.743424 0.000916643 10
13.1617 4.07423 1.20541 0.000918852 10
13.1507 4.07082 1.6903 0.000905222 10
13.16 4.07369 2.18191 0.000887259 10
13.1611 4.07405 2.67803 0.000865171 10
13.1402 4.06756 3.17567 0.00083921 10
13.1453 4.06914 3.68716 0.000809671 10
9.04012 2.833 -2.53845 0.000308509 4
11.2515 3.52601 -2.72218 0.000222747 1
13.3586 4.18633 -2.72117 0.000114576 1
13.5981 4.26139 -2.25701 0.000860862 10
13.5981 4.26139 -1.7497 0.000878564 10
27.4808 8.61195 -2.51955 6.84941e-05 10
27.4646 8.60688 0.502385 6.98379e-05 10
13.0873 4.10131 1.1999 0.000930028 10
13.1039 4.10651 1.68611 0.000916243 10
13.0925 4.10294 2.17309 0.000898075 10
13.1017 4.10582 2.66884 0.000875735 10
13.0995 4.10515 3.16929 0.000849478 10
13.0872 4.10127 3.67486 0.0008196 10
9.01546 2.85987 -2.53431 0.000225672 4
11.2587 3.57147 -2.72692 0.000222752 1
13.3427 4.23255 -2.72092 0.000114579 1
13.6492 4.32978 -2.26799 0.00084612 10
13.6485 4.32956 -1.75812 0.00086354 10
27.5489 8.73901 -2.52857 6.69989e-05 10
27.5538 8.74058 0.504572 6.83158e-05 10
13.1197 4.16182 1.20419 0.000774575 10
13.0989 4.15521 1.68732 0.000763014 10
13.0994 4.15537 2.17663 0.000747803 10
13.105 4.15715 2.67245 0.000729119 10
13.1037 4.15675 3.1738 0.000707173 10
13.1096 4.15862 3.68522 0.000682216 10
9.01536 2.89451 -2.53711 0.000368508 4
11.2457 3.61059 -2.7268 0.000222756 1
13.3308 4.28006 -2.72153 0.000114582 1
13.7017 4.39912 -2.27924 0.000831512 10
13.6822 4.39289 -1.76443 0.000848651 10
27.6434 8.87533 0.506777 6.68135e-05 10
13.1475 4.22121 1.20809 0.000761378 10
13.1535 4.22312 1.69625 0.00075 10
13.1465 4.22087 2.18688 0.000735033 10
13.16 4.22522 2.68666 0.000716647 10
13.1437 4.21998 3.18703 0.000695052 10
13.1458 4.22065 3.6995 0.000670496 10
8.99815 2.92368 -2.53513 0.000251389 4
11.2303 3.64893 -2.72614 0.00022276 1
13.3316 4.33171 -2.72477 0.000114585 1
13.7301 4.46116 -2.28654 0.000817038 10
13.7412 4.46477 -1.77403 0.0008339 10
27.7186 9.00632 0.508729 6.53313e-05 10
13.7443 4.46579 1.26435 0.000660236 10
13.7351 4.46279 1.77324 0.000650251 10
13.8238 4.49164 2.30216 0.0003974 10
13.8214 4.49086 2.82488 0.000387319 10
13.8319 4.49427 3.35769 0.000375482 10
13.3387 4.334 3.75802 0.000268009 10
8.9923 2.95652 -2.53637 0.000179975 4
11.2012 3.68278 -2.72219 0.000222764 1
13.3034 4.37393 -2.7221 0.000114587 1
13.7749 4.52897 -2.29663 0.0008027 10
13.7867 4.53285 -1.78195 0.000819284 10
27.8068 9.14241 0.51093 6.38691e-05 10
13.775 4.52898 1.26862 0.000648676 10
13.7671 4.52639 1.77941 0.000638854 10
13.3198 4.37932 3.75698 0.000268004 10
8.98033 2.98736 -2.53592 0.000114272 4
11.197 3.72474 -2.72431 0.000222769 1
13.2835 4.41884 -2.72117 0.00011459 1
13.8314 4.60108 -2.3087 0.000788495 10
13.8244 4.59877 -1.78888 0.000804806 10
27.9071 9.28346 0.513366 6.24269e-05 10
13.8259 4.59928 1.27478 0.000637225 10
13.823 4.5983 1.78869 0.000627565 10
13.3111 4.42802 3.75887 0.000268 10
8.95583 3.01397 -2.53196 0.000114273 4
11.1684 3.75858 -2.72053 0.000222773 1
13.2761 4.4679 -2.72283 0.000114593 1
13.8564 4.66318 -2.31558 0.000774426 10
13.8715 4.66828 -1.79707 0.000790466 10
27.993 9.4207 0.515548 6.10045e-05 10
13.87 4.66778 1.28034 0.000625883 10
13.8544 4.6625 1.79485 0.000616383 10
13.3205 4.48284 3.76591 0.000624685 10
8.96883 3.05324 -2.53863 0.000551377 4
11.1782 3.80535 -2.72612 0.000222777 1
13.2576 4.51325 -2.72225 0.000114596 1
13.8962 4.73065 -2.32498 0.000760494 10
13.9175 4.7379 -1.80516 0.000776265 10
28.064 9.55377 0.517466 5.96022e-05 10
13.9027 4.73287 1.28488 0.000614649 10
13.9149 4.73701 1.80482 0.00060531 10
13.3677 4.55074 3.78373 0.000613502 10
8.95916 3.08488 -2.53892 0.000379971 4
11.1452 3.8376 -2.72134 0.000222781 1
13.2318 4.55607 -2.7202 0.000114598 1
13.9566 4.80562 -2.33787 0.000746699 10
13.9427 4.80084 -1.81059 0.000762203 10
28.1802 9.70323 0.52023 5.82198e-05 10
13.9566 4.80565 1.2914 0.000603527 10
13.9413 4.80036 1.81041 0.000594345 10
13.415 4.61915 3.80165 0.000602428 10
8.9228 3.10725 -2.53168 0.000434259 4
11.1525 3.88369 -2.7264 0.000222786 1
13.2196 4.60356 -2.72099 0.000114601 1
13.9841 4.86977 -2.34532 0.000733039 10
13.9883 4.87124 -1.81871 0.000748279 10
28.2461 9.83631 0.522076 5.68571e-05 10
13.9881 4.87118 1.29588 0.000592513 10
13.9804 4.86849 1.81768 0.000583488 10
14.0983 4.90953 2.36447 0.000356465 10
14.0861 4.90529 2.89933 0.000347356 10
14.0887 4.90619 3.4442 0.000336663 10
13.4564 4.68602 3.81801 0.000591463 10
9.59992 3.38066 -2.72713 0.000384536 1
11.137 3.92196 -2.72596 0.00022279 1
13.2216 4.65604 -2.72471 0.000114603 1
14.0455 4.94619 -2.3585 0.000719517 10
14.0349 4.94245 -1.827 0.000734495 10
28.3523 9.9844 0.52468 5.55143e-05 10
14.0335 4.94199 1.30168 0.00058161 10
14.0444 4.94581 1.82824 0.000572739 10
14.0499 4.94773 2.35923 0.000454849 10
14.0718 4.95546 2.89993 0.000443274 10
14.0665 4.95361 3.443 0.000429676 10
13.4896 4.75043 3.8321 0.000580607 10
9.58996 3.41483 -2.72767 0.000384542 1
11.1255 3.96162 -2.72651 0.000222794 1
13.2024 4.70116 -2.72413 0.000114606 1
14.0864 5.01594 -2.36829 0.000706133 10
14.0743 5.01162 -1.83439 0.000720852 10
14.2952 5.09028 -1.32759 0.000592739 10
14.2967 5.09082 -0.795341 0.000598927 10
14.301 5.09235 -0.264978 0.000602071 10
14.3011 5.09238 0.26498 0.000602135 10
14.2826 5.08581 0.794559 0.000599116 10
14.0715 5.01063 1.30682 0.000570818 10
14.0769 5.01257 1.83474 0.000562101 10
14.0363 4.9981 2.35987 0.000714845 10
14.0321 4.99661 2.89533 0.000696654 10
14.0263 4.99455 3.43741 0.000675285 10
13.5371 4.82033 3.85035 0.000569861 10
9.56662 3.4442 -2.72444 0.000384548 1
11.1134 4.00107 -2.72695 0.000222798 1
13.1842 4.74659 -2.72377 0.000114609 1
14.1376 5.08985 -2.37987 0.000692886 10
14.1286 5.08662 -1.84378 0.000707348 10
14.2365 5.12547 -1.3238 0.000599537 10
14.2474 5.12937 -0.79359 0.00060579 10
14.2284 5.12254 -0.263963 0.000608968 10
14.2243 5.12106 0.263886 0.000609031 10
14.2434 5.12793 0.793366 0.00060598 10
14.1253 5.08542 1.31345 0.000560136 10
14.1435 5.09198 1.84572 0.000551571 10
13.9926 5.03765 2.35546 0.000723019 10
13.9785 5.03258 2.88788 0.000704634 10
13.9786 5.03261 3.42999 0.000683037 10
13.5889 4.89232 3.86993 0.000559225 10
9.55009 3.47595 -2.72317 0.000384554 1
11.0836 4.03412 -2.72308 0.000222802 1
13.1549 4.788 -2.72117 0.000114611 1
14.1803 5.16122 -2.39009 0.00067978 10
14.1669 5.15634 -1.85112 0.000693986 10
14.1908 5.16504 -1.32122 0.000606357 10
14.1809 5.16142 -0.790886 0.000612677 10
14.1771 5.16003 -0.263343 0.000615887 10
14.1673 5.15649 0.263162 0.000615952 10
14.1715 5.158 0.790362 0.000612869 10
14.183 5.16219 1.32049 0.000549566 10
14.1806 5.16132 1.8529 0.000541152 10
13.9257 5.06852 2.34716 0.000731221 10
13.9349 5.0719 2.88252 0.000712642 10
13.9269 5.06899 3.42164 0.000690815 10
14.1735 5.15875 4.04152 0.000482429 10
9.55004 3.51373 -2.72663 0.00038456 1
11.0705 4.07314 -2.72332 0.000222806 1
13.1403 4.8347 -2.72162 0.000114614 1
14.2167 5.23072 -2.39927 0.00066681 10
14.2266 5.23437 -1.86129 0.000680764 10
14.2243 5.23353 -1.32603 0.000456674 10
14.2254 5.23394 -0.794384 0.000461396 10
14.2263 5.23428 -0.264596 0.000463774 10
14.2264 5.23431 0.264598 0.00046378 10
14.2184 5.23136 0.793993 0.000461412 10
14.2309 5.23594 1.32664 0.000539107 10
14.2262 5.23422 1.86124 0.000530842 10
13.8598 5.0994 2.33904 0.00073945 10
13.8782 5.10617 2.87444 0.000720675 10
13.8701 5.10319 3.41202 0.000698619 10
14.2103 5.22838 4.05719 0.000473166 10
9.53362 3.54552 -2.72546 0.000384566 1
11.0548 4.11126 -2.72299 0.00022281 1
13.1348 4.88478 -2.72399 0.000114617 1
14.2787 5.31021 -2.41286 0.00065398 10
14.2704 5.30713 -1.86944 0.000667684 10
14.3817 5.34852 -1.34243 0.00057718 10
14.3796 5.34771 -0.804027 0.000583225 10
14.3793 5.34762 -0.267787 0.000586297 10
14.3753 5.34612 0.267712 0.000586358 10
14.393 5.3527 0.804777 0.000583408 10
14.2623 5.30409 1.33128 0.00052876 10
14.2804 5.31084 1.87075 0.000520643 10
13.8201 5.13966 2.33536 0.000747704 10
13.8109 5.13621 2.8642 0.000728733 10
13.8206 5.13984 3.40425 0.000706447 10
14.2721 5.30774 4.08009 0.000464004 10
9.51762 3.57744 -2.72444 0.000384571 1
11.0453 4.15166 -2.7242 0.000222814 1
13.1198 4.93139 -2.72442 0.000114619 1
14.3302 5.38637 -2.42472 0.00064129 10
14.3207 5.38279 -1.87847 0.000654746 10
14.3219 5.38325 -1.3386 0.00058363 10
14.3342 5.38787 -0.802539 0.000589738 10
14.3235 5.38386 -0.267096 0.000592842 10
14.3225 5.38347 0.267077 0.000592903 10
14.3351 5.38821 0.802589 0.000589922 10
14.3223 5.3834 1.33863 0.000518525 10
14.3317 5.38694 1.87992 0.000510555 10
13.7783 5.17894 2.33134 0.000755982 10
13.7683 5.17517 2.8591 0.000736816 10
13.7612 5.17249 3.39404 0.000714299 10
14.3202 5.38262 4.0992 0.000454942 10
9.49453 3.60663 -2.72142 0.000384577 1
11.0278 4.18905 -2.72346 0.000222818 1
13.0832 4.96985 -2.72042 0.000114622 1
14.3756 5.46079 -2.43562 0.000628739 10
14.3804 5.46258 -1.88879 0.00064195 10
14.3788 5.46199 -1.34569 0.000430663 10
14.3534 5.45234 -0.804673 0.000435135 10
14.3567 5.45358 -0.268068 0.000437387 10
14.3645 5.45656 0.268214 0.000437392 10
14.3544 5.45272 0.80473 0.00043515 10
14.3612 5.45531 1.34404 0.000508402 10
14.3691 5.4583 1.88731 0.000500577 10
13.7989 5.2417 2.3379 0.000557533 10
13.8166 5.24843 2.87292 0.000543331 10
13.7912 5.23877 3.40592 0.000526656 10
14.3638 5.45631 4.11711 0.000445981 10
9.49063 3.64311 -2.72393 0.000384583 1
11.0068 4.2251 -2.7219 0.000222822 1
13.075 5.01901 -2.72233 0.000114624 1
14.405 5.52957 -2.44385 0.000616328 10
14.4263 5.53775 -1.89735 0.000629296 10
14.5259 5.57596 -1.36126 0.000555989 10
14.5172 5.57262 -0.814941 0.000561835 10
14.5265 5.57621 -0.271601 0.000564806 10
14.5369 5.58017 0.271794 0.000564864 10
14.5222 5.57456 0.815225 0.000562011 10
14.4195 5.53514 1.3513 0.000498391 10
14.4262 5.53769 1.89733 0.00049071 10
14.4171 5.53419 2.44589 0.000480609 10
14.4077 5.53058 2.99981 0.000468208 10
14.4071 5.53036 3.56277 0.000453655 10
14.4138 5.53295 4.13695 0.00043712 10
9.4678 3.67232 -2.72104 0.000384589 1
10.9922 4.26358 -2.72195 0.000222826 1
13.0503 5.06186 -2.72085 0.000114627 1
14.4642 5.61028 -2.45719 0.000604057 10
14.462 5.60944 -1.90461 0.000616784 10
14.4819 5.61717 -1.35898 0.000562092 10
14.4644 5.61037 -0.813073 0.000567999 10
14.4626 5.60968 -0.270771 0.000570999 10
14.4773 5.61536 0.271045 0.000571058 10
14.4692 5.61222 0.813341 0.000568175 10
14.4636 5.61008 1.35726 0.000488493 10
14.4578 5.6078 1.90405 0.000480954 10
14.4755 5.61468 2.45912 0.000471041 10
14.4508 5.60509 3.01284 0.00045887 10
14.4544 5.60648 3.57929 0.000444587 10
14.4748 5.6144 4.16005 0.00042836 10
9.47226 3.71214 -2.72603 0.000384594 1
10.9899 4.30689 -2.72509 0.00022283 1
13.0409 5.11066 -2.7226 0.000114629 1
14.5043 5.68419 -2.46737 0.000591925 10
14.5157 5.68865 -1.91429 0.000604415 10
14.5019 5.68325 -1.36271 0.000405508 10
14.5108 5.68674 -0.816795 0.000409737 10
14.5262 5.69274 -0.272331 0.000411866 10
14.5071 5.68525 0.271972 0.000411871 10
14.5147 5.68824 0.817011 0.000409751 10
14.5255 5.69248 1.36492 0.000478707 10
14.5093 5.68613 1.91344 0.000471309 10
14.5035 5.68387 2.46724 0.000461581 10
14.5233 5.69163 3.0321 0.000449638 10
14.5007 5.68277 3.59566 0.000435623 10
14.5107 5.68668 4.17604 0.000419701 10
9.45282 3.74263 -2.72418 0.0003846 1
10.9804 4.34747 -2.7265 0.000222834 1
13.0306 5.15917 -2.72419 0.000114632 1
14.5519 5.76149 -2.47886 0.000579934 10
14.5656 5.76691 -1.9235 0.000592189 10
14.6738 5.80979 -1.38076 0.000535871 10
14.6764 5.8108 -0.82725 0.000541529 10
14.6757 5.81053 -0.275514 0.000544404 10
14.6693 5.80797 0.275392 0.00054446 10
14.6719 5.80902 0.826997 0.000541697 10
14.5618 5.76543 1.37021 0.000469034 10
14.5659 5.76703 1.92354 0.000461775 10
14.5701 5.76871 2.48197 0.00045223 10
14.55 5.76077 3.04185 0.000440513 10
14.5738 5.77019 3.61876 0.000426763 10
14.5593 5.76445 4.19581 0.000411143 10
9.44564 3.77799 -2.72589 0.000384605 1
10.9572 4.38257 -2.72451 0.000222838 1
13.0157 5.20591 -2.72486 0.000114634 1
14.6224 5.84855 -2.49435 0.000568084 10
14.6104 5.84373 -1.9321 0.000580105 10
14.6113 5.84409 -1.37678 0.000389216 10
14.6034 5.84093 -0.824277 0.000393286 10
14.6251 5.84962 -0.274945 0.000395335 10
14.62 5.84757 0.274848 0.00039534 10
14.6152 5.84566 0.824945 0.0003933 10
14.6234 5.84893 1.37792 0.000459474 10
14.6216 5.84821 1.93358 0.000452353 10
14.612 5.8444 2.49257 0.00044299 10
14.6077 5.84267 3.05815 0.000431496 10
14.6247 5.84947 3.63644 0.000418008 10
14.6256 5.84981 4.22075 0.000402686 10
9.43632 3.81252 -2.72702 0.000384611 1
10.9427 4.42113 -2.72472 0.000222842 1
12.9914 5.24885 -2.72359 0.000114637 1
14.6532 5.92027 -2.5031 0.000556373 10
14.6599 5.92298 -1.94137 0.000568164 10
14.8711 6.00832 -1.40323 0.00051129 10
14.8708 6.00821 -0.840553 0.000516713 10
14.8505 5.99997 -0.279573 0.000519468 10
14.8646 6.00568 0.279839 0.000519522 10
14.859 6.00342 0.839884 0.000516873 10
14.662 5.92381 1.38349 0.000450027 10
14.6671 5.9259 1.94233 0.000443042 10
14.6684 5.92643 2.50571 0.000433859 10
14.6564 5.92155 3.07265 0.000422585 10
14.6549 5.92098 3.64907 0.000409357 10
14.6564 5.92157 4.23559 0.000394331 10
9.40649 3.83872 -2.72226 0.000384616 1
10.9299 4.46043 -2.72541 0.000222845 1
12.9758 5.29533 -2.72418 0.000114639 1
14.7226 6.00817 -2.51852 0.000544804 10
14.7295 6.011 -1.95336 0.000556367 10
14.8014 6.04033 -1.39863 0.000516747 10
14.793 6.03692 -0.837342 0.000522224 10
14.8129 6.04503 -0.279262 0.000525006 10
14.817 6.04671 0.279339 0.000525061 10
14.8158 6.0462 0.838628 0.000522386 10
14.7266 6.0098 1.39156 0.000440693 10
14.7174 6.00608 1.95176 0.000433843 10
14.7153 6.00519 2.51727 0.000424837 10
14.7177 6.00619 3.08988 0.000413782 10
14.7194 6.00687 3.67032 0.000400811 10
14.702 5.99978 4.2548 0.000386077 10
9.3982 3.87366 -2.72376 0.000384622 1
10.9071 4.49558 -2.72361 0.000222849 1
12.9442 5.33523 -2.72145 0.000114641 1
14.7812 6.09237 -2.53218 0.000533376 10
14.7602 6.0837 -1.96023 0.000544713 10
14.7674 6.08668 -1.39742 0.000365495 10
14.7689 6.08731 -0.837175 0.000369334 10
14.7701 6.08779 -0.278854 0.000371267 10
14.766 6.08612 0.278777 0.000371272 10
14.7621 6.08451 0.83679 0.000369348 10
14.7761 6.09027 1.39825 0.000431472 10
14.7643 6.0854 1.96078 0.000424756 10
14.769 6.08732 2.53008 0.000415926 10
14.7791 6.09149 3.10721 0.000405087 10
14.76 6.08362 3.68571 0.000392369 10
14.7707 6.08802 4.28079 0.000377925 10
9.40001 3.91284 -2.72822 0.000384627 1
10.8955 4.53534 -2.72464 0.000222853 1
12.9292 5.38191 -2.72222 0.000114644 1
14.8155 6.16712 -2.54173 0.000522087 10
14.8091 6.16442 -1.96957 0.000533201 10
14.9924 6.24074 -1.42077 0.000493371 10
14.9896 6.23957 -0.850914 0.000498625 10
14.9952 6.24189 -0.283513 0.000501293 10
14.9891 6.23938 0.283398 0.000501345 10
14.985 6.23765 0.850652 0.000498779 10
14.8092 6.16449 1.40341 0.000422364 10
14.8232 6.17032 1.97145 0.00041578 10
14.8158 6.16722 2.54177 0.000407123 10
14.8273 6.17201 3.12186 0.000396498 10
14.8084 6.16415 3.70316 0.000384032 10
14.822 6.16982 4.3019 0.000369873 10
9.37694 3.9417 -2.72551 0.000384633 1
10.8695 4.5691 -2.72211 0.000222857 1
12.9051 5.4248 -2.72112 0.000114646 1
14.8707 6.25106 -2.55492 0.00051094 10
14.861 6.24697 -1.97936 0.000521833 10
14.9416 6.28087 -1.41802 0.000498541 10
14.9342 6.27774 -0.849005 0.000503845 10
14.928 6.27517 -0.282656 0.00050654 10
14.9397 6.28005 0.282876 0.000506592 10
14.9415 6.28082 0.849421 0.000504001 10
14.8589 6.24611 1.41017 0.000413369 10
14.8753 6.253 1.98127 0.000406915 10
14.8756 6.25313 2.55577 0.000398431 10
14.8592 6.24622 3.13314 0.000388017 10
14.8838 6.25655 3.72744 0.000375799 10
14.8639 6.24821 4.32035 0.000361922 10
9.34671 3.96744 -2.72073 0.000384638 1
10.8696 4.61388 -2.72617 0.000222861 1
12.8967 5.4743 -2.72335 0.000114649 1
14.9148 6.33095 -2.56628 0.000499933 10
14.9207 6.33344 -1.99024 0.000510608 10
14.9127 6.33008 -1.41737 0.000342636 10
14.9141 6.33064 -0.849113 0.000346251 10
14.9346 6.33934 -0.283197 0.000348072 10
14.9317 6.33812 0.283142 0.000348076 10
14.9179 6.33228 0.849333 0.000346264 10
14.9168 6.33182 1.41776 0.000404487 10
14.936 6.33995 1.99229 0.000398162 10
14.9269 6.3361 2.56836 0.000389848 10
14.9155 6.33127 3.14967 0.000379643 10
14.9267 6.33602 3.74372 0.000367671 10
14.93 6.3374 4.34596 0.000354074 10
9.34958 4.00723 -2.72562 0.000384644 1
10.8401 4.64606 -2.72281 0.000222864 1
12.8719 5.51689 -2.72217 0.000114651 1
14.9865 6.42322 -2.58246 0.000489067 10
14.967 6.41485 -1.99939 0.000499526 10
15.1261 6.48305 -1.43979 0.000476288 10
15.1271 6.4835 -0.862527 0.000481379 10
15.1146 6.47812 -0.287037 0.000483966 10
15.1275 6.48366 0.287283 0.000484015 10
15.1085 6.4755 0.861464 0.000481528 10
14.98 6.42043 1.42588 0.000395718 10
14.9855 6.42279 2.00187 0.000389521 10
14.9878 6.42377 2.58268 0.000381375 10
14.985 6.42258 3.16906 0.000371376 10
14.9816 6.42112 3.76308 0.000359646 10
14.9828 6.42164 4.36784 0.000346326 10
9.33301 4.03876 -2.72488 0.000384649 1
10.8342 4.68836 -2.72542 0.000222868 1
12.8589 5.56456 -2.72352 0.000114653 1
15.0357 6.50654 -2.59484 0.00047834 10
15.0228 6.50094 -2.00987 0.000488587 10
15.0759 6.52393 -1.43717 0.000481187 10
15.0562 6.5154 -0.859774 0.000486327 10
15.0629 6.51832 -0.286487 0.000488938 10
15.0753 6.52368 0.286722 0.000488988 10
15.0492 6.51237 0.859375 0.000486477 10
15.0318 6.50486 1.43297 0.000387062 10
15.0263 6.50248 2.01035 0.000380991 10
15.0453 6.51067 2.59649 0.00037301 10
15.0416 6.50907 3.1858 0.000363217 10
15.0378 6.50745 3.78288 0.000351727 10
15.0306 6.50432 4.38836 0.000338679 10
9.30429 4.06494 -2.72062 0.000384654 1
10.7976 4.71736 -2.72035 0.000222872 1
12.8399 5.6096 -2.72361 0.000114656 1
15.0937 6.59426 -2.60879 0.000467755 10
15.1025 6.59813 -2.02361 0.000477791 10
15.082 6.58916 -1.43993 0.000320638 10
15.0808 6.58865 -0.862489 0.000324037 10
15.0836 6.58985 -0.287315 0.000325749 10
15.0938 6.59432 0.28751 0.000325754 10
15.094 6.59442 0.863244 0.00032405 10
15.0949 6.5948 1.44117 0.000378519 10
15.1016 6.59773 2.02348 0.000372573 10
15.0832 6.58967 2.60698 0.000364757 10
15.0816 6.589 3.19914 0.000355164 10
15.0999 6.597 3.80427 0.000343911 10
15.0915 6.59329 4.41282 0.000331134 10
9.29395 4.09912 -2.72177 0.00038466 1
10.7833 4.75601 -2.72091 0.000222875 1
12.8054 5.64784 -2.72046 0.000114658 1
15.15 6.68196 -2.62255 0.00045731 10
15.1452 6.67982 -2.03243 0.000467138 10
15.2494 6.72581 -1.45816 0.000459982 10
15.2482 6.72524 -0.873397 0.000464918 10
15.2505 6.72628 -0.290941 0.000467425 10
15.2455 6.72405 0.290844 0.000467472 10
15.2544 6.72797 0.873751 0.00046506 10
15.1427 6.67871 1.44794 0.000370088 10
15.1463 6.6803 2.03258 0.000364266 10
15.1496 6.68176 2.62247 0.000356612 10
15.1319 6.67397 3.21473 0.000347219 10
15.1448 6.67965 3.82143 0.0003362 10
15.1321 6.67406 4.4315 0.000323689 10
9.28494 4.13392 -2.72334 0.000384665 1
10.7756 4.7976 -2.72317 0.000222879 1
12.7952 5.6968 -2.72252 0.00011466 1
15.1898 6.76293 -2.6335 0.000447006 10
15.1894 6.76275 -2.04152 0.000456628 10
15.2073 6.77071 -1.45637 0.000306452 10
15.1967 6.76602 -0.871799 0.000309711 10
15.2103 6.77207 -0.290623 0.000311353 10
15.191 6.76347 0.290254 0.000311357 10
15.2087 6.77135 0.872485 0.000309723 10
15.2021 6.76839 1.45587 0.000361772 10
15.2138 6.77362 2.0448 0.000356071 10
15.2012 6.76801 2.63548 0.000348577 10
15.2011 6.76796 3.23442 0.000339381 10
15.2077 6.77089 3.84323 0.000328594 10
15.1885 6.76234 4.45488 0.000316346 10
9.28641 4.17348 -2.72802 0.00038467 1
10.764 4.83752 -2.72449 0.000222883 1
12.7646 5.73665 -2.72025 0.000114663 1
15.2504 6.8538 -2.64814 0.000436841 10
15.251 6.85408 -2.05301 0.00044626 10
15.4151 6.9278 -1.47858 0.000440004 10
15.4328 6.93576 -0.886722 0.000444746 10
15.4174 6.92886 -0.29504 0.000447156 10
15.4125 6.92666 0.294946 0.000447201 10
15.4242 6.93193 0.886232 0.000444883 10
15.2716 6.86332 1.46482 0.000353567 10
15.2638 6.85982 2.05473 0.000530095 10
15.257 6.85674 2.64928 0.000518968 10
15.2439 6.85087 3.2486 0.000505302 10
15.2617 6.85888 3.86292 0.000489262 10
15.2682 6.86178 4.48525 0.000309103 10
9.24647 4.19438 -2.72058 0.000384675 1
10.7415 4.87258 -2.7231 0.000222886 1
12.7544 5.78567 -2.72236 0.000114665 1
15.3173 6.94823 -2.66396 0.000426817 10
15.3217 6.95024 -2.06578 0.000436035 10
15.3496 6.9629 -1.47463 0.000444398 10
15.3551 6.96538 -0.883651 0.000449184 10
15.3629 6.96893 -0.294461 0.000451616 10
15.3573 6.96639 0.294353 0.000451662 10
15.3548 6.96526 0.883636 0.000449322 10
15.308 6.94403 1.47063 0.000345474 10
15.1918 6.89132 2.04827 0.000535376 10
15.2015 6.89569 2.64381 0.000524146 10
15.1936 6.89213 3.24299 0.000510353 10
15.2052 6.89737 3.85468 0.000494164 10
15.327 6.95264 4.50965 0.000301961 10
9.24188 4.23126 -2.72355 0.00038468 1
10.7235 4.90959 -2.72285 0.00022289 1
12.7245 5.82572 -2.72029 0.000114667 1
15.3638 7.03408 -2.67629 0.000416931 10
15.3632 7.03382 -2.07467 0.000425951 10
15.3725 7.0381 -1.47918 0.000285886 10
15.371 7.03739 -0.885975 0.000288942 10
15.3644 7.03437 -0.294958 0.000290481 10
15.3801 7.04155 0.295259 0.000290485 10
15.3783 7.04072 0.886394 0.000288953 10
15.3629 7.03369 1.47825 0.000337494 10
15.1436 6.93326 2.04501 0.000540665 10
15.1415 6.93231 2.63757 0.000529332 10
15.1328 6.92831 3.23514 0.000515412 10
15.1409 6.93204 3.84449 0.000499074 10
15.3681 7.03607 4.52894 0.000294919 10
9.22769 4.26379 -2.72374 0.000384685 1
10.6958 4.94217 -2.72019 0.000222893 1
12.725 5.87975 -2.72477 0.000114669 1
15.4338 7.1314 -2.6928 0.000407185 10
15.446 7.13704 -2.0892 0.000416009 10
15.5307 7.17618 -1.4968 0.000425322 10
15.5356 7.17846 -0.896902 0.000429923 10
15.5292 7.1755 -0.298601 0.000432261 10
15.5315 7.17654 0.298644 0.000432305 10
15.5251 7.17361 0.896296 0.000430055 10
15.4263 7.12793 1.48673 0.000329626 10
15.0685 6.96262 2.03814 0.000545962 10
15.0893 6.97222 2.6327 0.000534526 10
15.0851 6.97027 3.23013 0.000520479 10
15.0801 6.96796 3.8352 0.000503991 10
15.4341 7.13157 4.5557 0.000287978 10
9.22031 4.2995 -2.72598 0.00038469 1
10.6894 4.98455 -2.72296 0.000222897 1
12.6915 5.91813 -2.72201 0.000114672 1
15.488 7.22216 -2.70665 0.000397578 10
15.5053 7.23024 -2.10063 0.00040621 10
15.4985 7.22709 -1.49612 0.000272651 10
15.5054 7.23027 -0.896607 0.000275575 10
15.4813 7.21903 -0.298162 0.000277048 10
15.5039 7.22961 0.298599 0.000277052 10
15.4991 7.22734 0.896243 0.000275586 10
15.4866 7.22151 1.49497 0.00032187 10
15.0126 7.00048 2.03387 0.000551266 10
15.0161 7.00212 2.62418 0.000539727 10
15.0221 7.00494 3.22187 0.000525552 10
15.0254 7.00646 3.8275 0.000508915 10
15.4838 7.22022 4.57778 0.000281136 10
9.20958 4.3337 -2.72726 0.000384695 1
10.6672 5.01961 -2.72176 0.0002229 1
12.6747 5.96425 -2.72285 0.000114674 1
15.5475 7.31608 -2.72149 4.93595e-05 1
15.5557 7.31997 -2.1109 0.000396551 10
15.7092 7.39219 -1.51894 0.000407311 10
15.7073 7.39129 -0.90977 0.000411737 10
15.7125 7.39373 -0.303111 0.000413985 10
15.7083 7.39177 0.30303 0.000414028 10
15.7043 7.3899 0.909599 0.000411863 10
15.5632 7.32348 1.50482 0.000314226 10
14.9516 7.03567 2.02892 0.000556577 10
14.9715 7.04505 2.62067 0.000544933 10
14.9557 7.03763 3.21288 0.000530632 10
14.9523 7.03602 3.8151 0.000513846 10
15.5454 7.31512 4.60351 0.000274394 10
9.17956 4.35878 -2.72286 0.0003847 1
10.6559 5.05979 -2.72336 0.000222904 1
12.6459 6.00471 -2.72115 0.000114676 1
15.5094 7.36441 -2.71931 4.93608e-05 1
15.6095 7.41192 -2.12169 0.000387033 10
15.6428 7.42773 -1.51501 0.000411257 10
15.6506 7.43146 -0.907985 0.000415723 10
15.6348 7.42397 -0.302111 0.000417991 10
15.6336 7.42337 0.302086 0.000418034 10
15.6564 7.43421 0.90832 0.00041585 10
15.6077 7.4111 1.51162 0.000306693 10
14.9905 7.11802 2.03756 0.000345189 10
14.996 7.12064 2.6293 0.000337928 10
14.9989 7.12201 3.22748 0.000329019 10
14.9897 7.11765 3.83097 0.000318568 10
15.6113 7.4128 4.63067 0.000267753 10
9.17406 4.39547 -2.72576 0.000384705 1
10.6496 5.10241 -2.72627 0.000222907 1
12.6171 6.04512 -2.71949 0.000114678 1
15.4835 7.41844 -2.71929 4.9362e-05 1
15.6644 7.50513 -2.13271 0.000377656 10
15.6841 7.51457 -1.52155 0.000253507 10
15.6807 7.51294 -0.911246 0.000256241 10
15.681 7.51309 -0.303508 0.000257618 10
15.6625 7.50423 0.30315 0.000257621 10
15.6792 7.51223 0.91116 0.000256251 10
15.6841 7.51456 1.52155 0.000299271 10
15.0521 7.21175 2.04934 0.000336928 10
15.0668 7.21878 3.85708 0.000310902 10
15.678 7.51165 4.65819 0.00026121 10
9.15324 4.42484 -2.72415 0.00038471 1
10.6318 5.13963 -2.72632 0.000222911 1
12.6165 6.09905 -2.72392 0.000114681 1
15.4592 7.47329 -2.7196 4.93632e-05 1
15.7307 7.60451 -2.14534 0.000368421 10
15.7401 7.60903 -1.52954 0.000374421 10
15.7408 7.6094 -0.916276 0.000378466 10
15.7413 7.60964 -0.305187 0.000380503 10
15.7334 7.60582 0.305033 0.000380508 10
15.7249 7.60169 0.915348 0.000378481 10
15.7462 7.61201 1.53014 0.000291961 10
15.1314 7.31479 2.0636 0.00032879 10
15.1191 7.30884 3.87698 0.000303349 10
15.7352 7.60667 4.68304 0.000254767 10
9.14591 4.46076 -2.72659 0.000384715 1
10.5909 5.16553 -2.72043 0.000222914 1
12.5744 6.13294 -2.71944 0.000114683 1
15.4303 7.52588 -2.71912 4.93645e-05 1
15.8085 7.71029 -2.1596 0.000359324 10
15.7913 7.70195 -1.53713 0.000365188 10
15.7999 7.70612 -0.921276 0.000369139 10
15.7923 7.70242 -0.306695 0.00037113 10
15.7883 7.70048 0.306618 0.000371135 10
15.8086 7.71035 0.921782 0.000369154 10
15.808 7.71009 1.53876 0.000284761 10
15.1815 7.40452 2.07395 0.000320772 10
15.9068 7.75826 2.80308 0.000170713 10
15.9072 7.75847 3.44022 0.000166121 10
15.796 7.70424 4.05744 0.000258213 10
15.7997 7.70603 4.71022 0.000248422 10
9.13038 4.4927 -2.72662 0.00038472 1
10.5972 5.21448 -2.72671 0.000222917 1
12.5539 6.17729 -2.71966 0.000114685 1
15.4045 7.57994 -2.71921 4.93656e-05 1
15.872 7.80996 -2.17198 0.000350367 10
15.8558 7.80204 -1.54605 0.000356095 10
15.8591 7.80363 -0.92631 0.000359955 10
15.8735 7.81071 -0.308799 0.0003619 10
15.8657 7.80689 0.308648 0.000361905 10
15.8756 7.81177 0.927276 0.00035997 10
15.8614 7.80477 1.54659 0.000277671 10
15.2339 7.496 2.08467 0.000312876 10
15.9141 7.8307 2.80916 0.000277978 10
15.9072 7.82729 3.4461 0.000270522 10
15.8663 7.80718 4.08246 0.000251739 10
15.8669 7.80747 4.73834 0.000242176 10
9.0943 4.51445 -2.72053 0.000384725 1
10.5547 5.23939 -2.72045 0.000222921 1
12.5549 6.2323 -2.72456 0.000114687 1
15.3892 7.63926 -2.7212 4.93668e-05 1
15.9195 7.90253 -2.18226 0.000341549 10
25.2963 12.5572 -2.47081 9.88681e-05 10
31.9027 15.8366 -1.86662 3.49471e-05 10
15.8734 7.87961 1.55043 0.00045335 10
15.2909 7.59046 2.09608 0.0003051 10
15.8793 7.88254 2.80786 0.000436566 10
15.8659 7.87589 3.44309 0.000424858 10
15.8842 7.88496 4.09411 0.000411123 10
15.8794 7.88258 4.75026 0.000395529 10
9.07826 4.54605 -2.72046 0.00038473 1
10.5411 5.27861 -2.7217 0.000222924 1
12.5217 6.27041 -2.7221 0.000114689 1
15.3626 7.69301 -2.72123 4.9368e-05 1
16.0021 8.01326 -2.1974 0.00033287 10
25.0209 12.5295 -2.44817 0.000103185 10
25.0211 12.5296 -1.46653 0.000104524 10
25.0032 12.5207 -0.488095 0.000105205 10
25.0157 12.5269 0.488339 0.000105218 10
15.8077 7.9159 1.54671 0.000457567 10
15.3512 7.6873 2.10801 0.000297444 10
15.8047 7.91438 2.79953 0.000440639 10
15.8216 7.92287 3.43946 0.000428829 10
15.8076 7.91588 4.08149 0.000414975 10
15.814 7.91904 4.73894 0.000399246 10
9.0775 4.58537 -2.72501 0.000384734 1
10.518 5.31303 -2.72049 0.000222927 1
12.5039 6.31619 -2.72301 0.000114691 1
15.3351 7.7463 -2.72112 4.93692e-05 1
16.0513 8.10808 -2.20802 0.000324329 10
24.9204 12.5882 -2.44263 0.000104315 10
24.9096 12.5827 -1.46255 0.000105667 10
24.9273 12.5917 -0.487469 0.000106355 10
24.9131 12.5845 0.48719 0.000106368 10
15.7513 7.95656 1.5439 0.000461788 10
15.4177 7.78804 2.12087 0.000289909 10
15.7685 7.96526 2.79804 0.000444715 10
15.7685 7.96523 3.43394 0.000432803 10
15.7545 7.95815 4.07491 0.000418829 10
15.767 7.96447 4.73316 0.000402965 10
9.0509 4.61166 -2.72184 0.000384739 1
10.5111 5.35569 -2.72353 0.000222931 1
12.4755 6.35659 -2.72164 0.000114693 1
15.3031 7.7973 -2.72026 4.93704e-05 1
16.129 8.21815 -2.22265 0.000315926 10
24.8209 12.6469 -2.43718 0.000105447 10
24.8217 12.6473 -1.45998 0.000106813 10
24.8266 12.6498 -0.48636 0.000107507 10
24.8223 12.6476 0.486276 0.00010752 10
15.6851 7.99196 1.54013 0.00046601 10
15.4867 7.89085 2.13413 0.000282492 10
15.7079 8.00358 2.79222 0.000448792 10
15.709 8.00413 3.42705 0.000436779 10
15.7041 8.00161 4.06907 0.000422686 10
15.6942 7.99657 4.71965 0.000406686 10
9.05412 4.65319 -2.72768 0.000384744 1
10.4817 5.38689 -2.72078 0.000222934 1
12.4518 6.39934 -2.72131 0.000114695 1
15.2869 7.85641 -2.72225 4.93715e-05 1
16.1941 8.32262 -2.2356 0.00030766 10
24.7222 12.7055 -2.43183 0.000106581 10
24.7336 12.7113 -1.4574 0.000107961 10
24.7349 12.712 -0.485431 0.000108662 10
24.721 12.7049 0.485157 0.000108675 10
15.6326 8.03405 1.53772 0.000470235 10
15.6399 8.03784 2.1591 0.000462738 10
15.6468 8.04137 2.78634 0.000452871 10
15.6285 8.03197 3.41558 0.000440757 10
15.6403 8.03804 4.0598 0.000426545 10
15.6257 8.03051 4.70746 0.000410409 10
9.03092 4.68118 -2.7256 0.000384749 1
10.4694 5.42681 -2.72247 0.000222937 1
12.4244 6.44018 -2.72022 0.000114697 1
15.2411 7.90025 -2.71899 4.93727e-05 1
16.2465 8.42139 -2.24689 0.000299532 10
24.625 12.7644 -2.42664 0.000107717 10
24.6337 12.7689 -1.45413 0.00010911 10
24.6374 12.7708 -0.484389 0.000109819 10
24.6324 12.7682 0.484289 0.000109832 10
15.6089 8.09089 1.53816 0.000272383 10
15.6342 8.10401 2.16221 0.000268016 10
15.6161 8.0946 2.78587 0.000262277 10
15.6283 8.10091 3.42169 0.000255237 10
15.6292 8.1014 4.06423 0.000246982 10
15.6166 8.09488 4.71321 0.000237614 10
9.00125 4.70574 -2.72158 0.000384753 1
10.4651 5.47101 -2.7263 0.00022294 1
12.4142 6.49001 -2.72295 0.0001147 1
15.2104 7.95181 -2.71844 4.93739e-05 1
16.3331 8.53874 -2.26297 0.000291539 10
16.6224 8.69 -1.64102 4.9239e-05 10
24.6375 12.8802 -1.457 6.22005e-05 10
24.6604 12.8921 -0.485721 6.25984e-05 10
24.6448 12.884 0.485415 6.25995e-05 10
15.6851 8.19996 1.54848 0.000265216 10
15.6782 8.19638 2.17224 0.000260956 10
15.6774 8.19594 2.8019 0.000255357 10
15.6945 8.20487 3.44243 0.000248489 10
15.6802 8.19742 4.08491 0.000240437 10
15.6994 8.20745 4.74681 0.0002313 10
8.9976 4.74389 -2.72547 0.000384758 1
10.4245 5.49624 -2.72072 0.000222944 1
12.3867 6.53078 -2.7219 0.000114702 1
15.1876 8.00749 -2.71934 4.9375e-05 1
16.3955 8.64434 -2.27578 0.000283681 10
16.5912 8.74757 -1.64094 4.9241e-05 10
24.7541 13.0514 -1.46658 6.02511e-05 10
24.7664 13.0578 -0.488705 6.06375e-05 10
24.7464 13.0473 0.488311 6.06386e-05 10
15.767 8.31297 1.55942 0.000258168 10
15.7471 8.30248 2.18578 0.000254012 10
15.7564 8.30738 2.82118 0.000248552 10
15.7538 8.30606 3.46179 0.000241854 10
15.7642 8.31153 4.11433 0.000234002 10
15.7436 8.30067 4.76892 0.000225093 10
8.9873 4.77863 -2.72739 0.000384762 1
10.4144 5.53744 -2.7231 0.000222947 1
12.365 6.57458 -2.72215 0.000114704 1
15.1628 8.0622 -2.71992 4.93761e-05 1
16.4595 8.75166 -2.28889 0.000275959 10
16.5656 8.80809 -1.64144 4.92431e-05 10
30.9363 16.4491 -1.83624 3.84275e-05 10
15.8355 8.4199 1.56909 0.000251238 10
15.8183 8.41072 2.19972 0.000247187 10
15.8275 8.41561 2.83916 0.000241862 10
15.8205 8.41191 3.48287 0.000235332 10
15.8165 8.40981 4.13562 0.000227677 10
15.8174 8.41027 4.80013 0.000218991 10
8.9481 4.79793 -2.72056 0.000384767 1
10.3975 5.57509 -2.72375 0.00022295 1
12.3323 6.61251 -2.72001 0.000114706 1
15.1296 8.11242 -2.71903 4.93772e-05 1
16.542 8.86971 -2.30465 0.00026837 10
16.5411 8.86926 -1.64207 0.000272845 10
30.8283 16.53 -1.83324 3.88677e-05 10
15.8902 8.52022 1.57745 0.000244427 10
15.8836 8.51672 2.21293 0.000240478 10
15.8965 8.52363 2.85686 0.000235287 10
15.8828 8.51626 3.5031 0.000228922 10
15.882 8.51587 4.16049 0.00022146 10
15.8838 8.5168 4.82926 0.000212994 10
8.94103 4.83439 -2.72352 0.000384771 1
10.3665 5.60515 -2.72074 0.000222953 1
12.3181 6.66039 -2.722 0.000114708 1
15.1126 8.17133 -2.72108 4.93783e-05 1
16.619 8.98588 -2.31974 0.000260916 10
16.6014 8.97634 -1.65115 0.000265276 10
30.7073 16.6034 -1.82948 3.9309e-05 10
15.9669 8.63325 1.58804 0.000237733 10
15.9591 8.62906 2.22763 0.000233884 10
15.9638 8.6316 2.87435 0.000228826 10
15.9551 8.62687 3.52567 0.000222623 10
15.9559 8.62731 4.1877 0.000215352 10
15.9546 8.6266 4.85991 0.000207103 10
8.92821 4.86782 -2.72478 0.000384776 1
10.3597 5.6483 -2.72412 0.000222956 1
12.3006 6.70651 -2.72328 0.00011471 1
15.0887 8.2266 -2.72193 4.93794e-05 1
16.6786 9.09346 -2.33248 0.000253594 10
16.6815 9.09506 -1.66227 0.000257841 10
30.5851 16.6755 -1.82566 3.97512e-05 10
16.0256 8.73743 1.59691 0.000231157 10
16.029 8.73932 2.24164 0.000227407 10
16.0334 8.74169 2.89236 0.000222479 10
16.0303 8.74002 3.54902 0.000216436 10
16.0266 8.73797 4.21424 0.000209352 10
16.0395 8.74503 4.89506 0.000201316 10
8.91181 4.89931 -2.72497 0.00038478 1
10.326 5.67678 -2.72045 0.000222959 1
12.2673 6.74399 -2.7211 0.000114711 1
15.0645 8.28176 -2.72276 4.93805e-05 1
16.7681 9.21834 -2.34948 0.000246405 10
16.7509 9.20891 -1.67238 0.00025054 10
30.4828 16.7581 -1.82303 4.01942e-05 10
16.1086 8.85578 1.60825 0.000224697 10
16.1123 8.85779 2.25758 0.000221044 10
16.0934 8.84742 2.90874 0.000216244 10
16.0926 8.84699 3.56963 0.000210358 10
16.1085 8.85575 4.24389 0.000203459 10
16.1024 8.85236 4.92364 0.000195633 10
8.89703 4.93171 -2.7257 0.000384785 1
10.32 5.72046 -2.72411 0.000222962 1
12.2513 6.791 -2.72279 0.000114713 1
15.0129 8.32181 -2.71869 4.93816e-05 1
16.8409 9.33505 -2.36423 0.000239347 10
16.8347 9.33164 -1.68399 0.000243373 10
30.3664 16.8324 -1.81958 4.0638e-05 10
16.1691 8.96267 1.6174 0.000218353 10
16.1763 8.96665 2.27092 0.000214796 10
16.1617 8.95857 2.92671 0.000210122 10
16.1697 8.96301 3.59364 0.000204391 10
16.1709 8.96369 4.26854 0.000197673 10
16.1761 8.96653 4.95571 0.000190054 10
8.88558 4.96598 -2.72749 0.000384789 1
10.3019 5.75754 -2.72462 0.000222965 1
12.2144 6.82641 -2.71988 0.000114715 1
14.9941 8.37989 -2.72055 4.93827e-05 1
16.9083 9.44972 -2.37831 0.00023242 10
16.9164 9.45425 -1.69545 0.000236338 10
17.1899 9.60708 -1.03203 0.00027644 10
17.1861 9.60496 -0.343655 0.000278013 10
17.1973 9.61126 0.34388 0.000278041 10
