VERSION 0.7
FIELDS x y z intensity label
SIZE 4 4 4 4 4
TYPE F F F F F
COUNT 1 1 1 1 1
WIDTH 1137
HEIGHT 1
VIEWPOINT 10.0641 53.9503 2.72821 0.730291 0.000720459 0.000674655 -0.683135
POINTS 1137
DATA ascii
-14.0986 -11.0945 2.2028 0.000141553 10
-15.1169 -11.8959 3.04672 0.000217097 10
-15.1272 -11.904 3.7417 0.000211021 10
-15.1363 -11.9111 4.44672 0.000203919 10
-15.1383 -11.9126 5.16161 0.000195881 10
-8.01904 -6.35581 -2.74175 0.000374634 1
-9.32541 -7.39123 -2.74717 0.00021587 1
-11.0922 -8.7916 -2.75122 0.00011017 1
-13.6115 -10.7884 -2.75089 4.68299e-05 1
-15.1098 -11.9759 -2.36732 0.000257899 10
-15.114 -11.9792 -1.68727 0.000262148 10
-15.1234 -11.9867 -1.01135 0.000264982 10
-15.1127 -11.9782 -0.336603 0.000266364 10
-15.1292 -11.9912 0.336969 0.000266276 10
-15.1207 -11.9845 1.01116 0.00026472 10
-15.1175 -11.982 1.68766 0.000261715 10
-14.1121 -11.1851 2.211 0.000140564 10
-15.1199 -11.9839 3.05574 0.000215505 10
-15.1198 -11.9838 3.75017 0.000209467 10
-15.1251 -11.988 4.4557 0.00020241 10
-15.1248 -11.9878 5.17126 0.000194422 10
-7.99636 -6.38341 -2.7416 0.000374659 1
-9.2885 -7.41491 -2.74391 0.000215887 1
-11.0518 -8.82254 -2.74881 0.000110181 1
-13.5851 -10.8449 -2.75319 4.68359e-05 1
-15.1255 -12.0745 -2.37636 0.000255985 10
-15.1285 -12.0769 -1.69359 0.000260207 10
-15.1294 -12.0776 -1.01456 0.000263023 10
-15.1374 -12.0841 -0.338091 0.000264396 10
-15.1341 -12.0814 0.338017 0.000264308 10
-15.1409 -12.0868 1.01533 0.000262762 10
-15.1427 -12.0882 1.69517 0.000259776 10
-14.118 -11.2702 2.21807 0.000139566 10
-15.1314 -12.0792 3.06655 0.000213898 10
-15.1287 -12.0771 3.76283 0.000207898 10
-15.1419 -12.0876 4.47306 0.000200886 10
-15.1316 -12.0794 5.18796 0.00019295 10
-7.98706 -6.42176 -2.74608 0.000374684 1
-9.27619 -7.45824 -2.74794 0.000215905 1
-11.027 -8.8659 -2.75031 0.000110192 1
-13.5425 -10.8885 -2.75224 4.68421e-05 1
-15.1401 -12.1729 -2.38532 0.000254055 10
-15.141 -12.1736 -1.69973 0.00025825 10
-15.1238 -12.1598 -1.01702 0.000261047 10
-15.1292 -12.1642 -0.338853 0.000262411 10
-15.1359 -12.1695 0.339002 0.000262324 10
-15.1339 -12.168 1.0177 0.000260786 10
-15.1378 -12.1711 1.69937 0.000257819 10
-14.1136 -11.3476 2.22359 0.000138559 10
-15.1457 -12.1775 3.07806 0.000212278 10
-15.1521 -12.1826 3.7792 0.000206317 10
-15.1386 -12.1717 4.48459 0.00019935 10
-15.1351 -12.1689 5.2037 0.000191466 10
-7.95587 -6.44253 -2.74307 0.000374709 1
-9.23848 -7.48117 -2.74449 0.000215922 1
-10.9793 -8.89085 -2.74615 0.000110203 1
-13.5118 -10.9416 -2.75374 4.68482e-05 1
-15.129 -12.2512 -2.3903 0.000252109 10
-15.1468 -12.2656 -1.70518 0.000256275 10
-15.1403 -12.2604 -1.02101 0.000259054 10
-15.1493 -12.2677 -0.340262 0.000260409 10
-15.1373 -12.2579 0.33999 0.000260322 10
-15.1528 -12.2705 1.02185 0.000258794 10
-15.1479 -12.2665 1.7053 0.000255846 10
-14.1326 -11.4443 2.23286 0.000137542 10
-15.156 -12.2731 3.08884 0.000210643 10
-15.153 -12.2707 3.79009 0.000204721 10
-15.1467 -12.2656 4.49967 0.000197801 10
-15.1603 -12.2766 5.22707 0.000189969 10
-7.92705 -6.46514 -2.7409 0.000374735 1
-9.21106 -7.51235 -2.74412 0.00021594 1
-10.9556 -8.93518 -2.74801 0.000110214 1
-13.4736 -10.9888 -2.75375 4.68543e-05 1
-15.1494 -12.3555 -2.40032 0.000250146 10
-15.1349 -12.3437 -1.70868 0.000254285 10
-15.1382 -12.3464 -1.02376 0.000257044 10
-15.1444 -12.3514 -0.341116 0.00025839 10
-15.1449 -12.3519 0.341128 0.000258303 10
-15.1574 -12.362 1.02506 0.000256786 10
-15.1408 -12.3486 1.70935 0.000253857 10
-14.1312 -11.5252 2.239 0.000136516 10
-15.1524 -12.358 3.09686 0.000208996 10
-15.1522 -12.3578 3.80064 0.000203113 10
-15.1521 -12.3578 4.51406 0.000196239 10
-15.1625 -12.3662 5.24266 0.000188461 10
-7.91891 -6.50467 -2.74592 0.00037476 1
-9.177 -7.53807 -2.7418 0.000215957 1
-10.9176 -8.96782 -2.74631 0.000110225 1
-13.4338 -11.0346 -2.75347 4.68605e-05 1
-15.1489 -12.4435 -2.40711 0.000248168 10
-15.1596 -12.4523 -1.71637 0.000252278 10
-15.161 -12.4534 -1.02824 0.000255019 10
-15.1508 -12.445 -0.342238 0.000256355 10
-15.1641 -12.4559 0.342537 0.000256269 10
-15.1542 -12.4478 1.02778 0.000254761 10
-15.1463 -12.4413 1.71486 0.000251852 10
-14.142 -11.6164 2.24711 0.000135482 10
-15.1517 -12.4457 3.10559 0.000207335 10
-15.1647 -12.4564 3.81465 0.000201493 10
-15.1542 -12.4478 4.52758 0.000194666 10
-15.1748 -12.4647 5.26192 0.00018694 10
-7.88806 -6.52557 -2.74311 0.000374786 1
-9.15492 -7.57361 -2.74308 0.000215975 1
-10.9012 -9.01826 -2.75009 0.000110237 1
-13.3951 -11.0814 -2.75346 4.68667e-05 1
-15.1514 -12.5343 -2.41444 0.000246175 10
-15.1466 -12.5304 -1.71984 0.000250257 10
-15.1659 -12.5463 -1.03154 0.000252978 10
-15.1562 -12.5383 -0.343346 0.000254304 10
-15.1708 -12.5504 0.343676 0.000254218 10
-15.1672 -12.5474 1.03162 0.000252721 10
-15.1579 -12.5397 1.72112 0.000249832 10
-14.1362 -11.6944 2.25266 0.000134439 10
-15.175 -12.5539 3.11933 0.000205662 10
-15.1631 -12.544 3.82526 0.00019986 10
-15.1614 -12.5426 4.54279 0.00019308 10
-15.1815 -12.5592 5.27943 0.000185409 10
-7.86137 -6.54985 -2.74176 0.000374811 1
-9.12748 -7.60473 -2.7428 0.000215993 1
-10.8542 -9.04339 -2.74618 0.000110248 1
-13.3407 -11.1151 -2.75024 4.6873e-05 1
-15.1648 -12.6348 -2.42359 0.000244167 10
-15.1673 -12.637 -1.72719 0.00024822 10
-15.1675 -12.637 -1.03463 0.000250922 10
-15.1687 -12.6381 -0.344626 0.000252239 10
-15.169 -12.6383 0.344632 0.000252153 10
-15.1613 -12.6319 1.03422 0.000250666 10
-15.1673 -12.637 1.72719 0.000247796 10
-14.1548 -11.7934 2.26218 0.000133388 10
-15.1657 -12.6356 3.12647 0.000203977 10
-15.1709 -12.64 3.83834 0.000198215 10
-15.1779 -12.6458 4.56095 0.000191484 10
-15.1852 -12.6518 5.29604 0.000183867 10
-7.82962 -6.56983 -2.73867 0.000374837 1
-9.09782 -7.63397 -2.74187 0.000216011 1
-10.8289 -9.08654 -2.74779 0.000110259 1
-13.3017 -11.1615 -2.75021 4.68792e-05 1
-15.1694 -12.7287 -2.43141 0.000254088 10
-15.1765 -12.7346 -1.73328 0.000258304 10
-15.1762 -12.7344 -1.03826 0.000261114 10
-15.1714 -12.7303 -0.345696 0.00026248 10
-15.1814 -12.7387 0.345924 0.000262384 10
-15.1705 -12.7295 1.03786 0.000260829 10
-15.1728 -12.7315 1.73286 0.000257833 10
-14.15 -11.8732 2.26801 0.000132329 10
-17.9939 -15.0986 6.29394 0.000112103 10
-7.8274 -6.61467 -2.74595 0.000374863 1
-9.08718 -7.67926 -2.74673 0.000216028 1
-10.7966 -9.12379 -2.74764 0.00011027 1
-13.272 -11.2157 -2.75214 4.68855e-05 1
-15.1792 -12.8274 -2.44014 0.000251552 10
-15.1738 -12.8228 -1.73807 0.000255732 10
-15.195 -12.8407 -1.0426 0.000258516 10
-15.1785 -12.8268 -0.346875 0.00025987 10
-15.179 -12.8272 0.346885 0.000259775 10
-15.1893 -12.8359 1.04221 0.000258233 10
-15.1946 -12.8405 1.74046 0.000255263 10
-14.1751 -11.9789 2.27873 0.000131262 10
-17.9912 -15.2038 6.31155 0.000111029 10
-7.78775 -6.62789 -2.74014 0.000374889 1
-9.0564 -7.70759 -2.74554 0.000216046 1
-10.7681 -9.16434 -2.74851 0.000110282 1
-13.238 -11.2664 -2.75323 4.68918e-05 1
-15.1917 -12.9291 -2.44939 0.000249008 10
-15.1993 -12.9356 -1.74616 0.00025315 10
-15.2045 -12.9401 -1.04635 0.000255909 10
-15.199 -12.9353 -0.348372 0.000257251 10
-15.1946 -12.9316 0.348273 0.000257156 10
-15.2038 -12.9394 1.0463 0.000255628 10
-15.1918 -12.9293 1.7453 0.000252684 10
-14.1812 -12.0691 2.28646 0.000130188 10
-18.0013 -15.3203 6.33381 0.00010995 10
-7.77272 -6.66202 -2.74302 0.000374915 1
-9.0291 -7.73887 -2.74544 0.000216064 1
-10.7234 -9.19104 -2.74528 0.000110293 1
-13.195 -11.3095 -2.75249 4.68981e-05 1
-15.1957 -13.0243 -2.45735 0.000246454 10
-15.2134 -13.0394 -1.75299 0.000250559 10
-15.2021 -13.0298 -1.04931 0.000253293 10
-15.2021 -13.0298 -0.349485 0.000254623 10
-15.2152 -13.041 0.349785 0.000254529 10
-15.2214 -13.0464 1.05064 0.000253013 10
-15.2222 -13.047 1.75401 0.000250095 10
-14.1805 -12.1541 2.29317 0.000129106 10
-18.0024 -15.4299 6.35309 0.000108866 10
-7.74134 -6.68214 -2.74016 0.000374941 1
-9.00884 -7.77622 -2.74751 0.000216082 1
-10.7101 -9.24467 -2.75012 0.000110305 1
-13.154 -11.3542 -2.75218 4.69045e-05 1
-15.2244 -13.1414 -2.4694 0.000243893 10
-15.2108 -13.1296 -1.75797 0.00024796 10
-15.2253 -13.1421 -1.05407 0.000250669 10
-15.2231 -13.1402 -0.35102 0.000251986 10
-15.2246 -13.1416 0.351055 0.000251893 10
-15.2195 -13.1371 1.05367 0.00025039 10
-15.2225 -13.1397 1.75932 0.000247498 10
-14.1742 -12.2348 2.29905 0.000128017 10
-18.0286 -15.5619 6.38148 0.000107778 10
-7.7294 -6.71906 -2.74422 0.000374967 1
-8.97445 -7.80137 -2.74531 0.0002161 1
-10.6619 -9.26828 -2.74605 0.000110316 1
-13.1127 -11.3987 -2.75185 4.69108e-05 1
-15.2269 -13.2365 -2.47728 0.000241324 10
-15.2297 -13.239 -1.76548 0.000245353 10
-15.2315 -13.2405 -1.05769 0.000248037 10
-15.2443 -13.2517 -0.352574 0.000249341 10
-15.2451 -13.2524 0.352591 0.000249248 10
-15.2325 -13.2414 1.05776 0.000247759 10
-15.2341 -13.2428 1.766 0.000244894 10
-14.1851 -12.3309 2.30779 0.000126921 10
-18.0164 -15.6614 6.39647 0.000106684 10
-7.69085 -6.73283 -2.73886 0.000374994 1
-8.93685 -7.82362 -2.74215 0.000216119 1
-10.6375 -9.3124 -2.7481 0.000110328 1
-13.0721 -11.4437 -2.75169 4.69172e-05 1
-15.2441 -13.3452 -2.48765 0.000238747 10
-15.2524 -13.3524 -1.7735 0.000242739 10
-15.2537 -13.3536 -1.06246 0.000245398 10
-15.2355 -13.3377 -0.353444 0.000246689 10
-15.2546 -13.3544 0.353887 0.000246597 10
-15.2455 -13.3464 1.06189 0.000245121 10
-15.2481 -13.3487 1.77301 0.000242282 10
-14.1873 -12.42 2.31519 0.000125818 10
-18.0313 -15.7852 6.42128 0.000105587 10
-7.68418 -6.77452 -2.74489 0.00037502 1
-8.91158 -7.85661 -2.74279 0.000216137 1
-10.6059 -9.35037 -2.74837 0.000110339 1
-13.0382 -11.4947 -2.75298 4.69237e-05 1
-15.2496 -13.4443 -2.49618 0.000236165 10
-15.2462 -13.4413 -1.77823 0.000240118 10
-15.2538 -13.448 -1.06573 0.000242751 10
-15.2606 -13.454 -0.355114 0.00024403 10
-15.2676 -13.4602 0.355276 0.000243938 10
-15.2658 -13.4586 1.06657 0.000242476 10
-15.2544 -13.4485 1.77918 0.000239663 10
-14.1986 -12.5178 2.32415 0.000124709 10
-18.049 -15.9123 6.44732 0.000104486 10
-7.65914 -6.8001 -2.7444 0.000375046 1
-8.87833 -7.88254 -2.74101 0.000216155 1
-10.5594 -9.37509 -2.74478 0.000110351 1
-12.9994 -11.5414 -2.75329 4.69301e-05 1
-15.2614 -13.5497 -2.50585 0.000233576 10
-15.274 -13.5609 -1.78699 0.000237491 10
-15.2698 -13.5571 -1.07015 0.000240098 10
-15.2762 -13.5628 -0.356576 0.000241365 10
-15.2638 -13.5518 0.356287 0.000241273 10
-15.2726 -13.5597 1.07035 0.000239825 10
-15.2664 -13.5542 1.7861 0.000237039 10
-14.2129 -12.6188 2.33368 0.000123594 10
-18.0498 -16.0254 6.46757 0.000103381 10
-7.63438 -6.82593 -2.74405 0.000375073 1
-8.86181 -7.92337 -2.74443 0.000216174 1
-10.5281 -9.41324 -2.74517 0.000110362 1
-12.9538 -11.582 -2.75217 4.69366e-05 1
-15.2833 -13.6648 -2.51725 0.00021641 10
-15.283 -13.6646 -1.7936 0.000220049 10
-15.2771 -13.6593 -1.07399 0.000222476 10
-15.2713 -13.6541 -0.357572 0.000223658 10
-15.2851 -13.6664 0.357895 0.00022358 10
-15.2939 -13.6743 1.07518 0.000222242 10
-15.2964 -13.6766 1.79518 0.000219664 10
-14.2034 -12.6993 2.33939 0.000122472 10
-18.0555 -16.1435 6.48976 0.000102273 10
-7.60494 -6.84752 -2.74205 0.0003751 1
-8.83828 -7.95802 -2.74573 0.000216192 1
-10.4929 -9.44782 -2.74456 0.000110374 1
-12.9197 -11.633 -2.75355 4.69431e-05 1
-15.2743 -13.7531 -2.52367 0.00021447 10
-15.281 -13.7591 -1.799 0.00021808 10
-15.291 -13.7681 -1.07835 0.000220487 10
-15.279 -13.7573 -0.358875 0.00022166 10
-15.2876 -13.765 0.359077 0.000221582 10
-15.2783 -13.7566 1.07745 0.000220255 10
-15.3006 -13.7768 1.80131 0.000217696 10
-14.2339 -12.8162 2.35176 0.000126686 10
-18.0771 -16.2767 6.51792 0.000101161 10
-7.57216 -6.86601 -2.73885 0.000375126 1
-8.81408 -7.99212 -2.74687 0.000216211 1
-10.4765 -9.4995 -2.74893 0.000110386 1
-12.8706 -11.6704 -2.75175 4.69496e-05 1
-15.2964 -13.8699 -2.5353 0.000212518 10
-15.281 -13.8559 -1.80468 0.0002161 10
-15.2992 -13.8725 -1.08233 0.000218488 10
-15.2841 -13.8588 -0.360128 0.000219651 10
-15.2907 -13.8648 0.360284 0.000219573 10
-15.2887 -13.863 1.08159 0.000218256 10
-15.2883 -13.8626 1.80554 0.000215718 10
-14.2385 -12.9107 2.35996 0.000125306 10
-18.0652 -16.3805 4.74015 0.000108529 10
-18.0718 -16.3865 5.63199 0.000104544 10
-18.0763 -16.3905 6.53818 0.000100047 10
-7.55615 -6.89971 -2.74176 0.000375153 1
-8.77067 -8.00872 -2.74203 0.000216229 1
-10.4256 -9.51987 -2.74428 0.000110398 1
-12.8282 -11.7137 -2.75139 4.69561e-05 1
-15.2957 -13.9669 -2.54325 0.000210556 10
-15.2888 -13.9606 -1.81135 0.000214109 10
-15.2856 -13.9577 -1.08481 0.000216478 10
-15.3054 -13.9757 -0.361778 0.000217631 10
-15.3018 -13.9725 0.361692 0.000217554 10
-15.2952 -13.9665 1.0855 0.000216247 10
-15.2951 -13.9663 1.81209 0.000213728 10
-14.2501 -13.0121 2.36939 0.000123922 10
-18.0888 -16.5174 4.76144 0.00010733 10
-18.0759 -16.5055 5.65118 0.000103383 10
-18.0811 -16.5103 6.56074 9.89298e-05 10
-7.5368 -6.93044 -2.7435 0.00037518 1
-8.7401 -8.03693 -2.74123 0.000216248 1
-10.3999 -9.56316 -2.74628 0.000110409 1
-12.7782 -11.7501 -2.74945 4.69627e-05 1
-15.2881 -14.0582 -2.55013 0.000208584 10
-15.3016 -14.0706 -1.81867 0.000212108 10
-15.2984 -14.0676 -1.0892 0.000214457 10
-15.3067 -14.0752 -0.362967 0.000215601 10
-15.3082 -14.0766 0.363003 0.000215524 10
-15.3002 -14.0693 1.08933 0.000214228 10
-15.297 -14.0664 1.81813 0.000211729 10
-14.2572 -13.1102 2.37817 0.000122536 10
-18.093 -16.6374 4.7778 0.000106128 10
-18.0923 -16.6368 5.67445 0.00010222 10
-18.1021 -16.6457 6.58941 9.78102e-05 10
-7.5048 -6.94952 -2.74066 0.000375207 1
-8.72893 -8.08307 -2.74656 0.000216267 1
-10.3702 -9.60291 -2.74728 0.000110421 1
-12.7419 -11.7992 -2.7505 4.69692e-05 1
-15.2963 -14.1645 -2.55973 0.000206603 10
-15.3046 -14.1722 -1.82489 0.000210097 10
-15.3084 -14.1757 -1.09343 0.000212427 10
-15.2956 -14.1639 -0.363875 0.000213561 10
-15.3131 -14.1801 0.36429 0.000213485 10
-15.3174 -14.1841 1.09407 0.000212199 10
-15.3181 -14.1847 1.82651 0.00020972 10
-14.2601 -13.205 2.38634 0.000121147 10
-18.0856 -16.7474 4.79124 0.000104924 10
-18.1058 -16.7661 5.69698 0.000101054 10
-18.0919 -16.7532 6.60693 9.66884e-05 10
-7.48753 -6.98223 -2.74324 0.000375234 1
-8.68725 -8.10099 -2.74232 0.000216285 1
-10.3329 -9.63557 -2.74629 0.000110433 1
-12.7064 -11.8489 -2.75174 4.69758e-05 1
-15.3018 -14.2692 -2.56897 0.000204613 10
-15.3127 -14.2794 -1.8318 0.000208078 10
-15.3015 -14.2689 -1.09648 0.000210388 10
-15.3011 -14.2685 -0.365187 0.000211512 10
-15.3184 -14.2847 0.365602 0.000211436 10
-15.3031 -14.2703 1.0966 0.00021016 10
-15.3225 -14.2884 1.83296 0.000207702 10
-14.2832 -13.3193 2.39796 0.000119757 10
-18.0978 -16.8764 4.81005 0.000103718 10
-18.1116 -16.8893 5.71733 9.98865e-05 10
-18.1055 -16.8837 6.6334 9.55646e-05 10
-7.46835 -7.01325 -2.74516 0.000375261 1
-8.66937 -8.14108 -2.74564 0.000216304 1
-10.2953 -9.66794 -2.74526 0.000110445 1
-12.6555 -11.8843 -2.74969 4.69825e-05 1
-15.31 -14.377 -2.57875 0.000202614 10
-15.3207 -14.3871 -1.83874 0.000206049 10
-15.3232 -14.3894 -1.10163 0.000208339 10
-15.3145 -14.3812 -0.366703 0.000209454 10
-15.3084 -14.3756 0.366558 0.000209378 10
-15.3194 -14.3859 1.10136 0.000208113 10
-15.3172 -14.3838 1.83832 0.000205675 10
-14.2845 -13.414 2.40602 0.000118364 10
-18.1058 -17.0025 4.82794 0.000102509 10
-18.1163 -17.0124 5.73753 9.87168e-05 10
-18.122 -17.0177 6.66115 9.44391e-05 10
-7.4393 -7.03499 -2.74349 0.000375289 1
-8.63821 -8.16874 -2.74478 0.000216323 1
-10.276 -9.71752 -2.74913 0.000110457 1
-12.618 -11.9322 -2.75057 4.69891e-05 1
-15.3152 -14.4829 -2.58814 0.000183781 10
-15.3067 -14.4748 -1.84311 0.000186908 10
-15.3067 -14.4749 -1.10407 0.000188995 10
-15.3081 -14.4761 -0.367758 0.000190014 10
-15.3156 -14.4832 0.367937 0.000189952 10
-15.3278 -14.4948 1.1056 0.00018881 10
-15.3188 -14.4862 1.84457 0.000186603 10
-14.2957 -13.5188 2.41584 0.00011697 10
-18.1255 -17.1404 4.84911 0.000101299 10
-18.1302 -17.1448 5.76084 9.75457e-05 10
-18.1192 -17.1345 6.68208 9.33123e-05 10
-7.40337 -7.05014 -2.73931 0.000375316 1
-8.6133 -8.20234 -2.74595 0.000216342 1
-10.2412 -9.75256 -2.74891 0.000110469 1
-12.5848 -11.9844 -2.75244 4.69958e-05 1
-15.3086 -14.5782 -2.5956 0.000182425 10
-15.3187 -14.5878 -1.85068 0.000185532 10
-15.3075 -14.5772 -1.1078 0.000187606 10
-15.3063 -14.576 -0.368934 0.000188619 10
-15.3173 -14.5865 0.3692 0.000188557 10
-15.3126 -14.582 1.10816 0.000187422 10
-15.3226 -14.5915 1.85115 0.000185228 10
-14.3253 -13.6418 2.42888 0.000115574 10
-18.128 -17.263 4.86586 0.000100087 10
-18.1385 -17.273 5.7826 9.63729e-05 10
-18.1247 -17.2599 6.70628 9.2184e-05 10
-7.37754 -7.07481 -2.73887 0.000375344 1
-8.58471 -8.23244 -2.74598 0.000216361 1
-10.1971 -9.77862 -2.74621 0.000110481 1
-12.5325 -12.0182 -2.75016 4.70025e-05 1
-15.3017 -14.6738 -2.6031 0.000181057 10
-15.3084 -14.6802 -1.85562 0.000184144 10
-15.3006 -14.6728 -1.11099 0.000186205 10
-15.3086 -14.6804 -0.370222 0.000187211 10
-15.323 -14.6943 0.370573 0.00018715 10
-15.3223 -14.6936 1.11257 0.000186021 10
-15.3165 -14.688 1.8566 0.000183841 10
-14.3275 -13.7396 2.43737 0.000107659 10
-18.1428 -17.3983 4.8861 9.88743e-05 10
-18.1501 -17.4053 5.80563 9.51993e-05 10
-18.135 -17.3908 6.7325 9.10548e-05 10
-7.35091 -7.09869 -2.73816 0.000375371 1
-8.55398 -8.26048 -2.74535 0.00021638 1
-10.1684 -9.81953 -2.74772 0.000110493 1
-12.4914 -12.0628 -2.75035 4.70092e-05 1
-15.3111 -14.7857 -2.61346 0.000179677 10
-15.3053 -14.7802 -1.86149 0.000182744 10
-15.2983 -14.7734 -1.11457 0.000184791 10
-15.3138 -14.7884 -0.371596 0.00018579 10
-15.307 -14.7817 0.371429 0.000185729 10
-15.3189 -14.7933 1.11607 0.000184608 10
-15.3196 -14.7939 1.86322 0.000182442 10
-14.3353 -13.8434 2.4469 0.000106589 10
-18.1416 -17.5191 4.90222 9.76603e-05 10
-18.1493 -17.5265 5.82491 9.40247e-05 10
-18.1561 -17.5332 6.76304 8.99249e-05 10
-7.33694 -7.13486 -2.74222 0.000375399 1
-8.52654 -8.29169 -2.74582 0.000216399 1
-10.1187 -9.83998 -2.74354 0.000110505 1
-12.4588 -12.1157 -2.75248 4.70159e-05 1
-15.2929 -14.8717 -2.6192 0.000178285 10
-15.3045 -14.8829 -1.86769 0.000181332 10
-15.3122 -14.8905 -1.11936 0.000183365 10
-15.3049 -14.8834 -0.372639 0.000184357 10
-15.301 -14.8795 0.372541 0.000184296 10
-15.311 -14.8893 1.11927 0.000183182 10
-15.309 -14.8874 1.86824 0.00018103 10
-14.3372 -13.9423 2.45552 0.000105515 10
-18.1555 -17.6554 4.92261 9.64455e-05 10
-18.149 -17.6491 5.84456 9.28495e-05 10
-18.1677 -17.6673 6.79029 8.87945e-05 10
-7.30008 -7.14876 -2.73775 0.000375427 1
-8.48614 -8.31024 -2.74213 0.000216418 1
-10.0862 -9.87712 -2.74406 0.000110518 1
-12.404 -12.1469 -2.74971 4.70227e-05 1
-15.2892 -14.9723 -2.62751 0.000176882 10
-15.2922 -14.9752 -1.87256 0.000179908 10
-15.2976 -14.9805 -1.1221 0.000181927 10
-15.2914 -14.9744 -0.373579 0.000182913 10
-15.2964 -14.9794 0.373702 0.000182852 10
-15.3098 -14.9924 1.123 0.000181745 10
-15.3122 -14.9948 1.87501 0.000179607 10
-14.3436 -14.0463 2.465 0.000104438 10
-18.1708 -17.7941 6.8146 8.76638e-05 10
-7.29193 -7.19082 -2.74409 0.000375454 1
-8.45459 -8.33736 -2.74133 0.000216438 1
-10.0664 -9.92677 -2.74808 0.00011053 1
-12.3606 -12.1892 -2.74951 4.70294e-05 1
-15.2922 -15.0802 -2.63705 0.000175467 10
-15.2998 -15.0877 -1.87994 0.000178472 10
-15.2886 -15.0766 -1.1253 0.000180477 10
-15.2916 -15.0795 -0.374868 0.000181456 10
-15.2976 -15.0854 0.375014 0.000181395 10
-15.3005 -15.0884 1.12617 0.000180296 10
-15.3067 -15.0944 1.88077 0.000178172 10
-14.3559 -14.1568 2.47559 0.000103356 10
-18.1848 -17.9326 5.89625 9.04981e-05 10
-18.1814 -17.9293 6.84202 3.11955e-05 10
-7.26875 -7.21818 -2.74483 0.000375482 1
-8.44098 -8.38226 -2.74638 0.000216457 1
-10.0153 -9.94563 -2.7436 0.000110542 1
-12.3144 -12.2287 -2.74871 4.70362e-05 1
-15.2875 -15.1811 -2.64535 0.000154621 10
-15.2884 -15.1821 -1.88503 0.000157279 10
-15.2916 -15.1852 -1.12941 0.000159055 10
-15.2928 -15.1864 -0.376195 0.000159925 10
-15.2896 -15.1832 0.376115 0.000159879 10
-15.2983 -15.1919 1.12991 0.000158916 10
-15.3048 -15.1983 1.88705 0.000157049 10
-14.3634 -14.2635 2.48545 0.000102272 10
-18.1804 -18.0539 5.91523 8.93225e-05 10
-18.1132 -17.9872 6.83993 3.11925e-05 10
-7.23236 -7.23236 -2.74061 0.00037551 1
-8.40155 -8.40155 -2.74308 0.000216476 1
-9.98585 -9.98585 -2.74506 0.000110554 1
-12.2776 -12.2776 -2.75005 4.70431e-05 1
-15.2824 -15.2824 -2.65369 0.000153812 10
-15.2669 -15.2669 -1.88893 0.000156458 10
-15.2827 -15.2827 -1.13269 0.000158227 10
-15.2802 -15.2802 -0.377194 0.000159093 10
-15.2744 -15.2744 0.377052 0.000159047 10
-15.284 -15.284 1.13278 0.000158088 10
-15.2838 -15.2838 1.89103 0.000156229 10
-14.3667 -14.3667 2.49469 0.000101184 10
-18.1994 -18.1994 5.94205 8.81473e-05 10
-18.0513 -18.0513 6.84033 3.11894e-05 10
-7.20834 -7.25883 -2.74109 0.000375538 1
-8.36858 -8.42721 -2.7419 0.000216496 1
-9.9477 -10.0174 -2.74417 0.000110567 1
-12.2339 -12.3196 -2.74987 4.70499e-05 1
-15.2687 -15.3757 -2.66062 0.00015299 10
-15.2532 -15.36 -1.89386 0.000155624 10
-15.2672 -15.3742 -1.13551 0.000157384 10
-15.2568 -15.3637 -0.377939 0.000158248 10
-15.2602 -15.3671 0.378023 0.000158201 10
-15.2578 -15.3647 1.13481 0.000157246 10
-15.2725 -15.3795 1.89626 0.000155395 10
-14.3725 -14.4731 2.50444 0.000100094 10
-18.2041 -18.3316 5.96443 8.69729e-05 10
-17.975 -18.1009 6.8353 3.11863e-05 10
-7.1754 -7.2763 -2.73821 0.000375567 1
-8.33439 -8.45158 -2.74035 0.000216515 1
-9.9148 -10.0542 -2.74476 0.000110579 1
-12.1851 -12.3564 -2.74858 4.70568e-05 1
-15.2406 -15.4549 -2.66511 0.000152154 10
-15.2483 -15.4627 -1.89994 0.000154776 10
-15.2512 -15.4656 -1.13833 0.000156528 10
-15.2541 -15.4686 -0.379207 0.000157387 10
-15.2444 -15.4587 0.378965 0.000157341 10
-15.2456 -15.4599 1.13791 0.00015639 10
-15.2523 -15.4667 1.90044 0.000154547 10
-14.3582 -14.5601 2.5108 9.14222e-05 10
-18.2184 -18.4745 5.9902 8.57991e-05 10
-17.9306 -18.1827 6.84252 3.11833e-05 10
-7.16143 -7.31301 -2.7426 0.000375595 1
-8.31709 -8.49313 -2.74439 0.000216535 1
-9.89105 -10.1004 -2.74793 0.000110591 1
-12.1579 -12.4153 -2.75222 4.70636e-05 1
-15.2367 -15.5592 -2.67391 0.000151304 10
-15.23 -15.5523 -1.90442 0.000153915 10
-15.2471 -15.5698 -1.14207 0.000155659 10
-15.2442 -15.5668 -0.380309 0.000156514 10
-15.2351 -15.5576 0.380082 0.000156467 10
-15.2441 -15.5668 1.14185 0.00015552 10
-15.2447 -15.5673 1.90625 0.000153685 10
-14.3489 -14.6526 2.5181 9.06615e-05 10
-18.2292 -18.6151 6.0151 8.46266e-05 10
-17.8541 -18.232 6.83757 3.11802e-05 10
-7.12506 -7.32686 -2.73845 0.000375623 1
-8.28875 -8.52351 -2.74484 0.000216554 1
-9.85282 -10.1319 -2.74712 0.000110604 1
-12.0982 -12.4409 -2.74851 4.70706e-05 1
-15.2151 -15.646 -2.67967 0.000150442 10
-15.2251 -15.6563 -1.91062 0.00015304 10
-15.2305 -15.6619 -1.14492 0.000154776 10
-15.2195 -15.6506 -0.381054 0.000155626 10
-15.2336 -15.6651 0.381407 0.00015558 10
-15.2333 -15.6648 1.14513 0.000154637 10
-15.2239 -15.655 1.91047 0.000152811 10
-18.234 -18.7505 6.03825 8.34555e-05 10
-17.7965 -18.3005 6.83991 3.11771e-05 10
-7.11085 -7.3635 -2.74285 0.000375652 1
-8.25304 -8.54628 -2.74288 0.000216574 1
-9.81603 -10.1648 -2.74674 0.000110616 1
-12.0577 -12.4861 -2.74919 4.70775e-05 1
-15.2097 -15.7501 -2.68839 0.000127852 10
-15.2039 -15.7441 -1.91485 0.000130069 10
-15.2024 -15.7426 -1.14693 0.000131552 10
-15.2037 -15.7439 -0.382032 0.000132282 10
-15.2087 -15.7491 0.382158 0.000132249 10
-15.207 -15.7473 1.14728 0.000131454 10
-15.2096 -15.75 1.91557 0.000129906 10
-18.2322 -18.88 6.05944 8.22859e-05 10
-17.7297 -18.3596 6.83883 3.1174e-05 10
-7.07481 -7.37755 -2.73887 0.00037568 1
-8.21413 -8.56562 -2.73987 0.000216594 1
-9.76662 -10.1845 -2.74284 0.000110629 1
-12.0115 -12.5255 -2.74862 4.70844e-05 1
-15.188 -15.8379 -2.69432 0.000127517 10
-15.1825 -15.8321 -1.9191 0.00012973 10
-15.1932 -15.8433 -1.1504 0.00013121 10
-15.1858 -15.8356 -0.382969 0.000131939 10
-15.2009 -15.8514 0.38335 0.000131906 10
-15.1918 -15.8418 1.15029 0.000131111 10
-15.1993 -15.8497 1.92123 0.000129566 10
-18.2453 -19.026 6.08581 8.11182e-05 10
-17.6583 -18.4139 6.83606 3.11709e-05 10
-7.05603 -7.40956 -2.74159 0.000375709 1
-8.20047 -8.61134 -2.74532 0.000216614 1
-9.74318 -10.2313 -2.74627 0.000110641 1
-11.9632 -12.5626 -2.74758 4.70914e-05 1
-15.156 -15.9154 -2.69848 0.000127168 10
-15.1704 -15.9305 -1.9246 0.000129376 10
-15.1748 -15.9351 -1.15321 0.000130854 10
-15.1696 -15.9296 -0.383959 0.000131581 10
-15.1633 -15.923 0.3838 0.000131548 10
-15.1688 -15.9288 1.15276 0.000130755 10
-15.1655 -15.9253 1.92397 0.000129213 10
-18.2586 -19.1735 6.11256 7.99526e-05 10
-17.6025 -18.4844 6.83938 3.11677e-05 10
-7.03291 -7.4371 -2.74268 0.000375738 1
-8.15247 -8.621 -2.73931 0.000216633 1
-9.69745 -10.2548 -2.74345 0.000110654 1
-11.9379 -12.624 -2.75188 4.70984e-05 1
-15.1514 -16.0221 -2.70759 0.000126806 10
-15.1357 -16.0056 -1.92727 0.000129009 10
-15.1503 -16.021 -1.15559 0.000130484 10
-15.1537 -16.0246 -0.384972 0.000131209 10
-15.1557 -16.0267 0.385022 0.000131176 10
-15.1508 -16.0215 1.15563 0.000130385 10
-15.1523 -16.0231 1.92939 0.000128845 10
-18.2632 -19.3128 6.13663 7.87893e-05 10
-17.5367 -18.5446 6.83894 3.11646e-05 10
-6.52147 -6.94466 -2.55267 0.000430146 4
-8.13467 -8.66255 -2.74347 0.000216653 1
-9.66062 -10.2875 -2.74318 0.000110667 1
-11.8909 -12.6625 -2.75121 4.71054e-05 1
-15.1181 -16.0992 -2.71168 0.00012643 10
-15.1309 -16.1128 -1.93381 0.000128628 10
-15.1225 -16.1038 -1.15775 0.000130099 10
-15.1282 -16.1099 -0.385751 0.000130823 10
-15.1178 -16.0988 0.385484 0.00013079 10
-15.1217 -16.1029 1.15769 0.00013 10
-15.1189 -16.1 1.93227 0.000128464 10
-18.2785 -19.4647 6.16456 7.76287e-05 10
-17.476 -18.6101 6.84057 3.11614e-05 10
-6.49975 -6.97013 -2.55368 0.000368724 4
-8.09318 -8.67887 -2.73968 0.000216673 1
-9.6407 -10.3384 -2.74775 0.000110679 1
-11.8311 -12.6873 -2.74761 4.71124e-05 1
-15.1001 -16.1929 -2.71858 0.00012604 10
-15.1056 -16.1987 -1.93778 0.000128234 10
-15.1022 -16.1952 -1.16052 0.000129701 10
-15.0944 -16.1868 -0.386326 0.000130424 10
-15.1083 -16.2017 0.386682 0.00013039 10
-15.1137 -16.2075 1.16141 0.000129602 10
-15.0958 -16.1883 1.93654 0.000128069 10
-18.2842 -19.6074 6.18951 7.64709e-05 10
-17.4165 -18.677 6.84276 3.11583e-05 10
-6.47522 -6.9926 -2.55361 0.000377133 4
-8.07233 -8.71732 -2.7429 0.000216693 1
-9.60111 -10.3683 -2.74677 0.000110692 1
-11.8013 -12.7443 -2.75101 4.71195e-05 1
-15.069 -16.273 -2.72317 0.000103723 10
-15.0682 -16.2722 -1.94027 0.000105535 10
-15.0648 -16.2685 -1.162 0.00010675 10
-15.0804 -16.2854 -0.387421 0.00010735 10
-15.0795 -16.2844 0.387397 0.000107328 10
-15.08 -16.285 1.16318 0.000106685 10
-15.0837 -16.2889 1.94225 0.000105428 10
-18.2914 -19.753 6.21527 7.53161e-05 10
-17.3374 -18.7227 6.83729 3.11551e-05 10
-6.44671 -7.01075 -2.55201 0.000321286 4
-8.04879 -8.75299 -2.74527 0.000216714 1
-9.55233 -10.3881 -2.74317 0.000110705 1
-11.7524 -12.7806 -2.74999 4.71266e-05 1
-15.0447 -16.3609 -2.72908 0.000103743 10
-15.0504 -16.3671 -1.94531 0.000105557 10
-15.0411 -16.357 -1.16457 0.000106772 10
-15.0447 -16.361 -0.387968 0.000107373 10
-15.0457 -16.3621 0.387994 0.000107351 10
-15.0524 -16.3694 1.16545 0.000106707 10
-15.0485 -16.3652 1.94508 0.000105449 10
-18.3091 -19.9109 6.24483 7.41646e-05 10
-17.2764 -18.7879 6.83905 3.1152e-05 10
-6.42203 -7.03302 -2.55194 0.000441453 4
-8.01013 -8.7722 -2.74251 0.000216734 1
-9.51444 -10.4196 -2.74272 0.000110717 1
-11.6996 -12.8127 -2.74808 4.71337e-05 1
-15.0136 -16.442 -2.73385 0.00010375 10
-15.0017 -16.429 -1.94643 0.000105565 10
-15.0195 -16.4484 -1.16734 0.000106781 10
-15.0187 -16.4475 -0.388775 0.000107383 10
-15.0194 -16.4483 0.388793 0.000107361 10
-15.0161 -16.4447 1.16707 0.000106716 10
-15.0243 -16.4537 1.94935 0.000105456 10
-18.3251 -20.0686 6.27417 7.30166e-05 10
-17.2055 -18.8424 6.83698 3.11488e-05 10
-6.39045 -7.04768 -2.54915 0.000371631 4
-7.97006 -8.78975 -2.73928 0.000216754 1
-9.48414 -10.4595 -2.74449 0.00011073 1
-11.6667 -12.8665 -2.75088 4.71408e-05 1
-14.9703 -16.5099 -2.73643 0.000103745 10
-14.989 -16.5306 -1.95225 0.000105561 10
-14.9886 -16.5301 -1.16941 0.000106778 10
-14.9741 -16.5141 -0.38911 0.000107379 10
-14.9918 -16.5336 0.389571 0.000107357 10
-14.978 -16.5184 1.16859 0.000106711 10
-14.9823 -16.5232 1.95138 0.000105451 10
-18.3333 -20.2188 5.30523 7.47485e-05 10
-18.3378 -20.2238 6.30266 7.18725e-05 10
-17.1413 -18.9042 6.83765 3.11456e-05 10
-6.36106 -7.06468 -2.54725 0.000447109 4
-7.95169 -8.83125 -2.74355 0.000216774 1
-9.44612 -10.491 -2.74407 0.000110743 1
-11.6193 -12.9046 -2.75032 4.71479e-05 1
-14.9439 -16.5968 -2.74218 0.000103727 10
-14.9546 -16.6087 -1.9553 0.000105543 10
-14.9508 -16.6046 -1.17098 0.000106761 10
-14.9587 -16.6134 -0.390217 0.000107362 10
-14.9614 -16.6164 0.390287 0.00010734 10
-14.9586 -16.6132 1.17159 0.000106694 10
-14.9545 -16.6087 1.9553 0.000105434 10
-18.3352 -20.3633 5.32631 7.35683e-05 10
-18.3343 -20.3623 6.32583 7.07322e-05 10
-17.0747 -18.9633 6.83744 3.11424e-05 10
-6.35088 -7.10307 -2.55308 0.000220777 4
-7.92281 -8.86118 -2.74424 0.000216794 1
-9.40655 -10.5207 -2.74323 0.000110756 1
-11.5633 -12.9328 -2.74772 4.71551e-05 1
-14.9085 -16.6742 -2.74634 8.45241e-05 10
-14.9203 -16.6875 -1.95843 8.60098e-05 10
-14.9203 -16.6874 -1.17314 8.70071e-05 10
-14.915 -16.6816 -0.390593 8.75023e-05 10
-14.9173 -16.6841 0.390652 8.74888e-05 10
-14.9112 -16.6772 1.17243 8.69666e-05 10
-14.9179 -16.6848 1.95812 8.59428e-05 10
-18.3493 -20.5226 5.3512 7.23923e-05 10
-18.3425 -20.515 6.35334 6.95963e-05 10
-17.0242 -19.0405 6.8438 3.11392e-05 10
-6.31148 -7.10879 -2.5472 0.000427614 4
-7.88295 -8.87878 -2.74115 0.000216815 1
-9.36987 -10.5535 -2.74326 0.000110769 1
-11.5153 -12.97 -2.74707 4.71622e-05 1
-14.8724 -16.7512 -2.75046 8.47775e-05 10
-14.8884 -16.7692 -1.96191 8.62684e-05 10
-14.8818 -16.7618 -1.17472 8.72692e-05 10
-14.8879 -16.7687 -0.391413 8.77661e-05 10
-14.8857 -16.7661 0.391353 8.77524e-05 10
-14.8735 -16.7525 1.17406 8.72282e-05 10
-14.8907 -16.7718 1.96222 8.62007e-05 10
-18.3516 -20.6699 5.37286 7.12208e-05 10
-18.3681 -20.6884 6.38715 6.84647e-05 10
-16.9489 -19.09 6.8403 3.1136e-05 10
-6.2951 -7.14039 -2.55064 0.000341 4
-7.86235 -8.91808 -2.7448 0.000216835 1
-9.34365 -10.5983 -2.74639 0.000110782 1
-11.476 -13.017 -2.74851 4.71695e-05 1
-14.84 -16.8326 -1.96326 8.65157e-05 10
-14.8415 -16.8344 -1.17616 8.75197e-05 10
-14.8432 -16.8364 -0.391782 8.80183e-05 10
-14.8523 -16.8467 0.392022 8.80044e-05 10
-14.8552 -16.8499 1.17724 8.74783e-05 10
-14.8448 -16.8382 1.96391 8.64471e-05 10
-18.3634 -20.8292 5.39757 7.00542e-05 10
-18.3756 -20.843 6.41504 6.73378e-05 10
-16.89 -19.1579 6.84344 3.11328e-05 10
-6.27555 -7.1685 -2.55284 0.000433271 4
-7.82867 -8.94262 -2.74392 0.000216856 1
-9.3043 -10.6282 -2.74571 0.000110795 1
-11.4341 -13.0611 -2.74937 4.71766e-05 1
-14.8124 -16.9201 -1.96742 8.67515e-05 10
-14.8046 -16.9111 -1.17791 8.77587e-05 10
-14.8019 -16.9081 -0.392246 8.82588e-05 10
-14.8153 -16.9233 0.392599 8.82448e-05 10
-14.8108 -16.9182 1.1784 8.77168e-05 10
-14.8109 -16.9184 1.96722 8.66822e-05 10
-18.3791 -20.9943 5.42371 6.88925e-05 10
-18.387 -21.0033 6.44456 6.62158e-05 10
-16.8262 -19.2204 6.84475 3.11296e-05 10
-6.24142 -7.17993 -2.54913 0.000290733 4
-7.78898 -8.96019 -2.74095 0.000216876 1
-9.2628 -10.6556 -2.74443 0.000110808 1
-11.3776 -13.0884 -2.74675 4.71839e-05 1
-14.7584 -16.9776 -1.96811 8.69759e-05 10
-14.7784 -17.0006 -1.18054 8.79862e-05 10
-14.7673 -16.9878 -0.392898 8.84877e-05 10
-14.7677 -16.9883 0.392909 8.84735e-05 10
-14.7801 -17.0025 1.18067 8.79438e-05 10
-14.7739 -16.9954 1.97017 8.69059e-05 10
-18.3988 -21.1654 5.45129 6.77359e-05 10
-18.397 -21.1633 6.47393 6.50989e-05 10
-16.7417 -19.2591 6.83767 3.11263e-05 10
-6.22092 -7.20701 -2.55102 0.000321509 4
-7.76251 -8.99295 -2.74267 0.000216897 1
-9.23343 -10.697 -2.74677 0.000110821 1
-11.3461 -13.1446 -2.75022 4.71911e-05 1
-14.7325 -17.0678 -1.97258 7.31715e-05 10
-14.7213 -17.0548 -1.18073 7.40252e-05 10
-14.7397 -17.0761 -0.393747 7.44506e-05 10
-14.7254 -17.0596 0.393365 7.44419e-05 10
-14.7354 -17.0711 1.18185 7.39993e-05 10
-14.7291 -17.0638 1.97213 7.31288e-05 10
-18.3985 -21.3149 5.47322 6.65848e-05 10
-18.3993 -21.3158 6.50088 6.39873e-05 10
-16.6852 -19.33 6.84214 3.11231e-05 10
-6.19476 -7.22755 -2.55063 0.000422188 4
-7.72373 -9.01143 -2.74006 0.000216918 1
-9.19639 -10.7296 -2.74688 0.000110834 1
-11.2887 -13.1708 -2.74743 4.71984e-05 1
-14.686 -17.1344 -1.97435 7.35504e-05 10
-14.6924 -17.1419 -1.1832 7.44088e-05 10
-14.6932 -17.1428 -0.3941 7.48365e-05 10
-14.699 -17.1496 0.394256 7.48277e-05 10
-14.6896 -17.1386 1.18297 7.43824e-05 10
-14.6952 -17.1452 1.9756 7.35069e-05 10
-18.421 -21.4922 5.50218 6.54393e-05 10
-18.4251 -21.4969 6.53646 6.28813e-05 10
-16.6226 -19.3939 6.84418 3.11198e-05 10
-6.17184 -7.25189 -2.5516 0.000369094 4
-7.69801 -9.04513 -2.74212 0.000216938 1
-9.14215 -10.742 -2.74186 0.000110847 1
-11.2513 -13.2202 -2.74953 4.72057e-05 1
-14.6428 -17.2052 -1.97661 7.39192e-05 10
-14.6433 -17.2058 -1.18408 7.47821e-05 10
-14.6509 -17.2148 -0.394576 7.52121e-05 10
-14.6556 -17.2203 0.394702 7.52031e-05 10
-14.6561 -17.2208 1.18511 7.47553e-05 10
-14.6525 -17.2166 1.97791 7.38748e-05 10
-18.3881 -21.6059 5.51484 4.80867e-05 10
-18.388 -21.6058 6.55003 4.62233e-05 10
-16.5575 -19.4549 6.84527 3.11166e-05 10
-6.13807 -7.26342 -2.5481 0.000343956 4
-7.66779 -9.0736 -2.74262 0.000216959 1
-9.11794 -10.7896 -2.74588 0.00011086 1
-11.2013 -13.2549 -2.7486 4.7213e-05 1
-14.6019 -17.279 -1.97922 7.42778e-05 10
-14.6126 -17.2917 -1.18647 7.51452e-05 10
-14.6143 -17.2937 -0.395214 7.55773e-05 10
-14.5977 -17.274 0.394763 7.55683e-05 10
-14.6118 -17.2907 1.1864 7.51179e-05 10
-14.6107 -17.2894 1.98041 7.42326e-05 10
-18.271 -21.6208 5.50232 4.8394e-05 10
-18.2602 -21.6081 6.53135 4.65206e-05 10
-16.4737 -19.494 6.83873 3.11133e-05 10
-6.11309 -7.28529 -2.54827 0.000363559 4
-7.63942 -9.10431 -2.74383 0.00021698 1
-9.07838 -10.8192 -2.74532 0.000110874 1
-11.1525 -13.291 -2.748 4.72204e-05 1
-14.5607 -17.3528 -1.98183 7.46262e-05 10
-14.5642 -17.3569 -1.18745 7.54979e-05 10
-14.5618 -17.3541 -0.39543 7.59323e-05 10
-14.5669 -17.3601 0.395567 7.59231e-05 10
-14.5646 -17.3574 1.18748 7.54702e-05 10
-14.5667 -17.3599 1.98264 7.45803e-05 10
-18.1385 -21.6166 5.48511 4.86969e-05 10
-18.1416 -21.6203 6.51587 4.68138e-05 10
-16.4109 -19.5578 6.84098 3.111e-05 10
-6.09909 -7.32035 -2.55307 0.000346807 4
-7.59247 -9.11277 -2.73837 0.000217001 1
-9.04541 -10.8566 -2.74679 0.000110887 1
-11.0979 -13.3202 -2.746 4.72277e-05 1
-14.5104 -17.4159 -1.98325 7.49643e-05 10
-14.5295 -17.4389 -1.18958 7.58404e-05 10
-14.5218 -17.4295 -0.395992 7.62768e-05 10
-14.5145 -17.4208 0.395792 7.62674e-05 10
-14.5137 -17.4199 1.18828 7.58123e-05 10
-14.5194 -17.4267 1.98447 7.49177e-05 10
-18.0204 -21.6288 5.47221 4.89953e-05 10
-18.0252 -21.6345 6.50114 4.71027e-05 10
-16.3478 -19.6212 6.84316 3.11067e-05 10
-6.06616 -7.33273 -2.54999 0.000232155 4
-7.57767 -9.15983 -2.74455 0.000217022 1
-9.00306 -10.8828 -2.74545 0.0001109 1
-11.0513 -13.3587 -2.74597 4.72351e-05 1
-14.4728 -17.4946 -1.98644 7.50046e-05 10
-14.4784 -17.5014 -1.19039 7.58815e-05 10
-14.4796 -17.5028 -0.396506 7.63183e-05 10
-14.4851 -17.5095 0.396656 7.63088e-05 10
-14.4844 -17.5086 1.19088 7.58532e-05 10
-14.4913 -17.5169 1.98897 7.49577e-05 10
-17.9094 -21.6487 5.4614 4.92891e-05 10
-17.8927 -21.6286 6.48055 4.73871e-05 10
-16.2696 -19.6666 6.83913 3.11035e-05 10
-6.04016 -7.35341 -2.54983 0.000251755 4
-7.539 -9.17813 -2.74213 0.000217043 1
-8.96307 -10.9118 -2.74486 0.000110913 1
-11.0167 -13.412 -2.74901 4.72425e-05 1
-14.4359 -17.5746 -1.98979 7.53257e-05 10
-14.4385 -17.5777 -1.19214 7.62068e-05 10
-14.4456 -17.5863 -0.397253 7.66456e-05 10
-14.4419 -17.5818 0.39715 7.66359e-05 10
-14.4438 -17.5841 1.19258 7.6178e-05 10
-14.4328 -17.5708 1.98936 7.52781e-05 10
-17.7856 -21.6525 5.44667 4.95782e-05 10
-17.7793 -21.6449 6.46681 4.76672e-05 10
-16.2097 -19.734 6.84287 3.11002e-05 10
-6.00651 -7.3647 -2.54646 0.000330104 4
-7.50079 -9.19688 -2.73989 0.000217064 1
-8.92968 -10.9489 -2.74632 0.000110927 1
-10.9717 -13.4527 -2.74948 4.72499e-05 1
-14.3932 -17.6478 -1.99237 7.56367e-05 10
-14.393 -17.6476 -1.19347 7.65217e-05 10
-14.3981 -17.6538 -0.397639 7.69624e-05 10
-14.4039 -17.6609 0.397799 7.69526e-05 10
-14.3914 -17.6455 1.19333 7.64925e-05 10
-14.3911 -17.6452 1.99208 7.55883e-05 10
-17.6528 -21.6444 5.4291 4.98627e-05 10
-17.6663 -21.6611 6.45318 4.79426e-05 10
-16.1471 -19.7982 6.84555 3.10969e-05 10
-5.97796 -7.38217 -2.54527 0.000405669 4
-7.47945 -9.23635 -2.74386 0.000217085 1
-8.87484 -10.9595 -2.7412 0.00011094 1
-10.9129 -13.4763 -2.74651 4.72573e-05 1
-14.3589 -17.7318 -1.99619 7.59373e-05 10
-14.3533 -17.7249 -1.1953 7.68262e-05 10
-14.3484 -17.7187 -0.397972 7.72688e-05 10
-14.354 -17.7257 0.398128 7.72589e-05 10
-14.3526 -17.7239 1.19523 7.67965e-05 10
-14.3484 -17.7188 1.99473 7.58882e-05 10
-17.5366 -21.6559 5.4166 5.01423e-05 10
-17.5422 -21.6629 6.43543 4.82135e-05 10
-16.0736 -19.8492 6.84374 3.10935e-05 10
-5.96502 -7.41899 -2.55077 0.000341349 4
-7.44723 -9.26248 -2.74388 0.000217106 1
-8.85307 -11.011 -2.74633 0.000110954 1
-10.8722 -13.5223 -2.74813 4.72648e-05 1
-14.2994 -17.7848 -1.99653 7.62277e-05 10
-14.3132 -17.802 -1.19712 7.71203e-05 10
-14.3009 -17.7868 -0.398376 7.75647e-05 10
-14.3065 -17.7937 0.39853 7.75546e-05 10
-14.3077 -17.7952 1.19667 7.70902e-05 10
-14.3205 -17.8111 1.99948 7.61779e-05 10
-15.5202 -19.3032 4.81455 0.000137074 10
-15.5096 -19.29 5.71441 0.000132153 10
-15.5126 -19.2938 6.63352 0.000126574 10
-5.94381 -7.44568 -2.5528 0.000360964 4
-7.40846 -9.28042 -2.74152 0.000217127 1
-8.81152 -11.038 -2.74538 0.000110967 1
-10.8233 -13.5581 -2.74772 4.72723e-05 1
-14.2623 -17.866 -2.00004 7.65077e-05 10
-14.2662 -17.871 -1.19841 7.7404e-05 10
-14.2735 -17.8802 -0.399349 7.78501e-05 10
-14.2748 -17.8818 0.399384 7.78399e-05 10
-14.2685 -17.8738 1.1986 7.73735e-05 10
-14.262 -17.8657 2.00001 7.64572e-05 10
-15.3421 -19.2187 4.7801 0.000118987 10
-15.352 -19.2312 5.68106 0.000114661 10
-15.3588 -19.2396 6.59641 7.66157e-05 10
-5.90659 -7.45226 -2.54797 0.000377783 4
-7.37645 -9.30676 -2.74168 0.000217148 1
-8.76925 -11.064 -2.74422 0.000110981 1
-10.7808 -13.602 -2.74896 4.72797e-05 1
-14.2261 -17.9489 -2.00375 9.28846e-05 10
-14.2186 -17.9394 -1.19966 9.39684e-05 10
-14.2226 -17.9445 -0.399675 9.45053e-05 10
-14.2267 -17.9496 0.399789 9.44879e-05 10
-14.2231 -17.9451 1.20004 9.39164e-05 10
-14.2228 -17.9447 2.00328 9.27987e-05 10
-15.2512 -19.2422 4.77266 8.34683e-05 10
-15.2475 -19.2376 5.6672 8.0419e-05 10
-15.2461 -19.2358 6.57681 7.69745e-05 10
-5.88605 -7.47983 -2.55036 0.000416994 4
-7.33598 -9.32237 -2.73871 0.00021717 1
-8.7237 -11.0858 -2.74206 0.000110994 1
-10.7325 -13.6386 -2.74877 4.72873e-05 1
-14.1787 -18.0179 -2.00592 9.2905e-05 10
-14.1948 -18.0384 -1.20296 9.39897e-05 10
-14.1929 -18.0359 -0.400605 9.45269e-05 10
-14.1849 -18.0257 0.400378 9.45094e-05 10
-14.1976 -18.0419 1.20319 9.39373e-05 10
-14.1881 -18.0298 2.00724 9.28185e-05 10
-15.1616 -19.267 4.76566 3.66725e-05 10
-15.1663 -19.273 5.66199 3.53246e-05 10
-15.1539 -19.2572 6.56602 3.38038e-05 10
-5.85912 -7.49932 -2.55001 0.000389039 4
-7.31057 -9.3571 -2.7414 0.000217191 1
-8.68802 -11.1202 -2.74303 0.000111008 1
-10.6738 -13.6619 -2.74594 4.72948e-05 1
-14.1543 -18.1167 -2.0114 9.29139e-05 10
-14.1425 -18.1015 -1.20387 9.39993e-05 10
-14.1486 -18.1094 -0.401137 9.45369e-05 10
-14.1526 -18.1145 0.401251 9.45193e-05 10
-14.1452 -18.105 1.2041 9.39466e-05 10
-14.1576 -18.1209 2.01187 9.28269e-05 10
-5.83137 -7.51776 -2.54934 0.000377874 4
-7.28242 -9.38844 -2.74312 0.000217212 1
-8.65074 -11.1525 -2.74354 0.000111021 1
-10.6354 -13.7111 -2.74835 4.73023e-05 1
-14.101 -18.179 -2.01284 9.29113e-05 10
-14.1029 -18.1814 -1.2059 9.39972e-05 10
-14.1133 -18.1948 -0.401935 9.45352e-05 10
-14.1106 -18.1912 0.401856 9.45175e-05 10
-14.121 -18.2047 1.20744 9.39443e-05 10
-14.1207 -18.2043 2.01564 9.28237e-05 10
-5.80487 -7.53777 -2.54925 0.000400299 4
-7.24741 -9.41095 -2.74229 0.000217234 1
-8.61662 -11.1889 -2.74509 0.000111035 1
-10.5862 -13.7464 -2.74801 4.73099e-05 1
-14.0691 -18.2691 -2.01737 9.28973e-05 10
-14.0759 -18.2779 -1.20903 9.39837e-05 10
-14.0812 -18.2848 -0.402835 9.45217e-05 10
-14.065 -18.2638 0.402373 9.4504e-05 10
-14.0781 -18.2808 1.20922 9.39304e-05 10
-14.0672 -18.2666 2.01709 9.28091e-05 10
-14.9793 -19.451 4.77211 6.49929e-05 10
-14.9767 -19.4476 5.6669 6.26139e-05 10
-14.9813 -19.4536 6.57914 5.99274e-05 10
-5.78117 -7.56146 -2.55042 0.000330344 4
-7.21544 -9.4374 -2.74264 0.000217256 1
-8.58022 -11.2225 -2.74595 0.000111048 1
-10.5245 -13.7654 -2.74445 4.73175e-05 1
-14.0294 -18.3498 -2.02085 9.28717e-05 10
-14.0298 -18.3502 -1.21057 9.39586e-05 10
-14.0432 -18.3677 -0.40358 9.44968e-05 10
-14.0268 -18.3462 0.403108 9.44788e-05 10
-14.0348 -18.3567 1.211 9.39049e-05 10
-14.0351 -18.3571 2.02166 9.27831e-05 10
-14.9588 -19.5653 4.78731 0.000105305 10
-14.9586 -19.565 5.68586 0.000101426 10
-14.95 -19.5538 6.59534 9.70498e-05 10
-5.74503 -7.5688 -2.54611 0.000386366 4
-7.17965 -9.45884 -2.74157 0.000217277 1
-8.53177 -11.2402 -2.74299 0.000111062 1
-10.4921 -13.8229 -2.74858 4.73251e-05 1
-14.0026 -18.4477 -2.02625 0.000117122 10
-13.9932 -18.4354 -1.21296 0.000118485 10
-13.9929 -18.4349 -0.403981 0.000119155 10
-13.9947 -18.4374 0.404034 0.000119124 10
-13.9919 -18.4337 1.21285 0.00011839 10
-13.9984 -18.4422 2.02564 0.000116966 10
-14.9936 -19.7533 4.82047 0.000141126 10
-15.0035 -19.7664 5.72914 0.000135381 10
-15.0151 -19.7817 6.65446 0.000129003 10
-5.72397 -7.59596 -2.54851 0.000335998 4
-7.13669 -9.4707 -2.73777 0.000217299 1
-8.48542 -11.2605 -2.74071 0.000111076 1
-10.4283 -13.8388 -2.74449 4.73327e-05 1
-13.9745 -18.5448 -2.03154 0.000116534 10
-13.9672 -18.5351 -1.2163 0.000117891 10
-13.9663 -18.5339 -0.40508 0.000118558 10
-13.9719 -18.5414 0.405243 0.000118527 10
-13.9671 -18.5349 1.21629 0.000117796 10
-13.9708 -18.5398 2.03099 0.000116378 10
-16.3836 -21.7418 5.29174 5.26567e-05 10
-16.3787 -21.7352 6.28318 5.06507e-05 10
-15.368 -20.394 6.84235 3.10599e-05 10
-5.68868 -7.60422 -2.5446 0.000375228 4
-6.62331 -8.85357 -2.55268 0.000273789 4
-8.448 -11.2927 -2.74133 0.00011109 1
-10.3868 -13.8843 -2.74631 4.73404e-05 1
-13.9425 -18.6373 -2.03633 0.000115935 10
-13.9392 -18.633 -1.21953 0.000117286 10
-13.9362 -18.629 -0.406091 0.00011795 10
-13.9353 -18.6277 0.406064 0.000117919 10
-13.9464 -18.6425 1.22015 0.000117191 10
-13.9375 -18.6307 2.0356 0.000115778 10
-16.2645 -21.7411 5.27774 5.28782e-05 10
-16.2625 -21.7385 6.26767 5.08657e-05 10
-15.2982 -20.4495 6.84302 3.10565e-05 10
-5.67164 -7.63687 -2.54889 0.000361257 4
-6.57898 -8.85861 -2.54749 0.00022329 4
-8.40776 -11.3211 -2.74109 0.000111103 1
-10.3381 -13.9203 -2.74628 4.7348e-05 1
-13.9154 -18.7371 -2.04191 0.000115324 10
-13.9084 -18.7276 -1.22254 0.00011667 10
-13.9086 -18.7279 -0.407187 0.000117331 10
-13.9144 -18.7357 0.407357 0.0001173 10
-13.9148 -18.7363 1.2231 0.000116575 10
-13.9142 -18.7355 2.04174 0.000115168 10
-16.152 -21.7487 5.26584 5.30941e-05 10
-16.1584 -21.7573 6.25681 5.10752e-05 10
-15.2354 -20.5145 6.84694 3.10531e-05 10
-5.64021 -7.6502 -2.54675 0.000352884 4
-6.55739 -8.89422 -2.55114 0.000184192 4
-8.37016 -11.353 -2.74173 0.000111117 1
-10.2906 -13.9579 -2.74659 4.73557e-05 1
-13.8857 -18.8341 -2.04719 0.000114704 10
-13.8808 -18.8275 -1.22589 0.000116043 10
-13.8891 -18.8387 -0.408539 0.000116702 10
-13.8806 -18.8272 0.408289 0.00011667 10
-13.8835 -18.8311 1.22612 0.000115949 10
-16.04 -21.7561 5.25406 5.33042e-05 10
-16.0505 -21.7703 6.24439 5.12792e-05 10
-15.1534 -20.5536 6.84228 3.10497e-05 10
-5.62013 -7.67893 -2.54977 0.000397728 4
-6.52158 -8.9106 -2.54929 0.000208663 4
-8.33035 -11.382 -2.74169 0.000111131 1
-10.2312 -13.9791 -2.74372 4.73634e-05 1
-13.8464 -18.9187 -2.05112 0.000114073 10
-13.8532 -18.928 -1.22927 0.000115406 10
-13.8456 -18.9175 -0.409199 0.000116061 10
-13.8505 -18.9243 0.409345 0.00011603 10
-13.8564 -18.9323 1.22955 0.000115312 10
-15.9261 -21.7602 5.24159 5.35083e-05 10
-15.9261 -21.7602 6.22552 5.14774e-05 10
-15.0845 -20.6104 6.84364 3.10463e-05 10
-5.59049 -7.69464 -2.54849 0.000400562 4
-6.489 -8.93134 -2.54873 0.000247812 4
-8.29105 -11.4117 -2.74185 0.000111145 1
-10.1822 -14.0146 -2.74369 4.73711e-05 1
-13.8169 -19.0173 -2.05657 0.000113432 10
-13.8136 -19.0127 -1.23164 0.000114759 10
-13.8129 -19.0118 -0.410192 0.000115411 10
-13.8272 -19.0315 0.410617 0.000115379 10
-13.818 -19.0188 1.23203 0.000114664 10
-15.8194 -21.7735 5.23146 5.37066e-05 10
-15.8246 -21.7807 6.21552 5.167e-05 10
-15.0126 -20.6631 6.84368 3.10429e-05 10
-5.55818 -7.7066 -2.54601 0.000319355 4
-6.46412 -8.96273 -2.55123 0.000241314 4
-8.25203 -11.4417 -2.74213 0.000111159 1
-10.141 -14.0609 -2.74581 4.73788e-05 1
-13.8067 -19.1435 -2.06499 0.000134126 10
-13.8079 -19.1452 -1.23709 0.000135685 10
-13.8013 -19.1359 -0.411828 0.000136445 10
-13.7991 -19.1329 0.411763 0.000136396 10
-13.8021 -19.1371 1.23657 0.000135537 10
-15.7151 -21.7895 5.2221 5.38989e-05 10
-15.7165 -21.7915 6.20291 5.18568e-05 10
-14.9363 -20.7096 6.8418 3.10394e-05 10
-5.54061 -7.73904 -2.55032 0.000358604 4
-6.42201 -8.97017 -2.54695 0.000249491 4
-8.21574 -11.4756 -2.74337 0.000111173 1
-10.0906 -14.0944 -2.74546 4.73865e-05 1
-13.7786 -19.2457 -2.07082 0.00013265 10
-13.7887 -19.2598 -1.24138 0.000134194 10
-13.795 -19.2686 -0.413645 0.000134947 10
-13.7819 -19.2503 0.413252 0.000134898 10
-13.7908 -19.2628 1.24157 0.000134048 10
-15.6102 -21.8041 5.21251 5.40852e-05 10
-15.6061 -21.7984 6.18933 5.20378e-05 10
-14.8676 -20.7668 6.84348 3.1036e-05 10
-5.5047 -7.74586 -2.54622 0.000381048 4
-6.39098 -8.99298 -2.54708 0.000251147 4
-8.17008 -11.4964 -2.74151 0.000111187 1
-10.0379 -14.1247 -2.74452 4.73943e-05 1
-13.7774 -19.3866 -2.08079 0.000131172 10
-13.7704 -19.3768 -1.24581 0.0001327 10
-13.767 -19.372 -0.414831 0.000133446 10
-13.7719 -19.379 0.414979 0.000133397 10
-13.7828 -19.3943 1.24694 0.000132555 10
-15.4992 -21.8095 5.20083 5.42653e-05 10
-15.493 -21.8008 6.17461 5.22129e-05 10
-14.7921 -20.8144 6.84213 3.10325e-05 10
-5.47791 -7.76544 -2.54636 4.76351e-05 4
-6.37359 -9.03513 -2.5527 0.000216921 4
-8.12677 -11.5204 -2.74045 0.000111201 1
-9.98902 -14.1603 -2.74465 4.74021e-05 1
-13.751 -19.4932 -2.08707 0.00012969 10
-13.7555 -19.4997 -1.25062 0.000131203 10
-13.7612 -19.5078 -0.416707 0.000131941 10
-13.7573 -19.5021 0.416586 0.000131892 10
-13.7577 -19.5028 1.25082 0.000131058 10
-15.3897 -21.8163 5.1896 5.44393e-05 10
-15.3813 -21.8044 6.1604 5.2382e-05 10
-14.7199 -20.8667 6.84239 3.1029e-05 10
-5.45326 -7.78806 -2.54752 0.000190556 4
-6.33499 -9.04731 -2.54988 0.000197369 4
-8.09242 -11.5572 -2.74245 0.000111215 1
-9.94979 -14.2098 -2.74748 4.74099e-05 1
-13.7401 -19.6229 -2.0958 0.000128205 10
-13.7347 -19.6152 -1.25495 0.000129703 10
-13.7342 -19.6145 -0.417959 0.000130433 10
-13.7347 -19.6152 0.417974 0.000130385 10
-13.7469 -19.6326 1.25606 0.000129559 10
-15.2825 -21.8257 5.17911 5.4607e-05 10
