VERSION 0.7
FIELDS x y z intensity label
SIZE 4 4 4 4 4
TYPE F F F F F
COUNT 1 1 1 1 1
WIDTH 1170
HEIGHT 1
VIEWPOINT 10.0593 53.9374 2.72683 0.729802 0.000977543 0.000299236 -0.683657
POINTS 1170
DATA ascii
17.1361 -12.2682 4.86554 0.000136377 10
16.5894 -11.8769 5.46689 0.000147896 10
7.99504 -5.68178 -2.62813 7.78722e-05 4
9.28265 -6.59684 -2.62912 3.94172e-05 4
11.3159 -8.04179 -2.69846 0.000118859 1
13.2284 -9.40092 -2.57036 0.000232744 4
17.2987 -12.2935 -2.60574 0.00018529 10
17.2798 -12.2801 -1.85466 0.000188566 10
22.4134 -15.9284 0.479958 0.000112312 10
17.272 -12.2746 1.11049 0.000148888 10
17.2707 -12.2736 1.85368 0.000147234 10
17.2675 -12.2714 4.11771 0.00013749 10
17.2741 -12.2761 4.89254 0.000132791 10
17.283 -12.2824 5.68128 0.000127463 10
8.03006 -5.66459 -2.63313 3.37449e-05 4
9.29446 -6.55652 -2.62597 5.30622e-05 4
13.3284 -9.40215 -2.5834 0.00024392 4
17.4291 -12.2949 -2.61891 0.000180399 10
17.4305 -12.2959 -1.86622 0.000183595 10
17.9235 -12.6436 -1.14953 0.000272908 10
17.9216 -12.6423 -0.382824 0.00027459 10
17.9392 -12.6547 0.383201 0.000274688 10
17.4179 -12.287 1.1171 0.000144969 10
17.4195 -12.2881 1.86504 0.000143355 10
17.4122 -12.283 4.14197 0.000133849 10
17.4085 -12.2803 4.91843 0.000129266 10
17.4271 -12.2935 5.71452 0.000124069 10
8.04854 -5.63565 -2.63272 0.000109023 4
9.3102 -6.51908 -2.62397 6.82235e-05 4
13.4071 -9.38775 -2.59228 0.000215797 4
17.5654 -12.2995 -2.63292 0.000175591 10
17.5755 -12.3065 -1.87713 0.000178709 10
17.9435 -12.5642 -1.14799 0.000275679 10
17.9325 -12.5565 -0.382119 0.000277377 10
17.9307 -12.5552 0.38208 0.000277475 10
17.5552 -12.2923 1.12315 0.000141115 10
17.5671 -12.3007 1.87624 0.000139541 10
17.5649 -12.299 4.16804 0.00013027 10
17.5647 -12.2989 4.9504 0.0001258 10
17.5521 -12.2901 5.74139 0.000120732 10
8.06193 -5.60319 -2.63069 0.000186898 4
13.5272 -9.40165 -2.60915 0.00025814 4
17.7225 -12.3175 -2.65001 0.000170864 10
17.7245 -12.3189 -1.88845 0.000173905 10
17.9481 -12.4743 -1.14549 0.000278453 10
17.934 -12.4645 -0.381222 0.000280167 10
17.9439 -12.4713 0.381431 0.000280266 10
17.7055 -12.3056 1.13001 0.000137326 10
17.7009 -12.3024 1.88592 0.000135791 10
17.7101 -12.3088 4.19229 0.000126752 10
17.6969 -12.2997 4.97554 0.000122394 10
17.7044 -12.3049 5.77712 7.49796e-05 10
8.07482 -5.57045 -2.62853 0.000153154 4
9.37039 -6.4642 -2.62815 6.97411e-05 4
17.8667 -12.3254 -2.66512 0.000166219 10
17.8734 -12.3301 -1.89971 0.000169184 10
17.9414 -12.377 -1.1423 0.000281232 10
17.9433 -12.3783 -0.380498 0.000282961 10
17.9353 -12.3727 0.380328 0.000283061 10
17.8519 -12.3152 1.1366 0.000133602 10
17.8583 -12.3196 1.8981 0.000132107 10
17.9077 -12.3537 2.67123 0.000137048 10
17.9129 -12.3573 3.44673 0.000133939 10
17.858 -12.3194 4.21708 0.000123295 10
17.8629 -12.3228 5.01007 0.000119047 10
17.9203 -12.3624 5.83345 0.00012056 10
8.09612 -5.54353 -2.62915 9.86425e-05 4
9.39618 -6.4337 -2.62907 7.42901e-05 4
13.6215 -9.32687 -2.61472 6.94027e-05 4
17.9995 -12.3245 -2.67849 0.000161655 10
18.022 -12.3399 -1.91091 0.000164545 10
17.9977 -12.3233 -1.14314 0.00016651 10
17.9986 -12.3239 -0.380757 0.000167523 10
18.0079 -12.3303 0.380952 0.000167572 10
18.001 -12.3255 1.14335 0.000129944 10
17.9944 -12.3211 1.90799 0.000128486 10
18.0077 -12.3301 2.67972 0.000126304 10
18.0148 -12.335 3.45802 0.000123429 10
18.0125 -12.3334 4.24339 0.000119898 10
18.0113 -12.3326 5.03959 0.000115759 10
17.988 -12.3166 5.84146 0.000111066 10
8.11829 -5.51718 -2.63008 5.71092e-05 4
9.4181 -6.40054 -2.62893 0.000238034 4
13.6531 -9.2786 -2.61453 7.70001e-05 4
18.163 -12.3435 -1.92128 0.000159988 10
18.1656 -12.3454 -1.15106 0.000161903 10
18.1632 -12.3437 -0.383324 0.000162891 10
18.1471 -12.3328 0.382984 0.000162939 10
18.1474 -12.333 1.14991 0.000126349 10
18.149 -12.334 1.9198 0.000124929 10
18.1511 -12.3355 2.69463 0.000122804 10
18.1418 -12.3291 3.47411 0.000120002 10
18.1434 -12.3302 4.26406 0.000116562 10
18.1529 -12.3367 5.06715 0.000112529 10
18.1522 -12.3362 5.88076 0.000107958 10
8.14445 -5.4935 -2.63233 0.000218055 4
9.42662 -6.35834 -2.6251 5.913e-05 4
13.6977 -9.2392 -2.61689 5.66287e-05 4
18.317 -12.355 -1.933 0.000155513 10
18.3222 -12.3585 -1.15824 0.000157379 10
18.3183 -12.3559 -0.385686 0.000158342 10
18.3147 -12.3534 0.385608 0.000158388 10
18.3073 -12.3484 1.1573 0.00012282 10
18.3115 -12.3513 1.93242 0.000121436 10
18.2982 -12.3423 2.71005 0.000119366 10
18.3054 -12.3471 3.49717 0.000116637 10
18.2978 -12.342 4.29019 0.000113286 10
18.3042 -12.3464 5.09731 0.000109359 10
18.2908 -12.3373 5.91168 0.000104906 10
8.15982 -5.46253 -2.63112 0.000137583 4
11.2021 -7.49917 -2.62035 0.00013804 4
13.7211 -9.18548 -2.61522 6.04278e-05 4
18.4724 -12.3662 -1.94483 0.000151119 10
18.4525 -12.3529 -1.16375 0.000152936 10
18.4523 -12.3527 -0.387596 0.000153874 10
18.4663 -12.3621 0.387889 0.00015392 10
18.466 -12.3619 1.1646 0.000119353 10
18.4586 -12.357 1.94338 0.000118006 10
18.4574 -12.3562 2.72723 0.00011599 10
18.4622 -12.3594 3.51887 0.000113333 10
18.4614 -12.3588 4.3184 0.00011007 10
18.4485 -12.3502 5.12546 0.000106246 10
18.4516 -12.3523 5.94969 0.000101911 10
8.17152 -5.42914 -2.62876 0.000285552 4
9.46518 -6.28865 -2.62355 9.70354e-05 4
11.226 -7.45854 -2.61983 0.000142775 4
13.7606 -9.14252 -2.61665 4.10914e-05 4
18.6275 -12.3761 -1.9566 0.000146805 10
22.4692 -14.9285 0.470873 0.000123709 10
18.6071 -12.3626 1.17077 0.000115951 10
18.6036 -12.3602 1.95409 0.000114639 10
18.5379 -12.3165 2.73275 0.000198939 10
18.5403 -12.3181 3.52554 0.000194387 10
18.6017 -12.3589 4.3411 0.000106913 10
18.6219 -12.3724 5.16161 0.00010319 10
18.531 -12.312 5.9614 0.000174808 10
8.19353 -5.40264 -2.62976 0.000127201 4
9.49336 -6.25972 -2.62529 5.76152e-05 4
11.2594 -7.42423 -2.62157 0.000131732 4
13.7966 -9.09716 -2.61744 6.38824e-05 4
18.7666 -12.3743 -1.96667 0.000142572 10
22.4847 -14.8259 0.470111 0.000124986 10
18.7783 -12.382 1.17881 0.000112611 10
18.7664 -12.3741 1.96664 0.000111335 10
18.5497 -12.2313 2.72818 0.000200847 10
18.5602 -12.2382 3.52118 0.000196255 10
18.7718 -12.3777 4.3707 0.000103815 10
18.7732 -12.3787 5.19153 0.000100192 10
18.5504 -12.2317 5.95385 0.000176502 10
8.22097 -5.37965 -2.63252 0.000142778 4
9.5217 -6.23083 -2.62709 6.21642e-05 4
11.2888 -7.38721 -2.6224 0.00016092 4
13.2374 -8.66232 -2.5056 4.58302e-05 4
18.9404 -12.3943 -1.98033 0.000138418 10
22.4761 -14.7079 0.468855 0.000126265 10
18.9351 -12.3908 1.18593 0.000109334 10
18.942 -12.3953 1.98049 0.000108092 10
18.5567 -12.1431 2.72296 0.000202756 10
18.5576 -12.1437 3.51262 0.000198125 10
18.9222 -12.3824 4.39563 0.000100776 10
18.929 -12.3868 5.22263 9.72513e-05 10
18.547 -12.1368 5.93912 0.000178197 10
8.2225 -5.33975 -2.62703 0.000501024 4
9.54222 -6.19679 -2.62677 3.48729e-05 4
11.3 -7.33834 -2.61903 0.000119902 4
13.2728 -8.61949 -2.5066 5.26057e-05 4
19.1016 -12.4047 -1.99264 0.000134343 10
22.4831 -14.6007 0.467935 0.000127545 10
19.0927 -12.399 1.19309 0.00010612 10
19.0887 -12.3963 1.99129 0.000104912 10
18.5708 -12.06 2.71884 0.000204667 10
18.5568 -12.0509 3.50448 0.000199995 10
19.0802 -12.3909 4.42226 9.77954e-05 10
19.0962 -12.4012 5.25677 9.43671e-05 10
18.5524 -12.048 5.92734 0.000179892 10
8.25557 -5.32035 -2.63165 0.000469874 4
11.3474 -7.31292 -2.62408 7.17841e-05 4
13.3006 -8.57165 -2.50618 5.65915e-05 4
19.2613 -12.413 -2.00477 0.000130347 10
22.489 -14.4932 0.467003 0.000128826 10
19.2476 -12.4042 1.20005 0.000102967 10
19.2446 -12.4023 2.00303 0.000101793 10
18.6301 -12.0063 2.72137 0.000113377 10
18.6224 -12.0013 3.50895 0.000110783 10
19.2409 -12.3999 4.44943 9.48725e-05 10
19.2516 -12.4068 5.2876 9.15389e-05 10
18.6158 -11.9971 5.93419 9.9629e-05 10
8.26208 -5.28382 -2.62783 0.000495837 4
9.59267 -6.13477 -2.6288 9.55225e-05 4
13.3717 -8.55155 -2.51393 0.00031609 4
19.4261 -12.4235 -2.0174 0.000126429 10
19.6635 -12.5753 -1.22324 0.000146725 10
19.6414 -12.5612 -0.406957 0.000147649 10
19.6419 -12.5615 0.406967 0.000147702 10
19.4273 -12.4242 1.20854 9.98763e-05 10
19.4325 -12.4276 2.01806 9.87344e-05 10
19.4072 -12.4114 4.47786 9.20071e-05 10
19.4046 -12.4098 5.3177 8.87667e-05 10
8.2752 -5.25161 -2.62615 0.000560739 4
13.4766 -8.55251 -2.52803 0.000236267 4
19.5862 -12.4298 -2.0295 0.000122589 10
19.6687 -12.4822 -1.22085 0.000148097 10
19.6586 -12.4757 -0.406409 0.000149029 10
19.6656 -12.4802 0.406553 0.000149082 10
19.5976 -12.437 1.21643 9.68466e-05 10
19.5996 -12.4383 2.0309 9.57368e-05 10
19.7082 -12.5072 2.86601 5.86689e-05 10
19.6967 -12.4999 3.69483 5.73004e-05 10
19.592 -12.4335 4.51045 8.91989e-05 10
19.5872 -12.4304 5.3558 8.60501e-05 10
19.7016 -12.503 6.25236 5.14233e-05 10
8.30485 -5.22984 -2.62975 0.000467285 4
9.61683 -6.05604 -2.62377 0.000150108 4
13.5752 -8.54875 -2.54091 0.000330577 4
19.7689 -12.4491 -2.04392 0.000118826 10
19.9293 -12.5502 -1.2343 0.000142073 10
19.9103 -12.5382 -0.410705 0.000142971 10
19.918 -12.5431 0.410864 0.000143022 10
19.7627 -12.4452 1.22397 9.38776e-05 10
19.7627 -12.4452 2.04328 9.27994e-05 10
19.7358 -12.4283 2.86372 0.000168692 10
19.737 -12.429 3.69423 0.000164764 10
19.7529 -12.4391 4.53748 8.64476e-05 10
19.7585 -12.4426 5.39074 8.33886e-05 10
19.7291 -12.4241 6.24728 0.000147883 10
8.32418 -5.20153 -2.63011 0.000488055 4
9.64368 -6.02604 -2.62535 5.00363e-05 4
11.4368 -7.14648 -2.62141 3.47097e-05 4
13.7014 -8.56156 -2.55891 0.000277584 4
19.9392 -12.4594 -2.05702 0.00011514 10
19.945 -12.4631 -1.23257 7.69885e-05 10
19.9391 -12.4593 -0.410399 7.74723e-05 10
19.9427 -12.4616 0.410473 7.74974e-05 10
19.9439 -12.4623 1.2325 9.09688e-05 10
19.9284 -12.4526 2.05591 8.99216e-05 10
19.7391 -12.3343 2.85792 0.000170246 10
19.736 -12.3324 3.68596 0.000166285 10
19.9262 -12.4513 4.56727 8.37524e-05 10
19.9251 -12.4506 5.42429 8.07817e-05 10
19.7417 -12.336 6.23759 0.00014926 10
8.35096 -5.17781 -2.63284 0.000449116 4
9.65932 -5.98903 -2.6239 4.24553e-05 4
11.4667 -7.10967 -2.62257 3.15545e-05 4
13.8034 -8.55846 -2.57237 0.000193949 4
20.1107 -12.4691 -2.07021 0.000111529 10
20.1868 -12.5164 -1.2448 0.000137595 10
20.2068 -12.5287 -0.415007 0.000138468 10
20.2029 -12.5263 0.414926 0.000138517 10
20.0986 -12.4617 1.23936 8.81198e-05 10
20.0968 -12.4606 2.06878 8.7103e-05 10
19.7527 -12.2472 2.85369 0.000171801 10
19.766 -12.2555 3.68356 0.000167806 10
20.0935 -12.4585 4.59562 8.11131e-05 10
20.0935 -12.4585 5.45828 7.8229e-05 10
19.7555 -12.249 6.22841 0.000150637 10
8.3492 -5.13646 -2.62662 0.000563344 4
9.68624 -5.95902 -2.62554 6.06506e-05 4
11.4807 -7.06295 -2.62011 7.0209e-05 4
13.9221 -8.56496 -2.58892 0.000198463 4
20.2848 -12.4793 -2.08364 0.000107994 10
20.2753 -12.4735 -1.24756 7.22151e-05 10
20.2871 -12.4807 -0.415758 7.26715e-05 10
20.2914 -12.4834 0.415847 7.26954e-05 10
20.2775 -12.4748 1.2477 8.53301e-05 10
20.2706 -12.4706 2.08218 8.43432e-05 10
19.7585 -12.1555 2.84837 0.000173356 10
19.7611 -12.1571 3.67472 0.000169327 10
20.2641 -12.4666 4.62466 7.85293e-05 10
20.2839 -12.4788 5.49814 7.57302e-05 10
19.7652 -12.1596 6.21804 0.000152014 10
8.37841 -5.1142 -2.63017 0.000519213 4
11.5126 -7.02731 -2.62178 3.31325e-05 4
14.0277 -8.56253 -2.60297 7.60179e-05 4
20.4595 -12.4885 -2.09709 0.000104533 10
20.475 -12.498 -1.25716 0.000133282 10
20.4639 -12.4912 -0.418486 0.00013413 10
20.4766 -12.499 0.418745 0.000134178 10
20.4508 -12.4832 1.25567 8.25993e-05 10
20.3511 -12.4224 2.08598 0.000159166 10
19.8089 -12.0914 2.84954 9.11572e-05 10
19.7859 -12.0774 3.67147 8.9037e-05 10
20.4474 -12.4811 4.65651 7.60006e-05 10
20.4634 -12.4909 5.53493 7.32847e-05 10
19.7944 -12.0826 6.21392 7.99286e-05 10
8.39301 -5.08299 -2.62917 0.000472485 4
9.71964 -5.88643 -2.62339 3.18418e-05 4
14.1492 -8.56904 -2.61995 0.000275607 4
20.6569 -12.5103 -2.11284 0.000101147 10
20.7229 -12.5502 -1.26968 0.000127982 10
20.7305 -12.5548 -0.423038 0.000128799 10
20.7388 -12.5598 0.423207 0.000128845 10
20.6487 -12.5053 1.26514 7.9927e-05 10
20.3589 -12.3298 2.08236 0.000160594 10
20.3463 -12.3222 2.92064 0.000157786 10
20.3407 -12.3187 3.7664 0.000154084 10
20.6363 -12.4978 4.68957 7.35263e-05 10
20.6382 -12.499 5.57039 7.08923e-05 10
20.3335 -12.3144 6.36963 0.000138182 10
8.40929 -5.05281 -2.62873 0.000529599 4
11.5517 -6.94098 -2.61959 5.12768e-05 4
14.244 -8.55866 -2.63196 0.000236745 4
20.8253 -12.5131 -2.12558 9.78339e-05 10
20.9931 -12.6139 -1.28353 0.000122931 10
21.008 -12.6229 -0.4278 0.00012372 10
21.0052 -12.6212 0.427743 0.000123764 10
20.8252 -12.513 1.27327 7.73126e-05 10
20.3699 -12.2395 2.0791 0.000162021 10
20.3586 -12.2327 2.91626 0.00015919 10
20.3544 -12.2301 3.76101 0.000155458 10
20.8178 -12.5086 4.72085 7.11062e-05 10
20.8273 -12.5143 5.6096 6.85524e-05 10
20.3405 -12.2218 6.35842 0.000139424 10
8.43223 -5.02662 -2.6304 7.00942e-05 4
9.77418 -5.82658 -2.62707 3.63908e-05 4
14.3732 -8.56814 -2.65029 0.0002674 4
21.0052 -12.5216 -2.13946 9.45939e-05 10
21.0218 -12.5315 -1.28261 6.32635e-05 10
21.0238 -12.5327 -0.427229 6.36682e-05 10
21.0114 -12.5253 0.426976 6.369e-05 10
21.0071 -12.5228 1.28171 7.47557e-05 10
20.3757 -12.1464 2.07535 0.000163448 10
20.3635 -12.1391 2.91087 0.000160594 10
20.3727 -12.1446 3.75654 0.000156831 10
20.9958 -12.516 4.75129 6.87396e-05 10
21.0141 -12.5269 5.64809 6.62643e-05 10
20.3492 -12.1305 6.34785 0.000140666 10
8.44958 -4.99707 -2.63036 0.000127208 4
9.79275 -5.79142 -2.62661 6.82329e-05 4
11.6071 -6.86441 -2.62121 8.36211e-05 4
14.4799 -8.56341 -2.66444 0.000247914 4
21.1939 -12.5341 -2.15422 9.14265e-05 10
21.2732 -12.581 -1.29526 0.000119164 10
21.2682 -12.578 -0.431301 0.000119931 10
21.2837 -12.5871 0.431614 0.000119974 10
21.1929 -12.5334 1.29037 7.22558e-05 10
20.5098 -12.1295 2.08468 8.12778e-05 10
21.1978 -12.5363 4.78707 6.64264e-05 10
21.121 -12.4909 5.66507 3.28942e-05 10
8.46461 -4.96616 -2.62962 0.000319319 4
9.80799 -5.75432 -2.6253 7.73307e-05 4
11.6377 -6.82781 -2.62273 5.75882e-05 4
14.605 -8.56868 -2.68193 0.000204157 4
21.4039 -12.5576 -2.1711 8.83303e-05 10
22.5801 -13.2477 0.456963 0.000144255 10
21.389 -12.5488 1.29963 6.98122e-05 10
20.6928 -12.1404 2.09897 7.85614e-05 10
21.5022 -12.6153 3.06098 8.43125e-05 10
21.3894 -12.5491 4.82043 6.41657e-05 10
21.1637 -12.4167 5.66487 3.28942e-05 10
21.5036 -12.6161 6.68033 7.36524e-05 10
8.49101 -4.94189 -2.63245 0.00028557 4
9.82956 -5.72094 -2.62571 7.27819e-05 4
11.6496 -6.78025 -2.62007 4.25995e-05 4
14.6758 -8.5415 -2.68944 5.16853e-05 1
21.5855 -12.5631 -2.18505 8.53051e-05 10
22.5981 -13.1524 0.456395 0.00014554 10
21.5776 -12.5585 1.30842 6.74244e-05 10
20.8768 -12.1506 2.11332 7.59062e-05 10
21.5323 -12.5321 3.05902 0.000132515 10
20.8769 -12.1506 3.82583 7.28094e-05 10
21.5819 -12.5609 4.85388 6.1957e-05 10
21.2133 -12.3464 5.66657 3.28941e-05 10
21.5412 -12.5373 6.67837 0.000115762 10
8.50737 -4.91173 -2.63219 0.000519218 4
9.85215 -5.68814 -2.62642 8.94611e-05 4
14.7163 -8.49648 -2.69142 5.16853e-05 1
21.7943 -12.5829 -2.20173 8.23502e-05 10
22.6698 -13.0884 -1.37187 0.000144108 10
22.663 -13.0845 -0.456781 0.000145057 10
22.5983 -13.0471 0.455476 0.000146824 10
21.7774 -12.5732 1.31787 6.50919e-05 10
21.0705 -12.165 2.12861 7.33116e-05 10
21.5398 -12.436 3.05391 0.000133665 10
21.0597 -12.1588 3.85154 7.03129e-05 10
21.7651 -12.5661 4.8852 5.98e-05 10
21.2315 -12.258 5.65998 3.28941e-05 10
21.5457 -12.4394 6.66628 0.000116778 10
8.51598 -4.87715 -2.62957 0.000407586 4
9.86737 -5.6511 -2.62521 9.70426e-05 4
11.6919 -6.69599 -2.61899 3.39219e-05 4
14.7559 -8.45077 -2.69324 5.16854e-05 1
21.9898 -12.5937 -2.21703 7.94648e-05 10
22.6008 -12.9436 -1.36495 0.000147088 10
22.5942 -12.9398 -0.454481 0.000148054 10
22.589 -12.9368 0.454377 0.000148108 10
21.9896 -12.5936 1.32804 6.28143e-05 10
21.2588 -12.175 2.14332 7.07769e-05 10
21.5622 -12.3488 3.05095 0.000134814 10
21.2655 -12.1789 3.88138 6.78743e-05 10
21.9643 -12.5791 4.92002 5.76941e-05 10
21.2797 -12.187 5.66145 3.28941e-05 10
21.5563 -12.3454 6.65616 0.000117792 10
8.53482 -4.84845 -2.63014 0.000480277 4
9.89635 -5.62191 -2.62768 5.91353e-05 4
11.7234 -6.65984 -2.62084 4.18107e-05 4
14.7665 -8.38855 -2.68982 5.16853e-05 1
22.2011 -12.612 -2.23388 7.66483e-05 10
22.6018 -12.8396 -1.3623 0.000148362 10
22.6027 -12.8401 -0.453748 0.000149336 10
22.6003 -12.8388 0.4537 0.00014939 10
22.1943 -12.6081 1.33773 6.0591e-05 10
21.4748 -12.1994 2.1608 6.83017e-05 10
21.568 -12.2523 3.04569 0.000135962 10
21.458 -12.1898 3.90872 6.54932e-05 10
22.1693 -12.5939 4.95607 5.56388e-05 10
21.4621 -12.1922 5.69861 6.12382e-05 10
21.5595 -12.2475 6.64393 0.000118806 10
8.55695 -4.82159 -2.63176 0.000529602 4
9.89899 -5.5778 -2.62319 4.09398e-05 4
11.7463 -6.61873 -2.62078 5.44327e-05 4
14.8124 -8.34635 -2.69285 5.16853e-05 1
22.407 -12.6257 -2.25014 7.38999e-05 10
22.6071 -12.7384 -1.35993 0.000149635 10
22.6161 -12.7435 -0.453121 0.000150617 10
22.6177 -12.7444 0.453152 0.000150671 10
22.3933 -12.618 1.34707 5.84213e-05 10
21.673 -12.2121 2.17644 6.58854e-05 10
21.6581 -12.2037 3.05239 6.47135e-05 10
22.3892 -12.6157 4.07031 5.53154e-05 10
22.3898 -12.616 4.99549 5.36336e-05 10
21.6568 -12.203 5.73895 5.90537e-05 10
21.6595 -12.2045 6.66158 5.6541e-05 10
8.56797 -4.78848 -2.62999 0.000493256 4
11.7775 -6.58221 -2.62258 4.89105e-05 4
14.8427 -8.29529 -2.69308 5.16852e-05 1
22.6006 -12.631 -2.26515 7.12189e-05 10
22.6272 -12.6459 -1.35847 0.000150906 10
22.6124 -12.6376 -0.452161 0.000151896 10
22.6116 -12.6372 0.452144 0.000151951 10
22.6045 -12.6332 1.35711 5.63048e-05 10
22.5871 -12.6235 2.2638 5.56334e-05 10
22.5874 -12.6237 3.17712 5.4628e-05 10
22.6028 -12.6323 4.1011 5.33031e-05 10
22.5896 -12.6249 5.0302 5.16779e-05 10
22.5788 -12.6188 5.97157 4.97757e-05 10
22.5919 -12.6262 6.93474 4.76235e-05 10
8.58889 -4.7609 -2.6313 0.000480275 4
9.95367 -5.51741 -2.62741 9.0977e-05 4
11.8093 -6.54599 -2.62456 5.04881e-05 4
14.8719 -8.24365 -2.69315 5.1685e-05 1
22.8246 -12.6519 -2.28316 6.86045e-05 10
22.8018 -12.6392 -1.3663 6.94871e-05 10
22.7994 -12.6379 -0.455015 6.99448e-05 10
22.8155 -12.6469 0.455337 6.9971e-05 10
22.8118 -12.6448 1.3669 5.42409e-05 10
22.7965 -12.6363 2.28035 5.35923e-05 10
22.8166 -12.6474 3.20313 5.2621e-05 10
22.8103 -12.644 4.13071 5.13411e-05 10
22.7973 -12.6367 5.0666 4.97712e-05 10
22.7897 -12.6325 6.01566 4.79338e-05 10
22.802 -12.6393 6.98564 4.58552e-05 10
8.60818 -4.73239 -2.63213 0.000545177 4
9.96358 -5.47753 -2.62496 0.00014253 4
11.8138 -6.49471 -2.62052 3.7866e-05 4
23.0407 -12.6667 -2.30033 6.60564e-05 10
23.0395 -12.6661 -1.37789 6.69089e-05 10
23.0212 -12.656 -0.458558 6.73512e-05 10
23.0294 -12.6605 0.458719 6.73766e-05 10
22.8553 -12.5648 1.36687 0.000114899 10
22.8703 -12.573 2.28332 0.000113523 10
22.8584 -12.5665 3.20283 0.000111464 10
23.0227 -12.6568 4.16114 4.94289e-05 10
22.8642 -12.5697 5.07168 0.000105423 10
22.8616 -12.5683 6.02301 0.000101528 10
22.8474 -12.5605 6.98607 9.71231e-05 10
8.60345 -4.69076 -2.62566 0.000501042 4
9.99963 -5.45198 -2.62943 3.03255e-05 4
11.8405 -6.45564 -2.62141 3.78659e-05 4
17.8787 -9.74777 -2.50031 8.84645e-05 4
23.2405 -12.6711 -2.31585 6.35733e-05 10
23.2369 -12.6692 -1.38704 6.43966e-05 10
23.2316 -12.6663 -0.461864 6.48238e-05 10
23.2357 -12.6685 0.461946 6.48485e-05 10
22.8605 -12.464 1.36457 0.000115851 10
22.8793 -12.4742 2.27986 0.000114465 10
22.8791 -12.4741 3.19961 0.000112389 10
23.2263 -12.6634 4.18992 4.75657e-05 10
22.8739 -12.4713 5.06416 0.000106302 10
22.872 -12.4702 6.01427 0.000102378 10
22.8506 -12.4586 6.97372 9.79385e-05 10
8.62608 -4.66411 -2.62759 0.000527002 4
10.0003 -5.40713 -2.62462 4.54882e-05 4
18.0195 -9.74313 -2.51523 9.68696e-05 4
23.4597 -12.6846 -2.33327 6.11546e-05 10
23.4685 -12.6894 -1.39821 6.19492e-05 10
23.4627 -12.6862 -0.465576 6.23616e-05 10
23.4573 -12.6833 0.465468 6.23857e-05 10
22.8763 -12.3692 1.36293 0.000116801 10
22.8797 -12.371 2.27558 0.000115404 10
22.874 -12.3679 3.19283 0.000113313 10
23.4582 -12.6838 4.22374 4.5751e-05 10
22.8602 -12.3604 5.05152 0.00010718 10
22.8641 -12.3626 6.00079 0.000103226 10
22.8772 -12.3697 6.96861 9.87526e-05 10
8.65847 -4.64263 -2.6325 0.000503635 4
10.0204 -5.37288 -2.62496 8.94598e-05 4
11.8801 -6.37004 -2.62027 5.12763e-05 4
18.1831 -9.74969 -2.5333 6.62649e-05 4
23.6876 -12.7012 -2.35151 5.87994e-05 10
23.6811 -12.6977 -1.40822 5.95661e-05 10
23.7006 -12.7081 -0.469413 5.99641e-05 10
23.6903 -12.7026 0.469209 5.99875e-05 10
22.9256 -12.2926 1.3633 5.32236e-05 10
22.9239 -12.2917 2.2757 5.25886e-05 10
22.9185 -12.2888 3.19304 5.16371e-05 10
23.6914 -12.7032 4.25773 4.39842e-05 10
22.9081 -12.2832 5.05261 4.88448e-05 10
22.9074 -12.2828 6.00086 4.70442e-05 10
22.9133 -12.286 6.9665 4.5007e-05 10
8.65289 -4.60082 -2.6259 5.1921e-05 4
11.9112 -6.33329 -2.62224 3.31323e-05 4
14.573 -7.74861 -2.61413 5.87073e-05 4
18.3141 -9.73776 -2.54679 8.94365e-05 4
23.913 -12.7148 -2.36947 5.65071e-05 10
23.9223 -12.7197 -1.41992 5.72465e-05 10
23.9287 -12.7231 -0.473049 5.76304e-05 10
23.9131 -12.7148 0.472739 5.76531e-05 10
23.9078 -12.712 4.28861 4.22647e-05 10
8.67469 -4.57365 -2.62766 3.63446e-05 4
10.0716 -5.31016 -2.6286 0.000112203 4
14.5965 -7.69587 -2.61351 6.42322e-05 4
18.482 -9.74443 -2.56539 0.000108327 4
24.1592 -12.7377 -2.38945 5.42769e-05 10
24.1547 -12.7354 -1.43107 5.49896e-05 10
24.1435 -12.7294 -0.476413 5.53597e-05 10
24.1577 -12.7369 0.476693 5.53818e-05 10
24.1303 -12.7225 4.32054 4.05919e-05 10
8.69483 -4.54555 -2.62894 8.0477e-05 4
10.0855 -5.27256 -2.6274 5.15525e-05 4
11.9461 -6.24525 -2.62025 3.39208e-05 4
14.6402 -7.65373 -2.61654 6.04331e-05 4
18.6254 -9.73711 -2.58057 8.39418e-05 4
24.3803 -12.7457 -2.40689 5.2108e-05 10
24.3891 -12.7503 -1.44231 5.27946e-05 10
24.3806 -12.7459 -0.480211 5.31513e-05 10
24.3724 -12.7416 0.48005 5.31728e-05 10
24.371 -12.7409 4.35565 3.89652e-05 10
8.72021 -4.52013 -2.63182 0.00020249 4
10.1105 -5.2408 -2.62915 0.000168303 4
11.984 -6.21192 -2.62381 3.1554e-05 4
14.6527 -7.59525 -2.61402 6.63033e-05 4
18.7958 -9.7428 -2.59945 9.43129e-05 4
24.6317 -12.7679 -2.4273 4.99995e-05 10
24.6291 -12.7665 -1.45385 5.06607e-05 10
24.6094 -12.7563 -0.483838 5.10043e-05 10
24.628 -12.7659 0.484203 5.10252e-05 10
24.737 -12.8225 1.46023 5.64278e-05 10
24.7439 -12.826 2.43835 5.57331e-05 10
24.7436 -12.8258 3.42202 5.46938e-05 10
24.6058 -12.7544 4.38962 3.73841e-05 10
24.7309 -12.8193 5.41463 5.16483e-05 10
24.7209 -12.8141 6.42843 4.96874e-05 10
8.73724 -4.49033 -2.63222 0.000142781 4
10.1289 -5.20553 -2.62917 0.000103104 4
11.9926 -6.16334 -2.62095 3.31315e-05 4
24.8705 -12.7817 -2.44642 4.79507e-05 10
24.875 -12.784 -1.46573 4.85872e-05 10
24.8778 -12.7854 -0.488234 4.89181e-05 10
24.8742 -12.7836 0.488164 4.89383e-05 10
24.7731 -12.7316 1.45972 8.86566e-05 10
24.7676 -12.7288 2.4363 8.75654e-05 10
24.7665 -12.7283 3.41904 8.59326e-05 10
24.8454 -12.7688 4.42438 3.5848e-05 10
24.7818 -12.7361 5.41602 8.11482e-05 10
24.7689 -12.7295 6.42932 7.80677e-05 10
8.73945 -4.45297 -2.62818 8.8264e-05 4
10.1358 -5.16445 -2.62628 6.97464e-05 4
12.0201 -6.12455 -2.62228 3.78643e-05 4
25.1164 -12.7975 -2.4662 4.59606e-05 10
25.114 -12.7962 -1.47717 4.6573e-05 10
25.1049 -12.7916 -0.491812 4.68914e-05 10
25.1082 -12.7933 0.491877 4.69109e-05 10
24.7879 -12.6301 1.45799 8.93569e-05 10
24.7885 -12.6304 2.434 8.82577e-05 10
24.7868 -12.6295 3.41573 8.6613e-05 10
25.1031 -12.7907 4.46231 3.4356e-05 10
24.771 -12.6215 5.404 8.17937e-05 10
24.7822 -12.6272 6.4213 7.86906e-05 10
8.75228 -4.4211 -2.62739 0.000132395 4
10.1625 -5.13345 -2.62854 8.18756e-05 4
25.3706 -12.8156 -2.48676 4.40285e-05 10
25.3666 -12.8136 -1.48939 4.46174e-05 10
25.3538 -12.8071 -0.49581 4.49236e-05 10
25.3688 -12.8147 0.496102 4.49426e-05 10
24.8031 -12.529 1.4563 9.00556e-05 10
24.7762 -12.5153 2.42849 8.89484e-05 10
24.7888 -12.5217 3.40996 8.72919e-05 10
25.3644 -12.8125 4.50078 3.29076e-05 10
24.792 -12.5233 5.399 8.24376e-05 10
24.7808 -12.5177 6.40957 7.93121e-05 10
8.76898 -4.39118 -2.62778 0.000111627 4
10.1651 -5.09028 -2.62459 3.48727e-05 4
12.0717 -6.04506 -2.62427 9.22927e-05 4
25.6136 -12.8263 -2.50617 4.21534e-05 10
25.6231 -12.8311 -1.50181 4.27195e-05 10
25.6108 -12.8249 -0.499956 4.30139e-05 10
25.6273 -12.8332 0.500279 4.30323e-05 10
24.8009 -12.4194 1.45362 9.07524e-05 10
24.8017 -12.4198 2.42673 8.96374e-05 10
24.795 -12.4164 3.40483 8.7969e-05 10
25.5995 -12.8193 4.53453 3.15022e-05 10
24.7983 -12.4181 5.39091 8.308e-05 10
24.7968 -12.4173 6.40246 7.9932e-05 10
24.7836 -12.4107 7.42686 3.22871e-05 10
8.78249 -4.35967 -2.62725 0.000238828 4
10.1909 -5.05883 -2.6267 7.42936e-05 4
12.0803 -5.99671 -2.62157 7.41491e-05 4
25.885 -12.8494 -2.52832 4.03347e-05 10
25.8769 -12.8454 -1.51405 4.08785e-05 10
25.8684 -12.8412 -0.504107 4.11613e-05 10
25.8638 -12.8389 0.504016 4.11791e-05 10
25.8789 -12.8464 1.51417 3.19147e-05 10
25.8624 -12.8382 2.52611 3.15177e-05 10
25.8686 -12.8413 3.54607 3.09229e-05 10
25.876 -12.845 4.57553 3.01392e-05 10
25.8539 -12.834 5.61061 2.91786e-05 10
8.80369 -4.33195 -2.62906 0.00015316 4
10.2038 -5.02091 -2.62549 0.000112198 4
12.1008 -5.95435 -2.6215 4.18071e-05 4
26.1568 -12.8708 -2.55047 3.85714e-05 10
26.0937 -12.8397 -1.5241 9.52444e-05 10
26.0888 -12.8373 -0.507526 9.58993e-05 10
26.1413 -12.8631 0.508546 3.93823e-05 10
26.1222 -12.8537 1.52576 3.05216e-05 10
26.0881 -12.8369 2.54376 7.34133e-05 10
26.101 -12.8433 3.57178 7.20188e-05 10
26.1325 -12.8588 4.61292 2.88178e-05 10
26.0719 -12.829 6.70841 6.53086e-05 10
8.8298 -4.30658 -2.63235 0.000179119 4
10.2146 -4.982 -2.62377 8.64218e-05 4
12.116 -5.90938 -2.62031 5.44276e-05 4
14.8437 -7.23975 -2.61574 5.1105e-05 4
26.4082 -12.8801 -2.57057 3.68626e-05 10
26.094 -12.7269 -1.52152 9.59745e-05 10
26.1149 -12.7371 -0.507165 9.6634e-05 10
26.4051 -12.8786 0.512801 3.76408e-05 10
26.3951 -12.8738 1.53907 2.91715e-05 10
26.0924 -12.7261 2.53983 7.39764e-05 10
26.0839 -12.722 3.56334 7.25721e-05 10
26.0814 -12.7208 6.69939 6.58143e-05 10
8.84553 -4.27609 -2.63257 7.00894e-05 4
10.2331 -4.94686 -2.62406 7.12595e-05 4
12.1391 -5.86829 -2.62086 4.6539e-05 4
18.3696 -8.8802 -2.50522 0.000150422 4
26.6913 -12.9031 -2.59373 3.52075e-05 10
26.1233 -12.6285 -1.52064 9.67025e-05 10
26.1137 -12.6239 -0.506283 9.73664e-05 10
26.6716 -12.8936 0.517099 3.59541e-05 10
26.1138 -12.6239 2.53761 7.45378e-05 10
26.0925 -12.6136 3.55847 7.31237e-05 10
26.0872 -12.6111 6.68953 6.63185e-05 10
8.85328 -4.24178 -2.63046 0.00013239 4
10.2536 -4.91269 -2.6249 8.64203e-05 4
12.1586 -5.82542 -2.62065 0.000103331 4
18.5271 -8.87668 -2.52246 0.000118072 4
26.9486 -12.9116 -2.61434 3.36052e-05 10
26.1141 -12.5118 -1.51756 9.74281e-05 10
26.1233 -12.5162 -0.505619 9.80966e-05 10
26.9611 -12.9176 0.521835 3.4321e-05 10
26.1103 -12.51 2.53302 7.50976e-05 10
26.0992 -12.5046 3.55341 7.36736e-05 10
26.1037 -12.5068 6.68253 6.68211e-05 10
8.8591 -4.20661 -2.6278 0.000173923 4
10.2762 -4.8795 -2.62632 5.45808e-05 4
18.7018 -8.88028 -2.54202 0.000102932 4
27.2567 -12.9424 -2.63983 3.20549e-05 10
27.2512 -12.9398 -1.581 3.24959e-05 10
27.2713 -12.9494 -0.526961 8.20944e-05 10
27.234 -12.9317 0.52624 3.27408e-05 10
27.2513 -12.9399 2.63931 4.01069e-05 10
27.2542 -12.9412 3.70448 3.93325e-05 10
27.2536 -12.941 6.96528 3.56099e-05 10
8.87247 -4.17507 -2.62743 7.26836e-05 4
10.2884 -4.84134 -2.6251 5.91286e-05 4
12.2109 -5.74603 -2.62323 3.0762e-05 4
14.9482 -7.03408 -2.61659 2.86586e-05 4
18.8823 -8.88532 -2.56231 8.40208e-05 4
27.5299 -12.9546 -2.6619 3.05556e-05 10
27.3006 -12.8467 -1.58126 8.1749e-05 10
27.3025 -12.8476 -0.526694 8.232e-05 10
27.5271 -12.9533 0.531026 3.12124e-05 10
27.2827 -12.8383 2.63799 6.29987e-05 10
27.2996 -12.8462 3.70454 6.17826e-05 10
27.2816 -12.8377 6.96094 5.59358e-05 10
8.89291 -4.14683 -2.62918 8.30664e-05 4
10.3 -4.80299 -2.62378 9.09661e-05 4
12.2317 -5.70372 -2.62338 3.78605e-05 4
19.0869 -8.90036 -2.58585 0.000101672 4
27.3031 -12.7317 -1.57882 8.23544e-05 10
27.2967 -12.7287 -0.525722 8.29293e-05 10
27.819 -12.9722 0.535781 2.97349e-05 10
27.3121 -12.7358 2.63652 6.34656e-05 10
27.2909 -12.7259 3.6973 6.22412e-05 10
27.2821 -12.7219 6.94971 5.63543e-05 10
8.91457 -4.11911 -2.63132 8.30656e-05 4
12.2531 -5.66173 -2.62373 3.4705e-05 4
14.9921 -6.92732 -2.61574 2.86577e-05 4
19.2575 -8.89821 -2.60474 8.78272e-05 4
27.3279 -12.6273 -1.57769 8.29576e-05 10
27.304 -12.6162 -0.52501 8.35364e-05 10
27.2979 -12.6134 2.63088 6.39308e-05 10
27.3011 -12.6149 3.69271 6.26981e-05 10
27.3051 -12.6167 5.84678 5.90905e-05 10
27.2915 -12.6104 6.94084 5.67714e-05 10
8.92149 -4.08458 -2.62914 7.52775e-05 4
10.3443 -4.73601 -2.62658 0.000160703 4
12.2703 -5.61779 -2.6232 5.52118e-05 4
19.463 -8.91087 -2.62831 9.59806e-05 4
8.94433 -4.05733 -2.63168 0.000186894 4
10.3653 -4.70192 -2.62772 4.09334e-05 4
12.2923 -5.57604 -2.62373 5.36336e-05 4
19.6479 -8.91267 -2.64906 0.000113111 4
8.93819 -4.01698 -2.62573 0.000368593 4
10.3776 -4.6639 -2.6267 4.0933e-05 4
12.2975 -5.52672 -2.6207 6.54636e-05 4
19.8344 -8.91395 -2.67 0.000116742 4
8.97554 -3.99617 -2.63259 0.000121998 4
10.3955 -4.62836 -2.62711 5.45766e-05 4
12.3322 -5.49064 -2.62399 3.2337e-05 4
29.3346 -13.0606 -1.68285 6.23681e-05 10
29.3269 -13.0572 -0.560348 6.28161e-05 10
29.3332 -13.06 1.68277 4.86847e-05 10
29.3295 -13.0583 2.80883 4.80465e-05 10
29.3107 -13.05 5.08169 4.58384e-05 10
29.3091 -13.0493 6.23627 4.4304e-05 10
29.316 -13.0523 7.40863 4.25138e-05 10
29.3008 -13.0455 8.59412 4.04959e-05 10
8.98689 -3.96369 -2.63184 0.000129784 4
10.4022 -4.58791 -2.62474 5.7608e-05 4
12.339 -5.44215 -2.62138 4.57443e-05 4
15.1128 -6.66554 -2.61611 4.86789e-05 4
29.3267 -12.9346 -1.6798 6.28142e-05 10
29.3312 -12.9366 -0.559565 6.32648e-05 10
29.3262 -12.9344 1.67977 4.90328e-05 10
29.3256 -12.9342 2.80412 4.83902e-05 10
29.3317 -12.9368 3.93621 4.743e-05 10
29.3238 -12.9334 5.07611 4.61676e-05 10
29.32 -12.9317 6.22894 4.4623e-05 10
29.3221 -12.9326 7.39874 4.2821e-05 10
29.3162 -12.93 8.58534 4.07899e-05 10
8.98908 -3.92724 -2.62845 0.000171313 4
10.4269 -4.5554 -2.62695 6.21552e-05 4
12.3525 -5.39669 -2.62024 5.36303e-05 4
15.1349 -6.61227 -2.61592 3.1071e-05 4
29.3385 -12.8177 -1.6779 6.32582e-05 10
29.3357 -12.8165 -0.558793 6.37117e-05 10
29.3472 -12.8215 1.6784 4.93793e-05 10
29.3419 -12.8192 2.80138 4.87326e-05 10
29.345 -12.8205 3.93197 4.77661e-05 10
29.3305 -12.8142 5.0695 4.64953e-05 10
29.3418 -12.8191 6.22403 4.49407e-05 10
29.3274 -12.8128 7.38873 4.31268e-05 10
29.3217 -12.8103 8.57382 4.10824e-05 10
9.01034 -3.89912 -2.63067 7.52729e-05 4
10.4481 -4.52131 -2.6283 6.36703e-05 4
9.01049 -3.8619 -2.62677 7.26764e-05 4
10.4665 -4.48597 -2.62898 9.09563e-05 4
12.3884 -5.30969 -2.61993 3.70668e-05 4
9.02716 -3.8318 -2.62771 0.000142756 4
10.4812 -4.44902 -2.62876 5.30571e-05 4
31.2047 -13.2456 -1.7766 4.87468e-05 10
31.2164 -13.2506 -0.591941 4.91059e-05 10
9.04996 -3.80425 -2.63047 0.000109012 4
10.4925 -4.41065 -2.62771 0.000101565 4
12.4421 -5.23017 -2.62349 5.2838e-05 4
15.2367 -6.40492 -2.6178 3.76271e-05 4
31.2596 -13.1403 -1.77711 4.88625e-05 10
31.2419 -13.1329 -0.591551 4.92224e-05 10
31.2595 -13.1403 0.591884 4.92414e-05 10
31.248 -13.1354 1.77644 3.8143e-05 10
31.2425 -13.1331 2.96504 3.76301e-05 10
31.2341 -13.1296 5.3663 3.5857e-05 10
31.2304 -13.128 6.58511 3.4626e-05 10
31.2377 -13.1311 9.07956 3.15756e-05 10
9.05073 -3.76746 -2.62685 0.000176493 4
12.4419 -5.17905 -2.61962 2.91786e-05 4
15.2433 -6.34518 -2.61512 3.48646e-05 4
31.2646 -13.0142 -1.77479 4.91978e-05 10
31.2517 -13.0088 -0.590874 4.95598e-05 10
31.2642 -13.014 0.59111 4.9579e-05 10
31.258 -13.0114 1.77442 3.84046e-05 10
31.2418 -13.0047 2.96065 3.78884e-05 10
31.2442 -13.0057 5.36021 3.61041e-05 10
31.2398 -13.0039 6.57748 3.48654e-05 10
31.2466 -13.0067 9.0689 3.17955e-05 10
9.06518 -3.7364 -2.62724 6.74819e-05 4
10.5044 -4.32961 -2.62306 0.000100046 4
12.4776 -5.14288 -2.62333 4.8893e-05 4
31.2584 -12.8838 -1.77188 4.95313e-05 10
31.2561 -12.8829 -0.590104 4.98956e-05 10
31.2559 -12.8828 0.590099 4.99149e-05 10
31.2602 -12.8845 1.77198 3.86649e-05 10
31.2652 -12.8866 2.95859 3.81455e-05 10
31.2592 -12.8841 5.35503 3.635e-05 10
31.2454 -12.8784 6.56916 3.51035e-05 10
31.2418 -12.877 9.05442 3.20144e-05 10
9.08069 -3.70576 -2.62797 0.00015313 4
10.5382 -4.30056 -2.62773 0.000154614 4
12.4968 -5.09986 -2.62363 3.07547e-05 4
9.10143 -3.67722 -2.63025 8.30524e-05 4
10.5539 -4.26407 -2.62792 4.5474e-05 4
12.5102 -5.05446 -2.62271 4.88911e-05 4
9.10739 -3.6427 -2.62828 0.000236177 4
10.5621 -4.22454 -2.62627 0.000210693 4
12.528 -5.01084 -2.62276 4.65244e-05 4
9.13347 -3.6162 -2.63214 0.000132361 4
10.582 -4.1897 -2.62756 0.000154606 4
12.5508 -4.96923 -2.62389 3.94267e-05 4
9.12748 -3.57702 -2.62681 9.86205e-05 4
10.5857 -4.14848 -2.62486 0.000106101 4
9.15786 -3.5521 -2.63196 0.00015831 4
10.6066 -4.11402 -2.62647 7.4269e-05 4
12.5732 -4.87681 -2.62138 3.46939e-05 4
26.5853 -10.3118 -2.49475 3.12924e-05 4
9.15602 -3.51467 -2.62789 0.000197235 4
10.6246 -4.07841 -2.6274 6.66894e-05 4
12.5944 -4.83453 -2.62227 0.000144292 4
9.18701 -3.48982 -2.63327 0.00016609 4
10.6439 -4.04323 -2.62865 6.36569e-05 4
12.6212 -4.79436 -2.62436 9.14617e-05 4
9.17523 -3.44874 -2.62643 0.000132351 4
10.6495 -4.0029 -2.62658 0.00010003 4
12.6142 -4.74137 -2.61944 5.91333e-05 4
27.4323 -10.3111 -2.56395 3.03777e-05 4
9.18687 -3.41657 -2.62633 7.78522e-05 4
12.6301 -4.6971 -2.61933 5.83434e-05 4
9.19934 -3.3847 -2.6265 8.3041e-05 4
10.682 -3.93023 -2.62777 9.69952e-05 4
9.22584 -3.35793 -2.63071 0.000103799 4
10.6808 -3.88751 -2.62412 8.33535e-05 4
12.6822 -4.61593 -2.62337 2.91703e-05 4
9.22183 -3.32006 -2.62624 5.70887e-05 4
10.7114 -3.85635 -2.62831 7.12279e-05 4
12.6843 -4.56662 -2.6205 0.000102487 4
9.24046 -3.29038 -2.62826 0.00012196 4
10.7266 -3.81956 -2.62874 8.78964e-05 4
12.7 -4.52228 -2.62048 4.09939e-05 4
9.24901 -3.25709 -2.62745 0.000142717 4
12.7144 -4.47745 -2.6202 3.46862e-05 4
26.7692 -9.42691 -2.48298 4.11132e-05 4
9.26455 -3.22626 -2.62864 0.000142714 4
10.74 -3.74006 -2.62557 6.06155e-05 4
12.7495 -4.43984 -2.62422 6.22759e-05 4
9.28919 -3.19853 -2.63245 0.000264665 4
10.7583 -3.70438 -2.62686 0.000184873 4
27.4411 -9.44874 -2.53912 3.41029e-05 4
9.30124 -3.1664 -2.63272 5.44888e-05 4
10.7804 -3.66995 -2.62912 0.000131833 4
12.7632 -4.34496 -2.62074 4.80837e-05 4
27.814 -9.46865 -2.57055 3.65231e-05 4
9.30129 -3.13023 -2.62962 8.30289e-05 4
10.7799 -3.62782 -2.62588 8.4856e-05 4
12.7812 -4.30135 -2.62133 3.94118e-05 4
28.1679 -9.47956 -2.60019 3.133e-05 4
9.32545 -3.10217 -2.63337 0.000275028 4
10.786 -3.58804 -2.62432 8.93997e-05 4
12.8141 -4.2627 -2.62502 3.62577e-05 4
9.3142 -3.06236 -2.62716 9.08092e-05 4
10.8106 -3.55434 -2.62726 9.84889e-05 4
12.8019 -4.20905 -2.61948 5.59614e-05 4
9.32605 -3.03022 -2.62751 0.000163453 4
10.808 -3.51174 -2.62364 0.000183336 4
12.833 -4.1697 -2.62286 5.20189e-05 4
9.33422 -2.99689 -2.62684 6.22666e-05 4
10.8205 -3.47407 -2.6237 4.54541e-05 4
9.3575 -2.96837 -2.63046 0.000173824 4
10.8513 -3.44223 -2.62824 3.78775e-05 4
12.8577 -4.07871 -2.62202 2.91603e-05 4
9.37492 -2.93792 -2.63246 9.33959e-05 4
10.8511 -3.40053 -2.6253 6.51476e-05 4
12.8745 -4.03463 -2.62256 4.17688e-05 4
9.36294 -2.89831 -2.62624 0.000121931 4
10.8814 -3.36837 -2.62979 0.000307549 4
9.38507 -2.86931 -2.62962 0.000308712 4
10.8828 -3.32719 -2.62728 0.000304511 4
12.899 -3.94362 -2.62188 3.46737e-05 4
9.40797 -2.84043 -2.63325 0.000189373 4
10.8874 -3.2871 -2.62562 0.000343891 4
9.3951 -2.8008 -2.62689 0.000134893 4
10.915 -3.25389 -2.62951 0.000272682 4
12.9292 -3.85437 -2.62249 7.87986e-05 4
9.42486 -2.77389 -2.63249 6.48509e-05 4
10.9093 -3.21079 -2.62543 0.000278733 4
9.4199 -2.73674 -2.62842 7.26313e-05 4
9.4264 -2.70298 -2.62759 0.000129696 4
12.9702 -3.71914 -2.62275 3.23041e-05 4
15.8736 -4.55169 -2.61545 5.03397e-05 4
9.4507 -2.67428 -2.63174 0.000357951 4
10.9485 -3.09811 -2.62691 3.63534e-05 4
12.9807 -3.67318 -2.62228 0.000165454 4
9.46325 -2.64219 -2.63265 0.000127096 4
10.9648 -3.06142 -2.62823 4.08964e-05 4
12.987 -3.62603 -2.62096 3.93924e-05 4
9.45739 -2.605 -2.62847 9.07803e-05 4
10.962 -3.01944 -2.62503 4.24098e-05 4
13.0034 -3.58173 -2.62174 5.04203e-05 4
9.47904 -2.5754 -2.63198 7.00287e-05 4
10.9706 -2.98064 -2.62457 5.75544e-05 4
9.48742 -2.54215 -2.63182 0.000124492 4
9.48437 -2.50588 -2.62853 8.29928e-05 4
10.9926 -2.90438 -2.62493 5.75509e-05 4
9.51168 -2.47761 -2.63369 6.48363e-05 4
11.0026 -2.86596 -2.62491 0.000130243 4
13.0555 -3.40071 -2.62242 5.19881e-05 4
9.50777 -2.44118 -2.63023 0.000124482 4
11.029 -2.83176 -2.62883 3.18024e-05 4
13.0659 -3.35476 -2.62214 6.1438e-05 4
9.51066 -2.40657 -2.62869 0.000140039 4
11.0271 -2.7903 -2.62606 6.05741e-05 4
13.0767 -3.30892 -2.62197 6.22232e-05 4
9.52021 -2.37365 -2.62903 0.00020746 4
11.0361 -2.75161 -2.62588 4.9972e-05 4
9.52546 -2.33968 -2.6282 8.29816e-05 4
11.0386 -2.71133 -2.6242 3.33135e-05 4
13.0898 -3.21517 -2.62003 4.64667e-05 4
16.0471 -3.94156 -2.61716 5.06568e-05 4
9.54712 -2.30969 -2.63194 0.000235972 4
11.0484 -2.6729 -2.62431 9.0852e-05 4
9.54492 -2.27392 -2.62913 0.000103721 4
13.1167 -3.12483 -2.62098 5.98504e-05 4
9.55019 -2.23998 -2.62841 0.000101125 4
11.0699 -2.59643 -2.62505 7.41908e-05 4
13.1362 -3.08107 -2.62271 7.87472e-05 4
9.55199 -2.20525 -2.62677 0.000168537 4
11.0854 -2.55927 -2.62659 9.68989e-05 4
13.1422 -3.03412 -2.62178 4.01594e-05 4
9.58351 -2.17732 -2.63333 0.000114083 4
11.0868 -2.51887 -2.62483 0.000115063 4
9.58857 -2.1433 -2.63265 8.55599e-05 4
11.1187 -2.48532 -2.63029 9.08363e-05 4
16.119 -3.60303 -2.616 3.99608e-05 4
9.57874 -2.10602 -2.62792 0.000114076 4
11.1064 -2.4419 -2.62535 8.78053e-05 4
13.1729 -2.89626 -2.62172 3.38554e-05 4
9.58479 -2.0723 -2.62758 0.00018148 4
11.1354 -2.40756 -2.63021 0.000178632 4
13.1814 -2.84993 -2.62141 5.74729e-05 4
9.61331 -2.04337 -2.63343 9.33296e-05 4
11.1303 -2.36581 -2.62703 6.81198e-05 4
9.60651 -2.00691 -2.62963 9.5919e-05 4
11.1314 -2.32546 -2.62536 3.78429e-05 4
13.2017 -2.75798 -2.62155 5.82549e-05 4
9.61572 -1.97383 -2.63025 0.000152947 4
13.231 -2.71594 -2.62547 3.54236e-05 4
9.61819 -1.93937 -2.62906 8.81363e-05 4
13.2377 -2.6692 -2.62494 5.27393e-05 4
9.6215 -1.90511 -2.62813 7.51727e-05 4
11.1718 -2.21207 -2.62928 6.81095e-05 4
13.2369 -2.62097 -2.62294 3.30589e-05 4
9.62875 -1.87164 -2.62831 9.59069e-05 4
11.1573 -2.16876 -2.62408 0.000172537 4
16.2126 -3.15142 -2.61589 3.64985e-05 4
9.65408 -1.84162 -2.63345 0.000186623 4
11.1879 -2.13421 -2.6295 4.84297e-05 4
13.2452 -2.52666 -2.62103 4.32873e-05 4
9.64207 -1.80446 -2.62844 9.59005e-05 4
11.1967 -2.09541 -2.62985 0.000116529 4
9.66284 -1.77346 -2.6324 4.66527e-05 4
11.1839 -2.05263 -2.62513 5.75057e-05 4
13.2785 -2.43706 -2.62419 4.80048e-05 4
11.1989 -2.015 -2.62698 6.50696e-05 4
9.66865 -1.70485 -2.63067 0.000145132 4
11.2018 -1.97519 -2.62604 5.14483e-05 4
9.67893 -1.67184 -2.63186 8.29297e-05 4
11.2231 -1.93857 -2.62943 5.59855e-05 4
13.3039 -2.29798 -2.62431 3.30475e-05 4
9.68285 -1.63773 -2.63136 8.03354e-05 4
11.2311 -1.8996 -2.62973 4.08526e-05 4
13.3053 -2.25042 -2.62301 6.68784e-05 4
9.67177 -1.60115 -2.62681 0.000101064 4
11.2178 -1.8571 -2.62509 4.08509e-05 4
13.3035 -2.20238 -2.62113 3.93382e-05 4
9.70455 -1.5718 -2.63421 8.2921e-05 4
11.2379 -1.82014 -2.62828 6.50561e-05 4
16.3235 -2.64383 -2.61908 3.44124e-05 4
9.70738 -1.5375 -2.63351 0.000132151 4
11.2373 -1.77982 -2.62668 6.65662e-05 4
13.3317 -2.11153 -2.62372 3.54007e-05 4
9.69516 -1.50089 -2.62876 9.58705e-05 4
11.2611 -1.74331 -2.63079 6.35377e-05 4
16.3397 -2.52951 -2.61877 5.57403e-05 4
9.69981 -1.46696 -2.62861 0.000264282 4
11.2615 -1.70314 -2.62948 7.10986e-05 4
13.332 -2.01627 -2.62094 9.04587e-05 4
9.69888 -1.43221 -2.62699 0.000121773 4
11.2525 -1.66163 -2.62602 7.41208e-05 4
13.3419 -1.97016 -2.62152 3.38219e-05 4
9.70726 -1.39884 -2.62792 6.47703e-05 4
11.2514 -1.62135 -2.62442 0.000213277 4
9.71675 -1.3656 -2.62918 3.627e-05 4
11.2575 -1.58214 -2.62455 8.77271e-05 4
9.72387 -1.33201 -2.62984 0.000240927 4
11.2692 -1.54369 -2.626 9.83104e-05 4
13.3793 -1.83273 -2.62495 6.52732e-05 4
9.72881 -1.2981 -2.62993 8.80776e-05 4
11.2909 -1.50653 -2.62982 8.16695e-05 4
9.73597 -1.26448 -2.63065 0.000165787 4
11.2975 -1.46729 -2.63013 3.47836e-05 4
9.73517 -1.22984 -2.62926 0.000168371 4
11.2844 -1.42555 -2.62592 4.688e-05 4
16.3961 -2.07131 -2.61753 4.05777e-05 4
9.735 -1.19531 -2.62808 0.00011656 4
11.3103 -1.38873 -2.6308 6.19998e-05 4
13.41 -1.64654 -2.62621 5.50372e-05 4
9.74907 -1.16251 -2.63076 0.000196849 4
11.3073 -1.34831 -2.62899 4.83878e-05 4
13.4054 -1.5985 -2.62421 5.73926e-05 4
9.75584 -1.12879 -2.63151 9.84206e-05 4
11.3025 -1.30774 -2.62679 9.6771e-05 4
13.4174 -1.55244 -2.62547 3.53769e-05 4
9.74427 -1.093 -2.62734 8.02873e-05 4
11.316 -1.2693 -2.62889 3.62874e-05 4
13.4284 -1.50623 -2.62658 0.000132066 4
9.75162 -1.05937 -2.62831 0.000173517 4
11.3073 -1.22837 -2.62586 7.25713e-05 4
16.4224 -1.78404 -2.61635 4.12498e-05 4
23.1546 -2.51539 -2.03768 9.81715e-05 6
9.76055 -1.02588 -2.62974 0.000145023 4
11.3354 -1.1914 -2.63139 8.61742e-05 4
13.4126 -1.40972 -2.6215 3.22266e-05 4
23.0316 -2.42072 -2.02611 7.51778e-05 6
9.7762 -0.993032 -2.63301 0.000108763 4
11.3347 -1.15134 -2.63029 6.95407e-05 4
13.4186 -1.36301 -2.62173 2.98667e-05 4
22.9732 -2.33353 -2.02023 6.16765e-05 6
24.4585 -2.4844 -1.28841 5.58967e-05 6
9.78336 -0.959267 -2.63401 0.000111348 4
11.3167 -1.10962 -2.6252 9.67475e-05 4
13.4213 -1.31597 -2.62134 4.63692e-05 4
22.9363 -2.24892 -2.01629 5.75349e-05 6
9.77445 -0.923958 -2.63073 8.8039e-05 4
11.344 -1.07233 -2.63065 0.00012244 4
22.8875 -2.16351 -2.01132 5.03426e-05 6
9.76831 -0.888986 -2.62823 5.17854e-05 4
11.349 -1.03284 -2.63096 0.000139061 4
9.76849 -0.854635 -2.62746 0.000220079 4
11.3285 -0.991116 -2.62538 0.000146611 4
9.78448 -0.821627 -2.63097 0.000157932 4
11.3537 -0.953399 -2.63043 6.34778e-05 4
13.4458 -1.12908 -2.62279 9.42868e-05 4
16.4783 -1.38372 -2.61908 3.09201e-05 4
9.77767 -0.786694 -2.62839 0.000124269 4
11.3353 -0.912022 -2.62543 7.70762e-05 4
13.4552 -1.08259 -2.62389 5.26401e-05 4
9.79198 -0.753453 -2.63151 0.000108731 4
11.3429 -0.87279 -2.62646 3.92917e-05 4
13.4752 -1.03686 -2.62705 0.000103702 4
9.78359 -0.718463 -2.62856 0.000339122 4
11.361 -0.834301 -2.62996 0.000129958 4
13.4778 -0.989746 -2.62687 7.30583e-05 4
9.81054 -0.686021 -2.63515 5.95379e-05 4
11.3505 -0.793702 -2.62686 5.13761e-05 4
13.4581 -0.941085 -2.62238 3.06354e-05 4
9.78806 -0.650123 -2.62848 0.000144955 4
11.3635 -0.754764 -2.62925 5.74173e-05 4
13.4641 -0.894287 -2.62293 5.65539e-05 4
9.81209 -0.617324 -2.63434 0.000142361 4
11.3697 -0.715322 -2.63009 7.7056e-05 4
13.4672 -0.847283 -2.62293 5.34085e-05 4
9.79162 -0.581729 -2.62828 6.21182e-05 4
9.80322 -0.548087 -2.63087 4.39985e-05 4
11.3598 -0.635115 -2.62672 0.000199418 4
13.4753 -0.753389 -2.62342 4.16217e-05 4
9.81222 -0.514238 -2.63278 9.5757e-05 4
11.3776 -0.596277 -2.63033 4.68304e-05 4
13.4751 -0.706204 -2.6229 5.96799e-05 4
22.9592 -1.20325 -2.01143 4.36428e-05 6
9.81608 -0.480088 -2.63335 0.000116456 4
11.3707 -0.556121 -2.62827 8.61028e-05 4
13.4968 -0.660104 -2.62664 3.84752e-05 4
23.0071 -1.12524 -2.01527 5.37572e-05 6
9.79867 -0.444956 -2.62825 0.000227725 4
23.0626 -1.04727 -2.01979 5.9986e-05 6
24.5533 -1.11496 -1.28811 7.9427e-05 6
9.8207 -0.41161 -2.63376 0.000131971 4
11.3675 -0.476442 -2.62671 8.76037e-05 4
13.4792 -0.564946 -2.62239 3.0619e-05 4
23.1317 -0.969506 -2.02553 7.45052e-05 6
9.79971 -0.376467 -2.62776 4.14008e-05 4
11.3917 -0.437625 -2.63191 4.37994e-05 4
13.4972 -0.518512 -2.62553 4.08225e-05 4
23.2758 -0.894166 -2.03787 9.66644e-05 6
9.80899 -0.342538 -2.62991 5.69234e-05 4
11.3774 -0.397309 -2.62829 5.58789e-05 4
9.82032 -0.308616 -2.63265 4.91588e-05 4
11.3786 -0.357588 -2.62826 7.55077e-05 4
9.82837 -0.274533 -2.63453 8.5377e-05 4
11.3917 -0.318202 -2.63101 0.000146477 4
13.4863 -0.376709 -2.62249 3.76744e-05 4
9.80518 -0.239635 -2.62808 0.000170746 4
11.3929 -0.278439 -2.63105 0.000155528 4
16.5212 -0.403774 -2.61749 4.15091e-05 4
9.8132 -0.205559 -2.63001 0.000235411 4
11.3978 -0.238751 -2.63196 0.000208366 4
9.8317 -0.171614 -2.6348 0.000108646 4
11.3826 -0.198686 -2.62828 5.43531e-05 4
13.504 -0.235716 -2.62532 3.45275e-05 4
9.81832 -0.1371 -2.63107 0.000103467 4
11.384 -0.158963 -2.62847 8.15249e-05 4
13.4931 -0.188413 -2.62305 3.9233e-05 4
11.3789 -0.119164 -2.62716 8.15201e-05 4
13.4994 -0.141372 -2.62417 0.000120044 4
9.81952 -0.0685548 -2.6312 0.000152599 4
11.3783 -0.0794372 -2.62694 8.75534e-05 4
13.5125 -0.0943376 -2.62663 8.86536e-05 4
9.83046 -0.0343152 -2.63408 0.000126729 4
11.3922 -0.0397666 -2.6301 6.79253e-05 4
9.80963 0 -2.62848 0.000111205 4
11.3829 0 -2.62795 3.62247e-05 4
13.515 0 -2.62705 6.35388e-05 4
9.82667 0.0342996 -2.63306 0.000134474 4
11.3829 0.0397314 -2.62796 3.9241e-05 4
13.4969 0.0471104 -2.62355 3.21592e-05 4
9.83595 0.0686672 -2.6356 4.39604e-05 4
11.3844 0.0794771 -2.62835 7.5459e-05 4
9.81155 0.102748 -2.62914 6.20586e-05 4
11.4009 0.119393 -2.63225 5.28181e-05 4
9.81551 0.137058 -2.63031 4.91272e-05 4
11.3787 0.158885 -2.62723 0.00010563 4
13.5102 0.188648 -2.62637 4.94042e-05 4
9.83092 0.171598 -2.63459 9.04929e-05 4
11.3876 0.19877 -2.62944 5.43205e-05 4
13.4931 0.235522 -2.6232 7.29245e-05 4
21.3592 0.372824 -2.62298 3.85143e-05 4
9.82055 0.205711 -2.63199 7.23905e-05 4
11.3807 0.23839 -2.62801 3.77202e-05 4
13.4953 0.282686 -2.6238 7.4487e-05 4
16.5457 0.346581 -2.62115 3.25492e-05 4
21.4735 0.449804 -2.63719 3.1778e-05 4
9.81627 0.239904 -2.63105 0.000129262 4
11.392 0.278415 -2.63084 0.000120697 4
13.4994 0.329918 -2.62481 3.05765e-05 4
16.5423 0.404285 -2.62083 5.5842e-05 4
21.605 0.528015 -2.65356 3.41931e-05 4
9.81491 0.274155 -2.63092 0.000152521 4
11.371 0.317619 -2.62622 3.46982e-05 4
13.4969 0.377003 -2.62456 5.09569e-05 4
16.5449 0.46214 -2.62147 6.88534e-05 4
21.7437 0.607355 -2.67083 3.21394e-05 4
9.81422 0.308422 -2.63101 0.000105984 4
11.3936 0.358055 -2.63172 3.01705e-05 4
16.5278 0.519404 -2.61904 7.87795e-05 4
21.8738 0.687408 -2.68709 3.18998e-05 4
9.82518 0.343101 -2.63425 6.97905e-05 4
11.3852 0.397579 -2.63009 5.43034e-05 4
16.538 0.577516 -2.62096 6.64421e-05 4
24.7703 0.864991 0.43263 7.69106e-05 5
9.8286 0.377575 -2.63551 0.000219699 4
11.3692 0.436759 -2.62672 6.93833e-05 4
9.82507 0.411791 -2.63493 0.000307562 4
13.485 0.565187 -2.62352 6.26965e-05 4
16.6065 0.696016 -2.63252 4.37537e-05 4
25.4769 1.06779 0.44509 5.56152e-05 5
9.81439 0.445668 -2.63247 7.23637e-05 4
11.3919 0.5173 -2.63273 4.82604e-05 4
13.4981 0.612944 -2.62647 0.00015908 4
16.6894 0.757861 -2.64607 9.53067e-05 4
9.82255 0.480402 -2.63509 0.000105955 4
11.3876 0.556944 -2.63217 0.0001689 4
13.4982 0.660171 -2.62692 0.000136343 4
16.7447 0.81895 -2.65527 6.18356e-05 4
21.7451 1.06351 -2.67316 0.000100338 4
24.9664 1.22106 0.43631 5.59688e-05 5
9.81843 0.514562 -2.63445 9.5613e-05 4
11.387 0.596765 -2.6325 8.29368e-05 4
13.4959 0.707291 -2.62695 0.000152002 4
16.8442 0.882766 -2.67152 6.15325e-05 4
21.2778 1.11512 -2.61617 9.58836e-05 4
25.0248 1.3115 -2.19239 3.54632e-05 5
25.0564 1.31315 -1.31495 8.43557e-05 5
