VERSION 0.7
FIELDS x y z intensity label
SIZE 4 4 4 4 4
TYPE F F F F F
COUNT 1 1 1 1 1
WIDTH 1194
HEIGHT 1
VIEWPOINT 8.06594 48.9625 2.72858 0.730417 0.000575395 0.000554965 -0.683001
POINTS 1194
DATA ascii
23.9237 17.2543 -0.514867 6.22178e-05 10
23.9226 17.2535 0.514842 6.22182e-05 10
12.7205 9.17431 4.20244 0.000445697 10
7.63781 5.54919 -2.52967 0.000404902 4
9.50467 6.90554 -2.71234 0.000226057 1
11.2847 8.1988 -2.71134 0.000116659 1
12.6327 9.17822 -2.47316 0.00064009 10
12.6213 9.16994 -1.91554 0.000653599 10
23.7634 17.2651 -1.53938 6.3216e-05 10
23.7758 17.2742 -0.512979 6.36295e-05 10
23.7732 17.2722 0.512921 6.36299e-05 10
12.6316 9.17737 4.18362 0.000453796 10
7.61757 5.57522 -2.5294 0.000297878 4
9.4956 6.94973 -2.71665 0.000226044 1
11.2643 8.24424 -2.71335 0.000116651 1
12.542 9.17932 -2.46165 0.000651547 10
12.5533 9.18762 -1.91007 0.000665281 10
23.599 17.2718 -1.53263 6.46383e-05 10
23.6068 17.2776 -0.51063 6.50603e-05 10
23.6133 17.2823 0.510771 6.50607e-05 10
12.5529 9.1873 4.16815 0.000461973 10
7.59531 5.59975 -2.52848 0.000413538 4
9.47206 6.9834 -2.71688 0.00022603 1
11.2228 8.27419 -2.71029 0.000116642 1
12.4589 9.18548 -2.45162 0.000663113 10
12.4612 9.18716 -1.90092 0.000677073 10
23.4631 17.2985 -1.52772 6.60797e-05 10
23.4632 17.2986 -0.508828 6.65103e-05 10
23.4425 17.2833 0.508377 6.65107e-05 10
12.4739 9.19652 4.15255 0.000470228 10
7.5812 5.6303 -2.53031 0.000352791 4
9.44111 7.01159 -2.715 0.000226017 1
11.196 8.31486 -2.7108 0.000116633 1
12.3892 9.20102 -2.44421 0.000674786 10
12.377 9.19193 -1.89296 0.000688974 10
23.3045 17.3074 -1.52131 6.75399e-05 10
23.3084 17.3104 -0.506778 6.79793e-05 10
23.2875 17.2948 0.506322 6.79798e-05 10
12.3787 9.19327 4.13154 0.000478561 10
7.55714 5.65346 -2.52885 0.000404822 4
9.42213 7.04865 -2.7166 0.000226003 1
11.1616 8.34997 -2.70953 0.000116625 1
12.2905 9.19447 -2.43106 0.000686565 10
12.2986 9.20053 -1.88587 0.000700984 10
23.1425 17.3128 -1.51467 6.90192e-05 10
23.1511 17.3192 -0.504669 6.94673e-05 10
23.1314 17.3045 0.504238 6.94678e-05 10
12.3077 9.2073 4.11852 0.00048697 10
7.53828 5.6805 -2.52916 0.000242881 4
9.38381 7.07121 -2.71266 0.000225989 1
11.1457 8.39887 -2.71275 0.000116616 1
12.2116 9.20209 -2.42179 0.000698451 10
12.2128 9.20298 -1.87763 0.000713102 10
22.9947 17.3278 -1.50895 7.05174e-05 10
22.9926 17.3262 -0.502529 7.09744e-05 10
22.9874 17.3223 0.502415 7.09749e-05 10
12.2222 9.21009 4.10066 0.000495456 10
7.50289 5.695 -2.52394 0.000419237 4
9.3675 7.11032 -2.7151 0.000225975 1
11.1163 8.4377 -2.71274 0.000116607 1
12.1428 9.21688 -2.41451 0.000710442 10
12.1341 9.21028 -1.87046 0.000725328 10
12.145 9.21857 -1.33398 0.000486575 10
12.126 9.20414 -0.797832 0.000491612 10
12.126 9.20413 -0.265728 0.000494147 10
12.1383 9.21348 0.265997 0.00049415 10
12.1323 9.20892 0.798246 0.00049162 10
12.2148 9.27154 1.34164 0.000358817 10
12.2109 9.26855 1.8823 0.000353296 10
12.2177 9.27377 2.42941 0.000346035 10
12.2216 9.27673 2.9825 0.000337122 10
12.2233 9.27797 3.54282 0.000326661 10
12.142 9.2163 4.08453 0.000504019 10
7.49088 5.72721 -2.52661 0.000419216 4
9.33408 7.13645 -2.71262 0.000225961 1
11.0876 8.47708 -2.71295 0.000116598 1
12.0459 9.20977 -2.40162 0.000722538 10
12.0487 9.21191 -1.86224 0.00073766 10
12.0559 9.21745 -1.32772 0.00049484 10
12.0625 9.22247 -0.795766 0.000499956 10
12.0439 9.20826 -0.264632 0.000502531 10
12.0655 9.22476 0.265106 0.000502533 10
12.0659 9.22507 0.795991 0.000499964 10
12.1454 9.28589 1.33757 0.000364924 10
12.0451 9.20915 4.0627 0.000512657 10
7.47578 5.75712 -2.52828 0.00040474 4
9.30438 7.16534 -2.71124 0.000225947 1
11.0567 8.51478 -2.71264 0.000116589 1
11.9803 9.22611 -2.39496 0.00073474 10
11.9666 9.21551 -1.85451 0.000750098 10
12.0479 9.27813 -1.33039 0.000557936 10
12.0521 9.28135 -0.797212 0.000563883 10
12.0465 9.27701 -0.265397 0.000566964 10
12.0524 9.2816 0.265528 0.000567142 10
12.0485 9.27859 0.796975 0.000564415 10
12.0605 9.28783 1.33178 0.000371082 10
11.9847 9.22947 4.05318 0.00052137 10
7.44113 5.77193 -2.52336 0.000361357 4
9.28004 7.19834 -2.71145 0.000225933 1
11.0304 8.55608 -2.71352 0.00011658 1
11.8921 9.22448 -2.38375 0.000747045 10
11.8984 9.22932 -1.84892 0.000762643 10
12.0611 9.35558 -1.33545 0.000550703 10
12.0584 9.35348 -0.799788 0.000556579 10
12.0453 9.34327 -0.266088 0.000559623 10
12.061 9.35543 0.266435 0.0005598 10
12.0479 9.34527 0.799085 0.000557106 10
11.969 9.28411 1.32525 0.000377294 10
11.4615 8.89043 3.8867 0.000596532 10
7.43468 5.80861 -2.52803 0.000317978 4
9.26076 7.23529 -2.71318 0.000225919 1
10.9928 8.58852 -2.71162 0.000116571 1
11.8148 9.23071 -2.37468 0.000759454 10
11.8225 9.23677 -1.84214 0.000775294 10
11.8163 9.23192 -1.3119 0.000520058 10
11.822 9.23632 -0.786236 0.000525417 10
11.8185 9.23364 -0.26179 0.000528113 10
11.8084 9.22575 0.261566 0.000528116 10
11.827 9.24027 0.786572 0.000525425 10
11.9027 9.29942 1.3215 0.000383558 10
11.4002 8.90685 3.87645 0.0006064 10
7.40233 5.82506 -2.52393 0.000358429 4
9.23579 7.26784 -2.71328 0.000225905 1
10.9593 8.62408 -2.71075 0.000116562 1
11.729 9.22981 -2.36391 0.000771966 10
11.7474 9.24431 -1.83545 0.000788049 10
11.7865 9.27508 -1.31218 0.000579275 10
11.7867 9.27525 -0.786043 0.000585426 10
11.7867 9.27525 -0.261801 0.000588613 10
11.7738 9.26508 0.261514 0.000588799 10
11.7851 9.27397 0.785934 0.000585981 10
11.8168 9.29887 1.31555 0.000389874 10
11.3154 8.90436 3.85816 0.000616349 10
7.39791 5.86351 -2.52939 0.000361301 4
9.20235 7.29369 -2.71092 0.000225891 1
10.942 8.67249 -2.71395 0.000116553 1
11.6591 9.24087 -2.3563 0.000784581 10
11.6701 9.24958 -1.8284 0.000800908 10
11.7851 9.34072 -1.31564 0.000571639 10
11.7849 9.34061 -0.788091 0.000577715 10
11.7933 9.34726 -0.26267 0.000580864 10
11.7823 9.33852 0.262424 0.000581047 10
11.7865 9.34183 0.788193 0.000578265 10
11.7507 9.31352 1.31181 0.000396241 10
11.2518 8.91803 3.84704 0.000626379 10
7.36729 5.88123 -2.52592 0.000300587 4
9.17755 7.32634 -2.71113 0.000225877 1
10.8972 8.69909 -2.71035 0.000116544 1
11.5767 9.24156 -2.34616 0.000797298 10
11.5811 9.24505 -1.8195 0.00081387 10
11.5771 9.24184 -1.29601 0.000545907 10
11.5883 9.25085 -0.7771 0.000551513 10
11.5737 9.23916 -0.258496 0.000554335 10
11.5744 9.23971 0.258511 0.000554338 10
11.5837 9.24718 0.776792 0.000551523 10
11.6674 9.31394 1.30612 0.00040266 10
11.1645 8.91247 3.8278 0.00063649 10
7.34647 5.90671 -2.52584 0.000401725 4
9.16767 7.371 -2.7158 0.000225862 1
10.8628 8.73394 -2.70938 0.000116535 1
11.5058 9.25087 -2.33831 0.000810115 10
11.5149 9.25823 -1.81417 0.000826936 10
11.5084 9.25296 -1.29193 0.000601903 10
11.5041 9.24949 -0.773607 0.000608269 10
11.5142 9.25766 -0.257887 0.000563216 10
11.4975 9.24421 0.257512 0.000563219 10
11.5057 9.25078 0.773715 0.000560361 10
11.0913 8.9176 1.24511 0.00073513 10
11.0848 8.91239 1.74641 0.000724052 10
11.1029 8.92694 2.25643 0.00070948 10
11.0875 8.91454 2.7654 0.000691584 10
11.0972 8.92236 3.28739 0.00067057 10
11.0946 8.92026 3.81449 0.00064668 10
7.32277 5.92986 -2.52479 0.000268766 4
9.13814 7.39992 -2.71468 0.000225848 1
10.8499 8.78609 -2.71379 0.000116526 1
11.4391 9.26322 -2.33133 0.000823033 10
11.435 9.25988 -1.80666 0.000840103 10
11.5232 9.33129 -1.29724 0.000593835 10
11.5105 9.32098 -0.776221 0.000600122 10
11.5214 9.32985 -0.258776 0.00060338 10
11.5039 9.31564 0.258382 0.000603572 10
11.5154 9.32497 0.776554 0.000600695 10
11.0284 8.93059 1.24154 0.000746704 10
11.0246 8.92756 1.74183 0.000735462 10
11.0164 8.92092 2.24517 0.000720677 10
11.0229 8.92619 2.75706 0.000702517 10
11.0125 8.91775 3.27151 0.000681193 10
11.0131 8.91822 3.79716 0.000656949 10
7.29893 5.95286 -2.52372 0.000352556 4
9.11389 7.4331 -2.71517 0.000225834 1
10.8191 8.82383 -2.71377 0.000116516 1
11.3679 9.27143 -2.32339 0.00083605 10
11.3625 9.267 -1.8003 0.000853372 10
11.5216 9.39677 -1.30075 0.000585812 10
11.5122 9.38909 -0.778542 0.00059202 10
11.5105 9.38776 -0.259266 0.000595239 10
11.5095 9.38688 0.259242 0.000595429 10
11.5056 9.38372 0.778097 0.000592589 10
11.0041 8.97472 1.24232 0.000799003 10
11.0048 8.97527 1.74363 0.000787216 10
10.9973 8.9692 2.24765 0.000771629 10
11.0152 8.98382 2.76297 0.00075242 10
10.9972 8.96908 3.27623 0.000729812 10
11.0122 8.98131 3.80763 0.000704064 10
7.28016 5.97999 -2.52443 0.000312082 4
9.07808 7.45681 -2.71224 0.000225819 1
10.777 8.85231 -2.71094 0.000116507 1
11.2898 9.27351 -2.31402 0.000849166 10
11.2765 9.26259 -1.79179 0.00086674 10
11.2852 9.26976 -1.27771 0.000581333 10
11.2948 9.27765 -0.766028 0.000587277 10
11.2803 9.26575 -0.254808 0.000590269 10
11.2834 9.26828 0.254877 0.000590272 10
11.2923 9.2756 0.765858 0.000587287 10
11.0122 9.0455 1.2468 0.000788264 10
11.02 9.05194 1.75104 0.000776627 10
11.0075 9.04162 2.25616 0.000761236 10
10.998 9.03382 2.76652 0.00074227 10
11.0128 9.04603 3.29028 0.000719947 10
11.006 9.04043 3.81639 0.000694525 10
7.27784 6.02075 -2.5309 0.000303397 4
9.06601 7.50005 -2.71644 0.000225805 1
10.7565 8.89856 -2.71359 0.000116498 1
11.216 9.27864 -2.30552 0.00086238 10
11.2177 9.28006 -1.78758 0.00088021 10
11.2458 9.30337 -1.27692 0.000617413 10
11.2481 9.30527 -0.765062 0.000623923 10
11.2329 9.29264 -0.254468 0.000627299 10
11.2303 9.29048 0.254408 0.000627499 10
11.2382 9.29702 0.764384 0.000624523 10
11.0204 9.11683 1.25132 0.000777587 10
11.007 9.10574 1.754 0.000766097 10
11.0169 9.11396 2.2646 0.000750902 10
11.0024 9.10198 2.77562 0.000732177 10
11.0086 9.10712 3.2985 0.000710139 10
11.0028 9.10231 3.82627 0.000685041 10
7.24695 6.03793 -2.52747 0.000335164 4
9.03622 7.5287 -2.71537 0.00022579 1
10.7172 8.92924 -2.71152 0.000116489 1
11.1336 9.27619 -2.29524 0.000875692 10
11.141 9.28237 -1.78053 0.000893779 10
11.2465 9.37023 -1.2807 0.000608933 10
11.2397 9.36454 -0.766705 0.00061536 10
11.2489 9.37221 -0.25557 0.000618693 10
11.2449 9.36893 0.25548 0.000618892 10
11.2341 9.35987 0.766322 0.000615954 10
11.0132 9.17589 1.25414 0.00076697 10
11.0254 9.18599 1.76204 0.000755628 10
11.0252 9.18585 2.27288 0.000740628 10
11.0071 9.17076 2.78486 0.000722143 10
11.0168 9.17882 3.31052 0.000700388 10
11.0163 9.17845 3.84209 0.000675612 10
7.22235 6.06027 -2.52625 0.000372706 4
9.013 7.5628 -2.71631 0.000225775 1
10.6765 8.95864 -2.70911 0.000116479 1
11.0748 9.29287 -2.28979 0.000889102 10
11.0558 9.27691 -1.77207 0.000907446 10
11.2615 9.44955 -1.28616 0.000600503 10
11.2452 9.43584 -0.769323 0.000606848 10
11.2447 9.43539 -0.256221 0.000610138 10
11.2508 9.4405 0.256359 0.000610335 10
11.2422 9.43332 0.769118 0.000607437 10
11.0328 9.25764 1.26004 0.000756416 10
11.0285 9.25405 1.7677 0.00074522 10
11.0231 9.24945 2.27909 0.000730414 10
11.0204 9.24723 2.79638 0.000712168 10
11.0276 9.25325 3.32346 0.000690694 10
11.0292 9.25463 3.85784 0.000666241 10
7.1976 6.08244 -2.52501 0.000340906 4
8.98153 7.58998 -2.71479 0.000225761 1
10.6517 9.00137 -2.71077 0.00011647 1
10.9917 9.28874 -2.2793 0.000902607 10
10.9927 9.28959 -1.76715 0.00092121 10
10.9963 9.29262 -1.25957 0.000617828 10
10.9856 9.28352 -0.753773 0.000624119 10
10.9851 9.28309 -0.251042 0.000627286 10
10.994 9.29067 0.251247 0.000627289 10
10.9996 9.29541 0.754739 0.000624129 10
10.9867 9.28449 1.25847 0.000729329 10
11.0017 9.29714 1.76858 0.000718306 10
10.994 9.29064 2.27977 0.000703807 10
10.9906 9.28774 2.79701 0.000686001 10
10.9989 9.29479 3.32457 0.000665095 10
10.9833 9.28159 3.85307 0.00064133 10
7.18896 6.11828 -2.52945 0.000421777 4
8.94745 7.61488 -2.71251 0.000225746 1
10.6188 9.0373 -2.71042 0.00011646 1
10.9094 9.2846 -2.26893 0.000916207 10
10.9137 9.28828 -1.75964 0.000935072 10
10.9752 9.34064 -1.26088 0.000633539 10
10.9748 9.34027 -0.755266 0.000640198 10
10.9755 9.34087 -0.251567 0.000643652 10
10.964 9.3311 0.251304 0.00064386 10
10.9772 9.34232 0.755432 0.00064082 10
10.922 9.29532 1.25476 0.000740292 10
10.913 9.28772 1.75953 0.000729114 10
10.9197 9.29343 2.27109 0.000714412 10
10.9212 9.29469 2.78761 0.000696355 10
10.9248 9.29773 3.31196 0.000675155 10
10.9281 9.30057 3.84509 0.000651054 10
7.17249 6.14756 -2.53119 0.000418865 4
8.92328 7.64818 -2.71326 0.000225731 1
10.5865 9.07371 -2.71023 0.000116451 1
10.8477 9.29756 -2.26283 0.000929901 10
10.8512 9.30063 -1.75479 0.000949029 10
10.9886 9.41837 -1.26619 0.000624623 10
10.9821 9.41281 -0.758027 0.000631196 10
10.9805 9.41144 -0.252434 0.000634605 10
10.9856 9.41583 0.252551 0.000634811 10
10.9674 9.40016 0.757008 0.000631811 10
10.8404 9.29132 1.2491 0.000751331 10
10.849 9.29874 1.75444 0.000739996 10
10.8586 9.30696 2.26512 0.000725089 10
10.8402 9.29114 2.77518 0.000706781 10
10.8509 9.30031 3.29937 0.000685285 10
10.842 9.29272 3.82618 0.000660846 10
7.1381 6.16145 -2.52663 0.00044484 4
8.9107 7.69151 -2.71758 0.000225716 1
10.568 9.12202 -2.71363 0.000116442 1
10.7791 9.30424 -2.25528 0.000943689 10
10.7757 9.30131 -1.74781 0.000963081 10
10.7744 9.30024 -1.24524 0.00064588 10
10.7866 9.31077 -0.746773 0.000652438 10
10.7773 9.30269 -0.248506 0.000655739 10
10.7719 9.29802 0.248381 0.000655742 10
10.7742 9.30008 0.745916 0.000652448 10
10.7845 9.30891 1.2464 0.000762444 10
10.7719 9.29807 1.7472 0.000750954 10
10.772 9.29818 2.25381 0.000735841 10
10.7812 9.30609 2.76839 0.000717279 10
10.7766 9.30208 3.28663 0.000695484 10
10.7711 9.29733 3.81257 0.000670706 10
7.12812 6.19638 -2.53074 0.000389936 4
8.87144 7.71182 -2.7138 0.000225702 1
10.5288 9.15254 -2.71176 0.000116432 1
10.7167 9.3159 -2.24903 0.00095757 10
10.7017 9.30283 -1.74107 0.000977228 10
10.7055 9.30617 -1.24102 0.000655358 10
10.7064 9.30693 -0.743463 0.000662006 10
10.7078 9.30815 -0.247652 0.000665351 10
10.7035 9.30439 0.247552 0.000665354 10
10.6978 9.29949 0.742868 0.000662015 10
10.7075 9.30789 1.24125 0.000773632 10
10.6965 9.29835 1.74023 0.000761985 10
10.7166 9.31583 2.24901 0.000746664 10
10.7137 9.3133 2.75939 0.000727848 10
10.7155 9.31483 3.2779 0.000705753 10
10.7039 9.30474 3.80027 0.000680634 10
7.09653 6.21254 -2.52721 0.000410132 4
8.85674 7.75349 -2.71757 0.000225687 1
10.5065 9.19778 -2.71428 0.000116422 1
10.6359 9.31104 -2.23888 0.000971542 10
10.6396 9.3143 -1.73625 0.000991467 10
10.7064 9.37272 -1.24491 0.000650345 10
10.6981 9.36544 -0.745149 0.00065716 10
10.7051 9.3716 -0.248345 0.000660696 10
10.7119 9.37757 0.248503 0.000660912 10
10.7109 9.37665 0.746041 0.000657805 10
10.6306 9.30639 1.2361 0.000784894 10
10.6452 9.31913 1.73715 0.000773087 10
10.6469 9.32069 2.2412 0.000757558 10
10.63 9.30582 2.74616 0.000738486 10
10.6393 9.31399 3.26452 0.000716089 10
10.6404 9.31493 3.78923 0.000690626 10
7.07498 6.23743 -2.52727 0.0003639 4
8.82583 7.78101 -2.7164 0.000225671 1
10.4645 9.22569 -2.71172 0.000116413 1
10.5753 9.32338 -2.23295 0.000985605 10
10.5604 9.31027 -1.72862 0.0010058 10
10.7031 9.43602 -1.24834 0.000640967 10
10.7101 9.44219 -0.748277 0.000647691 10
10.7085 9.44077 -0.249186 0.000651181 10
10.6988 9.43226 0.248961 0.000651394 10
10.6994 9.43275 0.747529 0.00064833 10
10.5603 9.31017 1.23169 0.000796228 10
10.5708 9.3194 1.73032 0.000784263 10
10.5671 9.31618 2.23123 0.000768524 10
10.5722 9.32063 2.73963 0.000749193 10
10.5768 9.3247 3.25531 0.000726494 10
10.5724 9.32084 3.7766 0.000700686 10
7.05673 6.26525 -2.52855 0.000317673 4
8.78658 7.80108 -2.71268 0.000225657 1
10.4363 9.26578 -2.71278 0.000116403 1
10.4968 9.3195 -2.22323 0.000999759 10
10.4983 9.32081 -1.72376 0.00102022 10
10.4989 9.3214 -1.22832 0.000684162 10
10.4982 9.32077 -0.735746 0.000691082 10
10.4894 9.3129 -0.244842 0.000694565 10
10.493 9.31608 0.244926 0.000694568 10
10.507 9.32857 0.736361 0.000691093 10
10.503 9.32503 1.2288 0.000807636 10
10.4883 9.31191 1.72212 0.00079551 10
10.4976 9.32018 2.2234 0.00077956 10
10.504 9.32585 2.73037 0.00075997 10
10.5007 9.32295 3.24188 0.000736966 10
10.4958 9.31859 3.76082 0.00071081 10
7.03388 6.28901 -2.52821 0.000340758 4
8.77497 7.84572 -2.71754 0.000225641 1
10.4097 9.3073 -2.71428 0.000116394 1
10.4215 9.31788 -2.21416 0.001014 10
10.4262 9.32209 -1.71726 0.00103474 10
10.4229 9.31912 -1.22322 0.000677836 10
10.4373 9.33203 -0.733754 0.00068491 10
10.4254 9.32135 -0.244106 0.000688581 10
10.4307 9.32613 0.244231 0.000688807 10
10.4242 9.32027 0.73283 0.000700908 10
10.4391 9.33366 1.22513 0.000819114 10
10.4327 9.32793 1.71834 0.000806827 10
10.4262 9.32206 2.21515 0.000790666 10
10.4313 9.32664 2.71992 0.000770815 10
10.4353 9.33023 3.23173 0.000747504 10
10.4244 9.32051 3.74689 0.000720999 10
7.02109 6.32182 -2.53153 0.000392717 4
8.74372 7.87288 -2.71636 0.000225626 1
10.3645 9.33221 -2.71098 0.00100253 10
10.3518 9.32077 -2.20624 0.00102833 10
10.3717 9.33874 -1.71365 0.00104934 10
10.4481 9.40747 -1.23002 0.000667902 10
10.4449 9.40464 -0.736592 0.000674879 10
10.4281 9.3895 -0.244936 0.000678501 10
10.444 9.40377 0.245309 0.000678725 10
10.4236 9.38543 0.735088 0.000675549 10
10.3566 9.32514 1.21926 0.000830662 10
10.3601 9.3283 1.71173 0.000818214 10
10.3545 9.32323 2.20683 0.00080184 10
10.352 9.32098 2.70772 0.000781727 10
10.3528 9.32168 3.21623 0.000758108 10
10.3729 9.33978 3.74006 0.000731251 10
6.97876 6.32796 -2.52422 0.000317621 4
8.7126 7.9001 -2.71524 0.000225611 1
10.2886 9.32917 -2.69965 0.00101661 10
10.2893 9.32977 -2.19986 0.00104275 10
10.2923 9.33245 -1.70589 0.00106404 10
10.4392 9.46571 -1.23287 0.000658036 10
10.4444 9.4704 -0.738882 0.000664918 10
10.4496 9.47515 -0.246218 0.00066849 10
10.4486 9.4742 0.246193 0.000668712 10
10.438 9.4646 0.73843 0.00066558 10
10.3047 9.34372 1.21698 0.000842282 10
10.2867 9.32737 1.70496 0.000829671 10
10.2979 9.33753 2.20169 0.000813083 10
10.2956 9.33545 2.70146 0.000792706 10
10.2911 9.33142 3.20718 0.000768777 10
10.2916 9.33182 3.72246 0.000741568 10
6.95754 6.35311 -2.52455 0.000375349 4
8.68335 7.92899 -2.71473 0.000225596 1
10.2304 9.34168 -2.69292 0.00103077 10
10.2239 9.33571 -2.19283 0.00105725 10
10.2305 9.34172 -1.70105 0.00107882 10
10.2331 9.34407 -1.21236 0.00109521 10
10.2282 9.3396 -0.725888 0.00110625 10
10.2209 9.33294 -0.241594 0.0011118 10
10.229 9.34039 0.241786 0.00111181 10
10.2274 9.33894 0.725837 0.00110626 10
10.2289 9.34024 1.21187 0.00085397 10
10.2178 9.33014 1.69894 0.000841196 10
10.2368 9.34752 2.19561 0.000824392 10
10.2187 9.33099 2.68983 0.000803751 10
10.2187 9.33096 3.19474 0.000779511 10
10.2267 9.33829 3.71078 0.000751946 10
6.946 6.38717 -2.52844 0.00018189 4
8.66587 7.96868 -2.71795 0.00022558 1
10.1686 9.35055 -2.68522 0.00104502 10
10.1696 9.35146 -2.18818 0.00107184 10
10.1687 9.35057 -1.69618 0.00109368 10
10.1537 9.33677 -1.20681 0.00111029 10
10.1606 9.34314 -0.723402 0.00112147 10
10.1526 9.33579 -0.240748 0.00112709 10
10.1553 9.33829 0.240813 0.0011271 10
10.1703 9.35211 0.724096 0.00112148 10
10.1644 9.34661 1.20808 0.000865727 10
10.1702 9.35198 1.69644 0.000852789 10
10.1566 9.33951 2.18538 0.000835768 10
10.1655 9.34767 2.6844 0.000814861 10
10.1526 9.33576 3.18423 0.000790307 10
10.1671 9.3491 3.70095 0.000762386 10
6.92252 6.41032 -2.52802 0.000375307 4
8.62588 7.98765 -2.71413 0.000225565 1
10.101 9.35365 -2.67597 0.00105935 10
10.1008 9.35348 -2.18039 0.00108652 10
10.0926 9.34586 -1.68893 0.00110863 10
10.1025 9.35506 -1.20461 0.00112545 10
10.0985 9.35132 -0.721302 0.00113677 10
10.0966 9.34951 -0.240192 0.00114247 10
10.0879 9.3415 0.239986 0.00114248 10
10.0925 9.34577 0.720874 0.00113679 10
10.0954 9.34842 1.20375 0.000877551 10
10.0959 9.34888 1.68947 0.000864447 10
10.1036 9.35605 2.18099 0.000847209 10
10.0876 9.34117 2.6724 0.000826035 10
10.1031 9.35561 3.17895 0.000801167 10
10.0854 9.33922 3.68308 0.000772887 10
6.8955 6.43016 -2.52634 0.000277134 4
8.59914 8.01882 -2.71451 0.00022555 1
10.0211 9.34481 -2.66342 0.00107376 10
10.0269 9.35024 -2.17146 0.00110127 10
10.0266 9.34999 -1.68334 0.00112367 10
10.0237 9.34721 -1.19909 0.0011407 10
10.0378 9.36044 -0.719298 0.00115217 10
10.0315 9.35449 -0.239419 0.00115794 10
10.0294 9.35258 0.23937 0.00115794 10
10.0354 9.3582 0.719126 0.00115218 10
10.0366 9.35924 1.20063 0.000889443 10
10.0367 9.35936 1.68503 0.000876173 10
10.0347 9.35751 2.17315 0.000858716 10
10.0324 9.35538 2.66643 0.000837273 10
10.025 9.34849 3.16463 0.000812088 10
10.0383 9.36083 3.67776 0.000783448 10
6.88007 6.46081 -2.52893 0.000378151 4
8.56654 8.04451 -2.71307 0.000225534 1
9.95569 9.34902 -2.6547 0.00108826 10
9.97441 9.3666 -2.16716 0.00111611 10
9.96778 9.36037 -1.67893 0.00113879 10
9.96159 9.35456 -1.19556 0.00115604 10
9.95725 9.35048 -0.715857 0.00116765 10
9.95449 9.34789 -0.238359 0.00117349 10
9.95991 9.35297 0.238489 0.00117349 10
9.96087 9.35388 0.716117 0.00116766 10
9.96569 9.3584 1.19605 0.0009014 10
9.96769 9.36028 1.67892 0.000887963 10
9.96682 9.35946 2.16551 0.000870287 10
9.96159 9.35456 2.65627 0.000848574 10
9.97296 9.36523 3.15849 0.000823072 10
9.9646 9.35738 3.66272 0.00079407 10
6.86456 6.49149 -2.53154 0.000409881 4
8.54226 8.07802 -2.71429 0.000225519 1
9.8948 9.35705 -2.64715 0.00110283 10
9.89614 9.35832 -2.15724 0.00113103 10
9.88993 9.35244 -1.67131 0.001154 10
9.90691 9.3685 -1.19292 0.00117146 10
9.90926 9.37072 -0.714754 0.00118321 10
9.89694 9.35907 -0.237762 0.00118912 10
9.89903 9.36104 0.237812 0.00118913 10
9.8913 9.35374 0.713459 0.00118323 10
9.89788 9.35996 1.19183 0.000913423 10
9.89994 9.36191 1.673 0.000899818 10
9.89797 9.36004 2.15764 0.000881922 10
9.90999 9.37141 2.65122 0.000859937 10
9.90168 9.36355 3.14625 0.000834115 10
9.90993 9.37135 3.65462 0.00080475 10
7.34641 6.99589 -2.71823 0.000388507 1
8.51096 8.10488 -2.71332 0.000225503 1
9.82552 9.35672 -2.63734 0.00111748 10
9.83402 9.36481 -2.15081 0.00114604 10
9.84422 9.37453 -1.6691 0.00116928 10
9.84508 9.37534 -1.1894 0.00118696 10
9.8373 9.36794 -0.711918 0.00119886 10
9.82765 9.35874 -0.236881 0.00120484 10
9.84397 9.37428 0.237274 0.00120485 10
9.83517 9.3659 0.711764 0.00119887 10
9.83724 9.36788 1.18846 0.00092551 10
9.82451 9.35575 1.66576 0.000911737 10
9.83582 9.36652 2.1512 0.000893619 10
9.84187 9.37228 2.64173 0.000871361 10
9.83491 9.36565 3.1354 0.000845219 10
9.83105 9.36198 3.63756 0.000815488 10
7.32288 7.02239 -2.71858 0.000388485 1
8.48653 8.13829 -2.71457 0.000225487 1
9.76136 9.36081 -2.62887 0.00113221 10
9.76567 9.36494 -2.143 0.00116112 10
9.78076 9.37941 -1.66388 0.00118465 10
9.77955 9.37825 -1.18544 0.00120254 10
9.77856 9.3773 -0.710032 0.00121459 10
9.76496 9.36425 -0.236156 0.00122065 10
9.76969 9.3688 0.23627 0.00122065 10
9.77576 9.37461 0.709828 0.0012146 10
9.77528 9.37415 1.18492 0.00093766 10
9.76195 9.36137 1.66069 0.000923719 10
9.76765 9.36684 2.14343 0.000905377 10
9.77588 9.37473 2.63278 0.000882846 10
9.76185 9.36128 3.12251 0.000856382 10
9.78119 9.37982 3.63121 0.000826283 10
7.2958 7.04547 -2.71764 0.000388462 1
8.45597 8.16583 -2.7139 0.000225472 1
9.71937 9.38589 -2.62637 0.00103477 10
9.71874 9.38528 -2.13988 0.00106154 10
9.72344 9.38982 -1.6597 0.00108342 10
9.7128 9.37954 -1.18131 0.00110014 10
9.71308 9.37981 -0.70765 0.00111153 10
9.71671 9.38332 -0.23578 0.00111744 10
9.70965 9.3765 0.235608 0.00111782 10
9.72126 9.38771 0.708246 0.00111266 10
9.71504 9.38171 1.18158 0.000949873 10
9.69936 9.36656 1.65559 0.000935761 10
9.71125 9.37805 2.13823 0.000917197 10
9.70177 9.36889 2.62162 0.000894391 10
9.7065 9.37346 3.11525 0.000867602 10
9.70536 9.37235 3.61518 0.000837136 10
7.27733 7.0769 -2.71994 0.00038844 1
8.43919 8.20675 -2.71769 0.000225456 1
9.7285 9.46055 -2.63775 0.00101849 10
9.72408 9.45626 -2.14831 0.00104487 10
9.72183 9.45407 -1.66505 0.00106642 10
9.72052 9.4528 -1.18625 0.0010829 10
9.72009 9.45238 -0.710561 0.00109412 10
9.70942 9.442 -0.236401 0.00109995 10
9.71205 9.44456 0.236465 0.00110033 10
9.72355 9.45574 0.710813 0.00109524 10
9.65134 9.38552 1.17781 0.000962148 10
9.64859 9.38284 1.6525 0.000947865 10
9.63384 9.3685 2.12837 0.000929076 10
9.64696 9.38126 2.61564 0.000905994 10
9.63405 9.3687 3.10247 0.000878881 10
9.65256 9.38671 3.6077 0.000848043 10
7.23964 7.08958 -2.71509 0.000388417 1
8.40952 8.23521 -2.71738 0.00022544 1
9.72186 9.52035 -2.64494 0.00100233 10
9.73426 9.5325 -2.15789 0.00102832 10
9.72043 9.51895 -1.67049 0.00104956 10
9.71576 9.51437 -1.18971 0.0010658 10
9.71465 9.51329 -0.712586 0.00107685 10
9.72969 9.52801 -0.237703 0.0010826 10
9.72813 9.52649 0.237665 0.00108297 10
9.7213 9.5198 0.713074 0.00107796 10
9.58929 9.39053 1.17423 0.000974483 10
9.58373 9.38508 1.647 0.000960029 10
9.57998 9.38141 2.12369 0.000941015 10
9.59183 9.39301 2.60956 0.000917655 10
9.57348 9.37505 3.09349 0.000890215 10
9.58032 9.38174 3.59291 0.000859006 10
7.228 7.12777 -2.72004 0.000388394 1
8.36811 8.25207 -2.71329 0.000225424 1
9.73635 9.60134 -2.65798 0.000986306 10
9.74098 9.60591 -2.1668 0.00101191 10
9.72149 9.58669 -1.67641 0.00103283 10
9.72122 9.58642 -1.19447 0.00104883 10
9.7297 9.59479 -0.716142 0.00105972 10
9.73552 9.60052 -0.238663 0.00106538 10
9.7312 9.59626 0.238557 0.00106575 10
9.7354 9.6004 0.716562 0.00106081 10
9.52749 9.39538 1.17067 0.000986877 10
9.51485 9.38291 1.64078 0.000972252 10
9.51247 9.38057 2.11597 0.000953011 10
9.51999 9.38798 2.59892 0.000929373 10
9.51581 9.38386 3.08542 0.000901605 10
9.52625 9.39415 3.58491 0.000870022 10
7.19104 7.14101 -2.71549 0.000388371 1
8.35102 8.29291 -2.71711 0.000225409 1
9.74271 9.67492 -2.66892 0.000970407 10
9.737 9.66926 -2.17341 0.000995625 10
9.73765 9.6699 -1.68501 0.00101623 10
9.72557 9.65791 -1.19914 0.00103199 10
9.72719 9.65951 -0.718434 0.00104272 10
9.72818 9.6605 -0.239308 0.0010483 10
9.74027 9.6725 0.239605 0.00104866 10
9.7313 9.66359 0.718738 0.0010438 10
9.44787 9.38214 1.1649 0.000999331 10
9.45456 9.38878 1.63602 0.000984533 10
9.46313 9.39729 2.11228 0.000965064 10
9.44853 9.3828 2.58834 0.000941147 10
9.4569 9.3911 3.07693 0.00091305 10
9.45313 9.38736 3.5697 0.000881092 10
7.1793 7.1793 -2.72051 0.000388348 1
8.30696 8.30696 -2.7122 0.000225393 1
9.7435 9.7435 -2.67844 0.000954638 10
9.73629 9.73629 -2.18083 0.000979475 10
9.74998 9.74997 -1.69302 0.00099977 10
19.8749 19.8748 -2.45907 7.76036e-05 10
19.7922 19.7922 0.488575 8.04479e-05 10
9.40309 9.40309 1.16342 0.00101184 10
9.39586 9.39586 1.63153 0.000996873 10
9.40511 9.40511 2.10665 0.000977175 10
9.39296 9.39295 2.58208 0.000952976 10
9.38797 9.38797 3.06514 0.00092455 10
9.39906 9.39906 3.56166 0.000892215 10
7.15551 7.20564 -2.721 0.000388325 1
8.29392 8.35202 -2.71744 0.000225377 1
9.75403 9.82236 -2.69075 0.000938999 10
9.7521 9.82042 -2.19203 0.000963458 10
9.75265 9.82097 -1.69943 0.000983444 10
19.8763 20.0156 -2.46788 7.59875e-05 10
19.8792 20.0184 -1.47853 7.70025e-05 10
19.8769 20.0162 -0.492388 7.75315e-05 10
19.7978 19.9365 0.490427 7.87784e-05 10
9.34756 9.41305 1.16061 0.000883915 10
9.3446 9.41006 1.62832 0.000871141 10
9.34985 9.41535 2.10162 0.00085423 10
9.34156 9.407 2.57696 0.000833376 10
9.34173 9.40717 3.06075 0.000808815 10
9.35072 9.41623 3.55577 0.000780824 10
7.11092 7.2109 -2.7136 0.000388302 1
8.26912 8.38539 -2.71889 0.000225361 1
9.74944 9.88653 -2.69898 0.000923491 10
9.74285 9.87984 -2.19769 0.000947574 10
9.75386 9.89101 -1.70564 0.000967254 10
19.8965 20.1763 -2.47911 7.43912e-05 10
19.8233 20.102 0.492793 7.71291e-05 10
9.34892 9.48037 1.16488 0.000869542 10
9.35266 9.48416 1.63549 0.000856963 10
9.35523 9.48677 2.11026 0.000840312 10
9.36177 9.4934 2.59166 0.000819778 10
9.35554 9.48709 3.07611 0.000795593 10
9.35513 9.48668 3.57002 0.000768031 10
7.09534 7.24552 -2.71729 0.000388279 1
8.22695 8.40108 -2.71465 0.000225344 1
9.75319 9.95963 -2.70963 0.000908116 10
9.75016 9.95653 -2.20717 0.000931826 10
9.75347 9.95992 -1.71165 0.000951202 10
19.8941 20.3152 -2.48764 7.28147e-05 10
19.8272 20.2468 0.494644 7.55003e-05 10
9.36803 9.56632 1.17142 0.000855288 10
9.37014 9.56847 1.64437 0.000842904 10
9.36018 9.5583 2.11889 0.00082651 10
9.35062 9.54854 2.59779 0.000806292 10
9.3582 9.55628 3.08793 0.000782481 10
9.36746 9.56573 3.58744 0.000755346 10
7.07136 7.27164 -2.71781 0.000388256 1
8.20398 8.43634 -2.71677 0.000225328 1
9.73523 10.011 -2.71433 0.000116194 1
9.7599 10.0363 -2.21729 0.000916213 10
9.75974 10.0362 -1.71888 0.000935288 10
19.8377 20.3996 -2.48948 7.23814e-05 10
19.8359 20.3978 0.496636 7.3892e-05 10
9.75506 10.0313 1.22418 0.00074195 10
9.7561 10.0324 1.71824 0.00073108 10
9.3755 9.64104 2.12996 0.000812824 10
9.82402 10.1023 2.73909 0.00043593 10
9.82338 10.1016 3.25304 0.000422877 10
9.7478 10.0239 3.74648 0.000417673 10
7.0408 7.29096 -2.71583 0.000388233 1
8.17418 8.46461 -2.71667 0.000225312 1
9.69368 10.0381 -2.7125 0.000116183 1
9.76993 10.1171 -2.22758 0.000900737 10
9.77138 10.1186 -1.72714 0.000919512 10
19.8408 20.5458 -2.49885 7.08229e-05 10
19.8342 20.5389 0.498384 7.2304e-05 10
9.75864 10.1054 1.22905 0.000729456 10
9.75278 10.0993 1.72386 0.000718758 10
9.36876 9.70164 2.13611 0.000799256 10
9.75329 10.0998 3.76212 0.000410584 10
7.02613 7.32677 -2.72002 0.000388209 1
8.14498 8.4935 -2.7168 0.000225296 1
9.65216 10.0652 -2.7107 0.000116173 1
9.77225 10.1904 -2.2362 0.000885399 10
9.77878 10.1972 -1.73473 0.000903876 10
19.8496 20.6989 -2.50904 6.92847e-05 10
19.863 20.7129 0.500922 7.07367e-05 10
9.75736 10.1749 1.23335 0.000717073 10
9.76168 10.1794 1.7317 0.000706546 10
9.37496 9.77612 2.14529 0.000785806 10
9.72246 10.1385 3.76385 0.000265312 10
6.99481 7.34527 -2.71781 0.000388186 1
8.11455 8.52111 -2.71656 0.00022528 1
9.62134 10.1034 -2.71193 0.000116163 1
9.78185 10.272 -2.24659 0.000870197 10
9.76658 10.2559 -1.73891 0.00088838 10
19.8729 20.8686 0.503005 6.91896e-05 10
9.76266 10.2518 1.23854 0.000704799 10
9.77277 10.2624 1.74001 0.000694442 10
9.69064 10.1762 3.76526 0.000265329 10
6.97554 7.37642 -2.72031 0.000388162 1
8.073 8.53696 -2.71261 0.000225263 1
9.58982 10.1409 -2.71301 0.000116152 1
9.77192 10.3335 -2.25258 0.000855133 10
9.78556 10.3479 -1.74871 0.000873024 10
19.9532 21.0999 -1.52194 6.61141e-05 10
19.958 21.105 -0.507022 6.65748e-05 10
19.8731 21.0153 0.504866 6.76629e-05 10
9.76823 10.3296 1.24381 0.000692637 10
9.77228 10.3339 1.74633 0.000682447 10
9.65058 10.2052 3.76352 0.000265347 10
6.93322 7.38313 -2.71384 0.000388139 1
8.05943 8.58243 -2.7181 0.000225247 1
9.55096 10.1707 -2.71204 0.000116142 1
9.78205 10.4168 -2.26328 0.000840208 10
9.78792 10.4231 -1.75562 0.000857809 10
19.8884 21.179 0.507129 6.61567e-05 10
9.77639 10.4108 1.24947 0.000680586 10
9.78503 10.42 1.7551 0.000670563 10
9.6223 10.2467 3.76642 0.000265364 10
6.91705 7.41762 -2.71763 0.000388115 1
8.0137 8.59364 -2.71278 0.000225231 1
9.52799 10.2175 -2.71563 0.000116131 1
9.7999 10.5091 -2.27589 0.000825423 10
9.7886 10.497 -1.76231 0.000842736 10
19.9062 21.3468 0.509479 6.46709e-05 10
9.78335 10.4914 1.25503 0.000668647 10
9.77498 10.4824 1.75985 0.000658789 10
9.85582 10.5691 2.28887 0.000402677 10
9.86297 10.5767 2.8111 0.000392624 10
9.852 10.565 3.33507 0.000380789 10
9.57611 10.2691 3.76234 0.000265382 10
6.89607 7.44708 -2.71958 0.000388092 1
8.00056 8.63982 -2.71852 0.000225214 1
9.4806 10.2381 -2.71229 0.000116121 1
9.7952 10.5779 -2.28336 0.000810777 10
9.80624 10.5898 -1.77212 0.000827805 10
19.8978 21.4876 0.511179 6.32055e-05 10
9.78161 10.5632 1.25953 0.00065682 10
9.7907 10.573 1.76932 0.000647127 10
9.80607 10.5896 2.28589 0.000496371 10
9.80619 10.5897 2.80544 0.0004838 10
9.823 10.6079 3.33777 0.00046904 10
9.54464 10.3073 3.76409 0.0002654 10
6.87479 7.47628 -2.72147 0.000388068 1
7.95387 8.64977 -2.7129 0.000225198 1
9.45107 10.278 -2.71409 0.00011611 1
9.80532 10.6632 -2.29438 0.000796272 10
9.80694 10.665 -1.77897 0.000813016 10
9.95522 10.8262 -1.28675 0.000645934 10
9.95139 10.822 -0.770496 0.000652553 10
9.95198 10.8227 -0.256638 0.000655884 10
9.9688 10.841 0.257072 0.000655887 10
9.96203 10.8336 0.77132 0.000652562 10
9.78833 10.6447 1.26518 0.000645106 10
9.8037 10.6614 1.77838 0.000635575 10
9.77822 10.6337 2.28804 0.000780097 10
9.7776 10.6331 2.80786 0.00076034 10
9.77307 10.6281 3.33339 0.000737144 10
9.51765 10.3504 3.76767 0.000265417 10
6.8402 7.49097 -2.71811 0.000388044 1
7.92607 8.68015 -2.71373 0.000225181 1
9.40897 10.3041 -2.71231 0.0001161 1
9.8074 10.7405 -2.30362 0.000781907 10
9.79775 10.7299 -1.78408 0.000798372 10
9.90381 10.8461 -1.28499 0.000653507 10
9.89587 10.8374 -0.769122 0.000660199 10
9.89251 10.8337 -0.256079 0.000663566 10
9.90063 10.8426 0.256288 0.000663569 10
9.89086 10.8319 0.768733 0.000660208 10
9.81179 10.7453 1.27305 0.000633505 10
9.79968 10.732 1.78444 0.000624135 10
9.70588 10.6293 2.27978 0.000789217 10
9.71402 10.6382 2.80025 0.000769245 10
9.71897 10.6436 3.32759 0.000745795 10
9.48112 10.3832 3.76754 0.000265435 10
6.81357 7.51432 -2.71793 0.00038802 1
7.89683 8.70899 -2.71411 0.000225164 1
9.38347 10.3485 -2.71536 0.000116089 1
9.82144 10.8315 -2.31579 0.000767684 10
9.81356 10.8228 -1.79383 0.00078387 10
9.82757 10.8383 -1.28 0.000661109 10
9.8339 10.8453 -0.767243 0.000667873 10
9.83194 10.8431 -0.255489 0.000671276 10
9.83877 10.8507 0.255666 0.000671279 10
9.82107 10.8311 0.766242 0.000667882 10
9.79844 10.8062 1.2762 0.000622018 10
9.80869 10.8175 1.79294 0.000612808 10
9.6479 10.6402 2.27487 0.000798371 10
9.65379 10.6466 2.79358 0.000778183 10
9.65743 10.6507 3.31923 0.000754479 10
9.44673 10.4183 3.7683 0.000265453 10
6.7781 7.52784 -2.71425 0.000387996 1
7.87436 8.74536 -2.71687 0.000225148 1
9.3392 10.3722 -2.71301 0.000116079 1
9.82531 10.9121 -2.32567 0.000753603 10
9.81199 10.8973 -1.80049 0.000769514 10
9.81423 10.8998 -1.28321 0.000516327 10
9.80982 10.8949 -0.768327 0.000521809 10
9.81568 10.9014 -0.256054 0.000524666 10
9.81441 10.9 0.25602 0.000524863 10
9.82173 10.9081 0.769259 0.0005224 10
9.80653 10.8912 1.2822 0.000610646 10
9.80957 10.8946 1.80004 0.000601594 10
9.58658 10.647 2.26916 0.000807557 10
9.57755 10.6369 2.78225 0.000787152 10
9.59279 10.6539 3.30977 0.000763193 10
9.4156 10.4571 3.77042 0.000611706 10
6.762 7.56288 -2.71835 0.000387972 1
7.83636 8.76448 -2.71429 0.000225131 1
9.30663 10.4089 -2.71408 0.000116068 1
9.82899 10.9931 -2.33561 0.000739664 10
9.81696 10.9797 -1.80842 0.000755302 10
9.9327 11.1091 -1.30376 0.000628216 10
9.92344 11.0988 -0.780255 0.000634676 10
9.9288 11.1047 -0.260014 0.000637927 10
9.91849 11.0932 0.259744 0.00063793 10
9.92171 11.0968 0.780119 0.000634685 10
9.82024 10.9833 1.289 0.000599387 10
9.80995 10.9718 1.80713 0.000590492 10
9.52632 10.6546 2.26369 0.000816775 10
9.52301 10.6509 2.77719 0.000796152 10
9.5177 10.645 3.29666 0.000771937 10
9.4261 10.5425 3.78934 0.000600465 10
6.73146 7.58182 -2.7167 0.000387948 1
7.80806 8.79443 -2.71511 0.000225114 1
9.27413 10.4457 -2.71522 0.000116057 1
9.82611 11.0674 -2.34409 0.000725867 10
9.82357 11.0646 -1.81674 0.000741235 10
9.87201 11.1191 -1.30088 0.000635397 10
9.86034 11.106 -0.778337 0.000641926 10
9.86203 11.1079 -0.259279 0.000645211 10
9.86953 11.1163 0.259476 0.000645214 10
9.86567 11.112 0.778758 0.000641934 10
9.82607 11.0674 1.29483 0.000588243 10
9.82135 11.062 1.81633 0.000579503 10
9.46071 10.6559 2.25692 0.000826024 10
9.46671 10.6626 2.77161 0.000805183 10
9.45374 10.648 3.28736 0.000780712 10
9.43897 10.6314 3.80941 0.000589337 10
6.70278 7.6028 -2.71582 0.000387924 1
7.77552 8.8196 -2.71448 0.000225098 1
9.22881 10.468 -2.71264 0.000116047 1
9.84336 11.1651 -2.35749 0.000712214 10
9.83702 11.1579 -1.82642 0.000727313 10
9.82605 11.1455 -1.29994 0.000488043 10
9.82732 11.1469 -0.778798 0.000493247 10
9.82415 11.1433 -0.259305 0.000495959 10
9.8393 11.1605 0.259704 0.00049615 10
9.83945 11.1607 0.779759 0.000493814 10
9.83274 11.153 1.30083 0.000577214 10
9.82541 11.1447 1.82426 0.000568628 10
9.44344 10.7115 2.26171 0.000633776 10
9.4453 10.7136 2.77627 0.000618017 10
9.43444 10.7013 3.29362 0.000599462 10
9.43097 10.6973 3.82122 0.000578324 10
6.68045 7.63101 -2.71755 0.0003879 1
7.74735 8.84972 -2.71542 0.000225081 1
9.19622 10.5048 -2.71382 0.000116036 1
9.84624 11.2473 -2.36757 0.000698703 10
9.84603 11.247 -1.83537 0.000713537 10
9.94907 11.3647 -1.32146 0.000604318 10
9.94781 11.3633 -0.791484 0.000610559 10
9.95251 11.3687 -0.263739 0.000613699 10
9.94898 11.3646 0.263645 0.000613702 10
9.9502 11.366 0.791675 0.000610567 10
9.83114 11.23 1.30579 0.0005663 10
9.82775 11.2261 1.83196 0.000557866 10
9.84258 11.2431 2.36669 0.000546702 10
9.83271 11.2318 2.90165 0.000532937 10
9.83642 11.2361 3.44763 0.000516735 10
9.83648 11.2361 4.00139 0.000498283 10
6.66307 7.66499 -2.72135 0.000387876 1
7.72076 8.88172 -2.71695 0.000225064 1
9.1679 10.5465 -2.71631 0.000116025 1
9.84835 11.3292 -2.37757 0.000685336 10
9.84969 11.3308 -1.84342 0.000699907 10
9.89797 11.3863 -1.31994 0.000611106 10
9.89732 11.3856 -0.790625 0.000617411 10
9.89804 11.3864 -0.263347 0.000620585 10
9.89078 11.378 0.263153 0.000620587 10
9.88524 11.3717 0.78966 0.000617419 10
9.84202 11.3219 1.31248 0.000555501 10
9.84482 11.3252 1.8425 0.000547219 10
9.84533 11.3258 2.37684 0.000536254 10
9.83449 11.3133 2.91381 0.000522736 10
9.84187 11.3218 3.46337 0.000506824 10
9.8456 11.3261 4.02116 0.000488703 10
6.63073 7.68177 -2.71907 0.000387851 1
7.69016 8.90913 -2.7171 0.000225047 1
9.12945 10.5766 -2.71584 0.000116014 1
9.8535 11.4154 -2.38842 0.000672113 10
9.84671 11.4075 -1.8503 0.000686422 10
9.84247 11.4026 -1.31784 0.000460635 10
9.84534 11.4059 -0.789648 0.000465569 10
9.84368 11.404 -0.262958 0.000468142 10
9.84893 11.4101 0.263098 0.000468325 10
9.85718 11.4197 0.790598 0.000466114 10
9.84052 11.4003 1.31758 0.000544817 10
9.84563 11.4063 1.8501 0.000536684 10
9.85465 11.4167 2.3887 0.000525918 10
9.84137 11.4013 2.92762 0.000512644 10
9.84211 11.4022 3.47744 0.00049702 10
9.83854 11.3981 4.0345 0.000479227 10
6.5999 7.70024 -2.71744 0.000387827 1
7.65997 8.93703 -2.71744 0.00022503 1
9.08392 10.5984 -2.71328 0.000116003 1
9.85055 11.4928 -2.39741 0.000659035 10
9.86723 11.5123 -1.86169 0.000673086 10
9.98479 11.6495 -1.34233 0.0005817 10
9.98477 11.6494 -0.804088 0.000587731 10
9.98644 11.6514 -0.267856 0.000590767 10
9.97424 11.6371 0.267529 0.000590769 10
9.97998 11.6438 0.803702 0.00058774 10
9.84739 11.4891 1.32386 0.000534251 10
9.84564 11.4871 1.85762 0.000526267 10
9.85083 11.4932 2.39748 0.000515696 10
9.85199 11.4945 2.9427 0.000502664 10
9.85236 11.4949 3.49522 0.000487324 10
9.84234 11.4832 4.05247 0.000469855 10
6.56698 7.71617 -2.71495 0.000387802 1
7.62141 8.95513 -2.71484 0.000225013 1
9.04468 10.6275 -2.71263 0.000115992 1
9.86132 11.587 -2.40986 0.000646099 10
9.87247 11.6001 -1.87031 0.000659895 10
9.90874 11.6427 -1.33757 0.000588118 10
9.90401 11.6372 -0.800851 0.000594212 10
9.90635 11.6399 -0.266796 0.000597278 10
9.90344 11.6365 0.266718 0.000597281 10
9.91782 11.6534 0.801967 0.00059422 10
9.85741 11.5824 1.33064 0.0005238 10
9.85596 11.5807 1.86719 0.000515961 10
9.85257 11.5767 2.40772 0.000505585 10
9.85723 11.5822 2.95632 0.000492792 10
9.85969 11.5851 3.51214 0.000477734 10
9.85132 11.5753 4.07279 0.000460587 10
6.54066 7.73983 -2.71523 0.000387778 1
7.58691 8.97789 -2.7137 0.000224996 1
9.00969 10.6615 -2.71328 0.000115982 1
9.86765 11.6768 -2.42135 0.00063331 10
9.87811 11.6892 -1.8791 0.000646853 10
9.8786 11.6897 -1.339 0.000434112 10
9.86427 11.6728 -0.800927 0.000438783 10
9.86287 11.6711 -0.266721 0.000441221 10
9.86648 11.6754 0.266818 0.000441396 10
9.86083 11.6687 0.800647 0.000439307 10
9.867 11.676 1.33742 0.000513466 10
9.85577 11.6627 1.87485 0.000505772 10
9.85694 11.6641 2.41873 0.000495588 10
9.85454 11.6613 2.96771 0.000483032 10
9.86595 11.6748 3.52887 0.000468253 10
9.85295 11.6594 4.09026 0.000451425 10
6.5284 7.78024 -2.7214 0.000387753 1
7.56272 9.0129 -2.71628 0.000224979 1
8.97066 10.6908 -2.71275 0.000115971 1
9.87669 11.7706 -2.43364 0.000620664 10
9.8805 11.7751 -1.88736 0.000633957 10
9.99741 11.9145 -1.36073 0.000560259 10
9.99852 11.9158 -0.8152 0.000566092 10
10.0024 11.9204 -0.271619 0.000569028 10
9.99652 11.9134 0.271458 0.000569031 10
9.99474 11.9113 0.814891 0.0005661 10
9.87118 11.764 1.34355 0.000503246 10
9.87068 11.7634 1.88549 0.000495697 10
9.85982 11.7505 2.42948 0.000485703 10
9.86866 11.761 2.9843 0.000473382 10
9.86256 11.7537 3.54231 0.000458879 10
9.86347 11.7548 4.11164 0.000442365 10
6.49566 7.79633 -2.71908 0.000387729 1
7.53251 9.0408 -2.71675 0.000224962 1
8.93214 10.7207 -2.7124 0.00011596 1
9.87446 11.8517 -2.44327 0.000608164 10
9.87502 11.8524 -1.89421 0.000621209 10
9.92597 11.9135 -1.35666 0.00056633 10
9.92862 11.9167 -0.812887 0.000572222 10
9.92821 11.9162 -0.270731 0.000575188 10
9.92461 11.9119 0.270632 0.00057519 10
9.93393 11.9231 0.813322 0.00057223 10
9.86996 11.8463 1.349 0.000493146 10
9.86797 11.8439 1.89285 0.000485738 10
9.88241 11.8612 2.44524 0.000475932 10
9.88349 11.8625 3.00129 0.000463843 10
9.8775 11.8553 3.56251 0.000449613 10
9.86449 11.8397 4.12926 0.000433412 10
6.46169 7.81083 -2.71625 0.000387704 1
7.49882 9.06451 -2.71599 0.000224944 1
8.89323 10.7501 -2.71196 0.000115949 1
9.8941 11.9599 -2.45844 0.000595811 10
9.88802 11.9526 -1.90469 0.00060861 10
9.88366 11.9473 -1.35657 0.000408476 10
9.87827 11.9408 -0.812172 0.000412892 10
9.87737 11.9397 -0.27048 0.000415198 10
9.89112 11.9563 0.270856 0.000415366 10
9.87643 11.9385 0.812021 0.000413394 10
9.87523 11.9371 1.35541 0.000483161 10
9.88573 11.9498 1.90425 0.000475895 10
9.8848 11.9487 2.45613 0.000466275 10
9.88648 11.9507 3.01485 0.000454415 10
9.87214 11.9334 3.57558 0.000440456 10
9.88453 11.9483 4.15508 0.000424563 10
6.43731 7.83691 -2.71749 0.000387679 1
7.47652 9.10206 -2.71941 0.000224927 1
8.86476 10.7921 -2.71475 0.000115938 1
9.90435 12.0577 -2.47143 0.0005836 10
9.90142 12.0542 -1.91537 0.000596156 10
10.0023 12.177 -1.37868 0.000539904 10
10.0104 12.1869 -0.82653 0.000545548 10
9.99836 12.1722 -0.274955 0.000548389 10
10.0008 12.1751 0.275021 0.000548391 10
10.0093 12.1855 0.826439 0.000545555 10
9.88208 12.0306 1.36211 0.000473292 10
9.886 12.0354 1.91238 0.000466165 10
9.88385 12.0328 2.46632 0.000456729 10
9.8903 12.0406 3.02881 0.000445097 10
9.89122 12.0418 3.5977 0.000431406 10
9.88296 12.0317 4.17206 0.000415818 10
6.41748 7.86861 -2.72069 0.000387654 1
7.44686 9.13075 -2.72019 0.00022491 1
8.8255 10.8211 -2.71428 0.000115927 1
9.90486 12.1446 -2.48213 0.000571536 10
9.90059 12.1393 -1.92339 0.000583852 10
9.9411 12.189 -1.3761 0.00054565 10
9.9386 12.1859 -0.824107 0.000551349 10
9.93392 12.1802 -0.27435 0.000554218 10
9.94478 12.1935 0.27465 0.00055422 10
9.92949 12.1748 0.823352 0.000551357 10
9.89722 12.1352 1.37002 0.000463542 10
9.88907 12.1252 1.92115 0.000456553 10
9.88567 12.121 2.47732 0.000447299 10
9.89536 12.1329 3.04331 0.000435891 10
9.88354 12.1184 3.61027 0.000422465 10
9.88663 12.1222 4.19144 0.000407179 10
6.3886 7.88927 -2.72011 0.000387629 1
7.40592 9.14555 -2.71688 0.000224893 1
8.78467 10.8482 -2.71335 0.000115916 1
9.9116 12.2398 -2.49451 0.000559616 10
9.91668 12.2461 -1.93481 0.000571693 10
9.9055 12.2323 -1.37707 0.000383728 10
9.90545 12.2322 -0.824894 0.000387897 10
9.90057 12.2262 -0.274606 0.000390075 10
9.90965 12.2374 0.274858 0.000390236 10
9.90389 12.2303 0.824764 0.000388378 10
9.89405 12.2181 1.37548 0.000453907 10
9.89249 12.2162 1.93009 0.000447054 10
9.89549 12.2199 2.49045 0.00043798 10
9.90758 12.2348 3.06019 0.000426795 10
9.90263 12.2287 3.63281 0.000413631 10
9.90598 12.2329 4.21772 0.000398643 10
6.36084 7.91129 -2.72003 0.000387604 1
7.36594 9.16138 -2.71393 0.000224875 1
8.76118 10.8967 -2.71783 0.000115905 1
9.91071 12.3264 -2.5051 0.000547843 10
9.90983 12.3253 -1.94186 0.000559686 10
10.0017 12.4396 -1.39647 0.000520553 10
10.0195 12.4617 -0.83801 0.000526016 10
10.0097 12.4496 -0.278837 0.000528766 10
10.0144 12.4554 0.278967 0.000528769 10
10.0191 12.4613 0.837979 0.000526024 10
9.91637 12.3335 1.38456 0.00044439 10
9.90379 12.3178 1.94067 0.000437672 10
9.91187 12.3279 2.50539 0.000428777 10
9.89811 12.3108 3.07052 0.000417811 10
9.9102 12.3258 3.65135 0.000404906 10
9.89682 12.3092 4.23209 0.000390214 10
6.32771 7.92658 -2.71768 0.000387579 1
7.34635 9.20262 -2.71854 0.000224858 1
8.72264 10.9267 -2.71769 0.000115894 1
9.91858 12.4248 -2.51803 0.000536214 10
9.92066 12.4274 -1.95247 0.000547824 10
9.95065 12.465 -1.39541 0.000525992 10
9.93406 12.4442 -0.834492 0.000531509 10
9.95247 12.4672 -0.278453 0.000534285 10
9.94179 12.4539 0.278154 0.000534288 10
9.94983 12.4639 0.835816 0.000531516 10
9.92407 12.4317 1.39168 0.000434989 10
9.91758 12.4235 1.95186 0.000428404 10
9.9189 12.4252 2.51811 0.000419685 10
9.90606 12.4091 3.0864 0.000408937 10
9.90866 12.4124 3.66672 0.000396288 10
9.91663 12.4224 4.25908 0.000381889 10
6.30505 7.95499 -2.71986 0.000387554 1
7.3086 9.22116 -2.71646 0.00022484 1
8.68209 10.9541 -2.71695 0.000115882 1
9.9249 12.5221 -2.53072 0.000524732 10
9.9203 12.5163 -1.96098 0.000536112 10
9.92225 12.5188 -1.39755 0.000359874 10
9.92872 12.5269 -0.83771 0.000363803 10
9.92616 12.5237 -0.278938 0.000365858 10
9.92932 12.5277 0.279027 0.000366011 10
9.92996 12.5285 0.837815 0.000364263 10
9.92241 12.519 1.39757 0.000425707 10
9.91862 12.5142 1.96065 0.000419253 10
9.9206 12.5167 2.52962 0.000410709 10
9.92518 12.5225 3.10596 0.000400176 10
9.91441 12.5089 3.68499 0.00038778 10
9.92102 12.5172 4.2797 0.000373669 10
6.27389 7.9727 -2.71841 0.000387529 1
7.28006 9.25131 -2.71784 0.000224823 1
8.64296 10.9832 -2.71669 0.000115871 1
9.94064 12.6323 -2.54596 0.000513394 10
9.92921 12.6178 -1.97144 0.000524546 10
10.0032 12.7118 -1.41519 0.000502131 10
10.0177 12.7302 -0.848962 0.000507422 10
10.0096 12.7199 -0.282528 0.000510085 10
10.0102 12.7207 0.282546 0.000510088 10
10.0193 12.7322 0.849094 0.000507429 10
9.9216 12.6081 1.40365 0.00041654 10
9.93173 12.621 1.97194 0.000410217 10
9.92895 12.6174 2.54297 0.000401845 10
9.92696 12.6149 3.12028 0.000391525 10
9.91964 12.6056 3.70326 0.000379379 10
9.91764 12.6031 4.2972 0.000365554 10
6.2481 7.99721 -2.71931 0.000387504 1
7.2487 9.27791 -2.71821 0.000224805 1
8.60387 11.0124 -2.71646 0.00011586 1
9.94287 12.7263 -2.55789 0.000502203 10
9.94949 12.7348 -1.98428 0.00051313 10
9.94099 12.7239 -1.41267 0.000507281 10
9.94903 12.7342 -0.846904 0.000512622 10
9.9407 12.7235 -0.281836 0.000515311 10
9.9458 12.73 0.281981 0.000515313 10
9.93442 12.7155 0.845661 0.000512629 10
9.93096 12.711 1.41124 0.000407491 10
9.9345 12.7156 1.98129 0.000401297 10
9.9319 12.7122 2.55507 0.000393096 10
9.93915 12.7215 3.13805 0.000382985 10
9.93368 12.7145 3.72505 0.000371087 10
9.93823 12.7203 4.32533 0.000357544 10
6.21601 8.01363 -2.7175 0.000387478 1
7.21393 9.30013 -2.71732 0.000224788 1
8.55699 11.0316 -2.71381 0.000115849 1
9.9474 12.8241 -2.57056 0.000491157 10
9.9392 12.8135 -1.99113 0.000501862 10
10.0764 12.9904 -1.43834 0.000479701 10
10.0664 12.9775 -0.860746 0.00048478 10
10.0707 12.9831 -0.286806 0.000487336 10
10.0755 12.9892 0.286941 0.000487338 10
10.0717 12.9843 0.861196 0.000484786 10
9.9397 12.8142 1.41883 0.000398559 10
9.93949 12.8139 1.99119 0.000392493 10
9.93573 12.8091 2.56754 0.000384459 10
9.93113 12.8031 3.14961 0.000374557 10
9.94283 12.8182 3.74524 0.000362903 10
