VERSION 0.7
FIELDS x y z intensity label
SIZE 4 4 4 4 4
TYPE F F F F F
COUNT 1 1 1 1 1
WIDTH 1170
HEIGHT 1
VIEWPOINT 5.3318 45.9625 2.7285 0.808457 0.000423217 0.000727285 -0.588555
POINTS 1170
DATA ascii
-12.5864 27.2394 -1.57258 5.08949e-05 10
-12.5934 27.2546 -0.524062 5.12144e-05 10
-12.5904 27.2482 0.523937 5.11982e-05 10
-12.589 27.2452 1.57292 5.08465e-05 10
-10.9211 23.6354 2.2779 3.1411e-05 10
-12.594 27.256 4.75549 4.78597e-05 10
-12.5974 27.2632 5.83781 4.62716e-05 10
-4.18428 8.97322 -2.65292 5.99462e-05 4
-5.78482 12.4056 -2.66069 3.95128e-05 4
-7.19773 15.4356 -2.69749 0.000203066 4
-12.6427 27.1124 -1.56779 5.15772e-05 10
-12.6424 27.1118 -0.522161 5.19004e-05 10
-12.6473 27.1222 0.52236 5.18841e-05 10
-12.6385 27.1033 1.56726 5.15285e-05 10
-11.0103 23.6118 2.27932 3.17154e-05 10
-12.6475 27.1226 4.73989 4.85067e-05 10
-12.6506 27.1293 5.81856 4.68999e-05 10
-4.22668 8.98214 -2.65991 0.000199805 4
-4.90271 10.4188 -2.65837 4.77855e-05 4
-7.2187 15.3405 -2.68526 0.000191052 4
-12.6879 26.9632 1.56171 5.22107e-05 10
-11.1057 23.6007 2.28198 3.2015e-05 10
-4.25106 8.95271 -2.65557 0.000519451 4
-4.93131 10.3853 -2.65421 6.94996e-05 4
-7.24684 15.2618 -2.6759 0.000175811 4
-12.737 26.824 1.55622 5.28928e-05 10
-11.1963 23.5794 2.28368 3.23097e-05 10
-4.28226 8.93777 -2.65556 0.000526902 4
-4.97517 10.384 -2.65829 6.22542e-05 4
-5.90723 12.3293 -2.65746 3.80083e-05 4
-7.28432 15.2036 -2.67013 0.00015013 4
-11.2865 23.5567 -2.28529 4.61816e-05 10
-12.7882 26.691 1.55108 5.35748e-05 10
-11.2837 23.5509 2.28472 5.38738e-05 10
-12.79 26.6948 6.83384 4.68512e-05 10
-11.2867 23.5572 6.99923 4.59754e-05 10
-4.31793 8.93207 -2.65833 0.0004944 4
-5.95284 12.314 -2.65862 0.000105815 4
-7.30263 15.1062 -2.65749 0.000202684 4
-11.3922 23.5659 -2.29002 4.61893e-05 10
-12.8242 26.5281 1.54421 5.42566e-05 10
-11.3899 23.5612 2.28956 5.38831e-05 10
-12.8305 26.5411 6.80593 4.74582e-05 10
-11.3831 23.547 7.00797 4.59784e-05 10
-4.34842 8.9156 -2.65792 0.000504348 4
-5.04682 10.3475 -2.65791 4.77674e-05 4
-6.00205 12.306 -2.6614 5.36462e-05 4
-7.3312 15.0312 -2.64878 0.000156089 4
-11.4893 23.5565 -2.29299 4.6191e-05 10
-12.8695 26.3864 1.53857 5.49379e-05 10
-11.495 23.5684 2.29414 5.38854e-05 10
-12.8846 26.4175 6.7857 4.80648e-05 10
-11.4921 23.5624 7.02444 4.59754e-05 10
-4.38039 8.90214 -2.65845 0.000434404 4
-5.08757 10.3393 -2.66034 5.2105e-05 4
-6.03711 12.269 -2.65794 7.003e-05 4
-7.36021 14.9579 -2.64038 0.00019983 4
-11.595 23.5641 -2.29766 4.61867e-05 10
-12.9251 26.2672 1.53423 5.56187e-05 10
-11.5889 23.5518 2.29646 5.38806e-05 10
-12.918 26.2529 6.75497 4.86712e-05 10
-11.5997 23.5737 7.03983 4.59664e-05 10
-4.40442 8.87266 -2.65423 0.000594138 4
-5.11592 10.306 -2.65634 0.00032852 4
-6.07794 12.2439 -2.65708 3.50109e-05 4
-7.38655 14.8801 -2.63118 0.000216261 4
-11.6969 23.5632 -2.30153 4.61764e-05 10
-12.9646 26.1171 1.5281 5.62986e-05 10
-11.6924 23.5543 2.30066 5.38689e-05 10
-12.9661 26.1201 6.7324 4.9277e-05 10
-11.7014 23.5724 7.0516 4.59513e-05 10
-4.43377 8.85403 -2.65327 0.000499237 4
-5.15746 10.2992 -2.65923 0.000295206 4
-6.12611 12.2336 -2.65946 3.64965e-05 4
-7.41336 14.8041 -2.6223 0.000227009 4
-11.7958 23.5556 -2.3048 4.61601e-05 10
-13.0071 25.9747 1.52242 5.69778e-05 10
-11.7954 23.5549 2.30473 5.38501e-05 10
-13.014 25.9883 6.71011 4.98822e-05 10
-11.7953 23.5546 7.05856 4.59302e-05 10
-4.469 8.84711 -2.65585 0.000389374 4
-5.18538 10.2653 -2.65513 0.000244535 4
-6.1713 12.2171 -2.66055 3.72369e-05 4
-7.44818 14.7449 -2.6164 0.000163815 4
-11.9084 23.5746 -2.31071 4.6138e-05 10
-13.0557 25.8459 1.51753 5.76558e-05 10
-11.8983 23.5546 2.30875 5.38245e-05 10
-13.0525 25.8396 6.68343 5.04865e-05 10
-11.9003 23.5585 7.07214 4.59031e-05 10
-5.22893 10.2624 -2.65907 0.000274895 4
-7.47194 14.6645 -2.60675 0.000216308 4
-12.0059 23.563 -2.31367 4.61098e-05 10
-13.0911 25.6927 1.51121 5.83326e-05 10
-12.0112 23.5733 2.31468 5.37919e-05 10
-13.1024 25.7149 6.66297 5.109e-05 10
-12.0126 23.576 7.08994 4.58701e-05 10
-4.53376 8.82175 -2.65768 6.48855e-05 4
-5.25673 10.2285 -2.65504 0.000311036 4
-6.24978 12.1607 -2.65771 0.000142957 4
-7.50212 14.5976 -2.59949 0.000133527 4
-12.1149 23.5731 -2.3188 6.09286e-05 10
-13.1356 25.5591 1.50604 5.90082e-05 10
-12.1219 23.5866 2.32013 7.11136e-05 10
-13.1447 25.5769 6.63906 5.16924e-05 10
-12.1197 23.5824 7.10454 6.06601e-05 10
-4.56065 8.7984 -2.65542 0.000279485 4
-5.30106 10.2268 -2.65938 0.000258932 4
-6.30104 12.156 -2.66145 0.000157085 4
-7.51885 14.5053 -2.58772 0.000241787 4
-12.2375 23.6085 -2.32647 6.05193e-05 10
-13.1785 25.424 1.50078 5.96821e-05 10
-12.2301 23.5942 2.32506 7.0636e-05 10
-13.1955 25.4568 6.6198 5.22937e-05 10
-12.2288 23.5918 7.12019 6.0242e-05 10
-4.59094 8.78166 -2.65519 3.24377e-05 4
-5.32832 10.1921 -2.65519 5.78564e-05 4
-6.34247 12.132 -2.66104 0.000142179 4
-7.5555 14.4523 -2.58296 0.000147091 4
-12.3545 23.632 -2.33302 6.01048e-05 10
-13.2309 25.3083 1.49667 6.03544e-05 10
-12.3558 23.6345 2.33327 7.01525e-05 10
-13.238 25.3219 6.59671 5.28936e-05 10
-12.3518 23.6268 7.1437 5.9819e-05 10
-4.62472 8.77156 -2.657 8.98205e-05 4
-5.37168 10.1883 -2.65906 0.00014752 4
-6.37514 12.0915 -2.65703 0.000160026 4
-7.57808 14.3731 -2.57351 0.000220371 4
-12.4725 23.6562 -2.33969 5.96855e-05 10
-13.2695 25.1679 1.4911 6.10248e-05 10
-12.4689 23.6494 2.33902 6.96634e-05 10
-13.2814 25.1904 6.57449 5.3492e-05 10
-12.4694 23.6503 7.16392 5.93912e-05 10
-4.65087 8.74702 -2.65447 8.2329e-05 4
-5.39985 10.1556 -2.65544 4.33842e-05 4
-6.42529 12.0842 -2.66033 0.0001481 4
-7.60663 14.306 -2.56623 0.000226751 4
-12.5844 23.6679 -2.34518 5.92613e-05 10
-13.3085 25.0297 1.48565 6.16933e-05 10
-12.5815 23.6624 2.34464 6.91685e-05 10
-13.3166 25.0449 6.5486 5.40889e-05 10
-12.5818 23.6629 7.181 5.89586e-05 10
-4.68341 8.73453 -2.65562 0.000142194 4
-5.43458 10.1355 -2.6551 0.000270403 4
-6.46787 12.0625 -2.66051 7.81342e-05 4
-7.63408 14.2375 -2.55871 0.000194082 4
-12.706 23.6966 -2.3524 5.88326e-05 10
-13.3599 24.9161 1.48167 6.23596e-05 10
-12.6993 23.6841 2.35117 6.86683e-05 10
-13.3581 24.9128 6.52621 5.46839e-05 10
-12.6954 23.6768 7.19862 5.85214e-05 10
-4.71933 8.72821 -2.6587 0.000134699 4
-5.47794 10.1312 -2.65899 3.61468e-05 4
-6.50968 12.0394 -2.66041 5.65478e-05 4
-7.65397 14.1557 -2.5488 0.000136311 4
-12.8263 23.7217 -2.35933 6.96495e-05 10
-13.3925 24.7689 1.47569 6.30236e-05 10
-12.8288 23.7264 2.35979 8.13304e-05 10
-13.4034 24.7891 6.50602 5.52771e-05 10
-12.8168 23.7042 7.22052 5.80797e-05 10
-4.74107 8.69575 -2.65383 8.23099e-05 4
-5.51863 10.1219 -2.66158 6.79496e-05 4
-7.7027 14.1278 -2.54859 5.43674e-05 4
-12.9647 23.7789 -2.3695 6.87117e-05 10
-13.4376 24.6462 -1.47116 6.37388e-05 10
-13.4406 24.6518 -0.490099 6.4129e-05 10
-13.4427 24.6556 0.490175 6.41111e-05 10
-13.4374 24.646 1.47115 6.36852e-05 10
-12.9573 23.7653 2.36815 8.02358e-05 10
-13.4353 24.642 4.44532 6.00545e-05 10
-13.4484 24.6662 5.46094 5.81204e-05 10
-13.4475 24.6644 6.48558 5.58682e-05 10
-12.9523 23.7562 7.25008 6.83819e-05 10
-4.77743 8.69013 -2.65719 0.000284321 4
-7.75524 14.1067 -2.54967 4.47448e-05 4
-13.0892 23.8092 -2.37706 6.77746e-05 10
-13.4706 24.5029 -1.4654 6.4398e-05 10
-13.4817 24.5232 -0.488476 6.47918e-05 10
-13.472 24.5055 0.488123 6.47737e-05 10
-13.4814 24.5226 1.46658 6.43442e-05 10
-13.0929 23.816 2.37774 7.91421e-05 10
-13.4859 24.5308 4.43371 6.06811e-05 10
-13.4763 24.5134 5.4375 5.87297e-05 10
-13.4792 24.5186 6.45957 5.64571e-05 10
-13.0883 23.8076 7.27968 6.74319e-05 10
-4.80669 8.6715 -2.65661 4.48894e-05 4
-5.58577 10.077 -2.65997 6.50461e-05 4
-6.63047 11.9617 -2.65843 6.69414e-05 4
-7.79725 14.0666 -2.54732 4.32593e-05 4
-13.2287 23.8652 -2.38724 6.68385e-05 10
-13.5222 24.3947 -1.46175 6.50544e-05 10
-13.5139 24.3798 -0.486555 6.54517e-05 10
-13.5256 24.4008 0.486974 6.54336e-05 10
-13.5152 24.3821 1.46099 6.50004e-05 10
-13.233 23.873 2.38802 7.80495e-05 10
-13.5167 24.3848 4.41584 6.13053e-05 10
-13.5185 24.3881 5.42014 5.93366e-05 10
-13.5249 24.3995 6.4406 5.70438e-05 10
-13.2252 23.8589 7.30943 6.6483e-05 10
-4.84244 8.66453 -2.65963 0.000127177 4
-6.68323 11.9582 -2.66283 3.86728e-05 4
-13.3632 23.9106 -2.39644 6.59038e-05 10
-13.5617 24.2659 -1.45686 6.57078e-05 10
-13.5571 24.2575 -0.485057 6.61088e-05 10
-13.5543 24.2527 0.484959 6.60906e-05 10
-13.5608 24.2641 1.45675 6.56537e-05 10
-13.3625 23.9093 2.39631 7.69585e-05 10
-13.5666 24.2746 4.40442 6.19267e-05 10
-13.5597 24.2622 5.40264 5.99409e-05 10
-13.5594 24.2617 6.41668 5.76279e-05 10
-4.87066 8.64402 -2.65854 5.48563e-05 4
-5.66027 10.0454 -2.66198 0.000104055 4
-8.24836 14.6385 -2.66124 3.29583e-05 4
-13.5094 23.9753 -2.40764 6.49704e-05 10
-13.5924 24.1227 -1.4511 6.63583e-05 10
-13.6068 24.1481 -0.483816 6.67627e-05 10
-13.596 24.1289 0.483431 6.67445e-05 10
-13.6023 24.1402 1.45215 6.63039e-05 10
-13.5052 23.9678 2.40688 7.58691e-05 10
-13.6054 24.1457 4.38964 6.25453e-05 10
-13.6031 24.1416 5.38634 6.05424e-05 10
-13.608 24.1503 6.39972 5.82096e-05 10
-4.89424 8.61542 -2.65498 8.47714e-05 4
-5.68615 10.0094 -2.65771 8.81492e-05 4
-6.76159 11.9026 -2.66088 3.12286e-05 4
-8.30189 14.614 -2.66204 3.10338e-05 4
-13.6394 24.0097 -2.41586 6.61777e-05 10
-13.6348 24.0016 -1.44667 6.70054e-05 10
-13.6411 24.0126 -0.482053 6.74133e-05 10
-13.6378 24.0069 0.481937 6.7395e-05 10
-13.6422 24.0146 1.44745 6.69508e-05 10
-13.6456 24.0207 2.41696 6.60876e-05 10
-13.6506 24.0294 3.39329 6.48179e-05 10
-13.6404 24.0114 4.37385 6.31608e-05 10
-13.6466 24.0224 5.37035 6.11411e-05 10
-13.6532 24.034 6.38151 5.87884e-05 10
-13.647 24.0231 7.40313 5.61373e-05 10
-4.92552 8.60045 -2.65565 0.000112189 4
-5.72452 9.99557 -2.65931 9.68107e-05 4
-8.35284 14.5849 -2.66203 4.44645e-05 4
-13.6817 23.8896 -2.40856 6.68145e-05 10
-13.6829 23.8917 -1.44292 6.76493e-05 10
-13.6855 23.8962 -0.480671 6.80606e-05 10
-13.6815 23.8892 0.480531 6.80422e-05 10
-13.6759 23.8794 1.44217 6.75944e-05 10
-13.6801 23.8869 2.40829 6.67241e-05 10
-13.6864 23.8979 3.38143 6.5444e-05 10
-13.6784 23.8838 4.35927 6.37733e-05 10
-13.6904 23.9048 5.35469 6.17368e-05 10
-13.686 23.897 6.35779 5.93644e-05 10
-13.6812 23.8887 7.37637 5.6691e-05 10
-4.9572 8.58613 -2.65656 3.24076e-05 4
-5.76329 9.98232 -2.66112 6.93506e-05 4
-8.40355 14.5554 -2.66198 0.000216573 4
-13.7183 23.7608 -2.4004 6.74479e-05 10
-13.7117 23.7494 -1.4372 6.82895e-05 10
-13.7238 23.7704 -0.479101 6.87042e-05 10
-13.7269 23.7758 0.479209 6.86858e-05 10
-13.723 23.7689 1.43838 6.82345e-05 10
-13.7188 23.7617 2.40048 6.73572e-05 10
-13.7229 23.7687 3.36992 6.60667e-05 10
-13.7268 23.7756 4.34824 6.43824e-05 10
-13.7292 23.7797 5.33738 6.23292e-05 10
-13.7272 23.7762 6.33836 5.99374e-05 10
-13.7287 23.7789 7.35721 5.72418e-05 10
-4.99568 8.58343 -2.6611 0.000114664 4
-5.79796 9.96189 -2.66106 0.000115574 4
-8.42873 14.482 -2.65393 0.000203213 4
-13.7538 23.6313 -2.39215 6.80777e-05 10
-13.7596 23.6414 -1.43357 6.89261e-05 10
-13.7658 23.652 -0.47768 6.93442e-05 10
-13.7596 23.6413 0.477465 6.93257e-05 10
-13.7575 23.6377 1.43334 6.88709e-05 10
-13.7683 23.6563 2.39467 6.79866e-05 10
-13.7638 23.6486 3.35967 6.66859e-05 10
-13.7582 23.639 4.33201 6.49882e-05 10
-13.759 23.6404 5.31685 6.29184e-05 10
-13.7618 23.6452 6.31618 6.05072e-05 10
-13.7644 23.6497 7.33206 5.77897e-05 10
-5.02027 8.55684 -2.65828 0.000164506 4
-5.82856 9.93455 -2.65917 7.80051e-05 4
-8.44924 14.4014 -2.64454 0.000207109 4
-13.7987 23.5193 -2.38567 6.87035e-05 10
-13.7961 23.5148 -1.4288 6.95587e-05 10
-13.8023 23.5254 -0.476094 6.99802e-05 10
-13.7954 23.5136 0.475855 6.99617e-05 10
-13.8082 23.5354 1.43005 6.95034e-05 10
-13.7944 23.512 2.38492 6.86122e-05 10
-13.7989 23.5196 3.34817 6.73013e-05 10
-13.8074 23.5342 4.32162 6.55902e-05 10
-13.8074 23.5342 5.30379 6.35041e-05 10
-13.8015 23.5241 6.29666 6.10737e-05 10
-13.8088 23.5366 7.3119 5.83344e-05 10
-5.05597 8.54918 -2.66136 4.98465e-05 4
-5.86419 9.91581 -2.65962 6.21095e-05 4
-6.9694 11.7846 -2.66131 4.38439e-05 4
-8.47697 14.3338 -2.63755 0.000212538 4
-13.8299 23.3852 -2.37695 6.93255e-05 10
-13.8341 23.3923 -1.42428 7.01874e-05 10
-13.8323 23.3891 -0.474309 7.06122e-05 10
-13.8373 23.3976 0.474482 7.05936e-05 10
-13.8381 23.3989 1.42468 7.01318e-05 10
-13.84 23.4022 2.37868 6.92339e-05 10
-13.8355 23.3946 3.33723 6.79129e-05 10
-13.8502 23.4194 4.30939 6.61886e-05 10
-13.8499 23.4189 5.28867 6.40862e-05 10
-13.8404 23.4028 6.27709 6.16368e-05 10
-13.851 23.4208 7.29089 5.88759e-05 10
-5.07219 8.50868 -2.65425 4.73505e-05 4
-5.90448 9.90487 -2.66219 5.63267e-05 4
-7.00778 11.7557 -2.66027 6.9102e-05 4
-8.51009 14.2758 -2.63233 0.0001594 4
-13.8739 23.2736 -2.37052 6.99434e-05 10
-13.8832 23.2892 -1.42095 7.08119e-05 10
-13.8832 23.2892 1.42095 7.07563e-05 10
-13.8765 23.2781 2.37097 6.98515e-05 10
-13.8855 23.2931 3.32965 6.85206e-05 10
-13.8782 23.2808 6.25734 6.21965e-05 10
-13.89 23.3006 7.26855 5.94142e-05 10
-5.11552 8.51367 -2.66136 0.000127089 4
-8.5396 14.2123 -2.6261 0.0002282 4
-13.9084 23.1475 -2.3626 7.05571e-05 10
-13.9109 23.1516 -1.41551 7.14321e-05 10
-13.9225 23.1709 1.41668 7.13763e-05 10
-13.9151 23.1586 2.36373 7.04649e-05 10
-13.9142 23.1572 3.31714 6.9124e-05 10
-13.9204 23.1675 6.2399 6.27523e-05 10
-13.9219 23.1699 7.24286 5.99488e-05 10
-5.1393 8.48599 -2.6583 0.000104654 4
-5.97357 9.86353 -2.66223 6.49805e-05 4
-7.09172 11.7098 -2.66104 3.2686e-05 4
-8.55891 14.1324 -2.61685 0.000198527 4
-13.9467 23.0288 -2.35544 7.11663e-05 10
-13.9472 23.0296 -1.41101 7.20479e-05 10
-13.9559 23.0439 1.41189 7.19919e-05 10
-13.951 23.0358 2.35615 7.10739e-05 10
-13.9643 23.0577 3.30986 6.97232e-05 10
-13.9616 23.0533 6.22222 6.33044e-05 10
-13.9615 23.0532 7.22158 6.04798e-05 10
-6.003 9.8345 -2.66003 8.37451e-05 4
-7.13444 11.6881 -2.66175 4.23385e-05 4
-8.58615 14.0664 -2.61015 0.000224161 4
-13.9912 22.9212 -2.34942 7.1771e-05 10
-13.9967 22.9303 -1.40791 7.2659e-05 10
-13.9869 22.9142 1.40693 7.26028e-05 10
-13.9872 22.9147 2.34875 7.16783e-05 10
-14.0026 22.94 3.29995 7.03179e-05 10
-13.9914 22.9216 6.19982 6.38524e-05 10
-13.9972 22.9311 7.19861 6.1007e-05 10
-5.19653 8.44684 -2.65734 0.000259103 4
-6.04085 9.81926 -2.6616 9.09563e-05 4
-8.61908 14.0101 -2.60528 0.000236167 4
-14.0262 22.7993 -2.34192 7.2371e-05 10
-14.0299 22.8052 -1.40323 7.32655e-05 10
-14.0327 22.8099 1.40352 7.32091e-05 10
-14.035 22.8135 2.34338 7.22781e-05 10
-14.0367 22.8163 3.28918 7.09081e-05 10
-14.0386 22.8195 6.18542 6.43964e-05 10
-14.0396 22.821 7.17939 6.15304e-05 10
-6.06413 9.78045 -2.6568 9.23916e-05 4
-7.21741 11.6405 -2.66232 0.000109164 4
-8.64569 13.9441 -2.59859 0.000248398 4
-14.0591 22.675 -2.33418 7.29661e-05 10
-14.0674 22.6884 -1.39906 7.38669e-05 10
-14.0712 22.6946 1.39944 7.38104e-05 10
-14.0627 22.6807 2.33477 7.2873e-05 10
-14.0738 22.6987 3.2793 7.14935e-05 10
-14.0717 22.6953 6.16504 6.4936e-05 10
-14.0781 22.7056 7.1585 6.20496e-05 10
-5.26467 8.42523 -2.66204 0.000107113 4
-6.10566 9.7711 -2.66003 7.0731e-05 4
-7.25326 11.6076 -2.66058 4.08392e-05 4
-8.66812 13.8719 -2.59076 0.000243141 4
-14.1073 22.5764 -2.32909 7.35563e-05 10
-14.1061 22.5745 -1.39506 7.44633e-05 10
-14.1046 22.5721 1.39491 7.44067e-05 10
-14.1102 22.581 2.32956 7.34629e-05 10
-14.1126 22.5848 3.26994 7.20741e-05 10
-14.1192 22.5955 6.15128 6.54713e-05 10
-14.1089 22.5789 7.13403 6.25648e-05 10
-5.29206 8.40365 -2.66104 7.47244e-05 4
-6.14055 9.75103 -2.66039 9.52617e-05 4
-7.29874 11.5902 -2.6624 8.83513e-05 4
-8.69554 13.8083 -2.58454 0.000170958 4
-14.1362 22.448 -2.32092 7.41413e-05 10
-14.1421 22.4574 -1.39086 7.50545e-05 10
-14.1492 22.4685 1.39155 7.49978e-05 10
-14.1455 22.4627 2.32244 7.40477e-05 10
-14.1463 22.4639 3.25956 7.26495e-05 10
-14.1487 22.4678 6.12993 6.60021e-05 10
-14.1434 22.4593 7.11179 6.30756e-05 10
-5.32003 8.38304 -2.66037 4.73219e-05 4
-6.16608 9.71619 -2.65674 9.95828e-05 4
-7.33575 11.5593 -2.66117 7.57212e-05 4
-8.7111 13.7265 -2.57491 0.000187668 4
-14.1775 22.3402 -2.31488 7.47209e-05 10
-14.176 22.3378 -1.38652 7.56402e-05 10
-14.1864 22.3542 1.38754 7.55834e-05 10
-14.1885 22.3574 2.31666 7.46272e-05 10
-14.1761 22.338 3.24845 7.32198e-05 10
-14.1794 22.3432 6.10941 6.65282e-05 10
-14.1877 22.3563 7.09481 6.3582e-05 10
-5.34746 8.3616 -2.65948 0.000184293 4
-6.2078 9.70686 -2.6601 6.34963e-05 4
-7.38384 11.5458 -2.66398 0.000100208 4
-8.74504 13.6742 -2.57081 0.000226347 4
-14.22 22.2353 -2.30913 7.52953e-05 10
-14.2093 22.2184 -1.38218 7.62206e-05 10
-14.2151 22.2275 1.38274 7.61637e-05 10
-14.214 22.2258 2.30814 7.52014e-05 10
-14.2125 22.2235 3.23899 7.37849e-05 10
-14.2191 22.2338 6.09301 6.70496e-05 10
-14.2303 22.2514 7.07724 6.40838e-05 10
-5.37534 8.34089 -2.65884 8.46686e-05 4
-6.24399 9.68878 -2.6611 0.000174599 4
-7.42137 11.5157 -2.663 0.000143244 4
-8.7668 13.6034 -2.56323 0.000195167 4
-14.2462 22.1057 -2.30083 7.5864e-05 10
-14.2473 22.1075 -1.37836 7.67953e-05 10
-14.2494 22.1107 1.37856 7.67383e-05 10
-14.2489 22.11 2.30127 7.57698e-05 10
-14.2512 22.1135 3.2302 7.43445e-05 10
-14.2518 22.1145 6.07392 6.7566e-05 10
-14.2559 22.1209 7.05151 6.4581e-05 10
-5.39749 8.3114 -2.65543 0.000129484 4
-7.45707 11.4829 -2.66141 0.000142487 4
-8.80026 13.5512 -2.55917 0.000205784 4
-14.2808 21.9905 -2.29401 7.6427e-05 10
-14.2898 22.0043 -1.37503 7.73642e-05 10
-14.2911 22.0064 1.37516 7.73071e-05 10
-14.2906 22.0055 2.29558 7.63327e-05 10
-14.2935 22.01 3.22235 7.48985e-05 10
-14.2938 22.0106 6.05904 6.80775e-05 10
-14.2954 22.0129 7.03297 6.50734e-05 10
-5.42763 8.29429 -2.656 0.000146903 4
-6.30591 9.63644 -2.65875 0.000106761 4
-7.49282 11.4502 -2.65989 0.000114273 4
-8.82116 13.4802 -2.55155 5.67262e-05 4
-14.3192 21.882 -2.28789 7.69841e-05 10
-14.317 21.8786 -1.37029 7.79272e-05 10
-14.3326 21.9025 1.37179 7.78699e-05 10
-14.3273 21.8944 2.28919 7.68897e-05 10
-14.3268 21.8936 3.21261 7.54468e-05 10
-14.3241 21.8896 6.03947 6.85837e-05 10
-14.333 21.9032 7.01385 6.5561e-05 10
-5.46627 8.29003 -2.66073 0.000209135 4
-6.34566 9.62369 -2.66133 0.000253894 4
-7.53438 11.4265 -2.66046 0.000150616 4
-8.86088 13.4382 -2.54945 4.34904e-05 4
-14.352 21.766 -2.28099 7.75353e-05 10
-14.3557 21.7716 -1.36672 7.84841e-05 10
-14.3663 21.7876 1.36772 7.84267e-05 10
-14.3702 21.7936 2.28388 7.74407e-05 10
-14.3717 21.7958 3.20561 7.59892e-05 10
-14.3731 21.7979 6.02799 6.90847e-05 10
-14.3629 21.7825 6.99121 6.60434e-05 10
-5.48833 8.26061 -2.65742 0.000159329 4
-6.36819 9.58491 -2.65673 0.000236562 4
-7.57597 11.4028 -2.66108 0.000135762 4
-8.91392 13.4165 -2.55122 5.93301e-05 4
-14.3982 21.6711 -2.2763 7.80803e-05 10
-14.3927 21.6628 -1.36303 7.90347e-05 10
-14.4006 21.6747 1.36378 7.89773e-05 10
-14.3948 21.6659 2.27575 7.79855e-05 10
-14.3924 21.6623 3.19333 7.65255e-05 10
-14.4041 21.68 6.00923 6.95802e-05 10
-14.4108 21.69 6.97762 6.65206e-05 10
-5.52537 8.25371 -2.66139 9.9573e-05 4
-6.40935 9.57417 -2.65994 0.000230772 4
-7.62369 11.3881 -2.66386 0.000180255 4
-8.96102 13.3858 -2.55132 6.1164e-05 4
-14.4335 21.5605 -2.26996 7.8619e-05 10
-14.4229 21.5447 -1.35876 7.95789e-05 10
-14.4287 21.5534 1.35931 7.95214e-05 10
-14.4329 21.5596 2.26986 7.8524e-05 10
-14.4347 21.5623 3.18601 7.70558e-05 10
-14.4375 21.5665 5.9917 7.00701e-05 10
-14.4335 21.5606 6.95216 6.69926e-05 10
-5.54267 8.21735 -2.65589 0.000283762 4
-6.44933 9.56153 -2.66267 0.000272575 4
-7.65554 11.3498 -2.66113 8.52963e-05 4
-9.01448 13.3645 -2.55324 4.86296e-05 4
-14.4678 21.4495 -2.26357 7.91513e-05 10
-14.4631 21.4424 -1.35549 8.01168e-05 10
-14.4704 21.4532 1.35617 8.00592e-05 10
-14.4705 21.4534 2.26399 7.90563e-05 10
-14.4779 21.4644 3.17898 7.75798e-05 10
-14.4802 21.4678 5.97829 7.05545e-05 10
-14.4694 21.4518 6.93332 6.74591e-05 10
-5.58244 8.21432 -2.66119 0.00016676 4
-6.48412 9.54109 -2.66326 0.000268225 4
-7.70061 11.3311 -2.66304 5.41387e-05 4
-9.06208 13.3345 -2.55352 5.12012e-05 4
-14.505 21.3435 -2.25772 7.9677e-05 10
-14.5093 21.3498 -1.35282 8.06478e-05 10
-14.5051 21.3436 1.35243 8.05902e-05 10
-14.4974 21.3323 2.25653 7.95819e-05 10
-14.5026 21.34 3.16803 7.80972e-05 10
-14.5029 21.3404 5.95689 7.10328e-05 10
-14.5103 21.3512 6.91714 6.79201e-05 10
-6.51794 9.51922 -2.66349 0.000292714 4
-7.7958 11.3855 -2.68219 0.000157071 4
-9.10069 13.2912 -2.55131 4.78792e-05 4
-14.5417 21.2377 -2.25188 8.01961e-05 10
-14.5331 21.225 -1.34813 8.11723e-05 10
-14.5378 21.2319 1.34856 8.11146e-05 10
-14.5356 21.2287 2.25093 8.01009e-05 10
-14.5417 21.2377 3.16037 7.86083e-05 10
-14.55 21.2498 5.94573 7.15054e-05 10
-14.5403 21.2356 6.89609 6.83754e-05 10
-5.6302 8.16144 -2.65673 0.000166736 4
-7.9009 11.453 -2.70458 0.000199375 4
-9.14486 13.2562 -2.55071 5.41327e-05 4
-14.5685 21.1182 -2.24459 8.07083e-05 10
-14.571 21.1218 -1.34479 8.16897e-05 10
-14.5723 21.1238 1.34492 8.1632e-05 10
-14.5698 21.1201 2.24479 8.0613e-05 10
-14.5811 21.1365 3.15287 7.91125e-05 10
-14.5762 21.1294 5.92624 7.19719e-05 10
-14.5871 21.1453 6.88326 6.8825e-05 10
-5.67082 8.15924 -2.66244 0.00012442 4
-6.57277 9.45697 -2.65885 8.50595e-05 4
-8.02729 11.5498 -2.73403 0.000148795 4
-9.18734 13.2188 -2.54967 3.68198e-05 4
-14.602 21.0095 -2.23844 8.12136e-05 10
-14.6032 21.0113 -1.34099 8.22002e-05 10
-14.6124 21.0245 -0.446915 8.26874e-05 10
-14.6049 21.0137 0.446686 8.2668e-05 10
-14.6013 21.0085 1.34082 8.21424e-05 10
-14.6029 21.0108 2.23858 8.11182e-05 10
-14.6062 21.0155 3.1424 7.96101e-05 10
-14.6202 21.0357 4.0574 7.76399e-05 10
-14.6074 21.0172 4.97514 7.52357e-05 10
-14.6123 21.0243 5.91103 7.2432e-05 10
-14.612 21.0239 6.86032 6.92684e-05 10
-5.69986 8.14024 -2.66272 8.45996e-05 4
-6.6084 9.43778 -2.65992 6.63118e-05 4
-8.07663 11.5346 -2.7371 0.000111664 1
-9.23361 13.187 -2.54972 4.45457e-05 4
-14.6394 20.9073 -2.23298 8.17117e-05 10
-14.642 20.9109 -1.33784 8.27034e-05 10
-14.6357 20.902 -0.445394 8.31931e-05 10
-14.6422 20.9113 0.445592 8.31738e-05 10
-14.6375 20.9045 1.33743 8.26456e-05 10
-14.6447 20.9148 2.23378 8.16163e-05 10
-14.6501 20.9225 3.13612 8.01006e-05 10
-14.6521 20.9253 4.04595 7.81204e-05 10
-14.6418 20.9107 4.962 7.5704e-05 10
-14.6441 20.9139 5.89433 7.28859e-05 10
-14.6565 20.9316 6.84686 6.97061e-05 10
-5.72639 8.11768 -2.66186 0.00011445 4
-6.63773 9.40959 -2.65849 0.000188828 4
-8.12195 11.5136 -2.73882 0.000111652 1
-14.6714 20.798 -2.22677 8.22027e-05 10
-14.6821 20.8132 -1.33486 8.31993e-05 10
-14.6763 20.805 -0.444417 8.36916e-05 10
-14.6832 20.8148 0.444626 8.36721e-05 10
-14.6842 20.8161 1.33505 8.31415e-05 10
-14.671 20.7975 2.22671 8.21071e-05 10
-14.674 20.8018 3.12568 8.0584e-05 10
-14.6767 20.8056 4.03267 7.85941e-05 10
-14.6895 20.8237 4.9535 7.61657e-05 10
-14.688 20.8216 5.88274 7.33335e-05 10
-14.6834 20.8151 6.82545 7.01376e-05 10
-5.75591 8.09935 -2.66242 0.000124393 4
-6.67945 9.39891 -2.66205 4.75631e-05 4
-8.16705 11.4922 -2.74049 0.000111639 1
-14.7062 20.6937 -2.22108 8.26862e-05 10
-14.7117 20.7014 -1.33098 8.36878e-05 10
-14.703 20.6892 -0.443036 8.41824e-05 10
-14.7186 20.7111 0.443505 8.4163e-05 10
-14.7145 20.7054 1.33123 8.36299e-05 10
-14.7083 20.6966 2.22139 8.25907e-05 10
-14.7059 20.6933 3.11707 8.10603e-05 10
-14.7119 20.7017 4.02247 7.90607e-05 10
-14.723 20.7173 4.94037 7.66205e-05 10
-14.7159 20.7073 5.86493 7.37745e-05 10
-14.7159 20.7073 6.80692 7.05627e-05 10
-5.78032 8.07387 -2.66066 0.000129359 4
-6.70332 9.36311 -2.65852 7.06179e-05 4
-8.19644 11.4487 -2.73693 0.000111627 1
-9.38085 13.103 -2.55235 5.33589e-05 4
-14.7432 20.5931 -2.21579 8.31623e-05 10
-14.7365 20.5838 -1.32671 8.41686e-05 10
-14.7347 20.5812 -0.441822 8.46657e-05 10
-14.7455 20.5963 0.442146 8.46463e-05 10
-14.7518 20.605 1.32808 8.41107e-05 10
-14.7432 20.5931 2.21579 8.30668e-05 10
-14.7485 20.6004 3.11083 8.15292e-05 10
-14.747 20.5983 4.01236 7.95202e-05 10
-14.7481 20.5999 4.92462 7.70685e-05 10
-14.7444 20.5947 5.84758 7.42088e-05 10
-14.7499 20.6024 6.78931 7.09817e-05 10
-5.81234 8.05902 -2.66244 0.000106962 4
-6.73931 9.34428 -2.65984 0.000129695 4
-8.24485 11.4318 -2.73975 0.000111615 1
-9.43337 13.0797 -2.5542 4.63606e-05 4
-14.7837 20.4981 -2.21111 8.36307e-05 10
-14.7699 20.479 -1.32327 8.46418e-05 10
-14.7729 20.4831 -0.44082 8.51412e-05 10
-14.7764 20.488 0.440926 8.51218e-05 10
-14.7805 20.4936 1.32422 8.45839e-05 10
-14.7831 20.4973 2.21102 8.35352e-05 10
-14.7727 20.4828 3.10083 8.19906e-05 10
-14.7734 20.4838 4.00008 7.99725e-05 10
-14.7866 20.5021 4.91354 7.75094e-05 10
-14.7887 20.505 5.83673 7.46364e-05 10
-14.7901 20.507 6.77486 7.13941e-05 10
-5.82965 8.02383 -2.65752 0.000171625 4
-6.76709 9.31411 -2.65796 3.17004e-05 4
-8.27891 11.3949 -2.73783 0.000111603 1
-9.46308 13.0248 -2.54992 5.92303e-05 4
-14.8052 20.3776 -2.20368 8.40915e-05 10
-14.8052 20.3776 -1.32005 8.51071e-05 10
-14.8067 20.3797 -0.439705 8.56089e-05 10
-14.8142 20.39 0.439928 8.55894e-05 10
-14.8146 20.3905 1.32089 8.50492e-05 10
-14.8092 20.3831 2.20426 8.39959e-05 10
-14.8176 20.3947 3.09531 8.24445e-05 10
-14.8069 20.3799 3.98986 8.04173e-05 10
-14.8246 20.4043 4.90248 7.79431e-05 10
-14.8155 20.3918 5.81917 7.50571e-05 10
-14.8168 20.3935 6.75441 7.17998e-05 10
-5.86901 8.01899 -2.66269 3.23328e-05 4
-6.8001 9.29115 -2.65816 3.89017e-05 4
-8.31837 11.3656 -2.73774 0.000111591 1
-9.5254 13.0148 -2.55445 4.78191e-05 4
-14.8486 20.2881 -2.19958 8.45444e-05 10
-14.8483 20.2876 -1.31757 8.55645e-05 10
-14.8402 20.2765 -0.438595 8.60685e-05 10
-14.8379 20.2734 0.438526 8.60491e-05 10
-14.8428 20.2801 1.31708 8.55066e-05 10
-14.8391 20.275 2.19817 8.44488e-05 10
-14.8509 20.2911 3.08744 8.28906e-05 10
-14.8551 20.297 3.98375 8.08546e-05 10
-14.8536 20.2948 4.88861 7.83697e-05 10
-14.853 20.2941 5.80606 7.54708e-05 10
-14.8464 20.2851 6.73561 7.2199e-05 10
-5.88369 7.98045 -2.65669 8.70435e-05 4
-8.36145 11.3412 -2.73888 0.000111579 1
-9.56395 12.9722 -2.55264 4.81803e-05 4
-14.8677 20.166 -2.19197 8.49892e-05 10
-14.8833 20.1872 -1.31442 8.60138e-05 10
-14.8784 20.1806 -0.437639 8.652e-05 10
-14.8823 20.1858 0.437753 8.65006e-05 10
-14.8704 20.1697 1.31328 8.59559e-05 10
-14.8739 20.1745 2.19288 8.48936e-05 10
-14.8812 20.1843 3.07907 8.33289e-05 10
-14.8779 20.1799 3.97093 8.12843e-05 10
-14.8909 20.1975 4.87765 7.87887e-05 10
-14.8911 20.1978 5.79333 7.58774e-05 10
-14.8905 20.197 6.72357 7.25912e-05 10
-5.92268 7.9749 -2.66171 0.000121852 4
-6.88058 9.26471 -2.66428 7.05872e-05 4
-8.4043 11.3164 -2.73996 0.000111566 1
-9.60854 12.9379 -2.55247 4.15544e-05 4
-14.9094 20.0756 -2.18777 8.5426e-05 10
-14.9034 20.0674 -1.31 8.64549e-05 10
-14.9174 20.0862 -0.43672 8.69633e-05 10
-14.9044 20.0688 0.436341 8.69439e-05 10
-14.9162 20.0847 1.31113 8.6397e-05 10
-14.9165 20.0851 2.18882 8.53305e-05 10
-14.9115 20.0784 3.07083 8.37594e-05 10
-14.9188 20.0881 3.9631 8.17063e-05 10
-14.9219 20.0923 4.8648 7.92002e-05 10
-14.9126 20.0798 5.7744 7.62767e-05 10
-14.9112 20.078 6.70125 7.29767e-05 10
-5.95334 7.958 -2.66299 0.000141736 4
-6.90137 9.22526 -2.65984 5.47363e-05 4
-8.43788 11.2792 -2.73805 0.000111554 1
-9.65372 12.9044 -2.55249 4.2284e-05 4
-14.9474 19.9807 -2.18311 8.58545e-05 10
-14.9429 19.9746 -1.30734 8.68876e-05 10
-14.9405 19.9713 -0.435353 8.73981e-05 10
-14.9407 19.9716 0.435359 8.73787e-05 10
-14.9398 19.9704 1.30706 8.68297e-05 10
-14.9524 19.9873 2.18383 8.57589e-05 10
-14.9393 19.9698 3.06218 8.41816e-05 10
-14.9469 19.98 3.95204 8.21203e-05 10
-14.9519 19.9867 4.85184 7.96041e-05 10
-14.945 19.9774 5.75993 7.66687e-05 10
-14.9523 19.9872 6.68832 7.3355e-05 10
-5.98141 7.9376 -2.66314 8.70246e-05 4
-6.92925 9.19543 -2.6582 7.63362e-05 4
-8.49144 11.2685 -2.74265 0.000111542 1
-9.69223 12.862 -2.55078 4.70575e-05 4
-14.9794 19.8783 -2.17762 8.62748e-05 10
-14.9669 19.8618 -1.30336 8.7312e-05 10
-14.9824 19.8823 -0.43455 8.78245e-05 10
-14.9686 19.8641 0.434151 8.78051e-05 10
-14.9823 19.8822 1.3047 8.72541e-05 10
-14.9846 19.8853 2.17839 8.61792e-05 10
-14.9818 19.8816 3.05665 8.45958e-05 10
-14.9738 19.8709 3.94077 8.25264e-05 10
-14.9757 19.8734 4.83699 8.00004e-05 10
-14.9752 19.8728 5.74479 7.70532e-05 10
-14.9828 19.8829 6.67088 7.37263e-05 10
-6.00986 7.9177 -2.66348 0.000121826 4
-6.972 9.18528 -2.66228 0.000128176 4
-8.53102 11.2392 -2.74275 0.00011153 1
-9.74462 12.8381 -2.55276 5.7711e-05 4
-15.0023 19.7648 -2.17092 8.66864e-05 10
-15.0144 19.7807 -1.30147 8.77276e-05 10
-15.0062 19.7699 -0.433235 8.82422e-05 10
-15.0021 19.7646 0.433118 8.82229e-05 10
-15.0178 19.7852 1.30177 8.76697e-05 10
-15.012 19.7776 2.17232 8.6591e-05 10
-15.0075 19.7716 3.04778 8.50016e-05 10
-15.0133 19.7793 3.93297 8.29244e-05 10
-15.0071 19.7712 4.82484 8.03886e-05 10
-15.0237 19.793 5.73684 7.74301e-05 10
-15.0146 19.781 6.65425 7.40903e-05 10
-6.03255 7.89026 -2.66132 0.000208829 4
-6.99961 9.15512 -2.66061 4.60819e-05 4
-8.55119 11.1845 -2.73666 0.000280547 4
-9.78625 12.7999 -2.55195 5.25576e-05 4
-15.034 19.6637 -2.16555 8.70895e-05 10
-15.0471 19.6809 -1.29835 8.81347e-05 10
-15.043 19.6755 1.298 8.80769e-05 10
-15.0527 19.6881 2.16824 8.69941e-05 10
-15.0372 19.6678 3.03985 8.53989e-05 10
-15.0507 19.6855 4.81671 8.0769e-05 10
-15.0515 19.6866 5.72119 7.77994e-05 10
-15.047 19.6807 6.63812 7.44469e-05 10
-6.0508 7.85712 -2.65725 0.000146667 4
-7.0384 9.13955 -2.66321 5.18376e-05 4
-8.56205 11.1181 -2.7277 0.000278156 4
-9.8304 12.765 -2.55182 5.0713e-05 4
-15.0783 19.5796 -2.16208 8.7484e-05 10
-15.076 19.5765 -1.29493 8.85329e-05 10
-15.0659 19.5634 1.29407 8.84751e-05 10
-15.0819 19.5843 2.16259 8.73886e-05 10
-15.0731 19.5728 3.03328 8.57878e-05 10
-15.0804 19.5824 6.62267 7.47961e-05 10
-6.08313 7.84233 -2.65941 8.69998e-05 4
-7.07021 9.11487 -2.66319 4.46342e-05 4
-8.59525 11.0809 -2.72594 0.000347808 4
-9.8714 12.7261 -2.55092 4.37248e-05 4
-15.1098 19.4794 -2.15683 8.78695e-05 10
-15.1059 19.4744 -1.29166 8.89222e-05 10
-15.1116 19.4817 1.29214 8.88644e-05 10
-15.0999 19.4667 2.15542 8.77743e-05 10
-15.1046 19.4728 3.02593 8.61681e-05 10
-15.1176 19.4895 6.60907 7.51377e-05 10
-6.10278 7.81121 -2.65606 9.19646e-05 4
-8.61604 11.028 -2.72031 9.88332e-05 4
-9.92903 12.7086 -2.55433 3.41669e-05 4
-15.1358 19.373 -2.15088 8.82463e-05 10
-15.1299 19.3654 -1.28792 8.93025e-05 10
-15.1367 19.3741 1.2885 8.92448e-05 10
-15.1364 19.3737 2.15096 8.81511e-05 10
-15.1485 19.3893 3.02115 8.65395e-05 10
-15.1481 19.3887 6.59277 7.54718e-05 10
-6.14339 7.80686 -2.66186 0.000121782 4
-7.12861 9.05886 -2.6613 7.48574e-05 4
-8.63136 10.9685 -2.71304 0.000259916 4
-9.96486 12.6631 -2.55216 3.48969e-05 4
-15.1688 19.2761 -2.14599 8.86139e-05 10
-15.1695 19.277 -1.28556 8.96736e-05 10
-15.1779 19.2877 1.28627 8.9616e-05 10
-15.1643 19.2704 2.14535 8.85188e-05 10
-15.1804 19.2908 3.01406 8.69021e-05 10
-15.1822 19.2932 6.57828 7.57981e-05 10
-7.16667 9.04209 -2.66371 4.03044e-05 4
-8.63934 10.9001 -2.70357 9.00999e-05 4
-10.0075 12.6263 -2.55178 4.81145e-05 4
-15.1939 19.1699 -2.14006 8.89724e-05 10
-15.2049 19.1838 -1.28288 9.00356e-05 10
-15.1977 19.1748 1.28227 8.9978e-05 10
-15.2012 19.1791 2.14108 8.88775e-05 10
-15.2122 19.193 3.00705 8.72557e-05 10
-15.2063 19.1855 6.55964 7.61165e-05 10
-6.1962 7.76184 -2.6612 0.00016898 4
-7.18474 9.00018 -2.65873 8.92379e-05 4
-8.669 10.8595 -2.70098 0.00034235 4
-10.0636 12.6065 -2.55486 4.77408e-05 4
-15.2314 19.08 -2.13595 8.93217e-05 10
-15.2258 19.073 -1.27901 9.03881e-05 10
-15.2325 19.0814 1.27957 9.03306e-05 10
-15.2416 19.0928 2.13737 8.92268e-05 10
-15.2334 19.0826 2.99806 8.76003e-05 10
-15.2323 19.0812 6.54211 7.6427e-05 10
-6.22084 7.73717 -2.66017 0.000419936 4
-7.22148 8.9817 -2.66071 4.02976e-05 4
-8.67921 10.7948 -2.6924 0.000337405 4
-10.1001 12.562 -2.55296 3.78203e-05 4
-15.2593 18.9788 -2.13056 8.96616e-05 10
-15.271 18.9933 -1.27723 9.07311e-05 10
-15.2664 18.9876 1.27685 9.06737e-05 10
-15.2729 18.9956 2.13245 8.95668e-05 10
-15.2666 18.9879 2.99153 8.79356e-05 10
-15.2655 18.9864 6.52783 7.67295e-05 10
-6.23876 7.70422 -2.65631 0.000124233 4
-7.25234 8.95589 -2.66054 4.60505e-05 4
-8.70162 10.7456 -2.6877 0.00039769 4
-10.141 12.5231 -2.55225 4.5158e-05 4
-15.2889 18.8803 -2.12548 8.99919e-05 10
-15.2973 18.8906 -1.27391 9.10646e-05 10
-15.3039 18.8988 1.27446 9.10073e-05 10
-15.2999 18.8938 2.12701 8.98974e-05 10
-15.2992 18.8929 2.98497 8.82617e-05 10
-15.303 18.8977 6.51565 7.70239e-05 10
-6.26575 7.68258 -2.65637 9.44101e-05 4
-7.28873 8.93687 -2.66243 6.18752e-05 4
-8.72312 10.6956 -2.68279 0.000390299 4
-10.1976 12.5035 -2.55548 4.62532e-05 4
-15.3318 18.7986 -2.1223 9.03128e-05 10
-15.3209 18.7853 -1.27041 9.13883e-05 10
-15.3341 18.8014 1.2715 9.13311e-05 10
-15.3374 18.8055 2.12308 9.02184e-05 10
-15.3382 18.8065 2.97976 8.85784e-05 10
-15.3395 18.8081 6.50319 7.731e-05 10
-6.29308 7.66132 -2.6566 7.70134e-05 4
-7.32366 8.91597 -2.66381 7.76971e-05 4
-8.74566 10.6471 -2.67828 0.000330022 4
-10.2303 12.4545 -2.55276 3.78051e-05 4
-15.3552 18.6937 -2.1165 9.0624e-05 10
-15.3569 18.6958 -1.26797 9.17025e-05 10
-15.3639 18.7043 1.26855 9.16454e-05 10
-15.3682 18.7095 2.11829 9.05298e-05 10
-15.3612 18.701 2.97152 8.88857e-05 10
-15.3714 18.7134 6.48896 7.75879e-05 10
-6.32592 7.64673 -2.65918 7.94921e-05 4
-7.35816 8.89449 -2.66505 9.06391e-05 4
-8.76854 10.5993 -2.67394 0.000383329 4
-10.2739 12.419 -2.55281 5.10116e-05 4
-15.3927 18.6066 -2.1127 9.09255e-05 10
-15.3934 18.6074 -1.26561 9.20066e-05 10
-15.3911 18.6046 1.26542 9.19496e-05 10
-15.3988 18.6139 2.11354 9.08314e-05 10
-15.3853 18.5977 2.96362 8.91833e-05 10
-15.3899 18.6032 6.46934 7.78574e-05 10
-6.34663 7.61747 -2.65669 9.19064e-05 4
-7.37492 8.85165 -2.65991 3.16491e-05 4
-8.77247 10.529 -2.66391 0.000366959 4
-10.3298 12.3982 -2.55593 5.0271e-05 4
-15.4186 18.506 -2.10738 9.12171e-05 10
-15.4261 18.515 -1.26298 9.23008e-05 10
-15.4227 18.5109 -0.420559 9.28369e-05 10
-15.4156 18.5024 0.420366 9.28179e-05 10
-15.4291 18.5186 1.26323 9.22439e-05 10
-15.4251 18.5138 2.10826 9.11232e-05 10
-15.4241 18.5126 2.95862 8.94713e-05 10
-15.4315 18.5214 3.81826 8.73116e-05 10
-15.4327 18.5229 4.6864 8.46741e-05 10
-15.4233 18.5117 5.56274 8.15955e-05 10
-15.4215 18.5095 6.45542 7.81184e-05 10
-6.37788 7.60086 -2.65865 0.00013164 4
-7.40864 8.82927 -2.66094 3.0208e-05 4
-8.80714 10.4959 -2.6633 0.00035594 4
-10.3626 12.3497 -2.55338 5.31994e-05 4
-15.4467 18.4087 -2.10243 9.14987e-05 10
-15.4437 18.4051 -1.25916 9.25849e-05 10
-15.4464 18.4083 -0.41945 9.31223e-05 10
-15.4404 18.4011 0.419287 9.31033e-05 10
-15.442 18.4031 1.25902 9.25281e-05 10
-15.4524 18.4155 2.1032 9.1405e-05 10
-15.4538 18.4171 2.95197 8.97495e-05 10
-15.4476 18.4098 3.80634 8.7585e-05 10
-15.4587 18.423 4.67475 8.49416e-05 10
-15.4487 18.411 5.54866 8.1856e-05 10
-15.4619 18.4267 6.44535 7.83708e-05 10
-6.40773 7.58253 -2.66004 0.000131631 4
-7.44806 8.81359 -2.66403 4.89041e-05 4
-8.82463 10.4425 -2.65755 0.000333185 4
-10.4055 12.3132 -2.55333 5.20919e-05 4
-15.4731 18.3099 -2.0973 9.17703e-05 10
-15.4813 18.3196 -1.257 9.28589e-05 10
-15.4783 18.3161 -0.418578 9.33975e-05 10
-15.4808 18.319 0.418645 9.33785e-05 10
-15.479 18.3169 1.25681 9.28022e-05 10
-15.482 18.3205 2.09851 9.16768e-05 10
-15.473 18.3098 2.94341 9.00179e-05 10
-15.4741 18.3111 3.79708 8.78488e-05 10
-15.4787 18.3165 4.66141 8.51998e-05 10
-15.4919 18.3322 5.54118 8.21075e-05 10
-15.482 18.3205 6.42707 7.86146e-05 10
-6.43845 7.56516 -2.66182 0.000153973 4
-7.4746 8.78263 -2.66254 4.17088e-05 4
-8.83136 10.3768 -2.64865 0.00036503 4
-10.4603 12.2908 -2.55624 5.09846e-05 4
-15.5059 18.2193 -2.09311 9.20318e-05 10
-15.5124 18.227 -1.25435 9.31226e-05 10
-15.5135 18.2284 -0.417809 9.36624e-05 10
-15.5073 18.221 0.417641 9.36434e-05 10
-15.5087 18.2227 1.25405 9.30661e-05 10
-15.5145 18.2295 2.09428 9.19385e-05 10
-15.5199 18.2359 2.94021 9.02762e-05 10
-15.5044 18.2176 3.7889 8.81028e-05 10
-15.5148 18.2298 4.65311 8.54484e-05 10
-15.5243 18.2409 5.52993 8.23498e-05 10
-15.5134 18.2282 6.41365 7.88497e-05 10
-6.46431 7.54204 -2.66161 0.000208594 4
-7.50359 8.75458 -2.66197 0.000104982 4
-8.85026 10.3258 -2.64349 0.000476261 4
-10.4985 12.2488 -2.55511 4.87774e-05 4
-15.5403 18.1312 -2.0892 9.2283e-05 10
-15.5432 18.1345 -1.25171 9.3376e-05 10
-15.5317 18.1212 -0.416593 9.39168e-05 10
-15.5408 18.1317 0.416834 9.38979e-05 10
-15.5488 18.1411 1.25216 9.33196e-05 10
-15.5397 18.1305 2.08913 9.219e-05 10
-15.5415 18.1326 2.93229 9.05247e-05 10
-15.5448 18.1365 3.78328 8.83472e-05 10
-15.5477 18.1398 4.64395 8.56877e-05 10
-15.5518 18.1446 5.51713 8.2583e-05 10
-15.5483 18.1405 6.40182 7.90759e-05 10
-6.48619 7.51433 -2.6598 8.69084e-05 4
-7.52546 8.71833 -2.65891 6.03959e-05 4
-8.86966 10.2756 -2.63856 0.000391903 4
-10.5389 12.2094 -2.55455 5.09711e-05 4
-15.5599 18.0263 -2.08337 9.25239e-05 10
-15.5624 18.0292 -1.24819 9.36189e-05 10
-15.577 18.0462 -0.416115 9.41608e-05 10
-15.5745 18.0433 0.416048 9.4142e-05 10
-15.5693 18.0372 1.24874 9.35626e-05 10
-15.5661 18.0335 2.08419 9.24311e-05 10
-15.5729 18.0414 2.92632 9.07629e-05 10
-15.5687 18.0366 3.77375 8.85816e-05 10
-15.5817 18.0516 4.63527 8.59173e-05 10
-15.5812 18.051 5.50519 8.28069e-05 10
-15.5726 18.0411 6.38589 7.92933e-05 10
-6.51483 7.49445 -2.6608 0.0002036 4
-7.57021 8.70854 -2.66397 8.19591e-05 4
-8.9024 10.241 -2.63765 0.000451657 4
-15.5986 17.9441 -2.08015 9.27544e-05 10
-15.6018 17.9478 -1.24631 9.38513e-05 10
-15.594 17.9388 -0.414893 9.43942e-05 10
-15.5967 17.942 0.414966 9.43754e-05 10
-15.5967 17.942 1.24591 9.37953e-05 10
-15.6085 17.9555 2.08146 9.26619e-05 10
-15.6067 17.9534 2.92086 9.0991e-05 10
-15.6133 17.961 3.76932 8.8806e-05 10
-15.61 17.9572 4.625 8.61372e-05 10
-15.5978 17.9433 5.48891 8.30215e-05 10
-15.6116 17.9591 6.37614 7.95017e-05 10
-6.53754 7.46778 -2.65942 0.000191172 4
-7.58614 8.66558 -2.65891 7.33258e-05 4
-8.92027 10.1895 -2.63239 0.000335577 4
-10.6151 12.1256 -2.55245 4.91247e-05 4
-15.6349 17.8596 -2.07666 9.29745e-05 10
-15.627 17.8506 -1.24335 9.40732e-05 10
-15.6349 17.8596 -0.41432 9.4617e-05 10
-15.627 17.8506 0.41411 9.45982e-05 10
-15.6261 17.8496 1.24327 9.40172e-05 10
-15.6323 17.8566 2.07631 9.28822e-05 10
-15.6322 17.8566 2.91396 9.12088e-05 10
-15.6315 17.8557 3.75866 8.90204e-05 10
-15.6338 17.8583 4.61355 8.63474e-05 10
-15.6312 17.8554 5.47869 8.32267e-05 10
-15.6353 17.8601 6.36032 7.97012e-05 10
-6.57185 7.45431 -2.66277 0.000186194 4
-8.91982 10.1176 -2.62182 0.000428983 4
-10.6715 12.1045 -2.55584 2.93244e-05 4
-15.6515 17.7531 -2.07062 9.31839e-05 10
-15.6502 17.7517 -1.24025 9.42843e-05 10
-15.6562 17.7585 -0.41324 9.48289e-05 10
-15.6661 17.7697 0.413501 9.48103e-05 10
-15.6529 17.7547 1.24046 9.42286e-05 10
-15.6657 17.7692 2.0725 9.3092e-05 10
-15.6547 17.7568 2.90659 9.14161e-05 10
-15.6699 17.7741 3.75296 8.92246e-05 10
-15.6701 17.7742 4.60593 8.65477e-05 10
-15.6691 17.7731 5.47017 8.34224e-05 10
-15.6603 17.7631 6.3452 7.98914e-05 10
-6.59184 7.42457 -2.66035 9.92966e-05 4
-7.65534 8.62242 -2.66201 4.60008e-05 4
-8.93874 10.0679 -2.61703 0.000389862 4
-10.7121 12.0654 -2.55546 3.84832e-05 4
-15.6857 17.6672 -2.06698 9.33828e-05 10
-15.6842 17.6655 -1.23805 9.44846e-05 10
-15.6784 17.659 -0.412196 9.50302e-05 10
-15.6905 17.6726 0.412514 9.50116e-05 10
-15.689 17.6709 1.23843 9.44291e-05 10
-15.6812 17.6622 2.06638 9.32911e-05 10
-15.6851 17.6665 2.90075 9.16131e-05 10
-15.6909 17.6731 3.74318 8.94187e-05 10
-15.6981 17.6812 4.59599 8.67381e-05 10
-15.702 17.6856 5.46007 8.36085e-05 10
-15.6894 17.6713 6.33195 8.00726e-05 10
-6.61219 7.39534 -2.65813 0.000146452 4
-8.96222 10.0237 -2.61365 0.000377681 4
-10.7543 12.028 -2.55548 4.32422e-05 4
-15.7136 17.5747 -2.06256 9.35709e-05 10
-15.7242 17.5865 -1.23635 9.46742e-05 10
-15.7132 17.5743 -0.411496 9.52204e-05 10
-15.7084 17.5689 0.41137 9.52019e-05 10
-15.716 17.5774 1.23571 9.46188e-05 10
-15.7187 17.5804 2.06323 9.34795e-05 10
-15.7248 17.5873 2.89673 9.17995e-05 10
-15.7298 17.5929 3.7378 8.96024e-05 10
-15.7321 17.5954 4.58795 8.69186e-05 10
-15.7272 17.5899 5.44745 8.3785e-05 10
-15.734 17.5976 6.32516 8.02444e-05 10
-6.63652 7.3706 -2.65755 9.68009e-05 4
-7.71731 8.57094 -2.66268 7.04272e-05 4
-8.98195 9.97547 -2.60923 0.000402395 4
-10.7909 11.9845 -2.55422 3.40763e-05 4
-15.7506 17.4928 -2.05939 9.37483e-05 10
-15.7456 17.4872 -1.23323 9.48528e-05 10
-15.7377 17.4785 -0.410537 9.53998e-05 10
-15.7496 17.4917 0.410848 9.53813e-05 10
-15.7536 17.4961 1.23385 9.47977e-05 10
-15.7443 17.4858 2.05856 9.36571e-05 10
-15.7481 17.4901 2.88976 9.19754e-05 10
-15.751 17.4932 3.72828 8.97759e-05 10
-15.7483 17.4903 4.57484 8.7089e-05 10
-15.7482 17.4901 5.43355 8.39517e-05 10
-15.754 17.4965 6.30857 8.0407e-05 10
-6.67382 7.3602 -2.66219 9.67944e-05 4
-7.74007 8.5361 -2.66024 5.89241e-05 4
-9.00648 9.93277 -2.60627 0.00030889 4
-10.8344 11.9486 -2.55463 5.34892e-05 4
-15.7763 17.3988 -2.05479 9.39147e-05 10
-15.7714 17.3935 -1.23049 9.50205e-05 10
-15.7769 17.3995 -0.409973 9.5568e-05 10
-15.7721 17.3942 0.409847 9.55496e-05 10
-15.7781 17.4008 1.23101 9.49654e-05 10
-15.7808 17.4038 2.05538 9.38239e-05 10
-15.7764 17.399 2.88379 9.21404e-05 10
-15.7766 17.3992 3.71995 8.99389e-05 10
-15.7782 17.401 4.56586 8.72492e-05 10
-15.7764 17.399 5.42231 8.41086e-05 10
-15.7882 17.412 6.29793 8.05601e-05 10
-6.7024 7.34007 -2.66335 9.92696e-05 4
-7.77635 8.5162 -2.66247 8.76605e-05 4
-9.01323 9.87075 -2.59823 0.00030505 4
-10.8731 11.9075 -2.55394 5.56801e-05 4
-15.8099 17.314 -2.05128 9.40702e-05 10
-15.8044 17.308 -1.22834 9.5177e-05 10
-15.8059 17.3097 -0.409154 9.57251e-05 10
-15.8088 17.3129 0.409229 9.57068e-05 10
-15.8095 17.3137 1.22874 9.51222e-05 10
-15.8016 17.305 2.05021 9.39796e-05 10
-15.8021 17.3055 2.87743 9.22949e-05 10
-15.8097 17.3138 3.71348 9.00913e-05 10
-15.801 17.3043 4.55493 8.73993e-05 10
-15.8208 17.326 5.41673 8.42558e-05 10
-15.8046 17.3082 6.28031 8.07039e-05 10
-6.71623 7.30385 -2.6587 8.18919e-05 4
-7.81353 8.49715 -2.66503 3.59235e-05 4
-9.04664 9.83815 -2.59795 0.000415214 4
-11.7334 12.76 -2.74554 4.74146e-05 1
-15.8303 17.2153 -2.04612 9.42147e-05 10
-15.8403 17.2262 -1.22645 9.53225e-05 10
-15.8304 17.2154 -0.408229 9.58711e-05 10
-15.8328 17.2181 0.408292 9.58528e-05 10
-15.826 17.2106 1.22534 9.52679e-05 10
-15.8282 17.2131 2.04586 9.41245e-05 10
-15.8286 17.2135 2.8713 9.24385e-05 10
-15.8449 17.2312 3.7076 9.02332e-05 10
-15.8306 17.2157 4.54612 8.7539e-05 10
-15.8489 17.2355 5.40571 8.4393e-05 10
-15.846 17.2324 6.27281 8.0838e-05 10
-6.75721 7.29713 -2.66482 0.000116626 4
-7.83868 8.465 -2.66351 8.33359e-05 4
-9.04611 9.76891 -2.58799 0.000405674 4
-11.7727 12.7134 -2.74434 4.74083e-05 1
-15.8586 17.1258 -2.04205 9.43482e-05 10
-15.8624 17.1299 -1.22353 9.54567e-05 10
-15.868 17.1358 -0.407653 9.60058e-05 10
-15.8582 17.1254 1.2232 9.54023e-05 10
-15.869 17.137 2.04338 9.42583e-05 10
-15.8692 17.1372 2.86779 9.25712e-05 10
-15.8697 17.1377 3.69938 9.03645e-05 10
-15.8656 17.1333 4.53897 8.76685e-05 10
-15.8716 17.1398 6.25924 8.09627e-05 10
-6.76338 7.25284 -2.65725 9.67684e-05 4
-7.86669 8.436 -2.66301 4.02279e-05 4
-9.06259 9.71844 -2.58298 0.00034443 4
-11.8165 12.6716 -2.74421 4.74021e-05 1
-15.8848 17.0343 -2.03774 9.44704e-05 10
-15.8923 17.0424 -1.22123 9.55797e-05 10
-15.8918 17.0419 -0.406735 9.6129e-05 10
-15.8993 17.0499 1.22177 9.55255e-05 10
-15.9035 17.0544 2.04014 9.43809e-05 10
-15.8931 17.0432 2.86133 9.2693e-05 10
-15.8898 17.0397 3.69018 9.04851e-05 10
-15.8917 17.0417 4.52938 8.77875e-05 10
-15.9 17.0507 6.24692 8.10777e-05 10
-6.79568 7.23666 -2.66 0.000225778 4
-7.89233 8.40448 -2.66174 0.000124984 4
-9.09971 9.69021 -2.58391 0.000382749 4
-11.8721 12.6425 -2.74686 4.73959e-05 1
-15.925 16.9585 -2.0353 9.45815e-05 10
-15.9125 16.9451 -1.21823 9.56913e-05 10
-15.9277 16.9613 -0.406136 9.6241e-05 10
-15.9259 16.9594 1.21926 9.56374e-05 10
-15.9256 16.959 2.03537 9.44924e-05 10
-15.9163 16.9491 2.85484 9.28038e-05 10
-15.9281 16.9617 3.68529 9.0595e-05 10
-15.933 16.9669 4.52424 8.78962e-05 10
-15.9361 16.9703 6.23781 8.1183e-05 10
-6.8251 7.21734 -2.66164 0.000148854 4
-7.92414 8.37954 -2.66259 7.03875e-05 4
-9.11543 9.63929 -2.5788 0.000418339 4
-11.9039 12.588 -2.74404 4.73898e-05 1
-15.9468 16.8633 -2.03055 9.46813e-05 10
-15.9487 16.8652 -1.21649 9.57915e-05 10
-15.9423 16.8585 -0.405006 9.63416e-05 10
-15.957 16.8741 1.21713 9.57379e-05 10
-15.9415 16.8576 2.02987 9.45925e-05 10
-15.9522 16.869 2.85071 9.29034e-05 10
-15.9592 16.8763 3.67884 9.06939e-05 10
-15.9535 16.8703 4.51331 8.79943e-05 10
-15.9455 16.8619 6.21841 8.12786e-05 10
-6.84752 7.1906 -2.66058 7.19416e-05 4
-7.95373 8.35225 -2.66272 6.89455e-05 4
-9.11872 9.5756 -2.57026 0.000477467 4
-11.9494 12.5481 -2.74441 4.73836e-05 1
-15.968 16.7681 -2.02579 9.47697e-05 10
-15.9688 16.7689 -1.21355 9.58803e-05 10
-15.966 16.766 -0.404118 9.64305e-05 10
-15.9733 16.7736 1.21389 9.58268e-05 10
-15.9849 16.7858 2.02793 9.46814e-05 10
-15.9893 16.7904 2.84685 9.2992e-05 10
-15.9779 16.7785 3.66964 9.07821e-05 10
-15.9835 16.7844 4.50522 8.80818e-05 10
-15.992 16.7932 6.21362 8.13643e-05 10
-6.87225 7.16632 -2.66045 9.92232e-05 4
-7.98466 8.32633 -2.66333 0.000109155 4
-9.14852 9.53998 -2.56925 0.000447857 4
-12.0075 12.5213 -2.74771 4.73775e-05 1
-15.9965 16.681 -2.022 9.48468e-05 10
-16.0022 16.687 -1.21166 9.59576e-05 10
-16.004 16.6888 -0.403602 9.65079e-05 10
-16.0107 16.6958 1.2123 9.59043e-05 10
-16.0139 16.6992 2.0242 9.47589e-05 10
-16.0125 16.6976 2.84057 9.30694e-05 10
-16.0109 16.696 3.66381 9.08592e-05 10
-16.0107 16.6958 4.49643 8.81587e-05 10
-16.0203 16.7058 6.20194 8.14402e-05 10
-6.89937 7.14451 -2.66128 0.00023812 4
-8.01475 8.29952 -2.66368 3.87757e-05 4
-9.15876 9.48417 -2.56282 0.000417751 4
-12.0365 12.4641 -2.74435 4.73713e-05 1
-16.0363 16.6061 -2.01969 9.49126e-05 10
-16.023 16.5923 -1.20884 9.60233e-05 10
-16.0286 16.5981 -0.40276 9.65736e-05 10
-16.0341 16.6038 1.20968 9.59703e-05 10
-16.0282 16.5977 2.01867 9.48249e-05 10
-16.0456 16.6157 2.83615 9.31356e-05 10
-16.0391 16.609 3.65697 9.09255e-05 10
-16.0384 16.6082 4.48788 8.8225e-05 10
-16.0384 16.6082 6.18645 8.15063e-05 10
-6.92741 7.12362 -2.66249 0.000121532 4
-9.18223 9.4423 -2.56015 0.000380416 4
-12.0977 12.4403 -2.74839 4.73652e-05 1
-16.0508 16.5054 -2.01425 9.49667e-05 10
-16.067 16.5221 -1.2078 9.60774e-05 10
-16.0616 16.5165 -0.402138 9.66278e-05 10
-16.0693 16.5245 1.20798 9.60246e-05 10
-16.0658 16.5209 2.01613 9.48795e-05 10
-16.0702 16.5254 2.83028 9.31904e-05 10
-16.0639 16.5189 3.64945 9.09806e-05 10
-16.0761 16.5315 4.48227 8.82805e-05 10
-16.0675 16.5226 6.1754 8.15623e-05 10
-6.95778 7.10506 -2.66461 0.000223208 4
-8.07752 8.24849 -2.66534 3.87696e-05 4
-9.19328 9.38786 -2.55407 0.000437437 4
-12.128 12.3847 -2.74544 4.73591e-05 1
-16.082 16.4224 -2.01096 9.50092e-05 10
-16.0939 16.4346 -1.20551 9.61198e-05 10
-16.0833 16.4237 -0.401244 9.66701e-05 10
-16.0996 16.4404 1.20593 9.60672e-05 10
-16.098 16.4387 2.01295 9.49225e-05 10
-16.1014 16.4422 2.82564 9.3234e-05 10
-16.0853 16.4258 3.64126 9.10247e-05 10
-16.0856 16.4261 4.4689 8.83253e-05 10
-16.0971 16.4378 6.16467 8.16083e-05 10
-6.98187 7.08005 -2.66436 0.000116556 4
