VERSION 0.7
FIELDS x y z intensity label
SIZE 4 4 4 4 4
TYPE F F F F F
COUNT 1 1 1 1 1
WIDTH 1178
HEIGHT 1
VIEWPOINT 1.55666 44.1143 2.72564 0.877546 0.001012 0.00150546 -0.479488
POINTS 1178
DATA ascii
2.72146 -4.90964 -0.889084 0.0100879 10
2.71844 -4.9042 -0.688483 0.0102648 10
2.71995 -4.90692 -0.490842 0.0104001 10
2.72147 -4.90966 -0.29419 0.0104926 10
2.72295 -4.91233 -0.098037 0.0105415 10
2.71369 -4.89563 0.0977035 0.0105461 10
2.72229 -4.91114 0.294279 0.0105065 10
2.72292 -4.91228 0.491378 0.0104231 10
2.71111 -4.89097 0.686624 0.0102966 10
2.71929 -4.90573 0.888376 0.0101283 10
2.69422 -4.8605 1.08022 0.0064571 10
2.68943 -4.85186 1.28072 0.00629104 10
2.68582 -4.84536 1.48443 0.0061019 10
2.72705 -4.87949 -1.49779 0.00938778 10
2.73694 -4.89718 -1.29519 0.0096793 10
2.72638 -4.87828 -1.08628 0.00993529 10
2.73311 -4.89032 -0.887308 0.0101533 10
2.73067 -4.88595 -0.687254 0.0103313 10
2.7326 -4.88942 -0.490042 0.0104675 10
2.73076 -4.88612 -0.293349 0.0105606 10
2.72595 -4.87751 -0.0975314 0.0106097 10
2.7231 -4.87242 0.0974294 0.0106144 10
2.72499 -4.8758 0.292729 0.0105745 10
2.73391 -4.89176 0.490276 0.0104905 10
2.72176 -4.87002 0.685013 0.0103633 10
2.72925 -4.88342 0.886055 0.0101939 10
2.71685 -4.86124 1.08249 0.00631357 10
2.7217 -4.86992 1.28798 0.00615104 10
2.72147 -4.8695 1.49473 0.00596594 10
2.74778 -4.87652 -1.49981 0.0049732 10
2.75275 -4.88535 -1.2946 0.00512292 10
2.7518 -4.88367 -1.08962 0.00525365 10
2.76009 -4.89838 -0.890512 0.00536415 10
2.7511 -4.88242 -0.688104 0.00545336 10
2.75457 -4.88857 -0.490918 0.00552042 10
2.76169 -4.90122 -0.294832 0.00556467 10
2.75152 -4.88316 -0.0978359 0.0055857 10
2.74837 -4.87756 0.0977236 0.0055833 10
2.75388 -4.88734 0.293998 0.00555749 10
2.76153 -4.90092 0.492158 0.00550853 10
2.7501 -4.88064 0.687853 0.00543688 10
2.7544 -4.88828 0.888677 0.00534324 10
2.75244 -4.88479 1.08987 0.00617195 10
2.75988 -4.898 1.29795 0.00601291 10
2.76041 -4.89894 1.50671 0.00583179 10
2.78847 -4.90859 -1.51266 0.00486058 10
2.7904 -4.912 -1.30423 0.00500702 10
2.7823 -4.89774 -1.09492 0.0051349 10
2.78385 -4.90047 -0.892654 0.00524298 10
2.78555 -4.90346 -0.692436 0.00533023 10
2.78721 -4.90638 -0.493681 0.00539581 10
2.78982 -4.91097 -0.296003 0.00543909 10
2.7954 -4.9208 -0.0987848 0.00545965 10
2.79245 -4.9156 0.0986804 0.00545729 10
2.78989 -4.9111 0.29601 0.00543202 10
2.78635 -4.90487 0.493528 0.00538411 10
2.79536 -4.92072 0.694873 0.005314 10
2.79366 -4.91773 0.895799 0.00522238 10
2.78789 -4.90757 1.09711 0.00603222 10
2.79792 -4.92522 1.30774 0.00587662 10
2.78716 -4.90629 1.51196 0.00569944 10
2.92095 -5.10026 -1.57486 0.00838858 10
2.91252 -5.08555 -1.35301 0.00865077 10
2.91537 -5.09053 -1.14028 0.00888103 10
2.92297 -5.1038 -0.931545 0.00907717 10
2.92301 -5.10387 -0.722173 0.00923727 10
2.91274 -5.08593 -0.512767 0.00935979 10
2.91214 -5.08488 -0.307096 0.00944355 10
2.9182 -5.09547 -0.102495 0.00948773 10
2.90909 -5.07955 0.102175 0.0094919 10
2.91647 -5.09245 0.307553 0.00945602 10
2.92238 -5.10276 0.514463 0.00938044 10
2.92164 -5.10148 0.721834 0.00926589 10
2.90915 -5.07966 0.92714 0.00911349 10
2.83063 -4.94256 1.10714 0.00589437 10
2.82891 -4.93955 1.31416 0.00574219 10
2.82923 -4.94012 1.52541 0.00556889 10
2.92536 -5.06688 -1.5677 0.00844169 10
2.93179 -5.07801 -1.35371 0.00870546 10
2.92584 -5.0677 -1.13745 0.00893712 10
2.92823 -5.07185 -0.927572 0.00913443 10
2.92572 -5.0675 -0.718468 0.00929549 10
2.93201 -5.07839 -0.513036 0.00941875 10
2.92698 -5.06968 -0.306793 0.00950301 10
2.92355 -5.06373 -0.102061 0.00954745 10
2.92468 -5.06569 0.102101 0.00955164 10
2.93234 -5.07896 0.307355 0.00951552 10
2.92309 -5.06294 0.511474 0.00943948 10
2.92702 -5.06975 0.718786 0.00932423 10
2.92323 -5.06318 0.925987 0.00917091 10
2.86332 -4.95942 1.11315 0.00575843 10
2.86956 -4.97023 1.32498 0.0056096 10
2.87251 -4.97533 1.53937 0.00544013 10
2.93817 -5.04827 -1.56511 0.00849466 10
2.94883 -5.0666 -1.35341 0.00876001 10
2.93994 -5.05133 -1.13607 0.00899305 10
2.94055 -5.05237 -0.925883 0.00919154 10
2.94263 -5.05595 -0.718281 0.00935357 10
2.93987 -5.05121 -0.511323 0.00947756 10
2.93478 -5.04247 -0.305764 0.00956231 10
2.94711 -5.06364 -0.102266 0.00960701 10
2.93598 -5.04452 0.10188 0.00961122 10
2.94325 -5.05701 0.306646 0.00957488 10
2.93362 -5.04046 0.510235 0.00949838 10
2.94152 -5.05403 0.718009 0.00938243 10
2.93713 -5.04649 0.924804 0.00922817 10
2.90864 -4.99755 1.12398 0.00562436 10
2.89922 -4.98135 1.33064 0.00547885 10
2.90526 -4.99173 1.54757 0.00531317 10
2.95634 -5.03897 -1.56541 0.00854749 10
2.96255 -5.04954 -1.35161 0.00881441 10
2.96031 -5.04574 -1.13713 0.00904883 10
2.96065 -5.04631 -0.92666 0.0092485 10
2.94934 -5.02704 -0.715632 0.00941148 10
2.95529 -5.03718 -0.510944 0.00953621 10
2.95178 -5.03119 -0.305704 0.00962146 10
2.95806 -5.04189 -0.102035 0.00966641 10
2.95769 -5.04126 0.102022 0.00967064 10
2.95541 -5.03737 0.306079 0.00963408 10
2.9485 -5.02559 0.509768 0.00955711 10
2.94675 -5.02262 0.715003 0.00944047 10
2.94691 -5.02288 0.922358 0.00928529 10
2.94057 -5.01208 1.12955 0.00549218 10
2.93939 -5.01008 1.34104 0.00534995 10
2.94758 -5.02404 1.56077 0.005188 10
2.97735 -5.03443 -1.56722 0.00432031 10
2.96777 -5.01822 -1.34599 0.00445101 10
2.97962 -5.03826 -1.13778 0.00456514 10
2.97804 -5.03559 -0.926594 0.0046616 10
2.97471 -5.02996 -0.717522 0.00473946 10
2.96702 -5.01696 -0.509941 0.00479797 10
2.97332 -5.02762 -0.306115 0.00483656 10
2.981 -5.0406 -0.102219 0.00485485 10
2.97395 -5.02869 0.101977 0.00485266 10
2.97857 -5.03649 0.306655 0.00483003 10
2.9717 -5.02487 0.510744 0.00478716 10
2.98175 -5.04186 0.71922 0.00472447 10
2.9803 -5.03941 0.927298 0.00464257 10
2.97456 -5.0297 1.13585 0.00536188 10
2.97894 -5.03711 1.35105 0.00522287 10
2.98302 -5.04402 1.5702 0.0050646 10
3.01789 -5.06256 -1.57924 0.0042168 10
3.01516 -5.05798 -1.35947 0.00434448 10
3.00613 -5.04284 -1.14118 0.00445598 10
3.00573 -5.04216 -0.929729 0.00455021 10
3.00735 -5.04488 -0.721143 0.00462626 10
3.01373 -5.05559 -0.514933 0.00468341 10
3.01434 -5.05661 -0.308519 0.0047211 10
3.01892 -5.06429 -0.102912 0.00473895 10
3.01115 -5.05125 0.102647 0.0047368 10
3.01446 -5.05681 0.308531 0.00471467 10
3.01329 -5.05485 0.514858 0.00467277 10
3.01386 -5.05579 0.722703 0.00461151 10
3.01456 -5.05698 0.932461 0.00453149 10
3.01875 -5.06401 1.14597 0.00523345 10
3.02004 -5.06616 1.36166 0.00509763 10
3.01223 -5.05307 1.57628 0.00494299 10
3.13627 -5.21963 -1.63165 0.0035324 10
3.15323 -5.24786 -1.41345 0.00791568 10
3.14599 -5.2358 -1.18733 0.00812753 10
3.15157 -5.24509 -0.96917 0.00830799 10
3.14626 -5.23626 -0.750066 0.00845531 10
3.1497 -5.24199 -0.535035 0.00856804 10
3.15096 -5.24408 -0.320626 0.0086451 10
3.15239 -5.24647 -0.106837 0.00868572 10
3.14736 -5.2381 0.106667 0.00868952 10
3.14897 -5.24077 0.320424 0.00865645 10
3.15121 -5.2445 0.535292 0.00858685 10
3.14476 -5.23376 0.749707 0.00848137 10
3.1486 -5.24016 0.968258 0.00834107 10
3.05099 -5.0777 1.15147 0.00510689 10
3.06163 -5.09541 1.37239 0.0049742 10
3.0571 -5.08787 1.59046 0.00482314 10
3.15183 -5.2043 -1.63028 0.00353287 10
3.16426 -5.22481 -1.41021 0.00796344 10
3.15712 -5.21303 -1.18465 0.00817652 10
3.15466 -5.20896 -0.964523 0.00835801 10
3.16637 -5.2283 -0.750504 0.00850617 10
3.15246 -5.20533 -0.532413 0.00861955 10
3.16629 -5.22817 -0.320327 0.00869705 10
3.16479 -5.22569 -0.106639 0.0087379 10
3.164 -5.22438 0.106612 0.00874171 10
3.15625 -5.21159 0.319312 0.00870845 10
3.15708 -5.21296 0.533194 0.00863843 10
3.15608 -5.21131 0.748066 0.00853234 10
3.15298 -5.2062 0.964011 0.00839122 10
3.09638 -5.11273 1.16186 0.00498219 10
3.09294 -5.10705 1.37842 0.0048526 10
3.09778 -5.11505 1.60233 0.00470508 10
3.16985 -5.19305 -1.63022 0.00776708 10
3.17372 -5.19939 -1.40633 0.00801106 10
3.17814 -5.20662 -1.18571 0.00822535 10
3.17146 -5.19569 -0.964109 0.00840788 10
3.17158 -5.19587 -0.747434 0.00855688 10
3.17154 -5.19582 -0.532569 0.0086709 10
3.17098 -5.1949 -0.318965 0.00874883 10
3.16773 -5.18957 -0.106126 0.00878991 10
3.17088 -5.19474 0.106232 0.00879374 10
3.1774 -5.20542 0.319611 0.00876028 10
3.17246 -5.19733 0.532724 0.00868985 10
3.17144 -5.19565 0.747402 0.00858315 10
3.16127 -5.179 0.961012 0.00844122 10
3.14173 -5.14699 1.17213 0.00485934 10
3.13219 -5.13135 1.38792 0.00473281 10
3.13163 -5.13043 1.61056 0.00458877 10
3.18946 -5.1844 -1.63099 0.00781316 10
3.17951 -5.16823 -1.40089 0.00805853 10
3.18434 -5.17607 -1.18128 0.00827403 10
3.19291 -5.19 -0.965116 0.00845758 10
3.17986 -5.16879 -0.74513 0.00860742 10
3.17688 -5.16394 -0.530436 0.00872208 10
3.18668 -5.17988 -0.318724 0.00880045 10
3.1811 -5.17081 -0.105969 0.00884175 10
3.1806 -5.16998 0.105952 0.0088456 10
3.18717 -5.18068 0.318773 0.00881194 10
3.18839 -5.18265 0.532357 0.00874111 10
3.17665 -5.16357 0.744377 0.0086338 10
3.17476 -5.1605 0.959631 0.00849106 10
3.17194 -5.15591 1.17668 0.00473835 10
3.17252 -5.15686 1.39781 0.00461483 10
3.17171 -5.15554 1.62191 0.00447422 10
3.21876 -5.19133 -1.63669 0.00563455 10
3.2079 -5.17381 -1.40543 0.00383497 10
3.21202 -5.18046 -1.18483 0.00393381 10
3.2157 -5.1864 -0.966528 0.00401735 10
3.21415 -5.1839 -0.748922 0.00408477 10
3.21271 -5.18157 -0.533395 0.00413541 10
3.2086 -5.17494 -0.319108 0.00416878 10
3.21954 -5.19259 -0.106645 0.00418456 10
3.21043 -5.17789 0.106343 0.00418258 10
3.21842 -5.19078 0.320084 0.00416287 10
3.20907 -5.1757 0.53279 0.00412563 10
3.21648 -5.18765 0.749463 0.0040712 10
3.22032 -5.19385 0.967916 0.00400014 10
3.21464 -5.18468 1.1858 0.00461921 10
3.21927 -5.19214 1.41041 0.00449866 10
3.22155 -5.19584 1.63811 0.00436143 10
3.25602 -5.21071 -1.64638 0.00549143 10
3.25587 -5.21048 -1.41847 0.00373766 10
3.25235 -5.20485 -1.193 0.00383409 10
3.24843 -5.19857 -0.970903 0.00391558 10
3.25126 -5.2031 -0.75333 0.00398134 10
3.24814 -5.19811 -0.536262 0.00403074 10
3.25512 -5.20929 -0.321924 0.00406329 10
3.25954 -5.21635 -0.107366 0.00407866 10
3.25534 -5.20963 0.107228 0.00407672 10
3.26361 -5.22287 0.322764 0.00405748 10
3.26433 -5.22401 0.538934 0.00402112 10
3.25324 -5.20627 0.75379 0.00396801 10
3.25584 -5.21043 0.973118 0.00389866 10
3.23972 -5.18463 1.18836 0.00966298 10
3.23527 -5.17751 1.4095 0.00941967 10
3.24289 -5.18971 1.63974 0.0091411 10
3.28999 -5.22442 -1.65432 0.00535056 10
3.37566 -5.36046 -1.4625 0.00726784 10
3.37975 -5.36696 -1.23285 0.0074634 10
3.3802 -5.36767 -1.00468 0.00763 10
3.38108 -5.36906 -0.779063 0.007766 10
3.38694 -5.37837 -0.556075 0.00787008 10
3.37405 -5.3579 -0.331834 0.00794121 10
3.38793 -5.37994 -0.110976 0.00797869 10
3.37482 -5.35913 0.110547 0.00798217 10
3.38418 -5.37399 0.33283 0.00795159 10
3.37765 -5.36361 0.554549 0.00788727 10
3.38654 -5.37774 0.780323 0.00778983 10
3.37349 -5.35701 1.00269 0.00766024 10
3.25907 -5.17531 1.18883 0.0097186 10
3.25741 -5.17268 1.41127 0.00947394 10
3.25273 -5.16525 1.63559 0.00919382 10
3.3331 -5.25213 -1.66677 0.00521191 10
3.39128 -5.3438 -1.46118 0.00730962 10
3.3934 -5.34714 -1.23101 0.00750626 10
3.3968 -5.3525 -1.00406 0.00767376 10
3.39397 -5.34804 -0.777727 0.00781051 10
3.38809 -5.33879 -0.553201 0.00791515 10
3.38893 -5.3401 -0.331462 0.00798667 10
3.38896 -5.34015 -0.110399 0.00802435 10
3.39116 -5.34362 0.11047 0.00802784 10
3.39698 -5.35278 0.332249 0.00799709 10
3.39097 -5.34332 0.55367 0.00793241 10
3.39215 -5.34517 0.77731 0.00783443 10
3.39548 -5.35043 1.00367 0.00770412 10
3.2644 -5.14387 1.18422 0.00977402 10
3.26451 -5.14405 1.40656 0.009528 10
3.26254 -5.14094 1.63149 0.00924634 10
3.38288 -5.28966 -1.68242 0.00507548 10
3.41214 -5.33541 -1.46213 0.00735125 10
3.41368 -5.33782 -1.2316 0.00754895 10
3.40062 -5.31741 -0.999694 0.00771737 10
3.41002 -5.3321 -0.777135 0.00785486 10
3.40807 -5.32905 -0.553421 0.00796006 10
3.40711 -5.32755 -0.331419 0.00803195 10
3.4064 -5.32644 -0.11036 0.00806984 10
3.40244 -5.32024 0.110232 0.00807334 10
3.41234 -5.33572 0.331928 0.00804242 10
3.40148 -5.31874 0.552351 0.00797738 10
3.40633 -5.32633 0.776295 0.00787887 10
3.408 -5.32894 1.00186 0.00774784 10
3.28483 -5.13634 1.18512 0.00982923 10
3.27718 -5.12438 1.4043 0.00958188 10
3.27326 -5.11825 1.6279 0.00929868 10
3.43233 -5.32593 -1.69776 0.00494126 10
3.42794 -5.31912 -1.46094 0.00336359 10
3.42862 -5.32018 -1.23029 0.00345069 10
3.427 -5.31766 -1.00198 0.00352431 10
3.42519 -5.31485 -0.776359 0.0035837 10
3.42838 -5.3198 -0.5537 0.0036283 10
3.4264 -5.31673 -0.331488 0.00365767 10
3.42611 -5.31629 -0.110397 0.00367152 10
3.43483 -5.32982 0.110678 0.00366971 10
3.43904 -5.33635 0.332712 0.00365226 10
3.42757 -5.31855 0.55357 0.00361934 10
3.43233 -5.32594 0.777979 0.00357128 10
3.4272 -5.31798 1.00205 0.00350855 10
3.2996 -5.11998 1.18399 0.00988423 10
3.28717 -5.10068 1.40094 0.00963555 10
3.29578 -5.11406 1.63022 0.00935082 10
3.4654 -5.33625 -1.70489 0.00480925 10
3.47982 -5.35845 -1.47507 0.00327382 10
3.47411 -5.34966 -1.2399 0.00335869 10
3.48054 -5.35956 -1.01216 0.00343041 10
3.47404 -5.34955 -0.783194 0.00348827 10
3.47664 -5.35356 -0.558475 0.00353172 10
3.4797 -5.35826 -0.334833 0.00356033 10
3.47644 -5.35325 -0.111416 0.00357381 10
3.48294 -5.36325 0.111624 0.00357203 10
3.48415 -5.36513 0.335262 0.00355501 10
3.48183 -5.36155 0.559307 0.00352292 10
3.47492 -5.35091 0.783394 0.00347607 10
3.4795 -5.35795 1.01186 0.00341493 10
3.31163 -5.09947 1.18191 0.00993902 10
3.29921 -5.08034 1.39851 0.009689 10
3.30349 -5.08693 1.62524 0.00940275 10
3.51109 -5.3655 -1.71814 0.00467943 10
3.60417 -5.50775 -1.51962 0.00665611 10
3.61414 -5.52299 -1.28299 0.00683622 10
3.60624 -5.51091 -1.04312 0.00698966 10
3.61375 -5.5224 -0.810342 0.00711493 10
3.60874 -5.51473 -0.576598 0.0072108 10
3.60247 -5.50515 -0.344795 0.00727631 10
3.61359 -5.52215 -0.115193 0.00731082 10
3.61499 -5.52429 0.115238 0.007314 10
3.60375 -5.50711 0.344918 0.0072858 10
3.60601 -5.51056 0.576162 0.00722651 10
3.60657 -5.51141 0.80873 0.00713671 10
3.60959 -5.51603 1.04409 0.0070173 10
3.32133 -5.07552 1.17904 0.00999359 10
3.31365 -5.06379 1.39713 0.00974224 10
3.32167 -5.07604 1.62545 0.00945448 10
3.56911 -5.41283 -1.73728 0.00455181 10
3.62617 -5.49938 -1.52079 0.00669285 10
3.61856 -5.48783 -1.27775 0.00687391 10
3.62875 -5.50329 -1.04407 0.00702815 10
3.61944 -5.48917 -0.807314 0.00715408 10
3.62875 -5.50329 -0.576723 0.00725045 10
3.6186 -5.48789 -0.344504 0.0073163 10
3.6248 -5.49729 -0.114938 0.00735099 10
3.62445 -5.49677 0.114927 0.00735417 10
3.61584 -5.48371 0.344241 0.00732582 10
3.61232 -5.47837 0.574111 0.00726622 10
3.62278 -5.49424 0.80806 0.00717594 10
3.61872 -5.48808 1.04118 0.00705589 10
3.32888 -5.04851 1.17546 0.0100479 10
3.32596 -5.04408 1.39489 0.00979527 10
3.33318 -5.05503 1.62244 0.00950599 10
3.61475 -5.44064 -1.75024 0.00442636 10
3.64217 -5.48191 -1.51947 0.00672944 10
3.64028 -5.47906 -1.27866 0.00691144 10
3.64338 -5.48373 -1.04276 0.00706649 10
3.63621 -5.47293 -0.806789 0.00719307 10
3.63051 -5.46436 -0.573967 0.00728993 10
3.63697 -5.47409 -0.344432 0.00735612 10
3.63817 -5.47588 -0.114755 0.00739098 10
3.64267 -5.48266 0.114897 0.00739418 10
3.62623 -5.45791 0.343414 0.00736568 10
3.62752 -5.45986 0.573495 0.00730576 10
3.64115 -5.48037 0.807885 0.00721501 10
3.63098 -5.46507 1.03921 0.00709433 10
3.33941 -5.02622 1.17298 0.010102 10
3.33873 -5.02519 1.39288 0.00984807 10
3.339 -5.02559 1.61672 0.00955729 10
3.66409 -5.47336 -1.76487 0.00430308 10
3.65448 -5.45899 -1.51664 0.00292962 10
3.65312 -5.45697 -1.27647 0.00300588 10
3.65765 -5.46374 -1.04138 0.00307032 10
3.66259 -5.47111 -0.808399 0.0031223 10
3.66459 -5.4741 -0.57633 0.00316132 10
3.65477 -5.45943 -0.34431 0.00318699 10
3.65791 -5.46412 -0.114775 0.00319907 10
3.66606 -5.4763 0.115031 0.00319742 10
3.65765 -5.46373 0.344582 0.00318206 10
3.66232 -5.47072 0.575974 0.00315316 10
3.66266 -5.47123 0.808417 0.00311098 10
3.66455 -5.47404 1.04334 0.00305596 10
3.34997 -5.00413 1.17054 0.0101559 10
3.35739 -5.01521 1.39335 0.00990064 10
3.35325 -5.00902 1.61515 0.00960836 10
3.7073 -5.49631 -1.77643 0.00418195 10
3.71188 -5.5031 -1.53249 0.00284725 10
3.71368 -5.50577 -1.29091 0.00292144 10
3.70692 -5.49574 -1.04994 0.00298413 10
3.70293 -5.48982 -0.81307 0.0030347 10
3.71123 -5.50213 -0.580642 0.00307267 10
3.71267 -5.50427 -0.347953 0.00309763 10
3.72 -5.51513 -0.116119 0.00310937 10
3.71 -5.5003 0.115807 0.00310775 10
3.70686 -5.49565 0.347409 0.0030928 10
3.71881 -5.51337 0.581828 0.00306465 10
3.70875 -5.49845 0.814347 0.0030236 10
3.77762 -5.60055 1.06996 0.00132714 10
3.3637 -4.98689 1.16925 0.0102096 10
3.37402 -5.00219 1.393 0.00995297 10
3.36606 -4.99039 1.61292 0.0096592 10
3.75082 -5.51916 -1.78804 0.00406296 10
3.84493 -5.65765 -1.57925 0.0061147 10
3.83893 -5.64881 -1.32758 0.00628108 10
3.83518 -5.6433 -1.08068 0.00642284 10
3.83787 -5.64726 -0.838366 0.00653857 10
3.83812 -5.64762 -0.597406 0.00662714 10
3.84815 -5.66238 -0.358795 0.00668766 10
3.84454 -5.65708 -0.119389 0.00671953 10
3.83495 -5.64296 0.119091 0.00672244 10
3.84183 -5.65308 0.358206 0.00669636 10
3.8319 -5.63847 0.596438 0.00664155 10
3.83626 -5.64488 0.838013 0.00655854 10
3.79187 -5.57956 1.06848 0.00132685 10
3.38002 -4.97355 1.16888 0.0102629 10
3.37594 -4.96754 1.38662 0.0100051 10
3.37914 -4.97225 1.61086 0.00970982 10
3.81491 -5.57154 -1.80932 0.00394611 10
3.84927 -5.62171 -1.57296 0.00614706 10
3.85778 -5.63415 -1.32729 0.00631428 10
3.85257 -5.62654 -1.08004 0.00645674 10
3.86405 -5.64331 -0.839777 0.00657306 10
3.86126 -5.63924 -0.597941 0.00666206 10
3.84937 -5.62187 -0.357078 0.00672289 10
3.86192 -5.6402 -0.119317 0.00675492 10
3.84729 -5.61883 0.118865 0.00675784 10
3.86193 -5.64021 0.358243 0.00673162 10
3.85901 -5.63595 0.597592 0.00667653 10
3.85816 -5.63471 0.838497 0.0065931 10
3.82019 -5.57925 1.07096 0.00132655 10
3.39644 -4.96038 1.16857 0.0103161 10
3.39548 -4.95897 1.38753 0.0100569 10
3.39901 -4.96413 1.61206 0.0097602 10
3.85972 -5.59498 -1.82129 0.00383138 10
3.87952 -5.62369 -1.5773 0.00617926 10
3.87921 -5.62324 -1.3279 0.00634731 10
3.87208 -5.61291 -1.08001 0.00649049 10
3.86849 -5.6077 -0.836483 0.00660738 10
3.86141 -5.59744 -0.594935 0.00669683 10
3.87368 -5.61521 -0.357512 0.00675795 10
3.86996 -5.60983 -0.11896 0.00679013 10
3.86832 -5.60745 0.118909 0.00679307 10
3.87535 -5.61764 0.357666 0.00676672 10
3.87162 -5.61223 0.596507 0.00671134 10
3.8582 -5.59277 0.834256 0.0066275 10
3.87153 -5.61211 1.07986 0.00321244 10
3.3974 -4.92481 1.16297 0.010369 10
3.39862 -4.92659 1.38178 0.0101085 10
3.40824 -4.94052 1.60825 0.00981033 10
3.90436 -5.61763 -1.83309 0.00371875 10
3.91469 -5.6325 -1.58359 0.00253224 10
3.90787 -5.62268 -1.33099 0.00259851 10
3.91564 -5.63387 -1.08667 0.00265451 10
3.90787 -5.62269 -0.840748 0.00269968 10
3.91857 -5.63809 -0.600705 0.00273357 10
3.9233 -5.64489 -0.360271 0.00275585 10
3.91065 -5.62669 -0.119606 0.0027663 10
3.91523 -5.63328 0.119746 0.0027648 10
3.91678 -5.63551 0.359673 0.00275138 10
3.91846 -5.63793 0.600688 0.00272617 10
3.9209 -5.64144 0.843551 0.00268942 10
3.92711 -5.65037 1.08985 0.00311813 10
3.41117 -4.90803 1.16181 0.0104216 10
3.41725 -4.91678 1.38237 0.0101599 10
3.4118 -4.90894 1.60184 0.00986022 10
3.95932 -5.6545 -1.84962 0.00360823 10
4.052 -5.78686 -1.63096 0.00216677 10
4.06988 -5.81239 -1.37925 0.00575743 10
4.05736 -5.79451 -1.12038 0.00588811 10
4.06627 -5.80724 -0.87046 0.0059948 10
4.0643 -5.80442 -0.619935 0.00607646 10
4.06825 -5.81006 -0.371717 0.00613225 10
4.0648 -5.80513 -0.1237 0.00616163 10
4.06635 -5.80734 0.123747 0.00616429 10
4.06335 -5.80307 0.371269 0.00614022 10
4.06996 -5.81251 0.620799 0.00608967 10
4.06335 -5.80306 0.869834 0.00601312 10
3.9789 -5.68246 1.09871 0.00302558 10
3.4304 -4.89911 1.16253 0.010474 10
3.42234 -4.88761 1.37751 0.00417873 10
3.42313 -4.88874 1.59913 0.00405136 10
4.01499 -5.69161 -1.86633 0.0034998 10
4.06091 -5.7567 -1.62644 0.00216709 10
4.07396 -5.77521 -1.37379 0.00578685 10
4.07574 -5.77774 -1.11988 0.00591817 10
4.08032 -5.78422 -0.869139 0.00602537 10
4.07862 -5.78181 -0.619037 0.00610742 10
4.08714 -5.79389 -0.371592 0.00616348 10
4.07172 -5.77203 -0.123297 0.00619299 10
4.08617 -5.79252 0.123734 0.00619567 10
4.07338 -5.77438 0.370341 0.00617148 10
4.07964 -5.78326 0.619192 0.00612067 10
4.07623 -5.77843 0.86827 0.00604375 10
4.02072 -5.69974 1.10476 0.00293478 10
3.47118 -4.92071 1.17053 0.00416449 10
3.46789 -4.91605 1.38893 0.00405571 10
3.46903 -4.91766 1.61255 0.00393192 10
4.06611 -5.72157 -1.8808 0.00339343 10
4.08188 -5.74376 -1.6268 0.00216741 10
4.09361 -5.76027 -1.37363 0.00581612 10
4.09123 -5.75692 -1.11861 0.00594806 10
4.08617 -5.7498 -0.866106 0.00605578 10
4.08514 -5.74835 -0.616978 0.00613822 10
4.09104 -5.75665 -0.370118 0.00619455 10
4.0936 -5.76026 -0.12335 0.0062242 10
4.0883 -5.7528 0.12319 0.00622689 10
4.09282 -5.75915 0.370279 0.00620258 10
4.09404 -5.76087 0.618321 0.00615152 10
4.08302 -5.74537 0.865439 0.00607422 10
4.08805 -5.75245 1.11774 0.0028457 10
3.52658 -4.96237 1.18336 0.00404068 10
3.52846 -4.96502 1.40624 0.00393498 10
3.51624 -4.94783 1.62645 0.00381471 10
4.12671 -5.76413 -1.89951 0.00328913 10
4.12275 -5.7586 -1.63507 0.00339127 10
4.13946 -5.78194 -1.38223 0.00229893 10
4.12975 -5.76838 -1.12363 0.0023487 10
4.13482 -5.77545 -0.872139 0.00238884 10
4.14044 -5.78331 -0.622277 0.00241895 10
4.12791 -5.76581 -0.371631 0.00243872 10
4.13775 -5.77954 -0.124071 0.00244797 10
4.14047 -5.78335 0.124153 0.00244659 10
4.13831 -5.78033 0.372567 0.0024346 10
4.1393 -5.78171 0.622105 0.00241213 10
4.1323 -5.77194 0.871607 0.00237939 10
4.13238 -5.77206 1.12434 0.00275836 10
3.56766 -4.98326 1.1913 0.0039192 10
4.19268 -5.81329 -1.92052 0.00318688 10
4.18734 -5.80589 -1.65264 0.00328597 10
7.5738 -10.5013 -2.51676 0.000346585 10
8.52595 -11.8215 0.254413 0.00121721 10
8.53189 -11.8298 0.764393 0.00121166 10
7.24966 -10.0519 1.08429 0.000182879 10
5.12851 -7.11086 1.07649 0.000682891 10
4.183 -5.79988 1.1326 0.00114953 10
3.62848 -5.03101 1.20574 0.00380004 10
4.24938 -5.84877 -1.93713 0.00308665 10
4.24637 -5.84463 -1.66788 0.00318275 10
7.60466 -10.4669 -2.51486 0.000346653 10
8.57051 -11.7963 0.254513 0.00122416 10
8.56292 -11.7859 0.763483 0.00121858 10
7.27481 -10.0129 1.08282 0.000182797 10
5.14529 -7.08188 1.07482 0.000682691 10
4.20063 -5.78168 1.1319 0.00114928 10
3.67249 -5.05475 1.21449 0.00368319 10
4.30964 -5.88838 -1.95522 0.00298845 10
4.30081 -5.87631 -1.68119 0.00308162 10
7.64718 -10.4485 -2.51684 0.00034672 10
8.58778 -11.7337 0.253808 0.00123108 10
8.58992 -11.7366 0.762233 0.00122547 10
7.31891 -10 1.08418 0.000182715 10
5.17523 -7.07105 1.07591 0.000682491 10
4.22584 -5.77388 1.13326 0.00114903 10
3.72373 -5.08783 1.22556 0.00356862 10
4.36991 -5.9272 -1.97316 0.00289225 10
4.35876 -5.91207 -1.69576 0.00298254 10
7.68172 -10.4192 -2.51622 0.000346788 10
8.67242 -11.763 -2.31468 0.00115516 10
8.67167 -11.762 -1.79426 0.00117967 10
8.66024 -11.7465 -1.27679 0.00119847 10
8.66396 -11.7515 -0.765158 0.00121133 10
8.66859 -11.7578 -0.254981 0.0012181 10
8.62676 -11.7011 0.253751 0.00123796 10
8.62285 -11.6957 0.761527 0.00123231 10
7.35576 -9.97711 1.08447 0.000182634 10
5.20349 -7.05785 1.07666 0.000682292 10
4.24229 -5.7541 1.13227 0.00114878 10
3.76546 -5.10735 1.23342 0.00345633 10
4.41754 -5.94823 -1.98529 0.00279805 10
4.41708 -5.94761 -1.71037 0.00288552 10
7.71623 -10.3899 -2.51563 0.000346855 10
8.65955 -11.6601 0.253517 0.0012448 10
8.651 -11.6486 0.760417 0.00123913 10
7.39508 -9.95748 1.08514 0.000182553 10
5.21999 -7.02872 1.07499 0.000682094 10
4.26036 -5.73658 1.13174 0.00114853 10
3.82377 -5.14872 1.24662 0.0033463 10
4.4807 -5.98947 -2.00426 0.00270582 10
4.48188 -5.99106 -1.72735 0.00279052 10
7.74168 -10.3485 -2.51214 0.000346923 10
8.6727 -11.593 0.252715 0.00125161 10
8.68 -11.6028 0.759402 0.0012459 10
7.4206 -9.91932 1.08379 0.000182473 10
5.24832 -7.01558 1.07577 0.000681897 10
4.27765 -5.71806 1.13103 0.00114828 10
4.54117 -6.02633 -2.02189 0.00261555 10
4.5489 -6.03659 -1.74505 0.00269755 10
7.78985 -10.3375 -2.51605 0.00034699 10
8.70605 -11.5533 0.25251 0.00125837 10
8.71705 -11.5679 0.759106 0.00125264 10
7.46113 -9.90125 1.08466 0.000182392 10
5.27134 -6.9953 1.07548 0.000681699 10
4.29164 -5.69519 1.12946 0.00114803 10
4.7098 -6.25012 2.09697 0.000912233 10
4.60946 -6.07274 -2.04284 0.00252724 10
4.61569 -6.08095 -1.76252 0.00260658 10
7.82033 -10.3029 -2.51426 0.000347056 10
8.74749 -11.5244 0.252544 0.0012651 10
8.73278 -11.505 0.756974 0.00125934 10
7.50413 -9.88633 1.08589 0.000182312 10
5.29305 -6.97334 1.07494 0.000681503 10
4.31468 -5.68439 1.1303 0.00114779 10
4.74927 -6.25694 1.52691 0.00123753 10
4.74 -6.24473 1.80999 0.00120379 10
4.73871 -6.24303 2.10013 0.00116543 10
4.68668 -6.12993 -2.06757 0.00244085 10
4.68562 -6.12853 -1.78104 0.00251759 10
7.85782 -10.2776 -2.51476 0.000347123 10
8.76942 -11.4699 0.25202 0.00127179 10
8.75986 -11.4574 0.75585 0.001266 10
7.52591 -9.84348 1.08406 0.000182232 10
5.32983 -6.97113 1.07746 0.000681308 10
4.3467 -5.68526 1.13348 0.00114754 10
4.79218 -6.26792 1.53366 0.00333944 10
4.78891 -6.26364 1.8203 0.00325187 10
4.79343 -6.26955 2.11467 0.00315171 10
4.74631 -6.16321 -2.08437 0.00235638 10
4.74567 -6.16238 -1.79568 0.00243058 10
7.8852 -10.2391 -2.51207 0.00034719 10
8.79572 -11.4215 0.251628 0.00127844 10
8.78801 -11.4115 0.754838 0.00127262 10
7.57515 -9.83654 1.0862 0.000182153 10
5.34195 -6.93667 1.07501 0.000681113 10
4.35888 -5.66013 1.1315 0.00114729 10
4.81121 -6.24748 1.53276 0.00335474 10
4.80889 -6.24447 1.8196 0.00326679 10
4.80963 -6.24544 2.11218 0.00316618 10
4.81715 -6.21023 -2.10595 0.00227381 10
4.8186 -6.21211 -1.81506 0.00234551 10
5.12324 -6.60484 -1.62481 0.00120399 10
8.81713 -11.367 0.251104 0.00128505 10
8.82108 -11.3721 0.754264 0.0012792 10
7.6083 -9.80857 1.08604 0.000182074 10
5.36251 -6.91331 1.07428 0.000680919 10
4.37531 -5.64062 1.13065 0.00114705 10
4.83247 -6.22999 1.53259 0.0011902 10
4.82734 -6.22338 1.81835 0.0011577 10
4.83316 -6.23088 2.11295 0.00112077 10
4.88504 -6.25257 -2.12608 0.00219312 10
4.87944 -6.2454 -1.82975 0.00226239 10
5.14848 -6.58976 -1.62551 0.0012042 10
8.84603 -11.3224 0.2508 0.00129162 10
8.86209 -11.343 0.75438 0.00128574 10
7.62912 -9.76483 1.08414 0.000181995 10
5.39384 -6.90381 1.07572 0.000680725 10
4.40365 -5.63642 1.13288 0.00114681 10
4.86119 -6.22204 1.5348 0.00524641 10
4.86213 -6.22325 1.82326 0.00510882 10
4.86336 -6.22482 2.11664 0.00495144 10
4.95328 -6.2945 -2.1462 0.00211429 10
4.96145 -6.30488 -1.85224 0.00218118 10
5.1652 -6.5638 -1.62354 0.00120441 10
8.88031 -11.2849 0.250654 0.00129814 10
8.87509 -11.2782 0.752131 0.00129224 10
7.66333 -9.73836 1.08416 0.000181916 10
5.41369 -6.87958 1.07488 0.000680532 10
4.41854 -5.61496 1.13166 0.00114657 10
4.87708 -6.19766 1.53298 0.00526967 10
4.87163 -6.19074 1.81871 0.00513149 10
4.87922 -6.20039 2.11411 0.00497345 10
5.03163 -6.34834 -2.17053 0.00203732 10
5.03546 -6.35317 -1.87158 0.00210188 10
5.18952 -6.54755 -1.624 0.00120461 10
8.915 -11.2479 0.250523 0.00130462 10
8.91995 -11.2542 0.752598 0.00129869 10
7.70986 -9.72742 1.08593 0.000181838 10
5.4498 -6.87594 1.07728 0.00068034 10
4.44126 -5.60347 1.13246 0.00114632 10
4.8884 -6.16762 1.52976 0.00529276 10
4.89911 -6.18114 1.8209 0.005154 10
4.88101 -6.1583 2.10556 0.00499529 10
5.09767 -6.38575 -2.18939 0.00196218 10
5.10218 -6.39139 -1.88807 0.00202446 10
5.20619 -6.52168 -1.62208 0.00120482 10
8.94449 -11.2046 0.250251 0.00131106 10
8.94727 -11.2081 0.751598 0.0013051 10
7.74635 -9.70369 1.0863 0.00018176 10
5.47063 -6.85294 1.07666 0.000680148 10
4.46181 -5.58922 1.13272 0.00114608 10
4.89761 -6.13513 1.52593 0.00531568 10
4.91017 -6.15087 1.81702 0.00517634 10
4.90049 -6.13873 2.1047 0.00501698 10
5.18162 -6.44464 -2.21577 0.00188886 10
5.17587 -6.43748 -1.90701 0.00194891 10
5.2405 -6.51787 -1.62567 0.00120503 10
5.88119 -7.31472 -1.48657 0.00433217 10
5.87343 -7.30507 -1.15091 0.00441472 10
5.8862 -7.32096 -0.821853 0.00447792 10
5.88271 -7.31662 -0.492017 0.00452111 10
5.86969 -7.30042 -0.16351 0.00454383 10
5.88085 -7.3143 0.16382 0.00454585 10
5.87356 -7.30524 0.491252 0.00452714 10
5.86938 -7.30004 0.819504 0.00448791 10
5.48754 -6.82512 1.0753 0.000525566 10
4.48772 -5.5816 1.13435 0.00114584 10
4.92078 -6.12021 1.52649 0.00533843 10
4.9188 -6.11775 1.8123 0.00519853 10
4.91661 -6.11503 2.10245 0.00503851 10
5.24859 -6.48147 -2.23472 0.00181734 10
5.26524 -6.50203 -1.93157 0.00187522 10
5.2656 -6.50247 -1.6264 0.00120523 10
5.89003 -7.27358 -1.48238 0.00435112 10
5.90273 -7.28927 -1.15166 0.00443401 10
5.89491 -7.27961 -0.819515 0.00449747 10
5.89072 -7.27443 -0.49056 0.00454083 10
5.8896 -7.27305 -0.163356 0.00456364 10
5.88607 -7.2687 0.163258 0.00456567 10
5.88698 -7.26982 0.490249 0.00454688 10
5.88944 -7.27285 0.818755 0.00450748 10
5.52081 -6.81764 1.07715 0.000525419 10
4.55314 -5.62267 1.14591 0.00224681 10
4.94217 -6.10308 1.52651 0.00536101 10
4.94632 -6.10821 1.81458 0.00522054 10
4.93516 -6.09442 2.10127 0.00505988 10
5.33575 -6.54228 -2.26209 0.00174759 10
5.32889 -6.53387 -1.94654 0.00180335 10
5.32933 -6.5344 -1.63903 0.00185204 10
5.9172 -7.25521 -1.48283 0.00436993 10
5.91021 -7.24664 -1.14818 0.00445315 10
5.92506 -7.26485 -0.820177 0.00451687 10
5.91342 -7.25058 -0.49034 0.00456041 10
5.91241 -7.24933 -0.163286 0.00458331 10
5.91243 -7.24936 0.163286 0.00458534 10
5.90932 -7.24554 0.49 0.00456648 10
5.91589 -7.2536 0.818907 0.00452691 10
5.54308 -6.79649 1.07686 0.000525272 10
4.62221 -5.66739 1.15831 0.00216284 10
4.94689 -6.06549 1.52141 0.00538342 10
4.94748 -6.06622 1.80722 0.00524239 10
4.95787 -6.07895 2.10189 0.00508109 10
5.41171 -6.58833 -2.28454 0.00167961 10
5.42552 -6.60513 -1.9734 0.0017333 10
5.42248 -6.60144 -1.66059 0.00178017 10
5.93542 -7.2259 -1.48107 0.00438859 10
5.93332 -7.22334 -1.14776 0.00447215 10
5.93891 -7.23015 -0.818595 0.00453612 10
5.93889 -7.23012 -0.490356 0.00457983 10
5.92834 -7.21729 -0.163029 0.00460282 10
5.93033 -7.2197 0.163084 0.00460486 10
5.93177 -7.22145 0.489768 0.00458592 10
5.94007 -7.23156 0.818755 0.00454619 10
5.57263 -6.78423 1.07799 0.000525127 10
4.67893 -5.69623 1.16754 0.00208093 10
4.96757 -6.04762 1.52127 0.00540566 10
4.96645 -6.04625 1.80643 0.00526407 10
4.96224 -6.04113 2.09479 0.00510212 10
5.50147 -6.65013 -2.31261 0.00161337 10
5.50635 -6.65604 -1.99434 0.00166503 10
5.49174 -6.63838 -1.67469 0.00171014 10
5.9571 -7.2009 -1.4802 0.00440711 10
5.94457 -7.18576 -1.14508 0.00449099 10
5.95176 -7.19444 -0.816899 0.00455522 10
5.95069 -7.19315 -0.489255 0.0045991 10
5.94989 -7.19218 -0.16293 0.00462218 10
5.94779 -7.18964 0.162873 0.00462423 10
5.9529 -7.19582 0.489436 0.0046052 10
5.94312 -7.18399 0.815713 0.00456532 10
5.59724 -6.76591 1.07818 0.000524981 10
4.7577 -5.75107 1.18217 0.00200104 10
4.98625 -6.02735 1.52054 0.00542771 10
4.9902 -6.03212 1.8074 0.00528557 10
4.98928 -6.03101 2.09731 0.00512299 10
5.59029 -6.70967 -2.34009 0.00154886 10
5.57549 -6.69191 -2.01091 0.00159855 10
5.58032 -6.6977 -1.69456 0.00164194 10
5.97329 -7.16937 -1.47799 0.00442547 10
5.97645 -7.17316 -1.14639 0.00450969 10
5.97188 -7.16768 -0.816223 0.00457416 10
5.96567 -7.16023 -0.488428 0.00461822 10
5.97726 -7.17413 -0.162993 0.00464139 10
5.97111 -7.16675 0.162825 0.00464344 10
5.97652 -7.17325 0.489317 0.00462434 10
5.96023 -7.15369 0.814629 0.00458429 10
5.60793 -6.73084 1.0757 0.000524836 10
4.83227 -5.79987 1.19566 0.00192317 10
5.0008 -6.00215 1.51858 0.00544959 10
5.00074 -6.00207 1.80361 0.0053069 10
5.00645 -6.00893 2.0957 0.00514369 10
5.67434 -6.76241 -2.36538 0.00148605 10
5.66622 -6.75274 -2.03512 0.00153382 10
5.66845 -6.75539 -1.71415 0.00157553 10
5.9906 -7.13932 -1.4761 0.00444369 10
5.98661 -7.13456 -1.14355 0.00452823 10
5.99356 -7.14284 -0.815772 0.00459295 10
5.98352 -7.13088 -0.487849 0.00463717 10
5.99606 -7.14582 -0.162825 0.00466044 10
5.99346 -7.14273 0.162754 0.00466249 10
5.98446 -7.132 0.487925 0.00464331 10
5.98208 -7.12916 0.81421 0.00460311 10
5.67784 -6.76659 1.08458 0.00127151 10
4.9047 -5.8452 1.20853 0.0018473 10
5.01978 -5.98234 1.51799 0.00547128 10
5.01402 -5.97548 1.80087 0.00532805 10
5.01029 -5.97104 2.08857 0.00516422 10
5.76258 -6.8191 -2.39222 0.00142493 10
5.76594 -6.82307 -2.06237 0.00147082 10
5.74973 -6.80389 -1.73154 0.00151089 10
6.01127 -7.11337 -1.47506 0.00446175 10
6.01619 -7.1192 -1.14445 0.00454661 10
6.01269 -7.11505 -0.81499 0.00461158 10
5.99857 -7.09835 -0.487052 0.00465597 10
6.00644 -7.10766 -0.162432 0.00467932 10
5.99689 -7.09636 0.162173 0.00468138 10
6.01047 -7.11243 0.488018 0.00466213 10
6.00028 -7.10037 0.813308 0.00462177 10
5.76078 -6.81697 1.09587 0.00121935 10
4.97413 -5.88609 1.22057 0.00177339 10
5.02151 -5.94216 1.51223 0.00549279 10
5.03482 -5.95791 1.80086 0.00534902 10
5.02513 -5.94644 2.08609 0.00518458 10
5.85088 -6.87476 -2.4189 0.00136548 10
5.85369 -6.87806 -2.08515 0.00140955 10
5.85384 -6.87824 -1.75565 0.00144802 10
6.02256 -7.07648 -1.47176 0.00447965 10
6.01996 -7.07343 -1.14047 0.00456484 10
6.03066 -7.086 -0.814069 0.00463005 10
6.03314 -7.08892 -0.487847 0.00467461 10
6.03309 -7.08886 -0.162482 0.00469804 10
6.02137 -7.07508 0.162166 0.00470011 10
6.02146 -7.07519 0.486903 0.00468078 10
6.02256 -7.07649 0.812976 0.00464027 10
5.85804 -6.88318 1.10979 0.00116861 10
5.06499 -5.95134 1.23776 0.00170144 10
5.06549 -5.95194 1.51921 0.00166258 10
5.05098 -5.93488 1.79922 0.0016171 10
5.05357 -5.93792 2.08927 0.00156544 10
5.9419 -6.93253 -2.44651 0.00130768 10
5.93553 -6.9251 -2.10568 0.00134997 10
5.93183 -6.92078 -1.77178 0.00138689 10
6.04913 -7.05765 -1.47223 0.0044974 10
6.04207 -7.04941 -1.13999 0.00458291 10
6.03842 -7.04515 -0.811793 0.00464836 10
6.03983 -7.04679 -0.486396 0.00469308 10
6.03935 -7.04624 -0.161988 0.0047166 10
6.04802 -7.05635 0.16222 0.00471867 10
6.04956 -7.05814 0.48718 0.00469927 10
6.05029 -7.05899 0.813387 0.0046586 10
5.95457 -6.94732 1.12348 0.00111927 10
5.14396 -6.00157 1.25193 0.00163142 10
5.13562 -5.99184 1.53396 0.00159407 10
5.14538 -6.00322 1.82537 0.00155036 10
5.13984 -5.99676 2.11627 0.00150072 10
6.02779 -6.98326 -2.47182 0.00125151 10
6.02407 -6.97895 -2.12844 0.00129206 10
6.02608 -6.98128 -1.79264 0.00132747 10
6.07011 -7.03229 -1.47135 0.004515 10
6.059 -7.01942 -1.13855 0.00460081 10
6.06755 -7.02933 -0.812405 0.00466651 10
6.05719 -7.01732 -0.485819 0.00471139 10
6.07037 -7.03259 -0.16216 0.004735 10
6.05774 -7.01797 0.161823 0.00473707 10
6.06595 -7.02747 0.486521 0.0047176 10
6.06727 -7.029 0.812367 0.00467678 10
6.03883 -6.99605 1.13476 0.00107132 10
6.04901 -7.00785 1.46624 0.001051 10
6.05489 -7.01466 1.80122 0.00102621 10
6.05209 -7.01142 2.13834 0.000997211 10
6.04495 -7.00314 2.47886 0.000615598 10
6.12548 -7.04656 -2.50178 0.00119694 10
6.1391 -7.06223 -2.16036 0.00123581 10
6.13685 -7.05964 -1.81826 0.00126975 10
6.12445 -7.04538 -1.47855 0.0012984 10
6.12462 -7.04557 -1.14625 0.00132147 10
6.13405 -7.05641 -0.818005 0.00133872 10
6.13296 -7.05516 -0.489917 0.00134996 10
6.13094 -7.05285 -0.16312 0.00135508 10
6.13213 -7.05421 0.163151 0.00135403 10
6.149 -7.07362 0.491199 0.00134681 10
6.14138 -7.06485 0.818982 0.0013335 10
6.13756 -7.06046 1.14867 0.00102473 10
6.14703 -7.07136 1.484 0.00100524 10
6.14466 -7.06863 1.82057 0.000981463 10
6.15262 -7.07778 2.16512 0.000953658 10
6.15672 -7.0825 2.51454 0.000922111 10
6.22952 -7.11593 -2.53412 0.00114397 10
6.22203 -7.10737 -2.1808 0.0011812 10
6.22107 -7.10628 -1.83585 0.0012137 10
6.22844 -7.11469 -1.49765 0.00124114 10
6.23245 -7.11928 -1.16178 0.00126324 10
6.2326 -7.11944 -0.827828 0.00127975 10
6.23299 -7.11988 -0.49592 0.00129052 10
6.24377 -7.1322 -0.165458 0.00129541 10
6.23904 -7.12679 0.165332 0.00129439 10
6.24185 -7.13 0.496625 0.00128746 10
6.24588 -7.13461 0.829592 0.00127469 10
6.24376 -7.13219 1.16388 0.000979502 10
6.23476 -7.12191 1.49917 0.000960811 10
6.24111 -7.12917 1.84176 0.000938023 10
6.23658 -7.12399 2.1859 0.000911375 10
6.23861 -7.12631 2.53781 0.000881145 10
6.32308 -7.17213 -2.56198 0.00109257 10
6.32938 -7.17927 -2.20963 0.00112819 10
6.32727 -7.17688 -1.85978 0.00115931 10
6.33333 -7.18376 -1.51684 0.00118558 10
6.34285 -7.19455 -1.17767 0.00120672 10
6.33158 -7.18177 -0.83764 0.00122253 10
6.3326 -7.18292 -0.501847 0.00123282 10
6.34478 -7.19674 -0.167468 0.0012375 10
6.34219 -7.19381 0.1674 0.00123651 10
6.34272 -7.1944 0.502649 0.00122986 10
6.33711 -7.18804 0.838372 0.00121762 10
6.34739 -7.19971 1.17851 0.000935603 10
6.34561 -7.19768 1.51978 0.000917697 10
6.33922 -7.19044 1.8633 0.000895869 10
6.34246 -7.19411 2.21419 0.000870346 10
6.35311 -7.2062 2.57414 0.000841397 10
6.43883 -7.25223 -2.5986 0.00104271 10
6.43689 -7.25004 -2.23831 0.00107679 10
6.43306 -7.24573 -1.88343 0.00110655 10
6.43559 -7.24858 -1.53526 0.00113167 10
6.44223 -7.25606 -1.19141 0.0011519 10
6.43212 -7.24467 -0.84759 0.00116701 10
6.44626 -7.2606 -0.508843 0.00117685 10
6.4351 -7.24803 -0.169183 0.00118131 10
6.44194 -7.25573 0.169363 0.00118035 10
6.45374 -7.26903 0.509434 0.00117398 10
6.44249 -7.25635 0.848957 0.00116226 10
6.44774 -7.26227 1.19243 0.00089302 10
6.45392 -7.26923 1.53963 0.000875878 10
6.4534 -7.26864 1.88939 0.000854983 10
6.44695 -7.26138 2.24181 0.000830555 10
6.4621 -7.27844 2.60799 0.00080285 10
6.53953 -7.31406 -2.62892 0.000994374 10
6.54204 -7.31687 -2.26598 0.00102695 10
6.53419 -7.30809 -1.90556 0.0010554 10
6.80281 -7.60852 -1.61651 0.000580373 10
9.38406 -10.4955 0.245748 0.00140756 10
9.38478 -10.4963 0.737902 0.00140117 10
8.28494 -9.2662 1.08748 0.000180549 10
6.5544 -7.3307 1.20741 0.000851736 10
6.56411 -7.34156 1.55979 0.000835336 10
6.55842 -7.33519 1.91263 0.000815348 10
6.55716 -7.33379 2.27122 0.000791983 10
6.55529 -7.33169 2.63526 0.000765488 10
6.64565 -7.38074 -2.66121 0.000947548 10
6.65207 -7.38788 -2.29515 0.000978668 10
6.64986 -7.38542 -1.93176 0.00100584 10
6.84537 -7.60255 -1.62031 0.000580491 10
9.4245 -10.467 0.245849 0.00141315 10
9.40595 -10.4464 0.736695 0.00140674 10
8.32388 -9.2446 1.08834 0.000180476 10
6.65454 -7.39061 1.2211 0.000811736 10
6.66876 -7.4064 1.57851 0.000796056 10
6.66803 -7.4056 1.93704 0.000776949 10
6.58527 -7.31368 2.2721 0.00286787 10
6.57826 -7.3059 2.63422 0.0027757 10
6.75289 -7.4474 -2.69373 0.000902205 10
6.76551 -7.46132 -2.32528 0.000931908 10
6.76585 -7.4617 -1.95788 0.000957845 10
6.86395 -7.56988 -1.61844 0.000580609 10
9.43957 -10.4104 0.245293 0.00141868 10
9.43743 -10.408 0.736311 0.00141225 10
8.35748 -9.21702 1.08853 0.000180403 10
6.77264 -7.46918 1.23798 0.000772998 10
6.77838 -7.47551 1.59827 0.000758016 10
6.76985 -7.4661 1.95904 0.000739766 10
6.6 -7.27878 2.2684 0.00287823 10
6.60845 -7.2881 2.63611 0.00278574 10
6.78837 -7.43422 -2.69751 0.000398545 1
6.86796 -7.52138 -2.35146 0.000886657 10
6.87143 -7.52518 -1.98082 0.000911392 10
6.899 -7.55537 -1.62048 0.000580727 10
9.47086 -10.3719 0.245164 0.00142416 10
9.47032 -10.3713 0.736048 0.0014177 10
8.38072 -9.17807 1.08737 0.00018033 10
6.89887 -7.55523 1.25622 0.000735506 10
6.8838 -7.53872 1.61691 0.000721204 10
6.89389 -7.54977 1.98729 0.000703783 10
6.61048 -7.2394 2.2633 0.00288848 10
6.6246 -7.25486 2.63243 0.00279568 10
6.8237 -7.42072 -2.70124 0.000398593 1
7.00318 -7.6159 -2.38864 0.000842887 10
6.98688 -7.59818 -2.00644 0.00086646 10
6.99322 -7.60508 -1.63637 0.000886355 10
7.41561 -8.06442 -1.34518 0.00191704 10
7.42536 -8.07503 -0.959755 0.0019454 10
7.42008 -8.06928 -0.574507 0.00196478 10
7.41859 -8.06766 -0.191308 0.00197497 10
7.41685 -8.06577 0.191263 0.00197586 10
7.41117 -8.05959 0.573817 0.00196744 10
7.41313 -8.06172 0.958174 0.0019498 10
7.01304 -7.62662 1.27216 0.00069924 10
7.01532 -7.62911 1.64154 0.000685596 10
7.01059 -7.62396 2.01325 0.000668981 10
6.63993 -7.22087 2.26474 0.00289862 10
6.64409 -7.2254 2.63014 0.00280551 10
6.85108 -7.39849 -2.70184 0.000398641 1
7.11393 -7.68235 -2.41725 0.000800577 10
7.12146 -7.69047 -2.03737 0.000823022 10
7.12375 -7.69295 -1.66062 0.000841967 10
7.44872 -8.04389 -1.34609 0.00192382 10
7.44056 -8.03508 -0.958088 0.00195227 10
7.45121 -8.04657 -0.574739 0.00197172 10
7.44737 -8.04243 -0.191325 0.00198194 10
7.43778 -8.03207 0.191079 0.00198283 10
7.43486 -8.02892 0.573478 0.00197438 10
7.43611 -8.03027 0.957515 0.00195668 10
7.13307 -7.70302 1.28905 0.000664182 10
7.14102 -7.7116 1.66464 0.000651176 10
7.13186 -7.70171 2.04034 0.00063534 10
6.64906 -7.18033 2.25929 0.00290865 10
6.65112 -7.18256 2.62298 0.00281523 10
6.87374 -7.37119 -2.70061 0.000398689 1
7.23182 -7.75518 -2.4481 0.000759705 10
7.24541 -7.76975 -2.06506 0.00078106 10
7.24057 -7.76457 -1.68152 0.000799084 10
7.46066 -8.00058 -1.34319 0.00193052 10
7.46544 -8.0057 -0.957687 0.00195907 10
7.46838 -8.00886 -0.573904 0.00197857 10
7.46644 -8.00678 -0.191096 0.00198883 10
7.45811 -7.99785 0.190883 0.00198972 10
7.46189 -8.00189 0.573404 0.00198124 10
7.47058 -8.01122 0.958347 0.00196349 10
7.26407 -7.78977 1.3078 0.000630313 10
7.25529 -7.78035 1.68494 0.000617926 10
7.17651 -7.69587 2.04542 0.000485797 10
6.68608 -7.16994 2.26335 0.00291857 10
6.68491 -7.16869 2.62642 0.00282485 10
6.88799 -7.33497 -2.69614 0.000398736 1
7.37013 -7.8484 -2.48563 0.000720248 10
7.36123 -7.83892 -2.09026 0.000740548 10
7.37688 -7.85558 -1.7068 0.000757681 10
7.48217 -7.9677 -1.34205 0.00193715 10
7.48008 -7.96548 -0.955993 0.00196579 10
7.49478 -7.98113 -0.573788 0.00198536 10
7.48597 -7.97175 -0.190883 0.00199564 10
7.48903 -7.97501 0.19096 0.00199654 10
7.47888 -7.9642 0.57257 0.00198803 10
7.48337 -7.96898 0.956414 0.00197022 10
7.38392 -7.86307 1.32442 0.000597614 10
7.38466 -7.86386 1.7086 0.000585827 10
7.19185 -7.65854 2.04216 0.000485715 10
6.69345 -7.1278 2.25741 0.00292838 10
6.6879 -7.12189 2.61781 0.00283436 10
6.91628 -7.31376 -2.6972 0.000398784 1
7.50671 -7.93812 -2.52233 0.000682184 10
7.49127 -7.9218 -2.11932 0.000701463 10
7.50592 -7.93729 -1.73023 0.000717733 10
7.5038 -7.93505 -1.34095 0.0019437 10
7.49849 -7.92943 -0.954803 0.00197243 10
7.51328 -7.94507 -0.573078 0.000493351 10
7.50627 -7.93766 -0.190692 0.000495219 10
7.51403 -7.94587 0.19089 0.000494754 10
7.51919 -7.95132 0.573528 0.00049196 10
7.51813 -7.9502 0.957303 0.000486871 10
7.51387 -7.94569 1.34275 0.000566067 10
7.52164 -7.95392 1.73386 0.00055486 10
7.22492 -7.64014 2.04396 0.000485633 10
6.71924 -7.1054 2.25773 0.00293807 10
6.72248 -7.10882 2.62162 0.00284376 10
6.93667 -7.28422 -2.69522 0.000398831 1
7.63219 -8.01459 -2.55508 0.000645488 10
7.6312 -8.01355 -2.15098 0.000663782 10
7.64372 -8.0267 -1.75553 0.000679219 10
7.73096 -8.11831 -1.37647 0.00181363 10
7.72651 -8.11364 -0.980225 0.00184059 10
7.71828 -8.10499 -0.586552 0.00185901 10
7.71399 -8.10049 -0.19525 0.00186869 10
7.71366 -8.10014 0.195241 0.00186953 10
7.72456 -8.11159 0.58703 0.00186152 10
7.71508 -8.10163 0.978774 0.00184475 10
7.65897 -8.04272 1.36366 0.000535653 10
7.66076 -8.04459 1.75944 0.000525006 10
7.23912 -7.60183 2.04046 0.000485552 10
6.7352 -7.07266 2.25479 0.00294765 10
6.74044 -7.07816 2.61897 0.00285305 10
6.9668 -7.26491 -2.69706 0.000398877 1
7.7689 -8.10133 -2.59136 0.000610138 10
7.78476 -8.11787 -2.18626 0.000627478 10
7.76673 -8.09908 -1.77728 0.000642112 10
7.77258 -8.10517 -1.37884 0.000431903 10
7.77824 -8.11107 -0.983189 0.000437697 10
7.77791 -8.11073 -0.588929 0.000441449 10
7.77589 -8.10862 -0.196099 0.000443119 10
7.78592 -8.11908 0.196352 0.000442688 10
7.79756 -8.13122 0.590417 0.00044016 10
7.78765 -8.12088 0.984378 0.000435565 10
7.79794 -8.13161 1.38334 0.000506351 10
7.79564 -8.12922 1.78389 0.000496247 10
7.27539 -7.5867 2.04321 0.00048547 10
6.76171 -7.05104 2.2554 0.00295711 10
6.74276 -7.03128 2.61032 0.00286222 10
6.99284 -7.2413 -2.69733 0.000398925 1
7.92009 -8.2015 -2.63222 0.000576111 10
7.92376 -8.20529 -2.21724 0.000592533 10
7.92181 -8.20328 -1.8062 0.00060639 10
7.96103 -8.24389 -1.40715 0.00169987 10
7.96759 -8.25069 -1.00348 0.00172527 10
7.948 -8.2304 -0.599629 0.00174262 10
7.95735 -8.24008 -0.199949 0.00175175 10
7.95306 -8.23564 0.199841 0.00175254 10
7.94999 -8.23245 0.599778 0.00174499 10
7.96267 -8.24559 1.00286 0.00172918 10
7.94304 -8.22527 1.40398 0.000478145 10
7.92984 -8.2116 1.80803 0.000468564 10
7.30053 -7.55992 2.04284 0.00048539 10
6.8502 -7.0936 2.27665 0.000676641 10
6.85744 -7.10109 2.64511 0.000653897 10
7.02565 -7.22464 -2.70025 0.000398971 1
8.0627 -8.29106 -2.66999 0.000543379 10
8.05682 -8.28501 -2.24637 0.000558915 10
8.06068 -8.28898 -1.83125 0.000572024 10
8.17794 -8.40956 -1.4403 0.00158984 10
8.18073 -8.41243 -1.02662 0.00161373 10
8.17914 -8.41079 -0.614848 0.00163005 10
8.16104 -8.39219 -0.20433 0.00163863 10
8.16896 -8.40033 0.204528 0.00163938 10
8.16505 -8.39631 0.613789 0.00163228 10
8.16854 -8.39989 1.02509 0.00161741 10
8.0925 -8.3217 1.42525 0.000451011 10
8.09048 -8.31962 1.83802 0.000441935 10
7.32266 -7.53006 2.04167 0.000485309 10
7.65137 -7.86808 2.53377 0.00212089 10
7.63984 -7.85623 2.93631 0.00205107 10
7.03825 -7.18722 -2.69543 0.000399017 1
8.16357 -8.33637 -2.69374 0.000232716 1
8.22585 -8.39997 -2.28531 0.000526603 10
8.22639 -8.40051 -1.86223 0.000538991 10
8.22702 -8.40116 -1.44377 0.000362594 10
8.21591 -8.38981 -1.02735 0.000367493 10
8.21744 -8.39138 -0.615522 0.000370659 10
8.21813 -8.39208 -0.205024 0.00037206 10
8.23513 -8.40944 0.205448 0.000371677 10
8.23715 -8.4115 0.616998 0.000369516 10
8.2375 -8.41186 1.03005 0.000365601 10
8.2383 -8.41267 1.44575 0.00042493 10
8.24344 -8.41792 1.86609 0.000416342 10
7.35561 -7.5113 2.04353 0.000485229 10
7.6793 -7.84185 2.53394 0.00212755 10
7.66151 -7.82368 2.93412 0.00205753 10
7.06324 -7.16255 -2.69541 0.000399063 1
8.18367 -8.29874 -2.69079 0.000232748 1
8.37782 -8.49562 -2.31927 0.000495573 10
8.36685 -8.4845 -1.88731 0.000507265 10
8.41242 -8.53071 -1.47107 0.00149327 10
8.42034 -8.53874 -1.04918 0.00151583 10
8.4106 -8.52887 -0.627757 0.00153124 10
8.40202 -8.52017 -0.208869 0.00153934 10
8.41817 -8.53654 0.20927 0.00154004 10
8.40038 -8.5185 0.626993 0.00153333 10
8.41394 -8.53225 1.04838 0.00151929 10
8.39937 -8.51748 1.46879 0.000399883 10
8.39817 -8.51625 1.89437 0.000391765 10
7.38053 -7.48431 2.04319 0.000485149 10
7.69392 -7.80211 2.52976 0.00213413 10
7.68736 -7.79545 2.93358 0.00206391 10
7.08736 -7.13702 -2.69509 0.00039911 1
8.22278 -8.28039 -2.69413 0.00023278 1
8.53544 -8.59524 -2.35459 0.000465798 10
8.5276 -8.58734 -1.91679 0.000476824 10
8.63507 -8.69557 -1.50469 0.00139959 10
8.63401 -8.6945 -1.07202 0.00142084 10
8.63099 -8.69146 -0.641937 0.00143537 10
8.63577 -8.69627 -0.213924 0.001443 10
8.63511 -8.69561 0.213907 0.00144366 10
8.63529 -8.69579 0.642257 0.00143734 10
8.62869 -8.68915 1.07135 0.00142411 10
8.54764 -8.60752 1.48945 0.00037585 10
8.56324 -8.62324 1.92481 0.000368186 10
7.40195 -7.4538 2.0419 0.00048507 10
7.71983 -7.77391 2.52934 0.00214063 10
7.71836 -7.77244 2.93504 0.0020702 10
7.12682 -7.12682 -2.70062 0.000399155 1
8.25633 -8.25633 -2.69567 0.000232812 1
8.69896 -8.69897 -2.3913 0.000437255 10
8.70061 -8.70062 -1.94885 0.000447637 10
