VERSION 0.7
FIELDS x y z intensity label
SIZE 4 4 4 4 4
TYPE F F F F F
COUNT 1 1 1 1 1
WIDTH 1163
HEIGHT 1
VIEWPOINT 11.1365 5.10497 2.73062 0.999978 0.000089 0.000042 -0.00656172
POINTS 1163
DATA ascii
-3.59215 -10.9256 -2.6552 0.000244204 4
-4.26466 -12.971 -2.65409 3.29691e-05 4
-9.24139 -28.1079 -2.58862 3.10943e-05 4
-3.05768 -9.41058 -2.65132 0.00013526 4
-3.55458 -10.9399 -2.65564 0.000244205 4
-4.22197 -12.9939 -2.65574 4.4958e-05 4
-3.02852 -9.43274 -2.65457 7.01351e-05 4
-3.51303 -10.9418 -2.65312 0.000303803 4
-4.17668 -13.0088 -2.65579 5.54483e-05 4
-2.99473 -9.44057 -2.65382 0.000117727 4
-3.48158 -10.9753 -2.65829 0.000257288 4
-4.12883 -13.0157 -2.65424 4.04623e-05 4
-9.18786 -28.9638 -2.65844 2.87126e-05 4
-2.96118 -9.44913 -2.6533 0.000280541 4
-3.43997 -10.977 -2.65576 0.000303804 4
-4.08352 -13.0305 -2.65434 6.51895e-05 4
-2.93298 -9.47494 -2.65766 7.51451e-05 4
-3.39868 -10.9794 -2.65345 0.000236938 4
-4.04009 -13.0514 -2.6557 3.82146e-05 4
-4.96055 -16.025 -2.65693 3.94483e-05 4
-2.90112 -9.48914 -2.65878 6.01162e-05 4
-2.8679 -9.49895 -2.65871 4.00775e-05 4
-3.32407 -11.0098 -2.65514 4.21548e-05 4
-3.94539 -13.0677 -2.65336 5.02037e-05 4
-2.82672 -9.48206 -2.6512 6.76309e-05 4
-3.2894 -11.0341 -2.65821 0.000113382 4
-8.36171 -28.0488 -2.56067 2.89398e-05 4
-2.79387 -9.49275 -2.65145 0.000255495 4
-3.24419 -11.0228 -2.65274 0.000110475 4
-3.86029 -13.1161 -2.65765 3.3719e-05 4
-8.35444 -28.3859 -2.58877 3.0914e-05 4
-2.76142 -9.50486 -2.65213 0.000140272 4
-3.20739 -11.0399 -2.65415 0.000222404 4
-2.72839 -9.51504 -2.65229 0.000112719 4
-3.17107 -11.0588 -2.65602 6.5413e-05 4
-3.76682 -13.1365 -2.65637 3.89644e-05 4
-8.32738 -29.041 -2.64315 2.8691e-05 4
-2.69514 -9.5244 -2.65226 5.00972e-05 4
-3.13488 -11.0784 -2.65808 5.08769e-05 4
-3.71821 -13.1399 -2.65442 4.42097e-05 4
-4.56651 -16.1377 -2.65632 3.26587e-05 4
-2.6622 -9.53491 -2.65259 8.26606e-05 4
-3.09075 -11.0698 -2.65341 5.52379e-05 4
-3.67411 -13.1592 -2.65572 3.07221e-05 4
-2.63058 -9.55025 -2.65428 3.50682e-05 4
-3.05558 -11.0932 -2.65645 4.65162e-05 4
-2.59641 -9.55637 -2.65345 0.000225439 4
-3.01334 -11.0909 -2.65336 2.90727e-05 4
-3.57859 -13.1714 -2.65307 6.66897e-05 4
-2.56448 -9.57078 -2.65495 0.000190371 4
-2.98001 -11.1215 -2.65819 8.14037e-05 4
-3.53398 -13.189 -2.65412 4.49594e-05 4
-2.53357 -9.58916 -2.65758 5.26025e-05 4
-2.93432 -11.106 -2.652 9.44866e-05 4
-3.49178 -13.2159 -2.65705 7.1186e-05 4
-2.49862 -9.59236 -2.65603 0.000212915 4
-2.89849 -11.1275 -2.6547 6.68676e-05 4
-2.46326 -9.59374 -2.65402 3.00587e-05 4
-2.86372 -11.1535 -2.6585 0.000116292 4
-3.39571 -13.2254 -2.65414 3.44692e-05 4
-2.42881 -9.59855 -2.65298 0.000192877 4
-2.82265 -11.155 -2.6565 9.01263e-05 4
-3.35398 -13.2548 -2.65768 3.74666e-05 4
-2.39925 -9.62288 -2.65738 5.26029e-05 4
-2.783 -11.162 -2.65584 4.50633e-05 4
-3.30462 -13.2541 -2.65521 8.31761e-05 4
-2.36354 -9.62262 -2.65501 0.00013777 4
-2.742 -11.1634 -2.65389 9.44877e-05 4
-2.32993 -9.63078 -2.655 8.26621e-05 4
-2.70125 -11.1656 -2.65215 9.15806e-05 4
-3.20963 -13.267 -2.65324 6.81898e-05 4
-2.29962 -9.65279 -2.65884 8.26622e-05 4
-2.66388 -11.1818 -2.65377 6.68685e-05 4
-3.16723 -13.2947 -2.65654 3.37203e-05 4
-2.25972 -9.63436 -2.65158 0.000107712 4
-2.62928 -11.21 -2.65826 5.52393e-05 4
-3.11969 -13.3009 -2.65559 3.37204e-05 4
-3.82701 -16.3165 -2.65442 3.169e-05 4
-2.23216 -9.66853 -2.65882 6.5128e-05 4
-2.58501 -11.1969 -2.65301 7.84982e-05 4
-2.19526 -9.66248 -2.65503 0.00018286 4
-2.55132 -11.2297 -2.65864 7.41374e-05 4
-3.02763 -13.3262 -2.65636 4.12141e-05 4
-2.16338 -9.67842 -2.65732 5.26037e-05 4
-2.50984 -11.2284 -2.65624 5.37861e-05 4
-2.97859 -13.3254 -2.65412 3.59688e-05 4
-2.12645 -9.67166 -2.65341 0.000130257 4
-2.46823 -11.2262 -2.65367 5.96009e-05 4
-2.09636 -9.69604 -2.65808 0.000100198 4
-2.43291 -11.2526 -2.6579 6.97769e-05 4
-2.89002 -13.3668 -2.65829 3.97158e-05 4
-2.05849 -9.68443 -2.65291 0.000140277 4
-2.39138 -11.2506 -2.65543 6.68697e-05 4
-2.84142 -13.3678 -2.6565 3.89666e-05 4
-3.48924 -16.4156 -2.65806 3.62181e-05 4
-2.35452 -11.2704 -2.65816 7.99531e-05 4
-1.99497 -9.71875 -2.65843 0.000137773 4
-2.31394 -11.2726 -2.65676 3.92498e-05 4
-1.95718 -9.70653 -2.6532 0.000127753 4
-2.27165 -11.2661 -2.65334 7.2685e-05 4
-2.70279 -13.4043 -2.65798 5.91998e-05 4
-1.92475 -9.72068 -2.65522 0.000212923 4
-2.23207 -11.2728 -2.65306 0.000103213 4
-2.6529 -13.3981 -2.65489 3.89671e-05 4
-1.88794 -9.71258 -2.65119 0.000242983 4
-2.19217 -11.2777 -2.6524 8.72225e-05 4
-2.60804 -13.4172 -2.65685 4.0466e-05 4
-1.85745 -9.73711 -2.6561 0.000222944 4
-2.15426 -11.293 -2.65422 3.92503e-05 4
-2.56 -13.42 -2.65562 7.41878e-05 4
-1.82392 -9.74605 -2.65678 0.0001002 4
-2.11521 -11.3025 -2.65469 4.79727e-05 4
-2.51082 -13.4165 -2.65317 5.02081e-05 4
-1.78897 -9.74732 -2.65541 9.7695e-05 4
-2.4642 -13.4264 -2.65341 3.44714e-05 4
-1.75358 -9.74598 -2.65336 5.76151e-05 4
-2.03886 -11.3315 -2.65809 0.00015991 4
-1.71885 -9.74806 -2.65228 6.76353e-05 4
-1.99889 -11.3362 -2.65755 6.25104e-05 4
-2.37226 -13.4537 -2.65549 3.07247e-05 4
-1.68476 -9.75371 -2.6522 0.000263027 4
-1.95769 -11.3338 -2.65536 9.01316e-05 4
-2.32334 -13.4507 -2.65326 5.17076e-05 4
-1.65462 -9.78271 -2.6585 8.26658e-05 4
-1.91647 -11.3308 -2.65308 0.000126475 4
-2.27823 -13.4697 -2.65544 5.24572e-05 4
-1.61722 -9.76884 -2.65318 0.000122746 4
-1.87809 -11.3446 -2.65477 8.14097e-05 4
-2.23085 -13.4755 -2.65502 6.29489e-05 4
-1.58446 -9.78275 -2.65544 9.26864e-05 4
-1.8394 -11.3568 -2.65609 9.59474e-05 4
-1.54928 -9.78175 -2.65368 5.7616e-05 4
-1.79709 -11.3464 -2.65217 3.34363e-05 4
-2.1354 -13.4823 -2.65337 3.97181e-05 4
-1.51726 -9.80088 -2.65742 0.000122748 4
-1.76047 -11.372 -2.6567 3.6344e-05 4
-2.08799 -13.4876 -2.65295 4.34653e-05 4
-2.56688 -16.581 -2.65746 3.10464e-05 4
-1.48367 -9.81028 -2.65855 5.51113e-05 4
-1.72162 -11.3837 -2.65801 0.000161368 4
-1.44771 -9.80383 -2.65542 6.76368e-05 4
-1.67842 -11.3662 -2.65255 4.07055e-05 4
-1.99791 -13.5298 -2.65845 3.22245e-05 4
-1.41393 -9.81195 -2.65626 0.000135274 4
-1.6386 -11.3711 -2.65235 0.000133747 4
-1.37811 -9.80576 -2.65327 0.00015281 4
-1.60009 -11.3852 -2.65432 4.79747e-05 4
-1.34604 -9.8263 -2.65754 0.000140285 4
-1.56116 -11.3967 -2.65571 3.92521e-05 4
-1.85514 -13.5428 -2.65705 3.37237e-05 4
-1.31232 -9.83536 -2.65873 0.00013277 4
-1.5221 -11.4076 -2.65699 0.000187539 4
-1.8065 -13.539 -2.65505 3.14756e-05 4
-1.27525 -9.81884 -2.65305 0.000533586 4
-1.48263 -11.4156 -2.65763 0.000104673 4
-1.76 -13.5512 -2.65622 5.54573e-05 4
-1.44153 -11.4108 -2.65534 6.97823e-05 4
-1.2089 -9.84573 -2.65797 0.000140287 4
-1.40169 -11.4159 -2.65535 5.96059e-05 4
-1.66548 -13.5643 -2.65642 5.77061e-05 4
-1.17346 -9.84088 -2.65554 7.51537e-05 4
-1.36073 -11.4114 -2.6532 0.000116305 4
-1.13871 -9.84161 -2.65464 0.000165339 4
-1.32323 -11.4363 -2.6579 3.63454e-05 4
-1.56867 -13.5576 -2.65291 5.47089e-05 4
-1.10586 -9.85893 -2.65826 8.01645e-05 4
-1.07032 -9.85245 -2.65549 9.01853e-05 4
-1.24148 -11.428 -2.65389 5.66992e-05 4
-1.47575 -13.5845 -2.65609 3.67227e-05 4
-1.81226 -16.6821 -2.65773 2.91082e-05 4
-1.035 -9.8474 -2.65314 0.000152814 4
-1.20247 -11.4407 -2.65584 7.85068e-05 4
-1.42814 -13.5878 -2.65575 6.89492e-05 4
-1.00079 -9.85258 -2.65357 0.000140289 4
-1.1621 -11.4406 -2.65487 6.10611e-05 4
-1.37958 -13.5817 -2.6536 5.24616e-05 4
-0.967778 -9.87015 -2.65738 0.000195403 4
-1.12285 -11.4517 -2.6565 5.23383e-05 4
-1.08298 -11.4567 -2.65678 7.85078e-05 4
-1.28652 -13.61 -2.65731 5.99566e-05 4
-0.897101 -9.85748 -2.65222 0.000250519 4
-1.04289 -11.4594 -2.65654 3.63463e-05 4
-1.23749 -13.5977 -2.65404 4.04709e-05 4
-0.862712 -9.86082 -2.65229 0.000120249 4
-1.00173 -11.4499 -2.6535 0.000106132 4
-1.19193 -13.6238 -2.65832 4.79658e-05 4
-0.82866 -9.86823 -2.65349 0.000102713 4
-0.96194 -11.4554 -2.654 3.92544e-05 4
-0.795163 -9.88293 -2.65668 0.000105219 4
-0.922118 -11.4608 -2.65449 9.59555e-05 4
-1.09608 -13.6229 -2.65659 3.29768e-05 4
-0.759494 -9.8705 -2.65261 0.000200418 4
-0.88219 -11.4651 -2.65475 3.19853e-05 4
-1.04786 -13.6182 -2.65493 6.4455e-05 4
-0.725778 -9.88319 -2.65532 5.01046e-05 4
-0.842776 -11.4764 -2.65667 5.37937e-05 4
-1.00035 -13.6221 -2.65501 3.29772e-05 4
-0.690433 -9.87363 -2.65209 0.000147809 4
-0.802246 -11.4726 -2.65513 5.08861e-05 4
-0.952261 -13.6179 -2.65352 5.39629e-05 4
-0.656836 -9.88913 -2.65562 0.000283093 4
-0.762768 -11.484 -2.65713 8.57798e-05 4
-0.622121 -9.88832 -2.6548 9.26945e-05 4
-0.721606 -11.4696 -2.6532 4.65248e-05 4
-0.858567 -13.6465 -2.65786 3.37272e-05 4
-0.587409 -9.8872 -2.65394 0.000125263 4
-0.682325 -11.4848 -2.65616 6.83336e-05 4
-0.80982 -13.6308 -2.65423 8.46931e-05 4
-0.51858 -9.89508 -2.65502 0.000120254 4
-0.601669 -11.4805 -2.65412 0.00010759 4
-0.715603 -13.6545 -2.65781 6.97039e-05 4
-0.483593 -9.88777 -2.65259 0.000125265 4
-0.562071 -11.4924 -2.65639 7.70581e-05 4
-0.4495 -9.89875 -2.6551 0.000278089 4
-0.521143 -11.4764 -2.65227 4.65259e-05 4
-0.62011 -13.6559 -2.65717 5.77125e-05 4
-0.761023 -16.759 -2.6571 5.04603e-05 4
-0.414559 -9.89103 -2.65262 0.00027809 4
-0.481381 -11.4854 -2.65393 0.000106138 4
-0.572455 -13.6583 -2.65724 4.1973e-05 4
-0.380803 -9.91256 -2.65802 0.000350745 4
-0.441289 -11.487 -2.65395 0.000127947 4
-0.524225 -13.6459 -2.65446 2.92313e-05 4
-0.345712 -9.89987 -2.65428 0.000200427 4
-0.40132 -11.4923 -2.65482 3.48949e-05 4
-0.476652 -13.6495 -2.65481 3.44782e-05 4
-0.311282 -9.90513 -2.65538 8.7687e-05 4
-0.360814 -11.4813 -2.65197 0.000114863 4
-0.429132 -13.6552 -2.65561 4.27232e-05 4
-0.276568 -9.90124 -2.65407 0.000127773 4
-0.381784 -13.668 -2.65783 5.6215e-05 4
-0.241921 -9.89873 -2.65315 0.000330708 4
-0.281099 -11.5018 -2.65619 3.05334e-05 4
-0.333932 -13.6636 -2.65673 5.24677e-05 4
-0.207367 -9.89954 -2.65315 0.000142806 4
-0.241041 -11.5071 -2.65721 7.4153e-05 4
-0.172808 -9.9001 -2.65313 0.000140301 4
-0.200773 -11.5022 -2.6559 0.000104687 4
-0.1383 -9.90422 -2.65409 4.76024e-05 4
-0.160579 -11.4998 -2.65519 7.85157e-05 4
-0.234261 -16.7765 -2.65739 3.52599e-05 4
-0.103684 -9.90057 -2.653 0.000147819 4
-0.120372 -11.4942 -2.65378 6.54301e-05 4
-0.142947 -13.6498 -2.65339 5.17194e-05 4
-0.0691924 -9.91078 -2.65565 6.76461e-05 4
-0.0345953 -9.91058 -2.65555 6.26355e-05 4
-0.0401873 -11.5125 -2.65789 0.000104689 4
-0.0476818 -13.6595 -2.65515 2.9233e-05 4
-4.33279e-07 -9.91226 -2.65598 4.25923e-05 4
-5.0256e-07 -11.4972 -2.65434 0.000159943 4
0.0345527 -9.89895 -2.65243 0.00011525 4
0.0401238 -11.495 -2.65385 8.28797e-05 4
0.0692126 -9.91397 -2.6565 0.000172876 4
0.0802967 -11.5016 -2.65543 0.000155582 4
0.103676 -9.90001 -2.65285 0.000180393 4
0.120418 -11.4988 -2.65484 9.5967e-05 4
0.142923 -13.6477 -2.65299 3.37313e-05 4
0.138475 -9.91692 -2.65749 5.76259e-05 4
0.160614 -11.5024 -2.6558 6.39783e-05 4
0.234013 -16.7589 -2.65461 4.91729e-05 4
0.172702 -9.89415 -2.65153 0.00010523 4
0.200929 -11.5113 -2.658 5.96164e-05 4
0.207672 -9.91422 -2.65709 0.000265583 4
0.240621 -11.4872 -2.65261 0.000151223 4
0.241889 -9.8975 -2.65282 3.50771e-05 4
0.280804 -11.4898 -2.65342 8.28822e-05 4
0.333742 -13.6559 -2.65523 5.77194e-05 4
0.276667 -9.90485 -2.65503 0.000120265 4
0.321516 -11.5105 -2.65844 0.000138138 4
0.381545 -13.6596 -2.65618 4.27277e-05 4
0.311597 -9.91523 -2.65809 7.26603e-05 4
0.361397 -11.4999 -2.65627 3.199e-05 4
0.345499 -9.89383 -2.65266 0.000102727 4
0.401143 -11.4873 -2.65366 0.00012069 4
0.380802 -9.91259 -2.65803 3.00666e-05 4
0.441965 -11.5047 -2.65803 6.68889e-05 4
0.524927 -13.6643 -2.65803 4.87255e-05 4
0.644104 -16.7665 -2.65752 6.72932e-05 4
0.414319 -9.88536 -2.6511 0.000110245 4
0.481657 -11.492 -2.65547 4.07152e-05 4
0.571762 -13.6419 -2.65404 0.000128936 4
0.702288 -16.7561 -2.65624 6.08232e-05 4
0.450048 -9.91087 -2.65835 0.000155346 4
0.521985 -11.495 -2.65657 2.90824e-05 4
0.619785 -13.6488 -2.65579 0.000138682 4
0.761374 -16.7668 -2.65834 5.75884e-05 4
0.986072 -21.7151 -2.66902 3.25718e-05 4
0.484088 -9.89793 -2.65531 5.51229e-05 4
0.562144 -11.4939 -2.65675 0.000298097 4
0.667443 -13.6469 -2.65586 0.000130437 4
1.06787 -21.8343 -2.68412 4.01116e-05 4
0.51887 -9.90066 -2.65651 0.000473558 4
0.601283 -11.4732 -2.65243 0.000321364 4
0.715199 -13.6468 -2.65632 0.00014768 4
0.878917 -16.7708 -2.65987 9.332e-05 4
0.553597 -9.90181 -2.65733 0.000468549 4
0.641631 -11.4764 -2.65368 0.000257384 4
0.762576 -13.6397 -2.65543 0.000137935 4
0.941422 -16.8386 -2.67113 0.000106268 4
1.23391 -22.0702 -2.71411 3.3894e-05 4
0.588337 -9.90284 -2.65814 0.000546225 4
0.682823 -11.4932 -2.6581 0.000271927 4
1.00512 -16.9181 -2.68429 7.31644e-05 4
0.621695 -9.88158 -2.653 0.000588824 4
0.72241 -11.4824 -2.65616 0.000290832 4
0.860209 -13.6727 -2.66295 0.000195018 4
1.06824 -16.9793 -2.69457 7.87001e-05 4
1.84091 -29.2606 -2.56503 3.39588e-05 4
0.656975 -9.89126 -2.65619 0.000533702 4
0.762115 -11.4742 -2.65487 5.08959e-05 4
0.91092 -13.7146 -2.67172 0.000178682 4
1.13212 -17.0449 -2.7056 7.81849e-05 4
0.69072 -9.87777 -2.6532 0.00043849 4
0.803707 -11.4936 -2.65998 0.000366605 4
0.962752 -13.768 -2.68277 0.000154261 4
1.19656 -17.1117 -2.71684 0.00011296 4
0.726475 -9.89271 -2.65788 0.000117766 4
0.846496 -11.5271 -2.6684 0.000299405 4
1.01382 -13.8056 -2.69076 0.00016502 4
1.26344 -17.2048 -2.73231 8.66091e-05 4
0.760363 -9.88182 -2.65565 0.000130295 4
0.889264 -11.557 -2.67604 0.000243496 4
1.06653 -13.8609 -2.70225 0.00018785 4
1.32275 -17.1907 -2.73078 4.84019e-05 1
1.69674 -22.0512 -2.71555 7.96441e-05 4
0.796533 -9.89999 -2.66127 0.00051589 4
0.932446 -11.5892 -2.68423 0.000291614 4
1.11802 -13.8957 -2.70977 0.000183021 4
1.38474 -17.2107 -2.73472 4.84024e-05 1
1.71641 -21.333 -2.62782 9.96754e-05 4
0.833536 -9.92633 -2.66911 0.000524519 4
0.974391 -11.6037 -2.68836 0.000356288 4
1.17204 -13.9574 -2.7226 0.000180947 4
1.44297 -17.1839 -2.73124 4.84028e-05 1
1.73416 -20.6516 -2.54462 7.49893e-05 4
0.869989 -9.94402 -2.67467 0.000491982 4
1.01776 -11.6331 -2.69597 0.000358038 4
1.22541 -14.0065 -2.73299 9.40806e-05 4
1.50271 -17.1761 -2.73081 4.84033e-05 1
0.907669 -9.97362 -2.68347 0.000520926 4
1.06309 -11.6815 -2.70802 0.00029854 4
1.2753 -14.0132 -2.73515 0.000112947 1
1.56387 -17.1841 -2.73294 4.84037e-05 1
0.943345 -9.97956 -2.68593 0.000504967 4
1.10528 -11.6926 -2.71149 0.000324945 4
1.32346 -14.0007 -2.7336 0.000112947 1
1.62329 -17.1726 -2.732 4.84042e-05 1
0.980092 -9.99576 -2.6912 0.000501231 4
1.15166 -11.7456 -2.72468 0.00030518 4
1.37278 -14.0007 -2.73452 0.000112948 1
1.64231 -16.7495 -2.66559 0.000244057 4
1.02018 -10.0435 -2.705 0.000469649 4
1.19645 -11.7788 -2.73334 0.00035955 4
1.42082 -13.9878 -2.73294 0.000112949 1
1.65898 -16.3324 -2.6001 0.000200411 4
1.05587 -10.046 -2.70663 0.000584661 4
1.23581 -11.7579 -2.72948 0.000220165 1
1.4684 -13.9709 -2.73062 0.00011295 1
1.67847 -15.9696 -2.54327 4.55902e-05 4
1.09449 -10.0749 -2.71545 0.000552841 4
1.27866 -11.7703 -2.73337 0.000220167 1
1.51738 -13.9677 -2.73102 0.000112951 1
1.7348 -15.9691 -2.54414 4.37221e-05 4
1.13313 -10.1021 -2.72383 0.000322988 4
1.32073 -11.7746 -2.73543 0.000220168 1
1.56632 -13.9641 -2.73137 0.000112952 1
1.7901 -15.9591 -2.54352 5.3065e-05 4
1.17186 -10.1281 -2.73192 0.000498212 4
1.36146 -11.7667 -2.73469 0.000220169 1
1.59293 -13.7673 -2.69394 0.000325225 4
1.9279 -16.6624 -2.65667 5.11274e-05 4
1.20854 -10.1351 -2.73494 0.000380722 1
1.40047 -11.7447 -2.73069 0.000220171 1
1.60679 -13.475 -2.63783 0.000447187 4
1.98663 -16.6604 -2.65744 3.5919e-05 4
1.24142 -10.1106 -2.72947 0.000380724 1
1.44256 -11.7487 -2.73277 0.000220172 1
1.62095 -13.2016 -2.5854 0.000534818 4
2.04316 -16.6402 -2.65535 6.89263e-05 4
2.59281 -21.1168 -2.61229 9.86077e-05 4
1.27751 -10.1125 -2.73118 0.000380726 1
1.48271 -11.7369 -2.73121 0.000220173 1
1.63928 -12.9763 -2.54238 9.51224e-05 4
2.10137 -16.6341 -2.65552 2.88005e-05 4
2.62026 -20.7415 -2.56698 9.36501e-05 4
1.31152 -10.0981 -2.72851 0.000380728 1
1.5255 -11.7457 -2.73448 0.000220175 1
1.68439 -12.9691 -2.54211 0.000107978 4
1.34983 -10.1165 -2.73474 0.00038073 1
1.55737 -11.672 -2.71856 0.000459354 4
1.72998 -12.9656 -2.5426 9.51239e-05 4
2.21885 -16.6295 -2.6572 5.01592e-05 4
1.38443 -10.1066 -2.73334 0.000380732 1
1.56999 -11.4612 -2.67074 0.00073603 4
1.77386 -12.9495 -2.54063 0.00011912 4
2.27456 -16.6047 -2.65449 7.50777e-05 4
1.41981 -10.1025 -2.73355 0.000380734 1
1.58181 -11.2552 -2.62399 0.000881141 4
1.89998 -13.5191 -2.65367 0.00013796 4
2.33508 -16.615 -2.65741 4.82185e-05 4
1.4552 -10.0984 -2.73381 0.000380736 1
1.5948 -11.0672 -2.58145 0.000777025 4
1.9466 -13.5085 -2.65291 0.000110969 4
2.39144 -16.5954 -2.65561 3.65688e-05 4
1.4899 -10.0896 -2.73282 0.000380739 1
1.60879 -10.8947 -2.54252 0.000183205 4
1.99406 -13.5038 -2.65333 0.000128965 4
2.45158 -16.6021 -2.65802 3.20385e-05 4
1.5228 -10.069 -2.72867 0.000380741 1
1.64859 -10.9008 -2.54527 0.000222819 4
2.04469 -13.5199 -2.65788 5.92342e-05 4
2.50763 -16.581 -2.65603 0.000119132 4
1.5415 -9.95747 -2.69988 0.000884408 4
1.68599 -10.8908 -2.5443 0.000227772 4
2.0908 -13.5057 -2.65652 5.0237e-05 4
2.52949 -16.3395 -2.61876 0.000124847 4
1.55142 -9.79528 -2.65735 0.000842587 4
1.72306 -10.879 -2.54292 0.000198064 4
2.13667 -13.4904 -2.65495 0.000141714 4
2.55095 -16.1061 -2.58275 0.000233294 4
1.56492 -9.6621 -2.62269 0.00118412 4
1.84054 -11.3639 -2.65775 0.000286519 4
2.18616 -13.4977 -2.65789 7.4232e-05 4
2.57004 -15.8679 -2.54598 8.99946e-05 4
1.57636 -9.52201 -2.58614 0.00127562 4
2.23221 -13.4837 -2.65664 6.44849e-05 4
2.6202 -15.8274 -2.54093 4.52242e-05 4
1.58279 -9.35801 -2.54308 0.00109365 4
1.91696 -11.3338 -2.65377 0.000200711 4
2.27925 -13.4757 -2.65662 0.000104226 4
2.67955 -15.8425 -2.54484 4.26084e-05 4
1.61527 -9.35143 -2.54281 0.000314038 4
1.95872 -11.3398 -2.65677 0.000181805 4
2.32687 -13.4712 -2.65731 8.39817e-05 4
2.73492 -15.8335 -2.54492 5.68118e-05 4
1.64829 -9.34795 -2.54342 0.000325357 4
1.99722 -11.3268 -2.65534 0.000120719 4
2.37169 -13.4505 -2.65485 0.000120725 4
2.78651 -15.8031 -2.54158 5.34485e-05 4
1.6822 -9.34929 -2.54536 0.0003197 4
2.03818 -11.3277 -2.6572 0.000190534 4
2.41879 -13.4431 -2.65503 4.57408e-05 4
2.84331 -15.8025 -2.54306 4.82163e-05 4
1.71115 -9.32333 -2.5399 0.000396091 4
2.07838 -11.3242 -2.65807 0.000168719 4
2.46802 -13.4472 -2.65753 0.000355164 4
2.8973 -15.7862 -2.54205 4.18627e-05 4
1.82301 -9.74117 -2.65545 0.000303237 4
2.11748 -11.3147 -2.65755 0.000161447 4
2.48428 -13.2746 -2.62512 0.000364972 4
2.95645 -15.7977 -2.54555 5.00863e-05 4
1.85788 -9.73935 -2.65671 0.00019297 4
2.15445 -11.294 -2.65444 0.00015563 4
2.50039 -13.1075 -2.59378 0.000486956 4
3.00937 -15.7757 -2.54368 4.03685e-05 4
1.89172 -9.73207 -2.65651 0.000132824 4
2.19284 -11.2812 -2.65322 0.000164359 4
2.51973 -12.9629 -2.5669 0.00039688 4
3.06494 -15.7678 -2.54411 4.8966e-05 4
1.92354 -9.71461 -2.65356 0.000335822 4
2.23389 -11.282 -2.65521 0.000349083 4
2.54076 -12.8318 -2.54267 0.000113994 4
3.11836 -15.7489 -2.5428 4.07432e-05 4
1.95716 -9.70646 -2.65318 0.000408502 4
2.27485 -11.282 -2.65707 0.000258905 4
2.5852 -12.8212 -2.54234 9.59957e-05 4
3.17297 -15.7362 -2.54253 4.97147e-05 4
1.99013 -9.69517 -2.65198 8.77157e-05 4
2.31407 -11.2733 -2.65691 0.00012509 4
2.63074 -12.816 -2.54311 0.000107139 4
3.22665 -15.719 -2.54156 4.70986e-05 4
2.02736 -9.70442 -2.65643 0.000177939 4
2.35345 -11.2653 -2.65696 7.85452e-05 4
2.67204 -12.7903 -2.53987 0.000110568 4
3.28544 -15.7265 -2.54461 4.63516e-05 4
2.05733 -9.67901 -2.65142 0.00047367 4
2.39291 -11.2577 -2.65712 0.000138182 4
2.72126 -12.8025 -2.54416 0.000110569 4
3.33726 -15.7006 -2.54228 4.18664e-05 4
2.09294 -9.68022 -2.65374 0.000458636 4
2.43025 -11.2404 -2.65501 0.000295276 4
2.76271 -12.7781 -2.54119 8.82848e-05 4
3.39603 -15.7073 -2.54527 4.93431e-05 4
2.12907 -9.68359 -2.65668 0.000315784 4
2.44687 -11.129 -2.6307 0.000541251 4
2.81177 -12.7887 -2.54524 8.74285e-05 4
3.44988 -15.6909 -2.54456 4.22412e-05 4
2.16333 -9.67819 -2.65726 0.00023308 4
2.46677 -11.0357 -2.61067 0.000610842 4
2.85075 -12.7535 -2.54021 0.000108858 4
3.5006 -15.6608 -2.54164 4.11202e-05 4
2.19266 -9.65103 -2.65189 0.000225563 4
2.47728 -10.9038 -2.58149 0.000805324 4
2.89925 -12.7611 -2.54372 0.000104573 4
3.55641 -15.6536 -2.54247 5.49522e-05 4
2.2309 -9.66308 -2.65732 0.00050376 4
2.49346 -10.8004 -2.55906 0.00062975 4
2.94096 -12.7387 -2.54129 0.000106288 4
3.61241 -15.6471 -2.54344 4.785e-05 4
6.30733 -27.3201 1.46945 8.60666e-05 10
6.31033 -27.3331 5.45276 7.86286e-05 10
2.2592 -9.63217 -2.65097 0.000203009 4
2.51366 -10.7171 -2.54138 0.000163426 4
2.98852 -12.7416 -2.54394 0.000111432 4
3.66411 -15.622 -2.54143 4.85983e-05 4
2.29762 -9.64442 -2.65654 0.000423564 4
2.55239 -10.7138 -2.5427 0.000107301 4
3.03099 -12.7228 -2.54227 9.68613e-05 4
3.72279 -15.6267 -2.54428 4.18698e-05 4
6.27776 -26.3513 -2.36996 3.00833e-05 10
2.33226 -9.64039 -2.65765 0.000340858 4
2.58975 -10.7047 -2.54268 4.7873e-05 4
3.07532 -12.7119 -2.54222 0.000142293 4
3.77874 -15.6194 -2.54524 5.45809e-05 4
6.2736 -25.9319 -2.3342 3.2571e-05 10
6.27757 -25.9483 -1.39913 3.29838e-05 10
6.27607 -25.9422 -0.465885 3.31928e-05 10
6.27641 -25.9436 0.46591 3.31951e-05 10
5.93456 -24.5305 1.32268 0.000141471 10
5.93705 -24.5408 2.20898 0.000139745 10
5.93658 -24.5389 3.09991 0.00013719 10
5.93382 -24.5275 3.99684 0.000133842 10
5.93527 -24.5335 4.90639 0.000129748 10
5.93186 -24.5194 5.82404 0.000124968 10
5.93703 -24.5408 6.76537 0.000119567 10
2.36428 -9.62563 -2.65584 0.000365924 4
2.62796 -10.6991 -2.54351 4.95241e-05 4
3.12157 -12.7088 -2.54376 0.00011915 4
3.82658 -15.5791 -2.54082 5.45815e-05 4
6.26874 -25.5217 -2.29923 3.52022e-05 10
6.26737 -25.5162 -1.37699 3.56454e-05 10
6.26891 -25.5224 -0.458738 3.58699e-05 10
6.26741 -25.5163 0.458627 3.58723e-05 10
6.02122 -24.514 1.32291 0.000140903 10
6.02355 -24.5235 2.2093 0.000139184 10
6.02438 -24.5269 3.10104 0.000136638 10
6.02284 -24.5206 3.99912 0.000133302 10
6.02621 -24.5344 4.91075 0.000129224 10
5.89084 -23.9832 5.70154 3.16541e-05 10
6.0278 -24.5408 6.77115 0.000119081 10
2.39481 -9.60506 -2.65246 0.000263166 4
2.66537 -10.6902 -2.54359 8.74932e-05 4
3.16387 -12.6896 -2.54212 0.00012258 4
3.88713 -15.5904 -2.54488 5.30867e-05 4
6.26507 -25.1278 -2.2657 3.79816e-05 10
6.33758 -25.4187 -1.37292 0.000155608 10
6.33843 -25.4221 -0.457328 0.000156571 10
6.33629 -25.4135 0.457174 0.000156566 10
6.11559 -24.5283 1.32483 0.000140328 10
6.11777 -24.537 2.21243 0.000138615 10
6.11707 -24.5342 3.10465 0.000136079 10
5.88029 -23.5846 3.84978 3.64886e-05 10
6.11566 -24.5286 4.91383 0.000128693 10
5.88631 -23.6087 5.61736 3.41107e-05 10
6.11576 -24.529 6.77373 0.000118588 10
2.42019 -9.56449 -2.64357 0.000893906 4
2.70174 -10.6772 -2.54271 0.000132066 4
3.21226 -12.6948 -2.54538 9.42932e-05 4
3.9422 -15.5794 -2.54531 4.97227e-05 4
6.25859 -24.7337 -2.23212 4.09135e-05 10
6.43469 -25.4297 -1.37472 0.000154954 10
6.43366 -25.4256 -0.457793 0.000155913 10
6.43655 -25.437 0.457999 0.000155908 10
6.20688 -24.5294 1.32605 0.000139746 10
5.90598 -23.3402 2.10636 0.000168369 10
5.90025 -23.3176 2.95328 0.000165348 10
5.9022 -23.3253 3.8108 0.000161387 10
6.20534 -24.5233 4.91708 0.000128155 10
5.95971 -23.5525 5.60891 3.4596e-05 10
5.90265 -23.327 6.44746 0.000144482 10
2.43698 -9.4914 -2.6257 0.000830781 4
2.74084 -10.6749 -2.54443 9.57487e-05 4
3.25495 -12.6772 -2.54412 0.000111438 4
3.99429 -15.5567 -2.54386 5.00971e-05 4
6.2562 -24.3663 -2.20092 4.40027e-05 10
6.5248 -25.4124 -1.37501 0.000154291 10
6.52501 -25.4132 -0.457978 0.000155247 10
6.52627 -25.4181 0.458066 0.000155242 10
6.25205 -24.3501 1.31753 3.47402e-05 10
5.99219 -23.3381 2.10804 0.000167673 10
5.99186 -23.3368 2.95834 0.000164663 10
5.98621 -23.3148 3.81247 0.000160717 10
6.25065 -24.3447 4.88561 3.1878e-05 10
6.0419 -23.5317 5.60892 3.45957e-05 10
5.98859 -23.324 6.45237 0.000143877 10
2.45011 -9.40611 -2.60446 0.000555173 4
2.7781 -10.6653 -2.54444 0.000186546 4
3.29887 -12.6646 -2.54389 5.91486e-05 4
4.04725 -15.5377 -2.54304 4.89761e-05 4
6.25057 -23.9963 -2.16946 4.72534e-05 10
6.62294 -25.4259 -1.37698 0.000153622 10
6.61947 -25.4125 -0.458379 0.000154573 10
6.61872 -25.4097 0.458327 0.000154568 10
6.24984 -23.9935 1.29941 3.7304e-05 10
6.07644 -23.3278 2.10902 0.000166969 10
6.07297 -23.3145 2.95818 0.000163971 10
6.07942 -23.3393 3.81993 0.00016004 10
6.24893 -23.99 4.81879 3.42472e-05 10
6.12189 -23.5023 5.60699 3.45954e-05 10
6.07885 -23.3371 6.46181 0.000143266 10
2.46068 -9.31329 -2.58112 0.00097434 4
2.81583 -10.6575 -2.54491 0.000145276 4
3.34116 -12.6458 -2.54244 3.94328e-05 4
4.41023 -16.692 -2.73448 4.84292e-05 1
6.24155 -23.6233 -2.13769 5.06706e-05 10
6.26301 -23.7046 -1.28493 0.000133579 10
6.26252 -23.7027 -0.427929 0.000134384 10
6.26931 -23.7284 0.428393 0.00013438 10
6.24629 -23.6413 1.2815 3.99987e-05 10
6.16242 -23.3238 2.11059 0.000166258 10
6.16587 -23.3369 2.96374 0.000163271 10
6.1658 -23.3366 3.82299 0.000159356 10
6.24222 -23.6259 4.75 3.67385e-05 10
6.19888 -23.4618 5.60246 3.4595e-05 10
6.16569 -23.3362 6.46749 0.000142648 10
2.4708 -9.22116 -2.55796 0.00100891 4
2.85061 -10.6386 -2.54276 0.000113911 4
3.38272 -12.6245 -2.54052 5.3149e-05 4
4.46607 -16.6676 -2.73302 4.84298e-05 1
6.23824 -23.2814 -2.10871 5.42586e-05 10
6.28539 -23.4574 -1.27272 0.000139124 10
6.28418 -23.4529 -0.423813 0.000139959 10
6.27947 -23.4353 0.423495 0.000139955 10
6.23855 -23.2826 1.26323 4.2828e-05 10
6.24011 -23.2884 2.10934 4.23189e-05 10
6.23717 -23.2774 2.95893 4.15627e-05 10
6.23749 -23.2786 3.81704 4.05702e-05 10
6.236 -23.2731 4.68341 3.93553e-05 10
6.23574 -23.2721 5.56232 3.79348e-05 10
6.24087 -23.2913 6.46103 3.63284e-05 10
2.49079 -9.16764 -2.54551 0.000396148 4
2.88741 -10.6274 -2.54248 0.000100704 4
4.52693 -16.6619 -2.73465 4.84304e-05 1
6.23796 -22.9595 -2.08151 5.8022e-05 10
6.23194 -22.9374 -1.24567 3.87883e-05 10
6.23542 -22.9502 -0.415119 3.90228e-05 10
6.23759 -22.9581 0.415263 3.90251e-05 10
6.23682 -22.9553 1.24665 4.57955e-05 10
6.2342 -22.9457 2.08026 4.52538e-05 10
6.23778 -22.9588 2.92118 4.44494e-05 10
6.23394 -22.9447 3.76583 4.33936e-05 10
6.23183 -22.9369 4.62012 4.21009e-05 10
6.23366 -22.9437 5.489 4.05893e-05 10
6.23559 -22.9508 6.37258 3.88795e-05 10
2.51696 -9.13776 -2.53964 0.000370683 4
2.9266 -10.6249 -2.54431 0.00025589 4
3.47634 -12.6208 -2.54459 2.91468e-05 4
4.584 -16.6421 -2.73401 4.8431e-05 1
6.23002 -22.618 -2.05251 6.19651e-05 10
6.23354 -22.6307 -1.2302 0.000158114 10
6.23467 -22.6349 -0.409807 0.000159051 10
6.23809 -22.6472 0.410031 0.000159046 10
6.23233 -22.6263 1.22996 4.89045e-05 10
6.23419 -22.6331 2.05388 4.8329e-05 10
6.22938 -22.6156 2.88027 4.74743e-05 10
6.22801 -22.6106 3.71454 4.63524e-05 10
6.23225 -22.6261 4.56185 4.49786e-05 10
6.23199 -22.6251 5.41794 4.33719e-05 10
6.22775 -22.6097 6.28387 4.15543e-05 10
2.55329 -9.14487 -2.54408 0.000376345 4
2.96011 -10.6019 -2.54126 0.00017995 4
3.51783 -12.5995 -2.54276 4.80069e-05 4
4.6361 -16.6047 -2.7305 4.84316e-05 1
6.22358 -22.2904 -2.02474 6.60928e-05 10
6.24032 -22.3503 -1.21613 0.000164848 10
6.24559 -22.3692 -0.40539 0.00016582 10
6.24517 -22.3677 0.405362 0.000165815 10
6.22441 -22.2934 1.21303 5.21588e-05 10
6.23018 -22.314 2.02689 5.15481e-05 10
6.22302 -22.2884 2.84133 5.0641e-05 10
6.22765 -22.305 3.66787 4.94502e-05 10
6.22946 -22.3114 4.50277 4.79919e-05 10
6.2299 -22.313 5.34838 4.62862e-05 10
6.22345 -22.2899 6.20099 4.43562e-05 10
2.58133 -9.12222 -2.54027 0.000305605 4
3.00027 -10.6027 -2.54395 0.000171696 4
3.56068 -12.5832 -2.54196 4.88646e-05 4
4.69469 -16.5907 -2.73089 4.84322e-05 1
6.22227 -21.989 -1.99933 7.04094e-05 10
6.25376 -22.1003 -1.20371 0.000171915 10
6.24848 -22.0817 -0.400571 0.000172924 10
6.25448 -22.1029 0.400956 0.000172919 10
6.22054 -21.9829 1.19731 5.55618e-05 10
6.22385 -21.9946 1.99984 5.49144e-05 10
6.22317 -21.9922 2.80634 3.44424e-05 10
6.22122 -21.9853 3.61887 3.36365e-05 10
6.22169 -21.987 4.44165 5.11442e-05 10
6.21956 -21.9795 5.27361 4.93353e-05 10
6.22194 -21.9879 6.12298 3.01879e-05 10
2.61215 -9.10966 -2.53929 0.000350883 4
3.03636 -10.589 -2.54319 0.000244339 4
3.6093 -12.5871 -2.54529 7.20117e-05 4
4.75658 -16.5882 -2.73319 4.84329e-05 1
6.22236 -21.7 -1.97501 7.49194e-05 10
6.25426 -21.8112 -1.18914 0.000179333 10
6.25592 -21.817 -0.396164 0.000180382 10
6.25684 -21.8202 0.396222 0.000180377 10
6.22157 -21.6972 1.18293 5.91172e-05 10
6.21541 -21.6757 1.9728 5.84316e-05 10
6.2913 -21.9404 2.80251 3.51011e-05 10
6.28845 -21.9304 3.61342 3.42797e-05 10
6.21468 -21.6732 4.38261 5.44386e-05 10
6.21795 -21.6846 5.20803 5.25225e-05 10
6.29243 -21.9443 6.11692 3.07673e-05 10
2.64617 -9.10818 -2.54144 0.000413139 4
3.07299 -10.5773 -2.54293 0.000212973 4
3.64801 -12.5565 -2.54167 5.48666e-05 4
4.81746 -16.5818 -2.73489 4.84334e-05 1
6.2132 -21.386 -1.94839 7.96273e-05 10
6.26465 -21.5631 -1.1768 0.000187125 10
6.25847 -21.5418 -0.391561 0.000188215 10
6.25963 -21.5458 0.391633 0.000188209 10
6.2127 -21.3842 1.16704 6.28284e-05 10
6.21534 -21.3934 1.94907 6.21032e-05 10
6.21775 -21.4016 4.33207 5.78787e-05 10
6.21727 -21.4 5.14486 5.5851e-05 10
2.67722 -9.09643 -2.54075 0.00031976 4
3.1118 -10.573 -2.54449 0.00018821 4
3.69608 -12.5582 -2.5446 3.00055e-05 4
4.8689 -16.5431 -2.7313 4.8434e-05 1
6.21472 -21.1158 -2.70265 8.30689e-05 10
6.21173 -21.1057 -1.92482 8.45375e-05 10
6.2147 -21.1157 -1.15356 5.64942e-05 10
6.20922 -21.0971 -0.38387 5.68255e-05 10
6.21253 -21.1084 0.384075 5.68285e-05 10
6.20873 -21.0955 1.15246 6.66987e-05 10
6.20811 -21.0934 1.9237 6.59324e-05 10
6.20959 -21.0984 4.27504 6.14674e-05 10
6.2122 -21.1073 5.07967 5.9324e-05 10
2.70765 -9.08264 -2.53953 0.00033674 4
3.14334 -10.5441 -2.54017 0.000237741 4
3.7385 -12.5406 -2.54365 0.000144028 4
4.92575 -16.5231 -2.73082 4.84347e-05 1
6.20436 -20.8121 -2.66654 8.81041e-05 10
6.20455 -20.8128 -1.90007 8.96545e-05 10
6.20585 -20.8171 -1.13843 5.99106e-05 10
6.20951 -20.8294 -0.379391 6.02603e-05 10
6.20402 -20.811 0.379055 6.02634e-05 10
6.20699 -20.8209 1.13863 7.0732e-05 10
6.20827 -20.8252 1.90121 6.99229e-05 10
5.82752 -19.548 2.50458 8.65727e-05 10
5.83073 -19.5588 3.23254 8.4628e-05 10
6.2032 -20.8082 4.22061 6.52085e-05 10
6.20646 -20.8192 5.01551 6.29448e-05 10
6.20415 -20.8114 5.81892 6.03814e-05 10
0.711142 -2.35542 -0.65927 0.019958 8
0.711732 -2.35737 -0.568506 0.0211094 8
0.715755 -2.3707 -0.481362 0.022098 8
0.712252 -2.35909 -0.390302 0.0229059 8
6.20709 -20.5589 -2.63686 9.33476e-05 10
6.20084 -20.5382 -1.87697 9.49827e-05 10
6.20549 -20.5536 -1.12519 6.34679e-05 10
6.20085 -20.5382 -0.374479 6.38366e-05 10
6.20021 -20.5361 0.37444 6.38399e-05 10
6.20001 -20.5354 1.1242 7.49317e-05 10
6.2059 -20.5549 1.8785 7.40782e-05 10
5.88756 -19.5005 2.50111 0.000307341 10
5.88224 -19.4829 3.22336 0.000300418 10
6.20357 -20.5472 4.17204 6.91051e-05 10
6.20396 -20.5485 4.9555 6.67166e-05 10
6.20193 -20.5418 5.74955 6.40117e-05 10
0.718904 -2.35143 -0.658852 0.0705531 8
0.715075 -2.33891 -0.564652 0.0742033 8
0.714252 -2.33621 -0.474863 0.078107 8
0.716056 -2.34211 -0.387904 0.08139 8
6.19874 -20.2752 -2.60322 9.88035e-05 10
6.19616 -20.2667 -1.85413 0.000100527 10
6.2037 -20.2914 -1.11202 6.71689e-05 10
6.20226 -20.2867 -0.370285 6.75574e-05 10
6.20431 -20.2934 0.370407 6.75608e-05 10
6.19577 -20.2655 1.1106 7.9301e-05 10
6.19602 -20.2663 1.85408 7.84017e-05 10
5.95678 -19.4838 2.50161 0.000305905 10
5.95882 -19.4904 3.22803 0.000299012 10
6.20396 -20.2923 4.12464 7.31604e-05 10
6.196 -20.2662 4.8926 7.06427e-05 10
6.19658 -20.2681 5.67896 6.7791e-05 10
0.728255 -2.35261 -0.659892 0.0703221 8
0.72857 -2.35363 -0.568817 0.0743736 8
0.726951 -2.3484 -0.477853 0.0782747 8
0.724163 -2.33939 -0.38787 0.0815554 8
6.19289 -20.006 -2.57143 0.000104476 10
6.19565 -20.0149 -1.83306 0.00010629 10
6.19466 -20.0117 -1.09787 0.000107515 10
6.19573 -20.0152 -0.365722 0.000108134 10
6.19958 -20.0276 0.365949 0.00010814 10
6.19548 -20.0144 1.09801 8.38434e-05 10
6.20058 -20.0309 1.83452 8.28965e-05 10
6.03598 -19.4991 2.50628 0.000304456 10
6.03138 -19.4843 3.23047 0.000297594 10
5.82275 -18.8103 3.82752 9.72224e-05 10
6.19395 -20.0094 4.83581 7.47261e-05 10
6.19681 -20.0187 5.61511 7.17223e-05 10
0.731159 -2.33313 -0.65514 0.0704895 8
0.734884 -2.34502 -0.567352 0.0741272 8
0.735275 -2.34627 -0.477939 0.0780154 8
0.732535 -2.33752 -0.387981 0.0812854 8
6.19143 -19.7569 -2.54217 0.00011037 10
6.18975 -19.7515 -1.8109 0.000112279 10
6.1924 -19.76 -1.08524 0.000113567 10
6.19588 -19.7711 -0.361655 0.000114218 10
6.19685 -19.7742 0.361711 0.000114224 10
6.19358 -19.7637 1.08544 8.85624e-05 10
5.82858 -18.599 1.70523 0.000365045 10
5.82994 -18.6034 2.39374 0.000358977 10
5.82973 -18.6027 3.08767 0.000351013 10
5.8192 -18.5691 3.78255 0.000102605 10
5.81607 -18.5591 4.49017 9.9179e-05 10
5.82499 -18.5876 5.21936 0.000316874 10
0.740241 -2.33354 -0.655975 0.0702527 8
0.746369 -2.35286 -0.569875 0.0742888 8
0.748061 -2.35819 -0.480896 0.0781739 8
0.745274 -2.3494 -0.390382 0.0814414 8
6.187 -19.5039 -2.51238 0.00011649 10
6.1913 -19.5175 -1.79141 0.000118495 10
6.19433 -19.527 -1.07362 0.000119849 10
6.1867 -19.503 -0.357143 0.000120534 10
6.19418 -19.5265 0.357575 0.00012054 10
6.18958 -19.512 1.0728 9.34615e-05 10
5.83872 -18.406 1.68939 8.24722e-05 10
5.90105 -18.6025 2.39626 0.000357261 10
5.9007 -18.6014 3.09085 0.000349332 10
5.83221 -18.3855 3.74927 7.19955e-05 10
5.81188 -18.3214 4.43754 0.000104591 10
5.83571 -18.3965 5.1714 7.16494e-05 10
0.749977 -2.3359 -0.657373 0.0708095 8
0.754255 -2.34923 -0.569631 0.0744453 8
0.751726 -2.34135 -0.477995 0.0779083 8
0.753874 -2.34804 -0.390591 0.081592 8
6.18711 -19.2706 -2.48509 0.000122839 10
6.18343 -19.2591 -1.76967 0.000124946 10
6.25914 -19.4949 -1.07305 0.000395923 10
6.25777 -19.4907 -0.357316 0.000398153 10
6.26003 -19.4977 0.357445 0.000398141 10
6.18927 -19.2773 1.06108 9.8544e-05 10
5.8327 -18.1667 1.66929 8.68689e-05 10
5.97046 -18.5958 2.39808 0.00035553 10
5.97138 -18.5987 3.09385 0.000347636 10
5.89308 -18.3548 3.74719 7.19947e-05 10
5.80724 -18.0874 4.38576 0.000110202 10
5.83274 -18.1669 5.11253 7.55103e-05 10
0.76497 -2.35434 -0.663307 0.0705656 8
0.759189 -2.33654 -0.567194 0.0745967 8
0.763176 -2.34881 -0.480059 0.0780577 8
0.762234 -2.34591 -0.390678 0.0817371 8
6.18059 -19.0219 -2.45579 0.000129422 10
6.18276 -19.0286 -1.75046 0.000131632 10
6.32701 -19.4725 -1.07303 0.000393953 10
6.33107 -19.485 -0.357616 0.000396172 10
6.32703 -19.4726 0.357387 0.00039616 10
6.18165 -19.0252 1.04838 0.000103813 10
5.82969 -17.9419 1.6505 9.1423e-05 10
6.04383 -18.601 2.40145 0.000353785 10
6.03841 -18.5843 3.09495 0.000345928 10
5.95613 -18.3311 3.74657 7.19939e-05 10
5.80659 -17.8709 4.33814 0.000116015 10
5.8334 -17.9534 5.05816 7.95115e-05 10
0.769664 -2.34095 -0.660288 0.0711097 8
0.773325 -2.35208 -0.571618 0.0743367 8
0.76697 -2.33275 -0.477321 0.0782017 8
0.767837 -2.33539 -0.389369 0.0818767 8
0.779863 -2.37197 -0.306579 0.0339633 8
6.18129 -18.8005 -1.73145 0.000138561 10
6.40855 -19.4917 -1.07531 0.000391967 10
6.40316 -19.4753 -0.357845 0.000394176 10
6.41001 -19.4962 0.358228 0.000394164 10
5.83171 -17.7373 1.63353 9.61377e-05 10
6.11093 -18.5865 2.40232 0.000352027 10
6.11445 -18.5972 3.10063 0.000344206 10
6.1117 -18.5888 3.80359 0.000334622 10
5.80958 -17.6699 4.29426 0.000122035 10
5.83013 -17.7325 5.00162 8.36554e-05 10
0.780787 -2.34713 -0.662797 0.070465 8
0.777007 -2.33577 -0.568309 0.0744793 8
0.777421 -2.33701 -0.478745 0.077926 8
0.782937 -2.3536 -0.392857 0.0820108 8
0.776753 -2.33501 -0.30215 0.109501 8
6.17994 -18.5776 -1.7129 0.000145735 10
6.48026 -19.4804 -1.07593 0.000389966 10
6.4822 -19.4862 -0.358459 0.000392165 10
6.4829 -19.4883 0.358498 0.000392153 10
5.83068 -17.5277 1.61609 0.000101015 10
6.18524 -18.5935 2.406 0.000350256 10
6.18258 -18.5855 3.10226 0.000342471 10
6.183 -18.5868 3.80756 0.000332932 10
5.80143 -17.4397 4.24321 0.000128264 10
5.82465 -17.5095 4.94445 8.79445e-05 10
0.791043 -2.35054 -0.664534 0.0706055 8
0.788799 -2.34387 -0.570946 0.0746167 8
0.785163 -2.33307 -0.478495 0.0784739 8
0.789727 -2.34663 -0.392152 0.081297 8
0.791614 -2.35224 -0.304735 0.0847207 8
6.17373 -18.3449 -1.69342 0.00015316 10
5.82136 -17.2978 1.59676 0.000106059 10
6.25733 -18.5933 2.40878 0.000348471 10
6.25089 -18.5742 3.10398 0.000340723 10
6.25369 -18.5825 3.81113 0.000331229 10
5.8044 -17.2474 4.20133 0.000134707 10
5.82749 -17.316 4.89552 9.23812e-05 10
0.802164 -2.35634 -0.666963 0.0711319 8
0.800012 -2.35002 -0.573122 0.0747489 8
0.798633 -2.34597 -0.48171 0.0786019 8
0.796242 -2.33895 -0.39133 0.0814232 8
0.801304 -2.35382 -0.3053 0.0848412 8
6.17037 -18.1254 -1.67513 0.000160838 10
6.17321 -18.1337 -1.00391 0.000329347 10
6.17167 -18.1292 -0.33428 0.00033116 10
6.17867 -18.1497 0.334659 0.00033115 10
6.16965 -18.1232 1.00333 0.000329318 10
5.82285 -17.1045 1.58079 0.00011127 10
6.32176 -18.5701 2.40862 0.000346673 10
6.32315 -18.5741 3.10765 0.000338962 10
6.3237 -18.5758 3.81425 0.000329514 10
5.79939 -17.0356 4.15463 0.000141366 10
5.79238 -17.015 4.8161 0.000127527 10
0.809813 -2.35187 -0.666493 0.0704821 8
0.803334 -2.33305 -0.569664 0.0744755 8
0.807372 -2.34478 -0.482041 0.0779046 8
0.809231 -2.35018 -0.39368 0.0815438 8
0.806513 -2.34229 -0.304168 0.0845312 8
6.16655 -17.909 -1.65711 0.000168774 10
6.16935 -17.9171 -0.993101 0.000112719 10
6.17134 -17.9229 -0.330871 0.000113346 10
6.17014 -17.9194 0.330807 0.00011335 10
6.17168 -17.9239 0.993476 0.000112734 10
5.82142 -16.9066 1.56437 0.000116652 10
6.39656 -18.577 2.4124 0.000344863 10
6.39702 -18.5783 3.11206 0.000337189 10
6.39551 -18.5739 3.81843 0.000327787 10
5.79783 -16.8381 4.11138 0.000148246 10
5.79115 -16.8187 4.76624 0.000133752 10
0.821105 -2.35789 -0.669008 0.0709971 8
0.813703 -2.33664 -0.571229 0.0741999 8
0.815449 -2.34165 -0.481981 0.0784335 8
0.820958 -2.35747 -0.395379 0.0816588 8
0.820499 -2.35615 -0.306339 0.084642 8
6.2172 -17.8534 -1.65397 4.75356e-05 10
6.22101 -17.8643 -0.991373 0.000343521 10
6.21734 -17.8538 -0.329994 0.000345404 10
6.22279 -17.8694 0.330284 0.000345394 10
6.22455 -17.8745 0.991937 0.000343491 10
5.81284 -16.6922 1.5464 0.000122208 10
6.47228 -18.5859 2.41647 0.000343041 10
6.46857 -18.5752 3.11531 0.000335404 10
6.47036 -18.5804 3.82438 0.000326048 10
5.79021 -16.6272 4.0648 0.000155349 10
5.79152 -16.631 4.71874 0.000140179 10
0.822952 -2.3369 -0.663862 0.0711176 8
0.821171 -2.33184 -0.570754 0.074717 8
0.82248 -2.33556 -0.481315 0.0781399 8
0.829217 -2.35469 -0.395396 0.0813534 8
0.826463 -2.34687 -0.305505 0.084747 8
6.19387 -17.5884 -1.63142 0.000356409 10
6.20065 -17.6077 -0.978327 0.000360326 10
6.19285 -17.5856 -0.325434 0.000362291 10
6.19138 -17.5814 0.325357 0.00036228 10
6.19296 -17.5859 0.977114 0.000360294 10
5.81691 -16.518 1.53213 0.000127941 10
5.79102 -16.4445 2.14067 0.000165516 10
6.53859 -18.5674 3.1178 0.000333607 10
6.54518 -18.586 3.83023 0.000324297 10
5.79231 -16.4482 4.02594 0.000162678 10
5.79408 -16.4532 4.67399 0.000146812 10
0.837766 -2.35272 -0.669183 0.0704631 8
0.839495 -2.35758 -0.577767 0.0744339 8
0.836499 -2.34916 -0.484717 0.0782495 8
0.838368 -2.35441 -0.395838 0.081459 8
0.836837 -2.35011 -0.306305 0.0848464 8
6.17249 -17.3344 -1.60984 0.000374034 10
6.16949 -17.3259 -0.963863 0.000378125 10
6.17153 -17.3317 -0.321133 0.000380178 10
6.1675 -17.3203 0.320923 0.000380167 10
6.16666 -17.318 0.963421 0.000378092 10
5.80718 -16.3085 1.51456 0.000133851 10
5.8147 -16.3296 2.12834 0.000131719 10
6.61398 -18.5742 3.12281 0.000331798 10
6.6136 -18.5732 3.83231 0.000322534 10
5.7916 -16.2647 3.98596 0.000170238 10
5.78556 -16.2477 4.62134 0.000163826 10
0.839777 -2.33257 -0.664283 0.0705765 8
0.845269 -2.34782 -0.576096 0.0745432 8
0.843821 -2.3438 -0.484216 0.0779499 8
0.848541 -2.35691 -0.396754 0.0815591 8
0.841246 -2.33665 -0.304932 0.0841033 8
6.15825 -17.1052 -1.59054 0.000134207 10
6.16034 -17.111 -0.953097 0.000135678 10
6.15742 -17.1029 -0.31729 0.000136422 10
6.16081 -17.1123 0.317465 0.000136428 10
6.1543 -17.0942 0.952162 0.000135695 10
5.80799 -16.1323 1.50008 0.000139943 10
5.80521 -16.1246 2.10425 0.000137721 10
6.68552 -18.5698 3.12597 0.000329977 10
6.68519 -18.5688 3.83621 0.000320761 10
5.78579 -16.0707 3.94333 0.000178031 10
5.7884 -16.0779 4.57876 0.000171347 10
0.848412 -2.33099 -0.664672 0.0703029 8
0.855821 -2.35135 -0.577691 0.0746472 8
0.849206 -2.33318 -0.48263 0.0780502 8
0.856696 -2.35375 -0.396723 0.0812433 8
0.85307 -2.34379 -0.306251 0.0841946 8
0.861813 -2.36781 -0.220452 0.0329605 8
6.20738 -17.0546 -0.951158 0.000394857 10
6.2088 -17.0585 -0.316868 0.000396992 10
6.2037 -17.0445 0.316607 0.00039698 10
6.21044 -17.0631 0.951627 0.000394823 10
5.80814 -15.9578 1.48572 0.000146219 10
5.80136 -15.9391 2.08268 0.000143904 10
6.76345 -18.5824 3.13206 0.000328146 10
6.76041 -18.5741 3.84215 0.000318977 10
5.77856 -15.8765 3.9006 0.000186061 10
5.78164 -15.8849 4.52951 0.000179097 10
0.862467 -2.34412 -0.669269 0.0704077 8
0.861255 -2.34082 -0.575839 0.0743546 8
0.858095 -2.33224 -0.483052 0.0781453 8
0.863732 -2.34756 -0.396185 0.0809252 8
0.862279 -2.34361 -0.306618 0.0846953 8
0.86726 -2.35714 -0.219739 0.107117 8
6.17267 -16.7768 -0.93686 0.000414747 10
6.17459 -16.782 -0.31213 0.000416978 10
6.18053 -16.7982 0.31243 0.000416966 10
6.18083 -16.799 0.938099 0.00041471 10
5.80616 -15.7807 1.47111 0.00015268 10
5.8041 -15.7751 2.06388 0.000150271 10
6.83203 -18.5689 3.13377 0.000326303 10
6.83884 -18.5874 3.84982 0.000317181 10
5.77617 -15.6992 3.86198 0.000194331 10
5.78019 -15.7101 4.48539 0.000187079 10
0.867699 -2.33317 -0.667005 0.0705077 8
0.868033 -2.33407 -0.574921 0.0740599 8
0.868774 -2.33606 -0.484469 0.0782348 8
0.875278 -2.35355 -0.39771 0.0814189 8
0.869491 -2.33799 -0.306279 0.08436 8
0.871054 -2.3422 -0.218627 0.0874466 8
6.14591 -16.5258 -0.924037 0.000154836 10
6.14866 -16.5332 -0.3079 0.000155676 10
6.14832 -16.5323 0.307883 0.000155682 10
6.1489 -16.5339 0.924487 0.000154854 10
5.8044 -15.6076 1.45685 0.00015933 10
5.79724 -15.5883 2.04208 0.000156824 10
6.90915 -18.5782 3.13939 0.000324449 10
6.90522 -18.5676 3.85068 0.000315376 10
5.7754 -15.5296 3.82519 0.000202843 10
5.7748 -15.528 4.43912 0.000195297 10
0.877216 -2.3338 -0.668055 0.0706024 8
0.877619 -2.33487 -0.575868 0.0741514 8
0.88353 -2.3506 -0.48812 0.0779214 8
0.87649 -2.33187 -0.39456 0.0810929 8
0.878299 -2.33668 -0.306506 0.0844343 8
0.880484 -2.34249 -0.218941 0.0870967 8
6.21186 -16.5264 -0.925275 0.000433459 10
6.20672 -16.5127 -0.307919 0.000435781 10
6.20233 -16.501 0.307701 0.000435768 10
6.20849 -16.5174 0.924772 0.000433421 10
5.79967 -15.4298 1.44214 0.000166171 10
5.79459 -15.4163 2.02218 0.000163565 10
6.98249 -18.5766 3.14323 0.000322584 10
6.98246 -18.5765 3.85757 0.000313559 10
5.77521 -15.3647 3.78953 0.000211602 10
5.77546 -15.3654 4.39837 0.000203753 10
0.887805 -2.33716 -0.669901 0.0703163 8
0.891759 -2.34757 -0.579766 0.0742376 8
0.887036 -2.33514 -0.485551 0.0776059 8
0.888691 -2.3395 -0.396373 0.0811684 8
0.892051 -2.34834 -0.308443 0.0840925 8
0.887337 -2.33593 -0.218616 0.0863292 8
6.26806 -16.5008 -0.92506 0.000431045 10
6.27203 -16.5112 -0.308298 0.000433355 10
6.27062 -16.5075 0.308228 0.000433342 10
6.27026 -16.5066 0.925385 0.000431007 10
5.77175 -15.1942 1.422 0.000242694 10
5.77283 -15.1971 1.99606 0.000238902 10
5.77185 -15.1945 2.57436 0.000233915 10
5.77096 -15.1922 3.15894 0.000227793 10
5.77741 -15.2091 3.75611 0.00022061 10
5.7699 -15.1894 4.35373 0.000212451 10
0.901401 -2.34823 -0.673971 0.070777 8
0.89902 -2.34203 -0.579168 0.0743186 8
0.90136 -2.34812 -0.488902 0.0780768 8
0.897632 -2.33841 -0.396718 0.0812384 8
0.903383 -2.35339 -0.309518 0.084157 8
0.895147 -2.33194 -0.218533 0.0855627 8
5.81994 -15.1615 1.42083 0.000665325 10
5.82549 -15.1759 1.99594 0.000654889 10
5.82561 -15.1762 2.57469 0.000641177 10
5.81963 -15.1607 3.15659 0.000624356 10
5.82652 -15.1786 3.75357 0.000604628 10
5.81987 -15.1613 4.35147 0.000582228 10
0.911779 -2.35071 -0.675591 0.0701109 8
0.910256 -2.34678 -0.581125 0.0743943 8
0.90544 -2.33436 -0.486692 0.0781464 8
0.905255 -2.33389 -0.396484 0.0813028 8
0.91093 -2.34852 -0.309294 0.0846226 8
0.912557 -2.35271 -0.220777 0.0847974 8
10.02 -25.8331 -1.45213 2.92106e-05 10
10.0221 -25.8385 -0.483751 2.9398e-05 10
10.0253 -25.8467 0.483904 2.93993e-05 10
5.88628 -15.1758 1.42408 0.000661632 10
5.88088 -15.1618 1.99677 0.00065125 10
5.88498 -15.1724 2.5775 0.000637609 10
5.88456 -15.1713 3.16307 0.000620875 10
5.88395 -15.1697 3.75643 0.000601249 10
5.88885 -15.1824 4.3634 0.000578966 10
0.922529 -2.35402 -0.677465 0.07056 8
0.913704 -2.3315 -0.578128 0.074083 8
0.923509 -2.35652 -0.49198 0.0778195 8
0.919761 -2.34695 -0.399247 0.0809629 8
0.918838 -2.3446 -0.309198 0.0842689 8
0.913372 -2.33065 -0.219005 0.084033 8
10.0822 -25.7267 -1.44812 7.91757e-05 10
10.081 -25.7238 -0.482259 7.96767e-05 10
10.0804 -25.7221 0.482227 7.9674e-05 10
5.94337 -15.1657 1.42508 0.000657919 10
5.94872 -15.1793 2.0018 0.00064759 10
5.94475 -15.1692 2.58048 0.000634021 10
5.94371 -15.1666 3.16639 0.000617375 10
5.9449 -15.1696 3.76151 0.000597852 10
5.94629 -15.1731 4.36669 0.000575686 10
0.929625 -2.34797 -0.676652 0.0702614 8
0.925081 -2.33649 -0.580162 0.0745301 8
0.931229 -2.35202 -0.491716 0.0778798 8
0.925079 -2.33648 -0.398012 0.0810179 8
0.923615 -2.33279 -0.308064 0.0839128 8
0.925011 -2.33631 -0.219839 0.0836781 8
6.00117 -15.1572 1.42624 0.000654186 10
6.00901 -15.177 2.00425 0.000643912 10
6.00127 -15.1575 2.58203 0.000630414 10
6.00802 -15.1745 3.17241 0.000613856 10
6.00674 -15.1713 3.76711 0.000594436 10
6.00806 -15.1746 4.37313 0.000572388 10
0.937962 -2.34507 -0.676758 0.0703291 8
0.938811 -2.3472 -0.583631 0.0742115 8
0.942249 -2.35579 -0.49319 0.077547 8
0.934513 -2.33645 -0.39856 0.0810672 8
0.933917 -2.33496 -0.308779 0.0839562 8
0.933872 -2.33485 -0.220006 0.0829144 8
6.13224 -15.3317 -0.865388 0.000312489 10
6.13114 -15.3289 -0.288176 0.00031415 10
6.13405 -15.3362 0.288313 0.000314161 10
6.14041 -15.3521 0.866541 0.000312523 10
6.06871 -15.1729 1.4297 0.000650433 10
6.06961 -15.1751 2.00678 0.000640214 10
6.06146 -15.1547 2.58515 0.000626789 10
6.06265 -15.1577 3.1733 0.000610319 10
6.06948 -15.1748 3.77322 0.000591004 10
6.0706 -15.1776 4.38006 0.000569073 10
0.951318 -2.35459 -0.68046 0.0703917 8
0.95139 -2.35477 -0.586337 0.0742679 8
0.949465 -2.35001 -0.49267 0.0775983 8
0.941039 -2.32915 -0.397873 0.081111 8
0.95017 -2.35175 -0.311437 0.0835939 8
0.946734 -2.34325 -0.221108 0.0825567 8
6.13725 -15.1902 -0.858607 0.000324886 10
6.13521 -15.1852 -0.285875 0.000326608 10
6.1373 -15.1904 0.285972 0.000326619 10
6.13011 -15.1726 0.857608 0.000324921 10
6.12196 -15.1524 1.42977 0.000646662 10
6.12501 -15.1599 2.00759 0.000636498 10
6.1325 -15.1785 2.59283 0.000623145 10
6.12348 -15.1562 3.17743 0.000606764 10
6.13047 -15.1735 3.77818 0.000587553 10
6.13283 -15.1793 4.3867 0.000565742 10
0.957584 -2.34649 -0.679079 0.0700843 8
0.956585 -2.34404 -0.584492 0.074319 8
