VERSION 0.7
FIELDS x y z intensity label
SIZE 4 4 4 4 4
TYPE F F F F F
COUNT 1 1 1 1 1
WIDTH 1168
HEIGHT 1
VIEWPOINT 1.60279 10.9313 2.72887 0.880632 -0.00044709 0.000490836 0.473801
POINTS 1168
DATA ascii
9.81962 -8.84163 -2.56846 0.0001193 4
11.8607 -10.6794 -2.52783 4.95204e-05 4
7.47349 -6.68207 -2.68622 0.00054859 4
8.45747 -7.56185 -2.61921 0.000861821 4
9.85549 -8.81183 -2.56979 0.000139334 4
11.8834 -10.625 -2.52476 5.1829e-05 4
7.48383 -6.64446 -2.68159 0.000487662 4
8.49407 -7.54139 -2.62238 0.000665183 4
9.88116 -8.7729 -2.56848 0.000125994 4
12.8142 -11.377 -2.71406 4.97586e-05 1
7.50922 -6.62027 -2.68239 0.000473058 4
8.53037 -7.52054 -2.62547 0.000643608 4
9.90795 -8.73504 -2.5675 0.000108481 4
12.8558 -11.3339 -2.71447 4.97639e-05 1
7.53911 -6.59999 -2.68482 0.000156069 4
8.55774 -7.49174 -2.62583 0.000731178 4
9.93368 -8.69628 -2.56629 0.000110993 4
12.8966 -11.2901 -2.71474 4.97691e-05 1
7.56743 -6.57827 -2.68671 0.000260942 4
8.59132 -7.46832 -2.62811 0.000779747 4
9.96478 -8.66225 -2.56649 9.01367e-05 4
12.9324 -11.242 -2.71402 4.97743e-05 1
7.57695 -6.54025 -2.68197 0.000260956 4
8.62962 -7.44889 -2.63186 0.000547706 4
9.99724 -8.62939 -2.56708 9.18131e-05 4
12.9866 -11.2098 -2.71717 4.97795e-05 1
7.5942 -6.50902 -2.68002 0.00028292 4
8.67532 -7.43565 -2.63787 0.000831293 4
10.0437 -8.60846 -2.57127 8.3473e-05 4
13.0095 -11.1505 -2.71379 4.97847e-05 1
7.62621 -6.49041 -2.6833 0.000129272 4
8.7002 -7.40446 -2.63756 0.00082826 4
10.0573 -8.55946 -2.5671 0.000128559 4
13.0444 -11.1016 -2.71296 4.97899e-05 1
7.6571 -6.47075 -2.68621 0.000182942 4
8.74491 -7.39002 -2.64327 0.000837796 4
10.0983 -8.5337 -2.56993 0.000109367 4
13.0983 -11.069 -2.71614 4.97951e-05 1
7.6692 -6.43522 -2.68255 8.0499e-05 4
8.77666 -7.36449 -2.64508 0.000727973 4
10.1274 -8.49786 -2.56977 0.000104366 4
13.1378 -11.0239 -2.71632 4.98002e-05 1
7.70541 -6.41991 -2.68736 0.000141491 4
8.80871 -7.33914 -2.64701 0.000656441 4
10.1412 -8.44937 -2.5658 0.000110219 4
13.1687 -10.9718 -2.71478 4.98053e-05 1
7.72051 -6.38696 -2.68484 0.000117102 4
8.8489 -7.32045 -2.65139 0.000722424 4
10.1717 -8.41474 -2.56605 0.000131939 4
13.2036 -10.923 -2.7141 4.98105e-05 1
7.72868 -6.34841 -2.67996 9.27106e-05 4
8.87146 -7.2871 -2.65051 0.000924331 4
10.2073 -8.38437 -2.56764 0.000114412 4
13.2411 -10.8763 -2.71398 4.98156e-05 1
7.76573 -6.33357 -2.68512 0.000100035 4
8.9046 -7.26242 -2.65282 0.000809464 4
10.237 -8.34911 -2.56777 0.000108574 4
13.2832 -10.8335 -2.71485 4.98206e-05 1
7.78556 -6.30463 -2.68435 0.000261081 4
8.9446 -7.2432 -2.65719 0.000769308 4
10.2708 -8.31714 -2.56894 8.77015e-05 4
13.3276 -10.7925 -2.71621 4.98257e-05 1
7.80389 -6.27449 -2.68311 0.000292817 4
8.96778 -7.21029 -2.65658 0.000839756 4
10.3049 -8.28533 -2.57021 0.00011945 4
13.3687 -10.7487 -2.7169 4.98308e-05 1
7.81962 -6.24232 -2.68101 0.000146416 4
9.01407 -7.19584 -2.66284 0.000799694 4
10.3215 -8.23955 -2.56717 0.000114199 4
13.3988 -10.6961 -2.71542 4.98359e-05 1
7.85014 -6.22195 -2.68401 0.000170828 4
9.05497 -7.17688 -2.6675 0.000699117 4
10.2491 -8.12336 -2.5421 0.00031995 4
13.4343 -10.6479 -2.71508 4.98409e-05 1
23.5251 -18.6458 -2.62626 8.41749e-05 10
23.5346 -18.6533 -1.57383 8.52988e-05 10
23.52 -18.6418 -0.523858 8.58689e-05 10
23.5239 -18.6448 1.57311 6.65258e-05 10
23.5333 -18.6522 2.62717 6.56609e-05 10
23.5337 -18.6526 3.68713 6.43774e-05 10
23.52 -18.6417 5.8337 6.0641e-05 10
23.5353 -18.6539 6.93327 5.82455e-05 10
9.06952 -7.13701 -2.66444 0.00066592 4
10.2245 -8.04588 -2.52901 3.76892e-05 4
13.4584 -10.5907 -2.71246 4.9846e-05 1
23.6125 -18.5812 -2.62876 8.36529e-05 10
23.6272 -18.5928 -1.57567 8.47703e-05 10
23.6205 -18.5875 -0.524648 8.53369e-05 10
23.6277 -18.5932 1.5757 6.61136e-05 10
23.627 -18.5926 2.63037 6.52537e-05 10
23.6309 -18.5957 3.69216 6.39776e-05 10
23.6292 -18.5944 5.84465 6.02625e-05 10
23.6126 -18.5813 6.93689 5.78807e-05 10
7.89493 -6.16819 -2.68453 0.000266031 4
9.10526 -7.11381 -2.66762 0.000813802 4
10.2466 -8.00556 -2.52756 0.000111323 4
13.5076 -10.5533 -2.71493 4.9851e-05 1
23.7197 -18.5319 -2.63347 8.31278e-05 10
23.7157 -18.5287 -1.57724 8.42385e-05 10
23.723 -18.5344 -0.525483 8.48021e-05 10
23.7241 -18.5353 1.5778 6.56991e-05 10
23.7234 -18.5348 2.63389 6.48441e-05 10
23.71 -18.5243 3.6944 6.35753e-05 10
23.7191 -18.5314 5.85084 5.98817e-05 10
23.7024 -18.5184 6.94424 5.75138e-05 10
7.90331 -6.13043 -2.68009 8.29864e-05 4
9.14358 -7.09249 -2.67158 0.000858331 4
10.2661 -7.96323 -2.5255 0.000118344 4
13.549 -10.5097 -2.71587 4.9856e-05 1
23.7997 -18.4609 -2.63518 8.25996e-05 10
23.8084 -18.4677 -1.57911 8.37038e-05 10
23.8134 -18.4715 -0.526054 8.42641e-05 10
23.7995 -18.4608 1.57852 6.52821e-05 10
23.795 -18.4573 2.63467 6.44321e-05 10
23.8149 -18.4727 3.70067 6.31708e-05 10
23.7943 -18.4568 5.85347 5.94988e-05 10
23.8125 -18.4709 6.95756 5.71448e-05 10
7.92437 -6.10259 -2.67999 6.10226e-05 4
9.18556 -7.07384 -2.67661 0.000860583 4
10.3116 -7.941 -2.52985 0.000102573 4
13.5762 -10.4551 -2.71398 4.9861e-05 1
23.6693 -18.2278 -2.61368 2.9361e-05 10
23.8423 -18.3611 -1.57711 2.88788e-05 10
23.8375 -18.3574 -0.525169 2.90906e-05 10
23.6596 -18.2203 0.521248 3.00106e-05 10
23.8315 -18.3527 5.84682 3.82703e-05 10
23.8115 -18.3374 6.93853 3.67575e-05 10
7.9629 -6.0881 -2.68582 0.000129375 4
9.21639 -7.04647 -2.67841 0.000583105 4
10.3253 -7.89427 -2.52643 0.000120116 4
13.6024 -10.3998 -2.71195 4.9866e-05 1
22.6777 -17.3384 -2.49749 0.000104115 10
22.687 -17.3455 -1.49667 0.000105474 10
22.6714 -17.3336 -0.498141 0.000106164 10
23.4959 -17.9639 0.516256 3.16824e-05 10
22.6786 -17.3391 1.49612 8.22607e-05 10
22.6802 -17.3404 2.49777 8.12145e-05 10
22.6736 -17.3353 3.50443 7.96614e-05 10
22.6707 -17.3331 5.54715 7.51364e-05 10
22.6873 -17.3457 6.59324 7.22325e-05 10
7.96511 -6.04585 -2.67943 6.10289e-05 4
9.25798 -7.02719 -2.68336 0.000722684 4
10.3532 -7.8585 -2.52653 0.000106972 4
13.6451 -10.3572 -2.71324 4.98709e-05 1
22.7601 -17.2758 -2.4999 0.000103446 10
22.7787 -17.29 -1.49873 0.000104797 10
22.7796 -17.2907 -0.499191 0.000105483 10
23.3283 -17.7071 0.511213 3.34193e-05 10
22.7718 -17.2848 1.49827 8.17327e-05 10
22.776 -17.288 2.50166 8.06927e-05 10
22.7737 -17.2862 3.51055 7.91489e-05 10
22.7624 -17.2776 5.5548 7.46507e-05 10
22.7618 -17.2772 6.59734 7.1764e-05 10
7.98961 -6.02061 -2.68059 4.3943e-05 4
9.28566 -6.99725 -2.68428 0.00071944 4
10.3893 -7.82889 -2.52865 0.000121011 4
13.6839 -10.3116 -2.71378 4.98759e-05 1
22.8691 -17.2331 -2.50526 0.000102773 10
22.8642 -17.2294 -1.50039 0.000104117 10
22.8683 -17.2325 -0.499812 0.000104798 10
23.1569 -17.45 0.50612 3.52225e-05 10
22.8596 -17.226 1.50009 8.12022e-05 10
22.8454 -17.2152 2.50266 8.01684e-05 10
22.8464 -17.216 3.51247 7.86337e-05 10
22.8497 -17.2185 5.56139 7.41625e-05 10
22.8619 -17.2277 6.60888 7.12932e-05 10
8.00771 -5.99054 -2.67963 9.52148e-05 4
9.31847 -6.97111 -2.68672 0.000757266 4
10.4239 -7.79809 -2.53044 0.000126281 4
13.7324 -10.2731 -2.71626 4.98808e-05 1
22.9377 -17.1596 -2.50619 0.000102098 10
22.9459 -17.1657 -1.5018 0.000103433 10
22.9488 -17.1679 -0.500258 0.00010411 10
22.9899 -17.1987 0.501155 3.70933e-05 10
22.9394 -17.1609 1.50138 8.06689e-05 10
22.9558 -17.1731 2.50817 7.96413e-05 10
22.9365 -17.1587 3.51709 7.81159e-05 10
22.9387 -17.1604 5.56846 7.36718e-05 10
22.9404 -17.1616 6.61422 7.08199e-05 10
8.02796 -5.96209 -2.67942 7.08044e-05 4
9.3503 -6.94415 -2.68889 0.000671983 4
10.4396 -7.75315 -2.52767 0.000112259 4
13.7673 -10.2245 -2.71609 4.98858e-05 1
22.8474 -16.968 -2.48984 3.82098e-05 10
22.8366 -16.96 -1.49077 3.87308e-05 10
22.8294 -16.9546 -0.496362 3.90066e-05 10
22.8257 -16.9519 0.496282 3.9033e-05 10
22.8257 -16.9519 1.49006 3.02602e-05 10
22.8166 -16.9451 2.48649 2.98937e-05 10
22.8233 -16.95 3.49064 2.93406e-05 10
8.06398 -5.94528 -2.6845 0.000217307 4
9.39696 -6.92804 -2.69534 0.00072121 4
10.4611 -7.71261 -2.52634 0.000134194 4
13.7946 -10.1703 -2.71446 4.98907e-05 1
22.6834 -16.7237 -2.4656 4.01816e-05 10
22.6825 -16.723 -1.47689 4.0727e-05 10
22.6769 -16.7188 -0.491774 4.10156e-05 10
22.677 -16.7189 0.491777 4.10429e-05 10
22.6789 -16.7204 1.47666 3.18189e-05 10
22.6751 -16.7175 2.46469 3.14349e-05 10
22.6695 -16.7134 3.45817 3.08554e-05 10
22.6544 -16.7023 4.45787 3.00892e-05 10
22.6617 -16.7077 5.47277 2.91478e-05 10
8.0865 -5.91843 -2.6851 0.000271037 4
9.41912 -6.89375 -2.69477 0.000156301 4
10.4825 -7.672 -2.52501 0.000141221 4
13.8161 -10.1119 -2.71173 4.98956e-05 1
22.519 -16.4814 -2.44146 4.22239e-05 10
22.5192 -16.4815 -1.4625 4.27945e-05 10
22.5107 -16.4753 -0.486921 4.30962e-05 10
22.5236 -16.4848 0.487201 4.31245e-05 10
22.522 -16.4836 1.46269 3.34333e-05 10
22.5118 -16.4761 2.44067 3.30311e-05 10
22.5058 -16.4717 3.42441 3.24245e-05 10
22.4911 -16.461 4.41439 3.16223e-05 10
22.502 -16.469 5.42028 3.06366e-05 10
22.4898 -16.46 6.43423 2.94821e-05 10
8.09893 -5.88422 -2.68239 0.000134305 4
9.44971 -6.86562 -2.69665 9.03674e-05 4
10.5134 -7.63844 -2.52603 0.000110529 4
13.8535 -10.0652 -2.71216 4.99005e-05 1
22.3727 -16.2547 -2.41943 4.43379e-05 10
22.371 -16.2535 -1.44918 4.49343e-05 10
22.3538 -16.241 -0.482299 4.52496e-05 10
22.3574 -16.2436 0.482376 4.52789e-05 10
22.3594 -16.245 1.44843 3.5104e-05 10
22.359 -16.2448 2.41795 3.46833e-05 10
22.3602 -16.2457 3.39361 3.40486e-05 10
22.3564 -16.2429 4.3768 3.32094e-05 10
22.3478 -16.2367 5.36945 3.21781e-05 10
22.3433 -16.2334 6.37609 3.097e-05 10
22.3467 -16.2358 7.4013 2.9603e-05 10
8.1273 -5.8616 -2.685 7.08187e-05 4
9.49465 -6.84776 -2.70264 0.00032614 4
10.5415 -7.60279 -2.52639 9.73781e-05 4
13.9008 -10.0256 -2.71456 4.99053e-05 1
22.2232 -16.0279 -2.3972 4.65247e-05 10
22.2261 -16.03 -1.43616 4.71478e-05 10
22.2259 -16.0298 -0.478328 4.74771e-05 10
22.2127 -16.0203 0.478044 4.75074e-05 10
22.2154 -16.0223 1.43547 3.68324e-05 10
22.211 -16.0191 2.39588 3.63925e-05 10
22.1958 -16.0081 3.36016 3.57288e-05 10
22.2121 -16.0199 4.33757 3.48514e-05 10
22.1987 -16.0102 5.32016 3.37731e-05 10
22.1999 -16.0111 6.31917 3.25098e-05 10
22.2006 -16.0116 7.33435 3.10802e-05 10
8.14398 -5.83052 -2.68377 5.12851e-05 4
9.51909 -6.815 -2.70281 0.000349571 4
10.5625 -7.56198 -2.52507 9.21211e-05 4
13.9373 -9.9781 -2.71485 4.99102e-05 1
22.0646 -15.7967 -2.37413 4.87857e-05 10
22.0721 -15.8021 -1.42264 4.94362e-05 10
22.0671 -15.7985 -0.473722 4.97798e-05 10
22.0617 -15.7946 0.473605 4.98113e-05 10
22.0682 -15.7993 1.42239 3.86191e-05 10
22.0604 -15.7937 2.37368 3.81594e-05 10
22.0662 -15.7978 3.33216 3.7466e-05 10
22.0565 -15.7909 4.29641 3.65492e-05 10
22.0396 -15.7788 5.26879 3.54225e-05 10
22.0363 -15.7764 6.25688 3.41024e-05 10
22.0368 -15.7768 7.26199 3.26082e-05 10
8.1687 -5.80519 -2.68522 9.28063e-05 4
9.55997 -6.79392 -2.70766 0.000316306 4
10.5951 -7.52956 -2.52658 0.000113186 4
13.9696 -9.92765 -2.71437 4.9915e-05 1
22.1144 -15.7159 -2.37357 0.00012777 10
22.1058 -15.7098 -1.42127 0.000129402 10
22.111 -15.7135 -0.473482 0.00013023 10
22.111 -15.7134 0.473482 0.000130241 10
22.1061 -15.71 1.42129 0.000100922 10
22.1069 -15.7105 2.37276 9.96664e-05 10
22.1085 -15.7117 3.33025 9.78016e-05 10
22.0939 -15.7013 4.29298 9.53555e-05 10
22.1004 -15.7059 5.27019 9.2364e-05 10
22.0962 -15.703 6.2583 8.8871e-05 10
22.1048 -15.709 7.26629 8.49274e-05 10
8.18069 -5.77084 -2.68252 0.000158756 4
9.60379 -6.77473 -2.71336 0.000337319 4
10.6139 -7.48731 -2.52482 0.000105297 4
13.9959 -9.87303 -2.71278 4.99199e-05 1
22.1802 -15.6464 -2.37475 0.000126876 10
22.1967 -15.658 -1.42359 0.000128498 10
22.194 -15.6562 -0.474088 0.00012932 10
22.189 -15.6526 0.473979 0.000129331 10
22.19 -15.6533 1.42316 0.000100217 10
22.1879 -15.6519 2.37558 9.89692e-05 10
22.188 -15.6519 3.33398 9.71163e-05 10
22.1918 -15.6546 4.30135 9.4686e-05 10
22.1884 -15.6522 5.27811 9.17138e-05 10
22.1817 -15.6475 6.267 8.82435e-05 10
22.1884 -15.6522 7.27578 8.43255e-05 10
8.20449 -5.74485 -2.68373 0.000212499 4
9.62149 -6.73704 -2.7117 0.000278791 4
10.6475 -7.45548 -2.5266 0.000107937 4
14.0325 -9.82569 -2.71321 4.99247e-05 1
22.2832 -15.6029 -2.37993 0.000125979 10
22.2762 -15.598 -1.42519 0.00012759 10
22.2801 -15.6007 -0.474759 0.000128407 10
22.2779 -15.5992 0.474714 0.000128418 10
19.6337 -13.7477 1.25613 6.54764e-05 10
19.6194 -13.7376 2.09543 6.47339e-05 10
19.6268 -13.7429 2.94191 6.36136e-05 10
19.6217 -13.7392 3.79388 6.21316e-05 10
22.2645 -15.5898 5.28325 9.10612e-05 10
19.6264 -13.7425 5.53146 5.81691e-05 10
19.6096 -13.7308 6.41441 5.57435e-05 10
8.21347 -5.70851 -2.68014 0.000168542 4
9.67053 -6.7212 -2.7189 0.000224565 1
10.6793 -7.42228 -2.52797 0.000125497 4
14.0737 -9.78149 -2.71456 4.99295e-05 1
22.3592 -15.54 -2.38224 0.000125078 10
22.3526 -15.5355 -1.4266 0.000126679 10
22.3577 -15.539 -0.475255 0.00012749 10
22.3574 -15.5388 0.475248 0.000127501 10
19.4939 -13.5486 1.24415 6.83584e-05 10
19.6523 -13.6587 2.09384 0.000164324 10
19.6408 -13.6507 2.93685 0.000161399 10
22.3673 -15.5457 5.29473 9.04063e-05 10
19.658 -13.6627 5.5269 0.000147359 10
19.6544 -13.6602 6.41343 0.00014114 10
8.24626 -5.68871 -2.68434 0.00016855 4
9.68072 -6.67828 -2.71519 0.000224579 1
10.7055 -7.3852 -2.52805 0.000112341 4
14.0928 -9.72197 -2.71168 4.99342e-05 1
22.4477 -15.4856 -2.38589 0.000124174 10
22.4452 -15.4839 -1.42905 0.000125764 10
22.4549 -15.4906 -0.476169 0.000126571 10
22.4546 -15.4904 0.476161 0.000126581 10
19.3767 -13.3671 1.23368 7.13261e-05 10
19.7287 -13.6099 2.09691 0.000163197 10
19.726 -13.608 2.94246 0.000160291 10
22.4456 -15.4842 5.30044 8.9749e-05 10
19.7138 -13.5996 5.5292 0.00014634 10
19.7317 -13.612 6.42311 0.000140161 10
8.26176 -5.65695 -2.68294 4.64147e-05 4
9.71422 -6.65147 -2.71806 0.000224592 1
10.7345 -7.35005 -2.52883 0.000122004 4
14.1278 -9.67348 -2.71189 4.9939e-05 1
22.5279 -15.4251 -2.38868 0.000123267 10
22.5354 -15.4303 -1.43136 0.000124847 10
22.5217 -15.4209 -0.476441 0.000125648 10
22.5306 -15.427 0.476629 0.000125659 10
19.2756 -13.1983 1.22431 7.43805e-05 10
19.8073 -13.5623 2.10021 0.000162065 10
19.7994 -13.5569 2.94633 0.000159178 10
22.5225 -15.4214 5.30584 8.90896e-05 10
19.7901 -13.5506 5.5373 0.000145317 10
19.7974 -13.5555 6.42904 0.000139177 10
9.73645 -6.61689 -2.7178 0.000224605 1
10.7638 -7.31506 -2.5297 0.000114113 4
14.1612 -9.62395 -2.71185 4.99438e-05 1
22.62 -15.3725 -2.39275 0.000122358 10
22.6069 -15.3636 -1.43248 0.000123926 10
22.6059 -15.363 -0.477085 0.000124722 10
22.6095 -15.3654 0.477161 0.000124733 10
19.1483 -13.0131 1.21333 7.75229e-05 10
19.8763 -13.5079 2.10251 0.00016093 10
19.8831 -13.5125 2.95175 0.000158062 10
19.9229 -13.5396 4.68228 6.11028e-05 10
19.8751 -13.5071 5.54787 0.00014429 10
19.8839 -13.5131 6.44179 0.000138191 10
8.29202 -5.59304 -2.68003 8.55092e-05 4
9.75119 -6.57726 -2.71549 0.000224619 1
10.7738 -7.26706 -2.52609 9.83195e-05 4
14.192 -9.57264 -2.71133 4.99486e-05 1
22.7105 -15.3184 -2.39665 0.000121445 10
22.7074 -15.3164 -1.43546 0.000123003 10
22.6957 -15.3085 -0.47785 0.000123793 10
22.7042 -15.3142 0.478027 0.000123804 10
19.0342 -12.8387 1.20325 8.07542e-05 10
19.9148 -13.4327 2.10162 0.000102549 10
19.9364 -13.4473 2.95268 0.00010072 10
19.7866 -13.3462 4.63926 6.37061e-05 10
19.9288 -13.4422 5.54973 9.1945e-05 10
19.935 -13.4464 6.44311 8.80581e-05 10
8.30828 -5.56191 -2.67899 0.000112389 4
9.78059 -6.54754 -2.71729 0.000224632 1
10.8027 -7.23179 -2.52692 0.000158025 4
14.2307 -9.52665 -2.71236 4.99533e-05 1
22.7875 -15.2549 -2.39914 0.00012053 10
22.7844 -15.2528 -1.43695 0.000122077 10
22.7983 -15.2621 -0.478884 0.000122862 10
22.7792 -15.2493 0.478483 0.000122872 10
18.9122 -12.6606 1.19274 8.40759e-05 10
19.6791 -13.174 3.75081 4.36553e-05 10
19.6901 -13.1814 4.60583 6.63843e-05 10
8.3386 -5.54016 -2.68251 0.000129498 4
9.81142 -6.5187 -2.71952 0.000224645 1
10.8189 -7.18808 -2.52483 0.000104479 4
14.2673 -9.47915 -2.713 4.9958e-05 1
22.8752 -15.1983 -2.40277 0.000119612 10
22.8753 -15.1983 -1.43932 0.000121148 10
22.8696 -15.1945 -0.479265 0.000121928 10
22.877 -15.1995 0.479421 0.000121938 10
18.7968 -12.4886 1.1827 8.7489e-05 10
18.7914 -12.485 1.97382 8.65162e-05 10
18.7911 -12.4848 2.77009 8.50498e-05 10
18.7975 -12.489 3.57444 8.31098e-05 10
19.5565 -12.9933 4.56393 6.91383e-05 10
18.7849 -12.4806 5.20677 7.7921e-05 10
18.7993 -12.4902 6.0477 7.4742e-05 10
8.3693 -5.51854 -2.68617 0.000486252 4
9.83759 -6.4867 -2.72048 0.000224658 1
10.855 -7.15753 -2.5274 0.000102731 4
14.3048 -9.43227 -2.71385 4.99627e-05 1
22.9526 -15.1345 -2.40534 0.000118691 10
22.9696 -15.1456 -1.44192 0.000120217 10
22.9535 -15.1351 -0.479915 0.000120991 10
22.9716 -15.147 0.480291 0.000121001 10
18.7752 -12.38 1.17862 0.00020953 10
18.7778 -12.3817 1.96784 0.000207109 10
18.7671 -12.3746 2.76016 0.00020351 10
18.7761 -12.3806 3.56214 0.000198782 10
19.4459 -12.8222 4.52765 7.1969e-05 10
18.7758 -12.3804 5.19224 0.000186212 10
18.761 -12.3706 6.02144 0.000178538 10
8.36958 -5.4769 -2.68011 0.000437404 4
9.84437 -6.44198 -2.71612 0.000224671 1
10.8847 -7.12272 -2.52851 0.000113275 4
14.3221 -9.37212 -2.71092 4.99674e-05 1
23.0608 -15.0905 -2.41114 0.000117769 10
23.0562 -15.0876 -1.44405 0.000119284 10
23.0427 -15.0787 -0.480674 0.000120052 10
23.0495 -15.0832 0.480817 0.000120062 10
18.8328 -12.3238 1.17953 0.000208029 10
18.8497 -12.3349 1.97085 0.000205623 10
18.8374 -12.3269 2.76415 0.000202048 10
18.8385 -12.3276 3.5658 0.000197352 10
19.3276 -12.6476 4.4898 7.48774e-05 10
18.8418 -12.3297 5.19857 0.000184865 10
18.8314 -12.323 6.03022 0.000177242 10
8.38833 -5.44745 -2.68001 0.000542504 4
9.86949 -6.40932 -2.71686 0.000224684 1
10.9002 -7.07866 -2.52636 0.000123821 4
14.3591 -9.32488 -2.71173 4.9972e-05 1
23.1356 -15.0244 -2.41346 0.000116844 10
23.1469 -15.0318 -1.44643 0.000118348 10
23.1273 -15.019 -0.481342 0.000119111 10
23.1311 -15.0215 0.481422 0.000119121 10
18.9051 -12.2771 1.18136 0.000206522 10
18.8994 -12.2734 1.97156 0.000204133 10
18.9074 -12.2786 2.76811 0.000200582 10
18.8995 -12.2735 3.5692 0.000195917 10
19.224 -12.4842 4.45558 7.78644e-05 10
18.8995 -12.2735 5.20262 0.000183514 10
18.9037 -12.2762 6.0396 0.000175943 10
8.4112 -5.42065 -2.68126 0.000476547 4
9.88328 -6.36934 -2.71452 0.000224697 1
10.9256 -7.04107 -2.52653 0.000125586 4
14.3968 -9.27813 -2.71274 4.99767e-05 1
23.2266 -14.9685 -2.41749 0.000115917 10
23.2312 -14.9715 -1.44842 0.00011741 10
23.2254 -14.9678 -0.482296 0.000118167 10
23.2284 -14.9697 0.482357 0.000118177 10
18.9811 -12.2325 1.18344 0.000205012 10
18.9744 -12.2281 1.97491 0.000202639 10
18.9894 -12.2378 2.77384 0.000199112 10
18.9856 -12.2354 3.57737 0.000194478 10
19.1256 -12.3256 4.42278 8.0931e-05 10
18.9896 -12.2379 5.21564 0.000182159 10
18.9755 -12.2289 6.04886 0.00017464 10
8.42275 -5.38657 -2.67893 0.000461906 4
9.92381 -6.34654 -2.71955 0.00022471 1
10.9678 -7.01423 -2.53063 0.000125865 4
14.417 -9.22008 -2.71046 4.99813e-05 1
23.3224 -14.9153 -2.42203 0.000114988 10
23.3247 -14.9168 -1.451 0.00011647 10
23.3033 -14.9031 -0.48283 0.000117222 10
23.3153 -14.9108 0.483078 0.000117232 10
19.0157 -12.161 1.18294 9.11329e-05 10
19.0034 -12.1532 1.9735 9.01177e-05 10
19.0153 -12.1608 2.77142 8.85884e-05 10
19.0013 -12.1519 3.57232 8.6566e-05 10
19.0099 -12.1573 4.38619 8.4078e-05 10
19.0019 -12.1522 5.20733 8.11579e-05 10
19.0026 -12.1527 6.04395 7.78454e-05 10
8.39502 -5.32764 -2.66418 0.000270019 4
9.93249 -6.30335 -2.71588 0.000224723 1
11.017 -6.99158 -2.53632 0.000254176 4
14.4583 -9.17551 -2.71218 4.9986e-05 1
23.4069 -14.8545 -2.42541 0.000114058 10
23.3906 -14.8441 -1.45186 0.000115528 10
23.4039 -14.8526 -0.483836 0.000116275 10
23.407 -14.8546 0.483901 0.000116285 10
18.9175 -12.0054 1.17422 9.46113e-05 10
18.9063 -11.9983 1.95906 9.35601e-05 10
18.897 -11.9924 2.74806 9.19767e-05 10
18.9018 -11.9955 3.54573 8.98827e-05 10
18.8914 -11.9888 4.34916 8.73064e-05 10
18.8966 -11.9921 5.16696 8.42828e-05 10
18.9017 -11.9954 5.99849 8.08523e-05 10
8.34478 -5.25499 -2.6424 0.000258324 4
9.96836 -6.27742 -2.71968 0.000224736 1
11.0424 -6.95375 -2.53656 0.000330785 4
14.4902 -9.12498 -2.71218 4.99906e-05 1
23.4867 -14.7903 -2.42831 0.000113125 10
23.4854 -14.7896 -1.45454 0.000114585 10
23.4867 -14.7904 -0.484479 0.000115326 10
23.4804 -14.7864 0.484347 0.000115336 10
18.8119 -11.8465 1.16509 9.81776e-05 10
18.793 -11.8346 1.94302 9.70895e-05 10
18.8121 -11.8466 2.72968 9.54506e-05 10
18.7964 -11.8367 3.51818 9.32834e-05 10
18.7983 -11.8379 4.31819 9.0617e-05 10
18.8011 -11.8397 5.12953 8.74873e-05 10
18.7993 -11.8385 5.95283 8.39362e-05 10
8.36353 -5.22611 -2.64254 0.00023967 4
9.99266 -6.24411 -2.72035 0.000224749 1
11.0927 -6.93151 -2.54255 0.000279108 4
14.5121 -9.06814 -2.71032 4.99952e-05 1
23.5878 -14.7393 -2.43343 0.000112191 10
23.5697 -14.728 -1.45656 0.00011364 10
23.5695 -14.7279 -0.485123 0.000114375 10
23.5804 -14.7347 0.485347 0.000114385 10
18.6899 -11.6788 1.155 0.000101833 10
18.6988 -11.6843 1.92905 0.000100707 10
18.6952 -11.6821 2.70679 9.90118e-05 10
18.6977 -11.6836 3.49205 9.67695e-05 10
18.6857 -11.6761 4.28293 9.40109e-05 10
18.704 -11.6876 5.09189 9.07728e-05 10
18.7008 -11.6856 5.90872 8.70985e-05 10
8.38782 -5.20067 -2.64446 9.94423e-05 4
9.99882 -6.19954 -2.71612 0.000224762 1
11.1358 -6.90448 -2.54688 0.000265454 4
14.5505 -9.02168 -2.7116 4.99998e-05 1
23.6768 -14.6802 -2.43731 0.000111256 10
23.6742 -14.6787 -1.45985 0.000112693 10
23.6628 -14.6716 -0.485986 0.000113423 10
23.669 -14.6754 0.486112 0.000113433 10
18.6038 -11.5348 1.14718 0.000105578 10
18.5962 -11.5301 1.91431 0.000104414 10
18.594 -11.5288 2.68629 0.000102661 10
18.5981 -11.5313 3.4659 0.000100342 10
18.5921 -11.5276 4.25223 9.74889e-05 10
18.5864 -11.524 5.04887 9.414e-05 10
18.5835 -11.5223 5.85891 9.03396e-05 10
8.40604 -5.17143 -2.6445 8.92473e-05 4
10.0361 -6.17422 -2.72036 0.000224774 1
11.1636 -6.86792 -2.54776 0.00024771 4
14.5744 -8.96622 -2.7102 5.00043e-05 1
23.7687 -14.6226 -2.4415 0.000110319 10
23.7558 -14.6147 -1.46172 0.000111745 10
23.7561 -14.6149 -0.486852 0.000112469 10
23.7451 -14.6081 0.486625 0.000112479 10
18.5002 -11.3814 1.13834 0.000109414 10
18.4958 -11.3787 1.89988 0.000108211 10
18.5086 -11.3865 2.66818 0.000106398 10
18.4929 -11.3769 3.43887 0.000104001 10
18.4982 -11.3802 4.22164 0.000101052 10
18.4837 -11.3713 5.01017 9.75897e-05 10
18.4893 -11.3747 5.81664 9.36605e-05 10
8.42054 -5.13992 -2.6434 0.000204003 4
10.0401 -6.12852 -2.71565 0.000224787 1
11.1957 -6.8339 -2.54962 0.00025006 4
14.6061 -8.91561 -2.7103 5.00089e-05 1
23.8467 -14.5561 -2.44428 0.000109381 10
23.8419 -14.5532 -1.46389 0.000110796 10
23.8564 -14.562 -0.487862 0.000111514 10
23.8421 -14.5533 0.487568 0.000111524 10
18.3964 -11.2292 1.12953 0.000113342 10
18.3905 -11.2256 1.88502 0.000112098 10
18.4117 -11.2386 2.64856 0.000110225 10
18.3956 -11.2287 3.41347 0.000107748 10
18.3897 -11.2252 4.18792 0.0001047 10
18.3837 -11.2215 4.97243 0.000101123 10
18.3893 -11.2249 5.77283 9.70619e-05 10
8.44297 -5.11325 -2.64482 0.000104557 4
10.0746 -6.10142 -2.71921 0.0002248 1
11.2487 -6.81244 -2.55624 0.000300857 4
14.6395 -8.86602 -2.71074 5.00134e-05 1
23.9491 -14.5041 -2.44957 0.000108442 10
23.9298 -14.4924 -1.46617 0.000109846 10
23.9364 -14.4964 -0.488461 0.000110558 10
23.9376 -14.4971 0.488484 0.000110568 10
18.2979 -11.0816 1.12111 0.000117362 10
18.3147 -11.0918 1.87327 0.000116077 10
18.2994 -11.0825 2.62682 0.000114142 10
18.2936 -11.079 3.38735 0.000111584 10
18.306 -11.0865 4.16002 0.000108436 10
18.3038 -11.0852 4.9403 0.00010474 10
18.2939 -11.0792 5.73071 0.000100545 10
10.1012 -6.06939 -2.72063 0.000224813 1
11.2821 -6.77899 -2.55845 0.000210243 4
14.6861 -8.82433 -2.71366 5.00179e-05 1
24.017 -14.4309 -2.45135 0.000107501 10
24.035 -14.4417 -1.46951 0.000108895 10
24.0174 -14.4311 -0.489082 0.000109601 10
24.0208 -14.4331 0.489151 0.000109611 10
18.1992 -10.9352 1.11271 0.000253889 10
18.2138 -10.944 1.85903 0.000251015 10
18.2199 -10.9476 2.60991 0.000246742 10
18.2043 -10.9383 3.36373 0.000241127 10
18.2115 -10.9426 4.12983 0.000234245 10
18.2005 -10.9359 4.90209 0.000226185 10
18.2024 -10.9371 5.69005 0.000217055 10
8.46393 -5.04551 -2.64029 5.61088e-05 4
10.1009 -6.02132 -2.71487 0.000224825 1
11.3374 -6.75844 -2.56562 0.000287378 4
14.7172 -8.77322 -2.71372 5.00224e-05 1
24.1116 -14.3734 -2.45587 0.00010656 10
24.1082 -14.3714 -1.47091 0.000107942 10
24.1105 -14.3727 -0.489953 0.000108643 10
24.1281 -14.3833 0.490311 0.000108653 10
18.2816 -10.898 1.11542 0.000251897 10
18.2705 -10.8914 1.86093 0.000249045 10
18.2771 -10.8953 2.61263 0.000244803 10
18.269 -10.8905 3.36863 0.000239229 10
18.2909 -10.9035 4.13917 0.000232396 10
18.2756 -10.8945 4.91206 0.000224396 10
18.2686 -10.8903 5.69881 0.000215332 10
8.48092 -5.0156 -2.64011 0.000114773 4
10.134 -5.99322 -2.71814 0.000118918 4
11.3595 -6.71798 -2.5653 0.000291723 4
14.7341 -8.71372 -2.71121 5.00269e-05 1
24.2065 -14.3157 -2.46042 0.000105619 10
24.1977 -14.3105 -1.47332 0.000106989 10
24.2024 -14.3133 -0.490803 0.000107685 10
24.1989 -14.3112 0.490731 0.000107694 10
18.3499 -10.8521 1.11726 0.000249903 10
18.3495 -10.8519 1.8651 0.000247071 10
18.3441 -10.8487 2.61678 0.00024286 10
18.3517 -10.8532 3.37689 0.000237327 10
18.3589 -10.8574 4.14596 0.000230545 10
18.3378 -10.845 4.91857 0.000222603 10
18.344 -10.8486 5.7105 0.000213607 10
8.50815 -4.9917 -2.64315 0.000191298 4
10.0985 -5.92476 -2.70306 0.000138478 4
11.3963 -6.68618 -2.56833 0.000253469 4
14.7611 -8.66026 -2.71059 5.00314e-05 1
18.9988 -11.1465 -2.7046 0.000135097 10
24.2887 -14.2501 -2.46371 0.000104676 10
24.2922 -14.2521 -1.47603 0.000106036 10
24.2957 -14.2542 -0.491683 0.000106725 10
24.3077 -14.2613 0.491926 0.000106735 10
18.4293 -10.8124 1.1198 0.000247905 10
18.4244 -10.8096 1.86887 0.000245094 10
18.4275 -10.8114 2.62328 0.000240915 10
18.4151 -10.8041 3.38159 0.000235423 10
18.417 -10.8052 4.15054 0.00022869 10
18.417 -10.8052 4.92967 0.000220808 10
18.4103 -10.8013 5.71936 0.000211879 10
8.52489 -4.9616 -2.64295 9.69286e-05 4
10.0812 -5.86742 -2.69293 0.000129203 4
11.441 -6.65885 -2.57316 0.000231362 4
14.797 -8.61208 -2.71166 5.00358e-05 1
18.915 -11.0088 -2.68719 0.000139726 10
24.3852 -14.1925 -2.46846 0.000103733 10
24.3998 -14.201 -1.47955 0.000105081 10
24.399 -14.2006 -0.492768 0.000105766 10
24.3815 -14.1904 0.492413 0.000105775 10
18.493 -10.7632 1.12137 0.000245905 10
18.4934 -10.7634 1.87205 0.000243115 10
18.4919 -10.7626 2.62709 0.000238966 10
18.4829 -10.7573 3.38713 0.000233515 10
18.4973 -10.7657 4.16015 0.000226834 10
18.478 -10.7544 4.93591 0.00021901 10
18.4874 -10.7599 5.73162 0.000210148 10
8.53971 -4.9304 -2.64219 0.000102035 4
10.0555 -5.80555 -2.68063 0.000129565 4
11.4907 -6.63418 -2.57911 3.85902e-05 4
14.8367 -8.56599 -2.71344 5.00403e-05 1
18.8108 -10.8605 -2.66699 0.000144459 10
24.4848 -14.1363 -2.47354 0.00010279 10
24.4811 -14.1342 -1.48148 0.000104127 10
24.4872 -14.1377 -0.493548 0.000104805 10
24.4818 -14.1346 0.493439 0.000104815 10
18.5582 -10.7146 1.12305 0.000243902 10
18.5685 -10.7205 1.87585 0.000241133 10
18.5658 -10.719 2.63225 0.000237016 10
18.5563 -10.7135 3.3937 0.000231606 10
18.5662 -10.7192 4.1672 0.000224975 10
18.5661 -10.7192 4.94943 0.000217211 10
18.5576 -10.7142 5.74173 0.000208416 10
8.5628 -4.90396 -2.64403 0.000403055 4
10.0176 -5.73711 -2.66516 0.000129019 4
11.5289 -6.60265 -2.58248 0.000280481 4
14.8493 -8.50428 -2.71029 5.00447e-05 1
18.7068 -10.7135 -2.64691 0.000149296 10
24.5725 -14.0728 -2.47742 0.000101846 10
24.5643 -14.0681 -1.48353 0.000103172 10
24.5672 -14.0698 -0.494168 0.000103845 10
24.5737 -14.0735 0.494298 0.000103854 10
18.6286 -10.6687 1.12506 0.000241897 10
18.6385 -10.6744 1.87915 0.000239149 10
18.622 -10.6649 2.63492 0.000235063 10
18.63 -10.6695 3.40035 0.000229694 10
18.6165 -10.6618 4.17012 0.000223114 10
18.6352 -10.6725 4.95786 0.000215409 10
18.6184 -10.6628 5.749 0.000206682 10
8.56043 -4.863 -2.63804 0.00020919 4
9.98415 -5.67179 -2.65099 0.000123896 4
11.5686 -6.57191 -2.58623 0.000280653 4
14.8755 -8.45046 -2.70967 5.00491e-05 1
18.636 -10.5867 -2.63166 0.000154238 10
24.6608 -14.0093 -2.48138 0.000100902 10
24.6806 -14.0205 -1.48759 0.000102217 10
24.6813 -14.0209 -0.495475 0.000102884 10
24.6733 -14.0164 0.495315 0.000102893 10
18.7051 -10.626 1.12743 0.000239889 10
18.6962 -10.6209 1.88122 0.000237163 10
18.6972 -10.6215 2.6403 0.000233108 10
18.6981 -10.622 3.40598 0.000227781 10
18.7 -10.6231 4.18048 0.000221251 10
18.6849 -10.6145 4.96122 0.000213606 10
18.6919 -10.6185 5.76022 0.000204946 10
8.59239 -4.84156 -2.64266 0.00012501 4
9.96136 -5.61294 -2.63972 0.000132459 4
11.6164 -6.54552 -2.59179 0.000311324 4
14.9164 -8.40494 -2.71176 5.00535e-05 1
18.5229 -10.4371 -2.61052 0.000159287 10
24.7648 -13.9543 -2.48692 9.99584e-05 10
24.7699 -13.9571 -1.49003 0.000101262 10
24.7642 -13.9539 -0.496159 0.000101923 10
24.7594 -13.9512 0.496063 0.000101932 10
18.7579 -10.5696 1.12838 0.00023788 10
18.7753 -10.5793 1.88544 0.000235175 10
18.7626 -10.5722 2.64431 0.000231152 10
18.7662 -10.5742 3.41164 0.000225865 10
18.773 -10.578 4.18852 0.000219386 10
18.7738 -10.5785 4.97498 0.000211801 10
18.7661 -10.5742 5.77168 0.000203209 10
8.59754 -4.805 -2.63907 9.43993e-05 4
9.98102 -5.5782 -2.63975 6.685e-05 4
11.6539 -6.51315 -2.59507 0.000309429 4
14.9487 -8.35456 -2.71232 5.00579e-05 1
18.4343 -10.3026 -2.59296 0.000164442 10
24.8663 -13.8973 -2.49222 9.90145e-05 10
24.8576 -13.8924 -1.49238 0.000100307 10
24.85 -13.8882 -0.496905 0.000100962 10
24.8521 -13.8894 0.496946 0.000100971 10
18.8413 -10.5301 1.13118 0.000235869 10
18.8429 -10.5309 1.88853 0.000233185 10
18.8353 -10.5267 2.64936 0.000229193 10
18.8359 -10.527 3.41761 0.000223949 10
18.8351 -10.5266 4.19415 0.000217521 10
18.8415 -10.5302 4.98315 0.000209995 10
18.8336 -10.5258 5.78111 0.00020147 10
8.61355 -4.77457 -2.63885 0.000206667 4
9.98987 -5.53748 -2.63697 9.06238e-05 4
11.6895 -6.47959 -2.59794 0.000297325 4
14.9669 -8.2963 -2.71035 5.00622e-05 1
18.3572 -10.1755 -2.57709 0.000169706 10
24.8149 -13.7551 -2.48225 5.23135e-05 10
24.8141 -13.7547 -1.48688 5.30168e-05 10
24.8048 -13.7495 -0.495037 5.33844e-05 10
24.817 -13.7563 0.495281 5.3411e-05 10
18.9022 -10.4777 1.13263 0.000233857 10
18.92 -10.4875 1.89257 0.000231194 10
18.9046 -10.479 2.65394 0.000227234 10
18.9071 -10.4804 3.42387 0.000222031 10
18.9089 -10.4814 4.20241 0.000215653 10
18.91 -10.482 4.99157 0.000208187 10
18.9054 -10.4794 5.79187 0.000199731 10
8.6379 -4.74873 -2.64122 0.000178609 4
10.0323 -5.51531 -2.64307 0.000202057 4
11.7334 -6.45048 -2.60267 0.000232226 4
14.9971 -8.24475 -2.7106 5.00666e-05 1
18.2761 -10.0474 -2.56078 0.000175077 10
24.8601 -13.667 -2.48199 0.00010014 10
24.8678 -13.6712 -1.48723 0.000101445 10
24.8679 -13.6712 -0.495341 0.000102107 10
24.8671 -13.6708 0.495326 0.000102116 10
18.9801 -10.4344 1.13511 0.000231844 10
18.9921 -10.441 1.89613 0.000229202 10
18.9926 -10.4413 2.66116 0.000225274 10
18.992 -10.4409 3.43263 0.000220112 10
18.9921 -10.441 4.21279 0.000213786 10
18.9917 -10.4408 5.00346 0.000206379 10
18.9913 -10.4406 5.80699 0.00019799 10
8.65116 -4.71677 -2.64022 0.000119929 4
10.0493 -5.47904 -2.64249 0.000283787 4
11.7712 -6.41786 -2.60607 0.000289324 4
15.0349 -8.1973 -2.71223 5.00709e-05 1
18.1769 -9.91036 -2.54201 0.000180559 10
24.9705 -13.6143 -2.48824 9.91711e-05 10
24.9553 -13.6061 -1.48961 0.000100464 10
24.969 -13.6135 -0.496406 0.000101121 10
24.9489 -13.6026 0.496006 0.00010113 10
19.0397 -10.3808 1.1365 0.00022983 10
19.0499 -10.3863 1.89827 0.000227209 10
19.0517 -10.3873 2.66435 0.000223312 10
19.053 -10.388 3.43708 0.000218192 10
19.0398 -10.3808 4.2153 0.000211917 10
19.0466 -10.3846 5.00836 0.00020457 10
19.0496 -10.3862 5.81369 0.000196249 10
8.68003 -4.69328 -2.64402 7.91054e-05 4
10.0603 -5.43958 -2.64037 0.000315005 4
11.8138 -6.38769 -2.61055 0.000248607 4
15.0551 -8.14024 -2.71073 5.00752e-05 1
18.1019 -9.78768 -2.52673 0.00018615 10
19.7752 -10.6924 -1.96681 0.000136223 10
19.7804 -10.6952 -1.17848 0.000137889 10
19.7723 -10.6908 -0.392345 0.000138758 10
19.7597 -10.684 0.392097 0.00013882 10
19.1218 -10.3391 1.13924 0.000227815 10
19.1233 -10.34 1.90198 0.000225216 10
19.1105 -10.333 2.66752 0.000221351 10
19.1329 -10.3452 3.44497 0.000216272 10
19.1218 -10.3391 4.22544 0.000210048 10
19.1199 -10.3381 5.01812 0.000202761 10
19.1331 -10.3452 5.82812 0.000194508 10
8.6947 -4.66206 -2.64351 6.89013e-05 4
10.0889 -5.40961 -2.6429 0.000280845 4
11.8492 -6.35346 -2.61345 0.000321983 4
15.0873 -8.08973 -2.71143 5.00795e-05 1
18.0205 -9.66251 -2.51064 0.000191852 10
19.6735 -10.5488 -1.95303 0.000140529 10
19.6711 -10.5476 -1.16977 0.000142242 10
19.6698 -10.5469 -0.38958 0.000143136 10
19.6901 -10.5578 0.389982 0.000143199 10
19.1878 -10.2884 1.14103 0.0002258 10
19.2029 -10.2965 1.9063 0.000223222 10
19.2009 -10.2954 2.67509 0.000219388 10
19.1844 -10.2866 3.44774 0.000214351 10
19.1919 -10.2906 4.23297 0.000208178 10
19.2052 -10.2977 5.03104 0.000200951 10
19.1953 -10.2924 5.83609 0.000192766 10
10.1048 -5.37284 -2.64216 0.000243709 4
11.8988 -6.32669 -2.61951 0.000315861 4
15.1077 -8.0329 -2.71004 5.00838e-05 1
17.9367 -9.53712 -2.49432 0.000197666 10
19.6035 -10.4234 -1.94245 0.000144922 10
19.5822 -10.412 -1.16231 0.000146684 10
19.584 -10.413 -0.387159 0.000147604 10
19.578 -10.4098 0.387039 0.000147668 10
19.2797 -10.2512 1.14436 0.000223785 10
19.259 -10.2402 1.90831 0.000221227 10
19.2547 -10.2379 2.67759 0.000217425 10
19.2663 -10.2441 3.45602 0.00021243 10
19.2757 -10.2491 4.24353 0.000206308 10
19.2565 -10.2389 5.03508 0.000199141 10
19.2686 -10.2453 5.84748 0.000191025 10
8.71258 -4.59362 -2.63914 9.95329e-05 4
10.1187 -5.33497 -2.64089 0.000343291 4
11.9426 -6.29664 -2.62431 0.000307676 4
15.1306 -7.97748 -2.70914 5.00881e-05 1
17.849 -9.41073 -2.47754 0.000203592 10
19.5 -10.2812 -1.92863 0.000149403 10
19.4996 -10.281 -1.15527 0.000151215 10
19.5107 -10.2868 -0.384996 0.000152161 10
19.4951 -10.2786 0.384688 0.000152227 10
19.3317 -10.1925 1.14533 0.000221769 10
19.3498 -10.202 1.91377 0.000219233 10
19.3493 -10.2017 2.68579 0.000215463 10
19.346 -10.2 3.4639 0.000210509 10
19.335 -10.1942 4.24874 0.000204438 10
19.3482 -10.2012 5.04973 0.000197331 10
19.3422 -10.198 5.85897 0.000189283 10
8.73931 -4.5688 -2.64239 0.000137821 4
10.1329 -5.29738 -2.63977 0.00030021 4
11.9811 -6.26355 -2.62793 0.000287247 4
15.1821 -7.93703 -2.71339 5.00923e-05 1
17.7665 -9.28809 -2.46157 0.000209631 10
19.4294 -10.1574 -1.91813 0.000153974 10
19.4262 -10.1558 -1.14882 0.000155837 10
19.4274 -10.1564 -0.382651 0.000156808 10
19.4078 -10.1461 0.382264 0.000156875 10
19.4054 -10.1449 1.14758 0.000219754 10
19.4146 -10.1497 1.91667 0.000217239 10
19.4073 -10.1459 2.68891 0.000213501 10
19.4172 -10.1511 3.47029 0.000208589 10
19.4025 -10.1434 4.25575 0.000202569 10
19.4062 -10.1453 5.05558 0.000195522 10
19.4115 -10.1481 5.8692 0.000187542 10
8.75742 -4.53941 -2.64305 0.000387957 4
10.1596 -5.26624 -2.64191 0.000276445 4
12.02 -6.23059 -2.63169 0.000289207 4
15.1857 -7.87151 -2.7091 5.00966e-05 1
17.7054 -9.17762 -2.44865 0.000215783 10
19.4961 -10.1058 -1.92122 0.000275942 10
19.4939 -10.1047 -1.15073 0.000279185 10
19.4761 -10.0955 -0.382914 0.00028083 10
19.4824 -10.0987 0.383037 0.000280853 10
19.4813 -10.0982 1.14998 0.000217739 10
19.475 -10.0949 1.91914 0.000215246 10
19.4773 -10.0961 2.69371 0.000211539 10
19.4773 -10.0961 3.47472 0.000206668 10
19.4789 -10.0969 4.26476 0.0002007 10
19.4803 -10.0976 5.06568 0.000193713 10
19.4872 -10.1012 5.88138 0.000185801 10
8.7729 -4.50866 -2.64296 6.1259e-05 4
10.1808 -5.23222 -2.64265 0.000294295 4
12.0595 -6.19775 -2.63559 0.000250424 4
15.2346 -7.82953 -2.71293 5.01008e-05 1
17.6256 -9.05836 -2.43323 0.00022205 10
19.5742 -10.0598 -1.92545 0.000273387 10
19.5594 -10.0522 -1.15251 0.000276603 10
19.5544 -10.0496 -0.383762 0.000278233 10
19.5608 -10.0529 0.383886 0.000278257 10
19.5517 -10.0482 1.15206 0.000215725 10
19.5671 -10.0561 1.92475 0.000213253 10
19.5638 -10.0544 2.7008 0.000209578 10
19.5517 -10.0482 3.48171 0.000204749 10
19.5661 -10.0556 4.27614 0.000198832 10
19.5644 -10.0547 5.07839 0.000191905 10
19.5697 -10.0575 5.89565 0.000184062 10
8.78689 -4.47715 -2.64245 7.91296e-05 4
10.1935 -5.19386 -2.64124 0.000316607 4
12.0885 -6.15939 -2.6372 0.000143225 4
15.2586 -7.77466 -2.71236 5.0105e-05 1
17.5277 -8.93083 -2.4154 0.000228431 10
19.629 -10.0015 -1.92739 0.000270833 10
19.625 -9.99943 -1.15431 0.000274021 10
19.6409 -10.0075 -0.384771 0.000275637 10
19.6374 -10.0058 0.384702 0.000275661 10
19.4694 -9.92015 1.14516 0.000117076 10
19.5291 -9.95056 1.91757 8.85831e-05 10
19.63 -10.002 2.70511 0.000207618 10
19.6353 -10.0047 3.49035 0.000202831 10
19.4713 -9.92115 4.24783 0.000108076 10
19.5038 -9.93771 5.05363 7.98388e-05 10
19.6371 -10.0056 5.9054 0.000182323 10
8.79164 -4.44098 -2.6392 0.00020932 4
10.2005 -5.15265 -2.63837 0.000261623 4
12.1152 -6.11982 -2.63835 0.000157865 4
15.2807 -7.71883 -2.71147 5.01091e-05 1
17.4595 -8.81944 -2.40174 0.000234928 10
19.7086 -9.95555 -1.93178 0.00026828 10
19.6994 -9.95089 -1.15664 0.000271441 10
19.7202 -9.96139 -0.38564 0.000273043 10
19.7146 -9.95857 0.385531 0.000273066 10
19.3949 -9.79709 1.13877 0.000120525 10
19.4429 -9.82131 1.90573 9.1197e-05 10
19.7033 -9.95286 2.7104 0.000205658 10
19.7165 -9.95953 3.49859 0.000200913 10
19.4015 -9.8004 4.2251 0.000111279 10
19.4213 -9.8104 5.02333 8.22131e-05 10
19.6932 -9.94775 5.91178 0.000180585 10
8.82101 -4.41723 -2.64337 0.000153167 4
10.2367 -5.12617 -2.64309 0.00010406 4
12.1225 -6.07048 -2.6353 7.93227e-05 4
15.3105 -7.66694 -2.712 5.01133e-05 1
17.397 -8.71178 -2.38895 0.000241541 10
26.112 -13.0759 -1.53046 8.79495e-05 10
26.0899 -13.0648 -0.509308 8.85307e-05 10
26.0941 -13.067 0.509392 8.85391e-05 10
19.3152 -9.67232 1.13209 0.000124039 10
19.3425 -9.68599 1.89257 9.38598e-05 10
21.2713 -10.6519 2.92096 0.00015423 10
21.2788 -10.6556 3.76918 0.00015057 10
19.306 -9.66772 4.19693 0.000114542 10
19.3403 -9.68493 4.99362 8.46325e-05 10
21.2557 -10.6441 6.36966 0.000134918 10
8.82956 -4.38303 -2.64133 9.9563e-05 4
10.23 -5.07823 -2.63677 3.41929e-05 4
12.1417 -6.02722 -2.63491 9.47312e-05 4
15.3275 -7.60866 -2.7103 5.01175e-05 1
17.3184 -8.59692 -2.37401 0.000248271 10
26.1946 -13.0031 -1.53264 8.70075e-05 10
26.1929 -13.0023 -0.510432 8.75831e-05 10
26.1908 -13.0012 0.510389 8.75914e-05 10
19.2386 -9.55012 1.12564 0.000127618 10
19.2636 -9.56252 1.88157 9.65722e-05 10
21.338 -10.5923 2.92502 0.000152708 10
21.3455 -10.596 3.77442 0.000149081 10
19.2238 -9.5428 4.1718 0.000117866 10
19.2627 -9.56207 4.96492 8.70971e-05 10
19.2434 -9.55249 5.75659 5.7885e-05 10
8.85766 -4.35851 -2.64517 7.91432e-05 4
10.2565 -5.04685 -2.63905 6.69025e-05 4
12.1649 -5.98585 -2.63537 8.85753e-05 4
15.3633 -7.55969 -2.71194 5.01216e-05 1
17.2509 -8.48852 -2.36069 0.000255118 10
26.2951 -12.9388 -1.53587 8.60672e-05 10
26.3049 -12.9436 -0.511729 8.66372e-05 10
26.3017 -12.9421 0.511668 8.66454e-05 10
19.1559 -9.42585 1.11887 0.000131262 10
19.184 -9.43969 1.87057 9.93339e-05 10
21.4256 -10.5427 2.93197 0.000182792 10
21.4163 -10.5381 3.78042 0.000147594 10
19.1342 -9.41519 4.14519 0.000121252 10
19.1896 -9.44245 4.93756 8.96072e-05 10
19.1912 -9.44324 5.73109 8.60124e-05 10
8.86284 -4.3227 -2.6422 0.000148081 4
10.2794 -5.01358 -2.6404 2.9736e-05 4
12.1997 -5.9502 -2.63841 3.46621e-05 4
15.3905 -7.50643 -2.71209 5.01257e-05 1
17.1889 -8.3836 -2.34819 0.000441813 10
26.3836 -12.8681 -1.5384 8.51289e-05 10
26.3998 -12.8761 -0.512699 8.56932e-05 10
26.4073 -12.8797 0.512845 8.57013e-05 10
19.0793 -9.3056 1.1125 0.000134971 10
19.1095 -9.32033 1.86012 0.000102146 10
21.5172 -10.4946 3.79174 0.000146109 10
19.0503 -9.29144 4.11996 0.000124699 10
19.0937 -9.31263 4.9045 9.21632e-05 10
19.1009 -9.31611 5.69436 8.84734e-05 10
8.88659 -4.29595 -2.64479 0.000102129 4
10.3023 -4.98035 -2.64182 7.73174e-05 4
12.2053 -5.90026 -2.63514 7.54911e-05 4
15.3985 -7.44392 -2.70891 5.01298e-05 1
17.258 -8.34284 -2.35363 0.000437685 10
26.4892 -12.8054 -1.54194 8.41927e-05 10
26.4844 -12.803 -0.51347 8.47511e-05 10
26.4842 -12.803 0.513467 8.47593e-05 10
18.9881 -9.17922 1.1053 0.000138747 10
19.0265 -9.19776 1.8489 0.000105007 10
21.5838 -10.434 3.79702 0.000144625 10
18.9694 -9.17019 4.09554 0.000128207 10
19.0264 -9.19773 4.87893 9.47652e-05 10
19.027 -9.19803 5.66275 9.0979e-05 10
8.87741 -4.25334 -2.63762 0.000204266 4
10.3152 -4.94221 -2.64068 5.94779e-05 4
11.7262 -5.61824 -2.52745 0.000122363 4
15.4311 -7.39333 -2.71008 5.01339e-05 1
17.3247 -8.30063 -2.35877 0.00043356 10
26.5967 -12.743 -1.5456 8.32584e-05 10
26.5997 -12.7445 -0.514841 8.38113e-05 10
26.5865 -12.7381 0.514585 8.38193e-05 10
18.9001 -9.05542 1.09833 0.000142589 10
18.9547 -9.08159 1.83884 0.000107919 10
21.6788 -10.3868 3.80735 0.000143144 10
18.8946 -9.05277 4.07252 0.000131778 10
18.8883 -9.04975 4.83538 0.000127308 10
18.9416 -9.07531 5.62787 9.35293e-05 10
8.9127 -4.23206 -2.6437 0.000324286 4
10.3166 -4.89869 -2.63665 7.73252e-05 4
11.7418 -5.57541 -2.5266 0.000110046 4
15.4493 -7.33586 -2.70877 5.0138e-05 1
17.3889 -8.25686 -2.36356 0.000429439 10
26.7057 -12.6808 -1.54935 8.23264e-05 10
26.702 -12.679 -0.51596 8.28737e-05 10
26.6997 -12.6779 0.515915 8.28816e-05 10
18.8287 -8.94053 1.09236 0.000146497 10
18.8164 -8.93469 1.82238 0.000144896 10
21.7571 -10.331 3.81474 0.000141665 10
18.8236 -8.93812 4.05048 0.000135411 10
18.8195 -8.93616 4.80976 0.000130827 10
18.8332 -8.94269 5.58636 0.000125625 10
8.91965 -4.19727 -2.6414 0.000229819 4
10.3427 -4.86691 -2.63896 5.79968e-05 4
11.7653 -5.53632 -2.52749 0.0001259 4
15.4761 -7.28252 -2.709 5.0142e-05 1
17.4478 -8.2103 -2.36765 0.000425322 10
26.8053 -12.6136 -1.55257 8.13968e-05 10
26.7953 -12.6089 -0.51691 8.19384e-05 10
26.7997 -12.611 0.516995 8.19463e-05 10
18.761 -8.82827 1.08664 0.000150472 10
18.7923 -8.843 1.81705 0.000113895 10
21.8316 -10.2732 3.82148 0.000140189 10
18.7404 -8.81857 4.02592 0.000139107 10
18.7391 -8.81794 4.7813 0.000134407 10
18.7966 -8.84501 5.56629 9.87649e-05 10
8.94208 -4.16976 -2.64372 0.000120021 4
10.3679 -4.83462 -2.64106 2.97434e-05 4
11.773 -5.48983 -2.52501 0.000103896 4
15.4979 -7.2268 -2.70838 5.0146e-05 1
17.5031 -8.16184 -2.37128 0.000421209 10
26.8913 -12.5396 -1.55501 8.04695e-05 10
26.8925 -12.5402 -0.517937 8.10054e-05 10
26.8847 -12.5366 0.517787 8.10132e-05 10
18.6904 -8.71549 1.08078 0.000154515 10
18.725 -8.73162 1.80758 0.00011696 10
21.9206 -10.2217 3.8308 0.000138716 10
18.6641 -8.70323 4.00299 0.000142865 10
18.6649 -8.70359 4.7546 0.000138048 10
18.714 -8.72651 5.53279 0.000101451 10
8.95541 -4.13798 -2.64337 0.000474998 4
10.3872 -4.79955 -2.64169 0.000132365 4
11.7821 -5.44408 -2.52286 0.000121513 4
15.5442 -7.18241 -2.71207 5.01501e-05 1
17.5895 -8.12749 -2.37913 0.000417101 10
27.005 -12.4781 -1.55905 7.95448e-05 10
27.0116 -12.4811 -0.519389 8.00751e-05 10
27.0063 -12.4787 0.519286 8.00828e-05 10
18.5997 -8.59426 1.0738 0.000158625 10
18.6337 -8.60997 1.79585 0.000120076 10
22.009 -10.1696 3.84003 0.000137245 10
18.5952 -8.5922 3.98175 0.000146687 10
18.5929 -8.59112 4.72859 0.000141751 10
18.6192 -8.60329 5.49585 0.000104182 10
8.95667 -4.10068 -2.6395 0.000186432 4
10.4029 -4.76281 -2.64144 8.62644e-05 4
11.8188 -5.41107 -2.52667 0.000103908 4
15.5585 -7.12322 -2.71021 5.01541e-05 1
17.6532 -8.08227 -2.38391 0.000412999 10
22.547 -10.3228 -1.2996 0.000105556 10
22.5566 -10.3272 -0.43303 0.000106242 10
22.5559 -10.3269 0.433018 0.000106286 10
18.5745 -8.50406 1.78728 0.000123243 10
22.0918 -10.1144 3.84828 0.000135777 10
18.529 -8.48324 3.96121 0.000150573 10
18.5258 -8.48176 4.70396 0.000145515 10
18.5594 -8.49717 5.46941 0.000106959 10
8.98865 -4.07743 -2.64472 0.000140468 4
10.4183 -4.72595 -2.64115 6.84199e-05 4
11.8327 -5.36754 -2.52562 0.000110079 4
15.5986 -7.07582 -2.71287 5.0158e-05 1
17.7108 -8.03399 -2.38789 0.000408902 10
22.4577 -10.1873 -2.1575 0.000107169 10
22.475 -10.1951 -1.29338 0.000108522 10
22.4493 -10.1835 -0.430285 0.000109225 10
22.4631 -10.1897 0.430549 0.00010927 10
18.4881 -8.38658 1.77614 0.000126462 10
22.2481 -10.0922 2.99964 0.000164236 10
22.1558 -10.0503 3.85329 0.000134313 10
18.4546 -8.37137 3.93903 0.000154521 10
18.4491 -8.36887 4.67704 0.000149341 10
18.476 -8.38107 5.43616 0.000109782 10
8.99205 -4.04119 -2.64155 0.000211988 4
10.4158 -4.68103 -2.63635 4.01615e-05 4
11.8735 -5.33615 -2.53034 0.000328928 4
15.6069 -7.01404 -2.71006 5.0162e-05 1
17.7956 -7.99767 -2.39555 0.000404812 10
22.382 -10.0589 -2.14684 0.000110154 10
22.394 -10.0643 -1.28669 0.00017577 10
22.3908 -10.0628 -0.428488 0.000176851 10
22.3804 -10.0581 0.428288 0.000176867 10
18.42 -8.27829 1.76681 0.000129732 10
22.3263 -10.0338 3.00544 0.00010315 10
22.2447 -9.99718 3.86267 0.000132852 10
18.3719 -8.25666 3.9152 0.000158534 10
18.3691 -8.25541 4.64943 0.000153229 10
18.4233 -8.27978 5.41214 0.000112651 10
8.99927 -4.00673 -2.63955 8.17335e-05 4
10.4569 -4.65571 -2.64264 0.000132391 4
11.916 -5.30537 -2.53545 0.000361569 4
15.624 -6.95627 -2.70879 5.01659e-05 1
17.8561 -7.95004 -2.39994 0.000400728 10
22.2917 -9.92492 -2.13484 0.000113191 10
22.285 -9.9219 -1.27843 7.57045e-05 10
22.2797 -9.91954 -0.425696 7.61928e-05 10
22.2952 -9.92648 0.425994 7.62234e-05 10
18.3351 -8.16333 1.75592 0.000133055 10
22.3158 -9.93561 2.99934 0.000163707 10
22.2634 -9.91228 3.85987 8.48229e-05 10
18.3151 -8.15441 3.89701 0.000162611 10
18.3139 -8.15388 4.62823 0.00015718 10
18.3478 -8.16896 5.38153 0.000115567 10
9.00865 -3.97329 -2.63822 7.66282e-05 4
10.4538 -4.61067 -2.63776 8.77688e-05 4
11.9526 -5.27174 -2.5393 0.000297469 4
14.5624 -6.42277 -2.52082 5.41886e-05 4
17.9246 -7.90567 -2.40542 0.000396652 10
22.1998 -9.79128 -2.12275 0.000116281 10
22.2791 -9.82628 -1.27612 0.000118912 10
22.2998 -9.8354 -0.425423 0.000119642 10
22.2857 -9.82916 0.425153 0.000119653 10
18.2629 -8.05491 1.7463 0.000136429 10
22.2932 -9.83249 2.99168 0.000105743 10
22.194 -9.78874 3.84191 8.71442e-05 10
18.2322 -8.04136 3.87337 0.000166752 10
18.2186 -8.03538 4.59703 0.000161193 10
18.2619 -8.05447 5.34807 0.000118528 10
9.02293 -3.94202 -2.63835 0.000237557 4
10.4716 -4.57493 -2.63821 5.20688e-05 4
11.9924 -5.23937 -2.54385 0.000390924 4
14.5979 -6.37766 -2.5231 4.18058e-05 4
17.9769 -7.85393 -2.40875 0.000392582 10
22.1237 -9.66563 -2.11224 0.000119423 10
22.114 -9.66138 -1.26473 7.98681e-05 10
22.1227 -9.6652 -0.421399 8.03807e-05 10
22.1116 -9.66031 0.421185 8.04125e-05 10
18.2036 -7.95296 1.73797 0.000139856 10
22.094 -9.65262 3.81873 8.95055e-05 10
18.1508 -7.92987 3.85017 0.000170958 10
18.1634 -7.93542 4.57609 0.000165269 10
18.2054 -7.95376 5.32336 0.000121537 10
9.04476 -3.91402 -2.64072 0.000140496 4
10.4935 -4.54094 -2.63971 8.18262e-05 4
12.0502 -5.21457 -2.55222 0.000301576 4
14.6119 -6.32316 -2.5217 4.25832e-05 4
18.0595 -7.81503 -2.41614 0.000388521 10
22.0336 -9.53479 -2.10044 0.000122619 10
22.1614 -9.59012 -1.26552 0.000122516 10
22.1783 -9.59739 -0.421815 0.000123265 10
22.1759 -9.59636 0.42177 0.000123276 10
