VERSION 0.7
FIELDS x y z intensity label
SIZE 4 4 4 4 4
TYPE F F F F F
COUNT 1 1 1 1 1
WIDTH 1207
HEIGHT 1
VIEWPOINT 1.38302 15.96 2.72861 0.826632 -0.000363491 0.000699386 0.562742
POINTS 1207
DATA ascii
2.64789 5.47743 1.40457 0.00711419 10
2.6501 5.48199 1.63153 0.00689972 10
2.61772 5.4636 -1.62333 0.00898519 10
2.62581 5.48048 -1.403 0.00926167 10
2.61817 5.46453 -1.17782 0.00950363 10
2.62153 5.47154 -0.96094 0.00970872 10
2.62958 5.48835 -0.74724 0.00987496 10
2.61756 5.46327 -0.530004 0.0100007 10
2.62794 5.48492 -0.318743 0.0100848 10
2.62312 5.47486 -0.105967 0.0101264 10
2.761 5.76265 0.111537 0.00960769 10
2.76446 5.76986 0.335301 0.00956891 10
2.75933 5.75916 0.558708 0.00948949 10
2.75391 5.74785 0.782571 0.0093702 10
2.76367 5.76822 1.01304 0.00921224 10
2.44347 5.09991 1.09923 0.0122325 10
2.61849 5.4652 1.39908 0.00720865 10
2.62183 5.47218 1.62587 0.00699145 10
2.59079 5.45618 -1.61842 0.00910368 10
2.59144 5.45757 -1.39481 0.00938366 10
2.59252 5.45983 -1.17485 0.00962867 10
2.58994 5.4544 -0.956336 0.00983637 10
2.59581 5.46676 -0.743062 0.0100047 10
2.599 5.47348 -0.530111 0.0101321 10
2.59846 5.47234 -0.317483 0.0102172 10
2.5943 5.46358 -0.105572 0.0102593 10
2.7505 5.79254 0.111929 0.00949859 10
2.75429 5.80052 0.336522 0.00946023 10
2.75049 5.79253 0.56101 0.00938168 10
2.74728 5.78577 0.786422 0.00926371 10
2.74843 5.78817 1.01486 0.00910748 10
2.42881 5.11505 1.10066 0.0120956 10
2.59463 5.46428 1.39652 0.00730366 10
2.60137 5.47848 1.62504 0.00708371 10
2.56554 5.45204 -1.61453 0.00922281 10
2.57041 5.46239 -1.39374 0.00950631 10
2.56494 5.45076 -1.17097 0.0097544 10
2.56209 5.44472 -0.953064 0.00996469 10
2.56217 5.44489 -0.738869 0.0101351 10
2.57078 5.46318 -0.52824 0.0102641 10
2.56034 5.44099 -0.315144 0.0103503 10
2.56481 5.4505 -0.105146 0.010393 10
2.74373 5.83073 0.112481 0.00938995 10
2.74182 5.82666 0.337482 0.00935201 10
2.741 5.82492 0.563218 0.00927433 10
2.74236 5.82781 0.790831 0.00915765 10
2.73077 5.80318 1.01581 0.00900314 10
2.41714 5.13667 1.10349 0.0119593 10
2.56166 5.4438 1.389 0.00739917 10
2.57277 5.46741 1.61908 0.00717647 10
2.53691 5.44041 -1.60845 0.00934261 10
2.53442 5.43508 -1.3845 0.00962964 10
2.53964 5.44627 -1.16809 0.00988082 10
2.53759 5.44188 -0.951012 0.0100937 10
2.53394 5.43405 -0.736193 0.0102663 10
2.53867 5.4442 -0.525545 0.0103969 10
2.54095 5.44909 -0.315097 0.0104842 10
2.53462 5.43552 -0.104686 0.0105274 10
2.72782 5.84984 0.112665 0.00928171 10
2.72616 5.84626 0.338064 0.00924421 10
2.73032 5.8552 0.56522 0.00916739 10
2.72548 5.84481 0.791842 0.00905202 10
2.73036 5.85529 1.02326 0.00889922 10
2.40981 5.16785 1.10837 0.0118235 10
2.53838 5.44358 1.38667 0.00749522 10
2.54475 5.45723 1.61343 0.00726975 10
2.50385 5.41882 -1.59948 0.00946302 10
2.51198 5.43643 -1.38261 0.00975361 10
2.50611 5.42371 -1.16137 0.0100079 10
2.50898 5.42992 -0.947385 0.0102235 10
2.50608 5.42365 -0.733595 0.0103982 10
2.51218 5.43686 -0.523987 0.0105304 10
2.50462 5.42049 -0.312935 0.0106187 10
2.50683 5.42527 -0.104319 0.0106624 10
2.71556 5.87702 0.113005 0.00917395 10
2.72009 5.88682 0.339857 0.00913687 10
2.71935 5.88521 0.567197 0.00906092 10
2.71058 5.86624 0.793458 0.00894683 10
2.70875 5.86227 1.02282 0.00879575 10
2.40617 5.20742 1.11505 0.0116883 10
2.50845 5.42878 1.38066 0.00759177 10
2.50724 5.42617 1.60165 0.00736351 10
2.49188 5.44273 -1.60396 0.00979854 10
2.49924 5.45882 -1.38607 0.0101035 10
2.49522 5.45004 -1.16513 0.010371 10
2.4906 5.43994 -0.94761 0.0105984 10
2.49903 5.45836 -0.737104 0.0107836 10
2.49638 5.45256 -0.524657 0.0109248 10
2.49075 5.44027 -0.313574 0.0110205 10
2.4909 5.44059 -0.104446 0.0110699 10
2.69808 5.89311 0.113133 0.00906663 10
2.70784 5.91444 0.340905 0.00902998 10
2.69822 5.89342 0.567077 0.00895488 10
2.70523 5.90874 0.797925 0.00884209 10
2.70041 5.89821 1.02744 0.0086927 10
2.39065 5.22163 1.1163 0.0115536 10
2.48856 5.43549 1.38015 0.00790231 10
2.49618 5.45213 1.60673 0.00766766 10
2.4903 5.48984 -1.61527 0.00968376 10
2.48549 5.47922 -1.38904 0.00998527 10
2.48915 5.48731 -1.17124 0.0102498 10
2.48487 5.47787 -0.952701 0.0104747 10
2.48833 5.4855 -0.739592 0.0106578 10
2.49024 5.4897 -0.527391 0.0107974 10
2.48809 5.48496 -0.315647 0.0108921 10
2.48608 5.48053 -0.105045 0.0109409 10
2.69414 5.9392 0.113836 0.00895979 10
2.69037 5.93089 0.341309 0.00892356 10
2.69558 5.94238 0.57088 0.00884931 10
2.69396 5.9388 0.80071 0.0087378 10
2.69066 5.93152 1.0316 0.00859011 10
2.37455 5.23467 1.11731 0.0114194 10
2.48123 5.46984 1.38666 0.00780995 10
2.48239 5.4724 1.61014 0.00757794 10
2.46954 5.49496 -1.61423 0.00956947 10
2.47571 5.5087 -1.39432 0.00986758 10
2.48006 5.51837 -1.17601 0.0101291 10
2.47092 5.49803 -0.954702 0.0103514 10
2.47268 5.50197 -0.740645 0.0105325 10
2.48023 5.51876 -0.529348 0.0106705 10
2.47299 5.50264 -0.316166 0.0107642 10
2.47634 5.5101 -0.105446 0.0108125 10
2.68087 5.9652 0.114155 0.00885342 10
2.68486 5.97409 0.343254 0.0088176 10
2.67987 5.96298 0.571957 0.00874422 10
2.68448 5.97323 0.804083 0.00863398 10
2.68459 5.97349 1.03726 0.00848798 10
2.37447 5.28344 1.12594 0.0112859 10
2.47787 5.5135 1.39553 0.00771799 10
2.46679 5.48885 1.61243 0.00748861 10
2.45876 5.52247 -1.61978 0.00945568 10
2.46599 5.5387 -1.39972 0.0097504 10
2.46955 5.5467 -1.1802 0.0100089 10
2.46096 5.52742 -0.958307 0.0102288 10
2.45998 5.52521 -0.742613 0.0104078 10
2.46739 5.54185 -0.530734 0.0105443 10
2.46095 5.52738 -0.317092 0.0106368 10
2.46237 5.53058 -0.105673 0.0106846 10
2.66661 5.9893 0.114437 0.00874751 10
2.66482 5.98527 0.34336 0.00871211 10
2.67145 6.00018 0.574627 0.00863957 10
2.67105 5.99929 0.806331 0.00853061 10
2.66894 5.99453 1.03929 0.00838629 10
2.35594 5.29153 1.12591 0.0111529 10
2.46344 5.53298 1.39828 0.00762643 10
2.46708 5.54114 1.62525 0.00739966 10
2.66157 6.03458 0.115124 0.0086421 10
2.66025 6.03158 0.345482 0.00860712 10
2.66048 6.03211 0.576791 0.00853543 10
2.65245 6.0139 0.807045 0.00842772 10
2.65942 6.02972 1.04378 0.00828508 10
2.35095 5.3303 1.13241 0.0110205 10
2.64074 6.0444 0.115135 0.00853717 10
2.64919 6.06375 0.346792 0.0085026 10
2.64291 6.04939 0.577558 0.00843175 10
2.64419 6.05231 0.810957 0.00832531 10
2.64274 6.04899 1.04551 0.00818433 10
2.34323 5.36344 1.1377 0.0108887 10
2.63445 6.08785 0.115787 0.00843275 10
2.63711 6.09399 0.347993 0.00839859 10
2.63664 6.0929 0.58083 0.00832858 10
2.62629 6.069 0.81196 0.00822339 10
2.62668 6.0699 1.04753 0.00808408 10
2.32286 5.36781 1.1369 0.0107575 10
2.62547 6.12567 0.116331 0.00832883 10
2.61511 6.10152 0.3479 0.00829508 10
2.61528 6.10191 0.580815 0.0082259 10
2.62485 6.12423 0.818117 0.00812196 10
2.62049 6.11406 1.05357 0.0079843 10
2.3134 5.39756 1.14148 0.010627 10
2.60859 6.14545 0.116533 0.00822542 10
2.60811 6.14431 0.349819 0.00819208 10
2.61204 6.15357 0.584862 0.00812373 10
2.61339 6.15675 0.821239 0.00802104 10
2.60662 6.1408 1.0566 0.00178763 10
2.30721 5.43545 1.14779 0.010497 10
2.59223 6.16666 0.116763 0.00812253 10
2.59849 6.18157 0.351421 0.00808959 10
2.59655 6.17695 0.586219 0.00802207 10
2.59024 6.16193 0.820718 0.00792061 10
2.57694 6.13031 1.05324 0.00178785 10
2.2926 5.45387 1.14998 0.0103677 10
2.57815 6.1936 0.117102 0.00802017 10
2.58501 6.21007 0.352527 0.00798764 10
2.58648 6.21362 0.588838 0.00792093 10
2.58718 6.21529 0.826617 0.00782071 10
2.5621 6.15504 1.05595 0.00178806 10
2.28146 5.48085 1.15398 0.0102391 10
2.61769 6.35098 -1.84062 0.00697241 10
2.61983 6.35618 -1.5872 0.00719106 10
2.61279 6.3391 -1.33276 0.0073825 10
2.61799 6.35171 -1.08811 0.00754483 10
2.61785 6.35137 -0.843495 0.00767646 10
2.61511 6.34473 -0.600395 0.00777608 10
2.6167 6.34858 -0.359869 0.00784271 10
2.61852 6.35299 -0.119942 0.00787569 10
2.57479 6.2469 0.117939 0.00791834 10
2.5679 6.23017 0.353157 0.00788621 10
2.57476 6.24683 0.59113 0.00782032 10
2.57368 6.24421 0.829264 0.00772133 10
2.5308 6.14016 1.05187 0.00178827 10
2.27716 5.5248 1.16156 0.010111 10
2.59823 6.36678 -1.84256 0.00665297 10
2.59558 6.36028 -1.58595 0.00686442 10
2.59966 6.37028 -1.3374 0.00704999 10
2.60156 6.37493 -1.09053 0.00720786 10
2.59481 6.35838 -0.843219 0.00733646 10
2.59275 6.35334 -0.600349 0.00743452 10
2.59694 6.36361 -0.360205 0.00750108 10
2.5953 6.35958 -0.119895 0.00753547 10
2.55648 6.26446 0.118101 0.00781703 10
2.55646 6.26441 0.35459 0.00778531 10
2.55526 6.26147 0.591668 0.00772024 10
2.55699 6.26571 0.830928 0.00762246 10
2.51953 6.17391 1.05614 0.00178848 10
2.26296 5.54521 1.16418 0.00998368 10
2.5908 6.34856 1.58303 0.00342809 10
2.58966 6.34576 1.83648 0.00332427 10
2.58893 6.40781 -1.85181 0.00656652 10
2.58861 6.40703 -1.59535 0.00677535 10
2.58391 6.39539 -1.34077 0.00695863 10
2.58612 6.40086 -1.09341 0.00711454 10
2.5865 6.4018 -0.847774 0.00724156 10
2.58186 6.39033 -0.602989 0.00733842 10
2.58066 6.38735 -0.361036 0.00740416 10
2.58614 6.40092 -0.120503 0.00743813 10
2.54816 6.30692 0.118733 0.00771628 10
2.5518 6.31591 0.356998 0.00768496 10
2.54116 6.28959 0.593483 0.0076207 10
2.54881 6.30852 0.835421 0.00752413 10
2.4933 6.17112 1.05417 0.00178869 10
2.25162 5.57295 1.16835 0.00985699 10
2.58192 6.39047 1.59122 0.00338366 10
2.58439 6.39658 1.84856 0.00328113 10
2.53286 6.3326 0.11905 0.00761607 10
2.52941 6.32398 0.356953 0.00758514 10
2.53755 6.34433 0.597809 0.00752169 10
2.52896 6.32284 0.836144 0.00742633 10
2.47635 6.19131 1.05614 0.00178891 10
2.23816 5.59579 1.17149 0.00973096 10
2.52534 6.37828 0.119742 0.00751643 10
2.51799 6.35972 0.358472 0.00748589 10
2.51564 6.35378 0.597868 0.00742324 10
2.52517 6.37785 0.842247 0.00732908 10
2.44544 6.17647 1.05214 0.00178912 10
2.23162 5.63643 1.17836 0.00960561 10
2.50299 6.38687 0.119738 0.00741734 10
2.5081 6.39992 0.360242 0.00738719 10
2.50568 6.39374 0.600801 0.00732534 10
2.51024 6.40538 0.844721 0.00723237 10
2.42751 6.19428 1.05373 0.00178933 10
2.21527 5.65271 1.18014 0.00948095 10
2.49467 6.43165 0.120414 0.00731882 10
2.49488 6.43217 0.361565 0.00728907 10
2.49818 6.44069 0.60439 0.007228 10
2.49467 6.43163 0.847029 0.00713623 10
2.40133 6.191 1.05174 0.00178955 10
2.20151 5.67583 1.18335 0.00935699 10
2.48406 6.47119 0.120991 0.00722087 10
2.47752 6.45417 0.362314 0.0071915 10
2.47922 6.4586 0.605255 0.00713122 10
2.48085 6.46283 0.849992 0.00704064 10
2.38331 6.20875 1.05333 0.00178976 10
2.19315 5.71335 1.18957 0.00923371 10
2.47339 6.51125 0.121578 0.0071235 10
2.46651 6.49313 0.364015 0.00709453 10
2.47349 6.5115 0.609399 0.00703504 10
2.47118 6.50542 0.854454 0.00694562 10
2.36366 6.22237 1.05424 0.00178997 10
2.18235 5.74507 1.19458 0.00911117 10
2.45284 6.52566 0.121686 0.00702673 10
2.4563 6.53488 0.365873 0.00699813 10
2.45099 6.52075 0.609461 0.00693942 10
2.45689 6.53645 0.857398 0.00685118 10
2.33887 6.22245 1.05286 0.00179019 10
2.1723 5.77931 1.20012 0.00898933 10
2.48622 6.68523 -1.64668 0.00209214 10
2.44632 6.57795 0.122501 0.00693052 10
2.44376 6.57107 0.367419 0.00690231 10
2.44377 6.57111 0.613366 0.00684437 10
2.4461 6.57736 0.861638 0.00675729 10
2.31946 6.23685 1.05392 0.0017904 10
2.16318 5.81662 1.20629 0.00886821 10
2.46692 6.70489 -1.6494 0.00599641 10
2.42731 6.59724 0.122702 0.00683493 10
2.42755 6.59788 0.368442 0.0068071 10
2.4262 6.59422 0.61473 0.00674993 10
2.4267 6.59556 0.862908 0.00666401 10
2.29309 6.23244 1.05182 0.00179062 10
2.14421 5.82779 1.20705 0.00874783 10
2.45026 6.73203 -1.65396 0.00591248 10
2.41491 6.63492 0.123246 0.00673992 10
2.41568 6.63703 0.370155 0.00671247 10
2.40967 6.6205 0.616392 0.00665607 10
2.41363 6.6314 0.866489 0.00657129 10
2.27907 6.26169 1.0554 0.00179083 10
2.13132 5.85575 1.21129 0.00862816 10
2.4421 6.78319 -1.66442 0.0058291 10
2.39878 6.66285 0.123608 0.00664553 10
2.40098 6.66897 0.371467 0.00661845 10
2.40368 6.67646 0.620817 0.00656282 10
2.40511 6.68043 0.871794 0.00647918 10
2.25688 6.26873 1.05525 0.00179105 10
2.12712 5.90831 1.22062 0.00850926 10
2.42619 6.81354 -1.66978 0.00574624 10
2.3914 6.71582 0.124435 0.00655175 10
2.38844 6.70753 0.373148 0.00652503 10
2.39033 6.71283 0.623419 0.00647016 10
2.38602 6.70074 0.873351 0.00638766 10
2.22831 6.25781 1.0521 0.00179126 10
2.11011 5.92589 1.22272 0.00839109 10
2.41026 6.84431 -1.67525 0.00566396 10
2.3761 6.74729 0.124864 0.00645858 10
2.36922 6.72775 0.37381 0.00643224 10
2.36872 6.72633 0.623901 0.00637812 10
2.36956 6.72872 0.875915 0.00629675 10
2.20646 6.26557 1.0521 0.00179148 10
2.09475 5.94836 1.22584 0.00827369 10
2.39145 6.86732 -1.67883 0.00558222 10
2.35944 6.77539 0.12523 0.00636603 10
2.36053 6.77852 0.376171 0.00634005 10
2.35882 6.77361 0.627519 0.00628668 10
2.35448 6.76116 0.879062 0.00620643 10
2.18656 6.27893 1.05306 0.00179169 10
2.08197 5.97861 1.23057 0.00815704 10
2.37656 6.90202 -1.68527 0.00550104 10
2.3464 6.81445 0.1258 0.00627411 10
2.34811 6.81941 0.377983 0.0062485 10
2.34074 6.798 0.629018 0.00619587 10
2.34719 6.81674 0.885218 0.00611674 10
2.16667 6.29245 1.05405 0.00179191 10
2.36573 6.94929 -1.967 0.00618998 10
2.36692 6.95278 -1.69564 0.00542043 10
2.36633 6.95105 -1.4273 0.0065583 10
2.3636 6.94303 -1.16164 0.00670416 10
2.36578 6.94944 -0.901373 0.00682246 10
2.36768 6.955 -0.642776 0.00691203 10
2.36836 6.95702 -0.38515 0.00697195 10
2.36461 6.946 -0.128076 0.00700163 10
2.33489 6.85868 0.126466 0.00618282 10
2.33492 6.85878 0.379711 0.00615758 10
2.33344 6.85443 0.633482 0.00610569 10
2.32618 6.83309 0.886282 0.00602766 10
2.14323 6.29569 1.05334 0.00179212 10
2.36589 6.94976 1.42703 0.00325995 10
2.37279 6.97003 1.69985 0.00317365 10
2.36531 6.94806 1.96665 0.00307526 10
2.35422 6.99541 -1.97771 0.00517391 10
2.35206 6.98899 -1.70246 0.00534038 10
2.35278 6.99113 -1.43383 0.00548652 10
2.35062 6.98474 -1.16724 0.00561089 10
2.34994 6.98269 -0.904616 0.00571225 10
2.35024 6.98359 -0.644657 0.00578958 10
2.34986 6.98247 -0.386103 0.0058421 10
2.35506 6.99791 -0.128881 0.00586929 10
2.31331 6.87387 0.126596 0.00609216 10
2.32148 6.89813 0.381439 0.00606728 10
2.31848 6.88922 0.635945 0.00601612 10
2.31489 6.87857 0.891127 0.00593919 10
2.11726 6.29132 1.05136 0.00179234 10
2.35384 6.9943 1.43448 0.00273918 10
2.34919 6.98048 1.70039 0.00266773 10
2.34545 6.96935 1.97035 0.00258608 10
2.33064 7.00615 -1.97844 0.00614949 10
2.32933 7.00221 -1.70369 0.00634473 10
2.32921 7.00186 -1.43435 0.00651572 10
2.33053 7.00584 -1.1694 0.00666075 10
2.33354 7.01487 -0.907725 0.00677838 10
2.3303 7.00513 -0.64589 0.00686744 10
2.33203 7.01032 -0.38719 0.00692703 10
2.33419 7.01684 -0.129078 0.00695655 10
2.29844 6.90936 0.127101 0.00600215 10
2.2979 6.90774 0.381524 0.00597762 10
2.3039 6.92578 0.638573 0.00592719 10
2.30033 6.91503 0.894805 0.00585136 10
2.10123 6.31651 1.05434 0.00179256 10
2.33086 7.00682 1.43537 0.0032388 10
2.32833 6.9992 1.70295 0.003153 10
2.32758 6.99696 1.97584 0.00305517 10
2.30119 6.9991 -1.97417 0.00621436 10
2.2958 6.98271 -1.69698 0.00641156 10
2.29893 6.99223 -1.43073 0.00658427 10
2.29861 6.99127 -1.16562 0.00673075 10
2.29766 6.98836 -0.90325 0.00684957 10
2.30204 7.0017 -0.644829 0.00693952 10
2.29697 6.98628 -0.385417 0.00699971 10
2.30379 7.00702 -0.128749 0.00702953 10
2.29127 6.96894 0.128049 0.00591277 10
2.28636 6.95399 0.383636 0.0058886 10
2.28467 6.94887 0.639964 0.00583889 10
2.28487 6.94947 0.898224 0.00576414 10
2.07946 6.32473 1.05449 0.00179277 10
2.30321 7.00524 1.43339 0.00327289 10
2.29729 6.98724 1.69808 0.00318622 10
2.29578 6.98266 1.96953 0.00308742 10
2.27895 7.01389 -1.97608 0.0051327 10
2.27575 7.00405 -1.70023 0.00529781 10
2.27713 7.0083 -1.43238 0.00544277 10
2.26987 6.98594 -1.16341 0.00556613 10
2.27735 7.00895 -0.904878 0.00566667 10
2.27209 6.99277 -0.643273 0.00574337 10
2.2727 6.99463 -0.385438 0.00579548 10
2.27621 7.00546 -0.128574 0.00582247 10
2.27708 7.00813 0.128623 0.00582405 10
2.27367 6.99763 0.385603 0.00580023 10
2.27629 7.0057 0.644461 0.00575124 10
2.27346 6.99698 0.903333 0.00567757 10
2.05664 6.32968 1.05411 0.00179299 10
2.27654 7.00646 1.432 0.00271743 10
2.27111 6.98976 1.69676 0.00264658 10
2.27221 6.99313 1.97023 0.00256561 10
2.25005 7.00808 -1.97222 0.00625792 10
2.2532 7.01789 -1.70167 0.00645649 10
2.24893 7.00461 -1.43001 0.0066304 10
2.24713 6.99899 -1.16426 0.00677791 10
2.2459 6.99515 -0.90208 0.00689756 10
2.25073 7.01022 -0.64415 0.00698814 10
2.24796 7.00159 -0.385387 0.00704875 10
2.24643 6.99682 -0.12827 0.00707878 10
2.257 7.02974 0.128874 0.00573597 10
2.26077 7.04148 0.387582 0.0057125 10
2.2565 7.02817 0.6458 0.00566422 10
2.2616 7.04407 0.908389 0.00559162 10
2.03646 6.34283 1.05511 0.0017932 10
2.25134 7.01212 1.43155 0.00516283 10
2.25274 7.01647 1.70132 0.00502614 10
2.24626 6.99629 1.9689 0.00487029 10
2.21968 6.99732 -1.967 0.00632249 10
2.21539 6.98378 -1.69151 0.00652301 10
2.21404 6.97954 -1.42331 0.00669863 10
2.21731 6.98986 -1.16145 0.00684759 10
2.22206 7.00483 -0.902322 0.00696841 10
2.21687 6.98845 -0.641436 0.00705988 10
2.21669 6.98788 -0.384203 0.00712108 10
2.21512 6.98293 -0.127873 0.00715141 10
2.23955 7.05996 0.129284 0.00564855 10
2.23951 7.05984 0.38816 0.00562544 10
2.24316 7.07134 0.649043 0.00557787 10
2.2448 7.07649 0.911553 0.00550633 10
2.00651 6.32532 1.05103 0.00179342 10
2.21826 6.99283 1.42602 0.00521598 10
2.21919 6.99577 1.69442 0.00507795 10
2.21784 6.9915 1.96537 0.00492057 10
2.18702 6.97877 -1.95963 0.00638722 10
2.18939 6.98634 -1.69027 0.00658971 10
2.1863 6.97648 -1.42112 0.00676703 10
2.18488 6.97196 -1.1572 0.00691745 10
2.19109 6.99177 -0.89965 0.00703944 10
2.18818 6.98247 -0.640181 0.00713181 10
2.18391 6.96887 -0.382737 0.00719361 10
2.18894 6.98492 -0.127769 0.00722424 10
2.2271 7.10666 0.129996 0.0055618 10
2.23127 7.12 0.391037 0.00553903 10
2.23014 7.11639 0.65246 0.00549216 10
2.23082 7.11856 0.915963 0.00542168 10
1.98907 6.34713 1.05349 0.00179364 10
2.18763 6.98073 1.42199 0.00526927 10
2.1885 6.9835 1.68958 0.00512989 10
2.18879 6.98441 1.96121 0.00497098 10
2.15582 6.96433 -1.95345 0.00645212 10
2.16112 6.98143 -1.68725 0.00665657 10
2.15578 6.96421 -1.41708 0.00683562 10
2.16032 6.97887 -1.15709 0.00698749 10
2.15533 6.96275 -0.894941 0.00711067 10
2.16018 6.97842 -0.639115 0.00720393 10
2.15297 6.95513 -0.381567 0.00726633 10
2.15505 6.96184 -0.127208 0.00729725 10
2.21002 7.13942 0.130453 0.0054757 10
2.2158 7.15808 0.392701 0.00545327 10
2.20955 7.13789 0.65372 0.00540711 10
2.21384 7.15176 0.919236 0.00533767 10
1.96514 6.34835 1.05255 0.00179386 10
2.16208 6.98455 1.42122 0.0053227 10
2.15487 6.96127 1.68237 0.00518197 10
2.16193 6.98407 1.95899 0.00502152 10
2.12642 6.95519 -1.94879 0.00651718 10
2.12954 6.9654 -1.68157 0.0067236 10
2.12934 6.96476 -1.41567 0.00690437 10
2.1229 6.9437 -1.15003 0.0070577 10
2.12553 6.95227 -0.892636 0.00718206 10
2.13052 6.9686 -0.63753 0.00727621 10
2.12923 6.96439 -0.381665 0.00733922 10
2.12548 6.95212 -0.126894 0.00737043 10
2.19687 7.18563 0.131157 0.00539028 10
2.19929 7.19353 0.394223 0.00536819 10
2.19822 7.19003 0.657789 0.00532272 10
2.19957 7.19445 0.923731 0.00525433 10
1.94388 6.35814 1.05304 0.00179407 10
2.13111 6.97053 1.41684 0.00537625 10
2.12982 6.96632 1.68179 0.00523418 10
2.12536 6.95174 1.94782 0.00507218 10
2.09736 6.94679 -1.94437 0.00658241 10
2.09337 6.93359 -1.67211 0.00679079 10
2.09438 6.93693 -1.40852 0.00697329 10
2.09657 6.94418 -1.14889 0.00712808 10
2.09866 6.95111 -0.89154 0.00725362 10
2.09258 6.93097 -0.633416 0.00734868 10
2.09324 6.93313 -0.379549 0.00741228 10
2.09584 6.94176 -0.126571 0.0074438 10
2.17952 7.21892 0.131624 0.00530552 10
2.17928 7.21811 0.39515 0.00528376 10
2.17897 7.2171 0.659565 0.00523898 10
2.18066 7.2227 0.926374 0.00517163 10
1.92798 6.38577 1.0565 0.00696699 10
2.09462 6.93772 1.40868 0.00542994 10
2.09408 6.93592 1.67267 0.00528651 10
2.10052 6.95725 1.9473 0.00512298 10
2.06932 6.94139 -1.94083 0.00664777 10
2.06997 6.94358 -1.67277 0.00685813 10
2.06802 6.93703 -1.40706 0.00704235 10
2.0707 6.94602 -1.14799 0.00719861 10
2.0632 6.92085 -0.88673 0.00732534 10
2.06969 6.94262 -0.633816 0.00742129 10
2.07021 6.94436 -0.379766 0.00748549 10
2.06684 6.93309 -0.126281 0.00751731 10
2.16384 7.25845 0.132207 0.00522144 10
2.16839 7.2737 0.397777 0.00520002 10
2.16497 7.26224 0.662995 0.00515593 10
2.16321 7.25635 0.929716 0.00508959 10
1.91194 6.41348 1.05997 0.00685854 10
2.06349 6.92185 1.40399 0.00548374 10
2.06379 6.92285 1.66777 0.00533896 10
2.06945 6.94184 1.94095 0.00517388 10
2.03875 6.92707 -1.93482 0.00671328 10
2.03436 6.91215 -1.66348 0.00692562 10
2.03616 6.91828 -1.40181 0.00711157 10
2.0356 6.91636 -1.1419 0.00726929 10
2.03415 6.91145 -0.88461 0.00739722 10
2.03457 6.91287 -0.630449 0.00749407 10
2.03344 6.90904 -0.377444 0.00755888 10
2.03775 6.92367 -0.125979 0.007591 10
2.14905 7.30183 0.132859 0.00513803 10
2.14981 7.30442 0.399044 0.00511695 10
2.15362 7.31739 0.66734 0.00507353 10
2.14667 7.29376 0.933543 0.00500822 10
1.89939 6.45356 1.06549 0.00675093 10
2.04088 6.93431 1.40506 0.00553767 10
2.0367 6.92012 1.66539 0.00539153 10
2.03703 6.92124 1.9332 0.0052249 10
2.00829 6.91257 -1.9288 0.00677893 10
2.00433 6.89895 -1.65861 0.00699325 10
2.00917 6.9156 -1.39984 0.00718093 10
2.00703 6.90823 -1.1394 0.00734013 10
2.00481 6.90058 -0.882318 0.00746924 10
2.00884 6.91445 -0.629949 0.007567 10
2.0088 6.91434 -0.377348 0.00763241 10
2.00744 6.90965 -0.125595 0.00766483 10
2.13312 7.34223 0.133458 0.00505532 10
2.13357 7.3438 0.400786 0.00503457 10
2.13498 7.34863 0.669505 0.00499182 10
2.13475 7.34786 0.939508 0.00492751 10
1.89016 6.50598 1.07305 0.00664419 10
2.00527 6.90218 1.39712 0.0055917 10
2.00917 6.91561 1.66261 0.0054442 10
2.00892 6.91475 1.92941 0.00527602 10
1.97428 6.88515 -1.91922 0.00684471 10
1.97722 6.89539 -1.65608 0.00706102 10
1.97537 6.88894 -1.39304 0.00725044 10
1.97637 6.89244 -1.13565 0.00741111 10
1.97496 6.8875 -0.879759 0.00754142 10
1.97553 6.88949 -0.627043 0.00764008 10
1.97792 6.89783 -0.376068 0.00770609 10
1.97478 6.88688 -0.125055 0.00773881 10
2.11525 7.37675 0.133951 0.00497328 10
2.11474 7.37499 0.402083 0.00495285 10
2.12216 7.40087 0.673585 0.00491077 10
2.1197 7.39227 0.944234 0.00484747 10
1.87436 6.53667 1.07703 0.00653829 10
1.97619 6.8918 1.39362 0.00564585 10
1.97793 6.89786 1.65667 0.00549699 10
1.97869 6.9005 1.9235 0.00532725 10
1.94587 6.87656 -1.91492 0.00691062 10
1.94553 6.87536 -1.64963 0.00712891 10
1.94976 6.89029 -1.39193 0.00732008 10
1.94546 6.87511 -1.13167 0.00748222 10
1.95165 6.89699 -0.880096 0.00761372 10
1.95042 6.89263 -0.626705 0.00771329 10
1.94642 6.87849 -0.374641 0.00777991 10
1.94537 6.8748 -0.124712 0.00781293 10
2.09982 7.42059 0.134613 0.00489194 10
2.10355 7.43377 0.404885 0.00487184 10
2.10228 7.4293 0.675501 0.00483042 10
2.10301 7.43186 0.948348 0.00476811 10
1.86079 6.5759 1.08242 0.00643328 10
1.95019 6.89183 1.39224 0.0057001 10
1.95117 6.89528 1.65441 0.00554987 10
1.94718 6.8812 1.91621 0.00537857 10
1.92632 6.89929 -1.91936 0.00522073 10
1.9287 6.90782 -1.65579 0.00538799 10
1.92809 6.90562 -1.39365 0.00553484 10
1.92387 6.89053 -1.13309 0.00565982 10
1.92766 6.90409 -0.880138 0.00576169 10
1.92753 6.90361 -0.627088 0.00583943 10
1.92619 6.89884 -0.375381 0.00589226 10
1.92547 6.89626 -0.124979 0.00591966 10
2.0841 7.46439 0.135274 0.00481129 10
2.08365 7.4628 0.406067 0.00479151 10
2.08795 7.47817 0.679278 0.00475075 10
2.08212 7.45731 0.950662 0.00468943 10
1.8431 6.60124 1.08552 0.00632913 10
1.92364 6.88968 1.39044 0.00432944 10
1.9216 6.88238 1.64969 0.00421712 10
1.92255 6.8858 1.91561 0.00408873 10
1.91509 6.95267 -1.93234 0.00513455 10
1.9145 6.95056 -1.66442 0.00529919 10
1.91037 6.93556 -1.39834 0.00544373 10
1.91457 6.95078 -1.1419 0.00556676 10
1.91211 6.94186 -0.884097 0.00566703 10
1.91371 6.94766 -0.630479 0.00574356 10
1.91219 6.94215 -0.377372 0.00579557 10
1.90934 6.93183 -0.125502 0.00582255 10
2.0678 7.50708 0.135917 0.00473133 10
2.06805 7.50801 0.408132 0.00471187 10
2.07167 7.52113 0.682519 0.00467176 10
2.06969 7.51397 0.956958 0.00461141 10
1.83163 6.64969 1.09243 0.00622584 10
1.90872 6.92955 1.39713 0.00425824 10
1.90584 6.91909 1.65689 0.0041477 10
1.91197 6.94136 1.9292 0.00402133 10
1.89281 6.96669 -1.93439 0.00504912 10
1.89507 6.97499 -1.66868 0.00521116 10
1.89693 6.98187 -1.40634 0.00535342 10
1.89392 6.97079 -1.14409 0.0054745 10
1.89418 6.97174 -0.887054 0.0055732 10
1.89459 6.97323 -0.632195 0.00564852 10
1.89494 6.97454 -0.378771 0.00569972 10
1.89603 6.97853 -0.126227 0.00572628 10
2.05014 7.54575 0.136486 0.00465207 10
2.05118 7.5496 0.410001 0.00463293 10
2.04952 7.54348 0.683894 0.00459347 10
2.05373 7.55897 0.961772 0.00453409 10
1.81875 6.6941 1.09868 0.00612344 10
1.89674 6.98116 1.40619 0.00418767 10
1.89317 6.968 1.66701 0.00407888 10
1.89622 6.97925 1.93788 0.00395452 10
2.03874 7.6087 -2.11066 0.00402411 10
2.03629 7.59954 -1.81638 0.00415517 10
2.03731 7.60336 -1.53008 0.00427028 10
2.03387 7.5905 -1.24463 0.00436828 10
2.0399 7.61299 -0.967733 0.00444818 10
2.0387 7.60854 -0.689143 0.00450917 10
2.03251 7.58545 -0.41156 0.00455063 10
2.0344 7.59247 -0.137202 0.00457215 10
2.03794 7.60569 0.137441 0.0045735 10
2.038 7.6059 0.41267 0.00455467 10
2.03352 7.58918 0.68739 0.00451586 10
2.03588 7.59801 0.965828 0.00445744 10
1.80365 6.73133 1.10375 0.00602191 10
2.03558 7.59687 1.52877 0.0033406 10
2.03779 7.60512 1.81772 0.00325258 10
2.03391 7.59066 2.10566 0.00315199 10
2.01652 7.63222 -2.11522 0.00395514 10
2.02158 7.65137 -1.82708 0.00408407 10
2.01837 7.63922 -1.53587 0.00419731 10
2.01882 7.64093 -1.25173 0.00429373 10
2.01725 7.63496 -0.969624 0.00437234 10
2.01762 7.63639 -0.691023 0.00443234 10
2.01794 7.6376 -0.414005 0.00447314 10
2.01579 7.62944 -0.137742 0.00449431 10
2.01619 7.63096 0.13777 0.00449565 10
2.01816 7.63843 0.41405 0.00447713 10
2.01972 7.64431 0.69174 0.00443895 10
2.01676 7.63312 0.969391 0.00438149 10
1.78696 6.76338 1.10797 0.00592128 10
2.02158 7.65137 1.53831 0.00328358 10
2.01771 7.63671 1.82357 0.003197 10
2.01827 7.63882 2.11705 0.00309805 10
2.00209 7.68616 -2.12822 0.0038868 10
2.00222 7.68663 -1.83381 0.00401362 10
2.00139 7.68346 -1.54335 0.00412501 10
1.99923 7.67516 -1.25619 0.00421984 10
1.99964 7.67672 -0.974035 0.00429717 10
2.00513 7.69782 -0.695944 0.0043562 10
2.00061 7.68047 -0.415948 0.00439633 10
2.00537 7.69872 -0.138866 0.00441717 10
2.00186 7.68525 0.138623 0.00441849 10
2.00068 7.68074 0.415962 0.00440028 10
2.00306 7.68985 0.695224 0.00436273 10
1.99781 7.6697 0.973144 0.00430622 10
1.77234 6.80411 1.11362 0.00582152 10
2.00351 7.69159 1.54498 0.00322707 10
1.99775 7.66946 1.82972 0.00314191 10
1.99872 7.67322 2.12464 0.00304459 10
1.98903 7.74675 -2.14306 0.00381909 10
1.98398 7.72707 -1.8418 0.00394382 10
1.98689 7.7384 -1.55298 0.00405337 10
1.98259 7.72169 -1.26266 0.00414665 10
1.98135 7.71684 -0.978242 0.0042227 10
1.98199 7.71932 -0.697259 0.00428077 10
1.98415 7.72775 -0.418131 0.00432025 10
1.98435 7.72853 -0.139278 0.00434075 10
1.98098 7.71541 0.139041 0.00434205 10
1.98715 7.73944 0.418763 0.00432415 10
1.982 7.71939 0.697265 0.00428722 10
1.98627 7.73601 0.980673 0.00423164 10
1.75562 6.83768 1.11811 0.00572266 10
1.98231 7.72059 1.54941 0.00317109 10
1.98586 7.73441 1.84355 0.00308734 10
1.98028 7.71268 2.13364 0.00299164 10
1.97022 7.78624 -2.15207 0.00375201 10
1.97043 7.78705 -1.85444 0.00387466 10
1.96657 7.77182 -1.5583 0.00398239 10
1.96546 7.76742 -1.26901 0.00407412 10
1.96847 7.77933 -0.985287 0.00414892 10
1.96985 7.78478 -0.702546 0.00420602 10
1.96893 7.78113 -0.420644 0.00424486 10
1.96997 7.78524 -0.140175 0.00426502 10
1.96374 7.76061 0.139731 0.00426631 10
1.9683 7.77865 0.420511 0.00424871 10
1.96731 7.77473 0.701639 0.0042124 10
1.9677 7.7763 0.984902 0.00415776 10
1.74001 6.87645 1.12345 0.00562469 10
1.96567 7.76826 1.55759 0.00311562 10
1.96502 7.76568 1.84935 0.00303327 10
1.9624 7.75535 2.14353 0.00293917 10
1.95397 7.83695 -2.16419 0.00368558 10
1.94754 7.81117 -1.85856 0.00380617 10
1.94797 7.81286 -1.56516 0.0039121 10
1.948 7.81301 -1.27534 0.0040023 10
1.94844 7.81477 -0.988908 0.00407585 10
1.94669 7.80775 -0.704002 0.004132 10
1.95306 7.83329 -0.423093 0.00417018 10
1.94682 7.80826 -0.140466 0.00419002 10
1.94774 7.81194 0.140532 0.00419129 10
1.94869 7.81576 0.422146 0.00417399 10
1.94567 7.80364 0.703631 0.0041383 10
1.9521 7.82944 0.990764 0.00408458 10
1.72224 6.90751 1.12753 0.00552762 10
1.94689 7.80853 1.56429 0.00306069 10
1.94849 7.81497 1.85946 0.00297972 10
1.94487 7.80044 2.15411 0.00288721 10
1.93005 7.85776 -2.16806 0.00361979 10
1.9303 7.85877 -1.86827 0.00373834 10
1.93356 7.87203 -1.57565 0.00384248 10
1.93195 7.86548 -1.2828 0.00393116 10
1.93332 7.87107 -0.995172 0.00400347 10
1.93458 7.8762 -0.70956 0.00405868 10
1.93344 7.87153 -0.424791 0.00409622 10
1.92816 7.85005 -0.141096 0.00411573 10
1.9343 7.87505 0.141545 0.00411699 10
1.92954 7.85569 0.423936 0.00409998 10
1.92908 7.85381 0.707542 0.0040649 10
1.92923 7.85441 0.993066 0.00401209 10
1.70731 6.95093 1.13364 0.00543146 10
1.92818 7.85012 1.57126 0.00300628 10
1.93251 7.86777 1.87041 0.00292669 10
1.92879 7.85261 2.16664 0.00283575 10
1.91613 7.92031 -2.18346 0.00355463 10
1.91302 7.90746 -1.87824 0.00367116 10
1.91445 7.91338 -1.58258 0.00377353 10
1.91498 7.91559 -1.28987 0.00386069 10
1.91393 7.91124 -0.999401 0.00393178 10
1.91154 7.90134 -0.71122 0.00398605 10
1.91077 7.89819 -0.425867 0.00402297 10
1.91677 7.92298 -0.142286 0.00404215 10
1.91359 7.90984 0.14205 0.00404339 10
1.91601 7.91984 0.427035 0.00402668 10
1.90953 7.89304 0.710472 0.0039922 10
1.91018 7.89575 0.997443 0.0039403 10
1.69073 6.98862 1.13882 0.00533618 10
1.9128 7.90658 1.58122 0.00295239 10
1.91045 7.89684 1.87572 0.00287416 10
1.90975 7.89397 2.1762 0.00278478 10
1.89497 7.95422 -2.19098 0.00349012 10
1.89672 7.96158 -1.88952 0.00360465 10
1.8989 7.97076 -1.59272 0.00370526 10
1.89766 7.96553 -1.29692 0.00379093 10
1.89794 7.96669 -1.00556 0.0038608 10
1.89248 7.9438 -0.714443 0.00391415 10
1.89509 7.95474 -0.428557 0.00395044 10
1.89604 7.95871 -0.142808 0.00396929 10
1.89628 7.95973 0.142826 0.00397052 10
1.89547 7.95634 0.428644 0.00395411 10
1.89591 7.95821 0.715738 0.00392023 10
1.89212 7.94228 1.00248 0.00386922 10
1.67459 7.0292 1.14447 0.00524182 10
1.89557 7.95676 1.58992 0.00289903 10
1.89385 7.94956 1.88666 0.00282216 10
1.89391 7.94977 2.18975 0.00273431 10
1.87568 7.99699 -2.20094 0.00342624 10
1.88055 8.01778 -1.90128 0.00353879 10
1.87669 8.00131 -1.59751 0.00363766 10
1.87657 8.00081 -1.30159 0.00372185 10
1.8746 7.99241 -1.00798 0.00379052 10
1.87513 7.99464 -0.718422 0.00384295 10
1.87742 8.00441 -0.430877 0.00387861 10
1.87985 8.01479 -0.143695 0.00389715 10
1.87524 7.99512 0.143343 0.00389836 10
1.87328 7.98678 0.429929 0.00388224 10
1.87311 7.98604 0.717649 0.00384895 10
1.87425 7.99089 1.00778 0.00379883 10
1.66264 7.08872 1.15321 0.00514836 10
1.87263 7.98401 1.59405 0.0028462 10
1.87867 8.00974 1.89938 0.00277066 10
1.87513 7.99465 2.20029 0.00268435 10
1.85855 8.05026 -2.2138 0.00336302 10
1.85687 8.04296 -1.90571 0.0034736 10
1.85958 8.05472 -1.60686 0.00357075 10
1.85573 8.03804 -1.30659 0.00365348 10
1.86015 8.05719 -1.01532 0.00372095 10
1.86091 8.06046 -0.723749 0.00377247 10
1.86034 8.05799 -0.43341 0.00380752 10
1.86111 8.06133 -0.144412 0.00382574 10
1.86057 8.05902 0.144371 0.00382694 10
1.85964 8.05497 0.433247 0.0038111 10
1.85851 8.05007 0.722815 0.0037784 10
1.85504 8.03505 1.01253 0.00372915 10
1.63988 7.10311 1.15461 0.00505582 10
1.85891 8.05183 1.60629 0.00279391 10
1.85482 8.03408 1.9036 0.00271969 10
1.85979 8.05563 2.21528 0.00263489 10
1.84367 8.11493 -2.2298 0.00330044 10
1.84126 8.10436 -1.91872 0.00340907 10
1.84363 8.11476 -1.61755 0.00350451 10
1.84147 8.10525 -1.31646 0.00358579 10
1.84044 8.10073 -1.01999 0.00365207 10
1.83693 8.08529 -0.725397 0.0037027 10
1.83695 8.08539 -0.434536 0.00373714 10
1.84085 8.10253 -0.145034 0.00375504 10
1.83744 8.08751 0.144765 0.00375622 10
1.83845 8.09198 0.43489 0.00374067 10
1.83766 8.08848 0.725684 0.00370855 10
1.83774 8.08886 1.0185 0.00366018 10
1.624 7.14806 1.16099 0.00496419 10
1.83717 8.08634 1.61188 0.00274214 10
1.8385 8.0922 1.91584 0.00266924 10
1.84041 8.10059 2.22586 0.00258594 10
1.81982 8.14142 -2.23532 0.00323852 10
1.81915 8.13839 -1.92526 0.00334522 10
1.82172 8.1499 -1.62327 0.00343896 10
1.82312 8.15616 -1.32369 0.0035188 10
1.81944 8.13971 -1.02409 0.00358392 10
1.82146 8.14874 -0.730515 0.00363365 10
1.82337 8.15729 -0.438055 0.00366749 10
1.82036 8.14382 -0.145659 0.00368508 10
1.81954 8.14015 0.145593 0.00368625 10
1.8231 8.15606 0.437989 0.00367098 10
1.81808 8.13364 0.729161 0.00363943 10
1.82156 8.1492 1.02529 0.00359192 10
1.60802 7.19387 1.16751 0.00487347 10
1.81688 8.12824 1.61896 0.00269091 10
1.81772 8.132 1.92375 0.00261931 10
1.81855 8.13574 2.23376 0.00253749 10
1.80126 8.1926 -2.24763 0.00317723 10
1.80279 8.19958 -1.93824 0.00328202 10
1.80177 8.19492 -1.63098 0.00337409 10
1.8032 8.20145 -1.33001 0.0034525 10
1.80259 8.19865 -1.03071 0.00351646 10
1.79956 8.18486 -0.733186 0.00356531 10
1.8017 8.19459 -0.439718 0.00359855 10
1.80089 8.19094 -0.146388 0.00361583 10
1.80413 8.20568 0.146652 0.00361698 10
1.79948 8.18452 0.439178 0.00360199 10
1.80128 8.1927 0.733888 0.00357101 10
1.7993 8.18369 1.02883 0.00352436 10
1.59065 7.23469 1.17323 0.00478366 10
1.80311 8.201 1.63219 0.0026402 10
1.79838 8.17952 1.93349 0.00256989 10
1.79919 8.18319 2.24505 0.00248955 10
1.78201 8.24212 -2.2595 0.00311661 10
1.78408 8.25169 -1.94907 0.0032195 10
1.78269 8.24525 -1.63975 0.00330991 10
1.78131 8.23887 -1.33506 0.00338692 10
1.7837 8.24994 -1.03637 0.00344973 10
1.7806 8.23557 -0.737168 0.0034977 10
1.78517 8.25673 -0.442715 0.00353034 10
1.78432 8.25279 -0.147381 0.00354732 10
1.78435 8.25292 0.147384 0.00354846 10
1.77921 8.22917 0.441238 0.00353374 10
1.78007 8.23317 0.736952 0.00350333 10
1.7832 8.24761 1.03608 0.00345753 10
1.57554 7.28715 1.18084 0.00469478 10
1.78244 8.24412 1.63952 0.00259004 10
1.7838 8.25038 1.94876 0.002521 10
1.77989 8.2323 2.25681 0.00244212 10
1.76368 8.29747 -2.27297 0.00305663 10
1.76347 8.29646 -1.95818 0.00315766 10
1.76055 8.28275 -1.64597 0.00324642 10
1.7623 8.29094 -1.34249 0.00332203 10
1.76049 8.28242 -1.03967 0.0033837 10
1.76545 8.3058 -0.742897 0.00343081 10
1.76041 8.28206 -0.443741 0.00346286 10
1.76442 8.30093 -0.14813 0.00347954 10
1.76215 8.29027 0.14794 0.00348066 10
1.76174 8.28831 0.444076 0.00346622 10
1.76007 8.28046 0.74063 0.00343637 10
1.7612 8.28579 1.0401 0.0033914 10
1.55693 7.32477 1.18605 0.00460682 10
1.76184 8.28881 1.64718 0.00254042 10
1.75948 8.27771 1.95375 0.00247264 10
1.75887 8.27483 2.26677 0.0023952 10
1.7441 8.34851 -2.28527 0.0029973 10
1.74487 8.35222 -1.96989 0.00309647 10
1.74504 8.35305 -1.65872 0.00318361 10
1.74584 8.35688 -1.35217 0.00325784 10
1.74442 8.35006 -1.04739 0.00331838 10
1.74399 8.34799 -0.746122 0.00336463 10
1.74391 8.34762 -0.446925 0.0033961 10
1.74349 8.34563 -0.148818 0.00341248 10
1.74059 8.33175 0.148571 0.00341359 10
1.74456 8.35075 0.447093 0.00339942 10
1.74113 8.33431 0.744899 0.00337011 10
1.7423 8.33992 1.04612 0.00332598 10
1.53955 7.36942 1.1924 0.00451977 10
1.74038 8.33072 1.65429 0.00249132 10
1.74163 8.3367 1.96623 0.0024248 10
1.74058 8.33166 2.28066 0.00234878 10
1.72239 8.39081 -2.29519 0.00293863 10
1.72317 8.39463 -1.97846 0.00303596 10
1.72408 8.39906 -1.66665 0.0031215 10
1.72555 8.4062 -1.35917 0.00319435 10
1.72225 8.39015 -1.05166 0.00325378 10
1.72348 8.39612 -0.749882 0.00329918 10
1.72245 8.39113 -0.44893 0.00333008 10
1.72082 8.38319 -0.14938 0.00334616 10
1.72085 8.38332 0.149382 0.00334725 10
1.72299 8.39377 0.449071 0.00333335 10
1.71996 8.37897 0.74835 0.00330459 10
1.72466 8.4019 1.05313 0.00326128 10
1.52553 7.43179 1.20162 0.00443366 10
1.72373 8.39737 1.66632 0.00244277 10
1.7226 8.39186 1.97781 0.00237748 10
1.72106 8.38434 2.29342 0.00230288 10
1.70379 8.44985 -2.3097 0.00288061 10
1.70258 8.44384 -1.98865 0.00297612 10
1.70604 8.46101 -1.67775 0.00306006 10
1.7054 8.45784 -1.36655 0.00313156 10
1.70565 8.45911 -1.05955 0.00318989 10
1.70066 8.43435 -0.752761 0.00323445 10
1.70112 8.4366 -0.451042 0.00326478 10
1.70143 8.43814 -0.150253 0.00328056 10
1.70411 8.45145 0.150489 0.00328164 10
1.70414 8.45162 0.451845 0.003268 10
1.70209 8.44145 0.753394 0.00323979 10
1.69485 8.40553 1.05284 0.00073058 10
1.50689 7.47334 1.20748 0.00434846 10
1.70323 8.44707 1.67499 0.00239475 10
1.70242 8.44307 1.98847 0.00233068 10
1.69897 8.42598 2.30317 0.00225748 10
1.68493 8.50953 -2.32439 0.00282324 10
1.68249 8.49721 -1.99982 0.00291696 10
1.68288 8.49917 -1.68415 0.00299932 10
1.6816 8.49267 -1.37122 0.00306948 10
1.68371 8.50333 -1.06435 0.00312672 10
1.68311 8.50032 -0.75812 0.00317045 10
1.68142 8.4918 -0.453677 0.00320021 10
1.67956 8.48236 -0.150935 0.00321571 10
1.68504 8.51004 0.151427 0.00321677 10
1.67924 8.48078 0.453088 0.00320339 10
1.68152 8.49228 0.757403 0.00317571 10
1.66733 8.42064 1.054 0.0007307 10
1.48842 7.51706 1.2137 0.00426419 10
1.68153 8.49236 1.6828 0.00234727 10
1.68201 8.49478 1.99925 0.00228442 10
1.6795 8.48209 2.31689 0.0022126 10
1.66337 8.55728 -2.33583 0.00276653 10
1.66057 8.5429 -2.0092 0.00285847 10
1.66378 8.55939 -1.69492 0.00293927 10
1.6605 8.54253 -1.37833 0.0030081 10
1.66098 8.54498 -1.06883 0.00306426 10
1.66244 8.55253 -0.762254 0.00310716 10
1.66378 8.55939 -0.456974 0.00313637 10
1.66034 8.54169 -0.151886 0.00315157 10
1.65999 8.53991 0.151855 0.00315262 10
1.65969 8.53835 0.455851 0.0031395 10
1.66215 8.55101 0.762119 0.00311235 10
1.63477 8.41017 1.05197 0.000730821 10
1.46848 7.55466 1.21894 0.00418084 10
1.66284 8.55456 1.69396 0.00230033 10
1.65954 8.53761 2.00795 0.00223867 10
1.6604 8.542 2.33166 0.00216822 10
1.64454 8.62099 -2.35164 0.00271048 10
1.64205 8.60793 -2.02313 0.00280066 10
1.64179 8.60656 -1.70311 0.00287991 10
1.6391 8.59244 -1.38545 0.00294743 10
1.63952 8.59468 -1.07432 0.00300252 10
1.63833 8.58842 -0.764938 0.00304461 10
1.64051 8.59983 -0.458825 0.00307326 10
1.63921 8.59305 -0.152697 0.00308818 10
1.63815 8.58745 0.152597 0.00308922 10
1.64051 8.59986 0.458827 0.00307635 10
1.638 8.58669 0.764784 0.00304973 10
1.60461 8.41163 1.05144 0.000730941 10
1.45014 7.60188 1.22573 0.00409843 10
1.63727 8.58286 1.69842 0.00225393 10
1.63711 8.582 2.01704 0.00219346 10
1.63768 8.58503 2.34183 0.00212437 10
1.61885 8.65026 -2.35807 0.00265507 10
1.62289 8.67183 -2.03681 0.00274351 10
1.62218 8.66804 -1.71415 0.00282124 10
1.62172 8.66559 -1.39632 0.00288746 10
1.61762 8.6437 -1.07974 0.00294149 10
1.61854 8.6486 -0.769791 0.00298277 10
1.61932 8.65278 -0.461346 0.00301088 10
1.61839 8.6478 -0.153568 0.00302552 10
1.61997 8.65623 0.153718 0.00302654 10
1.62047 8.65889 0.461671 0.00301393 10
1.62109 8.66221 0.771001 0.00298782 10
1.5744 8.41275 1.05089 0.000731062 10
1.6186 8.64891 1.39364 0.00225831 10
1.62107 8.6621 1.71297 0.00220807 10
1.61812 8.64635 2.03082 0.00214877 10
1.62056 8.65937 2.36055 0.00208101 10
1.71426 9.34024 -2.54451 0.00108635 10
1.99349 10.8617 -2.5495 0.000634018 10
2.3651 12.8864 -2.5467 0.000329387 10
2.49506 13.5945 -2.18912 0.000234143 10
2.76614 15.0715 -1.88146 0.000572268 10
2.76856 15.0847 -1.34178 0.000616947 10
2.76764 15.0797 -0.803494 0.000623259 10
2.76797 15.0815 -0.267645 0.000626394 10
2.7689 15.0866 0.267735 0.000626312 10
2.76943 15.0894 0.804012 0.000623016 10
2.17049 11.8261 1.05193 0.000204899 10
1.54527 8.4195 1.05105 0.000731183 10
2.02564 11.0368 1.77726 0.00113313 10
2.02708 11.0447 2.18273 0.00110661 10
2.0273 11.0459 2.59274 0.00107533 10
2.02969 11.0589 3.01272 0.00103964 10
1.68431 9.36098 -2.54855 0.00108627 10
1.95464 10.8634 -2.54829 0.000633959 10
2.31812 12.8836 -2.54453 0.000329349 10
2.44776 13.6041 -2.18927 0.00023411 10
2.72822 15.1628 -1.89165 0.000558792 10
2.76723 15.3796 -1.36715 0.000582593 10
2.76608 15.3732 -0.818614 0.000588586 10
2.76462 15.3651 -0.272505 0.000591563 10
2.76712 15.379 0.272751 0.000591486 10
2.76307 15.3565 0.817722 0.000588357 10
2.13166 11.8473 1.05314 0.00020495 10
1.51715 8.43193 1.05194 0.000731304 10
1.99982 11.1145 1.78864 0.0011085 10
2.00077 11.1198 2.19618 0.00108251 10
2.0002 11.1166 2.60769 0.00105188 10
2.002 11.1266 3.02925 0.00101692 10
1.65297 9.37445 -2.55063 0.00108619 10
1.91545 10.8631 -2.54662 0.0006339 10
2.27727 12.915 -2.54916 0.000329311 10
2.3964 13.5907 -2.18575 0.000234076 10
2.69239 15.2693 -1.90375 0.000545508 10
2.70329 15.3311 -1.36199 0.000587932 10
2.70308 15.3299 -0.8158 0.000593977 10
2.7077 15.3561 -0.272177 0.000596978 10
2.70589 15.3459 0.271995 0.000596901 10
2.7042 15.3363 0.816139 0.000593745 10
2.08659 11.8336 1.05128 0.000205001 10
1.49023 8.45149 1.05372 0.000731424 10
1.97118 11.1791 1.79791 0.00108417 10
1.97437 11.1972 2.21009 0.00105873 10
1.97012 11.1731 2.61931 0.00102873 10
1.97171 11.1821 3.04246 0.0009945 10
1.61976 9.3774 -2.54987 0.0010861 10
1.87727 10.8682 -2.54628 0.000633841 10
2.23264 12.9256 -2.54968 0.000329273 10
2.35154 13.614 -2.18817 0.000234043 10
2.65316 15.3601 -1.91391 0.000532419 10
2.65607 15.377 -1.36524 0.000357345 10
2.65232 15.3553 -0.816653 0.00036121 10
2.6547 15.3691 -0.272241 0.000363227 10
2.65414 15.3658 0.272182 0.000363371 10
2.65424 15.3664 0.817244 0.000361639 10
2.04691 11.8503 1.05212 0.000205053 10
1.45929 8.4484 1.05269 0.000731545 10
1.94481 11.2592 1.8097 0.00106017 10
1.94245 11.2456 2.21828 0.00103526 10
1.94662 11.2697 2.64035 0.00100589 10
1.94546 11.263 3.06261 0.000972373 10
1.58431 9.36701 -2.54553 0.00108602 10
1.842 10.8906 -2.55 0.000633782 10
2.18448 12.9154 -2.54616 0.000329236 10
2.30108 13.6048 -2.1854 0.00023401 10
2.61638 15.4689 -1.92632 0.000519521 10
2.64145 15.6172 -1.38573 0.000560695 10
2.63861 15.6004 -0.829195 0.000566487 10
2.64075 15.613 -0.276397 0.000569363 10
2.64042 15.6111 0.276363 0.00056929 10
2.64132 15.6164 0.830047 0.000566266 10
2.00387 11.8476 1.05125 0.000205104 10
1.43093 8.46017 1.05353 0.000731666 10
1.91446 11.3189 1.81821 0.00103647 10
1.91559 11.3257 2.23276 0.00101209 10
1.91732 11.3359 2.65426 0.000983342 10
1.91414 11.3171 3.07548 0.000950539 10
1.55367 9.38497 -2.54892 0.00108593 10
1.80299 10.891 -2.5486 0.000633723 10
2.1428 12.9436 -2.55023 0.000329198 10
2.25746 13.6362 -2.18915 0.000233976 10
2.57744 15.569 -1.93765 0.000506817 10
2.57849 15.5754 -1.38122 0.000565732 10
2.57873 15.5768 -0.827457 0.000571573 10
2.57992 15.584 -0.275722 0.000574473 10
2.57902 15.5786 0.275626 0.000574399 10
2.57822 15.5737 0.827294 0.000571351 10
1.96245 11.8542 1.05122 0.000205155 10
1.40108 8.46322 1.0533 0.000731787 10
1.88863 11.4082 1.83148 0.0010131 10
1.88905 11.4108 2.24823 0.000989239 10
1.88715 11.3993 2.66756 0.000961103 10
1.88713 11.3992 3.09598 0.000929 10
1.51917 9.37962 -2.54601 0.00108585 10
1.76311 10.8858 -2.54593 0.000633664 10
2.09613 12.9419 -2.54843 0.00032916 10
2.38807 14.7444 -2.36571 0.000120386 10
2.53696 15.6637 -1.94832 0.000494304 10
2.53434 15.6475 -1.38682 0.000331793 10
2.53839 15.6725 -0.832065 0.000335403 10
2.5365 15.6608 -0.276923 0.000337288 10
2.53569 15.6558 0.276834 0.000337424 10
2.53644 15.6605 0.831425 0.000335811 10
1.92327 11.8746 1.05243 0.000205206 10
1.36858 8.44986 1.05103 0.000731908 10
1.8611 11.4908 1.84368 0.000990045 10
1.85823 11.4731 2.2592 0.000966694 10
1.86009 11.4845 2.68596 0.000939162 10
1.86022 11.4854 3.1176 0.000907752 10
1.4861 9.38287 -2.54547 0.00108576 10
1.72613 10.8984 -2.54745 0.000633606 10
2.0514 12.952 -2.549 0.000329122 10
2.34006 14.7745 -2.36923 0.000120369 10
2.49633 15.7612 -1.95936 0.000481984 10
2.51102 15.854 -1.40433 0.000539847 10
2.50772 15.8331 -0.840121 0.000545447 10
2.50964 15.8452 -0.280027 0.000548228 10
2.51186 15.8592 0.280275 0.000548157 10
2.50805 15.8352 0.840232 0.000545235 10
1.88015 11.8708 1.05151 0.000158651 10
1.3404 8.46295 1.05207 0.000732029 10
1.83067 11.5584 1.85349 0.000967305 10
1.82842 11.5442 2.27193 0.00094446 10
1.82787 11.5407 2.69759 0.000917527 10
1.83049 11.5573 3.13536 0.000886799 10
1.45667 9.40952 -2.55131 0.00108568 10
1.69007 10.9171 -2.55044 0.000633547 10
2.0073 12.9663 -2.55042 0.000329084 10
2.28653 14.7701 -2.36721 0.000120351 10
2.45638 15.8672 -1.97146 0.000469855 10
2.45406 15.8522 -1.40341 0.000315401 10
2.45723 15.8727 -0.841761 0.000318847 10
2.45621 15.8661 -0.280243 0.000320646 10
2.45474 15.8566 0.280075 0.000320778 10
2.45374 15.8502 0.840567 0.00031924 10
1.83974 11.884 1.0521 0.000158691 10
1.30848 8.45224 1.05017 0.000732149 10
1.80029 11.6291 1.86381 0.000944881 10
1.79749 11.611 2.28384 0.000922537 10
1.80042 11.63 2.71697 0.000896193 10
1.7989 11.6202 3.1507 0.000866139 10
1.42268 9.40704 -2.54927 0.0010856 10
1.65053 10.9136 -2.54826 0.000633488 10
1.95907 12.9537 -2.54658 0.000329046 10
2.23652 14.7883 -2.36887 0.000120334 10
2.41432 15.9639 -1.98242 0.000457914 10
2.43694 16.1135 -1.42578 0.00051549 10
2.43388 16.0932 -0.853002 0.000520862 10
2.43542 16.1035 -0.284283 0.00052353 10
2.43655 16.1109 0.284415 0.000523462 10
2.4345 16.0974 0.853221 0.000520659 10
1.79976 11.9004 1.05299 0.00015873 10
1.27954 8.46056 1.05064 0.00073227 10
1.77108 11.7107 1.87589 0.000922768 10
1.76875 11.6953 2.29919 0.000900917 10
1.77045 11.7066 2.73341 0.000875157 10
1.76769 11.6883 3.16749 0.000845768 10
1.39119 9.4211 -2.55175 0.00108551 10
1.61309 10.9238 -2.5493 0.000633429 10
1.91482 12.9671 -2.54789 0.000329009 10
2.18589 14.8028 -2.36996 0.000120316 10
2.37459 16.0807 -1.99587 0.000446164 10
2.37523 16.085 -1.42252 0.000519978 10
2.3764 16.0929 -0.852541 0.000525394 10
2.3747 16.0814 -0.283746 0.000528084 10
2.3772 16.0983 0.284044 0.000528016 10
2.3753 16.0855 0.852145 0.00052519 10
1.75738 11.9009 1.05249 0.00015877 10
1.24949 8.46151 1.05021 0.000732391 10
1.74108 11.7905 1.88769 0.000900972 10
1.73966 11.7809 2.31481 0.000879609 10
1.73938 11.7791 2.7489 0.000854423 10
1.73765 11.7673 3.18724 0.000825691 10
1.35613 9.41086 -2.54768 0.00108543 10
1.57407 10.9233 -2.54788 0.00063337 10
1.86789 12.9623 -2.54563 0.000328971 10
2.13073 14.7862 -2.3661 0.000120299 10
2.33371 16.1948 -2.00901 0.000434602 10
2.36 16.3773 -1.44762 0.000492544 10
2.35893 16.3699 -0.86677 0.000497701 10
2.35935 16.3728 -0.28874 0.000500263 10
2.35795 16.363 0.288568 0.000500198 10
2.35954 16.3741 0.866992 0.000497507 10
1.71417 11.8955 1.05147 0.000158809 10
1.22354 8.49078 1.05331 0.000732512 10
1.70236 11.8136 1.89041 0.00155421 10
1.70504 11.8322 2.3237 0.00151654 10
1.70178 11.8095 2.7546 0.00147231 10
1.70181 11.8098 3.19711 0.00142199 10
1.32426 9.42255 -2.54958 0.00108534 10
1.53795 10.9431 -2.55124 0.000633311 10
1.82258 12.9683 -2.54556 0.000328933 10
2.07915 14.7939 -2.36615 0.000120281 10
2.28856 16.2839 -2.01906 0.00042323 10
2.29636 16.3394 -1.44356 0.000496783 10
2.29683 16.3428 -0.864907 0.000501981 10
2.29642 16.3398 -0.288016 0.000504563 10
2.29588 16.336 0.287949 0.000504498 10
2.29579 16.3354 0.864515 0.000501786 10
1.67491 11.9176 1.0529 0.000158849 10
1.19127 8.47634 1.05099 0.000732634 10
