VERSION 0.7
FIELDS x y z intensity label
SIZE 4 4 4 4 4
TYPE F F F F F
COUNT 1 1 1 1 1
WIDTH 1142
HEIGHT 1
VIEWPOINT 5.19122 11.0404 2.72841 0.767115 -0.000551805 0.000690281 0.641509
POINTS 1142
DATA ascii
-12.5045 -19.7039 4.53622 0.000122995 10
-12.5067 -19.7074 5.38867 0.000118549 10
-12.5067 -19.7074 6.25418 0.000113532 10
-5.36883 -8.52555 -2.69964 0.000119118 4
-6.31441 -10.0271 -2.73571 3.11504e-05 4
-7.3032 -11.5973 -2.66403 3.2559e-05 4
-8.59662 -13.6512 -2.55513 4.5912e-05 4
-12.7519 -20.2496 -2.09363 0.000152936 10
-18.4392 -29.2809 -1.81347 3.46272e-05 10
-12.4747 -19.8094 1.22687 0.000131514 10
-12.479 -19.8164 2.04883 0.000129903 10
-12.4705 -19.8028 2.87343 0.000127543 10
-12.4704 -19.8027 3.70653 0.000124469 10
-12.4793 -19.8168 4.55215 0.00012072 10
-12.4794 -19.817 5.40669 0.000116351 10
-12.4885 -19.8314 6.27965 0.000111419 10
-5.3436 -8.55155 -2.70195 5.95635e-05 4
-6.24996 -10.002 -2.7229 8.26407e-05 4
-7.25511 -11.6106 -2.66125 0.000139131 4
-8.53789 -13.6635 -2.55184 4.99594e-05 4
-12.7301 -20.3724 -2.10171 0.000150079 10
-18.275 -29.2461 -1.80735 3.52658e-05 10
-12.458 -19.937 1.23207 0.000129078 10
-12.4485 -19.9217 2.05522 0.000127495 10
-12.4554 -19.9328 2.88597 0.000125176 10
-12.4637 -19.9461 3.7252 0.000122153 10
-12.4624 -19.944 4.57135 0.000118469 10
-12.4631 -19.9451 5.42975 0.000114174 10
-12.4578 -19.9366 6.29916 0.000109327 10
-5.31149 -8.56656 -2.70081 0.000140581 4
-6.17645 -9.96159 -2.70601 8.72481e-05 4
-7.22704 -11.656 -2.66587 0.000126565 4
-8.49984 -13.7088 -2.55475 5.51103e-05 4
-12.7153 -20.5078 -2.11109 0.000147251 10
-18.127 -29.2359 -1.8028 3.59106e-05 10
-12.4245 -20.0386 1.23566 0.000126668 10
-12.4294 -20.0465 2.0636 0.000125111 10
-12.431 -20.0491 2.89651 0.000122832 10
-12.427 -20.0427 3.73512 0.000119862 10
-12.4312 -20.0495 4.58556 0.000116241 10
-12.4379 -20.0603 5.44925 0.000112021 10
-12.4441 -20.0702 6.32763 0.000107258 10
-5.28478 -8.59028 -2.70246 8.10188e-05 4
-6.12831 -9.96142 -2.70013 5.78629e-05 4
-6.89992 -11.2157 -2.55963 0.000206852 4
-8.44365 -13.725 -2.55225 3.7113e-05 4
-12.6812 -20.613 -2.11735 0.000144452 10
-17.9556 -29.1864 -1.79587 3.65616e-05 10
-12.4121 -20.1756 1.24143 0.000124283 10
-12.4073 -20.1678 2.07162 0.000122753 10
-12.4069 -20.1671 2.90727 0.000120513 10
-12.4196 -20.1877 3.75404 0.000117594 10
-12.417 -20.1835 4.60626 0.000114036 10
-12.419 -20.1869 5.47183 0.00010989 10
-12.4184 -20.1859 6.35039 0.00010521 10
-5.24391 -8.5909 -2.69688 0.000219244 4
-6.10289 -9.99815 -2.7043 0.000103336 4
-6.84099 -11.2073 -2.55227 3.21621e-05 4
-8.39333 -13.7505 -2.55153 3.82209e-05 4
-12.671 -20.7585 -2.12774 0.000141684 10
-17.8079 -29.1741 -1.79128 3.72187e-05 10
-12.3914 -20.3004 1.24644 0.000121922 10
-12.3837 -20.2878 2.07949 0.000120419 10
-12.3852 -20.2902 2.91878 0.000118218 10
-12.3858 -20.2912 3.76522 0.00011535 10
-12.3885 -20.2956 4.62196 0.000111855 10
-12.3875 -20.294 5.48911 0.000107781 10
-12.3961 -20.308 6.37515 0.000103185 10
-5.22552 -8.62836 -2.7029 8.8181e-05 4
-6.05574 -9.9992 -2.69885 0.000292123 4
-6.79296 -11.2165 -2.54894 9.0572e-05 4
-8.35566 -13.7968 -2.55471 4.92534e-05 4
-12.636 -20.8645 -2.13407 0.000138945 10
-17.6554 -29.1526 -1.78617 3.78818e-05 10
-12.3577 -20.405 1.25021 0.000119587 10
-12.3594 -20.4077 2.08735 0.00011811 10
-12.3681 -20.4222 2.93154 0.000115948 10
-12.3727 -20.4298 3.78291 0.000113131 10
-12.3672 -20.4207 4.64057 0.000109698 10
-12.3753 -20.434 5.51527 0.000105696 10
-12.3648 -20.4167 6.39569 0.000101181 10
-5.18351 -8.62681 -2.69673 0.000112022 4
-6.03145 -10.038 -2.70362 0.000243918 4
-6.75943 -11.2496 -2.55108 0.000102434 4
-8.29686 -13.8083 -2.55145 5.18339e-05 4
-12.6261 -21.0134 -2.14478 0.000136236 10
-17.4917 -29.1112 -1.77988 3.85511e-05 10
-12.3504 -20.5545 1.25671 0.000117277 10
-12.3372 -20.5326 2.0957 0.000115826 10
-12.3406 -20.5382 2.94198 0.000113702 10
-12.3474 -20.5495 3.79706 0.000110935 10
-12.3513 -20.556 4.66148 0.000107563 10
-12.3468 -20.5485 5.53451 0.000103633 10
-12.3444 -20.5446 6.42221 9.91994e-05 10
-5.1568 -8.65061 -2.69852 0.00010488 4
-5.99355 -10.0543 -2.70235 0.000205351 4
-6.74263 -11.3109 -2.55962 0.000423492 4
-8.2531 -13.8447 -2.55284 5.03708e-05 4
-12.5986 -21.1344 -2.15263 0.000133557 10
-12.6969 -21.2993 -1.29954 9.94906e-05 10
-12.7023 -21.3082 -0.433009 0.000100104 10
-12.6947 -21.2956 0.43275 0.000100112 10
-12.3258 -20.6768 1.26155 0.000114992 10
-12.3217 -20.6699 2.10531 0.000113567 10
-12.3176 -20.6629 2.95367 0.000111482 10
-12.3312 -20.6857 3.81426 0.000108764 10
-12.3208 -20.6684 4.6772 0.000105453 10
-12.3195 -20.6662 5.55458 0.000101594 10
-12.3235 -20.6728 6.4488 9.72402e-05 10
-5.13221 -8.67809 -2.70149 0.00013111 4
-5.95983 -10.0775 -2.70299 0.000300474 4
-6.71978 -11.3625 -2.56598 0.000390963 4
-8.19736 -13.861 -2.55055 3.75078e-05 4
-12.5685 -21.2521 -2.16013 0.000130909 10
-12.5806 -21.2727 -1.29522 0.000100998 10
-12.5923 -21.2925 -0.431792 0.00010162 10
-12.5912 -21.2905 0.431751 0.000101628 10
-12.3043 -20.8055 1.26678 0.000112733 10
-12.3001 -20.7984 2.11401 0.000111333 10
-12.304 -20.8049 2.96781 0.000109285 10
-12.3045 -20.8058 3.82846 0.000106617 10
-12.3033 -20.8037 4.69807 0.000103366 10
-12.3011 -20.8001 5.579 9.9577e-05 10
-12.3066 -20.8093 6.47795 9.5303e-05 10
-5.09806 -8.68943 -2.69947 0.000157344 4
-5.92491 -10.0988 -2.70313 0.000263284 4
-6.70923 -11.4356 -2.57718 0.000416746 4
-8.15397 -13.8981 -2.55213 3.45711e-05 4
-12.5476 -21.3869 -2.16937 0.00012829 10
-12.6497 -21.561 -1.31008 9.68363e-05 10
-12.6585 -21.576 -0.436642 9.74353e-05 10
-12.6478 -21.5577 0.436272 9.74432e-05 10
-12.2739 -20.9203 1.27116 0.000110499 10
-12.2793 -20.9295 2.12297 0.000109125 10
-12.2757 -20.9234 2.97859 0.000107114 10
-12.282 -20.9341 3.84415 0.000104494 10
-12.2771 -20.9258 4.71593 0.000101302 10
-12.2756 -20.9233 5.60052 9.75833e-05 10
-12.2844 -20.9382 6.50469 9.3388e-05 10
-5.06706 -8.70607 -2.69912 0.000154972 4
-5.89014 -10.1203 -2.70336 0.000303287 4
-6.69388 -11.5012 -2.58669 0.000334047 4
-8.1087 -13.9321 -2.55316 4.89217e-05 4
-12.5199 -21.5114 -2.17755 0.000125702 10
-12.5376 -21.5417 -1.30624 9.82875e-05 10
-12.5479 -21.5595 -0.43542 9.88948e-05 10
-12.5343 -21.536 0.434946 9.89027e-05 10
-12.2572 -21.0601 1.27704 0.00010829 10
-12.248 -21.0442 2.13026 0.000106941 10
-12.259 -21.063 2.99235 0.000104967 10
-12.2484 -21.0448 3.85661 0.000102396 10
-12.2537 -21.054 4.73516 9.92629e-05 10
-12.2589 -21.0628 5.62638 9.56126e-05 10
-12.2591 -21.0632 6.53017 9.14953e-05 10
-5.03243 -8.71643 -2.69687 0.000123987 4
-5.85329 -10.1382 -2.70268 0.000255061 4
-6.68316 -11.5756 -2.59815 0.000390324 4
-8.06038 -13.961 -2.55328 5.29756e-05 4
-12.504 -21.6575 -2.18791 0.000123144 10
-12.6033 -21.8296 -1.32103 9.42763e-05 10
-12.5991 -21.8223 -0.439837 9.48614e-05 10
-12.6015 -21.8265 0.439921 9.4869e-05 10
-12.2324 -21.1871 1.28215 0.000106107 10
-12.224 -21.1725 2.13892 0.000104783 10
-12.2309 -21.1845 3.00353 0.000102845 10
-12.2251 -21.1744 3.87252 0.000100322 10
-12.2341 -21.1901 4.75613 9.72471e-05 10
-12.24 -21.2004 5.65167 9.36649e-05 10
-12.2338 -21.1896 6.55607 8.96248e-05 10
-5.01003 -8.74799 -2.70121 4.05375e-05 4
-5.81898 -10.1605 -2.7032 4.9638e-05 4
-6.66488 -11.6375 -2.60682 0.000354166 4
-8.00528 -13.978 -2.55126 5.22476e-05 4
-12.4779 -21.7876 -2.19664 0.000120617 10
-12.4867 -21.8029 -1.31677 9.56737e-05 10
-12.4941 -21.8158 -0.438825 9.62667e-05 10
-12.4989 -21.8242 0.438994 9.62745e-05 10
-12.2119 -21.3231 1.28779 0.000103949 10
-12.2042 -21.3098 2.14846 0.00010265 10
-12.1998 -21.302 3.01413 0.000100749 10
-12.2091 -21.3182 3.891 9.8272e-05 10
-12.2083 -21.3169 4.77501 9.52553e-05 10
-12.2169 -21.3318 5.67532 9.17406e-05 10
-12.2147 -21.3281 6.5857 8.77768e-05 10
-4.97204 -8.75237 -2.69719 0.000178856 4
-5.7788 -10.1725 -2.70101 0.000104801 4
-6.6455 -11.6982 -2.6152 0.000356829 4
-7.95833 -14.0092 -2.55187 4.89434e-05 4
-12.4561 -21.9267 -2.20626 0.00011812 10
-12.547 -22.0867 -1.33125 9.18058e-05 10
-12.5592 -22.1081 -0.44382 9.23774e-05 10
-12.547 -22.0866 0.443388 9.23848e-05 10
-12.1817 -21.4436 1.29249 0.000101817 10
-12.1801 -21.4408 2.15738 0.000100542 10
-12.1828 -21.4455 3.0284 9.86762e-05 10
-12.1809 -21.4422 3.90584 9.62465e-05 10
-12.1851 -21.4497 4.79519 9.3287e-05 10
-12.1809 -21.4423 5.69336 8.9839e-05 10
-12.1907 -21.4596 6.61312 8.59509e-05 10
-4.94811 -8.78147 -2.70082 0.000131171 4
-5.74409 -10.1941 -2.7014 4.551e-05 4
-6.6253 -11.758 -2.62338 0.000319362 4
-7.90355 -14.0265 -2.54999 5.59436e-05 4
-12.4276 -22.0553 -2.21483 0.000115653 10
-12.4363 -22.0708 -1.32767 9.31517e-05 10
-12.4441 -22.0848 -0.442477 9.37309e-05 10
-12.4388 -22.0753 0.442287 9.37384e-05 10
-12.1626 -21.5851 1.29845 9.97103e-05 10
-12.1556 -21.5727 2.16637 9.84594e-05 10
-12.1626 -21.5851 3.0421 9.66293e-05 10
-12.1572 -21.5756 3.92238 9.42459e-05 10
-12.1553 -21.5721 4.81304 9.13428e-05 10
-12.1699 -21.5982 5.72342 8.79609e-05 10
-12.1645 -21.5885 6.63974 8.41475e-05 10
-4.91952 -8.80244 -2.70197 0.000243282 4
-5.71024 -10.2173 -2.70224 6.89611e-05 4
-6.61183 -11.8305 -2.63439 0.000261978 4
-7.85291 -14.0511 -2.54946 5.33752e-05 4
-12.402 -22.1908 -2.22408 0.000113216 10
-12.4949 -22.357 -1.34225 8.94202e-05 10
-12.5013 -22.3684 -0.447282 8.99787e-05 10
-12.5013 -22.3685 0.447282 8.99859e-05 10
-12.1314 -21.7066 1.30321 9.7629e-05 10
-12.1306 -21.7051 2.17539 9.64021e-05 10
-12.1341 -21.7114 3.05391 9.46069e-05 10
-12.1345 -21.7121 3.93948 9.22693e-05 10
-12.1375 -21.7175 4.83601 8.94222e-05 10
-12.134 -21.7112 5.74211 8.61057e-05 10
-12.1403 -21.7226 6.66788 8.23663e-05 10
-4.87676 -8.79791 -2.69533 0.000183668 4
-5.67727 -10.2421 -2.70354 5.79327e-05 4
-6.60331 -11.9127 -2.64754 0.000353262 4
-7.80679 -14.0838 -2.55043 4.8597e-05 4
-12.3864 -22.3457 -2.23525 0.00011081 10
-12.3903 -22.3526 -1.33939 9.07166e-05 10
-12.3796 -22.3334 -0.445715 9.12824e-05 10
-12.3844 -22.342 0.445887 9.12897e-05 10
-12.1108 -21.8485 1.30918 9.55737e-05 10
-12.1069 -21.8414 2.18481 9.43704e-05 10
-12.1135 -21.8532 3.06789 9.26099e-05 10
-12.117 -21.8596 3.95854 9.03175e-05 10
-12.1186 -21.8625 4.85883 8.75258e-05 10
-12.1146 -21.8552 5.769 8.42739e-05 10
-12.1225 -21.8696 6.69999 8.06077e-05 10
-4.85595 -8.83295 -2.70086 0.000109732 4
-5.6299 -10.2407 -2.69799 7.1733e-05 4
-6.57772 -11.9648 -2.65401 0.000253766 4
-7.75467 -14.1057 -2.54948 4.82361e-05 4
-12.3522 -22.4686 -2.24322 0.000108434 10
-12.4374 -22.6235 -1.35301 8.71149e-05 10
-12.4334 -22.6163 -0.450492 8.76607e-05 10
-12.4385 -22.6256 0.450676 8.76677e-05 10
-12.0845 -21.9816 1.31461 9.35439e-05 10
-12.0788 -21.9712 2.19356 9.23638e-05 10
-12.0839 -21.9804 3.07981 9.06377e-05 10
-12.0899 -21.9914 3.97474 8.83901e-05 10
-12.0874 -21.9869 4.87708 8.5653e-05 10
-12.0851 -21.9827 5.79147 8.24652e-05 10
-12.0977 -22.0056 6.72868 7.88714e-05 10
-4.82394 -8.84773 -2.70022 0.000126441 4
-5.60528 -10.2808 -2.70337 4.82864e-05 4
-6.57182 -12.0536 -2.66859 0.000354588 4
-7.71777 -14.1554 -2.55357 4.34558e-05 4
-12.331 -22.6166 -2.25369 0.000106089 10
-12.3357 -22.6252 -1.35052 7.09099e-05 10
-12.3284 -22.6118 -0.449543 7.13132e-05 10
-12.3355 -22.6248 0.449801 7.12785e-05 10
-12.0649 -22.1287 1.32088 9.15396e-05 10
-12.063 -22.1252 2.20472 9.03826e-05 10
-12.0625 -22.1242 3.09404 8.86904e-05 10
-12.0606 -22.1206 3.99047 8.64872e-05 10
-12.0593 -22.1183 4.89685 8.38043e-05 10
-12.064 -22.1269 5.81834 8.06796e-05 10
-12.0597 -22.1191 6.75048 7.71574e-05 10
-4.79744 -8.87267 -2.7027 0.000186098 4
-5.56906 -10.2998 -2.70322 0.00015729 4
-6.55731 -12.1275 -2.67987 0.00036116 4
-7.65628 -14.16 -2.54957 5.4512e-05 4
-12.3048 -22.7573 -2.26341 0.000103774 10
-12.489 -23.098 -1.37614 0.000123971 10
-12.481 -23.0832 -0.458045 0.000124753 10
-12.4891 -23.0981 0.458341 0.000124763 10
-12.0367 -22.2614 1.32629 8.95609e-05 10
-12.0332 -22.2549 2.21344 8.84269e-05 10
-12.0427 -22.2724 3.10887 8.67683e-05 10
-12.0399 -22.2674 4.00934 8.46088e-05 10
-12.0425 -22.2721 4.92158 8.19794e-05 10
-12.0409 -22.2692 5.84465 7.89173e-05 10
-12.0378 -22.2635 6.78168 7.54658e-05 10
-4.75946 -8.87635 -2.69874 6.91955e-05 4
-5.53264 -10.3183 -2.70301 0.000113149 4
-6.54139 -12.1996 -2.69075 0.000333544 4
-7.61314 -14.1985 -2.55169 4.49423e-05 4
-12.2842 -22.9098 -2.2743 0.000101489 10
-12.3713 -23.0724 -1.37203 0.000125735 10
-12.3728 -23.0752 -0.457027 0.000126527 10
-12.3765 -23.082 0.457161 0.000126537 10
-12.2772 -22.8969 1.36159 7.99604e-05 10
-12.3402 -23.0143 2.28468 4.95409e-05 10
-12.3339 -23.0027 3.20477 4.85998e-05 10
-12.2938 -22.9279 4.12051 7.54913e-05 10
-12.2813 -22.9046 5.05183 7.31195e-05 10
-12.3426 -23.0188 6.03007 4.41484e-05 10
-12.3381 -23.0105 6.99606 4.2193e-05 10
-4.73507 -8.90536 -2.70252 0.000121698 4
-5.4956 -10.3357 -2.70252 0.00010902 4
-6.51955 -12.2615 -2.69936 0.00035424 4
-7.56262 -14.2232 -2.55138 4.71597e-05 4
-12.2521 -23.0429 -2.28325 9.92354e-05 10
-12.2617 -23.0609 -1.36879 0.000127509 10
-12.2603 -23.0583 -0.455842 0.000128312 10
-12.2596 -23.0569 0.455814 0.000128322 10
-12.2548 -23.0479 1.36802 7.81854e-05 10
-12.2569 -23.0519 2.28415 9.82255e-05 10
-12.2517 -23.0421 3.20428 9.64156e-05 10
-12.2583 -23.0545 4.13554 7.38072e-05 10
-12.2614 -23.0603 5.07671 7.1484e-05 10
-12.2556 -23.0494 6.02683 8.77423e-05 10
-12.2604 -23.0585 6.99758 8.39086e-05 10
-4.69751 -8.90962 -2.69882 7.15929e-05 4
-5.44825 -10.3335 -2.69696 8.28079e-05 4
-6.49851 -12.3255 -2.70844 0.000278252 4
-7.51634 -14.256 -2.55254 4.82722e-05 4
-12.227 -23.1905 -2.29364 9.70115e-05 10
-12.2266 -23.1899 -1.37391 9.81757e-05 10
-12.2244 -23.1857 -0.457514 9.87373e-05 10
-12.226 -23.1886 0.457571 9.8688e-05 10
-12.2267 -23.19 1.37391 7.6434e-05 10
-12.1396 -23.0247 2.27724 9.96014e-05 10
-12.1356 -23.0172 3.19491 9.77682e-05 10
-12.2372 -23.2098 4.15573 7.21458e-05 10
-12.2351 -23.2059 5.09932 6.98705e-05 10
-12.1427 -23.0306 6.01079 8.89826e-05 10
-12.1443 -23.0337 6.97717 8.50991e-05 10
-4.66814 -8.92933 -2.69984 7.15985e-05 4
-5.41377 -10.3556 -2.69777 3.72671e-05 4
-6.4797 -12.3945 -2.71862 0.000285125 4
-7.46506 -14.2793 -2.55204 4.8648e-05 4
-12.2063 -23.3484 -2.30503 9.48182e-05 10
-12.2062 -23.3483 -1.38076 9.5958e-05 10
-12.2006 -23.3375 -0.459666 9.65077e-05 10
-12.1968 -23.3303 0.459525 9.64592e-05 10
-12.2078 -23.3513 1.38093 7.47067e-05 10
-12.0233 -22.9984 2.27047 0.000100985 10
-12.0303 -23.0117 3.1883 9.91281e-05 10
-12.2089 -23.3534 4.17378 7.05074e-05 10
-12.2162 -23.3674 5.12543 6.82796e-05 10
-12.0332 -23.0173 5.99632 9.02297e-05 10
-12.0292 -23.0098 6.95715 8.62961e-05 10
-4.63445 -8.94075 -2.69838 8.83118e-05 4
-6.4717 -12.4852 -2.73353 0.000300697 4
-7.41308 -14.3013 -2.55132 4.64438e-05 4
-12.1788 -23.4952 -2.31531 9.26549e-05 10
-14.8466 -28.6421 -1.69074 5.15789e-05 10
-12.1753 -23.4886 1.38653 7.30029e-05 10
-11.9186 -22.9934 2.26586 0.000102376 10
-11.922 -22.9999 3.18088 0.000100496 10
-12.1788 -23.4954 4.19153 6.88915e-05 10
-12.186 -23.5092 5.14717 6.67105e-05 10
-11.9126 -22.9817 5.97618 9.1484e-05 10
-11.9127 -22.9818 6.93609 8.75001e-05 10
-4.60059 -8.95177 -2.69685 0.00014322 4
-6.44055 -12.5319 -2.73883 0.000111787 1
-7.3639 -14.3286 -2.55159 4.86627e-05 4
-12.1427 -23.6272 -2.32412 9.05222e-05 10
-14.7087 -28.6201 -1.6864 5.23537e-05 10
-12.1514 -23.644 1.3932 7.13233e-05 10
-12.1477 -23.6368 2.32507 7.04009e-05 10
-12.1516 -23.6445 3.26414 6.90527e-05 10
-12.1611 -23.663 4.21383 6.72986e-05 10
-12.1616 -23.6639 5.1717 6.51639e-05 10
-12.1581 -23.6571 6.14074 6.26799e-05 10
-12.1629 -23.6664 7.12983 5.98821e-05 10
-4.57543 -8.97978 -2.70046 0.000140844 4
-5.30588 -10.4134 -2.6982 7.59362e-05 4
-6.395 -12.5509 -2.73808 0.0001118 1
-7.30802 -14.3428 -2.54956 4.4983e-05 4
-12.1208 -23.7885 -2.33581 8.84194e-05 10
-14.5676 -28.5905 -1.68165 5.31334e-05 10
-12.1268 -23.8001 1.39989 6.96673e-05 10
-12.1297 -23.8059 2.33752 6.87644e-05 10
-12.1262 -23.7989 3.27959 6.7445e-05 10
-12.1284 -23.8034 4.23127 6.57283e-05 10
-12.133 -23.8124 5.19486 6.36393e-05 10
-12.1356 -23.8174 6.1713 6.12086e-05 10
-12.1349 -23.816 7.1621 5.84712e-05 10
-4.54557 -8.9987 -2.70136 8.8333e-05 4
-5.2732 -10.4392 -2.7001 4.41853e-05 4
-6.34914 -12.5692 -2.73721 0.000111813 1
-7.2647 -14.3817 -2.55195 5.01526e-05 4
-12.0963 -23.9465 -2.34717 8.6347e-05 10
-14.4276 -28.5619 -1.677 5.39181e-05 10
-12.1033 -23.9604 1.40682 6.8035e-05 10
-12.0969 -23.9477 2.34729 6.71515e-05 10
-12.1 -23.9539 3.29512 6.58603e-05 10
-12.1001 -23.9541 4.25052 6.41806e-05 10
-12.0989 -23.9517 5.21602 6.21368e-05 10
-12.1066 -23.967 6.19909 5.97588e-05 10
-12.1074 -23.9685 7.19522 5.70811e-05 10
-4.51481 -9.01586 -2.70176 6.44643e-05 4
-5.23821 -10.4605 -2.70086 9.25218e-05 4
-6.30919 -12.5992 -2.73893 0.000111826 1
-7.2055 -14.3891 -2.54878 5.0529e-05 4
-12.0687 -24.1007 -2.35813 8.43045e-05 10
-14.2939 -28.5443 -1.67303 5.47077e-05 10
-12.0671 -24.0975 1.41239 6.64265e-05 10
-12.0741 -24.1114 2.35918 6.55621e-05 10
-12.0702 -24.1036 3.30989 6.42989e-05 10
-12.0691 -24.1013 4.26915 6.26556e-05 10
-12.0749 -24.1131 5.24195 6.06564e-05 10
-12.0698 -24.1029 6.2233 5.83305e-05 10
-12.0783 -24.1198 7.22792 5.57115e-05 10
-4.48388 -9.03271 -2.70211 3.82042e-05 4
-5.20029 -10.4759 -2.70015 6.76717e-05 4
-6.26915 -12.6291 -2.74067 0.00011184 1
-7.16307 -14.4299 -2.55157 5.75455e-05 4
-12.0348 -24.244 -2.36803 8.22922e-05 10
-12.0409 -24.2563 1.41923 6.48416e-05 10
-12.0408 -24.2561 2.36921 6.3996e-05 10
-12.0389 -24.2523 3.32451 6.27604e-05 10
-12.0465 -24.2675 4.2911 6.11532e-05 10
-12.0424 -24.2592 5.26454 5.9198e-05 10
-12.042 -24.2584 6.25256 5.69234e-05 10
-12.0453 -24.2652 7.25885 5.43625e-05 10
-4.44393 -9.03126 -2.69702 0.000100294 4
-5.16414 -10.4949 -2.70038 4.28168e-05 4
-6.2209 -12.6425 -2.73885 0.000111853 1
-7.10842 -14.4462 -2.55005 5.01755e-05 4
-12.0102 -24.408 -2.37995 8.031e-05 10
-12.01 -24.4076 1.42562 6.32804e-05 10
-12.0094 -24.4064 2.37978 6.24533e-05 10
-12.0143 -24.4162 3.34121 6.1245e-05 10
-12.0125 -24.4125 4.30931 5.96734e-05 10
-12.0237 -24.4355 5.29365 5.77616e-05 10
-12.0197 -24.4273 6.28524 5.55377e-05 10
-12.0158 -24.4194 7.29239 5.3034e-05 10
-4.41479 -9.05167 -2.69849 0.000138512 4
-5.1321 -10.5224 -2.70282 9.94551e-05 4
-6.17386 -12.6583 -2.73758 0.000111867 1
-7.07984 -14.5158 -2.55796 0.000158603 4
-11.9787 -24.56 -2.39067 7.83573e-05 10
-11.987 -24.577 1.43306 6.17424e-05 10
-11.9797 -24.5621 2.39088 6.09338e-05 10
-11.9929 -24.5891 3.35913 5.97524e-05 10
-11.9832 -24.5692 4.32956 5.82159e-05 10
-11.9927 -24.5886 5.31773 5.63469e-05 10
-11.9893 -24.5817 6.31416 5.4173e-05 10
-11.9968 -24.597 7.33289 5.17259e-05 10
-4.38372 -9.06816 -2.69883 0.000105087 4
-5.08638 -10.5217 -2.69807 7.73614e-05 4
-6.131 -12.6826 -2.73819 0.00011188 1
-7.05426 -14.5924 -2.56711 0.000183596 4
-11.9463 -24.712 -2.4014 7.64348e-05 10
-13.7473 -28.4377 -1.65537 3.82526e-05 10
-13.7497 -28.4426 -0.551435 3.85139e-05 10
-13.7471 -28.4373 0.551332 3.85172e-05 10
-11.9583 -24.7369 1.43994 6.02283e-05 10
-11.9598 -24.7401 2.40412 5.94377e-05 10
-11.9543 -24.7286 3.37246 5.82828e-05 10
-11.9621 -24.7448 4.35311 5.67809e-05 10
-11.959 -24.7383 5.34105 5.49543e-05 10
-11.9632 -24.747 6.34586 5.28297e-05 10
-11.9675 -24.7559 7.36776 5.04383e-05 10
-4.34987 -9.07889 -2.69749 8.83755e-05 4
-5.0477 -10.5354 -2.69704 4.69739e-05 4
-6.0918 -12.7146 -2.74049 0.000111893 1
-7.03305 -14.6791 -2.57802 0.000177798 4
-11.9235 -24.8862 -2.41427 7.45418e-05 10
-11.9204 -24.8799 1.44583 5.87373e-05 10
-11.9266 -24.8927 2.41489 5.79645e-05 10
-11.9347 -24.9097 3.39145 5.68359e-05 10
-11.9244 -24.8882 4.37099 5.53682e-05 10
-11.9373 -24.915 5.37016 5.35832e-05 10
-11.9269 -24.8933 6.37266 5.15073e-05 10
-11.9405 -24.9217 7.40464 4.91709e-05 10
-4.31547 -9.08836 -2.69581 0.00013138 4
-5.01687 -10.5655 -2.70026 4.69785e-05 4
-6.02267 -12.6837 -2.72929 3.29936e-05 4
-7.00893 -14.7608 -2.58805 0.000174673 4
-11.8962 -25.0533 -2.42643 7.26786e-05 10
-13.478 -28.3846 -1.64676 3.93288e-05 10
-13.4757 -28.3798 -0.54838 3.95969e-05 10
-13.4775 -28.3836 0.548453 3.96002e-05 10
-11.9036 -25.0689 1.45439 5.72698e-05 10
-11.8957 -25.0522 2.42633 5.65147e-05 10
-11.9035 -25.0686 3.40742 5.54118e-05 10
-11.9073 -25.0767 4.39678 5.39779e-05 10
-11.9013 -25.0642 5.39332 5.2234e-05 10
-11.9046 -25.0709 6.40746 5.02061e-05 10
-11.9064 -25.0747 7.43772 4.79239e-05 10
-4.28315 -9.10216 -2.69545 0.000465838 4
-4.97373 -10.5697 -2.69688 6.6329e-05 4
-5.93851 -12.62 -2.7111 4.17352e-05 4
-6.98166 -14.8368 -2.59709 0.000186607 4
-11.8679 -25.2205 -2.43859 7.08449e-05 10
-11.8676 -25.2199 1.46074 5.58255e-05 10
-11.8724 -25.2301 2.43952 5.50877e-05 10
-11.868 -25.2208 3.42245 5.40104e-05 10
-11.8678 -25.2205 4.41469 5.26096e-05 10
-11.8713 -25.2279 5.4196 5.09063e-05 10
-11.8721 -25.2294 6.43733 4.89257e-05 10
-11.8772 -25.2403 7.4745 4.6697e-05 10
-4.24958 -9.11325 -2.69432 0.000461097 4
-4.94204 -10.5982 -2.69974 7.46274e-05 4
-5.85257 -12.5509 -2.69185 3.41479e-05 4
-6.96502 -14.9365 -2.61028 0.000138994 4
-11.8306 -25.3708 -2.44912 6.90407e-05 10
-13.22 -28.3504 -1.63938 4.04165e-05 10
-13.2231 -28.357 -0.546142 4.06913e-05 10
-13.2225 -28.3557 0.546117 4.06947e-05 10
-11.8389 -25.3886 1.46811 5.44044e-05 10
-11.7597 -25.2187 2.43444 7.83858e-05 10
-11.7535 -25.2055 3.41478 7.69026e-05 10
-11.843 -25.3974 4.4384 5.12636e-05 10
-11.8388 -25.3884 5.44518 4.96002e-05 10
-11.7586 -25.2163 6.42348 6.98048e-05 10
-11.8497 -25.4118 7.51298 4.54903e-05 10
-4.22765 -9.14947 -2.70065 0.000453967 4
-4.89797 -10.6002 -2.69586 0.000131302 4
-5.77225 -12.4923 -2.67495 5.03401e-05 4
-6.9461 -15.0327 -2.62284 0.000107503 4
-11.8 -25.5376 -2.46123 6.72658e-05 10
-11.8108 -25.5609 1.47568 5.30064e-05 10
-11.6432 -25.1982 2.42852 7.93959e-05 10
-11.64 -25.1912 3.40732 7.78952e-05 10
-11.8168 -25.5738 4.462 4.99395e-05 10
-11.8124 -25.5644 5.47405 4.83156e-05 10
-11.6355 -25.1816 6.40423 7.07129e-05 10
-11.6454 -25.203 7.4392 6.75436e-05 10
-4.18654 -9.14419 -2.69476 0.000434888 4
-4.87255 -10.6426 -2.7023 0.000127168 4
-5.70217 -12.4546 -2.6626 3.56765e-05 4
-6.91481 -15.1033 -2.63091 0.000160108 4
-11.775 -25.7188 -2.47471 6.55201e-05 10
-12.9588 -28.3045 -0.543376 4.17967e-05 10
-12.9516 -28.2888 0.543074 4.18001e-05 10
-11.7799 -25.7296 1.48304 5.16314e-05 10
-11.5318 -25.1877 2.42362 8.04104e-05 10
-11.5294 -25.1823 3.40066 7.88919e-05 10
-11.7857 -25.7423 4.48418 4.86373e-05 10
-11.7855 -25.7419 5.5032 4.70522e-05 10
-11.5237 -25.1698 6.39099 7.1625e-05 10
-11.5212 -25.1645 7.4159 6.84181e-05 10
-4.16515 -9.18202 -2.70161 0.00046121 4
-4.82534 -10.6374 -2.6967 0.000223947 4
-5.65583 -12.4682 -2.66127 5.7238e-05 4
-6.88793 -15.1844 -2.64084 0.000147866 4
-11.738 -25.8764 -2.48592 6.38035e-05 10
-12.8581 -28.3456 -1.63122 2.87149e-05 10
-12.8571 -28.3433 -0.543256 2.88905e-05 10
-12.8575 -28.3442 0.543272 2.88736e-05 10
-11.7499 -25.9025 1.49063 5.02793e-05 10
-11.7541 -25.9117 4.50651 4.73571e-05 10
-11.7538 -25.9111 5.53058 4.58103e-05 10
-11.7552 -25.9142 7.62469 4.19898e-05 10
-4.12763 -9.18438 -2.69805 0.000458857 4
-4.79797 -10.676 -2.70221 0.000217057 4
-5.61026 -12.4834 -2.66031 0.000144971 4
-6.87471 -15.2969 -2.65622 6.74279e-05 4
-11.7108 -26.0577 -2.4994 6.21159e-05 10
-11.8065 -26.2706 -1.50944 5.86973e-05 10
-11.7966 -26.2485 -0.502313 5.9082e-05 10
-11.7968 -26.249 0.502321 5.90867e-05 10
-11.7205 -26.0793 1.49844 4.895e-05 10
-11.7226 -26.084 4.52933 4.60986e-05 10
-11.7233 -26.0856 5.55905 4.45895e-05 10
-11.7224 -26.0835 7.66241 4.08626e-05 10
-4.09388 -9.195 -2.69696 0.000506696 4
-4.75479 -10.6794 -2.69887 0.000269619 4
-5.56945 -12.5092 -2.66165 0.000159859 4
-11.6831 -26.2407 -2.51303 6.04572e-05 10
-11.6873 -26.2501 -1.5059 5.94415e-05 10
-11.6827 -26.2397 -0.501361 5.98307e-05 10
-11.6783 -26.2298 0.501172 4.06449e-05 10
-11.6789 -26.2312 1.50481 4.76434e-05 10
-11.7385 -26.365 2.52493 2.94734e-05 10
-11.7351 -26.3576 3.54257 2.8888e-05 10
-11.6907 -26.2577 4.55239 4.48617e-05 10
-11.6899 -26.256 5.58665 4.33897e-05 10
-11.6874 -26.2502 7.69937 3.97551e-05 10
-4.06568 -9.21812 -2.69956 0.000377663 4
-4.71188 -10.6832 -2.69566 0.000294536 4
-5.52009 -12.5157 -2.65892 0.00014798 4
-11.6432 -26.3986 -2.52425 5.88272e-05 10
-11.6993 -26.5259 -1.51937 5.73355e-05 10
-11.6926 -26.5108 -0.505757 5.77123e-05 10
-11.6951 -26.5164 0.505864 5.77169e-05 10
-11.6541 -26.4233 1.51349 4.63594e-05 10
-11.6493 -26.4125 2.52557 6.79202e-05 10
-11.652 -26.4186 3.54529 6.66145e-05 10
-11.6539 -26.4229 4.57395 4.36464e-05 10
-11.6484 -26.4104 6.66402 6.03715e-05 10
-11.6651 -26.4484 7.7455 3.86672e-05 10
-4.03105 -9.22672 -2.69794 0.000437455 4
-4.68526 -10.7241 -2.70184 0.000291799 4
-5.48092 -12.5453 -2.66113 0.000130893 4
-6.73433 -15.4143 -2.66421 5.44042e-05 4
-11.616 -26.588 -2.53846 5.72258e-05 10
-11.6211 -26.5997 -1.52126 3.82706e-05 10
-11.6175 -26.5914 -0.506519 3.8497e-05 10
-11.7091 -26.801 0.510511 5.56883e-05 10
-11.6196 -26.5962 1.52106 4.50979e-05 10
-11.5374 -26.4081 2.52128 6.87703e-05 10
-11.533 -26.398 3.5371 6.74497e-05 10
-11.6231 -26.6041 4.59826 4.24525e-05 10
-11.5263 -26.3826 6.64682 6.11345e-05 10
-11.6246 -26.6076 7.78021 3.75987e-05 10
-3.99762 -9.23794 -2.69713 0.000509211 4
-4.64331 -10.7301 -2.69923 0.000255868 4
-5.42908 -12.5459 -2.65721 0.000171074 4
-6.67322 -15.4209 -2.66131 5.56931e-05 4
-11.5774 -26.7537 -2.5504 5.56528e-05 10
-11.582 -26.7645 -1.52837 5.60092e-05 10
-11.5827 -26.7659 -0.50907 3.74401e-05 10
-11.5826 -26.7658 0.509066 3.74184e-05 10
-11.5853 -26.7721 1.5288 4.38588e-05 10
-11.4174 -26.3839 2.51516 6.96237e-05 10
-11.4184 -26.3864 3.53018 6.82879e-05 10
-11.5884 -26.7792 4.62151 4.128e-05 10
-11.4101 -26.3673 6.63289 6.19005e-05 10
-11.5942 -26.7926 7.82241 3.65496e-05 10
-3.96884 -9.25999 -2.6995 0.000466217 4
-4.60042 -10.7336 -2.69606 0.000258659 4
-5.38505 -12.5643 -2.65711 4.7609e-05 4
-6.61949 -15.4444 -2.66137 5.6022e-05 4
-11.5549 -26.9595 -2.56616 5.4108e-05 10
-11.5962 -27.0559 -1.54269 5.40509e-05 10
-11.5917 -27.0454 -0.513612 5.44085e-05 10
-11.5878 -27.0363 0.513439 5.44128e-05 10
-11.5573 -26.9651 1.53751 4.26419e-05 10
-11.2944 -26.3518 2.50832 4.63684e-05 10
-11.3009 -26.367 3.52229 4.54492e-05 10
-11.5593 -26.9698 4.64741 4.01287e-05 10
-11.3052 -26.377 6.62536 4.11163e-05 10
-11.5579 -26.9666 7.86138 3.55197e-05 10
-3.93882 -9.27927 -2.7011 0.000459082 4
-4.56857 -10.7629 -2.6994 0.000242084 4
-6.56698 -15.4708 -2.66195 4.70659e-05 4
-11.5207 -27.141 -2.5796 5.25915e-05 10
-11.5951 -27.3163 -1.55522 5.21743e-05 10
-11.5929 -27.3111 -0.517886 5.25208e-05 10
-11.5924 -27.31 0.517865 5.2525e-05 10
-11.5275 -27.1572 1.54616 4.14473e-05 10
-11.527 -27.1558 2.581 4.08848e-05 10
-11.5213 -27.1425 3.62049 4.00643e-05 10
-11.5271 -27.1562 4.67256 3.89985e-05 10
-11.5271 -27.1562 5.73449 3.77037e-05 10
-11.5242 -27.1492 6.80919 3.61996e-05 10
-11.527 -27.1558 7.90476 3.4509e-05 10
-3.90253 -9.28375 -2.69842 0.000451946 4
-4.52474 -10.7639 -2.69568 0.000250409 4
-6.232 -14.8253 -2.54713 5.6226e-05 4
-11.4852 -27.3223 -2.593 5.11027e-05 10
-11.4793 -27.3082 -1.55247 3.41793e-05 10
-11.4846 -27.3208 -0.517308 3.43829e-05 10
-11.4907 -27.3353 0.517581 3.43624e-05 10
-11.4859 -27.3238 1.55336 4.02745e-05 10
-11.4898 -27.3331 2.59403 3.97265e-05 10
-11.4941 -27.3434 3.64192 3.89273e-05 10
-11.4968 -27.3497 4.69893 3.78892e-05 10
-11.4905 -27.3347 5.76368 3.66282e-05 10
-11.4994 -27.356 6.85094 3.51635e-05 10
-11.4979 -27.3525 7.9503 3.35173e-05 10
-3.86659 -9.28889 -2.69598 0.000440026 4
-4.48504 -10.7746 -2.69442 0.00010152 4
-6.18988 -14.8702 -2.55111 5.66047e-05 4
-11.4516 -27.5106 -2.60706 4.96419e-05 10
-11.482 -27.5838 -1.56585 5.09915e-05 10
-11.4747 -27.5662 -0.521192 5.13311e-05 10
-11.4769 -27.5715 0.521292 5.13351e-05 10
-11.4541 -27.5166 1.56203 3.91237e-05 10
-11.4544 -27.5174 2.60771 3.859e-05 10
-11.4524 -27.5127 3.65911 3.78117e-05 10
-11.4573 -27.5244 4.72204 3.68008e-05 10
-11.4642 -27.541 5.7987 3.5573e-05 10
-11.4595 -27.5297 6.88439 3.4147e-05 10
-11.4632 -27.5385 7.99268 3.25446e-05 10
-3.83803 -9.31176 -2.69871 0.000231989 4
-4.43927 -10.7705 -2.68949 0.000312391 4
-5.21899 -12.6622 -2.66216 3.87011e-05 4
-11.4168 -27.6992 -2.62114 4.82086e-05 10
-11.4743 -27.8386 -1.57803 7.45511e-05 10
-11.4835 -27.8611 -0.526006 7.50494e-05 10
-11.4738 -27.8376 0.525562 7.50553e-05 10
-11.4204 -27.708 1.57062 3.79946e-05 10
-11.4199 -27.7068 2.62186 3.74749e-05 10
-11.4252 -27.7195 3.6813 3.67171e-05 10
-11.4291 -27.7291 4.75029 3.57331e-05 10
-11.4265 -27.7228 5.82856 3.45379e-05 10
-11.4307 -27.7329 6.92518 3.315e-05 10
-11.4323 -27.7368 8.0386 3.15905e-05 10
-3.80839 -9.33218 -2.70075 0.000193739 4
-4.39315 -10.7651 -2.6843 0.000356477 4
-5.17128 -12.6718 -2.66037 3.64728e-05 4
-6.09248 -14.9292 -2.55387 9.37851e-05 4
-11.3755 -27.8748 -2.63398 4.68028e-05 10
-11.3819 -27.8905 -1.57871 4.73953e-05 10
-11.386 -27.9006 -0.525999 4.76793e-05 10
-11.3847 -27.8975 0.525939 4.76502e-05 10
-11.3833 -27.8939 1.5789 3.68871e-05 10
-11.3855 -27.8992 2.63629 3.63812e-05 10
-11.3907 -27.9121 3.70157 3.56437e-05 10
-11.3933 -27.9185 4.77589 3.4686e-05 10
-11.3921 -27.9154 5.86065 3.35229e-05 10
-11.3952 -27.9232 6.96271 3.21724e-05 10
-11.3929 -27.9175 8.07939 3.06551e-05 10
-3.77089 -9.33327 -2.69724 0.00010525 4
-4.34305 -10.7494 -2.6766 0.000218884 4
-5.12417 -12.6828 -2.65889 6.1788e-05 4
-6.06975 -15.0231 -2.5663 0.000138945 4
-11.3409 -28.0696 -2.64864 4.54243e-05 10
-11.3504 -28.0932 -1.58793 4.60006e-05 10
-11.3447 -28.079 -0.528612 4.62768e-05 10
-11.352 -28.0971 0.528953 4.62484e-05 10
-11.3089 -27.9906 1.58213 5.77254e-05 10
-11.3104 -27.9942 2.64152 5.69724e-05 10
-11.3094 -27.9917 3.70687 5.58554e-05 10
-11.315 -28.0057 4.78402 5.43917e-05 10
-11.3096 -27.9922 5.86845 5.26041e-05 10
-11.3086 -27.9898 6.96944 5.05201e-05 10
-11.308 -27.9884 8.08843 4.81716e-05 10
-3.74202 -9.35572 -2.69994 0.000129181 4
-4.2926 -10.7323 -2.66858 0.000494134 4
-5.0797 -12.7002 -2.6588 5.58394e-05 4
-6.04584 -15.1157 -2.57849 0.000130959 4
-11.1878 -27.9716 1.57884 5.84124e-05 10
-11.196 -27.9921 2.63762 5.76513e-05 10
-11.1885 -27.9732 3.69923 5.6522e-05 10
-11.1853 -27.9652 4.7704 5.50422e-05 10
-11.1933 -27.9852 5.85876 5.3235e-05 10
-11.1867 -27.9687 6.95442 5.1128e-05 10
-11.1856 -27.9659 8.07061 4.87536e-05 10
-3.70394 -9.35507 -2.69601 7.1773e-05 4
-4.24749 -10.7279 -2.6638 0.000127247 4
-5.0326 -12.7109 -2.65735 6.25478e-05 4
-6.02401 -15.2149 -2.59181 0.000156172 4
-11.0703 -27.9604 1.57602 5.91015e-05 10
-11.0744 -27.9707 2.63195 5.83321e-05 10
-11.0733 -27.9681 3.69341 5.71906e-05 10
-11.072 -27.9647 4.7637 5.56948e-05 10
-11.0694 -27.9582 5.84498 5.38678e-05 10
-11.0717 -27.9639 6.94358 5.17379e-05 10
-11.0685 -27.9557 8.05647 4.93374e-05 10
-3.66859 -9.36114 -2.69405 0.000119632 4
-4.20531 -10.7307 -2.66082 0.000411736 4
-5.99726 -15.3032 -2.60327 0.000145585 4
-10.9964 -28.0594 1.57942 3.61032e-05 10
-10.9925 -28.0494 2.63573 3.56076e-05 10
-10.9913 -28.0466 3.69869 3.48853e-05 10
-10.9944 -28.0545 4.77242 3.39476e-05 10
-10.9953 -28.0567 5.85752 3.28089e-05 10
-10.9979 -28.0632 6.95867 3.14868e-05 10
-11.006 -28.0841 8.08233 3.00015e-05 10
-3.64107 -9.38724 -2.69789 0.000425924 4
-4.94606 -12.7517 -2.65861 2.90472e-05 4
-5.97817 -15.4126 -2.61832 6.76803e-05 4
-3.60342 -9.38723 -2.69425 8.85421e-05 4
-4.12252 -10.7395 -2.65582 9.5516e-05 4
-5.95668 -15.5177 -2.63262 0.00014945 4
-3.574 -9.40862 -2.69679 6.2224e-05 4
-4.08818 -10.7622 -2.65788 0.000114341 4
-5.93436 -15.6223 -2.64684 0.000176191 4
-3.53788 -9.41237 -2.69431 5.26555e-05 4
-4.04782 -10.7691 -2.65606 7.38225e-05 4
-4.80877 -12.7935 -2.65668 3.57636e-05 4
-5.9047 -15.7092 -2.65805 0.000140581 4
-3.50649 -9.42867 -2.69546 0.000318353 4
-4.01248 -10.7892 -2.65756 8.10681e-05 4
-4.76299 -12.8073 -2.65607 6.55747e-05 4
-5.8869 -15.8294 -2.67489 0.000137356 4
-3.47598 -9.44742 -2.69733 6.46334e-05 4
-4.72391 -12.8392 -2.65925 5.36587e-05 4
-5.85778 -15.921 -2.6869 0.000147699 4
-3.44013 -9.45167 -2.6951 0.00012449 4
-3.94099 -10.8278 -2.66022 7.38446e-05 4
-4.67318 -12.8395 -2.65591 4.69572e-05 4
-5.83343 -16.0272 -2.70137 0.000135107 4
-3.4097 -9.47081 -2.69715 8.37981e-05 4
-3.89696 -10.8242 -2.65599 5.93713e-05 4
-4.63111 -12.8634 -2.6575 6.709e-05 4
-5.81318 -16.1467 -2.71808 0.000125971 4
-3.37529 -9.47893 -2.69609 8.14107e-05 4
-4.5921 -12.8961 -2.66093 6.63528e-05 4
-5.79209 -16.2661 -2.73475 0.000101672 4
-3.34359 -9.49463 -2.69722 5.98658e-05 4
-3.82123 -10.851 -2.65594 0.000117318 4
-4.54694 -12.9117 -2.66086 7.97823e-05 4
-5.73832 -16.2948 -2.7362 4.80276e-05 1
-3.3084 -9.50044 -2.69557 0.000110162 4
-3.78373 -10.8654 -2.65622 0.0001463 4
-5.68237 -16.3175 -2.73667 4.80354e-05 1
-3.27263 -9.5044 -2.69344 0.000117357 4
-3.74448 -10.8748 -2.6553 0.000115893 4
-4.45546 -12.9396 -2.66013 4.8478e-05 4
-5.6237 -16.3324 -2.73585 4.80433e-05 1
-3.2435 -9.52772 -2.69682 0.000342519 4
-4.40862 -12.9502 -2.65914 4.40086e-05 4
-5.5738 -16.3729 -2.73936 4.80511e-05 1
-3.20713 -9.5298 -2.69423 0.000126958 4
-3.66773 -10.8984 -2.65476 3.0428e-05 4
-4.3626 -12.9632 -2.65866 3.1332e-05 4
-5.50878 -16.369 -2.73547 4.8059e-05 1
-3.17907 -9.55662 -2.69866 0.000172486 4
-3.63609 -10.9305 -2.65946 7.82513e-05 4
-5.45357 -16.394 -2.73646 4.80669e-05 1
-3.14167 -9.55544 -2.69521 8.62503e-05 4
-3.59122 -10.9228 -2.65452 0.000105795 4
-3.56039 -10.9578 -2.65999 7.10201e-05 4
-11.5297 -35.4848 -1.95538 2.86809e-05 10
-3.07694 -9.58354 -2.69701 9.10574e-05 4
-3.51578 -10.9504 -2.6552 0.000204385 4
-4.18071 -13.0214 -2.65836 6.26954e-05 4
-11.3849 -35.4598 -1.9518 2.90018e-05 10
-3.04289 -9.59239 -2.6965 0.000162959 4
-3.47749 -10.9624 -2.65517 0.00027689 4
-4.13434 -13.0331 -2.65779 3.43375e-05 4
-11.2404 -35.4343 -1.94823 2.93232e-05 10
-3.0062 -9.59279 -2.69364 5.99163e-05 4
-3.43858 -10.9725 -2.65468 4.05953e-05 4
-11.0921 -35.3949 -1.94392 2.96452e-05 10
-2.97423 -9.60818 -2.69503 0.00012943 4
-3.40636 -11.0042 -2.65945 7.53989e-05 4
-4.04159 -13.0563 -2.65669 2.91196e-05 4
-4.96881 -16.0516 -2.66135 5.46848e-05 4
-10.9528 -35.3828 -1.94114 2.99676e-05 10
-2.9422 -9.6235 -2.69643 0.000172588 4
-3.36184 -10.9961 -2.65464 0.000101509 4
-3.99451 -13.0655 -2.65571 8.13957e-05 4
-4.90885 -16.0561 -2.65924 6.27369e-05 4
-6.09308 -19.9296 -2.55885 5.80643e-05 4
-10.804 -35.3381 -1.93661 3.02904e-05 10
-2.90606 -9.62534 -2.69409 0.000215754 4
-3.32966 -11.0284 -2.65961 0.000111671 4
-4.84816 -16.0579 -2.65671 7.4653e-05 4
-6.05904 -20.0685 -2.57396 6.03404e-05 4
-10.6627 -35.3165 -1.93338 3.06137e-05 10
-2.87703 -9.65081 -2.69839 0.000551418 4
-3.28777 -11.0286 -2.65688 9.71781e-05 4
-3.90165 -13.0878 -2.65465 3.65999e-05 4
-4.79261 -16.0765 -2.657 6.08264e-05 4
-6.02291 -20.2034 -2.58855 6.24375e-05 4
-10.5263 -35.3096 -1.93098 3.09372e-05 10
-10.5239 -35.3018 -0.642994 3.11644e-05 10
-10.5256 -35.3074 0.643094 3.1167e-05 10
-2.84095 -9.6527 -2.69613 0.000525091 4
-3.24708 -11.0326 -2.65511 4.06159e-05 4
-3.86166 -13.1208 -2.65859 3.36164e-05 4
-4.74205 -16.1121 -2.66014 4.24889e-05 4
-5.99097 -20.3556 -2.60535 5.83269e-05 4
-10.3777 -35.2603 -1.92629 3.12611e-05 10
-10.3823 -35.2759 -0.641858 3.14905e-05 10
-10.3824 -35.2763 0.641864 3.14931e-05 10
-2.8098 -9.67139 -2.69859 0.000450801 4
-3.21336 -11.0605 -2.65909 0.000146522 4
-3.81697 -13.1381 -2.65938 4.85632e-05 4
-5.95114 -20.4839 -2.61911 5.78999e-05 4
-10.2438 -35.2594 -1.92427 3.15852e-05 10
-10.2369 -35.2358 -0.640474 3.18168e-05 10
-10.2441 -35.2604 0.64092 3.18194e-05 10
-2.7737 -9.67305 -2.69634 0.000501199 4
-3.17481 -11.0719 -2.65916 8.99535e-05 4
-3.76539 -13.1315 -2.65537 5.90304e-05 4
-5.91537 -20.6293 -2.63504 5.66759e-05 4
-10.0984 -35.2174 -1.92005 3.19096e-05 10
-10.0956 -35.2074 -0.639314 3.21433e-05 10
-10.1002 -35.2235 0.639606 3.21459e-05 10
-2.7419 -9.68966 -2.69828 0.000515632 4
-3.13493 -11.0786 -2.65812 4.49813e-05 4
-3.72166 -13.1521 -2.65689 9.93929e-05 4
-5.88021 -20.7802 -2.65168 4.73257e-05 4
-2.70881 -9.70186 -2.69903 0.000503684 4
-3.09449 -11.0832 -2.65662 0.000136409 4
-4.51328 -16.1647 -2.65816 3.18877e-05 4
-2.67047 -9.69508 -2.69454 0.000103144 4
-3.05328 -11.0849 -2.65445 0.000103043 4
-2.63641 -9.70361 -2.69433 0.000103153 4
-3.01417 -11.094 -2.6541 6.82185e-05 4
-3.58596 -13.1985 -2.65854 3.96227e-05 4
-2.60628 -9.72676 -2.69822 0.000158341 4
-2.97876 -11.1169 -2.65707 0.000130644 4
-2.56679 -9.71493 -2.69243 6.95802e-05 4
-2.9409 -11.1308 -2.65794 3.48421e-05 4
-3.49187 -13.2162 -2.65712 3.36505e-05 4
-2.53641 -9.73741 -2.69619 0.000146371 4
-2.89699 -11.1217 -2.65333 0.000136479 4
-2.50263 -9.74711 -2.69644 6.23929e-05 4
-2.86011 -11.1394 -2.65515 0.000166986 4
-3.3995 -13.2402 -2.65711 7.031e-05 4
-4.17454 -16.2587 -2.65866 3.869e-05 4
-5.15816 -20.0897 -2.54671 5.88935e-05 4
-2.46363 -9.73616 -2.69102 0.000103197 4
-2.82085 -11.1479 -2.65481 9.72975e-05 4
-3.35579 -13.262 -2.65911 8.0044e-05 4
-5.12541 -20.2554 -2.56544 4.36919e-05 4
-2.43491 -9.76587 -2.69687 3.12018e-05 4
-5.09394 -20.4307 -2.58537 3.22114e-05 4
-2.39558 -9.75306 -2.691 0.000151222 4
-2.74617 -11.1804 -2.65793 5.229e-05 4
-3.26282 -13.2838 -2.65886 8.15609e-05 4
-5.05834 -20.5938 -2.60377 5.88089e-05 4
-2.36573 -9.77876 -2.6958 6.00139e-05 4
-2.70673 -11.1883 -2.65753 5.95586e-05 4
-5.02032 -20.7515 -2.62147 5.27203e-05 4
-2.32843 -9.77373 -2.69215 0.000153649 4
-2.66519 -11.1873 -2.65507 3.77728e-05 4
-3.88889 -16.3239 -2.6578 3.13004e-05 4
-4.98422 -20.9216 -2.64074 4.73162e-05 4
-2.29447 -9.78251 -2.69235 0.000184875 4
-2.62471 -11.1905 -2.65364 7.55533e-05 4
-3.11876 -13.2969 -2.6548 3.51819e-05 4
-4.94288 -21.0741 -2.65779 4.50116e-05 4
-2.26438 -9.80812 -2.69721 0.000115256 4
-2.58823 -11.2108 -2.65631 4.3593e-05 4
-3.07178 -13.3053 -2.65432 3.74324e-05 4
-4.90607 -21.2505 -2.67787 4.85651e-05 4
-2.22722 -9.80316 -2.69369 0.000184907 4
-2.5481 -11.2155 -2.65529 6.3943e-05 4
-4.87266 -21.4471 -2.70048 5.0818e-05 4
-2.19257 -9.809 -2.69317 0.000228151 4
-2.50864 -11.223 -2.65498 5.8136e-05 4
-2.97769 -13.3214 -2.65332 3.81908e-05 4
-4.82875 -21.6026 -2.71792 4.30272e-05 4
-2.1617 -9.83198 -2.69739 0.000211358 4
-2.46808 -11.2255 -2.65351 5.8142e-05 4
-2.93316 -13.3408 -2.65512 4.11914e-05 4
-2.12606 -9.83339 -2.69573 0.000141718 4
-2.88943 -13.3641 -2.65775 0.000122841 4
-2.08976 -9.83154 -2.69321 5.5251e-05 4
-2.39004 -11.2442 -2.65393 6.8331e-05 4
-2.05677 -9.84518 -2.69496 0.000141743 4
-2.35213 -11.259 -2.65547 0.000125044 4
-2.794 -13.3741 -2.65579 4.12073e-05 4
-2.02452 -9.86271 -2.69781 0.000213834 4
-2.31493 -11.2775 -2.65789 4.07163e-05 4
-2.74467 -13.371 -2.65325 4.49592e-05 4
-1.98767 -9.85776 -2.69454 9.61137e-05 4
-2.26987 -11.2573 -2.65125 7.12608e-05 4
-1.9534 -9.86541 -2.69475 0.000124959 4
-2.23162 -11.2705 -2.65251 5.38148e-05 4
-2.65208 -13.394 -2.65407 4.34717e-05 4
-1.9201 -9.87807 -2.69636 0.000468635 4
-2.1962 -11.2985 -2.65728 9.30947e-05 4
-1.88452 -9.87899 -2.6948 0.000483097 4
-2.15177 -11.28 -2.65115 9.60139e-05 4
-1.84872 -9.87855 -2.6929 0.000473525 4
-2.11522 -11.3026 -2.65471 5.38316e-05 4
-2.51365 -13.4316 -2.65616 4.87371e-05 4
-1.81221 -9.87397 -2.68991 0.000473566 4
-2.07426 -11.3018 -2.6528 4.07416e-05 4
-2.46769 -13.4454 -2.65717 0.000107985 4
-1.78163 -9.90185 -2.6958 0.000459183 4
-2.03486 -11.3093 -2.65288 0.000154252 4
-2.42002 -13.4499 -2.65637 3.89997e-05 4
-1.74668 -9.90593 -2.69523 0.000533756 4
-1.99832 -11.333 -2.65679 4.94823e-05 4
-2.369 -13.4352 -2.65183 4.20052e-05 4
-1.71159 -9.90902 -2.69443 0.000488117 4
-1.95635 -11.3261 -2.65355 0.000187761 4
-2.32371 -13.4529 -2.6537 3.52589e-05 4
-1.67542 -9.90566 -2.69191 0.000153902 4
-1.91854 -11.3431 -2.65596 8.29729e-05 4
-1.64224 -9.91995 -2.69422 0.000177965 4
-1.87594 -11.3317 -2.65173 7.42467e-05 4
-1.60939 -9.93668 -2.69722 8.1775e-05 4
-1.83612 -11.3365 -2.65135 0.000100462 4
-2.18203 -13.4723 -2.65287 5.25336e-05 4
-1.57418 -9.93894 -2.69633 7.93768e-05 4
-1.80001 -11.3648 -2.65648 5.9701e-05 4
-2.13544 -13.4827 -2.65343 6.53002e-05 4
-1.53903 -9.94155 -2.69556 0.00016839 4
-1.75864 -11.3601 -2.65393 0.000196597 4
-2.08752 -13.4846 -2.65236 5.63005e-05 4
-2.04014 -13.4898 -2.65197 6.98217e-05 4
-1.46815 -9.9423 -2.69292 0.000141953 4
-1.67874 -11.3684 -2.65307 8.30249e-05 4
-1.99242 -13.4926 -2.65114 6.68273e-05 4
-1.43292 -9.94376 -2.69194 5.77488e-05 4
-1.63784 -11.3658 -2.65111 0.00029863 4
-1.94587 -13.5034 -2.65191 5.40695e-05 4
-1.5982 -11.3718 -2.65119 0.000241842 4
-1.90184 -13.5323 -2.65627 3.68021e-05 4
-1.36318 -9.95145 -2.69138 0.000113111 4
-1.55869 -11.3787 -2.65152 0.00026518 4
-1.32945 -9.96377 -2.69344 0.000139596 4
-1.52173 -11.4048 -2.65635 0.000273951 4
-1.80636 -13.538 -2.65484 3.15528e-05 4
-1.29466 -9.96829 -2.69343 0.000120352 4
-1.48084 -11.4018 -2.65443 0.00026815 4
-1.75783 -13.5345 -2.65295 4.80867e-05 4
-1.2602 -9.9755 -2.69417 0.000329794 4
-1.43845 -11.3865 -2.64967 0.000193847 4
-1.70986 -13.5349 -2.65184 3.30639e-05 4
-1.22331 -9.96307 -2.68964 0.000117966 4
-1.40086 -11.4091 -2.65378 0.000109323 4
-1.36214 -11.4233 -2.65595 4.37339e-05 4
-1.61537 -13.5469 -2.6519 3.08175e-05 4
-1.15494 -9.98186 -2.69247 0.000202263 4
-1.12081 -9.99226 -2.69421 9.6324e-05 4
-1.28084 -11.419 -2.65281 0.000109358 4
-1.08621 -9.99873 -2.69492 0.000479254 4
-1.23959 -11.4106 -2.64984 5.39555e-05 4
-1.05011 -9.99117 -2.69187 0.000419083 4
-1.20251 -11.4411 -2.65593 0.000158967 4
-1.01604 -10.0027 -2.69402 0.000366128 4
-1.1606 -11.4259 -2.65144 6.12596e-05 4
-0.979149 -9.98612 -2.6886 0.000527559 4
-1.12101 -11.4329 -2.65215 3.35505e-05 4
-1.33229 -13.5878 -2.65386 4.21251e-05 4
-0.946737 -10.0154 -2.69559 0.000508332 4
-1.08211 -11.4475 -2.65464 5.68959e-05 4
-1.28383 -13.5815 -2.65175 5.79295e-05 4
-0.909296 -9.99147 -2.68827 0.000428868 4
-1.04201 -11.4498 -2.65432 5.69019e-05 4
-1.2369 -13.5913 -2.65279 3.98788e-05 4
-0.876905 -10.0231 -2.69593 0.000479507 4
-1.00163 -11.4486 -2.65322 8.17139e-05 4
-1.18921 -13.5927 -2.65226 4.36466e-05 4
-0.840466 -10.0088 -2.6913 0.000402436 4
-0.960661 -11.4402 -2.65047 5.54545e-05 4
-0.805564 -10.0122 -2.69143 0.000503691 4
-0.921181 -11.4492 -2.6518 4.96224e-05 4
-1.09382 -13.5948 -2.65111 3.46253e-05 4
-1.34391 -16.7032 -2.65408 3.21828e-05 4
-0.771405 -10.0253 -2.69421 0.000489274 4
-1.0472 -13.6096 -2.65326 5.26975e-05 4
-0.735196 -10.0114 -2.68978 0.000477265 4
-0.841669 -11.4613 -2.65318 0.000100726 4
-0.701381 -10.0302 -2.69414 0.000400167 4
-0.95253 -13.6218 -2.65427 4.59341e-05 4
-0.665046 -10.0127 -2.68882 0.000446008 4
-0.760635 -11.4519 -2.6497 0.000110967 4
-0.904027 -13.6108 -2.65149 3.76558e-05 4
-1.10922 -16.7001 -2.65087 3.61082e-05 4
-0.631242 -10.0333 -2.69373 0.000482214 4
-0.721684 -11.4708 -2.65348 6.27908e-05 4
-0.856418 -13.6124 -2.65121 3.76607e-05 4
-1.05078 -16.7017 -2.65052 5.53103e-05 4
-0.59584 -10.0291 -2.69203 0.000472611 4
-0.681606 -11.4727 -2.65336 4.38121e-05 4
-0.808308 -13.6054 -2.64928 5.04719e-05 4
-0.560698 -10.0288 -2.6914 0.000467829 4
-0.640325 -11.453 -2.64827 3.9435e-05 4
-0.761328 -13.6173 -2.65107 6.47933e-05 4
-0.525556 -10.0282 -2.69073 0.000455812 4
-0.601231 -11.4721 -2.65219 3.50571e-05 4
-0.713891 -13.6218 -2.65145 2.93868e-05 4
-0.490429 -10.0275 -2.69008 0.0004655 4
-0.560805 -11.4665 -2.65041 6.13563e-05 4
-0.666972 -13.6372 -2.65397 6.93318e-05 4
-0.455678 -10.0348 -2.69159 0.00048725 4
-0.520443 -11.461 -2.64871 6.28238e-05 4
-0.618698 -13.6248 -2.65112 6.25575e-05 4
-0.420535 -10.0336 -2.69086 0.000521066 4
-0.481021 -11.4768 -2.65195 7.30586e-05 4
-0.571098 -13.6259 -2.65094 4.29668e-05 4
-0.38539 -10.0319 -2.69003 0.000193473 4
-0.440647 -11.4703 -2.65009 9.20636e-05 4
-0.34975 -10.0155 -2.68528 0.000229317 4
-0.400815 -11.4778 -2.65148 9.06118e-05 4
-0.314953 -10.0219 -2.68669 0.000689922 4
-0.360318 -11.4655 -2.64832 7.45434e-05 4
-0.42819 -13.6252 -2.64978 4.14754e-05 4
-0.279688 -10.0129 -2.684 0.000452373 4
-0.320335 -11.4681 -2.64866 6.43187e-05 4
-0.244963 -10.0232 -2.68651 0.00034689 4
-0.280535 -11.4787 -2.65086 6.28635e-05 4
-0.209742 -10.0129 -2.68355 0.000240807 4
-0.240585 -11.4853 -2.65218 3.50903e-05 4
-0.285381 -13.6239 -2.6488 4.07372e-05 4
-0.174623 -10.0041 -2.68101 0.000438188 4
-0.200187 -11.4687 -2.64816 0.000114055 4
-0.237784 -13.6226 -2.64836 3.92335e-05 4
-0.139722 -10.0061 -2.68138 0.000152423 4
-0.160411 -11.4877 -2.65241 4.24097e-05 4
-0.190244 -13.6242 -2.64853 3.77295e-05 4
-0.104431 -9.9719 -2.67211 0.000368553 4
-0.1203 -11.4873 -2.65219 4.68018e-05 4
-0.142658 -13.6221 -2.64802 4.67906e-05 4
-0.0695904 -9.96778 -2.67092 0.000522682 4
-0.0801242 -11.4766 -2.64965 9.50763e-05 4
-0.0348147 -9.97345 -2.67239 0.00086727 4
-0.040109 -11.4901 -2.65272 5.26631e-05 4
-0.0476391 -13.6473 -2.65277 0.000113988 4
-4.3621e-07 -9.97932 -2.67395 0.000262623 4
-5.02418e-07 -11.494 -2.65359 7.9003e-05 4
-7.31609e-07 -16.7373 -2.65092 3.78564e-05 4
0.0348019 -9.97037 -2.67157 0.000335867 4
0.0400259 -11.467 -2.64738 5.70637e-05 4
0.0694182 -9.94341 -2.66439 0.000318452 4
0.0800622 -11.4681 -2.64767 4.68265e-05 4
0.0952554 -13.6443 -2.65225 6.26799e-05 4
0.104238 -9.95374 -2.66724 0.000647476 4
0.120097 -11.468 -2.64775 5.26853e-05 4
0.142826 -13.6385 -2.6512 4.90931e-05 4
0.138824 -9.94193 -2.66419 0.00072204 4
0.160355 -11.4839 -2.65153 5.56181e-05 4
0.190234 -13.6237 -2.64844 3.32365e-05 4
0.173275 -9.92698 -2.66033 0.000393867 4
0.200569 -11.4907 -2.65324 4.39137e-05 4
0.238033 -13.637 -2.65117 3.0219e-05 4
0.207906 -9.92539 -2.66008 0.000422246 4
0.240268 -11.4703 -2.64871 7.6125e-05 4
0.242253 -9.9124 -2.65681 0.000257556 4
0.280545 -11.4792 -2.65098 0.00018594 4
0.332855 -13.6196 -2.64817 2.87155e-05 4
0.277104 -9.92048 -2.65922 0.000470076 4
0.320797 -11.4847 -2.65249 0.000130318 4
0.311708 -9.91875 -2.65903 0.000794256 4
0.360547 -11.4729 -2.65002 6.8827e-05 4
0.345577 -9.89606 -2.65326 0.000490435 4
0.400903 -11.4804 -2.65207 5.85823e-05 4
0.475706 -13.6225 -2.64956 2.94827e-05 4
0.379853 -9.88788 -2.6514 0.000287402 4
0.441111 -11.4825 -2.65289 7.47003e-05 4
0.523597 -13.6297 -2.65129 3.09986e-05 4
0.414598 -9.89202 -2.65289 0.000278645 4
0.480379 -11.4615 -2.64842 7.76379e-05 4
0.571356 -13.6322 -2.65215 5.74684e-05 4
0.448927 -9.88616 -2.65172 0.000176793 4
0.520722 -11.4672 -2.65014 0.000118667 4
0.618228 -13.6145 -2.64911 3.25192e-05 4
0.482562 -9.86673 -2.64694 0.00038217 4
0.56068 -11.464 -2.64983 4.249e-05 4
0.517365 -9.87193 -2.64881 9.83752e-05 4
0.600872 -11.4653 -2.65061 4.83558e-05 4
0.875668 -16.7088 -2.65004 3.1409e-05 4
0.552254 -9.87779 -2.65088 0.000224517 4
0.641161 -11.468 -2.65173 8.79288e-05 4
0.934267 -16.7106 -2.65083 3.10871e-05 4
0.585984 -9.86325 -2.64751 0.000158942 4
0.681278 -11.4672 -2.65208 0.000121648 4
0.807551 -13.5926 -2.6468 0.000103662 4
0.619978 -9.85429 -2.64567 0.000254834 4
0.721261 -11.4641 -2.65194 7.03578e-05 4
0.855791 -13.6024 -2.64928 3.32971e-05 4
1.05003 -16.6898 -2.64864 4.12452e-05 4
0.656144 -9.87874 -2.65283 0.000320462 4
0.759733 -11.4383 -2.64657 5.57058e-05 4
0.903406 -13.6014 -2.64968 0.000116555 4
1.10834 -16.6868 -2.64876 4.41987e-05 4
0.689235 -9.85654 -2.6475 9.33712e-05 4
0.800263 -11.4443 -2.64858 6.3042e-05 4
