VERSION 0.7
FIELDS x y z intensity label
SIZE 4 4 4 4 4
TYPE F F F F F
COUNT 1 1 1 1 1
WIDTH 1169
HEIGHT 1
VIEWPOINT 5.18016 41.0088 2.72934 0.766269 -0.000284777 0.000309523 0.64252
POINTS 1169
DATA ascii
28.0548 -13.3214 2.71713 3.40453e-05 10
28.0665 -13.327 6.03937 3.14114e-05 10
28.064 -13.3258 7.17239 3.01541e-05 10
28.0652 -13.3264 8.32477 2.87374e-05 10
8.9196 -4.19725 -2.64139 0.00020336 4
10.3589 -4.87452 -2.64308 5.76874e-05 4
15.0853 -7.0986 -2.64059 6.0814e-05 4
19.3041 -9.08382 -2.61956 8.22709e-05 4
28.035 -13.1923 -1.62379 3.46936e-05 10
28.0302 -13.19 1.62352 3.47109e-05 10
28.0303 -13.1901 2.71028 3.42559e-05 10
28.0353 -13.1924 6.0227 3.16084e-05 10
28.0405 -13.1949 7.15459 3.03446e-05 10
28.0236 -13.1869 8.29872 2.89206e-05 10
8.93155 -4.16485 -2.64061 0.000195737 4
12.309 -5.73977 -2.63997 3.59772e-05 4
15.0923 -7.03765 -2.6375 6.2478e-05 4
19.303 -9.00113 -2.61513 7.70574e-05 4
28.0243 -13.0679 -2.70527 3.44345e-05 10
28.0279 -13.0697 -1.62073 3.4903e-05 10
28.0269 -13.0692 1.62067 3.49203e-05 10
28.0095 -13.061 2.70384 3.44631e-05 10
28.0175 -13.0648 6.00905 3.18025e-05 10
28.0001 -13.0567 7.1326 3.05323e-05 10
28.0026 -13.0578 8.27893 2.91009e-05 10
8.95799 -4.13917 -2.64414 0.000106768 4
12.3379 -5.70091 -2.64189 5.97085e-05 4
15.1281 -6.99016 -2.63947 5.71628e-05 4
19.2833 -8.91015 -2.60823 8.74281e-05 4
28.0016 -12.9386 -2.6987 3.46383e-05 10
27.9857 -12.9312 -1.61567 3.5109e-05 10
27.9867 -12.9317 1.61572 3.51264e-05 10
27.9963 -12.9361 2.6982 3.4667e-05 10
27.9987 -12.9372 5.9953 3.19934e-05 10
27.9842 -12.9305 7.11702 3.0717e-05 10
27.9923 -12.9342 8.26249 2.92785e-05 10
8.96385 -4.10397 -2.64162 0.000132191 4
10.4234 -4.7722 -2.64665 4.14194e-05 4
15.1648 -6.943 -2.64164 6.54738e-05 4
19.2631 -8.81932 -2.60131 8.48872e-05 4
27.9613 -12.8017 -2.69049 3.48387e-05 10
27.9852 -12.8126 -1.61305 3.53116e-05 10
27.9583 -12.8003 1.6115 3.53291e-05 10
27.9702 -12.8058 2.69136 3.48674e-05 10
27.965 -12.8034 5.97847 3.21812e-05 10
27.9686 -12.805 7.10164 3.08987e-05 10
27.9649 -12.8033 8.24118 2.94532e-05 10
8.98837 -4.0773 -2.64463 0.00020846 4
10.4387 -4.73522 -2.64633 3.25446e-05 4
19.2493 -8.73185 -2.59532 6.97263e-05 4
27.9541 -12.6805 -2.68553 3.50356e-05 10
27.9601 -12.6832 -1.60904 3.55107e-05 10
27.9418 -12.6749 1.60799 3.55282e-05 10
27.9564 -12.6816 2.68575 3.50644e-05 10
27.9329 -12.6709 3.7661 3.43749e-05 10
27.9541 -12.6805 5.96664 3.23658e-05 10
27.9526 -12.6799 7.08629 3.10773e-05 10
27.9539 -12.6805 8.22484 2.9625e-05 10
9.01232 -4.0503 -2.64751 6.10137e-05 4
10.4506 -4.6967 -2.64517 3.5504e-05 4
12.3997 -5.57264 -2.64247 5.51202e-05 4
19.2565 -8.65421 -2.5922 0.000101434 4
27.9326 -12.5534 -2.67924 3.5229e-05 10
27.9297 -12.5521 -1.60476 3.57062e-05 10
27.9167 -12.5463 1.60401 3.57236e-05 10
27.9213 -12.5483 2.67815 3.52579e-05 10
27.9267 -12.5507 3.75933 3.45653e-05 10
27.9219 -12.5486 5.95039 3.25471e-05 10
27.9298 -12.5521 7.06936 3.12527e-05 10
27.9139 -12.545 8.20014 2.97938e-05 10
9.01153 -4.01219 -2.64314 0.000152537 4
10.4649 -4.65926 -2.64465 0.000121308 4
15.2315 -6.7815 -2.64073 3.92221e-05 4
19.24 -8.5662 -2.58594 7.82713e-05 4
27.9068 -12.4249 -2.67259 3.54187e-05 10
27.8995 -12.4217 -1.60052 3.5898e-05 10
27.8985 -12.4212 1.60047 3.59155e-05 10
27.8886 -12.4168 2.67084 3.54477e-05 10
27.908 -12.4254 3.75096 3.47522e-05 10
27.9052 -12.4242 5.93756 3.27251e-05 10
27.8971 -12.4206 7.05006 3.1425e-05 10
27.9019 -12.4227 8.18383 2.99596e-05 10
9.03191 -3.98355 -2.64503 7.37277e-05 4
10.4624 -4.61446 -2.63993 6.06553e-05 4
12.4392 -5.48633 -2.64266 3.36864e-05 4
19.2362 -8.48418 -2.58144 3.73737e-05 4
27.8742 -12.294 -2.66534 3.56048e-05 10
27.885 -12.2987 -1.59722 3.60861e-05 10
27.8789 -12.296 1.59687 3.61036e-05 10
27.8847 -12.2986 2.66634 3.56339e-05 10
27.8839 -12.2983 3.74193 3.49354e-05 10
27.8729 -12.2934 7.03306 3.1594e-05 10
27.878 -12.2957 8.16418 3.01222e-05 10
9.03859 -3.94887 -2.64293 0.000114407 4
10.4845 -4.58058 -2.64147 2.95886e-05 4
19.2264 -8.39979 -2.57616 7.76719e-05 4
27.8655 -12.1741 -2.66042 3.57873e-05 10
27.8597 -12.1716 -1.59333 3.62705e-05 10
27.8545 -12.1693 1.59303 3.62881e-05 10
27.8618 -12.1725 2.66008 3.58163e-05 10
27.8498 -12.1673 3.73163 3.5115e-05 10
27.8605 -12.1719 7.01916 3.17598e-05 10
27.8499 -12.1673 8.14347 3.02818e-05 10
9.05977 -3.92051 -2.64511 0.000101697 4
10.4994 -4.54348 -2.64119 3.55071e-05 4
12.4633 -5.39335 -2.63972 6.12514e-05 4
19.2184 -8.31657 -2.5712 7.77086e-05 4
27.8471 -12.0505 -2.65463 3.59659e-05 10
27.8395 -12.0472 -1.58976 3.6451e-05 10
27.8439 -12.0491 1.59001 3.64686e-05 10
27.8473 -12.0506 2.65465 3.5995e-05 10
27.8277 -12.0421 3.72301 3.52909e-05 10
27.824 -12.0405 6.99934 3.19222e-05 10
27.8342 -12.045 8.12654 3.04381e-05 10
9.07649 -3.89019 -2.64601 0.000129666 4
10.5294 -4.51291 -2.64477 9.61673e-05 4
12.492 -5.3541 -2.64184 5.51278e-05 4
19.1826 -8.22168 -2.56255 8.58756e-05 4
27.8075 -11.9183 -2.64688 3.61408e-05 10
27.8266 -11.9265 -1.58664 3.66277e-05 10
27.8103 -11.9195 1.5857 3.66453e-05 10
27.8159 -11.9219 2.64768 3.61699e-05 10
27.8196 -11.9235 3.71634 3.54631e-05 10
27.7999 -11.915 6.98276 3.20812e-05 10
27.8083 -11.9187 8.10677 3.05913e-05 10
9.08679 -3.85712 -2.64507 0.000144924 4
10.5268 -4.46835 -2.64018 5.62221e-05 4
12.5119 -5.31101 -2.64211 5.13008e-05 4
19.1868 -8.14432 -2.5593 7.47525e-05 4
27.7974 -11.7993 -2.64198 3.63117e-05 10
27.8054 -11.8027 -1.58306 3.68004e-05 10
27.8058 -11.8029 1.58309 3.68181e-05 10
27.8 -11.8004 2.64223 3.63409e-05 10
27.7841 -11.7937 3.70608 3.56314e-05 10
27.7929 -11.7974 6.97063 3.22368e-05 10
27.7792 -11.7916 8.08623 3.07411e-05 10
9.10885 -3.82901 -2.64758 0.000129671 4
10.5526 -4.43592 -2.64277 4.14277e-05 4
12.5355 -5.26943 -2.64318 0.000148547 4
19.1647 -8.0561 -2.55258 9.66084e-05 4
27.7834 -11.6791 -2.63676 3.64787e-05 10
27.7763 -11.6761 -1.57908 3.69692e-05 10
27.758 -11.6684 1.57804 3.69869e-05 10
27.7648 -11.6713 2.635 3.65079e-05 10
27.7709 -11.6738 3.69885 3.57959e-05 10
27.7715 -11.6741 6.955 3.23889e-05 10
27.7541 -11.6668 8.06703 3.08876e-05 10
9.10304 -3.78923 -2.64203 0.00017544 4
10.5661 -4.39826 -2.64229 7.25e-05 4
12.5435 -5.22134 -2.641 0.000142425 4
19.1568 -7.97419 -2.5478 0.000110489 4
27.7633 -11.5568 -2.63101 3.66418e-05 10
27.7445 -11.5489 -1.57497 3.71339e-05 10
27.7419 -11.5478 1.57482 3.71516e-05 10
27.7591 -11.555 2.63061 3.6671e-05 10
27.7501 -11.5513 3.69069 3.59565e-05 10
27.7384 -11.5464 6.93657 3.25374e-05 10
27.7302 -11.543 8.0483 3.10308e-05 10
9.12791 -3.76225 -2.64542 0.00012459 4
10.5895 -4.36466 -2.64429 0.000115411 4
12.5729 -5.18219 -2.64339 0.000150086 4
19.1381 -7.88818 -2.54165 0.000100001 4
27.7236 -11.4268 -2.62345 3.68007e-05 10
27.7388 -11.4331 -1.57237 3.72945e-05 10
27.7253 -11.4276 1.57161 3.73123e-05 10
27.7135 -11.4227 2.62249 3.683e-05 10
27.7228 -11.4265 3.68174 3.61131e-05 10
27.7205 -11.4255 6.92207 3.26823e-05 10
27.7168 -11.424 8.03279 3.11705e-05 10
9.14098 -3.73036 -2.64542 0.000127135 4
10.5942 -4.32343 -2.6417 7.10234e-05 4
12.5832 -5.13513 -2.64177 0.000134009 4
19.1385 -7.81028 -2.53806 8.61911e-05 4
27.7044 -11.306 -2.61789 3.69556e-05 10
27.6957 -11.3024 -1.56768 3.7451e-05 10
27.6971 -11.303 1.56776 3.74687e-05 10
27.6991 -11.3038 2.61738 3.6985e-05 10
27.695 -11.3021 3.67278 3.62657e-05 10
27.7015 -11.3048 6.90743 3.28237e-05 10
27.7087 -11.3077 8.01896 3.13067e-05 10
9.14581 -3.69515 -2.64307 0.000152565 4
10.6123 -4.28764 -2.64245 6.95452e-05 4
12.5971 -5.08957 -2.64093 0.000156986 4
19.1395 -7.73287 -2.5346 9.95376e-05 4
27.684 -11.1851 -2.61225 3.71064e-05 10
27.6788 -11.183 -1.56451 3.76032e-05 10
27.6836 -11.1849 1.56478 3.7621e-05 10
27.6873 -11.1864 2.61256 3.71358e-05 10
27.6888 -11.187 3.66676 3.64143e-05 10
27.6714 -11.18 6.89016 3.29613e-05 10
27.6852 -11.1856 8.00082 3.14394e-05 10
9.16754 -3.66676 -2.64563 4.32274e-05 4
10.635 -4.25372 -2.64441 9.32221e-05 4
19.123 -7.64867 -2.52886 4.58798e-05 4
27.6756 -11.0695 -2.6078 3.7253e-05 10
27.6654 -11.0654 -1.56156 3.77513e-05 10
27.6495 -11.059 1.56066 3.77691e-05 10
27.6635 -11.0646 2.60666 3.72824e-05 10
27.6528 -11.0603 3.65685 3.65587e-05 10
27.653 -11.0604 6.87592 3.30952e-05 10
27.6513 -11.0597 7.97982 3.15686e-05 10
9.17247 -3.63164 -2.64338 0.000114427 4
10.6358 -4.21099 -2.64091 0.000131697 4
27.6341 -10.9411 -2.60027 3.73953e-05 10
27.6531 -10.9486 -1.55869 3.7895e-05 10
27.6478 -10.9465 -0.519043 3.81499e-05 10
27.6376 -10.9425 0.518852 3.81558e-05 10
27.6452 -10.9455 1.55825 3.79128e-05 10
27.6529 -10.9486 2.60204 3.74247e-05 10
27.635 -10.9415 3.64942 3.66989e-05 10
27.6388 -10.943 4.70819 3.57468e-05 10
27.6375 -10.9425 5.77793 3.4583e-05 10
27.644 -10.945 6.86415 3.32252e-05 10
27.6445 -10.9452 7.96678 3.16942e-05 10
9.19152 -3.60212 -2.64523 0.000152572 4
10.6479 -4.17285 -2.64028 6.06708e-05 4
12.6486 -4.95692 -2.64069 3.59946e-05 4
15.5055 -6.07655 -2.63769 3.65793e-05 4
27.6336 -10.8295 -2.59666 3.75333e-05 10
27.6199 -10.8241 -1.55469 3.80344e-05 10
27.6193 -10.8239 -0.517795 3.82899e-05 10
27.6085 -10.8197 0.517594 3.82959e-05 10
27.6294 -10.8279 1.55522 3.80522e-05 10
27.6179 -10.8233 2.59517 3.75628e-05 10
27.6289 -10.8277 3.64361 3.6835e-05 10
27.6287 -10.8276 4.7 3.58802e-05 10
27.6182 -10.8235 5.76597 3.47131e-05 10
27.6144 -10.822 6.84736 3.33515e-05 10
27.6245 -10.8259 7.95007 3.1816e-05 10
9.19774 -3.56757 -2.64342 0.000132232 4
10.6674 -4.13761 -2.64153 7.10306e-05 4
12.6581 -4.90977 -2.6391 5.05469e-05 4
27.5965 -10.704 -2.58964 3.7667e-05 10
27.6104 -10.7094 -1.55204 3.81694e-05 10
27.5901 -10.7015 -0.516545 3.84256e-05 10
27.6067 -10.7079 0.516855 3.84315e-05 10
27.5939 -10.703 1.55111 3.81872e-05 10
27.6064 -10.7078 2.59057 3.76965e-05 10
27.5928 -10.7025 3.6339 3.69668e-05 10
27.5968 -10.7041 4.68819 3.60094e-05 10
27.593 -10.7026 5.75287 3.48392e-05 10
27.5839 -10.6991 6.8305 3.34739e-05 10
27.5956 -10.7036 7.93094 3.19343e-05 10
9.21647 -3.53787 -2.64524 0.000139863 4
10.6807 -4.09995 -2.64127 0.000113947 4
12.6752 -4.86556 -2.6391 3.90599e-05 4
27.5847 -10.5888 -2.58505 3.77963e-05 10
27.5722 -10.584 -1.5478 3.82999e-05 10
27.5755 -10.5853 -0.515577 3.85567e-05 10
27.5835 -10.5883 0.515725 3.85627e-05 10
27.5686 -10.5826 1.5476 3.83178e-05 10
27.5756 -10.5853 2.58419 3.78258e-05 10
27.5632 -10.5805 3.62511 3.70942e-05 10
27.563 -10.5804 4.67613 3.61345e-05 10
27.5649 -10.5812 5.73928 3.49613e-05 10
27.561 -10.5797 6.81565 3.35924e-05 10
27.5658 -10.5815 7.91174 3.20487e-05 10
9.22307 -3.50352 -2.64361 0.000106806 4
10.7116 -4.06894 -2.64537 0.000118389 4
12.691 -4.82086 -2.63887 3.29337e-05 4
27.5551 -10.4672 -2.57883 3.79212e-05 10
27.5489 -10.4648 -1.54443 3.8426e-05 10
27.5457 -10.4636 -0.514333 3.86834e-05 10
27.5573 -10.468 0.514549 3.86894e-05 10
27.5579 -10.4683 1.54494 3.84438e-05 10
27.5595 -10.4689 2.57924 3.79506e-05 10
27.5552 -10.4673 3.61924 3.72174e-05 10
27.5572 -10.468 4.66893 3.62553e-05 10
27.5537 -10.4667 5.72931 3.50792e-05 10
27.5581 -10.4683 6.80586 3.3707e-05 10
27.5526 -10.4663 7.89742 3.21594e-05 10
9.22643 -3.46799 -2.64109 8.39205e-05 4
10.7169 -4.02821 -2.6432 7.84344e-05 4
27.5483 -10.3547 -2.57479 3.80415e-05 10
27.539 -10.3512 -1.54184 3.85475e-05 10
27.5311 -10.3483 -0.513384 3.88054e-05 10
27.5419 -10.3523 0.513585 3.88114e-05 10
27.5366 -10.3503 1.54171 3.85654e-05 10
27.5212 -10.3446 2.57227 3.8071e-05 10
27.5414 -10.3521 3.61265 3.73361e-05 10
27.5374 -10.3506 4.65943 3.63718e-05 10
27.5266 -10.3466 5.71612 3.5193e-05 10
27.5395 -10.3514 6.79229 3.38175e-05 10
27.5407 -10.3519 7.8836 3.22663e-05 10
9.26265 -3.44475 -2.648 0.000223792 4
10.742 -3.99491 -2.64593 8.87954e-05 4
12.7465 -4.7404 -2.64347 5.97431e-05 4
27.5175 -10.2337 -2.56857 3.81574e-05 10
27.5074 -10.2299 -1.53806 3.86644e-05 10
27.5308 -10.2386 -0.512708 3.89229e-05 10
27.5299 -10.2383 0.512691 3.89289e-05 10
27.5089 -10.2305 1.53815 3.86822e-05 10
27.5251 -10.2365 2.56927 3.81869e-05 10
27.5223 -10.2355 3.60544 3.74503e-05 10
27.5244 -10.2362 4.65115 3.6484e-05 10
27.5226 -10.2356 5.70783 3.53026e-05 10
27.4992 -10.2269 6.77352 3.39241e-05 10
27.5135 -10.2322 7.86553 3.23693e-05 10
9.27169 -3.41132 -2.64716 0.000124613 4
10.7318 -3.94853 -2.64001 6.0678e-05 4
15.6481 -5.75737 -2.64084 6.3527e-05 4
27.5 -10.118 -2.56362 3.82687e-05 10
27.4853 -10.1126 -1.53485 3.87767e-05 10
27.4987 -10.1176 -0.51145 3.90357e-05 10
27.5005 -10.1182 0.511483 3.90417e-05 10
27.486 -10.1129 1.53489 3.87946e-05 10
27.4991 -10.1177 2.56353 3.82982e-05 10
27.4999 -10.118 3.59786 3.75601e-05 10
27.4868 -10.1132 4.63879 3.65918e-05 10
27.4853 -10.1126 5.69274 3.54079e-05 10
27.4983 -10.1174 6.76456 3.40266e-05 10
27.4815 -10.1112 7.84623 3.24685e-05 10
9.26093 -3.3707 -2.64071 8.39246e-05 4
10.7651 -3.91818 -2.64482 9.02788e-05 4
15.6634 -5.70101 -2.64005 6.9516e-05 4
27.4834 -10.0032 -2.5588 3.83753e-05 10
27.4836 -10.0032 -1.53279 3.88843e-05 10
27.4666 -9.99704 -0.510201 3.91438e-05 10
27.4793 -10.0017 0.510436 3.91498e-05 10
27.474 -9.99973 1.53226 3.89022e-05 10
27.4758 -10.0004 2.5581 3.84049e-05 10
27.4612 -9.99508 3.58821 3.76654e-05 10
27.4728 -9.99928 4.63052 3.66952e-05 10
27.4579 -9.99388 5.67982 3.5509e-05 10
27.4605 -9.99482 6.74663 3.41249e-05 10
27.4758 -10.0004 7.83461 3.25637e-05 10
9.28839 -3.34403 -2.6452 0.000111901 4
10.7728 -3.87846 -2.64338 6.95604e-05 4
12.7883 -4.60406 -2.64198 4.05975e-05 4
15.6768 -5.64399 -2.63897 5.75437e-05 4
27.4568 -9.88507 -2.5531 3.84774e-05 10
27.4603 -9.88631 -1.52956 3.89872e-05 10
27.4544 -9.8842 -0.50933 3.92471e-05 10
27.4509 -9.88295 0.509265 3.92531e-05 10
27.4567 -9.88502 1.52936 3.90051e-05 10
27.4385 -9.87847 2.55139 3.85069e-05 10
27.4487 -9.88213 3.58204 3.77661e-05 10
27.4419 -9.87971 4.61948 3.67941e-05 10
27.448 -9.88189 5.67059 3.56058e-05 10
27.4375 -9.8781 6.73246 3.42191e-05 10
27.4456 -9.88104 7.81612 3.26549e-05 10
9.28712 -3.307 -2.64153 0.000363685 4
15.6899 -5.58692 -2.63788 7.28466e-05 4
27.4265 -9.76614 -2.54709 3.85747e-05 10
27.429 -9.76703 -1.52591 3.90854e-05 10
27.4305 -9.76755 -0.50825 3.93457e-05 10
27.427 -9.76633 0.508186 3.93517e-05 10
27.436 -9.76953 1.5263 3.91033e-05 10
27.4432 -9.77209 2.54865 3.86042e-05 10
27.4266 -9.76616 3.57468 3.78622e-05 10
27.4343 -9.76892 4.61242 3.68886e-05 10
27.4217 -9.76443 5.65808 3.56982e-05 10
27.4267 -9.76623 6.72142 3.43091e-05 10
27.4402 -9.77104 7.80482 3.27421e-05 10
9.31453 -3.28017 -2.64606 7.12121e-05 4
10.8108 -3.80709 -2.64611 0.000119885 4
27.416 -9.65469 -2.54297 3.86673e-05 10
27.4288 -9.65919 -1.52401 3.91787e-05 10
27.4167 -9.65494 -0.507367 3.94395e-05 10
27.4165 -9.65487 0.507363 3.94454e-05 10
27.4231 -9.65721 1.5237 3.91966e-05 10
27.4034 -9.65025 2.5418 3.86968e-05 10
27.4204 -9.65626 3.56947 3.79536e-05 10
27.4024 -9.64991 4.60137 3.69785e-05 10
27.4189 -9.65571 5.65051 3.57862e-05 10
27.4076 -9.65175 6.70843 3.43948e-05 10
27.3973 -9.64812 7.78298 3.28253e-05 10
9.32015 -3.24562 -2.64442 0.00012971 4
10.8196 -3.76778 -2.64502 7.84449e-05 4
27.3896 -9.53806 -2.53742 3.87551e-05 10
27.4091 -9.54485 -1.52105 3.92673e-05 10
27.3927 -9.53916 1.52015 3.92851e-05 10
27.3916 -9.53878 2.53761 3.87846e-05 10
27.3788 -9.53432 3.5597 3.80403e-05 10
27.395 -9.53994 6.69714 3.44763e-05 10
27.3785 -9.53422 7.76815 3.29044e-05 10
9.32518 -3.21092 -2.64265 0.000165319 4
10.8306 -3.72928 -2.64452 0.00012877 4
27.3748 -9.42589 -2.53298 3.88381e-05 10
27.3717 -9.42484 -1.51715 3.93509e-05 10
27.3716 -9.4248 1.51714 3.93688e-05 10
27.3592 -9.42053 2.53154 3.88676e-05 10
27.3815 -9.42821 3.55575 3.81224e-05 10
27.375 -9.42595 6.68417 3.45535e-05 10
27.3603 -9.42092 7.75361 3.29794e-05 10
9.35087 -3.1833 -2.64676 0.000114453 4
10.8414 -3.69072 -2.644 8.14081e-05 4
27.3514 -9.31119 -2.5278 3.89162e-05 10
27.351 -9.31103 -1.51419 3.94296e-05 10
27.3549 -9.31238 1.51441 3.94475e-05 10
27.3549 -9.31238 2.52812 3.89457e-05 10
27.3536 -9.31193 3.54788 3.81996e-05 10
27.3357 -9.30584 6.66662 3.46264e-05 10
27.3394 -9.30708 7.73841 3.30503e-05 10
9.35092 -3.14693 -2.64365 0.00013989 4
10.8595 -3.65462 -2.64528 3.84845e-05 4
12.8847 -4.33618 -2.64256 8.27385e-05 4
27.3261 -9.19626 -2.52248 3.89895e-05 10
27.3297 -9.19746 -1.51122 3.95034e-05 10
27.3203 -9.19431 1.5107 3.95212e-05 10
27.3369 -9.19988 2.52347 3.9019e-05 10
27.3253 -9.19597 3.54002 3.82721e-05 10
27.3201 -9.19425 6.65495 3.46949e-05 10
27.3228 -9.19516 7.7246 3.31169e-05 10
9.36052 -3.11383 -2.64328 0.000208566 4
10.8583 -3.61207 -2.64189 0.000109535 4
12.8962 -4.29001 -2.64183 3.3709e-05 4
27.3096 -9.08469 -2.51801 3.90578e-05 10
27.3029 -9.08247 -1.50798 3.95722e-05 10
27.3181 -9.08754 1.50882 3.959e-05 10
27.3046 -9.08304 2.51755 3.90873e-05 10
27.31 -9.08484 3.53392 3.83397e-05 10
27.308 -9.08418 6.64423 3.4759e-05 10
27.2929 -9.07915 7.70713 3.31794e-05 10
9.38789 -3.08658 -2.64795 9.66538e-05 4
10.8613 -3.57103 -2.63959 6.513e-05 4
27.3063 -8.97785 -2.5148 3.91212e-05 10
27.2858 -8.97112 -1.5053 3.9636e-05 10
27.2811 -8.96959 1.50504 3.96538e-05 10
27.3016 -8.97632 2.51437 3.91506e-05 10
27.2766 -8.9681 3.52552 3.84024e-05 10
27.2961 -8.97449 6.63366 3.48187e-05 10
27.2849 -8.97082 7.69597 3.32377e-05 10
9.3816 -3.04827 -2.64316 0.000137352 4
10.878 -3.53447 -2.64062 0.00011694 4
12.9124 -4.1955 -2.63908 3.37105e-05 4
27.2676 -8.85978 -2.50837 3.91796e-05 10
27.2725 -8.86138 -1.50285 3.96947e-05 10
27.2714 -8.86101 1.50278 3.97126e-05 10
27.2632 -8.85835 2.50797 3.9209e-05 10
27.28 -8.86381 3.52194 3.84603e-05 10
27.2809 -8.86411 6.62242 3.48739e-05 10
27.275 -8.86219 7.68442 3.32916e-05 10
9.3982 -3.01743 -2.64485 0.000134811 4
10.9054 -3.50134 -2.6443 6.3652e-05 4
27.2633 -8.75328 -2.50515 3.9233e-05 10
27.261 -8.75256 -1.50052 3.97484e-05 10
27.2399 -8.74579 1.49936 3.97662e-05 10
27.2399 -8.74578 2.503 3.92624e-05 10
27.2618 -8.75282 3.51563 3.85132e-05 10
27.2388 -8.74544 6.60476 3.49246e-05 10
27.2578 -8.75152 7.67091 3.33413e-05 10
9.40256 -2.98267 -2.64313 0.000152618 4
10.9047 -3.45917 -2.64117 0.000115464 4
27.2276 -8.63711 -2.49909 3.92813e-05 10
27.2332 -8.63888 -1.49732 3.97969e-05 10
27.2194 -8.63451 1.49656 3.98147e-05 10
27.2395 -8.64088 2.50018 3.93106e-05 10
27.2291 -8.63759 3.5075 3.85611e-05 10
27.2206 -8.6349 6.59299 3.49708e-05 10
27.237 -8.64007 7.65652 3.33866e-05 10
9.42838 -2.95468 -2.64748 0.000101747 4
10.9183 -3.4216 -2.64158 6.36542e-05 4
12.9759 -4.06639 -2.6432 4.52056e-05 4
27.204 -8.52522 -2.49418 3.93245e-05 10
27.2152 -8.52872 -1.49468 3.98403e-05 10
27.2107 -8.52732 1.49444 3.98581e-05 10
27.2002 -8.52401 2.49382 3.93539e-05 10
27.2188 -8.52985 3.50231 3.86041e-05 10
27.22 -8.53022 6.58558 3.50124e-05 10
27.2013 -8.52437 7.63808 3.34276e-05 10
9.43593 -2.92091 -2.64672 0.00013736 4
12.9806 -4.01817 -2.6413 5.97646e-05 4
27.2067 -8.42189 -2.49171 3.93627e-05 10
27.1925 -8.41747 -1.49181 3.98786e-05 10
27.1997 -8.41971 -0.496999 4.01415e-05 10
27.2083 -8.42237 0.497155 4.01474e-05 10
27.1832 -8.4146 1.4913 3.98963e-05 10
27.1804 -8.41373 2.4893 3.93919e-05 10
27.1793 -8.4134 3.49343 3.8642e-05 10
27.196 -8.41858 4.50908 3.76579e-05 10
27.1859 -8.41543 5.53179 3.64544e-05 10
27.201 -8.42012 6.57384 3.50495e-05 10
27.1893 -8.41648 7.6264 3.34642e-05 10
9.44127 -2.88649 -2.64537 9.66622e-05 4
10.9343 -3.34295 -2.63972 3.1088e-05 4
12.9991 -3.97424 -2.64223 4.82724e-05 4
27.1716 -8.30719 -2.48582 3.93957e-05 10
27.1704 -8.30685 -1.48901 3.99116e-05 10
27.1791 -8.30949 -0.49609 4.01745e-05 10
27.176 -8.30856 0.496034 4.01804e-05 10
27.1708 -8.30696 1.48903 3.99293e-05 10
27.1681 -8.30614 2.48551 3.94249e-05 10
27.1827 -8.31059 3.49012 3.86749e-05 10
27.1586 -8.30323 4.49804 3.76907e-05 10
27.1798 -8.30971 5.52462 3.6487e-05 10
27.1729 -8.30761 6.56001 3.5082e-05 10
27.1558 -8.30236 7.60884 3.34964e-05 10
9.45752 -2.8554 -2.64712 9.66635e-05 4
10.9459 -3.30477 -2.63973 3.70101e-05 4
27.1535 -8.19814 -2.48154 3.94235e-05 10
27.171 -8.20341 -1.48746 3.99393e-05 10
27.1609 -8.20037 -0.495232 4.02022e-05 10
27.148 -8.19647 0.494997 4.02081e-05 10
27.1466 -8.19604 1.48612 3.9957e-05 10
27.1599 -8.20006 2.48212 3.94527e-05 10
27.1436 -8.19514 3.4814 3.87027e-05 10
27.1473 -8.19627 4.49141 3.77185e-05 10
27.1612 -8.20045 5.51498 3.65149e-05 10
27.1476 -8.19634 6.54694 3.51098e-05 10
27.1432 -8.19502 7.59725 3.35242e-05 10
9.46351 -2.8212 -2.64602 9.66649e-05 4
10.9681 -3.26973 -2.64231 5.92172e-05 4
27.132 -8.08839 -2.47697 3.94461e-05 10
27.1502 -8.09384 -1.48476 3.99618e-05 10
27.1408 -8.09102 -0.494347 4.02247e-05 10
27.1264 -8.08673 0.494085 4.02306e-05 10
27.1236 -8.08591 1.48331 3.99795e-05 10
27.1474 -8.09301 2.47839 3.94753e-05 10
27.1269 -8.08689 3.47562 3.87254e-05 10
27.1299 -8.08776 4.48382 3.77414e-05 10
27.1208 -8.08508 5.50102 3.65379e-05 10
27.1224 -8.08556 6.53403 3.5133e-05 10
27.1367 -8.0898 7.58748 3.35475e-05 10
9.47318 -2.78811 -2.64599 0.000172982 4
10.9865 -3.23349 -2.644 0.000232431 4
13.0295 -3.83479 -2.64009 4.21452e-05 4
27.1145 -7.98024 -2.47282 3.94635e-05 10
27.1134 -7.97991 -1.48122 3.99791e-05 10
27.1123 -7.97959 -0.493319 4.02418e-05 10
27.1084 -7.97845 0.493247 4.02477e-05 10
27.1202 -7.98191 1.48159 3.99967e-05 10
27.1268 -7.98385 2.47394 3.94926e-05 10
27.1059 -7.97771 3.46934 3.8743e-05 10
27.1243 -7.98311 4.47827 3.77592e-05 10
27.1064 -7.97786 5.49242 3.65561e-05 10
27.1057 -7.97766 6.52326 3.51515e-05 10
27.1049 -7.97741 7.57076 3.35663e-05 10
9.46426 -2.74962 -2.6408 8.90359e-05 4
10.9948 -3.19428 -2.6433 3.70119e-05 4
13.0451 -3.78995 -2.64055 4.90427e-05 4
16.0084 -4.65088 -2.64032 5.69075e-05 4
27.1066 -7.87519 -2.46957 3.94757e-05 10
27.1139 -7.87731 -1.47973 3.9991e-05 10
27.1031 -7.87418 -0.492648 4.02536e-05 10
27.1069 -7.87527 0.492716 4.02595e-05 10
27.0972 -7.87247 1.47882 4.00086e-05 10
27.1016 -7.87376 2.46913 3.95047e-05 10
27.1022 -7.87392 3.46533 3.87554e-05 10
27.086 -7.86921 4.46738 3.7772e-05 10
27.1041 -7.87447 5.48634 3.65693e-05 10
27.0983 -7.87279 6.51482 3.51653e-05 10
27.0781 -7.86691 7.55555 3.35807e-05 10
9.4965 -2.72308 -2.64713 0.000106844 4
13.0618 -3.74541 -2.64127 6.28372e-05 4
16.0028 -4.58874 -2.63674 6.65601e-05 4
27.0947 -7.76928 -2.46601 3.94826e-05 10
27.0913 -7.7683 -1.47701 3.99976e-05 10
27.0898 -7.76787 -0.49191 4.02601e-05 10
27.0783 -7.76459 0.491701 4.02659e-05 10
27.0786 -7.76466 1.47632 4.00152e-05 10
27.087 -7.76707 2.4653 3.95115e-05 10
27.0708 -7.76244 3.45783 3.87627e-05 10
27.0711 -7.76252 4.46043 3.77798e-05 10
27.0741 -7.76339 5.47476 3.65778e-05 10
27.0686 -7.76181 6.50113 3.51744e-05 10
27.0787 -7.76469 7.54811 3.35905e-05 10
9.49134 -2.68578 -2.64306 0.000211148 4
11.0116 -3.11597 -2.64205 5.62599e-05 4
13.0817 -3.70175 -2.64267 7.43332e-05 4
16.0187 -4.53283 -2.63673 5.85744e-05 4
27.0589 -7.6569 -2.4603 3.94841e-05 10
27.0722 -7.66065 -1.4745 3.99988e-05 10
27.0512 -7.65471 -0.49072 4.02611e-05 10
27.0544 -7.65562 0.490778 4.0267e-05 10
27.0668 -7.65915 1.47421 4.00164e-05 10
27.0671 -7.65922 2.46105 3.95131e-05 10
27.06 -7.65722 3.45301 3.87647e-05 10
27.0606 -7.65737 4.45427 3.77825e-05 10
27.0463 -7.65332 5.46369 3.65812e-05 10
27.0531 -7.65526 6.49094 3.51787e-05 10
27.0492 -7.65417 7.53241 3.35958e-05 10
9.51775 -2.65741 -2.64781 0.000216239 4
11.021 -3.07711 -2.6417 0.000143613 4
13.0839 -3.65309 -2.64052 6.51386e-05 4
16.0593 -4.48385 -2.64083 6.48994e-05 4
27.0529 -7.5533 -2.45734 3.94805e-05 10
27.0307 -7.54711 -1.4708 3.99947e-05 10
27.0396 -7.5496 -0.49003 4.02567e-05 10
27.0457 -7.5513 0.49014 4.02626e-05 10
27.0435 -7.55069 1.4715 4.00122e-05 10
27.0536 -7.55351 2.45741 3.95093e-05 10
27.0381 -7.54919 3.44684 3.87616e-05 10
27.0484 -7.55205 4.4479 3.77801e-05 10
27.0278 -7.54631 5.45461 3.65798e-05 10
27.0424 -7.55037 6.48201 3.51783e-05 10
27.0278 -7.54629 7.51905 3.35965e-05 10
9.52542 -2.62374 -2.64738 0.000147553 4
11.0343 -3.03936 -2.64234 4.1456e-05 4
13.0953 -3.60704 -2.64026 2.91213e-05 4
27.014 -7.4409 -2.45144 3.94714e-05 10
27.0356 -7.44684 -1.46964 3.99852e-05 10
27.0269 -7.44445 -0.489326 4.0247e-05 10
27.012 -7.44035 0.489056 4.02528e-05 10
27.0332 -7.44618 1.46951 4.00026e-05 10
27.017 -7.44173 2.45171 3.95002e-05 10
27.0082 -7.4393 3.43969 3.87531e-05 10
27.0232 -7.44343 4.43945 3.77726e-05 10
27.0215 -7.44295 5.44805 3.65733e-05 10
27.0051 -7.43844 6.4668 3.51731e-05 10
27.0226 -7.44327 7.51034 3.35926e-05 10
9.53237 -2.58989 -2.64678 5.85131e-05 4
11.0423 -3.00014 -2.64174 7.40297e-05 4
13.1099 -3.56187 -2.64068 3.29537e-05 4
16.0691 -4.36589 -2.63737 3.86087e-05 4
26.9973 -7.33501 -2.44758 3.9457e-05 10
27.0188 -7.34086 -1.46733 3.99702e-05 10
27.0154 -7.33993 -0.488651 4.02317e-05 10
26.991 -7.33331 0.488209 4.02375e-05 10
27.0073 -7.33773 1.4667 3.99876e-05 10
27.0095 -7.33833 2.44869 3.94858e-05 10
26.9933 -7.33392 3.43451 3.87395e-05 10
27.0012 -7.33607 4.4316 3.776e-05 10
27.004 -7.33683 5.43933 3.65619e-05 10
27.0017 -7.33621 6.45982 3.51631e-05 10
26.9846 -7.33156 7.49262 3.35842e-05 10
9.54444 -2.55743 -2.64764 9.15869e-05 4
11.0695 -2.96607 -2.64575 0.000106604 4
13.1217 -3.51596 -2.64058 4.29173e-05 4
26.9907 -7.23214 -2.44468 3.94373e-05 10
26.9937 -7.23295 -1.46458 3.99499e-05 10
26.9799 -7.22925 -0.487549 4.0211e-05 10
26.9942 -7.23307 0.487807 4.02169e-05 10
26.9967 -7.23374 1.46475 3.99672e-05 10
26.987 -7.23116 2.44435 3.9466e-05 10
26.9764 -7.2283 3.42913 3.87206e-05 10
26.9802 -7.22934 4.42399 3.77422e-05 10
26.967 -7.2258 5.42678 3.65455e-05 10
26.9865 -7.231 6.4501 3.51483e-05 10
26.9656 -7.22543 7.48031 3.35711e-05 10
9.54213 -2.52114 -2.64454 0.000160279 4
11.0795 -2.92733 -2.64567 7.84738e-05 4
13.1297 -3.46901 -2.63972 3.67869e-05 4
26.9758 -7.12732 -2.44106 3.94122e-05 10
26.9669 -7.12497 -1.46177 3.99241e-05 10
26.9618 -7.12362 -0.486769 4.01849e-05 10
26.9614 -7.12352 0.486762 4.01907e-05 10
26.9507 -7.12069 1.46089 3.99414e-05 10
26.9707 -7.12598 2.4406 3.94408e-05 10
26.9682 -7.12532 3.42491 3.86963e-05 10
26.9558 -7.12203 4.41588 3.77193e-05 10
26.9692 -7.12557 5.42217 3.65242e-05 10
26.9617 -7.1236 6.4382 3.51287e-05 10
26.9599 -7.12311 7.47176 3.35535e-05 10
9.54628 -2.48662 -2.64327 3.81622e-05 4
11.071 -2.88378 -2.64123 0.000115492 4
13.1618 -3.4284 -2.64377 0.000104998 4
26.9436 -7.01828 -2.43592 3.93817e-05 10
26.96 -7.02256 -1.46006 3.98928e-05 10
26.9357 -7.01624 -0.485854 4.01532e-05 10
26.9527 -7.02065 1.45966 3.991e-05 10
26.9478 -7.01937 2.43629 3.94102e-05 10
26.9307 -7.01493 3.41702 3.86668e-05 10
26.9358 -7.01625 4.40857 3.76912e-05 10
26.9415 -7.01774 6.42748 3.51042e-05 10
26.9346 -7.01594 7.45792 3.35312e-05 10
13.1721 -3.38202 -2.64344 3.67883e-05 4
26.9279 -6.91392 -2.4323 3.93457e-05 10
26.9443 -6.91814 -1.4579 3.9856e-05 10
26.9422 -6.91757 -0.485531 4.0116e-05 10
26.9355 -6.91587 1.45742 3.98732e-05 10
26.9159 -6.91084 2.43122 3.93742e-05 10
26.93 -6.91445 3.41384 3.8632e-05 10
26.9164 -6.91096 4.40142 3.76578e-05 10
26.9353 -6.91582 6.42021 3.50749e-05 10
26.9289 -6.91417 7.44963 3.35042e-05 10
9.55313 -2.41731 -2.64043 0.000361277 4
26.9101 -6.80931 -2.42853 3.93043e-05 10
26.9046 -6.80791 -1.45445 3.98138e-05 10
26.921 -6.81205 -0.484718 4.00733e-05 10
26.9025 -6.80737 1.45434 3.9831e-05 10
26.9221 -6.81234 2.42962 3.93327e-05 10
26.9093 -6.8091 3.40818 3.85918e-05 10
26.8944 -6.80533 4.39391 3.76193e-05 10
26.9092 -6.80907 6.40827 3.50407e-05 10
26.8987 -6.80641 7.43464 3.34726e-05 10
9.56082 -2.38378 -2.64024 7.37829e-05 4
11.0994 -2.7674 -2.64095 0.000179168 4
13.1693 -3.28348 -2.63822 4.90528e-05 4
26.8964 -6.70604 -2.42517 3.92576e-05 10
26.9001 -6.70694 -1.45293 3.9766e-05 10
26.8816 -6.70235 -0.483585 4.00251e-05 10
26.8835 -6.70281 1.45204 3.97831e-05 10
26.893 -6.70519 2.42486 3.92858e-05 10
26.8842 -6.70299 3.40202 3.85463e-05 10
26.9004 -6.70703 4.39104 3.75756e-05 10
26.8929 -6.70517 6.3988 3.50016e-05 10
26.8916 -6.70484 7.42618 3.34363e-05 10
9.58025 -2.35313 -2.64332 0.000287502 4
11.1136 -2.72977 -2.64204 6.36721e-05 4
26.8629 -6.59816 -2.42005 3.92053e-05 10
26.8633 -6.59826 -1.44969 3.97127e-05 10
26.8843 -6.60341 -0.483215 3.99713e-05 10
26.8603 -6.59751 1.44953 3.97298e-05 10
26.8649 -6.59866 2.42024 3.92335e-05 10
26.8734 -6.60074 3.39771 3.84954e-05 10
26.8607 -6.59762 4.38077 3.75266e-05 10
26.8617 -6.59786 6.38583 3.49576e-05 10
26.8646 -6.59858 7.41232 3.33953e-05 10
9.58091 -2.31787 -2.64126 7.37846e-05 4
11.1295 -2.69252 -2.64357 0.000142154 4
13.2076 -3.19526 -2.64136 4.67551e-05 4
26.8634 -6.49895 -2.41804 3.91476e-05 10
26.8521 -6.49621 -1.44786 3.9654e-05 10
26.8607 -6.49829 -0.482381 3.99119e-05 10
26.8503 -6.49577 1.44776 3.9671e-05 10
26.8534 -6.49654 2.41714 3.91757e-05 10
26.8553 -6.49698 3.39254 3.84392e-05 10
26.8557 -6.49708 4.37623 3.74724e-05 10
26.8491 -6.49548 6.37741 3.49087e-05 10
26.8416 -6.49367 7.39967 3.33496e-05 10
9.60272 -2.28769 -2.64505 0.00041727 4
11.1317 -2.65194 -2.64187 5.77507e-05 4
26.8285 -6.39146 -2.41288 3.90844e-05 10
26.8414 -6.39454 -1.44607 3.95896e-05 10
26.8351 -6.39302 -0.481517 3.9847e-05 10
26.8478 -6.39606 1.44641 3.96066e-05 10
26.8256 -6.39078 2.41262 3.91124e-05 10
26.8272 -6.39115 3.38615 3.83775e-05 10
26.8441 -6.39517 4.37068 3.74129e-05 10
26.8241 -6.3904 6.36614 3.48549e-05 10
26.8252 -6.39067 7.38895 3.32992e-05 10
9.60846 -2.25364 -2.64445 0.000137395 4
11.1317 -2.61092 -2.6397 3.99818e-05 4
26.8069 -6.28751 -2.40895 3.90158e-05 10
26.8191 -6.29036 -1.44367 3.95198e-05 10
26.8174 -6.28998 -0.480804 3.97765e-05 10
26.828 -6.29244 1.44415 3.95367e-05 10
26.8201 -6.2906 2.41013 3.90437e-05 10
26.8087 -6.28793 3.38103 3.83106e-05 10
26.8268 -6.29218 4.36426 3.73482e-05 10
26.799 -6.28566 6.35495 3.47962e-05 10
26.823 -6.29129 7.38225 3.32441e-05 10
9.61656 -2.22016 -2.64453 0.000201006 4
11.1563 -2.57564 -2.64339 0.000131794 4
13.24 -3.05669 -2.64129 3.60262e-05 4
26.7889 -6.18472 -2.40538 3.89416e-05 10
26.7876 -6.1844 -1.4408 3.94443e-05 10
26.8044 -6.18829 -0.48018 3.97004e-05 10
26.7987 -6.18696 1.4414 3.94612e-05 10
26.8004 -6.18736 2.4064 3.89695e-05 10
26.7917 -6.18535 3.37613 3.82382e-05 10
26.7929 -6.18563 4.3552 3.72783e-05 10
26.8061 -6.18867 6.35146 3.47326e-05 10
26.8028 -6.18791 7.37069 3.31842e-05 10
9.63103 -2.18812 -2.64639 0.000117043 4
11.1489 -2.53297 -2.63952 5.62722e-05 4
13.2593 -3.01243 -2.64302 3.60268e-05 4
26.7795 -6.08416 -2.40261 3.8862e-05 10
26.7882 -6.08613 -1.43969 3.93634e-05 10
26.7823 -6.08479 -0.4794 3.96188e-05 10
26.7705 -6.0821 1.43873 3.93802e-05 10
26.7935 -6.08734 2.40386 3.88897e-05 10
26.7818 -6.08467 3.37219 3.81604e-05 10
26.7673 -6.08139 4.34757 3.7203e-05 10
26.763 -6.0804 6.33618 3.4664e-05 10
26.7707 -6.08217 7.356 3.31197e-05 10
9.61724 -2.14971 -2.64052 0.0001374 4
11.1613 -2.49485 -2.64038 0.000118469 4
13.2614 -2.96427 -2.64136 3.21947e-05 4
26.7522 -5.97983 -2.39827 3.87769e-05 10
26.7748 -5.98487 -1.43783 3.92768e-05 10
26.7634 -5.98233 -0.478685 3.95315e-05 10
26.7518 -5.97973 1.4366 3.92936e-05 10
26.7588 -5.98131 2.39887 3.88045e-05 10
26.7709 -5.98401 3.36817 3.80772e-05 10
26.7653 -5.98276 4.34382 3.71225e-05 10
26.7716 -5.98416 6.33323 3.45905e-05 10
26.7529 -5.97998 7.34532 3.30504e-05 10
9.63185 -2.1177 -2.64249 0.000124679 4
11.1928 -2.46089 -2.64578 0.000204362 4
26.7472 -5.88075 -2.39597 3.86863e-05 10
26.7526 -5.88194 -1.43553 3.91848e-05 10
26.7547 -5.88241 -0.47816 3.94387e-05 10
26.7475 -5.88082 1.43526 3.92014e-05 10
26.7399 -5.87915 2.39531 3.87138e-05 10
26.7433 -5.87989 3.36209 3.79886e-05 10
26.75 -5.88137 4.33798 3.70367e-05 10
26.7298 -5.87692 6.31844 3.45121e-05 10
26.744 -5.88005 7.33719 3.29764e-05 10
9.64657 -2.08566 -2.64451 0.000132314 4
11.1925 -2.4199 -2.64369 7.25644e-05 4
26.7319 -5.77964 -2.39277 3.85902e-05 10
26.7349 -5.78029 -1.43349 3.90871e-05 10
26.7219 -5.77747 -0.477209 3.93403e-05 10
26.7226 -5.77762 1.43283 3.91037e-05 10
26.7256 -5.77827 2.39221 3.86176e-05 10
26.7386 -5.7811 3.35895 3.78946e-05 10
26.7135 -5.77567 4.32877 3.69457e-05 10
26.7255 -5.77827 6.31264 3.44287e-05 10
26.7184 -5.77673 7.3246 3.28976e-05 10
9.65031 -2.05124 -2.64356 0.00010687 4
11.1971 -2.38002 -2.64281 6.07179e-05 4
13.2811 -2.82299 -2.63926 7.35914e-05 4
26.7064 -5.67662 -2.3887 3.84886e-05 10
26.7099 -5.67737 -1.43108 3.89839e-05 10
26.7171 -5.67889 -0.476767 3.92362e-05 10
26.695 -5.67421 1.43028 3.90004e-05 10
26.705 -5.67633 2.38858 3.85159e-05 10
26.7041 -5.67613 3.3521 3.77953e-05 10
26.6961 -5.67443 4.32271 3.68493e-05 10
26.7001 -5.67527 6.30191 3.43404e-05 10
26.711 -5.67759 7.31708 3.28141e-05 10
9.64521 -2.01499 -2.64022 0.000157762 4
11.198 -2.33939 -2.64108 7.40471e-05 4
13.291 -2.77663 -2.63928 9.65903e-05 4
26.682 -5.57417 -2.38477 3.83815e-05 10
26.6793 -5.57361 -1.42839 3.88751e-05 10
26.7024 -5.57842 -0.476154 3.91266e-05 10
26.6843 -5.57466 1.42866 3.88916e-05 10
26.7014 -5.57822 2.3865 3.84087e-05 10
26.6834 -5.57445 3.34704 3.76905e-05 10
26.6935 -5.57657 4.31911 3.67477e-05 10
26.6752 -5.57275 6.29141 3.42471e-05 10
26.688 -5.57542 7.30541 3.27259e-05 10
9.6545 -1.98179 -2.64086 0.000201021 4
11.2056 -2.30018 -2.64095 7.5529e-05 4
13.3168 -2.73355 -2.64249 6.66943e-05 4
26.6863 -5.47792 -2.38343 3.82689e-05 10
26.6826 -5.47715 -1.42753 3.87608e-05 10
26.669 -5.47437 -0.475216 3.90114e-05 10
26.6826 -5.47715 1.42753 3.87772e-05 10
26.6863 -5.47791 2.38343 3.8296e-05 10
26.6689 -5.47435 3.34281 3.75803e-05 10
26.6747 -5.47554 4.31295 3.66408e-05 10
26.6805 -5.47673 6.28812 3.41489e-05 10
26.67 -5.47458 7.29522 3.26329e-05 10
9.67874 -1.95158 -2.64561 0.000257005 4
11.2149 -2.26132 -2.64127 4.44294e-05 4
26.6509 -5.37376 -2.37857 3.81508e-05 10
26.662 -5.37601 -1.42542 3.86409e-05 10
26.6486 -5.3733 -0.474515 3.88905e-05 10
26.6529 -5.37418 1.42493 3.86572e-05 10
26.6673 -5.37707 2.38004 3.81778e-05 10
26.654 -5.37439 3.33856 3.74647e-05 10
26.6408 -5.37173 4.30441 3.65287e-05 10
26.6469 -5.37296 6.27573 3.40458e-05 10
26.6464 -5.37285 7.28357 3.25352e-05 10
9.69009 -1.91869 -2.64686 0.000139954 4
11.2417 -2.22591 -2.64573 8.29358e-05 4
13.34 -2.6414 -2.64338 5.44303e-05 4
26.6415 -5.27516 -2.37608 3.80272e-05 10
26.6542 -5.27768 -1.42401 3.85154e-05 10
26.6285 -5.27258 -0.473826 3.87641e-05 10
26.6519 -5.27722 1.42389 3.85317e-05 10
26.6497 -5.27678 2.37681 3.80541e-05 10
26.6261 -5.27211 3.33275 3.73437e-05 10
26.625 -5.27189 4.29885 3.64112e-05 10
26.6469 -5.27624 6.27136 3.39377e-05 10
26.6412 -5.27511 7.27708 3.24328e-05 10
9.67141 -1.87993 -2.63995 0.000173036 4
11.2482 -2.18643 -2.64546 5.62785e-05 4
16.3523 -3.17856 -2.63842 7.15919e-05 4
26.6149 -5.17341 -2.37208 3.78981e-05 10
26.6294 -5.17624 -1.42171 3.83844e-05 10
26.6305 -5.17646 -0.473538 3.86321e-05 10
26.6061 -5.1717 1.42046 3.84006e-05 10
26.6295 -5.17626 2.37339 3.79248e-05 10
26.6317 -5.17669 3.33117 3.72173e-05 10
26.6231 -5.175 4.2956 3.62885e-05 10
26.6103 -5.17253 6.25847 3.38246e-05 10
26.6076 -5.172 7.26293 3.23256e-05 10
9.69913 -1.85021 -2.64574 0.00015777 4
11.2331 -2.14283 -2.64013 7.70136e-05 4
13.3321 -2.54323 -2.63822 3.75657e-05 4
16.3518 -3.11928 -2.63657 6.09375e-05 4
26.6015 -5.07451 -2.3693 3.77636e-05 10
26.6156 -5.0772 -1.42002 3.82479e-05 10
26.6133 -5.07676 -0.472913 3.84945e-05 10
26.5952 -5.07331 1.41893 3.82639e-05 10
26.5915 -5.07261 2.36841 3.77901e-05 10
26.5869 -5.07172 3.32333 3.70855e-05 10
26.6003 -5.07427 4.28904 3.61605e-05 10
26.602 -5.0746 6.2523 3.37067e-05 10
26.6088 -5.0759 7.25837 3.22137e-05 10
9.69819 -1.81497 -2.64374 6.61623e-05 4
11.2446 -2.10437 -2.64109 5.62798e-05 4
16.3654 -3.0627 -2.63702 5.46117e-05 4
26.5834 -4.97495 -2.36612 3.76235e-05 10
26.5746 -4.9733 -1.41689 3.81058e-05 10
26.594 -4.97692 -0.472258 3.83514e-05 10
26.597 -4.9775 1.41809 3.81218e-05 10
26.5719 -4.9728 2.3651 3.765e-05 10
26.5917 -4.9765 3.32173 3.69484e-05 10
26.5726 -4.97292 4.28175 3.60273e-05 10
26.5855 -4.97534 6.2443 3.35838e-05 10
26.593 -4.97674 7.24928 3.20971e-05 10
9.70588 -1.78136 -2.64412 0.000307912 4
11.2677 -2.06802 -2.64481 9.1826e-05 4
13.3697 -2.4538 -2.64221 4.29334e-05 4
16.3941 -3.00888 -2.63994 5.69437e-05 4
26.5684 -4.87622 -2.36326 3.7478e-05 10
26.5637 -4.87536 -1.4154 3.79581e-05 10
26.5723 -4.87693 -0.471568 3.82027e-05 10
26.5584 -4.87438 1.41512 3.79741e-05 10
26.5613 -4.8749 2.36262 3.75044e-05 10
26.5506 -4.87296 3.31446 3.68058e-05 10
26.5685 -4.87623 4.27832 3.58887e-05 10
26.5632 -4.87526 6.23503 3.3456e-05 10
26.5697 -4.87645 7.23824 3.19757e-05 10
9.71639 -1.74825 -2.64531 0.000117058 4
11.2605 -2.02609 -2.64145 8.73838e-05 4
13.3811 -2.40763 -2.64278 5.52009e-05 4
16.4078 -2.95223 -2.64047 7.12641e-05 4
26.5418 -4.77562 -2.3594 3.73271e-05 10
26.5568 -4.77832 -1.41413 3.78049e-05 10
26.5373 -4.77481 -0.470649 3.80484e-05 10
26.5534 -4.77772 1.41395 3.78208e-05 10
26.5577 -4.77848 2.3608 3.73533e-05 10
26.5409 -4.77547 3.31115 3.66579e-05 10
26.5375 -4.77485 4.27062 3.5745e-05 10
26.5326 -4.77397 6.2239 3.33232e-05 10
26.539 -4.77512 7.2253 3.18496e-05 10
9.71059 -1.71224 -2.64208 9.16118e-05 4
11.2753 -1.98814 -2.64327 9.18281e-05 4
13.3716 -2.35778 -2.63928 4.29346e-05 4
16.4087 -2.89331 -2.63898 5.59467e-05 4
26.5272 -4.67746 -2.35663 3.71707e-05 10
26.5328 -4.67846 -1.41198 3.76463e-05 10
26.5451 -4.68063 -0.470495 3.78886e-05 10
26.5362 -4.67905 1.41216 3.76621e-05 10
26.5179 -4.67582 2.3558 3.71968e-05 10
26.5195 -4.67611 3.30642 3.65047e-05 10
26.5397 -4.67967 4.26832 3.55961e-05 10
26.5333 -4.67854 6.2202 3.31856e-05 10
26.5184 -4.67592 7.2152 3.17189e-05 10
9.72761 -1.68025 -2.6451 0.000218852 4
11.2918 -1.95043 -2.64551 9.0348e-05 4
13.3837 -2.31177 -2.64006 4.0635e-05 4
16.4248 -2.83705 -2.63995 5.92779e-05 4
26.5109 -4.57924 -2.35375 3.70089e-05 10
26.5055 -4.5783 -1.40967 3.74821e-05 10
26.5228 -4.58128 -0.469812 3.77232e-05 10
26.5235 -4.58141 0.469825 3.77285e-05 10
26.5126 -4.57952 1.41004 3.74978e-05 10
26.5209 -4.58096 2.35464 3.70348e-05 10
26.5105 -4.57917 3.30328 3.6346e-05 10
26.5167 -4.58024 4.26203 3.54419e-05 10
26.5168 -4.58026 5.23068 3.43355e-05 10
26.4967 -4.57677 6.20782 3.30431e-05 10
26.5117 -4.57936 7.20897 3.15834e-05 10
9.72669 -1.64515 -2.64327 0.000239213 4
11.2859 -1.90887 -2.64257 0.000185141 4
16.4093 -2.77543 -2.63589 7.2267e-05 4
26.488 -4.48011 -2.35031 3.68416e-05 10
26.4899 -4.48043 -1.40799 3.73125e-05 10
26.4853 -4.47966 -0.468869 3.75523e-05 10
26.5113 -4.48405 0.469328 3.75576e-05 10
26.492 -4.4808 1.40811 3.73281e-05 10
26.4975 -4.48172 2.35116 3.68673e-05 10
26.4979 -4.48179 3.29975 3.61821e-05 10
26.4829 -4.47925 4.25406 3.52825e-05 10
26.5008 -4.48228 5.2244 3.41817e-05 10
26.4882 -4.48015 6.20214 3.28957e-05 10
26.4836 -4.47937 7.19705 3.14433e-05 10
9.74706 -1.61362 -2.64726 0.000119608 4
11.3024 -1.8711 -2.64488 0.000124416 4
16.4285 -2.71973 -2.63744 7.39333e-05 4
26.4776 -4.38335 -2.34802 3.66689e-05 10
26.4871 -4.38492 -1.40702 3.71374e-05 10
26.4755 -4.38299 -0.468421 3.7376e-05 10
26.4729 -4.38257 0.468376 3.73811e-05 10
26.4826 -4.38418 1.40679 3.71529e-05 10
26.4719 -4.3824 2.34752 3.66945e-05 10
26.4716 -4.38235 3.29454 3.60128e-05 10
26.4739 -4.38272 4.25012 3.51179e-05 10
26.4693 -4.38197 5.21514 3.40227e-05 10
26.4693 -4.38197 6.19409 3.27434e-05 10
26.4731 -4.3826 7.18999 3.12985e-05 10
9.73856 -1.5773 -2.64344 0.000129788 4
11.3011 -1.83038 -2.64306 0.000122936 4
13.4234 -2.17412 -2.64325 3.29693e-05 4
26.4513 -4.28418 -2.34434 3.64908e-05 10
26.4517 -4.28425 -1.40434 3.69567e-05 10
26.4771 -4.28836 -0.468182 3.71941e-05 10
26.4739 -4.28783 0.468125 3.71992e-05 10
26.4609 -4.28574 1.40483 3.69722e-05 10
26.4662 -4.2866 2.34567 3.65163e-05 10
26.4532 -4.28448 3.29037 3.58383e-05 10
26.4698 -4.28717 4.24703 3.49481e-05 10
26.4489 -4.28378 5.20813 3.38588e-05 10
26.4598 -4.28555 6.18832 3.25863e-05 10
26.463 -4.28607 7.18313 3.1149e-05 10
9.75418 -1.54491 -2.6462 0.000157783 4
11.2906 -1.78826 -2.63914 7.55399e-05 4
26.4577 -4.19049 -2.3436 3.63074e-05 10
26.4489 -4.1891 -1.40341 3.67707e-05 10
26.4448 -4.18845 -0.467351 3.70067e-05 10
26.4456 -4.18857 0.467363 3.70118e-05 10
26.4383 -4.18742 1.40285 3.6786e-05 10
26.4452 -4.18851 2.34249 3.63327e-05 10
26.4339 -4.18672 3.28613 3.56584e-05 10
26.4535 -4.18982 4.24205 3.47731e-05 10
26.4444 -4.18839 5.20435 3.36898e-05 10
26.4454 -4.18855 6.18151 3.24243e-05 10
26.4525 -4.18967 7.17629 3.09949e-05 10
11.2969 -1.74886 -2.63917 6.51724e-05 4
13.4237 -2.07809 -2.64038 5.36724e-05 4
26.4453 -4.09394 -2.34122 3.61185e-05 10
26.4244 -4.09071 -1.40134 3.65792e-05 10
26.4427 -4.09355 -0.467057 3.68139e-05 10
26.4209 -4.09017 0.466671 3.6819e-05 10
26.421 -4.09019 1.40116 3.65945e-05 10
26.4405 -4.09321 2.3408 3.61437e-05 10
26.4408 -4.09326 3.2852 3.54733e-05 10
26.4151 -4.08928 4.23359 3.4593e-05 10
26.4229 -4.09048 5.19727 3.35159e-05 10
26.4369 -4.09265 6.17614 3.22575e-05 10
26.4288 -4.0914 7.16594 3.08361e-05 10
9.75323 -1.47504 -2.64309 0.00016033 4
11.3296 -1.71343 -2.64538 6.22106e-05 4
13.432 -2.03139 -2.6406 3.29706e-05 4
16.9498 -2.56342 -2.71511 4.98336e-05 1
26.4024 -3.99299 -2.33618 3.59244e-05 10
26.4057 -3.99348 -1.3996 3.63824e-05 10
26.4201 -3.99566 -0.466408 3.66156e-05 10
26.4077 -3.99378 0.466189 3.66207e-05 10
26.4209 -3.99579 1.40041 3.63975e-05 10
26.399 -3.99248 2.33588 3.59494e-05 10
26.3961 -3.99203 3.27788 3.52829e-05 10
26.4183 -3.99539 4.23183 3.44078e-05 10
26.4036 -3.99317 5.19071 3.33369e-05 10
26.4064 -3.9936 6.16573 3.20859e-05 10
26.4152 -3.99493 7.15843 3.06727e-05 10
9.76522 -1.442 -2.64496 0.000279944 4
13.4441 -1.98525 -2.6416 6.74754e-05 4
16.9425 -2.50185 -2.71252 4.98343e-05 1
26.3964 -3.89789 -2.33443 3.57249e-05 10
26.3999 -3.8984 -1.39856 3.61801e-05 10
26.3989 -3.89826 -0.465792 3.6412e-05 10
26.3899 -3.89692 0.465632 3.6417e-05 10
26.4051 -3.89917 1.39884 3.61952e-05 10
26.3914 -3.89715 2.33399 3.57497e-05 10
26.3891 -3.8968 3.2753 3.50873e-05 10
26.403 -3.89886 4.22717 3.42174e-05 10
26.392 -3.89724 5.18572 3.3153e-05 10
26.4028 -3.89883 6.16167 3.19095e-05 10
26.4012 -3.89859 7.15088 3.05048e-05 10
9.75437 -1.40563 -2.64067 6.87141e-05 4
11.3422 -1.63444 -2.6456 8.8874e-05 4
16.9673 -2.44503 -2.71512 4.98351e-05 1
26.374 -3.80055 -2.33126 3.55201e-05 10
26.3783 -3.80117 -1.39671 3.59725e-05 10
26.3844 -3.80206 -0.465299 3.62029e-05 10
26.3884 -3.80263 0.465368 3.62079e-05 10
26.3686 -3.79978 1.3962 3.59874e-05 10
26.3847 -3.80209 2.3322 3.55448e-05 10
26.3604 -3.79859 3.27008 3.48864e-05 10
26.3887 -3.80268 4.22274 3.40219e-05 10
26.3765 -3.80091 5.18003 3.29641e-05 10
26.3804 -3.80148 6.15331 3.17282e-05 10
26.3683 -3.79974 7.13835 3.03322e-05 10
9.77133 -1.37327 -2.64395 0.000155244 4
11.3396 -1.59367 -2.64367 8.73936e-05 4
16.9837 -2.3869 -2.71638 4.98359e-05 1
26.3752 -3.7068 -2.33021 3.53099e-05 10
26.3482 -3.70301 -1.39442 3.57595e-05 10
26.36 -3.70466 -0.464637 3.59884e-05 10
26.3749 -3.70675 0.464899 3.59934e-05 10
26.3701 -3.70608 1.39558 3.57743e-05 10
9.76678 -1.33788 -2.64144 5.34451e-05 4
13.4605 -1.84387 -2.6409 3.60393e-05 4
16.973 -2.32501 -2.71336 4.98366e-05 1
26.3599 -3.61087 -2.32773 3.50946e-05 10
26.3426 -3.60849 -1.39345 3.55412e-05 10
26.3413 -3.60831 -0.464083 3.57686e-05 10
26.3366 -3.60767 0.464 3.57735e-05 10
26.339 -3.608 1.39326 3.55559e-05 10
9.7899 -1.30625 -2.64644 5.34455e-05 4
11.3572 -1.51538 -2.64525 6.5176e-05 4
13.4688 -1.79712 -2.64126 6.67117e-05 4
16.9896 -2.26689 -2.71473 4.98373e-05 1
26.3412 -3.51466 -2.32498 3.4874e-05 10
26.3427 -3.51487 -1.3928 3.53175e-05 10
26.3162 -3.51134 -0.463422 3.55434e-05 10
26.3208 -3.51195 0.463503 3.55484e-05 10
26.3199 -3.51182 1.39159 3.53322e-05 10
9.7857 -1.27094 -2.64409 7.63513e-05 4
11.361 -1.47554 -2.64493 8.73959e-05 4
13.4785 -1.75055 -2.64196 5.36767e-05 4
16.9959 -2.20738 -2.71449 4.9838e-05 1
26.3264 -3.4192 -2.32261 3.46482e-05 10
26.3127 -3.41743 -1.39057 3.50886e-05 10
26.3017 -3.41599 -0.462954 3.5313e-05 10
26.3078 -3.41679 0.463061 3.53178e-05 10
26.2988 -3.41562 1.38984 3.51032e-05 10
9.79345 -1.2372 -2.645 0.000167974 4
11.3453 -1.43325 -2.64009 0.000133317 4
17.0032 -2.14801 -2.71445 4.98387e-05 1
26.2964 -3.32201 -2.31892 3.44171e-05 10
26.2923 -3.32149 -1.38887 3.48545e-05 10
26.2962 -3.32198 -0.46265 3.50772e-05 10
26.3005 -3.32252 0.462725 3.50821e-05 10
26.2787 -3.31978 1.38816 3.48689e-05 10
9.80195 -1.20353 -2.64615 0.000109438 4
11.3694 -1.39598 -2.64454 0.00018072 4
13.4859 -1.65586 -2.64108 3.29735e-05 4
17.0004 -2.08739 -2.71282 4.98394e-05 1
26.2684 -3.22536 -2.31545 3.4181e-05 10
26.2892 -3.22791 -1.38811 3.46151e-05 10
26.2846 -3.22735 -0.462246 3.48362e-05 10
26.2734 -3.22597 0.462047 3.4841e-05 10
26.2606 -3.2244 1.3866 3.46295e-05 10
25.5308 -3.13479 3.15833 5.27368e-05 10
25.5387 -3.13576 4.07531 5.14458e-05 10
25.5264 -3.13425 4.99909 4.98661e-05 10
25.542 -3.13617 5.94112 4.80204e-05 10
25.5469 -3.13677 6.89668 4.59348e-05 10
9.79234 -1.16767 -2.64244 4.32666e-05 4
11.3645 -1.35514 -2.64229 3.40705e-05 4
13.4889 -1.60845 -2.64055 4.601e-05 4
17.0067 -2.02793 -2.71269 4.98401e-05 1
26.2581 -3.13109 -2.31356 3.39396e-05 10
26.2702 -3.13253 -1.38652 3.43705e-05 10
26.2523 -3.1304 -0.461482 3.459e-05 10
26.2683 -3.13231 0.461763 3.45947e-05 10
26.2726 -3.13282 1.38664 3.43847e-05 10
25.8397 -3.0812 3.19519 5.03837e-05 10
25.8457 -3.08191 4.12255 4.91446e-05 10
25.8281 -3.07981 5.05604 4.76286e-05 10
25.8441 -3.08172 6.00885 4.58575e-05 10
25.8342 -3.08054 6.9713 4.38566e-05 10
9.80574 -1.13457 -2.64497 0.000264692 4
11.3792 -1.31662 -2.64461 6.66601e-05 4
13.4931 -1.56121 -2.64029 7.66841e-05 4
17.0324 -1.97072 -2.71566 4.98407e-05 1
26.2534 -3.03763 -2.3122 3.36932e-05 10
26.2376 -3.0358 -1.38423 3.41208e-05 10
26.2484 -3.03705 -0.461225 3.43386e-05 10
26.2355 -3.03556 0.460998 3.43433e-05 10
26.2325 -3.0352 1.38396 3.41349e-05 10
26.1449 -3.02508 3.23161 4.80933e-05 10
26.1455 -3.02515 4.16867 4.69049e-05 10
26.1637 -3.02725 5.11964 4.54511e-05 10
26.1435 -3.02491 6.07596 4.3753e-05 10
26.1529 -3.026 7.0544 4.18349e-05 10
9.81142 -1.10053 -2.64545 0.000106896 4
11.3721 -1.27558 -2.64191 6.96234e-05 4
13.5101 -1.5154 -2.64256 5.598e-05 4
17.0398 -1.91132 -2.71576 4.98413e-05 1
26.2321 -2.9424 -2.3094 3.86959e-05 10
26.2377 -2.94304 -1.38368 3.91868e-05 10
26.2183 -2.94086 -0.460512 3.94369e-05 10
26.2309 -2.94227 0.460733 3.94425e-05 10
26.2137 -2.94034 1.38241 3.92034e-05 10
26.4856 -2.97084 4.22121 0.000104371 10
26.4616 -2.96815 5.17588 0.000101121 10
26.4753 -2.96968 6.15063 9.73246e-05 10
26.2224 -2.94132 7.07033 3.30672e-05 10
9.81334 -1.06607 -2.64495 6.10835e-05 4
11.3798 -1.23624 -2.64269 5.48103e-05 4
13.5194 -1.46867 -2.64336 3.83428e-05 4
17.0371 -1.85083 -2.71429 4.9842e-05 1
26.2009 -2.84633 -2.30577 3.84953e-05 10
26.2147 -2.84783 -1.38194 3.89835e-05 10
26.205 -2.84678 -0.460101 3.92322e-05 10
26.1972 -2.84593 0.459963 3.92377e-05 10
26.1926 -2.84543 1.38077 3.9e-05 10
26.8129 -2.91282 4.27173 9.94292e-05 10
26.7961 -2.91099 5.23928 9.63174e-05 10
26.7952 -2.91089 6.22255 9.26838e-05 10
26.1818 -2.84425 7.05666 3.28984e-05 10
9.81503 -1.0316 -2.64442 0.000137439 4
11.3746 -1.19552 -2.64051 5.48107e-05 4
13.5051 -1.41945 -2.63959 6.05822e-05 4
17.0324 -1.79018 -2.71253 4.98426e-05 1
26.1848 -2.75213 -2.30349 3.82891e-05 10
26.1877 -2.75245 -1.38 3.87744e-05 10
26.1827 -2.75192 -0.459539 3.90216e-05 10
