VERSION 0.7
FIELDS x y z intensity label
SIZE 4 4 4 4 4
TYPE F F F F F
COUNT 1 1 1 1 1
WIDTH 1146
HEIGHT 1
VIEWPOINT 5.18678 36.0251 2.72818 0.766193 -0.000383005 0.000992237 0.64261
POINTS 1146
DATA ascii
-6.21645 -4.96253 -1.8364 0.00235618 6
-6.03388 -4.81678 -1.50075 0.0010942 6
-6.49539 -5.1852 -1.31637 0.000437963 6
-6.64433 -5.3041 -1.04389 0.00177532 6
-6.17021 -4.96097 -2.12142 0.00234494 6
-6.1685 -4.9596 -1.82733 0.00238314 6
-6.01768 -4.83834 -1.50091 0.000720859 6
-6.43284 -5.17214 -1.30734 0.000443414 6
-6.60701 -5.31217 -1.04093 0.00168916 6
-6.1275 -4.96195 -2.11268 0.00235882 6
-6.10475 -4.94353 -1.81355 0.00241869 6
-5.9971 -4.85635 -1.5 0.000462719 6
-6.37988 -5.16632 -1.30024 0.000444457 6
-6.55493 -5.30807 -1.03564 0.00135217 6
-6.06637 -4.94761 -2.09754 0.00231965 6
-6.05549 -4.93874 -1.80403 0.0024487 6
-5.97319 -4.87161 -1.49826 0.000276066 6
-6.33765 -5.16886 -1.2953 0.00044873 6
-6.53085 -5.32643 -1.03477 0.000530249 6
-6.01058 -4.93715 -2.0842 0.00230926 6
-6.01251 -4.93873 -1.79635 0.00247839 6
-5.95232 -4.88929 -1.4973 4.05476e-05 6
-6.27832 -5.15707 -1.28684 0.000453898 6
-6.48491 -5.32676 -1.03043 0.000439772 6
-5.95876 -4.92951 -2.07218 0.00231317 6
-5.97154 -4.94009 -1.78925 0.00250218 6
-5.94076 -4.91463 -1.4987 0.000227418 6
-6.22095 -5.14642 -1.27876 0.000457539 6
-6.50337 -5.38005 -1.03634 0.000240708 6
-5.90548 -4.92026 -2.05962 0.00233218 6
-5.91824 -4.93089 -1.77842 0.00252372 6
-5.91411 -4.92745 -1.4963 0.00108362 6
-6.1764 -5.14598 -1.27329 0.000462613 6
-6.48003 -5.39896 -1.03562 0.000230391 6
-5.85585 -4.91364 -2.04828 0.00235908 6
-5.87081 -4.92619 -1.76933 0.00252238 6
-6.00085 -5.03531 -1.52269 0.000192082 6
-6.13869 -5.15097 -1.26921 0.000469683 6
-6.46206 -5.42232 -1.03576 0.000249542 6
-5.79969 -4.90112 -2.03461 0.00252114 6
-5.82001 -4.91829 -1.75918 0.00254931 6
-5.96415 -5.0401 -1.51783 0.000501024 6
-6.07873 -5.13693 -1.26052 0.0020479 6
-6.43734 -5.43997 -1.03484 0.000210512 6
-5.73523 -4.88106 -2.01795 0.002981 6
-5.76178 -4.90365 -1.74674 0.00258241 6
-5.90067 -5.02187 -1.50613 0.000506383 6
-6.04169 -5.14188 -1.25655 0.00189091 6
-6.41741 -5.46164 -1.03469 0.000224004 6
-5.64827 -4.84115 -1.99329 0.00259764 6
-5.72437 -4.90638 -1.74058 0.00260817 6
-5.85483 -5.0182 -1.49889 0.000510461 6
-5.99104 -5.13494 -1.24973 0.00133469 6
-6.40145 -5.4867 -1.0352 0.000163136 6
-5.60338 -4.8367 -1.9834 0.00264168 6
-5.68489 -4.90707 -1.73378 0.00268306 6
-5.81718 -5.02126 -1.49373 0.000515737 6
-5.981 -5.16266 -1.25139 0.000204085 6
-6.38707 -5.51317 -1.03598 0.000161316 6
-5.56191 -4.83489 -1.97468 0.0027045 6
-5.64184 -4.90438 -1.72586 0.00270284 6
-5.75635 -5.00392 -1.48259 0.00238561 6
-6.38632 -5.55155 -1.039 0.000113717 6
-5.53342 -4.84415 -1.97056 0.00169409 6
-5.58965 -4.89337 -1.71511 0.00273152 6
-5.71412 -5.00234 -1.4762 0.00228787 6
-6.36876 -5.57543 -1.0393 0.000102596 6
-5.61152 -4.94722 -2.00451 0.000383456 6
-5.55837 -4.90036 -1.71075 0.00277521 6
-5.69476 -5.02061 -1.47571 0.00207128 6
-6.34153 -5.59081 -1.03804 7.54791e-05 6
-5.59248 -4.96524 -2.00388 0.000382554 6
-5.49695 -4.88042 -1.69708 0.00278118 6
-5.65889 -5.0242 -1.47095 0.000101182 6
-6.34306 -5.63163 -1.0415 6.05905e-05 6
-5.59831 -5.00547 -2.01222 0.000382961 6
-5.46648 -4.8876 -1.69293 0.00279421 6
-6.32167 -5.65223 -1.04122 5.1559e-05 6
-5.59959 -5.04189 -2.019 0.000375032 6
-5.42861 -4.88794 -1.68647 0.00276858 6
-6.30431 -5.67642 -1.04162 4.02065e-05 6
-5.60162 -5.07924 -2.02611 0.000374138 6
-5.39083 -4.8881 -1.68003 0.0027759 6
-6.29633 -5.70916 -1.04358 3.8391e-05 6
-5.59307 -5.10717 -2.02945 0.000374591 6
-5.3432 -4.87901 -1.67048 0.00280039 6
-5.18097 -4.76414 -1.88594 0.003019 6
-5.30412 -4.87738 -1.66357 0.00283344 6
-5.87525 -5.40256 -1.26416 3.01825e-05 6
-5.13663 -4.75657 -1.87583 0.00304599 6
-5.28274 -4.89187 -1.66221 0.00244698 6
-5.86396 -5.43009 -1.26581 3.29699e-05 6
-5.07507 -4.73258 -1.85937 0.00302199 6
-5.24396 -4.89007 -1.65537 0.001224 6
-5.85877 -5.46339 -1.26879 4.03607e-05 6
-5.04679 -4.73925 -1.85506 0.00223052 6
-5.21242 -4.89479 -1.6508 0.00275762 6
-5.84752 -5.49119 -1.2705 4.11227e-05 6
-5.01318 -4.74073 -1.84878 0.00217146 6
-5.16787 -4.88701 -1.64208 0.00274219 6
-5.82685 -5.51018 -1.27018 4.67348e-05 6
-6.23333 -5.89457 -1.05338 3.5904e-05 6
-4.99673 -4.75832 -1.84883 0.00214559 6
-5.15083 -4.90507 -1.6421 0.00274605 6
-5.81503 -5.53758 -1.27181 4.75961e-05 6
-6.21524 -5.91869 -1.0538 5.02565e-05 6
-4.9738 -4.7697 -1.84649 0.00208759 6
-5.10015 -4.89086 -1.63137 0.00276933 6
-5.53552 -5.30837 -1.49079 3.04606e-05 6
-5.81457 -5.57597 -1.27596 5.53742e-05 6
-6.19663 -5.94236 -1.05416 8.58385e-05 6
-4.95048 -4.78062 -1.84402 0.00215712 6
-5.07633 -4.90215 -1.62922 0.00275924 6
-5.52097 -5.33154 -1.49188 3.14914e-05 6
-5.78869 -5.59007 -1.27455 5.60514e-05 6
-6.19663 -5.98402 -1.05771 9.55797e-05 6
-4.92341 -4.78781 -1.84015 0.00221914 6
-5.04843 -4.90938 -1.62576 0.00263944 6
-5.50489 -5.35327 -1.49258 4.14405e-05 6
-5.77667 -5.61757 -1.27622 6.31733e-05 6
-6.16954 -5.99962 -1.05665 0.000100371 6
-4.88228 -4.78108 -1.83101 0.00261316 6
-5.01765 -4.91364 -1.62136 0.00170698 6
-5.48954 -5.37576 -1.49349 4.31467e-05 6
-5.77044 -5.65083 -1.27919 6.37425e-05 6
-6.17583 -6.04782 -1.06134 0.000115739 6
-4.86189 -4.79448 -1.82962 0.00289146 6
-4.98308 -4.91398 -1.61572 0.000963592 6
-5.48656 -5.41048 -1.49781 5.09347e-05 6
-5.75267 -5.6729 -1.27963 7.03448e-05 6
-6.15348 -6.06816 -1.06113 0.000124545 6
-4.82518 -4.79162 -1.82209 0.00301735 6
-4.9759 -4.94129 -1.61898 0.000907488 6
-5.47747 -5.43936 -1.5005 5.18207e-05 6
-5.74868 -5.70868 -1.28317 7.31497e-05 6
-6.15173 -6.10893 -1.0645 0.000139679 6
-4.78621 -4.78621 -1.81367 0.00300257 6
-4.95482 -4.95482 -1.61773 0.000893457 6
-5.45888 -5.45888 -1.50062 5.34503e-05 6
-5.74394 -5.74394 -1.28658 8.05717e-05 6
-6.1414 -6.1414 -1.06641 0.000150929 6
-4.76254 -4.7959 -1.81104 0.00291361 6
-4.94187 -4.97649 -1.61917 0.000845595 6
-5.43886 -5.47696 -1.50036 6.19169e-05 6
-5.734 -5.77417 -1.28886 8.0973e-05 6
-6.1434 -6.18644 -1.07051 0.000169027 6
-4.73381 -4.80038 -1.80647 0.00500721 6
-4.91615 -4.98528 -1.61643 0.000813698 6
-5.43173 -5.50811 -1.50369 6.31755e-05 6
-5.72239 -5.80285 -1.2908 8.80452e-05 6
-6.12335 -6.20946 -1.07078 0.00022405 6
-4.704 -4.80356 -1.80148 0.00484186 6
-4.90096 -5.00469 -1.61717 0.000796432 6
-5.4192 -5.5339 -1.50556 7.17552e-05 6
-5.71115 -5.83203 -1.29285 9.48364e-05 6
-6.12757 -6.25727 -1.07533 0.000224325 6
-4.67492 -4.80732 -1.79676 0.00407175 6
-4.88911 -5.02758 -1.61904 0.000748145 6
-5.42021 -5.57373 -1.51124 7.24439e-05 6
-5.7056 -5.8672 -1.29622 9.4303e-05 6
-6.11109 -6.28417 -1.07628 0.000239634 6
-4.64366 -4.80865 -1.79119 0.00351823 6
-4.85632 -5.02886 -1.61399 0.000583478 6
-5.40517 -5.59721 -1.51248 8.07822e-05 6
-5.68704 -5.8891 -1.29666 0.000100631 6
-6.09772 -6.31437 -1.0778 0.00025687 6
-4.60792 -4.80509 -1.78386 0.00268454 6
-4.85859 -5.06649 -1.62061 0.000563743 6
-5.35306 -5.58212 -1.50334 6.72313e-05 6
-5.69042 -5.93391 -1.30215 0.00010158 6
-6.09142 -6.35208 -1.0806 0.000267956 6
-4.59308 -4.82321 -1.78463 0.00208566 6
-4.8304 -5.07242 -1.6171 0.000567296 6
-5.34311 -5.61081 -1.50604 0.000124549 6
-5.68741 -5.97236 -1.30622 0.000106777 6
-6.09116 -6.39635 -1.08451 0.000279504 6
-4.56432 -4.82663 -1.77999 0.00154076 6
-4.81709 -5.09393 -1.61859 0.000564128 6
-5.33013 -5.63645 -1.50792 0.000295398 6
-5.68194 -6.00848 -1.30978 0.000108131 6
-6.08492 -6.43463 -1.08739 6.91293e-05 6
-4.56391 -4.86008 -1.78643 0.000569853 6
-4.81539 -5.12787 -1.62402 0.000560649 6
-5.31941 -5.66459 -1.51047 0.00038428 6
-5.66438 -6.03195 -1.31057 0.000113581 6
-4.54619 -4.87519 -1.78615 0.000115706 6
-4.79218 -5.13899 -1.62224 0.000594726 6
-5.32359 -5.70885 -1.51731 0.000271313 6
-5.64826 -6.05702 -1.31173 0.000113475 6
-4.5174 -4.87835 -1.78151 0.000312071 6
-4.78339 -5.16559 -1.62535 0.000581426 6
-5.30822 -5.73235 -1.51862 0.000180131 6
-5.6473 -6.09852 -1.31644 0.000120129 6
-4.50218 -4.89608 -1.78224 0.000599138 6
-4.75236 -5.16815 -1.62093 0.000588443 6
-5.28658 -5.74911 -1.51816 0.000187075 6
-5.65175 -6.14623 -1.32247 0.00012786 6
-4.48869 -4.91574 -1.78368 0.000724218 6
-4.74014 -5.19111 -1.62293 0.000571445 6
-5.29096 -5.79434 -1.52522 0.000189388 6
-5.63621 -6.17244 -1.32387 0.000127497 6
-4.4774 -4.93789 -1.78603 0.000994776 6
-4.7217 -5.2073 -1.62283 0.000565865 6
-5.28487 -5.82839 -1.52932 0.000189763 6
-5.63634 -6.21601 -1.32899 0.00013215 6
-4.47381 -4.96867 -1.79151 0.00122802 6
-4.71712 -5.23889 -1.62753 0.000555024 6
-5.28232 -5.86661 -1.5345 0.000439708 6
-5.62329 -6.2453 -1.33104 0.000139536 6
-4.45048 -4.9776 -1.78912 0.0015149 6
-4.69813 -5.25457 -1.6273 0.000554932 6
-5.29002 -5.91656 -1.54272 0.000301805 6
-5.61832 -6.28375 -1.33505 0.000141225 6
-4.43979 -5.00066 -1.79182 0.00180211 6
-4.69059 -5.28314 -1.63107 0.000527895 6
-5.29534 -5.96428 -1.55034 0.000135258 6
-5.62966 -6.34084 -1.343 0.000143068 6
-4.42552 -5.01976 -1.79312 0.00213409 6
-4.67157 -5.29885 -1.63087 0.000536228 6
-5.20449 -5.90333 -1.52976 0.000366729 6
-5.61331 -6.36706 -1.34439 0.00014798 6
-4.41506 -5.04328 -1.79601 0.00222215 6
-4.64255 -5.30313 -1.62719 0.000512952 6
-5.18043 -5.91755 -1.52875 0.000234686 6
-5.6269 -6.42756 -1.35301 0.000149027 6
-4.41523 -5.07914 -1.80328 0.00260935 6
-4.63147 -5.32789 -1.62982 0.000516513 6
-5.17738 -5.95589 -1.53398 0.000121873 6
-5.59869 -6.44055 -1.35162 0.00150035 6
-4.38396 -5.07886 -1.79774 0.000361602 6
-4.62026 -5.35262 -1.63244 0.000500394 6
-5.183 -6.00457 -1.54185 0.000269723 6
-11.3161 -13.1098 -2.74294 4.77158e-05 1
-4.36205 -5.08929 -1.79603 0.000455949 6
-4.60204 -5.36929 -1.63262 0.000490696 6
-5.16155 -6.02208 -1.54171 0.000245115 6
-11.272 -13.1513 -2.74337 4.77249e-05 1
-4.34663 -5.10728 -1.79701 0.00105587 6
-4.58668 -5.38933 -1.63383 0.00066994 6
-5.15325 -6.05505 -1.54553 0.000232448 6
-11.2152 -13.1778 -2.74071 4.77341e-05 1
-4.34692 -5.14389 -1.80454 0.0030441 6
-4.57587 -5.41481 -1.63671 0.000672859 6
-5.1269 -6.06686 -1.54397 0.000224147 6
-11.1771 -13.2263 -2.74267 4.77434e-05 1
-4.3478 -5.18151 -1.8124 0.00326117 6
-4.55302 -5.42608 -1.6353 0.000316754 6
-5.11587 -6.09686 -1.54705 0.000223425 6
-11.1204 -13.2528 -2.7401 4.77526e-05 1
-12.8836 -15.3541 -2.46102 0.000278055 10
-4.33389 -5.2017 -1.81416 0.00328518 6
-4.53824 -5.44696 -1.6368 0.000308538 6
-5.10373 -6.12569 -1.54984 0.000210443 6
-11.075 -13.2927 -2.74033 4.77618e-05 1
-12.7864 -15.3467 -2.45266 0.00028342 10
-4.32388 -5.22667 -1.8176 0.00345026 6
-4.52655 -5.47166 -1.63947 0.000288112 6
-5.0826 -6.14381 -1.54992 0.000197708 6
-11.0246 -13.3265 -2.73936 4.7771e-05 1
-12.677 -15.3239 -2.44193 0.000288843 10
-4.30864 -5.24542 -1.81888 0.00346106 6
-4.51527 -5.49698 -1.64232 0.000262474 6
-5.07249 -6.17535 -1.5534 0.00022176 6
-10.9909 -13.3805 -2.74256 4.77803e-05 1
-12.5799 -15.315 -2.4335 0.000294322 10
-4.30202 -5.2748 -1.82384 0.00332615 6
-4.5098 -5.52955 -1.64734 0.0002638 6
-5.05609 -6.19937 -1.555 0.000229973 6
-10.9295 -13.4008 -2.73889 4.77896e-05 1
-12.4687 -15.2881 -2.4223 0.000299857 10
-4.30686 -5.31853 -1.83376 0.00311291 6
-4.48021 -5.5326 -1.64358 0.000210532 6
-5.05023 -6.23652 -1.55988 0.000277699 6
-10.8965 -13.456 -2.74237 4.77989e-05 1
-12.3658 -15.2705 -2.41264 0.000305449 10
-4.28957 -5.33515 -1.83431 0.000479494 6
-4.47434 -5.56496 -1.64854 0.00019698 6
-5.02305 -6.24741 -1.55821 0.000121701 6
-10.8486 -13.4929 -2.74215 4.78082e-05 1
-12.2677 -15.2579 -2.40388 0.000311096 10
-4.28197 -5.36393 -1.83906 0.000466419 6
-4.46205 -5.58952 -1.65119 0.000195222 6
-10.7953 -13.5231 -2.74061 4.78174e-05 1
-12.1668 -15.2411 -2.39452 0.0003168 10
-4.26783 -5.38466 -1.84105 0.00205636 6
-4.45584 -5.62188 -1.65615 0.000150902 6
-5.02127 -6.33527 -1.57134 2.92826e-05 6
-10.7466 -13.5588 -2.74024 4.78268e-05 1
-12.0605 -15.2165 -2.38404 0.000322558 10
-4.25363 -5.4054 -1.84305 0.00242012 6
-4.43775 -5.63937 -1.65673 0.000138259 6
-5.02166 -6.3814 -1.57843 5.33341e-05 6
-10.69 -13.5846 -2.73788 4.78361e-05 1
-11.9626 -15.2018 -2.37517 0.000328373 10
-4.25748 -5.44933 -1.85295 0.00250094 6
-4.41572 -5.65186 -1.65586 0.000135121 6
-8.06906 -10.3279 -2.54761 0.0001037 4
-10.6474 -13.628 -2.73913 4.78454e-05 1
-11.8682 -15.1906 -2.36694 0.000334241 10
-4.2418 -5.4685 -1.85442 0.00334677 6
-4.40287 -5.67615 -1.65846 4.68198e-05 6
-8.02991 -10.3521 -2.54664 0.000105415 4
-10.601 -13.6667 -2.73945 4.78548e-05 1
-11.7606 -15.1616 -2.35601 0.000340166 10
-11.7768 -15.1826 1.68107 0.00019413 10
-11.788 -15.197 3.7385 6.8232e-05 10
-11.7561 -15.1559 4.42825 0.000229248 10
-11.7772 -15.1831 5.14873 0.000168863 10
-4.23778 -5.50286 -1.86105 0.000370439 6
-4.41068 -5.72738 -1.66892 9.92747e-05 6
-8.00106 -10.3896 -2.54898 0.000117335 4
-10.5479 -13.6968 -2.73808 4.78642e-05 1
-11.6746 -15.1598 -2.34938 0.000346144 10
-11.6876 -15.1766 1.67588 0.000197538 10
-11.7351 -15.2383 3.73856 6.82208e-05 10
-11.6572 -15.1371 4.41087 0.000233299 10
-11.6754 -15.1608 5.12734 0.000171858 10
-4.22275 -5.52312 -1.8629 0.00408373 6
-4.39698 -5.751 -1.67132 7.96684e-05 6
-7.95441 -10.4039 -2.54567 0.000110549 4
-10.5018 -13.7358 -2.73854 4.78736e-05 1
-11.5659 -15.1276 -2.33811 0.000352177 10
-11.5763 -15.1412 1.66749 0.000200977 10
-11.6817 -15.279 3.73853 6.82095e-05 10
-11.5617 -15.122 4.39468 0.000237388 10
-11.5811 -15.1475 5.10912 0.000174881 10
-4.33767 -5.71466 -1.92239 0.00036622 6
-4.38887 -5.78212 -1.6759 0.000168837 6
-7.92639 -10.4426 -2.54836 0.000123323 4
-10.4539 -13.7725 -2.73858 4.7883e-05 1
-11.4681 -15.1086 -2.32898 0.000358264 10
-11.4876 -15.1344 1.66232 0.000204447 10
-11.6442 -15.3406 3.74363 0.000255722 10
-11.4722 -15.1141 4.38071 0.000241514 10
-11.4842 -15.1298 5.08961 0.000177931 10
-4.23293 -5.61729 -1.88465 0.000446609 6
-4.37179 -5.80156 -1.6771 0.000180305 6
-7.87999 -10.4571 -2.54516 0.000106328 4
-10.4085 -13.8126 -2.7393 4.78924e-05 1
-11.3792 -15.1007 -2.32162 0.000364405 10
-11.3884 -15.1129 1.65558 0.000207948 10
-11.6282 -15.4312 3.75581 0.000251966 10
-11.3702 -15.0888 4.36185 0.000245677 10
-11.3961 -15.1231 5.07395 0.000181009 10
-4.31758 -5.77143 -1.9313 0.00036623 6
-4.36777 -5.83852 -1.68337 0.00020236 6
-7.84414 -10.4855 -2.54539 0.000111449 4
-10.3675 -13.8586 -2.74123 4.79018e-05 1
-11.2884 -15.0896 -2.31384 0.000370599 10
-11.306 -15.113 1.65126 0.000211479 10
-11.6051 -15.5129 3.7658 0.000248235 10
-11.2826 -15.0818 4.34841 0.000249877 10
-11.2986 -15.1031 5.05397 0.000184114 10
-4.31322 -5.80775 -1.9384 0.000365276 6
-4.36178 -5.87314 -1.68895 0.000297827 6
-7.81647 -10.5249 -2.54831 9.78511e-05 4
-10.3127 -13.8861 -2.73954 4.79113e-05 1
-11.19 -15.0673 -2.30442 0.000376847 10
-11.2058 -15.0886 1.64431 0.00021504 10
-11.5886 -15.604 3.77809 0.000244529 10
-11.1761 -15.0487 4.32759 0.000254112 10
-11.199 -15.0795 5.03295 0.000187246 10
-4.20516 -5.70374 -1.89878 0.000419832 6
-4.34212 -5.88951 -1.68929 0.000358242 6
-7.77104 -10.5404 -2.54548 9.95677e-05 4
-10.2633 -13.9208 -2.73929 4.79207e-05 1
-11.0891 -15.0409 -2.29446 0.000383147 10
-11.1065 -15.0645 1.63745 0.000218631 10
-11.5764 -15.7019 3.79197 0.000240849 10
-11.0826 -15.0321 4.31166 0.000258385 10
-11.1134 -15.0739 5.01811 0.000190404 10
-4.29405 -5.86707 -1.94815 0.000259936 6
-4.34345 -5.93457 -1.69786 0.000388404 6
-7.73211 -10.5646 -2.54479 0.00012767 4
-10.206 -13.9447 -2.73696 4.79302e-05 1
-10.9974 -15.026 -2.28631 0.000389499 10
-11.0127 -15.047 1.63135 0.000222252 10
-11.5513 -15.7829 3.80177 0.000237195 10
-10.9994 -15.0287 4.29965 0.000262692 10
-11.0051 -15.0366 4.99287 0.00019359 10
-4.2715 -5.87921 -1.94721 9.48891e-05 6
-4.33615 -5.96819 -1.70314 0.000467006 6
-7.69716 -10.5942 -2.54545 9.95973e-05 4
-10.1653 -13.9914 -2.73915 4.79396e-05 1
-10.9064 -15.0113 -2.27827 0.000395904 10
-10.904 -15.0081 1.623 0.00029474 10
-11.5364 -15.8785 3.81509 0.000233568 10
-10.8959 -14.997 4.27967 0.000267036 10
-10.9004 -15.003 4.96906 0.000256792 10
-4.18382 -5.80101 -1.91646 0.000440372 6
-4.32027 -5.99021 -1.7051 0.000571892 6
-7.66855 -10.6327 -2.54825 9.79093e-05 4
-10.1076 -14.0145 -2.73675 4.79491e-05 1
-10.8217 -15.0046 -2.2715 0.000402361 10
-10.836 -15.0245 1.62068 0.000229583 10
-11.5264 -15.9818 3.83021 0.000229966 10
-10.8155 -14.9961 4.26862 0.000271415 10
-10.8369 -15.0257 4.96399 0.000200041 10
-4.19317 -5.85695 -1.9301 0.000539781 6
-4.32695 -6.04382 -1.71605 0.00105086 6
-7.62863 -10.6556 -2.54732 0.000114103 4
-10.0634 -14.0563 -2.73804 4.79586e-05 1
-10.7199 -14.9734 -2.2611 0.000408869 10
-10.7351 -14.9946 1.6134 0.000233293 10
-12.9726 -18.12 2.73626 0.00016013 10
-12.9627 -18.1061 3.52689 0.000156449 10
-11.5064 -16.0719 3.84216 0.000226392 10
-10.7207 -14.9745 4.2518 0.000275829 10
-10.7403 -15.0019 4.94372 0.000203305 10
-4.16639 -5.86268 -1.92718 0.0038499 6
-4.32225 -6.082 -1.7226 0.00110963 6
-7.57931 -10.6651 -2.54327 8.94221e-05 4
-10.0093 -14.0844 -2.73668 4.79681e-05 1
-10.6387 -14.9701 -2.25498 0.000415428 10
-10.6429 -14.976 1.60739 0.000237031 10
-12.8517 -18.0841 2.72404 0.000162876 10
-12.8545 -18.088 3.51461 0.000159137 10
-11.4959 -16.1763 3.8575 0.000222844 10
-10.6337 -14.963 4.23797 0.000280278 10
-10.6455 -14.9797 4.92412 0.000206596 10
-4.15123 -5.88474 -1.92966 0.00257727 6
-4.32376 -6.12933 -1.73172 0.00116232 6
-7.54397 -10.6943 -2.54392 0.000111581 4
-9.96139 -14.1212 -2.73706 4.79776e-05 1
-10.5438 -14.9468 -2.24591 0.000422038 10
-6.11324 -8.66607 0.555801 0.00348722 5
-10.5561 -14.9643 1.60217 0.000240799 10
-12.7499 -18.0741 2.71583 0.000165647 10
-12.7574 -18.0848 3.50531 0.000161848 10
-11.4742 -16.2656 3.86923 0.000219324 10
-10.5416 -14.9437 4.22204 0.000284762 10
-10.5572 -14.9658 4.90741 0.000209913 10
-4.13519 -5.90566 -1.93177 0.00158907 6
-4.31589 -6.16373 -1.73717 0.000855705 6
-7.50477 -10.7179 -2.5433 9.03007e-05 4
-9.92323 -14.1718 -2.74015 4.79871e-05 1
-10.4545 -14.9306 -2.23798 0.000428698 10
-6.0766 -8.67828 0.55522 0.00350398 5
-10.468 -14.9499 1.59671 0.000244595 10
-12.6515 -18.0683 2.7083 0.000168441 10
-12.6429 -18.056 3.49115 0.000164583 10
-11.457 -16.3623 3.88268 0.00021583 10
-10.4544 -14.9305 4.20798 0.000289281 10
-10.4683 -14.9503 4.89034 0.000213255 10
-4.14082 -5.95786 -1.94411 0.00168717 6
-4.31029 -6.20169 -1.74362 0.00159853 6
-7.47841 -10.76 -2.54708 0.000122691 4
-9.87288 -14.2052 -2.73992 4.79967e-05 1
-10.3759 -14.929 -2.2323 0.000435409 10
-6.0739 -8.7392 0.185768 0.00111412 5
-6.04271 -8.69432 0.554893 0.00352065 5
-10.3775 -14.9313 1.59084 0.000248419 10
-12.5355 -18.0362 2.69691 0.000171258 10
-12.53 -18.0283 3.47732 0.000167341 10
-11.4332 -16.4503 3.89407 0.000212365 10
-10.3662 -14.915 4.19338 0.000293834 10
-10.3877 -14.9459 4.877 0.000216623 10
-4.13334 -5.99161 -1.9504 0.00245847 6
-6.54107 -9.48182 -2.6594 7.09563e-05 4
-7.4339 -10.7761 -2.54472 0.000112484 4
-9.80784 -14.2173 -2.73563 4.80062e-05 1
-10.2758 -14.8957 -2.22194 0.000442168 10
-6.04507 -8.76283 0.18582 0.001642 5
-6.00873 -8.71014 0.554561 0.0035372 5
-10.2879 -14.9131 1.58507 0.000252272 10
-12.4322 -18.0215 2.68821 0.000174099 10
-12.4269 -18.0138 3.46615 0.000170122 10
-11.423 -16.5586 3.91025 0.000208927 10
-10.2783 -14.8993 4.17886 0.00029842 10
-10.2857 -14.9099 4.85351 0.000220016 10
-4.15131 -6.06284 -1.96886 0.00260753 6
-6.50305 -9.49745 -2.6574 0.000173792 4
-7.40669 -10.8172 -2.54832 0.000128694 4
-9.76318 -14.2588 -2.73704 4.80158e-05 1
-10.1887 -14.8802 -2.21432 0.000448977 10
-5.96173 -8.70688 0.553025 0.000727619 5
-10.2026 -14.9005 1.57993 0.000256152 10
-12.3188 -17.9911 2.67725 0.000176963 10
-12.3286 -18.0054 3.45622 0.000172925 10
-11.4138 -16.6694 3.92697 0.000205517 10
-10.1855 -14.8756 4.16221 0.00030304 10
-10.203 -14.9011 4.83901 0.000223433 10
-4.16207 -6.1243 -1.98409 0.00261139 6
-6.46727 -9.51629 -2.65634 0.000422455 4
-7.3628 -10.834 -2.54621 0.000101436 4
-9.70705 -14.2835 -2.73526 4.80254e-05 1
-10.1097 -14.8759 -2.20841 0.000455834 10
-5.98653 -8.80891 0.558175 0.001257 5
-10.1189 -14.8894 1.57501 0.000260061 10
-12.2207 -17.9822 2.66955 0.00017985 10
-12.2206 -17.982 3.44352 0.000175751 10
-11.3957 -16.7683 3.94088 0.000202135 10
-10.1044 -14.8682 4.15025 0.000307694 10
-10.1071 -14.8722 4.81813 0.000296009 10
-4.24239 -6.2896 -2.03283 0.00119016 6
-6.41794 -9.51499 -2.64971 0.000435434 4
-7.3246 -10.8592 -2.54609 0.000112534 4
-9.66957 -14.3357 -2.73878 4.80349e-05 1
-10.0293 -14.869 -2.20217 0.00046274 10
-5.9938 -8.88618 0.561742 0.00060112 5
-10.0346 -14.8769 1.56997 0.000263996 10
-12.1121 -17.957 2.65951 0.00018276 10
-12.1128 -17.958 3.43081 0.0001786 10
-11.3747 -16.8637 3.95395 0.000198781 10
-10.0091 -14.8391 4.13234 0.00031238 10
-10.0092 -14.8393 4.79613 0.000300531 10
-5.67757 -8.48105 -2.7347 0.000559087 4
-6.35475 -9.49262 -2.63729 8.04925e-05 4
-7.28819 -10.887 -2.54663 0.000112551 4
-9.61824 -14.3676 -2.73844 4.80445e-05 1
-9.95493 -14.8705 -2.19723 7.89805e-05 10
-9.95566 -14.8716 1.56573 0.000267959 10
-12.0173 -17.9512 2.65243 0.000185693 10
-12.0165 -17.95 3.42124 0.000181471 10
-11.3453 -16.9474 3.96427 0.000195456 10
-9.93751 -14.8445 4.12416 0.0003171 10
-9.93826 -14.8456 4.78693 0.000305084 10
-5.62532 -8.46678 -2.72375 0.000650911 4
-6.30769 -9.49384 -2.63149 0.000294221 4
-7.24848 -10.9098 -2.54605 0.000100629 4
-9.56308 -14.3936 -2.73702 4.80541e-05 1
-9.91088 -14.9171 -2.19899 7.90011e-05 10
-9.84347 -14.8156 1.55621 0.000378268 10
-9.84525 -14.8183 2.18443 0.000372259 10
-9.85381 -14.8312 2.82023 0.000364335 10
-9.85081 -14.8267 3.46012 0.000354595 10
-9.84516 -14.8182 4.10728 0.00034316 10
-9.8401 -14.8105 4.76452 0.000330171 10
-5.57117 -8.44913 -2.7118 0.000568805 4
-6.25795 -9.49068 -2.62455 0.000338605 4
-7.2083 -10.932 -2.54533 0.000110026 4
-9.51704 -14.4333 -2.73824 4.80637e-05 1
-9.85241 -14.942 -2.19758 7.90217e-05 10
-5.4747 -8.30282 0.521212 0.000757759 5
-9.76974 -14.8166 1.55272 0.000383852 10
-9.7611 -14.8035 2.17721 0.00037776 10
-9.76409 -14.808 2.80933 0.000369727 10
-9.76572 -14.8105 3.44837 0.000359853 10
-9.76208 -14.805 4.09416 0.000348261 10
-9.76936 -14.816 4.75528 0.000335092 10
-5.5359 -8.45973 -2.70898 0.000621224 4
-6.2179 -9.50195 -2.62164 0.000240978 4
-7.16659 -10.9517 -2.54408 0.000113455 4
-9.46019 -14.4567 -2.73639 4.80733e-05 1
-9.79973 -14.9756 -2.19747 7.90424e-05 10
-5.44366 -8.31878 0.521018 0.00427617 5
-9.67265 -14.7814 1.54548 0.000389472 10
-9.68308 -14.7973 2.17132 0.000383297 10
-9.67236 -14.7809 2.79776 0.000375155 10
-9.6867 -14.8028 3.4387 0.000365146 10
-9.68289 -14.797 4.08258 0.000353395 10
-9.67988 -14.7924 4.73683 0.000340046 10
-5.48496 -8.4461 -2.69847 0.000719265 4
-6.16931 -9.49989 -2.61512 0.000416473 4
-7.13836 -10.9921 -2.54766 0.00012627 4
-9.40674 -14.4851 -2.73554 4.8083e-05 1
-10.5494 -16.2446 -2.37827 3.96196e-05 10
-5.42138 -8.34819 0.173749 0.000995567 5
-5.39495 -8.30749 0.519128 0.00429356 5
-9.59504 -14.7751 1.54131 0.000395129 10
-9.60234 -14.7863 2.16477 0.00038887 10
-9.5891 -14.7659 2.78857 0.000380618 10
-9.60288 -14.7871 3.42724 0.000370473 10
-9.60014 -14.7829 4.06942 0.000358563 10
-9.59582 -14.7763 4.72091 0.000345033 10
-5.43926 -8.44008 -2.69046 0.000792753 4
-6.10877 -9.47895 -2.60347 0.000315488 4
-7.08963 -11.001 -2.54396 9.13035e-05 4
-9.36641 -14.5338 -2.73855 4.80926e-05 1
-9.52465 -14.7794 -2.15887 0.000505161 10
-9.51944 -14.7713 -1.53744 0.000513508 10
-9.51104 -14.7582 -0.920149 0.000519168 10
-9.52132 -14.7742 -0.306799 0.000522073 10
-5.39393 -8.36975 0.173805 0.00143402 5
-5.36306 -8.32184 0.518851 0.00431081 5
-5.6786 -8.81146 0.917123 0.000813037 5
-9.5221 -14.7754 2.1583 0.000394479 10
-9.51387 -14.7626 2.78166 0.000386116 10
-9.51867 -14.7701 3.41557 0.000375836 10
-9.52048 -14.7729 4.05749 0.000363765 10
-9.50862 -14.7545 4.70332 0.000350052 10
-5.40051 -8.44454 -2.68586 0.000709596 4
-6.06673 -9.48628 -2.59965 0.000392582 4
-7.05803 -11.0363 -2.54643 0.000105826 4
-9.31228 -14.5612 -2.73756 4.81023e-05 1
-9.44322 -14.7659 -2.15209 0.000512391 10
-9.43915 -14.7596 -1.53278 0.000520848 10
-9.44178 -14.7637 -0.918429 0.000526583 10
-9.43929 -14.7598 -0.305814 0.000529526 10
-5.37722 -8.40812 0.174211 0.000720302 5
-5.32606 -8.32812 0.518081 0.0043279 5
-5.64171 -8.82169 0.916132 0.00235565 5
-9.42413 -14.7361 2.14774 0.000400122 10
-9.43468 -14.7526 2.77355 0.000391648 10
-9.43678 -14.7559 3.40464 0.00038123 10
-9.43265 -14.7494 4.04197 0.000368999 10
-9.43428 -14.752 4.69199 0.000355103 10
-5.35474 -8.43772 -2.67773 0.000666436 4
-6.01575 -9.4793 -2.59196 0.000346683 4
-7.02078 -11.063 -2.54691 0.000107549 4
-9.26035 -14.592 -2.73726 4.81119e-05 1
-9.34799 -14.7301 -2.14209 0.000519666 10
-9.36049 -14.7498 -1.52836 0.000528233 10
-9.35034 -14.7338 -0.914531 0.000534044 10
-5.59841 -8.82168 -0.182373 0.000744579 5
-5.55451 -8.75251 0.180943 0.000260276 5
-5.34397 -8.42075 0.522679 0.00128911 5
-5.59554 -8.81715 0.913627 0.00238684 5
-9.35227 -14.7368 2.14307 0.0004058 10
-9.35265 -14.7374 2.76454 0.000397214 10
-9.35306 -14.7381 3.39298 0.000386659 10
-9.34607 -14.727 4.02688 0.000374266 10
-9.34947 -14.7324 4.67536 0.000360185 10
-5.30181 -8.41913 -2.66594 0.000816902 4
-5.55815 -8.82619 -2.40806 0.00173219 5
-5.58952 -8.87601 -2.03892 0.000735261 5
-9.19814 -14.6064 -2.73392 4.81216e-05 1
-9.2715 -14.7229 -2.13633 0.000526984 10
-9.27153 -14.7229 -1.52222 0.000535664 10
-9.2779 -14.7331 -0.912471 0.000541549 10
-5.5539 -8.81944 -0.181925 0.00124618 5
-5.51087 -8.75111 0.180516 0.000695123 5
-5.35286 -8.5002 0.526448 0.000735477 5
-5.55641 -8.82343 0.912262 0.00241818 5
-9.26849 -14.7181 2.13563 0.000411512 10
-9.27085 -14.7218 2.75553 0.000402814 10
-9.26337 -14.71 3.37905 0.000392121 10
-9.26295 -14.7093 4.01316 0.000379565 10
-9.27003 -14.7206 4.6613 0.000365299 10
-5.26608 -8.42748 -2.66275 0.000671187 4
-5.52546 -8.84258 -2.40726 0.00146624 5
-5.54649 -8.87624 -2.03451 0.00108947 5
-5.55216 -8.88531 -1.65945 0.00101071 5
-5.56044 -8.89856 -1.28838 0.0014059 5
-5.55135 -8.88402 -0.916518 0.00136738 5
-5.53861 -8.86363 -0.547756 0.00157761 5
-5.50842 -8.81532 -0.181443 0.0015054 5
-5.47438 -8.76084 0.180321 0.000416585 5
-5.45588 -8.73123 0.539574 0.000384533 5
-5.48417 -8.7765 0.905425 0.000567581 5
-9.18301 -14.6959 2.12774 0.000417259 10
-9.19629 -14.7171 2.74862 0.000408447 10
-9.18799 -14.7039 3.37026 0.000397615 10
-9.18148 -14.6934 4.00007 0.000384896 10
-9.18565 -14.7001 4.64464 0.000370443 10
-5.22237 -8.42283 -2.6555 0.000781445 4
-5.49739 -8.86638 -2.4085 0.000696136 5
-5.50879 -8.88477 -2.03205 0.000805146 5
-5.5196 -8.9022 -1.659 0.00111465 5
-5.52619 -8.91283 -1.28764 0.000624558 5
-5.53142 -8.92127 -0.918363 0.0014308 5
-5.51675 -8.8976 -0.548662 0.000760664 5
-5.48433 -8.84532 -0.181665 0.00142571 5
-5.46034 -8.80663 0.18087 0.000746175 5
-5.42757 -8.75378 0.539793 0.00115577 5
-5.46097 -8.80765 0.906666 0.000609093 5
-9.1111 -14.6947 2.12295 0.000423039 10
-9.10965 -14.6924 2.73804 0.000414113 10
-9.11 -14.6929 3.36044 0.000403142 10
-9.10029 -14.6773 3.98699 0.000390258 10
-9.10962 -14.6923 4.63211 0.000375619 10
-5.16709 -8.39899 -2.64228 0.000747935 4
-5.47731 -8.90323 -2.4133 0.00135742 5
-5.4977 -8.93638 -2.03945 0.000514975 5
-9.03668 -14.6889 -2.7315 0.00053739 10
-9.03663 -14.6888 -2.11754 0.000549198 10
-9.03795 -14.691 -1.50905 0.000558215 10
-9.03822 -14.6914 -0.90398 0.000564329 10
-5.45046 -8.85959 -0.181566 0.00100222 5
-5.43678 -8.83737 0.181111 0.00132892 5
-5.42359 -8.81592 0.542454 0.0026607 5
-5.45858 -8.8728 0.911406 0.00213664 5
-9.03576 -14.6874 2.11733 0.000428851 10
-9.0296 -14.6774 2.72936 0.000419812 10
-9.02474 -14.6695 3.34786 0.0004087 10
-9.03009 -14.6782 3.97866 0.000395651 10
-9.03406 -14.6847 4.61972 0.000380823 10
-5.13255 -8.40847 -2.63961 0.000408812 4
-5.76624 -9.44661 -2.55512 0.000297539 4
-6.82233 -11.1768 -2.5453 3.6731e-05 4
-8.94858 -14.6601 -2.72033 0.00054473 10
-8.95262 -14.6667 -2.10983 0.000556687 10
-8.99533 -14.7367 -1.51051 0.00049181 10
-8.9979 -14.7409 -0.905089 0.000496879 10
-5.44401 -8.91872 -0.182387 0.000296992 5
-5.40727 -8.85853 0.181156 0.000750506 5
-5.42052 -8.88023 0.545244 0.00262163 5
-5.4513 -8.93067 0.91539 0.00210215 5
-8.94781 -14.6589 2.1087 0.000434696 10
-8.94688 -14.6573 2.71981 0.000425543 10
-8.95198 -14.6657 3.33984 0.000414289 10
-8.94639 -14.6565 3.9643 0.000401074 10
-8.94402 -14.6527 4.59981 0.000386058 10
-5.08225 -8.39179 -2.62879 0.000596974 4
-5.7187 -9.44269 -2.54864 0.000310134 4
-7.2935 -12.043 -2.73675 0.000112581 1
-8.87508 -14.6545 -2.71352 0.000552109 10
-8.87519 -14.6547 -2.10363 0.000564216 10
-8.97841 -14.8251 -1.51635 0.00048333 10
-8.98682 -14.839 -0.909178 0.000488318 10
-8.98632 -14.8382 -0.302796 0.00049072 10
-5.40264 -8.92082 0.182043 0.000410481 5
-5.41046 -8.93373 0.547366 0.00258286 5
-5.43334 -8.97151 0.917627 0.000637822 5
-8.87276 -14.6507 2.10305 0.000440573 10
-8.86723 -14.6415 2.71112 0.000431304 10
-8.86989 -14.6459 3.32827 0.000419909 10
-8.87415 -14.653 3.95493 0.000406527 10
-8.87092 -14.6476 4.58848 0.000391321 10
-5.04584 -8.3977 -2.62511 0.000520688 4
-5.6779 -9.44962 -2.54515 0.0002331 4
-7.2478 -12.0624 -2.73539 0.000112599 1
-8.80009 -14.6458 -2.7062 0.00055953 10
-8.79226 -14.6328 -2.09607 0.000571788 10
-8.96081 -14.9133 -1.52216 0.000474927 10
-8.96684 -14.9233 -0.912422 0.000479833 10
-8.96726 -14.924 -0.303908 0.000482196 10
-5.65046 -9.40395 0.191499 0.00152584 5
-5.4017 -8.98995 0.549651 0.00254436 5
-8.7907 -14.6302 1.49326 0.000453599 10
-8.78635 -14.6229 2.09466 0.000446483 10
-8.78873 -14.6269 2.70271 0.000437098 10
-8.78859 -14.6267 3.3169 0.00042556 10
-8.79888 -14.6438 3.94414 0.000412011 10
-8.79673 -14.6402 4.57651 0.000396614 10
-4.99715 -8.3828 -2.61498 0.000731114 4
-5.63744 -9.4569 -2.54179 0.000245467 4
-7.20739 -12.0905 -2.73605 0.000112616 1
-8.72696 -14.6396 -2.69941 0.000566989 10
-8.7158 -14.6209 -2.08999 0.000579398 10
-8.93945 -14.9961 -1.52741 0.000466602 10
-8.94875 -15.0117 -0.915908 0.000471429 10
-8.94217 -15.0006 -0.30483 0.000473752 10
-5.63289 -9.44926 0.19202 0.000585266 5
-5.37093 -9.00982 0.549717 0.00134224 5
-8.71669 -14.6224 1.48935 0.000459627 10
-8.71126 -14.6133 2.0889 0.000452422 10
-8.71735 -14.6235 2.69644 0.000442921 10
-8.71922 -14.6266 3.30997 0.000431241 10
-8.72176 -14.6309 3.93244 0.000417523 10
-8.71394 -14.6178 4.55995 0.000401935 10
-4.95388 -8.37655 -2.60762 0.000638934 4
-5.61106 -9.48778 -2.54481 0.000248793 4
-7.15973 -12.1064 -2.73398 0.000112634 1
-8.6392 -14.6081 -2.68802 0.000574488 10
-8.64948 -14.6255 -2.08632 0.000587048 10
-9.2185 -15.5876 -1.58438 0.000272245 10
-9.20881 -15.5712 -0.948082 0.000275092 10
-9.20856 -15.5708 -0.315762 0.000276463 10
-9.20794 -15.5698 0.315741 0.00027634 10
-5.58891 -9.45033 0.5754 0.0010013 5
-8.63637 -14.6033 1.48433 0.000465687 10
-8.63271 -14.5971 2.08227 0.000458393 10
-8.64332 -14.615 2.6893 0.000448776 10
-8.63602 -14.6027 3.29771 0.000436952 10
-8.63222 -14.5963 3.91501 0.000423065 10
-8.64392 -14.6161 4.54999 0.000407285 10
-4.91047 -8.36969 -2.60014 0.000724727 4
-5.56844 -9.49117 -2.54049 0.00022905 4
-7.11635 -12.1295 -2.73357 0.000112651 1
-8.57021 -14.6076 -2.6824 0.000582024 10
-8.57179 -14.6103 -2.07987 0.000594737 10
-9.26623 -15.7939 -1.60205 0.000305708 10
-9.25676 -15.7778 -0.958684 0.000309121 10
-9.26198 -15.7867 -0.319482 0.000310871 10
-9.26413 -15.7903 0.319555 0.000310937 10
-5.6022 -9.54872 0.580197 0.000476271 5
-8.32322 -14.1866 1.43901 0.000518522 10
-8.32422 -14.1883 2.0198 0.000510478 10
-8.31979 -14.1807 2.60403 0.00049987 10
-8.32539 -14.1903 3.19799 0.000486824 10
-8.32927 -14.1969 3.80007 0.000471501 10
-8.32182 -14.1842 4.40648 0.000454082 10
-4.86662 -8.36169 -2.59236 0.000642413 4
-5.54559 -9.52827 -2.54523 0.000197765 4
-7.06819 -12.1444 -2.73134 0.000112669 1
-8.48835 -14.5844 -2.6727 0.000589598 10
-8.49021 -14.5876 -2.07242 0.000602464 10
-9.18727 -15.7853 -1.59791 0.000309776 10
-9.18528 -15.7819 -0.956981 0.000313231 10
-9.1788 -15.7707 -0.318509 0.000315003 10
-9.1829 -15.7778 0.318651 0.000266449 10
-9.18239 -15.7769 0.956679 0.000264887 10
-8.24793 -14.1714 1.43454 0.00052519 10
-8.24928 -14.1737 2.01361 0.000517049 10
-8.25026 -14.1754 2.59773 0.000506314 10
-8.24297 -14.1628 3.1853 0.000493112 10
-8.25277 -14.1797 3.78773 0.000477604 10
-8.2438 -14.1643 4.39132 0.000459975 10
-4.83462 -8.37381 -2.59087 0.000691583 4
-5.50743 -9.53915 -2.54298 0.000125267 4
-7.03138 -12.1787 -2.73352 0.000112686 1
-8.41557 -14.5762 -2.66579 0.00059721 10
-8.41241 -14.5707 -2.06583 0.000610229 10
-9.27984 -16.0731 -1.62376 0.000293652 10
-9.28084 -16.0749 -0.972777 0.000296944 10
-9.27091 -16.0577 -0.323649 0.000298632 10
-9.2746 -16.0641 0.323777 0.000298695 10
-9.26651 -16.0501 0.971274 0.000297131 10
-8.18682 -14.18 1.43251 0.000445033 10
-8.18214 -14.1719 2.00928 0.000523652 10
-8.19284 -14.1904 2.59524 0.00042849 10
-8.18768 -14.1815 3.18305 0.000417047 10
-8.17305 -14.1561 3.77379 0.000483737 10
-8.18536 -14.1775 4.38652 0.000388506 10
-4.79003 -8.36386 -2.5826 0.000677424 4
-5.46754 -9.54685 -2.53993 0.000235728 4
-6.99493 -12.2138 -2.73591 0.000112704 1
-8.33458 -14.553 -2.65621 0.000604856 10
-8.33105 -14.5468 -2.05831 0.00061803 10
-9.19227 -16.0506 -1.61823 0.000297521 10
-9.19127 -16.0489 -0.969254 0.000300853 10
-9.18387 -16.0359 -0.322562 0.000302562 10
-9.19118 -16.0487 0.322819 0.000302625 10
-9.19406 -16.0537 0.969548 0.000301042 10
-8.17608 -14.2762 1.43934 0.000437101 10
-8.11989 -14.1781 2.00613 8.45718e-05 10
-8.17774 -14.2791 2.60623 0.000420831 10
-8.17024 -14.266 3.19561 0.000409578 10
-8.1002 -14.1437 3.76293 0.000489899 10
-8.17286 -14.2706 4.40649 0.000381511 10
-4.74841 -8.35871 -2.57588 0.000763925 4
-5.43927 -9.57485 -2.54231 0.000214325 4
-6.94758 -12.2299 -2.73407 0.000112721 1
-8.27031 -14.5584 -2.65191 0.000612541 10
-8.26279 -14.5451 -2.05397 0.000625869 10
-9.12686 -16.0662 -1.61658 0.000248225 10
-9.12013 -16.0543 -0.967656 0.000250837 10
-9.12044 -16.0549 -0.322301 0.000252093 10
-9.12716 -16.0667 0.322538 0.000251978 10
-5.08215 -8.94621 0.539222 0.00389887 5
-8.14954 -14.3458 1.44347 0.000429245 10
-8.06087 -14.1897 2.00378 8.45502e-05 10
-8.15054 -14.3475 2.6135 0.000413245 10
-8.15683 -14.3586 3.20995 0.00040218 10
-8.03085 -14.1368 3.75361 0.000496089 10
-8.16436 -14.3719 4.42893 0.000374584 10
-4.7056 -8.35109 -2.56845 0.00065402 4
-5.40567 -9.59352 -2.54224 0.000219298 4
-6.903 -12.2508 -2.73334 0.000112739 1
-8.18599 -14.5278 -2.64112 0.000620259 10
-8.19137 -14.5373 -2.04882 0.000633743 10
-9.2019 -16.3307 -1.63996 0.00028593 10
-9.19725 -16.3225 -0.981877 0.000289146 10
-9.19345 -16.3157 -0.326892 0.000290796 10
-9.20512 -16.3364 0.327306 0.000290856 10
-5.04775 -8.95831 0.538886 0.00391136 5
-8.1306 -14.4295 1.44903 0.000421466 10
-8.0158 -14.2257 2.00491 8.45286e-05 10
-8.1464 -14.4575 2.62834 0.000405735 10
-8.14275 -14.451 3.22424 0.000394856 10
-7.95754 -14.1223 3.74237 0.000149841 10
-8.13905 -14.4445 4.44252 0.000367727 10
-4.66491 -8.34688 -2.56213 0.00051691 4
-5.37108 -9.61041 -2.54174 0.000183045 4
-6.85934 -12.2733 -2.733 0.000112756 1
-8.12098 -14.5308 -2.63649 0.000628012 10
-8.11584 -14.5216 -2.04259 0.000641653 10
-9.11475 -16.3089 -1.63456 0.000289631 10
-9.11499 -16.3094 -0.979168 0.000292885 10
-9.11504 -16.3094 -0.326126 0.000294554 10
-5.02939 -8.99904 0.179946 0.000611179 5
-5.01293 -8.96959 0.538509 0.00392365 5
-8.11753 -14.5246 1.45573 0.000508935 10
-7.9646 -14.251 2.00453 8.45071e-05 10
-8.11125 -14.5134 2.63333 0.000313166 10
-8.10519 -14.5025 3.22939 0.000304966 10
-7.90942 -14.1522 3.74295 0.000149821 10
-8.11698 -14.5236 4.45812 0.000445479 10
-4.62987 -8.3525 -2.55888 0.000261671 4
-5.3346 -9.62386 -2.54035 0.000214404 4
-6.82324 -12.3095 -2.73572 0.000112774 1
-8.03883 -14.5024 -2.62624 0.000635799 10
-8.03525 -14.496 -2.03503 0.000649595 10
-9.0713 -16.3651 -1.63701 0.000234396 10
-9.07298 -16.3681 -0.980786 0.000236871 10
-9.07362 -16.3692 -0.326686 0.000238061 10
-5.00122 -9.02243 0.180063 0.000751944 5
-4.9874 -8.99751 0.539137 0.00393579 5
-8.03226 -14.4906 1.4495 0.000515225 10
-7.92308 -14.2936 2.00663 8.44854e-05 10
-8.08322 -14.5825 2.64074 0.000311558 10
-8.07603 -14.5695 3.23802 0.000303393 10
-7.86836 -14.1949 3.74694 0.0001498 10
-8.03701 -14.4992 4.44197 0.000451037 10
-4.58415 -8.33853 -2.54968 0.00010702 4
-5.29811 -9.63723 -2.53899 0.00021608 4
-6.77857 -12.3302 -2.73505 0.000112792 1
-7.97437 -14.5053 -2.6217 0.000643619 10
-7.97176 -14.5006 -2.03176 0.000657573 10
-9.11793 -16.5854 -1.65586 4.72307e-05 10
-9.11247 -16.5755 -0.991304 0.000281621 10
-9.12189 -16.5926 -0.330507 0.000283232 10
-9.1151 -16.5803 0.330261 0.000283291 10
-4.94346 -8.99213 0.537777 0.00394776 5
-7.96813 -14.494 1.44705 0.000521543 10
-7.87595 -14.3263 2.00734 8.44638e-05 10
-7.80974 -14.2059 3.74262 0.00014978 10
-7.96119 -14.4813 4.42798 0.000456619 10
-4.53871 -8.32458 -2.54056 0.000675526 4
-5.26475 -9.65624 -2.53914 0.00019961 4
-6.73075 -12.3451 -2.73313 0.000112809 1
-7.88913 -14.4697 -2.61027 0.000651472 10
-7.89705 -14.4842 -2.02559 0.000665584 10
-9.03928 -16.5792 -1.65207 0.00022542 10
-9.03577 -16.5728 -0.989248 0.000227807 10
-9.03835 -16.5775 -0.329575 0.000228953 10
-9.03493 -16.5712 0.32945 0.000228846 10
-4.97382 -9.12263 0.54454 0.000890185 5
-7.88912 -14.4697 1.44186 0.000527887 10
-7.82128 -14.3452 2.00616 8.44422e-05 10
-7.76223 -14.2369 3.74364 0.000149759 10
-7.89465 -14.4798 4.41905 0.000462225 10
-4.51795 -8.35578 -2.54525 0.000452664 4
-5.24369 -9.698 -2.54529 0.000227683 4
-6.68564 -12.3648 -2.73232 0.000112827 1
-7.82998 -14.4812 -2.60741 0.000659357 10
-7.82063 -14.4639 -2.01893 0.000673627 10
-9.02022 -16.6825 -1.65922 0.000334591 10
-9.11687 -16.8613 -1.00456 0.000270946 10
-9.11152 -16.8514 -0.334386 0.000272502 10
-9.11825 -16.8638 0.334633 0.000272558 10
-9.11195 -16.8522 1.00402 0.000271115 10
-7.81849 -14.46 1.43817 0.000534257 10
-7.7646 -14.3603 2.00447 8.44205e-05 10
-7.71988 -14.2776 3.74723 0.000149739 10
-7.82408 -14.4703 4.4078 0.000467854 10
-4.479 -8.35331 -2.53972 0.000362169 4
-5.20922 -9.71516 -2.545 0.000226061 4
-6.64968 -12.4016 -2.7353 0.000112845 1
-7.74736 -14.4488 -2.59668 0.000667273 10
-7.74938 -14.4525 -2.01355 0.000681701 10
-8.99124 -16.7686 -1.66465 0.000327983 10
-9.03157 -16.8438 -1.00164 0.000274351 10
-9.02803 -16.8372 -0.333477 0.000275925 10
-9.02864 -16.8383 0.333499 0.000275982 10
-9.03053 -16.8419 1.00152 0.000274521 10
-7.75585 -14.4646 1.43593 0.000540652 10
-7.71405 -14.3866 2.00437 8.43989e-05 10
-7.66288 -14.2912 3.74376 0.000149718 10
-7.74087 -14.4367 4.38928 0.000473506 10
-4.44906 -8.36747 -2.53929 0.000362206 4
-5.17234 -9.72776 -2.54356 0.000186482 4
-6.59306 -12.3997 -2.72979 0.000112862 1
-7.68579 -14.4549 -2.59293 0.00067522 10
-7.68327 -14.4501 -2.00947 0.000689807 10
-8.98516 -16.8986 -1.67444 0.00032145 10
-8.98184 -16.8924 -1.00266 0.000214582 10
-8.97927 -16.8876 -0.333852 0.000215666 10
-8.98679 -16.9017 0.334131 0.000215563 10
-8.98589 -16.9 1.00311 0.000214275 10
-7.6836 -14.4507 1.43188 0.00054707 10
-7.66989 -14.425 2.00596 8.43773e-05 10
-7.6244 -14.3394 3.74939 0.000149698 10
-7.671 -14.427 4.37819 0.00047918 10
-4.42016 -8.38357 -2.53947 0.000404694 4
-5.13917 -9.7473 -2.54396 0.000252525 4
-6.55502 -12.4327 -2.732 0.00011288 1
-7.60698 -14.4279 -2.58332 0.000683197 10
-7.61259 -14.4386 -2.00415 0.000697944 10
-8.95495 -16.9846 -1.67984 0.000314991 10
-9.02033 -17.1086 -1.01361 0.000264061 10
-9.02944 -17.1259 -0.337938 0.000265582 10
-9.02873 -17.1245 0.33791 0.000265637 10
-9.02183 -17.1114 1.01378 0.000264225 10
-7.60785 -14.4296 1.42714 0.000553514 10
-7.60941 -14.4325 2.00331 0.000544946 10
-7.56205 -14.3427 3.74332 0.000149677 10
-7.60554 -14.4252 4.36955 0.000484876 10
-4.39774 -8.4121 -2.54345 0.000384924 4
-5.10268 -9.76052 -2.54275 0.000183227 4
-6.50721 -12.4471 -2.73016 0.000112898 1
-7.5313 -14.406 -2.57468 0.000691203 10
-7.53232 -14.408 -1.99624 0.00070611 10
-8.93931 -17.0993 -1.6881 0.000308607 10
-8.94592 -17.112 -1.01196 0.000206015 10
-8.94698 -17.114 -0.337085 0.000207058 10
-8.9412 -17.1029 0.336867 0.000206958 10
-8.9443 -17.1089 1.01177 0.000205716 10
-7.54027 -14.4232 1.4239 0.000559981 10
-7.53991 -14.4225 1.99826 0.000551319 10
-7.57632 -14.4922 2.59008 0.000338738 10
-7.57178 -14.4835 3.17681 0.000329912 10
-7.52036 -14.3851 3.74752 0.000149657 10
-7.53266 -14.4086 4.35654 0.000490593 10
-4.36319 -8.41745 -2.54045 0.000376472 4
-5.06961 -9.78027 -2.54327 0.000168392 4
-6.46658 -12.4753 -2.73137 0.000112915 1
-7.46809 -14.4074 -2.57025 0.000699238 10
-7.47202 -14.415 -1.99359 0.000714305 10
-8.92226 -17.2128 -1.69621 0.000302298 10
-9.01755 -17.3966 -1.02692 0.00025429 10
-9.00774 -17.3777 -0.341658 0.00025576 10
-9.01124 -17.3844 0.34179 0.000255813 10
-9.01182 -17.3856 1.02627 0.000254447 10
-7.46757 -14.4064 1.41966 0.000566471 10
-7.46251 -14.3966 1.99105 0.000557715 10
-7.46434 -14.4002 3.74463 0.000328953 10
-7.46577 -14.4029 4.34691 0.000496332 10
-4.33889 -8.44257 -2.54344 0.000314231 4
-5.02799 -9.7834 -2.5395 0.000232805 4
-6.42116 -12.4942 -2.73059 0.000112933 1
-7.39245 -14.3841 -2.56148 0.0007073 10
-7.39765 -14.3943 -1.98714 0.000722529 10
-7.39533 -14.3897 -1.41547 0.000484926 10
-7.39404 -14.3872 -0.847751 0.000490128 10
-7.40255 -14.4038 -0.282679 0.000492793 10
-7.38907 -14.3776 0.282164 0.000492889 10
-7.39878 -14.3965 0.848295 0.000490413 10
-7.39739 -14.3938 1.41586 0.000572983 10
-7.38873 -14.3769 1.98474 0.000564133 10
-7.39331 -14.3858 3.73416 0.000332759 10
-7.39203 -14.3833 4.33318 0.000502089 10
-4.49457 -8.8211 -2.65274 5.51667e-05 4
-5.0035 -9.81991 -2.54443 0.000234486 4
-6.37453 -12.5107 -2.72931 0.000112951 1
-7.33095 -14.3878 -2.55756 0.00071539 10
-7.32238 -14.371 -1.98038 0.00073078 10
-7.32393 -14.374 -1.4114 0.000490457 10
-7.32369 -14.3736 -0.845433 0.000495714 10
-7.32108 -14.3684 -0.281482 0.000498407 10
-7.3271 -14.3802 0.281713 0.000498503 10
-7.32059 -14.3675 0.845075 0.000496001 10
-7.33008 -14.3861 1.41258 0.000579516 10
-7.32485 -14.3758 1.98105 0.000570573 10
-7.12425 -13.9821 2.48545 0.000613253 10
-7.11394 -13.9619 3.0459 0.000597469 10
-7.1217 -13.9771 3.6216 0.000578923 10
-7.32103 -14.3683 4.32094 0.000507867 10
-4.46568 -8.84055 -2.65388 0.000120376 4
-4.96244 -9.82395 -2.54098 0.000204788 4
-6.34096 -12.553 -2.73369 0.000112968 1
-7.25274 -14.358 -2.54775 0.000723507 10
-7.25942 -14.3712 -1.97691 0.000739058 10
-7.31004 -14.4714 -1.41845 0.000363538 10
-7.30993 -14.4712 -0.84967 0.000367197 10
-7.30128 -14.4541 -0.282658 0.000368951 10
-7.3133 -14.4779 0.283124 0.000368779 10
-7.31559 -14.4824 0.850328 0.000366684 10
-7.25559 -14.3636 1.40788 0.000586071 10
-7.26174 -14.3758 1.97754 0.000577033 10
-7.05897 -13.9744 2.47968 0.000620148 10
-7.05661 -13.9697 3.04221 0.000604199 10
-7.05611 -13.9687 3.61302 0.000585457 10
-7.24938 -14.3513 4.30819 0.000513664 10
-4.42932 -8.84515 -2.65061 0.000526702 4
-4.93311 -9.85119 -2.54355 0.000218027 4
-6.29515 -12.5711 -2.73284 0.000112986 1
-7.19078 -14.3597 -2.54357 0.000731649 10
-7.18438 -14.3469 -1.9701 0.000747362 10
-8.83835 -17.6498 -1.72695 0.000277813 10
-8.84166 -17.6564 -1.03487 0.000185472 10
-8.84296 -17.659 -0.344727 0.000186416 10
-8.84232 -17.6577 0.344701 0.000186323 10
-8.85053 -17.6741 1.03591 0.000185194 10
-7.18662 -14.3513 1.40421 0.000592647 10
-7.18152 -14.3412 1.96932 0.000583514 10
-7.0005 -13.9797 2.47627 0.000462245 10
-7.00366 -13.986 3.04042 0.000450052 10
-7.00294 -13.9845 3.61077 0.000435793 10
-7.17993 -14.338 4.29663 0.00051948 10
-4.40582 -8.87547 -2.65507 0.000288462 4
-4.88871 -9.84824 -2.53837 0.000227966 4
-6.25479 -12.6002 -2.73439 0.000113004 1
-7.11772 -14.3386 -2.53542 0.000739816 10
-7.11892 -14.341 -1.96587 0.000755692 10
-7.11534 -14.3337 -1.40005 0.000507157 10
-7.12331 -14.3498 -0.839603 0.00051258 10
-7.11651 -14.3361 -0.279373 0.000515357 10
-7.11269 -14.3284 0.279223 0.000515455 10
-7.12051 -14.3442 0.839272 0.000512873 10
-7.12333 -14.3498 1.40162 0.000599243 10
-7.11796 -14.339 1.9656 0.000590015 10
-6.98622 -14.0736 2.48858 0.000453045 10
-6.9846 -14.0704 3.05345 0.000441077 10
-6.99344 -14.0882 3.63121 0.000427082 10
-7.11782 -14.3388 4.28939 0.000525314 10
-4.36882 -8.8786 -2.65143 0.000142992 4
-4.8569 -9.87052 -2.53972 0.000323818 4
-6.20845 -12.6172 -2.73337 0.000113022 1
-7.05439 -14.3364 -2.53067 0.000748007 10
-7.05044 -14.3284 -1.96076 0.000764046 10
-7.05065 -14.3288 -1.39715 0.000375374 10
-7.06161 -14.3511 -0.838229 0.000379133 10
-7.06173 -14.3513 -0.279188 0.000380934 10
-7.05472 -14.3371 0.27891 0.000380755 10
-7.0519 -14.3313 0.837077 0.000378598 10
-7.04679 -14.321 1.39639 0.000605858 10
-7.04919 -14.3258 1.96041 0.000596535 10
-6.96865 -14.1622 2.49991 0.00044395 10
-6.97233 -14.1696 3.06969 0.000432206 10
-6.97718 -14.1795 3.64844 0.000418471 10
-7.04472 -14.3168 4.27543 0.000531166 10
-4.33461 -8.88727 -2.64948 0.000220783 4
-4.82061 -9.88371 -2.53877 0.00025446 4
-6.15411 -12.6178 -2.72883 0.000113039 1
-6.98936 -14.3303 -2.52527 0.000756223 10
-6.98494 -14.3213 -1.95643 0.000772425 10
-7.03995 -14.434 -1.40501 0.00036777 10
-7.03706 -14.4281 -0.841289 0.000371457 10
-7.04049 -14.4351 -0.280338 0.000373223 10
-7.04564 -14.4457 0.280543 0.000373047 10
-7.04139 -14.437 0.841806 0.00037093 10
-6.98213 -14.3155 1.39347 0.000612492 10
-6.97842 -14.3079 1.9546 0.000603074 10
-6.95072 -14.2511 2.51131 0.00043496 10
-6.94877 -14.2471 3.08119 0.000423436 10
-6.95301 -14.2558 3.6618 0.00040996 10
-6.9805 -14.3121 4.26675 0.000537036 10
-4.30703 -8.90951 -2.65161 0.00053696 4
-4.7909 -9.91045 -2.54133 0.000239619 4
-6.11997 -12.6598 -2.73326 0.000113057 1
-6.91654 -14.3076 -2.51699 0.00076446 10
-6.92289 -14.3207 -1.95304 0.000780826 10
-8.7622 -18.1255 -1.76135 0.000254531 10
-8.78217 -18.1668 -1.05749 0.000233144 10
-8.78036 -18.163 -0.352139 0.000234505 10
-8.78183 -18.1661 0.352198 0.000234553 10
-6.91886 -14.3124 1.39081 0.000619144 10
-6.91581 -14.306 1.95104 0.000609631 10
-6.90922 -14.2924 2.51432 0.000597085 10
-6.91826 -14.3111 3.08979 0.000581657 10
-6.90799 -14.2899 3.66434 0.00056353 10
-6.91567 -14.3058 4.25762 0.000542921 10
-4.27246 -8.91732 -2.64948 0.000115433 4
-4.75556 -9.92561 -2.54095 0.00019833 4
-6.06708 -12.663 -2.72937 0.000113075 1
-6.85115 -14.2994 -2.51134 0.000772721 10
-6.85134 -14.2998 -1.94693 0.00078925 10
-6.84738 -14.2916 -1.38646 0.000529652 10
-6.85042 -14.2979 -0.830889 0.000535297 10
-6.85501 -14.3075 -0.276924 0.000538188 10
-6.84536 -14.2874 0.276533 0.000538289 10
-6.85345 -14.3043 0.831257 0.0005356 10
-6.8509 -14.2989 1.38717 0.000625814 10
-6.84401 -14.2846 1.94484 0.000616205 10
-6.84399 -14.2845 2.50872 0.000603534 10
-6.84054 -14.2773 3.07732 0.00058795 10
-6.84578 -14.2882 3.65778 0.000569641 10
-6.84102 -14.2783 4.24232 0.000548823 10
-4.24641 -8.94293 -2.65267 0.000258498 4
-4.72555 -9.95199 -2.54346 0.000195049 4
-6.02782 -12.6946 -2.73162 0.000113093 1
-6.78304 -14.285 -2.50464 0.000781002 10
-6.77798 -14.2744 -1.94023 0.000797695 10
-6.78741 -14.2943 -1.38441 0.000380012 10
