VERSION 0.7
FIELDS x y z intensity label
SIZE 4 4 4 4 4
TYPE F F F F F
COUNT 1 1 1 1 1
WIDTH 1205
HEIGHT 1
VIEWPOINT 12.7655 36.0443 2.72825 0.62338 -0.000757703 0.00059859 0.781919
POINTS 1205
DATA ascii
8.13692 10.1203 -2.52417 0.000116757 4
10.7155 13.3274 -2.70852 5.04406e-05 1
6.14231 7.69434 -2.63805 0.000297175 4
7.14364 8.94869 -2.64352 0.000187187 4
8.0899 10.134 -2.52055 0.000143277 4
10.6624 13.3565 -2.70686 5.04334e-05 1
12.8704 16.1224 -2.53299 6.05019e-05 4
6.10837 7.70684 -2.63501 0.000161385 4
7.11193 8.97302 -2.64336 0.000299915 4
8.05473 10.1625 -2.52063 0.000109657 4
10.6092 13.3855 -2.70521 5.04261e-05 1
12.919 16.2997 -2.55375 5.93304e-05 4
6.08852 7.73714 -2.63809 0.000233094 4
7.05962 8.97118 -2.63554 0.000326298 4
8.02605 10.1993 -2.52278 0.000102571 4
10.5728 13.4356 -2.70786 5.04188e-05 1
12.9545 16.4622 -2.57211 4.50431e-05 4
6.06086 7.75754 -2.63782 6.65933e-05 4
7.02231 8.98815 -2.63331 0.000297198 4
7.99725 10.236 -2.52494 0.000101676 4
10.5255 13.472 -2.70778 5.04115e-05 1
12.9964 16.6346 -2.59194 5.02287e-05 4
6.04261 7.79008 -2.64169 5.12218e-05 4
6.98019 8.99879 -2.62928 0.000270434 4
7.95985 10.2618 -2.52443 0.000120229 4
10.4727 13.5013 -2.70629 5.04041e-05 1
13.0329 16.8019 -2.6109 3.5893e-05 4
6.00198 7.79373 -2.63581 3.84134e-05 4
6.94622 9.01985 -2.62833 0.000275419 4
7.91425 10.2769 -2.52132 0.000106957 4
10.4212 13.5322 -2.70518 5.03968e-05 1
13.0677 16.9687 -2.62972 5.49058e-05 4
5.98254 7.82484 -2.63925 0.000230463 4
6.89315 9.01586 -2.62014 0.00026985 4
7.89074 10.3207 -2.5253 0.000123738 4
10.3908 13.5905 -2.70958 5.03894e-05 1
13.1027 17.1376 -2.64879 4.30114e-05 4
6.85762 9.03458 -2.6186 0.000285102 4
7.84717 10.3383 -2.52289 0.000124608 4
10.3348 13.6155 -2.70735 5.0382e-05 1
13.1466 17.3199 -2.66986 3.94158e-05 4
5.93274 7.87301 -2.64146 8.44904e-05 4
6.81265 9.04069 -2.61347 0.000296005 4
7.82 10.3775 -2.52578 0.000105154 4
10.2866 13.6508 -2.70721 5.03746e-05 1
13.1932 17.508 -2.69173 3.00605e-05 4
5.90223 7.88967 -2.64013 9.98447e-05 4
6.77971 9.06263 -2.61295 0.000253213 4
7.77375 10.3914 -2.52254 9.9841e-05 4
10.2392 13.6871 -2.7073 5.03672e-05 1
5.87998 7.9174 -2.64252 3.58389e-05 4
6.72649 9.05722 -2.60461 0.000212897 4
7.73982 10.4217 -2.52332 7.42098e-05 4
10.2017 13.7366 -2.71003 5.03597e-05 1
5.83957 7.9206 -2.63677 0.000125427 4
6.68981 9.07383 -2.60265 0.000191316 4
10.1528 13.7709 -2.7098 5.03523e-05 1
5.81992 7.95191 -2.64041 0.000197084 4
6.6575 9.09632 -2.60242 0.000271111 4
7.66633 10.4747 -2.52315 6.27109e-05 4
10.0955 13.7937 -2.70733 5.03448e-05 1
5.78251 7.95894 -2.63603 0.000133085 4
6.61582 9.10588 -2.59854 0.000293595 4
7.63225 10.5049 -2.52398 0.000118342 4
10.0487 13.8309 -2.70773 5.03373e-05 1
5.76815 7.99774 -2.64219 6.65376e-05 4
6.57784 9.1204 -2.59611 0.000255793 4
7.587 10.5196 -2.52115 0.000119212 4
9.99469 13.858 -2.70618 5.03298e-05 1
5.73091 8.00484 -2.63792 7.16503e-05 4
6.53123 9.12272 -2.59027 0.000206502 4
7.55161 10.548 -2.52161 8.91783e-05 4
9.94589 13.8923 -2.70608 5.03222e-05 1
5.70361 8.02576 -2.63823 8.44385e-05 4
6.4819 9.12092 -2.58331 0.000264325 4
7.52717 10.5918 -2.52577 0.000113005 4
9.9014 13.9326 -2.70719 5.03147e-05 1
5.68394 8.05749 -2.64212 0.000138161 4
6.45643 9.15257 -2.58588 0.000231198 4
7.49057 10.6186 -2.52591 9.53373e-05 4
9.85411 13.9691 -2.70758 5.03071e-05 1
5.64392 8.06035 -2.63659 0.000237926 4
6.40155 9.14236 -2.57666 0.000235442 4
7.44165 10.6278 -2.52191 0.000120041 4
9.81638 14.0193 -2.71065 5.02995e-05 1
5.62087 8.08738 -2.63899 0.000225117 4
6.37247 9.16877 -2.57782 0.000274353 4
7.41312 10.6661 -2.52485 0.000108554 4
9.75262 14.0322 -2.70655 5.02919e-05 1
5.5878 8.09998 -2.63672 3.06953e-05 4
6.3275 9.17223 -2.57257 0.000228252 4
7.37106 10.685 -2.52321 9.44221e-05 4
9.7038 14.0665 -2.70661 5.02843e-05 1
5.56242 8.12371 -2.63811 7.41745e-05 4
6.29482 9.19335 -2.57231 0.000241791 4
7.33269 10.7091 -2.52285 0.000125294 4
9.66109 14.1097 -2.70842 5.02766e-05 1
6.24113 9.18353 -2.56346 0.000168158 4
7.30188 10.7444 -2.52514 0.000114692 4
9.61482 14.1478 -2.70927 5.0269e-05 1
5.50562 8.16242 -2.63814 5.88188e-05 4
6.21314 9.21136 -2.56516 0.000281209 4
7.25805 10.7605 -2.52296 0.000113797 4
9.55696 14.1688 -2.70689 5.02613e-05 1
5.48095 8.18734 -2.63999 0.0001611 4
6.17187 9.21942 -2.56139 0.000249214 4
7.22078 10.7863 -2.52308 0.000106727 4
9.5079 14.2027 -2.70702 5.02536e-05 1
5.44926 8.2018 -2.6385 0.000145745 4
6.12731 9.22234 -2.55624 0.000228737 4
7.19461 10.8288 -2.52713 0.000119062 4
9.46908 14.2521 -2.71012 5.02459e-05 1
5.41943 8.219 -2.63793 0.000178971 4
6.0926 9.2399 -2.5552 0.000144513 4
7.15391 10.8495 -2.52612 9.87659e-05 4
9.41841 14.2838 -2.70987 5.02382e-05 1
5.40186 8.2549 -2.64339 0.000153392 4
6.04633 9.23976 -2.5493 0.000145093 4
7.11079 10.8664 -2.52427 8.28832e-05 4
9.3666 14.3137 -2.70932 5.02304e-05 1
5.36963 8.2685 -2.64173 0.000158492 4
6.00882 9.25276 -2.54709 0.000230122 4
7.0813 10.9042 -2.5273 0.000113731 4
9.31916 14.3502 -2.71007 5.02226e-05 1
5.33475 8.27792 -2.63877 0.000184041 4
5.97277 9.26793 -2.54551 0.000251228 4
7.03041 10.9091 -2.52271 0.000129585 4
9.27369 14.39 -2.71144 5.02148e-05 1
5.30879 8.30112 -2.64024 0.000161023 4
5.92562 9.26563 -2.53918 0.000241869 4
7.00018 10.9459 -2.52556 0.000128688 4
9.21939 14.416 -2.71026 5.02071e-05 1
5.27962 8.31935 -2.64016 0.000460028 4
5.88992 9.28102 -2.53775 0.000248351 4
6.95495 10.9592 -2.52303 9.87081e-05 4
9.1729 14.4542 -2.71141 5.01992e-05 1
5.24453 8.32817 -2.63713 0.000493212 4
5.85383 9.29572 -2.53616 0.000240777 4
6.92535 10.9973 -2.5262 0.000133064 4
9.12183 14.4852 -2.71124 5.01914e-05 1
5.22147 8.3561 -2.64019 0.00047273 4
5.81027 9.29837 -2.53134 0.00023842 4
6.88696 11.0214 -2.52621 8.01814e-05 4
9.07146 14.5174 -2.71131 5.01835e-05 1
5.18809 8.36753 -2.63807 0.000518684 4
5.77811 9.31914 -2.53149 0.0001766 4
6.85018 11.0482 -2.52685 0.000129509 4
9.00943 14.5307 -2.70792 5.01757e-05 1
5.1698 8.40338 -2.64366 0.000380678 4
5.74162 9.33286 -2.52976 0.000166387 4
6.8045 11.0605 -2.52423 0.000102185 4
8.97326 14.5858 -2.71233 5.01678e-05 1
5.1338 8.41052 -2.64026 0.000482834 4
5.70013 9.33832 -2.52583 0.000263352 4
6.77282 11.0957 -2.52683 0.000122431 4
8.91046 14.5977 -2.70874 5.01599e-05 1
5.10424 8.4281 -2.64016 0.000447032 4
5.6692 9.36096 -2.52658 0.000172175 4
6.73286 11.1173 -2.52638 0.000110087 4
8.86226 14.6333 -2.70959 5.0152e-05 1
5.07289 8.4427 -2.63918 0.000508298 4
5.63287 9.37467 -2.52496 0.000207603 4
6.68755 11.1299 -2.52394 0.000126805 4
8.81021 14.6626 -2.70931 5.0144e-05 1
5.0503 8.47195 -2.64279 0.000436743 4
5.60092 9.39563 -2.52532 0.00015189 4
6.65611 11.1657 -2.52677 0.000113583 4
8.75638 14.689 -2.70851 5.01361e-05 1
5.02465 8.49622 -2.64488 0.000480122 4
5.5793 9.43407 -2.53041 4.725e-05 4
6.60941 11.1759 -2.52384 0.000126775 4
8.71432 14.7351 -2.71139 5.01282e-05 1
4.98412 8.49523 -2.63913 0.000559245 4
5.53508 9.43431 -2.52527 0.000138362 4
6.56989 11.1981 -2.52366 0.000124119 4
8.66232 14.7646 -2.71123 5.01202e-05 1
4.96309 8.52744 -2.64374 0.000531112 4
5.50599 9.46024 -2.52705 0.00020246 4
6.53727 11.2322 -2.52617 0.000128505 4
8.60621 14.7869 -2.70981 5.01121e-05 1
4.93156 8.54172 -2.64282 0.000515749 4
5.4786 9.48921 -2.52967 0.000236181 4
6.48941 11.24 -2.52283 0.000122329 4
8.55292 14.8141 -2.7093 5.01041e-05 1
4.90206 8.55947 -2.643 0.000528471 4
5.44325 9.50444 -2.52865 0.000163624 4
6.45338 11.2682 -2.52409 0.000125834 4
8.51228 14.8633 -2.71284 5.00961e-05 1
7.18158 12.5397 1.26426 0.000988195 10
7.18508 12.5459 1.77518 0.000973299 10
7.18158 12.5397 2.28875 0.000953686 10
7.18681 12.5489 2.81096 0.000929585 10
4.87578 8.58292 -2.64497 0.000426316 4
5.41474 9.53168 -2.53085 0.000197341 4
6.41644 11.295 -2.52505 0.000124059 4
8.4558 14.8849 -2.71139 5.00881e-05 1
7.13454 12.5591 1.26369 0.00099254 10
7.13679 12.563 1.77407 0.000977583 10
7.13101 12.5528 2.28659 0.000957889 10
7.13965 12.5681 2.80966 0.000933689 10
7.13061 12.5521 3.33284 0.000905263 10
7.13784 12.5649 3.87207 0.000872938 10
4.83285 8.57692 -2.6379 0.000513068 4
5.37933 9.54677 -2.52986 0.000146726 4
6.38165 11.3256 -2.5269 0.000128442 4
8.40422 14.9151 -2.71153 5.008e-05 1
7.0911 12.5847 1.26377 0.000996847 10
7.08178 12.5681 1.77129 0.000981828 10
7.08587 12.5754 2.28617 0.000962055 10
7.08867 12.5804 2.80686 0.000937757 10
7.07854 12.5624 3.32898 0.000909215 10
7.0797 12.5644 3.8643 0.000876759 10
4.81586 8.61696 -2.64503 0.00047474 4
5.34087 9.55635 -2.52744 0.000209107 4
6.33959 11.3433 -2.52591 9.50006e-05 4
8.35192 14.944 -2.71146 5.00719e-05 1
7.03467 12.587 1.26154 0.00100112 10
7.03848 12.5939 1.77144 0.000986037 10
7.02836 12.5758 2.28177 0.000966185 10
7.02886 12.5766 2.80054 0.000941789 10
7.03239 12.583 3.32791 0.000913132 10
7.036 12.5894 3.86441 0.000880546 10
4.77336 8.61137 -2.63819 0.00051043 4
5.55039 10.0132 -2.64312 0.000208037 4
6.3042 11.3731 -2.52762 7.21212e-05 4
8.29769 14.9694 -2.71081 5.00638e-05 1
6.98005 12.5923 1.25962 0.00100535 10
6.98368 12.5989 1.76871 0.000990209 10
6.98136 12.5947 2.28077 0.000970278 10
6.98239 12.5966 2.79953 0.000945786 10
6.98646 12.6039 3.32698 0.000917015 10
6.98499 12.6012 3.86053 0.0008843 10
4.75086 8.64179 -2.64241 0.000441485 4
5.50854 10.02 -2.63982 0.000378886 4
6.25657 11.3806 -2.52443 0.000104651 4
8.2549 15.0156 -2.71393 5.00558e-05 1
6.93538 12.6154 1.25949 0.00100954 10
6.92414 12.5949 1.76475 0.000994342 10
6.93724 12.6188 2.28073 0.000974335 10
6.92529 12.5971 2.79425 0.000949745 10
6.93553 12.6157 3.32367 0.000920863 10
6.92937 12.6045 3.85408 0.000888019 10
4.71367 8.64549 -2.63849 0.000520552 4
5.47364 10.0394 -2.63988 0.000228795 4
6.21508 11.3993 -2.52373 0.000122224 4
8.19737 15.035 -2.71226 5.00476e-05 1
6.87623 12.6119 1.25674 0.00101369 10
6.87417 12.6081 1.76322 0.000998438 10
6.88397 12.6261 2.27769 0.000978352 10
6.87646 12.6123 2.79229 0.000953669 10
6.88227 12.623 3.31925 0.000924675 10
6.88211 12.6227 3.85228 0.000891704 10
4.686 8.66657 -2.63992 0.000520508 4
5.44384 10.0682 -2.64244 0.000207974 4
6.18456 11.4381 -2.52753 9.31956e-05 4
6.8315 12.6346 -2.27491 0.00125911 10
6.82935 12.6306 -1.76303 0.00128513 10
6.82799 12.6281 -1.25597 0.00130493 10
6.83272 12.6369 -0.75288 0.00131829 10
6.82683 12.626 -0.25054 0.00132506 10
6.82406 12.6208 0.250438 0.00132515 10
6.83482 12.6407 0.75311 0.00131855 10
6.83457 12.6403 1.25718 0.00101781 10
6.82658 12.6255 1.76231 0.00100249 10
6.83597 12.6428 2.2764 0.000982331 10
6.83237 12.6362 2.79228 0.000957555 10
6.82393 12.6206 3.31234 0.000928451 10
6.82978 12.6314 3.84765 0.000895353 10
4.65507 8.68167 -2.63955 5.10259e-05 4
5.40137 10.0735 -2.63888 0.000170819 4
6.14282 11.4563 -2.5268 9.67006e-05 4
6.7731 12.6318 -2.27014 0.00126416 10
6.78376 12.6517 -1.76265 0.00129028 10
6.77902 12.6428 -1.25508 0.00131016 10
6.77736 12.6397 -0.751637 0.00132357 10
6.77977 12.6442 -0.250431 0.00133036 10
6.77226 12.6302 0.250153 0.00133044 10
6.77234 12.6304 0.75108 0.00132383 10
6.78499 12.654 1.25618 0.00102188 10
6.78432 12.6527 1.7628 0.00100651 10
6.77742 12.6398 2.27158 0.000986273 10
6.77155 12.6289 2.78543 0.000961403 10
6.78049 12.6456 3.31266 0.000932189 10
6.77462 12.6346 3.84139 0.000898968 10
4.6312 8.71002 -2.64324 0.000155616 4
5.37474 10.1084 -2.64309 0.000248034 4
6.10031 11.473 -2.52577 5.36183e-05 4
6.72801 12.6535 -2.26981 0.00126916 10
6.73045 12.6581 -1.76027 0.00129537 10
6.72646 12.6506 -1.25351 0.00131533 10
6.73519 12.667 -0.751858 0.00132879 10
6.72957 12.6565 -0.250207 0.0013356 10
6.72272 12.6436 0.249952 0.00133569 10
6.7323 12.6616 0.751536 0.00132905 10
6.72504 12.648 1.25325 0.00102591 10
6.72414 12.6463 1.75862 0.00101049 10
6.73044 12.6581 2.27063 0.000990175 10
6.72791 12.6534 2.78563 0.000965213 10
6.7307 12.6586 3.3099 0.000935891 10
6.73042 12.6581 3.84136 0.000902546 10
4.60446 8.73313 -2.64536 5.86699e-05 4
5.33522 10.1192 -2.64101 0.000363845 4
6.06567 11.5046 -2.52805 5.0975e-05 4
6.68514 12.6795 -2.27027 0.00127412 10
6.67596 12.6621 -1.75756 0.00130042 10
6.67582 12.6618 -1.25231 0.00132045 10
6.67715 12.6643 -0.75031 0.00133396 10
6.68192 12.6734 -0.250079 0.0013408 10
6.6777 12.6654 0.249921 0.00134088 10
6.68332 12.676 0.751003 0.00133422 10
6.68018 12.6701 1.25312 0.00102991 10
6.68407 12.6775 1.7597 0.00101442 10
6.67893 12.6677 2.26816 0.000994037 10
6.67208 12.6547 2.78079 0.000968984 10
6.67233 12.6552 3.3029 0.000939556 10
6.67324 12.6569 3.83392 0.000906089 10
4.56853 8.73879 -2.64223 0.000104577 4
5.29539 10.1291 -2.63878 0.000118795 4
6.02691 11.5284 -2.52865 6.23928e-05 4
6.6338 12.6893 -2.26786 0.00127901 10
6.62751 12.6772 -1.75645 0.00130541 10
6.62899 12.6801 -1.25182 0.00132551 10
6.62798 12.6781 -0.749753 0.00133907 10
6.62208 12.6669 -0.249493 0.00134593 10
6.62207 12.6668 0.249492 0.00134602 10
6.6227 12.6681 0.749156 0.00133933 10
6.62997 12.682 1.252 0.00103386 10
6.62265 12.668 1.75516 0.00101832 10
6.62223 12.6672 2.26391 0.000997859 10
6.62068 12.6642 2.77777 0.000972717 10
6.63103 12.684 3.30435 0.000943182 10
6.63012 12.6823 3.83456 0.000909594 10
4.53504 8.74898 -2.64051 0.00039973 4
5.25897 10.1456 -2.63826 7.72087e-05 4
5.98699 11.5501 -2.5288 0.000108075 4
6.57997 12.694 -2.26459 0.00128386 10
6.57844 12.6911 -1.75517 0.00131036 10
6.57647 12.6873 -1.25025 0.00133052 10
6.58306 12.7 -0.749682 0.00134413 10
6.57595 12.6863 -0.249421 0.00135102 10
6.57173 12.6782 0.249261 0.00135111 10
6.57928 12.6927 0.749251 0.00134439 10
6.57178 12.6782 1.24936 0.00103777 10
6.57739 12.6891 1.75489 0.00102217 10
6.57683 12.688 2.26351 0.00100164 10
6.57013 12.6751 2.77511 0.000976409 10
6.5782 12.6906 3.30008 0.00094677 10
6.5804 12.6949 3.8314 0.000913063 10
4.51728 8.78968 -2.64802 0.00042009 4
5.22578 10.1683 -2.6394 0.000307319 4
5.93782 11.5538 -2.52505 0.000130026 4
6.52278 12.6919 -2.26014 0.00128866 10
6.52272 12.6918 -1.75212 0.00131524 10
6.52519 12.6966 -1.24892 0.00133548 10
6.53316 12.7122 -0.749049 0.00134914 10
6.52424 12.6948 -0.249139 0.00135605 10
6.52678 12.6997 0.249236 0.00135614 10
6.53147 12.7089 0.748854 0.0013494 10
6.53157 12.7091 1.25014 0.00104163 10
6.52864 12.7034 1.75371 0.00102598 10
6.52563 12.6975 2.26113 0.00100538 10
6.52536 12.697 2.7749 0.000980063 10
6.52362 12.6936 3.29491 0.000950319 10
6.52816 12.7024 3.82678 0.000916495 10
4.49035 8.81281 -2.65024 0.000440147 4
5.19693 10.1995 -2.6428 0.000121727 4
5.902 11.5833 -2.52699 0.000111562 4
6.47533 12.7085 -2.25906 0.0012934 10
6.47208 12.7022 -1.75041 0.00132008 10
6.48403 12.7256 -1.24954 0.00134038 10
6.47044 12.6989 -0.746934 0.00135408 10
6.47602 12.7099 -0.248991 0.00136102 10
6.48254 12.7227 0.249241 0.00136111 10
6.47831 12.7144 0.747843 0.00135435 10
6.47607 12.71 1.248 0.00104546 10
6.48313 12.7238 1.7534 0.00102975 10
6.47086 12.6998 2.2575 0.00100908 10
6.4716 12.7012 2.77088 0.000983674 10
6.46993 12.6979 3.29016 0.000953829 10
6.47471 12.7073 3.82143 0.000919887 10
4.47863 8.86617 -2.66158 0.000370801 4
5.15145 10.1981 -2.63776 0.000238977 4
5.86625 11.6132 -2.52903 9.66168e-05 4
6.43276 12.7347 -2.2597 0.00129809 10
6.42409 12.7175 -1.74943 0.00132486 10
6.4248 12.7189 -1.24667 0.00134523 10
6.433 12.7352 -0.74774 0.00135898 10
6.42342 12.7162 -0.248673 0.00136594 10
6.4303 12.7298 0.248939 0.00136603 10
6.42149 12.7124 0.746402 0.00135925 10
6.42542 12.7202 1.24679 0.00104924 10
6.42335 12.7161 1.74923 0.00103348 10
6.42734 12.724 2.2578 0.00101274 10
6.4209 12.7112 2.76815 0.000987247 10
6.43263 12.7344 3.29377 0.0009573 10
6.43137 12.7319 3.82206 0.000923243 10
4.45593 8.89828 -2.66653 0.000408045 4
5.12231 10.229 -2.64111 0.00031613 4
5.82676 11.6358 -2.5295 0.000115047 4
6.38053 12.7416 -2.25696 0.00130273 10
6.37106 12.7227 -1.74707 0.00132958 10
6.37228 12.7251 -1.24509 0.00135002 10
6.37173 12.724 -0.745776 0.00136382 10
6.37243 12.7254 -0.248417 0.0013708 10
6.37359 12.7278 0.248463 0.00137089 10
6.3806 12.7417 0.746814 0.00136408 10
6.3812 12.7429 1.24684 0.00105297 10
6.37842 12.7374 1.74909 0.00103717 10
6.37992 12.7404 2.25675 0.00101635 10
6.37869 12.7379 2.7691 0.000990777 10
6.37697 12.7345 3.28802 0.00096073 10
6.37624 12.7331 3.81569 0.000926559 10
4.43294 8.9301 -2.67141 0.00038526 4
5.08286 10.2394 -2.63918 0.000290869 4
5.77625 11.6362 -2.52519 0.00012118 4
6.32499 12.7416 -2.25304 0.00130731 10
6.3231 12.7378 -1.74611 0.00133425 10
6.32727 12.7462 -1.24499 0.00135476 10
6.32671 12.7451 -0.74571 0.0013686 10
6.32132 12.7342 -0.248156 0.0013756 10
6.32356 12.7387 0.248244 0.00137569 10
6.32757 12.7468 0.745812 0.00136887 10
6.3225 12.7366 1.24405 0.00105667 10
6.33035 12.7524 1.7481 0.00104081 10
6.32697 12.7456 2.25374 0.00101993 10
6.32307 12.7377 2.76424 0.000994266 10
6.32765 12.747 3.28551 0.000964121 10
6.32745 12.7466 3.81309 0.000929837 10
4.39985 8.94167 -2.67026 0.00031218 4
5.05183 10.2667 -2.64165 0.00016471 4
5.74388 11.6731 -2.52884 0.000129945 4
6.28149 12.7657 -2.2534 0.00131183 10
6.27886 12.7603 -1.74617 0.00133886 10
6.36044 12.9261 -1.26038 0.000309606 10
6.3485 12.9019 -0.753582 0.000313129 10
6.34966 12.9042 -0.251035 0.000315088 10
6.34468 12.8941 0.250839 0.000315461 10
6.35202 12.909 0.754 0.000314241 10
6.28263 12.768 1.24496 0.00106032 10
6.27387 12.7502 1.74479 0.00104441 10
6.27698 12.7565 2.25178 0.00102346 10
6.27135 12.7451 2.76107 0.000997714 10
6.28009 12.7628 3.28393 0.00096747 10
6.27061 12.7435 3.80562 0.000933075 10
4.38797 8.99668 -2.6821 0.000332291 4
5.02044 10.2934 -2.64401 0.0001914 4
5.70217 11.6912 -2.52843 0.00012115 4
6.22792 12.7691 -2.25016 0.0013163 10
6.22513 12.7634 -1.74361 0.00134342 10
7.09962 14.5564 -1.41692 0.000137803 10
7.09505 14.547 -0.848222 0.000139428 10
7.09813 14.5533 -0.282634 0.000140334 10
7.10023 14.5576 0.282717 0.000140508 10
7.09648 14.5499 0.848393 0.000139949 10
6.23283 12.7792 1.24393 0.00106392 10
6.22259 12.7582 1.7429 0.00104796 10
6.23094 12.7753 2.25125 0.00102695 10
6.2256 12.7644 2.76052 0.00100112 10
6.2217 12.7564 3.27666 0.000970778 10
6.23287 12.7793 3.80977 0.000936274 10
4.36395 9.02726 -2.68666 0.000346574 4
4.97398 10.2892 -2.63845 5.63757e-05 4
5.66152 11.7114 -2.52852 0.000104456 4
6.1786 12.7811 -2.24845 0.00132072 10
6.18441 12.7931 -1.74471 0.00134792 10
6.18359 12.7914 1.243 0.00106748 10
6.17808 12.78 1.74292 0.00105147 10
6.18293 12.79 2.25002 0.00103039 10
6.18013 12.7842 2.76013 0.00100448 10
6.17762 12.779 3.27692 0.000974045 10
6.17533 12.7743 3.80183 0.000939432 10
4.33993 9.05813 -2.69132 0.000407461 4
4.94392 10.3188 -2.64159 0.000179493 4
5.62407 11.7383 -2.53007 0.000121119 4
6.12416 12.7821 -2.24486 0.00132507 10
6.12891 12.792 -1.74163 0.00135236 10
6.12442 12.7826 -1.24007 0.000906986 10
6.12273 12.7791 -0.742627 0.000916241 10
6.1241 12.782 -0.247397 0.000920926 10
6.12389 12.7815 0.247388 0.000920986 10
6.13155 12.7975 0.743697 0.000916419 10
6.13394 12.8025 1.242 0.00107099 10
6.12843 12.791 1.7415 0.00105493 10
6.12503 12.7839 2.24518 0.00103379 10
6.13214 12.7988 2.75864 0.0010078 10
6.13435 12.8034 3.27765 0.00097727 10
6.12359 12.7809 3.79742 0.000942549 10
4.30659 9.06965 -2.69026 0.000336272 4
4.90429 10.3284 -2.63966 0.000195791 4
5.57546 11.7419 -2.52663 8.95115e-05 4
6.07996 12.8044 -2.24503 0.00132937 10
6.08474 12.8144 -1.74178 0.00135674 10
6.07386 12.7915 -1.23887 0.000909923 10
6.07598 12.796 -0.742371 0.000919206 10
6.08113 12.8068 -0.247465 0.000923905 10
6.08056 12.8056 0.247442 0.000923965 10
6.08061 12.8057 0.742935 0.000919385 10
6.08202 12.8087 1.24053 0.00107446 10
6.07529 12.7945 1.73908 0.00105835 10
6.07295 12.7896 2.24244 0.00103714 10
6.08196 12.8086 2.75616 0.00101107 10
6.07761 12.7994 3.27119 0.000980453 10
6.0736 12.791 3.79408 0.000945627 10
4.28456 9.10514 -2.69633 0.000336662 4
4.86504 10.3387 -2.63795 0.000206152 4
5.53325 11.7588 -2.52609 9.21325e-05 4
6.02524 12.8043 -2.24131 0.00133362 10
6.03066 12.8158 -1.7391 0.00136106 10
6.08428 12.9298 -1.25019 0.000194335 10
6.07946 12.9195 -0.748301 0.00019656 10
6.07902 12.9186 -0.249213 0.000197806 10
6.06976 12.8989 0.248833 0.000198057 10
6.06994 12.8993 0.747129 0.000197312 10
6.02332 12.8002 1.23766 0.00107788 10
6.02362 12.8008 1.73707 0.00106172 10
6.02319 12.7999 2.24055 0.00104045 10
6.03013 12.8147 2.75293 0.00101431 10
6.02758 12.8092 3.2683 0.000983593 10
6.02403 12.8017 3.79101 0.000948662 10
4.26407 9.14433 -2.70351 0.000396371 4
4.83074 10.3596 -2.63894 0.000200199 4
5.49975 11.7942 -2.52957 9.47529e-05 4
5.97549 12.8145 -2.23943 0.0013378 10
5.97918 12.8224 -1.73715 0.00136533 10
5.98268 12.8299 1.23851 0.00108125 10
5.98244 12.8294 1.7381 0.00106505 10
5.97744 12.8187 2.24016 0.00104371 10
5.9849 12.8347 2.75272 0.00101749 10
5.98474 12.8343 3.26935 0.00098669 10
5.97446 12.8123 3.78794 0.000951657 10
4.23964 9.17542 -2.70831 0.000316011 4
5.45928 11.815 -2.52991 9.47409e-05 4
5.93098 12.8358 -2.23953 0.00134193 10
5.9268 12.8268 -1.73493 0.00136953 10
7.8264 16.9379 -1.63242 5.01832e-05 10
5.93021 12.8341 1.23691 0.00108458 10
5.92499 12.8229 1.7344 0.00106833 10
5.92608 12.8252 2.23768 0.00104693 10
5.93614 12.847 2.75089 0.00102064 10
5.93539 12.8454 3.26686 0.000989744 10
5.92549 12.8239 3.78525 0.00095461 10
4.21026 9.196 -2.71003 0.00031388 4
4.75826 10.3929 -2.63892 3.79452e-05 4
5.41354 11.8242 -2.52783 0.00012192 4
5.88391 12.8516 -2.23868 0.00134599 10
5.88338 12.8504 -1.73534 0.00137368 10
7.76755 16.9658 -1.63249 5.01676e-05 10
5.8867 12.8577 1.23719 0.00108786 10
5.88381 12.8513 1.73546 0.00107156 10
5.88388 12.8515 2.23867 0.0010501 10
5.88469 12.8533 2.74783 0.00102373 10
5.8823 12.8481 3.26231 0.000992754 10
5.88674 12.8578 3.78914 0.00095752 10
4.18515 9.22611 -2.71458 0.000245726 4
4.71777 10.4003 -2.63658 2.95615e-05 4
5.36822 11.8342 -2.52594 0.00010261 4
5.83746 12.8686 -2.23809 0.00135 10
5.83333 12.8595 -1.7338 0.00137776 10
5.83419 12.8614 -1.23558 0.000924007 10
5.83058 12.8534 -0.739686 0.000933424 10
5.8332 12.8592 -0.246473 0.00093819 10
5.83818 12.8702 0.246683 0.000938251 10
5.82739 12.8464 0.739281 0.000933605 10
5.82797 12.8477 1.23427 0.00109109 10
5.82668 12.8448 1.73183 0.00107475 10
5.83491 12.863 2.2371 0.00105323 10
5.83112 12.8546 2.74375 0.00102679 10
5.83633 12.8661 3.2617 0.00099572 10
5.8272 12.846 3.77966 0.000960388 10
4.16013 9.2567 -2.7193 0.000280844 4
5.32868 11.8568 -2.52679 0.000117504 4
5.78629 12.8751 -2.23568 0.00135395 10
5.78283 12.8674 -1.73214 0.00138179 10
5.79219 12.8882 -1.23621 0.000184098 10
5.80051 12.9067 -0.741582 0.000186221 10
5.79659 12.898 -0.246826 0.000187419 10
5.79057 12.8846 0.24657 0.000187678 10
5.79187 12.8875 0.740477 0.000186994 10
5.77782 12.8562 1.23314 0.00109427 10
5.78552 12.8733 1.73294 0.00107789 10
5.77922 12.8593 2.23295 0.00105631 10
5.78313 12.868 2.74228 0.00102979 10
5.78079 12.8628 3.25573 0.000998641 10
5.78043 12.862 3.77842 0.000963213 10
4.12463 9.26406 -2.71721 0.000386947 1
4.63597 10.4126 -2.63143 3.19009e-05 4
5.28367 11.8673 -2.52508 9.81998e-05 4
5.73994 12.8921 -2.23515 0.00135784 10
5.73377 12.8782 -1.73089 0.00138575 10
7.74828 17.4029 -1.66665 0.000518648 10
7.74409 17.3935 -0.997821 0.00052444 10
7.74753 17.4012 -0.332485 0.000527375 10
7.75223 17.4118 0.332686 0.000527412 10
7.74547 17.3966 0.997999 0.000524551 10
5.73714 12.8858 1.23405 0.00109741 10
5.73178 12.8738 1.73029 0.00108098 10
5.73287 12.8762 2.23239 0.00105934 10
5.73362 12.8779 2.74011 0.00103275 10
5.73272 12.8759 3.25395 0.00100152 10
5.73093 12.8719 3.77541 0.000965994 10
4.0938 9.28189 -2.71823 0.000386913 1
5.63621 12.779 -2.71485 0.000115583 1
5.68925 12.8992 -2.23293 0.00136166 10
5.68246 12.8839 -1.72897 0.00138965 10
7.68937 17.4341 -1.66705 0.000520245 10
7.68406 17.4221 -0.997916 0.000526055 10
7.68086 17.4148 -0.33223 0.000528997 10
7.68254 17.4186 0.332302 0.000529034 10
7.68597 17.4264 0.998164 0.000526166 10
5.68181 12.8824 1.23182 0.00110049 10
5.68503 12.8897 1.72975 0.00108402 10
5.68884 12.8983 2.23277 0.00106233 10
5.68102 12.8806 2.73644 0.00103567 10
5.68504 12.8897 3.25241 0.00100435 10
5.69139 12.9041 3.77902 0.000968732 10
4.06151 9.29643 -2.71832 0.000386879 1
5.59191 12.7994 -2.71502 0.000115568 1
5.63835 12.9057 -2.23062 0.00136543 10
5.63559 12.8994 -1.7284 0.00139348 10
7.61883 17.4388 -1.66495 0.000521819 10
7.62101 17.4438 -0.99763 0.000527644 10
7.62013 17.4418 -0.332235 0.000530594 10
7.61458 17.4291 0.331993 0.000530632 10
7.61847 17.438 0.997297 0.000527755 10
5.64296 12.9162 1.23316 0.00110352 10
5.63287 12.8931 1.72757 0.00108701 10
5.63967 12.9087 2.23114 0.00106526 10
5.63403 12.8958 2.73548 0.00103854 10
5.63909 12.9074 3.25188 0.00100714 10
5.64026 12.91 3.77496 0.000971427 10
4.03533 9.32508 -2.72257 0.000386845 1
5.55035 12.8261 -2.71657 0.000115553 1
5.58838 12.914 -2.22867 0.00136913 10
5.59327 12.9253 -1.72925 0.00139726 10
5.58414 12.9042 -1.23014 0.000937068 10
5.58526 12.9068 -0.737032 0.000946609 10
5.5865 12.9096 -0.245532 0.000951438 10
5.58552 12.9074 0.245489 0.000951499 10
5.5945 12.9281 0.738252 0.000946791 10
5.44615 12.5853 1.19974 0.00120106 10
5.43822 12.567 1.68131 0.00118322 10
5.43798 12.5664 2.16869 0.00115971 10
5.44696 12.5872 2.66596 0.00113083 10
5.44652 12.5862 3.16614 0.00109689 10
5.44366 12.5795 3.67275 0.00105828 10
3.99539 9.32194 -2.71756 0.000386811 1
5.50832 12.8519 -2.71794 0.000115538 1
5.54239 12.9314 -2.22832 0.00137277 10
5.53499 12.9141 -1.72516 0.00140097 10
5.53779 12.9206 -1.22986 0.000939555 10
5.53469 12.9134 -0.736304 0.000949118 10
5.54531 12.9382 -0.245706 0.00095396 10
5.53658 12.9178 0.245319 0.000954021 10
5.54483 12.937 0.737652 0.000949301 10
5.39951 12.598 1.19915 0.00120423 10
5.39678 12.5916 1.68208 0.00118633 10
5.39027 12.5764 2.16716 0.00116278 10
5.39366 12.5843 2.66136 0.00113382 10
5.39204 12.5806 3.15999 0.0010998 10
5.39637 12.5907 3.67047 0.00106109 10
3.96132 9.33228 -2.71653 0.000386776 1
5.45738 12.8568 -2.71493 0.000115523 1
5.48906 12.9314 -2.22501 0.00137635 10
5.48819 12.9294 -1.72462 0.00140462 10
7.42039 17.4813 -1.6615 0.000526383 10
7.41608 17.4712 -0.9947 0.000532256 10
7.42482 17.4918 -0.331688 0.00053523 10
7.4194 17.479 0.331445 0.000535268 10
7.41844 17.4767 0.995016 0.000532368 10
5.35368 12.6125 1.19874 0.00120733 10
5.36246 12.6332 1.68512 0.000211115 10
5.35935 12.6258 2.17243 0.000207231 10
5.35785 12.6223 2.66541 0.000202374 10
5.35952 12.6262 3.16674 0.000196601 10
5.34823 12.5996 3.66762 0.000189978 10
3.93818 9.36856 -2.72307 0.000386742 1
5.41453 12.8807 -2.71597 0.000115507 1
5.43775 12.9359 -2.22251 0.00137986 10
5.44869 12.9619 -1.72642 0.0014082 10
7.46445 17.7572 -1.68523 8.77767e-05 10
7.45302 17.73 -1.00795 8.89085e-05 10
7.45941 17.7452 -0.335998 8.9556e-05 10
7.45137 17.7261 0.335636 8.97107e-05 10
7.44616 17.7137 1.00702 8.93707e-05 10
5.29818 12.6039 1.19616 0.00121039 10
5.42458 12.9046 1.71878 0.000194674 10
5.42176 12.8979 2.21597 0.000191079 10
5.41352 12.8783 2.71546 0.000186584 10
5.41975 12.8931 3.2289 0.000181238 10
5.41017 12.8703 3.74089 0.000175106 10
3.90092 9.37136 -2.71991 0.000386708 1
5.37417 12.9106 -2.71831 0.000115492 1
5.39067 12.9502 -2.22172 0.00138332 10
5.39562 12.9621 -1.72393 0.00141172 10
8.3656 20.097 -1.90451 5.49433e-05 10
5.25326 12.6201 1.19596 0.00121339 10
5.42176 13.0249 1.73228 0.000118929 10
5.41785 13.0155 2.23293 0.000116732 10
5.414 13.0063 2.73845 0.000113984 10
5.41188 13.0012 3.25122 0.000110716 10
5.39751 12.9667 3.7634 0.000628314 10
3.87332 9.39736 -2.72352 0.000386674 1
5.33269 12.9381 -2.72015 0.000115477 1
5.34803 12.9753 -2.2228 0.0013867 10
5.34409 12.9657 -1.72192 0.00141517 10
5.34247 12.9618 -1.22656 0.000949067 10
5.34634 12.9712 -0.73527 0.000958722 10
5.34301 12.9631 -0.244738 0.000963609 10
5.34982 12.9796 0.24505 0.00096367 10
5.3456 12.9694 0.735168 0.000958906 10
5.21146 12.6439 1.19648 0.00121633 10
5.37137 13.0319 1.73071 0.00069408 10
5.37584 13.0428 2.23436 0.00068019 10
5.3678 13.0232 2.73806 0.000663119 10
5.37437 13.0392 3.25601 0.000643065 10
5.34152 12.9595 3.75588 0.000629862 10
3.83692 9.40209 -2.72099 0.000386639 1
5.27682 12.9304 -2.71466 0.000115462 1
5.29868 12.984 -2.22112 0.00139003 10
5.29645 12.9786 -1.72115 0.00141856 10
5.29561 12.9765 -1.22619 0.000951337 10
5.29512 12.9753 -0.73445 0.000961013 10
5.29564 12.9766 -0.244642 0.000965911 10
5.29419 12.973 0.244575 0.000965973 10
5.29712 12.9802 0.734729 0.000961197 10
5.15494 12.6318 1.19362 0.00121922 10
5.29769 12.9816 3.75691 0.00063138 10
3.80788 9.42482 -2.7237 0.000386605 1
5.23794 12.9643 -2.71792 0.000115447 1
5.25215 12.9995 -2.22062 0.00139329 10
5.24975 12.9936 -1.72071 0.00142188 10
5.28456 13.0797 -1.2342 0.000149809 10
5.28295 13.0757 -0.739089 0.000151586 10
5.28389 13.0781 -0.246206 0.000152611 10
5.27474 13.0554 0.24578 0.000152871 10
5.28228 13.0741 0.738995 0.000152365 10
5.11099 12.6501 1.19366 0.00122205 10
5.25193 12.999 3.75661 0.000632869 10
3.77033 9.4265 -2.72037 0.00038657 1
5.19575 12.9903 -2.71955 0.000115431 1
5.20317 13.0089 -2.2191 0.00139648 10
5.20655 13.0173 -1.72143 0.00142513 10
8.67339 21.685 -2.04332 0.000246298 10
8.6756 21.6905 -1.22431 0.000249259 10
8.67284 21.6837 -0.407642 0.00025076 10
8.67307 21.6842 0.407652 0.000250779 10
5.06568 12.6651 1.1934 0.00122482 10
5.1999 13.0007 3.75183 0.000634329 10
3.74208 9.45141 -2.72377 0.000386536 1
5.14961 13.0064 -2.71914 0.000115416 1
5.15084 13.0095 -2.21613 0.00139961 10
5.15856 13.029 -1.72059 0.00142832 10
8.58983 21.6954 -2.04146 0.000246949 10
8.59587 21.7107 -1.22374 0.000249917 10
8.59863 21.7177 -0.407714 0.000251421 10
8.59171 21.7002 0.407385 0.00025144 10
5.02219 12.6846 1.19357 0.00122754 10
5.15579 13.022 3.75278 0.000635759 10
3.70534 9.45491 -2.72103 0.000386501 1
5.10053 13.015 -2.7172 0.000115401 1
5.10866 13.0358 -2.21755 0.00140267 10
5.1006 13.0152 -1.7164 0.00143145 10
8.51156 21.7189 -2.04087 0.000247586 10
8.51348 21.7238 -1.2228 0.000250561 10
8.51371 21.7244 -0.407281 0.000252069 10
8.51484 21.7273 0.407335 0.000252088 10
4.96707 12.6745 1.19098 0.0012302 10
5.10303 13.0214 3.74744 0.000637158 10
3.67623 9.47788 -2.72394 0.000386466 1
5.05113 13.0226 -2.71508 0.000115385 1
5.05852 13.0416 -2.21553 0.00140567 10
5.05713 13.0381 -1.71708 0.0014345 10
5.06086 13.0477 -1.22438 0.000962018 10
5.0575 13.039 -0.732948 0.000971795 10
5.05371 13.0292 -0.243935 0.000976744 10
5.05906 13.043 0.244193 0.000976807 10
5.05242 13.0259 0.732212 0.000971981 10
4.91996 12.6844 1.1903 0.00123281 10
5.05891 13.0426 3.74845 0.000638528 10
3.6415 9.48643 -2.72272 0.000386432 1
5.00949 13.0502 -2.71717 0.00137315 10
5.00978 13.0509 -2.21412 0.0014086 10
5.01243 13.0578 -1.71737 0.00143749 10
5.01035 13.0524 -1.22318 0.000964019 10
5.00705 13.0438 -0.732231 0.000973816 10
5.00502 13.0385 -0.24378 0.000978775 10
5.00911 13.0492 0.243979 0.000978836 10
5.00573 13.0404 0.732038 0.000974002 10
4.87306 12.6948 1.18966 0.00123535 10
5.00722 13.0443 3.74386 0.000639867 10
3.60813 9.49848 -2.72255 0.000386397 1
4.95649 13.0481 -2.71311 0.00137595 10
4.95774 13.0513 -2.21125 0.00141147 10
4.95894 13.0545 -1.71464 0.00144041 10
9.7959 25.7879 -1.44571 0.00012765 10
9.80006 25.7988 -0.481716 0.000128472 10
9.79611 25.7884 0.481522 0.000128483 10
4.83483 12.7278 1.19117 0.00123784 10
4.96354 13.0666 3.74528 0.000641176 10
3.56936 9.49613 -2.71829 0.000386363 1
4.9102 13.0634 -2.71271 0.00137868 10
4.91614 13.0792 -2.21304 0.00141426 10
4.91179 13.0676 -1.7141 0.00144326 10
9.7048 25.8192 -1.44556 0.000127969 10
9.70601 25.8224 -0.481521 0.000128793 10
9.7016 25.8106 0.481301 0.000128803 10
4.78644 12.7341 1.19019 0.00124027 10
4.91624 13.0794 3.74402 0.000642454 10
3.53647 9.50928 -2.7185 0.000386328 1
4.86169 13.0727 -2.71111 0.00138135 10
4.86707 13.0872 -2.21151 0.00141699 10
4.86169 13.0727 -1.71253 0.00144604 10
9.61279 25.848 -2.41273 0.000126652 10
9.61182 25.8454 -1.44514 0.00012828 10
9.61224 25.8465 -0.481342 0.000129106 10
9.61114 25.8436 0.481286 0.000129117 10
4.73513 12.7324 1.18848 0.00124264 10
4.86801 13.0897 3.74207 0.000643702 10
3.50286 9.52049 -2.7182 0.000386293 1
4.81471 13.086 -2.71037 0.00138394 10
4.81471 13.086 -2.20845 0.00141966 10
4.81817 13.0954 -1.71329 0.00144875 10
4.81435 13.085 -1.21982 0.000971566 10
4.82069 13.1022 -0.731661 0.000981434 10
4.82043 13.1015 -0.243676 0.000986428 10
4.81701 13.0922 0.243503 0.000986491 10
4.8147 13.086 0.730753 0.000981621 10
4.69365 12.757 1.18924 0.00124495 10
4.81603 13.0896 3.73721 0.000644918 10
3.4753 9.5483 -2.72266 0.000386258 1
4.76873 13.102 -2.71021 0.00138648 10
4.7675 13.0986 -2.20776 0.00142225 10
4.77401 13.1165 -1.71386 0.0014514 10
4.76883 13.1023 -1.21987 0.000973337 10
4.76913 13.1031 -0.730775 0.000983222 10
4.76709 13.0975 -0.243289 0.000988225 10
4.76921 13.1033 0.243398 0.000988287 10
4.77312 13.114 0.731385 0.000983409 10
4.63989 12.748 1.18688 0.00124721 10
4.76688 13.0969 3.73452 0.000646104 10
3.43719 9.54715 -2.71889 0.000386223 1
4.72096 13.113 -2.70906 0.00138894 10
4.72265 13.1177 -2.20818 0.00142478 10
4.72125 13.1138 -1.71134 0.00145397 10
4.7697 13.2483 -1.23191 0.000114617 10
4.77095 13.2518 -0.738136 0.000116039 10
4.76693 13.2407 -0.245638 0.000116886 10
4.76404 13.2326 0.245489 0.000117148 10
4.76323 13.2304 0.736942 0.000116823 10
4.60267 12.7844 1.18877 0.0012494 10
4.72305 13.1188 3.73603 0.000647258 10
3.41066 9.57824 -2.72434 0.000386188 1
4.6742 13.1267 -2.7085 0.00139134 10
4.67498 13.1289 -2.20731 0.00142723 10
4.67214 13.1209 -1.71013 0.00145647 10
9.29541 26.1045 -2.42432 0.000124326 10
4.54662 12.7684 1.1858 0.00125154 10
4.6754 13.13 3.73458 0.000648381 10
3.37057 9.57125 -2.71899 0.000386153 1
3.7453 10.6354 -2.60317 2.91399e-05 4
4.62146 13.1233 -2.70447 0.00139368 10
4.62369 13.1297 -2.20471 0.00142962 10
4.62284 13.1273 -1.70885 0.00145891 10
9.19679 26.1157 -2.42236 0.00012459 10
10.9754 31.1663 -1.73168 5.78214e-05 10
10.9736 31.1613 -0.576664 5.82249e-05 10
10.9772 31.1715 0.576853 5.823e-05 10
4.50192 12.7839 1.18577 0.00125361 10
4.62575 13.1355 3.73152 0.000649472 10
3.3394 9.58946 -2.72083 0.000386118 1
3.7097 10.6528 -2.60425 3.36035e-05 4
4.58001 13.152 -2.70707 0.00139594 10
4.58044 13.1532 -2.20597 0.00143194 10
4.58179 13.1571 -1.71064 0.00146127 10
9.10222 26.138 -2.42147 0.000124845 10
9.10459 26.1448 -1.4509 8.35257e-05 10
9.10025 26.1324 -0.483009 8.40642e-05 10
9.10603 26.149 0.483315 8.4071e-05 10
4.45398 12.7901 1.18489 0.00125563 10
4.59919 13.2071 1.71714 0.000716719 10
4.60455 13.2225 2.21758 0.000702406 10
4.58253 13.1592 3.73369 0.000174753 10
3.30748 9.60561 -2.72212 0.000386083 1
3.67566 10.6749 -2.6065 3.57174e-05 4
4.53377 13.167 -2.70688 0.00139814 10
4.53447 13.169 -2.20595 0.00143419 10
4.52931 13.1541 -1.70818 0.00146356 10
4.53085 13.1585 -1.21756 0.00098149 10
4.5286 13.152 -0.728983 0.000991452 10
4.52995 13.1559 -0.242869 0.000996494 10
4.52732 13.1483 0.242729 0.000996556 10
4.52692 13.1471 0.728714 0.00099164 10
4.41226 12.8141 1.18569 0.00125758 10
4.55583 13.2311 1.71818 0.000717845 10
4.54979 13.2135 2.21341 0.000703511 10
4.54988 13.2138 2.7165 0.000685893 10
4.55105 13.2172 3.22726 0.000665196 10
4.53228 13.1627 3.73015 0.000174771 10
3.27433 9.61826 -2.72245 0.000386048 1
3.63872 10.6887 -2.60674 4.06186e-05 4
4.48755 13.1821 -2.70674 0.00140027 10
4.48261 13.1676 -2.20307 0.00143637 10
4.47997 13.1598 -1.70689 0.00146579 10
4.47962 13.1588 -1.21613 0.000982978 10
4.47863 13.1559 -0.728327 0.000992954 10
4.47873 13.1562 -0.242584 0.000998003 10
4.4792 13.1576 0.242609 0.000998066 10
4.4795 13.1584 0.728468 0.000993143 10
4.36616 12.8255 1.18532 0.00125947 10
4.48458 13.1734 3.72872 0.000174788 10
3.23672 9.61773 -2.71908 0.000386013 1
3.60009 10.6975 -2.60581 3.97255e-05 4
4.4386 13.189 -2.70498 0.00140233 10
4.43262 13.1713 -2.20109 0.00143848 10
4.43361 13.1742 -1.70673 0.00146794 10
8.81704 26.1993 -2.41846 0.000125567 10
10.5253 31.2752 -1.72939 5.83116e-05 10
4.32135 12.8406 1.18532 0.00126131 10
4.44512 13.2084 3.73423 0.000174805 10
3.20594 9.63741 -2.72147 0.000385978 1
4.38469 13.1809 -2.70014 0.00140432 10
4.39032 13.1978 -2.20295 0.00144052 10
4.38642 13.1861 -1.70628 0.00147002 10
8.72923 26.241 -2.41948 0.000125792 10
10.4121 31.2999 -1.72874 5.84246e-05 10
11.9535 35.9336 -0.661018 3.02591e-05 10
11.9507 35.9251 0.66086 3.02618e-05 10
4.27274 12.8443 1.18428 0.00126308 10
4.3975 13.2194 3.73296 0.000174822 10
3.17295 9.65059 -2.72205 0.000385942 1
3.51826 10.7008 -2.60059 4.44711e-05 4
4.34019 13.2008 -2.7011 0.00140624 10
4.34437 13.2135 -2.20302 0.00144249 10
4.34428 13.2132 -1.70782 0.00147202 10
8.63426 26.2613 -2.41856 0.000126009 10
8.62757 26.2409 -1.44765 8.43037e-05 10
8.63331 26.2583 -0.482479 8.48469e-05 10
8.63505 26.2637 0.482576 8.48537e-05 10
4.22898 12.8625 1.18459 0.00126479 10
4.34906 13.2277 3.73102 0.00017484 10
3.1357 9.65069 -2.71897 0.000385907 1
3.47812 10.7045 -2.59852 4.1901e-05 4
4.29294 13.2123 -2.70038 0.0014081 10
4.2903 13.2042 -2.19896 0.00144439 10
4.29001 13.2033 -1.70459 0.00147396 10
8.53905 26.2805 -2.41757 0.000126219 10
10.1895 31.3599 -1.72808 5.86392e-05 10
11.6935 35.9889 -0.660517 3.03778e-05 10
11.6955 35.995 0.660627 3.03806e-05 10
4.18333 12.875 1.18438 0.00126644 10
4.30053 13.2357 3.72899 0.000174857 10
3.10157 9.66026 -2.7186 0.000385872 1
3.44072 10.7166 -2.59852 5.83685e-05 4
4.24755 13.2296 -2.70086 0.00140989 10
4.24563 13.2236 -2.19971 0.00144622 10
4.24262 13.2142 -1.70408 0.00147582 10
8.44357 26.2986 -2.41651 0.000126421 10
10.0772 31.3869 -1.72762 5.87406e-05 10
10.0714 31.3688 -0.575073 3.90701e-05 10
10.0749 31.3797 0.575274 3.90734e-05 10
4.13399 12.8759 1.18313 0.00126803 10
4.25197 13.2433 3.72696 0.000174875 10
3.07444 9.69186 -2.72446 0.000385836 1
3.40084 10.7208 -2.59664 3.87524e-05 4
4.19448 13.2227 -2.69645 0.0014116 10
4.20085 13.2428 -2.20045 0.00144798 10
4.19736 13.2317 -1.70444 0.00147761 10
8.35048 26.324 -2.41615 0.000126615 10
8.3495 26.3209 -1.44716 8.47087e-05 10
8.35209 26.3291 -0.482145 8.52542e-05 10
8.35038 26.3237 0.482046 8.5261e-05 10
4.08848 12.8885 1.18297 0.00126955 10
4.20663 13.261 3.72776 0.000174892 10
3.03338 9.67951 -2.71799 0.000385801 1
3.3692 10.7511 -2.60112 5.29199e-05 4
4.15127 13.2467 -2.69837 0.00141325 10
4.14691 13.2328 -2.19638 0.00144966 10
4.15365 13.2543 -1.70547 0.00147933 10
8.24986 26.3253 -2.41361 0.000126802 10
9.85035 31.4325 -1.7263 5.89317e-05 10
4.04265 12.9001 1.18273 0.00127102 10
4.16392 13.2871 3.73099 0.000174909 10
3.00592 9.71054 -2.72374 0.000385766 1
3.33174 10.7631 -2.60119 5.40545e-05 4
4.10513 13.2615 -2.69846 0.00141482 10
4.10647 13.2659 -2.19947 0.00145128 10
4.09952 13.2434 -1.70221 0.00148098 10
8.15932 26.3585 -2.41403 0.00012698 10
9.74161 31.47 -1.72649 5.90214e-05 10
3.99548 12.9073 1.18211 0.00127242 10
4.11304 13.2871 3.72694 0.000174927 10
2.96753 9.70633 -2.71964 0.00038573 1
3.28822 10.7553 -2.59651 5.32213e-05 4
4.058 13.2731 -2.69791 0.00141633 10
4.05799 13.2731 -2.1983 0.00145282 10
4.05426 13.2609 -1.70263 0.00148255 10
8.06423 26.3769 -2.41312 0.000127151 10
8.06908 26.3927 -1.44638 8.50665e-05 10
8.06151 26.368 -0.481285 8.56142e-05 10
8.06306 26.373 0.481377 8.5621e-05 10
3.94626 12.9076 1.18087 0.00127376 10
4.07306 13.3224 3.73282 0.000174944 10
2.93909 9.73475 -2.72471 0.000385694 1
3.25239 10.7724 -2.59789 6.03171e-05 4
4.01153 13.2868 -2.69784 0.00141777 10
4.01053 13.2835 -2.1977 0.00145429 10
4.00538 13.2665 -1.70154 0.00148405 10
7.96892 26.3943 -2.41216 0.000127314 10
9.50894 31.4951 -1.72418 5.91888e-05 10
9.51635 31.5197 -0.574707 3.9368e-05 10
9.51362 31.5106 0.574541 3.93714e-05 10
3.90383 12.9301 1.18167 0.00127504 10
4.0224 13.3228 3.729 0.000174962 10
2.90007 9.72808 -2.71999 0.000385659 1
3.21646 10.7894 -2.59926 6.93159e-05 4
3.96234 13.2914 -2.69594 0.00141913 10
3.96073 13.286 -2.19581 0.00145569 10
3.96227 13.2912 -1.70292 0.00148547 10
7.87572 26.4186 -2.41184 0.000127468 10
9.40472 31.5475 -1.72524 5.92666e-05 10
3.8589 12.9444 1.18174 0.00127625 10
3.9744 13.3318 3.72761 0.000174979 10
2.86546 9.736 -2.7194 0.000385623 1
3.17479 10.787 -2.596 6.83893e-05 4
3.91108 13.2887 -2.69261 0.00142043 10
3.91388 13.2982 -2.19556 0.00145702 10
3.91291 13.2949 -1.70165 0.00148683 10
7.78129 26.4386 -2.41118 0.000127615 10
7.78727 26.4589 0.481429 8.59332e-05 10
3.81212 12.9525 1.18125 0.0012774 10
3.92783 13.3456 3.72761 0.000174997 10
2.83495 9.75795 -2.72274 0.000385588 1
3.14032 10.8091 -2.59865 6.39357e-05 4
3.86615 13.3074 -2.69365 0.00142165 10
3.86635 13.3081 -2.19494 0.00145827 10
3.86515 13.3039 -1.70106 0.0014881 10
7.69197 26.4759 -2.41212 0.000127754 10
9.17487 31.5801 -1.72348 5.94102e-05 10
3.76186 12.9484 1.17968 0.00127849 10
3.88186 13.3614 3.72822 0.000175014 10
2.80095 9.76807 -2.72282 0.000385552 1
3.0955 10.7953 -2.59273 7.3571e-05 4
3.82115 13.3259 -2.69469 0.00142281 10
3.82046 13.3235 -2.19528 0.00145945 10
3.81839 13.3163 -1.70093 0.00148931 10
7.59303 26.48 -2.41007 0.000127885 10
7.59657 26.4924 -1.44436 8.55572e-05 10
7.59545 26.4885 -0.480991 8.61077e-05 10
7.59372 26.4825 0.480882 8.61146e-05 10
3.71963 12.9719 1.18063 0.00127952 10
3.83438 13.3721 3.72743 0.000175032 10
2.76597 9.77472 -2.72197 0.000385516 1
3.06177 10.8201 -2.59609 7.15116e-05 4
3.77035 13.3241 -2.69164 0.00142389 10
3.76975 13.322 -2.19285 0.00146056 10
3.77266 13.3323 -1.70128 0.00149044 10
7.50107 26.5082 -2.41023 0.000128008 10
8.95165 31.6345 -1.72299 5.95377e-05 10
3.67392 12.9834 1.1805 0.00128048 10
3.7874 13.3844 3.72715 0.000175049 10
2.72955 9.77613 -2.71969 0.000385481 1
3.02175 10.8227 -2.59417 8.71714e-05 4
3.72748 13.3503 -2.69429 0.0014249 10
3.72732 13.3497 -2.19526 0.0014616 10
3.7258 13.3443 -1.70114 0.0014915 10
7.40783 26.5318 -2.41001 0.000128123 10
8.83828 31.6551 -1.72242 5.95954e-05 10
3.63121 13.0055 1.18135 0.00128138 10
3.74455 13.4115 1.7097 0.000731561 10
3.74028 13.3962 2.2029 0.000716971 10
3.74562 13.4153 2.7074 0.000699038 10
3.74433 13.4107 3.21451 0.00067797 10
3.73913 13.3921 3.72563 0.000654006 10
2.69466 9.78289 -2.71894 0.000385445 1
2.98584 10.84 -2.59582 7.45167e-05 4
3.67998 13.3601 -2.69365 0.00142585 10
3.6794 13.358 -2.19449 0.00146256 10
3.67881 13.3558 -1.70096 0.00149248 10
7.31729 26.5652 -2.41071 0.000128229 10
8.72908 31.6907 -1.72269 5.96491e-05 10
8.72869 31.6893 -0.573739 3.9674e-05 10
8.73066 31.6965 0.573868 3.96774e-05 10
3.58504 13.0154 1.18111 0.00128222 10
3.57854 12.9918 1.6546 0.00126325 10
3.58339 13.0094 2.13722 0.00123826 10
3.58319 13.0087 2.6228 0.00120755 10
3.57814 12.9904 3.11075 0.00117146 10
3.58241 13.0058 3.61469 0.0011304 10
2.66302 9.80153 -2.72152 0.000385409 1
2.94604 10.8432 -2.5941 8.00949e-05 4
3.63151 13.3661 -2.6923 0.00142672 10
3.63196 13.3678 -2.19401 0.00146346 10
3.63091 13.364 -1.70037 0.00149339 10
7.21782 26.5659 -2.40848 0.000128328 10
8.61636 31.7134 -1.72228 5.96987e-05 10
3.53555 13.013 1.17976 0.00128299 10
3.53968 13.0282 1.65765 0.00126401 10
3.53674 13.0174 2.13649 0.00123901 10
3.53274 13.0026 2.61908 0.00120828 10
3.53213 13.0004 3.11018 0.00117217 10
3.53913 13.0261 3.61688 0.00113109 10
2.62903 9.81166 -2.72177 0.000385373 1
2.91109 10.8643 -2.59671 0.000103045 4
3.58371 13.3746 -2.69146 0.00142751 10
3.58212 13.3687 -2.19208 0.00146427 10
3.58359 13.3741 -1.70007 0.00149422 10
7.12542 26.5924 -2.40861 0.000128419 10
8.50603 31.7449 -1.72237 5.97442e-05 10
3.49376 13.0389 1.181 0.00128371 10
3.49138 13.03 1.65632 0.00126471 10
3.48793 13.0171 2.13444 0.0012397 10
3.48898 13.021 2.62032 0.00120895 10
3.49257 13.0345 3.1154 0.00117282 10
3.48606 13.0101 3.60903 0.00113172 10
2.59196 9.81015 -2.71882 0.000385338 1
2.87194 10.8698 -2.59561 8.02781e-05 4
3.53758 13.3892 -2.6919 0.00142824 10
3.53485 13.3789 -2.19172 0.00146502 10
3.53432 13.3769 -1.69883 0.00149498 10
7.03375 26.6217 -2.40902 0.000128501 10
8.39527 31.7748 -1.72239 5.97857e-05 10
3.5328 13.3711 1.20996 0.00118381 10
3.53609 13.3836 1.69968 0.00116617 10
3.5397 13.3972 2.19473 0.00114295 10
3.53294 13.3716 2.68837 0.0011144 10
3.53541 13.381 3.19525 0.00108086 10
3.53927 13.3956 3.71251 0.00104271 10
2.565 9.84719 -2.72659 0.000385302 1
2.83049 10.8664 -2.59242 9.24127e-05 4
3.49023 13.3992 -2.69145 0.0014289 10
3.4878 13.3899 -2.19152 0.00146569 10
3.48854 13.3927 -1.69929 0.00149566 10
6.93568 26.6265 -2.40725 0.000128576 10
8.27753 31.7779 -1.72098 5.98232e-05 10
3.48716 13.3874 1.21033 0.00118435 10
3.48696 13.3866 1.69852 0.0011667 10
3.49145 13.4039 2.1938 0.00114347 10
3.48867 13.3932 2.69025 0.00111491 10
3.48907 13.3947 3.19561 0.00108136 10
3.49013 13.3988 3.71 0.00104319 10
2.52672 9.84092 -2.7224 0.000385266 1
2.79063 10.8688 -2.59064 0.000107979 4
3.44275 13.4086 -2.69091 0.00142948 10
3.44419 13.4142 -2.19352 0.00146629 10
3.44166 13.4044 -1.69923 0.00149627 10
6.84187 26.6473 -2.40696 0.000128642 10
8.17182 31.8271 -1.72209 5.98565e-05 10
3.43821 13.3909 1.20956 0.00118483 10
3.44432 13.4147 1.70055 0.00116718 10
3.44267 13.4083 2.19255 0.00114394 10
3.43805 13.3903 2.68724 0.00111537 10
3.44318 13.4103 3.19643 0.0010818 10
3.44363 13.4121 3.71031 0.00104362 10
2.49154 9.84647 -2.72151 0.00038523 1
2.75186 10.8752 -2.58988 9.02323e-05 4
3.39163 13.4036 -2.68751 0.00142999 10
3.39396 13.4128 -2.19133 0.00146681 10
3.39717 13.4255 -1.7004 0.00149681 10
6.75374 26.6905 -2.40872 0.0001287 10
8.05524 31.834 -1.72093 5.98857e-05 10
3.39225 13.406 1.20984 0.00118525 10
3.39223 13.406 1.69793 0.0011676 10
3.39665 13.4235 2.19307 0.00114435 10
3.39724 13.4258 2.69195 0.00111577 10
3.39141 13.4027 3.19179 0.00108219 10
3.39235 13.4064 3.70547 0.001044 10
2.45945 9.86429 -2.72405 0.000385194 1
2.71699 10.8972 -2.59284 0.000110864 4
3.34915 13.4327 -2.69099 0.00143043 10
3.35078 13.4392 -2.19373 0.00146726 10
3.35033 13.4374 -1.70042 0.00149727 10
6.66166 26.7185 -2.40912 0.00012875 10
7.94493 31.8654 -1.72112 5.99109e-05 10
3.34755 13.4263 1.21061 0.00118562 10
3.34601 13.4201 1.69823 0.00116796 10
3.34771 13.4269 2.19172 0.0011447 10
3.34544 13.4178 2.68801 0.00111611 10
3.34697 13.424 3.19404 0.00108253 10
3.35041 13.4377 3.71086 0.00104432 10
2.42565 9.87545 -2.72477 0.000385158 1
2.67618 10.8955 -2.59018 9.11506e-05 4
3.29909 13.4315 -2.68841 0.0014308 10
3.30395 13.4513 -2.1938 0.00146764 10
3.30209 13.4437 -1.69974 0.00149765 10
6.56599 26.7319 -2.40825 0.000128792 10
7.83548 31.9003 -1.72152 5.9932e-05 10
3.29708 13.4233 1.20929 0.00118592 10
3.30072 13.4381 1.69904 0.00116826 10
3.3012 13.4401 2.19197 0.00114499 10
3.29891 13.4307 2.68827 0.0011164 10
3.29913 13.4316 3.19311 0.00108281 10
3.29729 13.4241 3.7039 0.00104459 10
2.38986 9.8785 -2.72329 0.000385122 1
2.63791 10.9038 -2.58996 9.745e-05 4
3.25414 13.451 -2.69004 0.0014311 10
3.25256 13.4445 -2.19082 0.00146795 10
3.2503 13.4351 -1.69722 0.00149796 10
6.47152 26.75 -2.40784 0.000128826 10
7.72161 31.9173 -1.72097 5.99489e-05 10
3.25016 13.4346 1.20928 0.00118617 10
3.25485 13.4539 1.69959 0.0011685 10
3.25665 13.4614 2.19358 0.00114523 10
3.25007 13.4342 2.68667 0.00111663 10
3.25158 13.4404 3.19248 0.00108303 10
3.25106 13.4383 3.70464 0.00104481 10
