VERSION 0.7
FIELDS x y z intensity label
SIZE 4 4 4 4 4
TYPE F F F F F
COUNT 1 1 1 1 1
WIDTH 1203
HEIGHT 1
VIEWPOINT 12.7646 43.0448 2.72859 0.623291 -0.000687978 0.000404952 0.781989
POINTS 1203
DATA ascii
27.8341 8.72268 0.509145 3.98023e-05 10
27.8318 8.72194 1.52855 3.95566e-05 10
27.8496 8.72752 3.58347 3.28241e-05 10
27.8397 8.72443 4.62082 3.19842e-05 10
27.834 8.72264 5.66983 3.0956e-05 10
27.8235 8.71934 6.73159 2.97552e-05 10
9.37016 2.97239 -2.63402 0.000105538 4
10.8701 3.44819 -2.6328 0.000114104 4
12.6747 4.02065 -2.5847 0.000192786 6
12.6061 3.9989 -2.09467 0.0016585 6
27.8614 8.83815 -2.55726 3.88846e-05 10
27.8791 8.84377 -1.53283 3.94062e-05 10
27.8677 8.84015 -0.51032 3.9675e-05 10
27.8809 8.84432 0.510561 3.9687e-05 10
27.8537 8.83572 1.53144 3.94418e-05 10
27.8638 8.83891 3.58925 3.27279e-05 10
27.8702 8.84094 4.63098 3.18898e-05 10
27.8634 8.83879 5.68207 3.08638e-05 10
27.8469 8.83355 6.74467 2.96654e-05 10
9.35818 3.00458 -2.63359 9.52408e-05 4
10.8542 3.4849 -2.63188 5.40486e-05 4
12.639 4.05792 -2.10246 0.00160656 6
27.8865 8.95336 -2.56242 3.87662e-05 10
27.8908 8.95474 -1.53518 3.92867e-05 10
27.8924 8.95527 -0.511342 3.9555e-05 10
27.8925 8.95529 0.511343 3.95669e-05 10
27.8793 8.95106 1.53455 3.93223e-05 10
27.875 8.94969 3.5947 3.26278e-05 10
27.8915 8.95497 4.63968 3.17915e-05 10
27.8945 8.95594 5.69475 3.07677e-05 10
27.8936 8.95564 6.76351 2.95721e-05 10
9.36211 3.04193 -2.63767 0.000293441 4
10.8498 3.5253 -2.63377 6.4557e-05 4
12.6286 4.10328 -2.10311 0.00159272 6
27.9208 9.072 -2.56846 3.86433e-05 10
27.924 9.07307 -1.53875 3.91626e-05 10
27.934 9.07629 -0.512682 3.94303e-05 10
27.9125 9.06932 0.512288 3.94422e-05 10
27.9194 9.07157 1.53849 3.91981e-05 10
27.9295 9.07483 3.60579 3.25239e-05 10
27.9277 9.07427 4.65095 3.16895e-05 10
27.9113 9.06891 5.7046 3.06681e-05 10
27.9082 9.06791 6.77468 2.94752e-05 10
9.34712 3.07318 -2.63645 0.000249679 4
10.8371 3.56306 -2.6337 7.05612e-05 4
12.8632 4.22921 -2.63203 3.66378e-05 4
12.6474 4.15826 -2.10865 0.00157888 6
13.0947 4.30533 -1.6925 0.000881182 6
27.9398 9.18614 -2.57315 3.85158e-05 10
27.9521 9.19017 -1.54205 3.90339e-05 10
27.9475 9.18868 -0.513517 3.93009e-05 10
27.957 9.19178 0.513689 3.93128e-05 10
27.9476 9.18872 1.54181 3.90693e-05 10
27.9441 9.18755 3.61179 3.24161e-05 10
27.9284 9.18239 4.65638 3.15837e-05 10
27.9317 9.18346 5.71529 3.05648e-05 10
27.9399 9.18617 6.79013 2.93749e-05 10
10.8114 3.59646 -2.63048 7.35626e-05 4
12.8427 4.27219 -2.63086 3.196e-05 4
12.6571 4.21047 -2.1127 0.00141161 6
13.0622 4.34521 -1.69025 0.000839229 6
27.9715 9.30487 -2.57904 3.83837e-05 10
27.9713 9.3048 -1.54489 3.89005e-05 10
27.9789 9.30733 -0.514686 3.9167e-05 10
27.9812 9.30812 0.514729 3.91789e-05 10
27.9736 9.30558 1.54502 3.8936e-05 10
27.9581 9.30041 3.61777 3.23045e-05 10
27.9667 9.30328 4.66814 3.14742e-05 10
27.9566 9.29993 5.72701 3.04579e-05 10
27.9558 9.29966 6.80184 2.92711e-05 10
9.32866 3.13944 -2.63736 0.000151862 4
12.6697 4.26382 -2.11727 0.00140522 6
13.0591 4.39488 -1.69182 0.000649757 6
28.0021 9.42376 -2.58488 3.82472e-05 10
28.0042 9.42445 -1.54852 3.87627e-05 10
27.9953 9.42145 -0.51559 3.90284e-05 10
27.9873 9.41877 0.515442 3.90403e-05 10
28.0008 9.42331 1.54833 3.87981e-05 10
28.0007 9.42328 3.62753 3.21891e-05 10
27.9869 9.41864 4.67698 3.13611e-05 10
27.9942 9.42107 5.74139 3.03475e-05 10
27.9859 9.41829 6.81712 2.91639e-05 10
9.31295 3.17039 -2.63603 0.000102956 4
10.8107 3.68027 -2.63651 7.65625e-05 4
12.684 4.31799 -2.12217 0.00138064 6
13.0506 4.4428 -1.69272 0.00105507 6
28.025 9.54049 -2.59005 3.81063e-05 10
28.038 9.54491 -1.55222 3.86204e-05 10
28.0218 9.5394 -0.516688 3.88854e-05 10
28.0384 9.54505 0.516994 3.88972e-05 10
28.0353 9.544 1.55207 3.86558e-05 10
28.0291 9.54188 3.63549 3.20701e-05 10
28.0255 9.54065 4.68896 3.12443e-05 10
28.0269 9.54112 5.7549 3.02336e-05 10
28.0152 9.53714 6.83232 2.90533e-05 10
9.29202 3.1995 -2.63325 5.66249e-05 4
10.7849 3.71353 -2.63336 0.000151621 4
12.6947 4.37114 -2.1265 0.00136824 6
13.0452 4.49183 -1.69405 0.00104728 6
28.0712 9.66569 -2.59742 3.79611e-05 10
28.0529 9.65937 -1.5549 3.84737e-05 10
28.066 9.66388 -0.518121 3.8738e-05 10
28.0533 9.65951 0.517887 3.87498e-05 10
28.0423 9.65575 1.55432 3.8509e-05 10
28.0379 9.6542 3.64098 3.19474e-05 10
28.0433 9.65606 4.69755 3.1124e-05 10
28.035 9.65321 5.76344 3.01162e-05 10
28.0317 9.65208 6.84453 2.89395e-05 10
9.29309 3.23619 -2.63674 3.86073e-05 4
10.7777 3.75318 -2.63478 3.75293e-05 4
12.7285 4.43251 -2.13473 0.00136769 6
13.0596 4.54784 -1.69797 0.000419871 6
28.0823 9.77929 -2.60159 3.78115e-05 10
28.0857 9.78046 -1.5586 3.83226e-05 10
28.0712 9.77543 -0.518845 3.85861e-05 10
28.0948 9.78363 0.51928 3.85979e-05 10
28.0716 9.77555 1.55782 3.83578e-05 10
28.0638 9.77286 3.64876 3.1821e-05 10
28.0674 9.77411 4.70728 3.10001e-05 10
28.0854 9.78037 5.7808 2.99954e-05 10
28.0746 9.77661 6.8633 2.88222e-05 10
9.26584 3.26301 -2.63222 7.72134e-05 4
10.7638 3.79055 -2.63462 0.000121593 4
12.7251 4.48122 -2.13678 0.00134933 6
13.0616 4.59971 -1.7003 0.000168995 6
28.1247 9.90428 -2.60871 3.76576e-05 10
28.1034 9.89678 -1.5615 3.81671e-05 10
28.1214 9.90309 -0.520408 3.84298e-05 10
28.0983 9.89496 0.51998 3.84417e-05 10
28.1133 9.90026 1.56205 3.82023e-05 10
28.1107 9.89935 3.65933 3.1691e-05 10
28.105 9.89734 4.71935 3.08727e-05 10
28.0919 9.89272 5.78921 2.98712e-05 10
28.0936 9.89332 6.87635 2.87018e-05 10
9.27379 3.30225 -2.63774 0.000120966 4
12.7395 4.53633 -2.14184 0.00132528 6
13.0702 4.65409 -1.70352 0.000168063 6
28.1488 10.0233 -2.61417 3.74995e-05 10
28.1478 10.023 -1.56589 3.80074e-05 10
28.1366 10.019 -0.521334 3.82693e-05 10
28.1362 10.0188 0.521326 3.82811e-05 10
28.1259 10.0152 1.56468 3.80426e-05 10
28.1205 10.0133 3.66513 3.15576e-05 10
28.1381 10.0195 4.73075 3.07419e-05 10
28.1344 10.0182 5.80513 2.97436e-05 10
9.24477 3.32832 -2.63278 4.63266e-05 4
10.7205 3.85961 -2.63054 4.05294e-05 4
12.7367 4.58551 -2.63133 8.33948e-05 4
12.7589 4.59349 -2.14779 0.00109415 6
13.0647 4.70358 -1.70494 0.000167127 6
28.1594 10.138 -2.61843 3.73373e-05 10
28.169 10.1414 -1.56903 3.78436e-05 10
28.1714 10.1423 -0.522631 3.81046e-05 10
28.1676 10.141 0.522561 3.81163e-05 10
28.1724 10.1427 1.56922 3.78786e-05 10
28.157 10.1371 3.67447 3.14205e-05 10
28.1618 10.1389 4.74066 3.06077e-05 10
28.1673 10.1408 5.81919 2.96128e-05 10
9.23325 3.36063 -2.63282 3.34575e-05 4
10.7219 3.90244 -2.6342 7.6554e-05 4
12.7106 4.62627 -2.62925 3.50717e-05 4
12.7783 4.65092 -2.15377 0.00127216 6
13.0483 4.74918 -1.70495 0.000145728 6
28.1924 10.2612 -2.62481 3.7171e-05 10
28.2063 10.2663 -1.5731 3.76755e-05 10
28.2042 10.2655 -0.523901 3.79356e-05 10
28.2041 10.2654 0.523898 3.79474e-05 10
28.1909 10.2606 1.57224 3.77104e-05 10
28.1843 10.2582 3.68269 3.12801e-05 10
28.1923 10.2611 4.75179 3.047e-05 10
28.1734 10.2543 5.82781 2.94787e-05 10
9.23786 3.39887 -2.6375 0.000110665 4
10.7018 3.93748 -2.63262 6.15422e-05 4
12.6913 4.6695 -2.62862 5.68928e-05 4
12.7807 4.70238 -2.15693 0.00124885 6
13.055 4.80332 -1.70801 0.000144738 6
28.2401 10.3903 -2.63261 3.97234e-05 10
28.2189 10.3825 -1.57581 4.02634e-05 10
28.2121 10.38 -0.524718 4.05419e-05 10
28.2195 10.3828 0.524856 4.05547e-05 10
28.2206 10.3832 1.57591 4.03015e-05 10
28.2217 10.3836 6.94252 3.53236e-05 10
9.23175 3.43326 -2.63916 0.000211033 4
12.6942 4.72093 -2.63261 5.61121e-05 4
12.7993 4.76001 -2.16286 0.00120339 6
13.074 4.86217 -1.7127 0.000143747 6
28.2646 10.5115 -2.6383 3.9471e-05 10
28.2652 10.5117 -1.58044 4.00082e-05 10
28.2476 10.5052 -0.526057 4.02853e-05 10
28.2708 10.5138 0.526489 4.02981e-05 10
28.2485 10.5055 1.5795 4.00462e-05 10
28.2387 10.5019 6.95566 3.50947e-05 10
9.20249 3.45899 -2.63423 0.000154412 4
10.6807 4.0146 -2.63426 0.000114074 4
12.6737 4.76373 -2.6318 7.40349e-05 4
12.8035 4.81253 -2.1664 0.00119185 6
13.084 4.91794 -1.71625 0.000142754 6
28.286 10.632 -2.64375 3.92151e-05 10
28.3116 10.6416 -1.5851 3.97494e-05 10
28.2887 10.633 -0.527511 4.00251e-05 10
28.2804 10.6299 0.527356 4.00378e-05 10
28.2971 10.6362 1.58429 3.97873e-05 10
28.288 10.6328 6.97691 3.48626e-05 10
9.19803 3.494 -2.63643 0.000146689 4
10.6567 4.0481 -2.63182 7.95497e-05 4
12.6446 4.80324 -2.62922 7.63709e-05 4
12.8183 4.86922 -2.17176 0.000131757 6
13.0676 4.96391 -1.71636 0.000141761 6
28.3415 10.7659 -2.65243 3.89556e-05 10
28.346 10.7676 -1.58912 3.9487e-05 10
28.3237 10.7592 -0.528861 3.97612e-05 10
28.3411 10.7658 0.529185 3.97739e-05 10
28.3333 10.7628 1.58841 3.95247e-05 10
28.327 10.7604 6.99574 3.46274e-05 10
9.19334 3.52899 -2.6386 0.000131245 4
10.6605 4.09217 -2.63626 9.6058e-05 4
12.8278 4.92413 -2.17627 0.000135909 6
13.0972 5.02755 -1.72255 0.000140766 6
28.3674 10.8892 -2.6584 3.86926e-05 10
28.3773 10.893 -1.593 3.92211e-05 10
28.3703 10.8903 -0.530437 3.94938e-05 10
28.3622 10.8872 0.530284 3.95064e-05 10
28.3609 10.8867 1.59208 3.92587e-05 10
28.3579 10.8856 7.01273 3.4389e-05 10
9.18405 3.56226 -2.63949 6.17614e-05 4
10.6263 4.12169 -2.63137 4.8028e-05 4
12.6234 4.8963 -2.63186 5.68855e-05 4
12.8416 4.98094 -2.18156 0.000134573 6
13.0943 5.07893 -1.72448 0.000139771 6
28.3934 11.0131 -2.66442 3.84263e-05 10
28.4179 11.0226 -1.59743 3.89518e-05 10
28.3993 11.0154 -0.531695 3.92229e-05 10
28.3899 11.0117 0.531517 3.92354e-05 10
28.4079 11.0187 1.59686 3.89892e-05 10
28.3984 11.015 7.0322 3.41478e-05 10
9.16683 3.59244 -2.63813 9.77872e-05 4
10.6194 4.16171 -2.63323 5.85328e-05 4
12.5841 4.93167 -2.62724 4.83124e-05 4
12.8566 5.03846 -2.18708 0.000138569 6
13.0891 5.12957 -1.72615 0.000138774 6
28.4293 11.1413 -2.67142 3.81566e-05 10
28.4324 11.1425 -1.60042 3.8679e-05 10
28.4294 11.1414 -0.532983 3.89486e-05 10
28.4393 11.1452 0.533169 3.89611e-05 10
28.4245 11.1395 1.59998 3.87163e-05 10
28.4371 11.1444 7.05137 3.39035e-05 10
9.15241 3.62369 -2.6376 0.000174984 4
10.6042 4.19849 -2.63307 0.000223621 4
12.5776 4.97983 -2.62949 5.5324e-05 4
12.8666 5.09426 -2.19179 0.000163567 6
13.0951 5.18472 -1.72931 0.000146623 6
28.4836 11.2775 -2.68021 3.43835e-05 10
28.4824 11.277 -1.60544 3.48546e-05 10
28.4891 11.2796 -0.534837 3.50975e-05 10
28.4844 11.2778 0.534748 3.86835e-05 10
28.4812 11.2765 1.60537 3.84401e-05 10
28.4712 11.2725 7.06954 3.36565e-05 10
9.12226 3.64865 -2.63257 0.000100357 4
10.5862 4.23417 -2.63226 5.55287e-05 4
12.5697 5.02753 -2.6315 6.15561e-05 4
12.8957 5.15792 -2.1998 0.00133192 6
13.0914 5.23617 -1.73122 0.000145819 6
28.4925 11.3962 -1.60824 3.46816e-05 10
28.511 11.4036 -0.535993 3.49236e-05 10
28.4884 11.3945 0.535566 3.49346e-05 10
28.5114 11.4037 1.60931 3.47143e-05 10
28.4994 11.399 7.08639 3.03884e-05 10
9.12612 3.68719 -2.63738 0.000120941 4
10.5862 4.2771 -2.63595 8.25408e-05 4
12.9163 5.21852 -2.2064 0.0013184 6
13.1048 5.29468 -1.73543 0.000145013 6
28.5289 11.5264 -1.61256 3.45049e-05 10
28.5364 11.5295 -0.537224 3.4746e-05 10
28.5389 11.5305 0.53727 3.47569e-05 10
28.5362 11.5294 1.61297 3.45376e-05 10
28.5283 11.5262 7.10352 3.02296e-05 10
9.10394 3.71525 -2.6347 7.97678e-05 4
10.5553 4.30754 -2.63199 0.000112553 4
12.515 5.10728 -2.62744 4.20739e-05 4
12.9218 5.2733 -2.21048 0.00130491 6
13.1044 5.34783 -1.73785 0.000144203 6
28.5686 11.6586 -1.61709 3.43247e-05 10
28.5454 11.6492 -0.538155 3.45647e-05 10
28.5542 11.6528 0.538321 3.45756e-05 10
28.5551 11.6531 1.61633 3.43572e-05 10
28.5478 11.6501 7.11847 3.00676e-05 10
9.08597 3.74497 -2.63327 0.000167252 4
10.5535 4.34984 -2.63532 8.2537e-05 4
12.9268 5.32803 -2.21449 0.000982517 6
13.0949 5.39732 -1.73907 0.00014339 6
28.5818 11.7805 -1.62015 3.41409e-05 10
28.5885 11.7833 -0.53974 3.43799e-05 10
28.5815 11.7805 0.539608 3.43908e-05 10
28.5753 11.7779 1.61979 3.41734e-05 10
28.5648 11.7736 7.13291 2.99025e-05 10
9.0714 3.77606 -2.63285 0.000169822 4
10.5326 4.3843 -2.6339 4.35185e-05 4
12.4827 5.19603 -2.6282 4.28506e-05 4
12.9492 5.39024 -2.22155 0.000897124 6
13.0843 5.44646 -1.74018 0.000142575 6
28.6099 11.9091 -1.62409 3.39536e-05 10
28.6189 11.9129 -0.541096 3.41916e-05 10
28.6151 11.9113 0.541023 3.42024e-05 10
28.5912 11.9013 1.62303 3.39859e-05 10
28.5857 11.8991 7.14847 2.97342e-05 10
9.06699 3.81141 -2.63542 0.000149234 4
10.5188 4.42168 -2.63428 3.15126e-05 4
12.4622 5.23864 -2.62774 8.8815e-05 4
12.9693 5.45177 -2.22824 0.000867884 6
13.0961 5.50508 -1.74429 0.000141757 6
28.6332 12.0363 -1.62779 3.37628e-05 10
28.6392 12.0388 -0.542271 3.39997e-05 10
28.6258 12.0332 0.542016 3.40106e-05 10
28.6368 12.0378 1.628 3.37951e-05 10
28.6113 12.0271 7.1653 2.95631e-05 10
9.0431 3.83857 -2.63235 0.00022642 4
10.492 4.45357 -2.63145 0.000222084 4
12.9815 5.51031 -2.23363 0.00106481 6
13.0798 5.55205 -1.74469 0.000140936 6
28.647 12.1599 -1.63098 2.94402e-05 10
28.6584 12.1648 -0.543436 2.96467e-05 10
28.6467 12.1598 0.543213 2.96558e-05 10
28.6503 12.1613 1.63117 2.94674e-05 10
9.04358 3.87608 -2.63641 0.000105489 4
10.4864 4.49449 -2.63398 3.30116e-05 4
12.9863 5.56592 -2.23778 0.00105347 6
13.077 5.60479 -1.74691 0.000140113 6
28.6803 12.2924 -1.63531 2.93511e-05 10
28.6785 12.2916 -0.544626 2.95572e-05 10
28.6661 12.2863 0.54439 2.95663e-05 10
28.6592 12.2834 1.63411 2.93782e-05 10
9.03693 3.91063 -2.63844 0.000110632 4
10.46 4.52643 -2.63128 0.00012154 4
12.418 5.37374 -2.63013 3.50554e-05 4
12.9928 5.62249 -2.24227 0.00104216 6
13.0935 5.66604 -1.75175 0.000139287 6
28.6808 12.4113 -1.6378 2.92584e-05 10
28.6859 12.4135 -0.545587 2.9464e-05 10
28.689 12.4148 0.545644 2.94731e-05 10
28.6816 12.4117 1.63785 2.92856e-05 10
9.02039 3.94091 -2.63761 0.000192959 4
10.4575 4.56878 -2.63467 0.000256578 4
13.0103 5.68406 -2.2487 0.00103088 6
13.0777 5.71352 -1.7523 9.47694e-05 6
28.7124 12.5441 -1.64209 2.91622e-05 10
28.7034 12.5402 -0.546748 2.93673e-05 10
28.6837 12.5316 0.546372 2.93764e-05 10
28.692 12.5352 1.64092 2.91893e-05 10
9.01167 3.97462 -2.6391 4.8882e-05 4
10.4322 4.60113 -2.63231 0.000105029 4
12.3734 5.4573 -2.62868 9.73699e-05 4
13.0348 5.74905 -2.2564 0.00102434 6
13.1037 5.77941 -1.75847 9.39086e-05 6
28.7292 12.6711 -1.64557 2.90625e-05 10
28.7178 12.666 -0.547861 2.92671e-05 10
28.7048 12.6603 0.547614 2.92762e-05 10
28.7236 12.6686 1.64525 2.90896e-05 10
8.99732 4.00586 -2.63898 0.00010548 4
10.422 4.64016 -2.6338 0.000141036 4
13.037 5.80446 -2.26027 0.00101308 6
13.0947 5.83013 -1.75998 9.67085e-05 6
8.97998 4.03576 -2.63801 7.71787e-05 4
10.3996 4.67375 -2.63225 4.80108e-05 4
12.3427 5.54701 -2.63032 5.45237e-05 4
13.0672 5.87263 -2.26904 0.00100185 6
13.1109 5.89225 -1.76491 9.59184e-05 6
8.9701 4.06902 -2.63926 0.000108048 4
13.0787 5.93274 -2.27462 0.000990663 6
13.1027 5.94366 -1.7666 9.51291e-05 6
8.95659 4.10065 -2.63948 0.000174931 4
10.3702 4.74785 -2.63315 7.05122e-05 4
13.0977 5.99661 -2.28156 0.00097951 6
13.124 6.00862 -1.77228 9.43409e-05 6
8.92865 4.12561 -2.63547 4.11592e-05 4
10.3632 4.78848 -2.6356 0.000237034 4
12.2815 5.67483 -2.6298 6.46432e-05 4
13.1198 6.06218 -2.28907 0.000968396 6
13.127 6.06554 -1.77554 0.000611697 6
8.91259 4.15601 -2.635 0.000102896 4
10.3514 4.82695 -2.63687 0.000117014 4
12.2651 5.71933 -2.63057 3.58251e-05 4
13.123 6.11937 -2.29335 0.000961711 6
13.1219 6.11883 -1.77772 0.000606558 6
8.91139 4.19338 -2.63896 0.000156912 4
12.2316 5.75575 -2.62766 3.8939e-05 4
13.1493 6.18761 -2.30171 0.000946284 6
13.1499 6.18788 -1.78444 0.00113008 6
8.89622 4.22423 -2.63881 0.000208354 4
10.3023 4.89188 -2.63299 5.85037e-05 4
12.232 5.80818 -2.63209 2.88139e-05 4
13.1537 6.24583 -2.30628 0.000948159 6
13.1654 6.25141 -1.78949 0.00111697 6
8.86517 4.24748 -2.63399 0.000231499 4
10.299 4.93445 -2.63653 5.40019e-05 4
12.2131 5.85153 -2.6324 5.29534e-05 4
13.1722 6.31104 -2.31336 0.000928575 6
13.155 6.30282 -1.79105 0.0011039 6
8.85508 4.28071 -2.63541 0.000100314 4
10.2666 4.96307 -2.63266 0.000220501 4
12.1828 5.88938 -2.63028 4.82793e-05 4
13.1836 6.37321 -2.31927 0.000925995 6
13.1832 6.37301 -1.79791 0.00109089 6
8.84309 4.31306 -2.63631 7.45906e-05 4
10.2622 5.0052 -2.63599 8.24981e-05 4
12.1658 5.93367 -2.63108 5.06136e-05 4
13.2037 6.43989 -2.32675 0.000914978 6
13.1893 6.43283 -1.80179 0.00107793 6
8.82489 4.34238 -2.63539 0.000167182 4
10.2297 5.03365 -2.63215 3.8998e-05 4
12.1553 5.98113 -2.63329 3.42603e-05 4
13.2095 6.49989 -2.33175 0.000904006 6
13.2082 6.49922 -1.80746 0.00106085 6
8.80865 4.37265 -2.63508 0.00015689 4
12.1346 6.02365 -2.63335 3.4259e-05 4
13.2266 6.56575 -2.3388 0.000897121 6
13.2193 6.5621 -1.8121 0.00105217 6
8.79784 4.40563 -2.63643 0.000182605 4
10.1884 5.10197 -2.63062 5.84935e-05 4
12.0897 6.05408 -2.62819 4.43794e-05 4
13.2479 6.63407 -2.34665 0.000732615 6
13.2477 6.63397 -1.81917 0.000869514 6
8.79431 4.44233 -2.64 0.000208319 4
10.1879 5.14627 -2.63511 9.29868e-05 4
12.0751 6.09955 -2.62961 5.06062e-05 4
13.2853 6.71088 -2.3574 0.000726219 6
13.2868 6.71163 -1.82774 0.00085441 6
8.77873 4.47299 -2.64 0.000180024 4
10.1723 5.18305 -2.63574 9.14843e-05 4
12.0705 6.15025 -2.63329 3.89264e-05 4
13.305 6.77924 -2.36509 3.86861e-05 6
13.3102 6.78188 -1.8342 0.000839445 6
8.74922 4.49649 -2.63583 0.000298318 4
10.1567 5.21985 -2.63641 6.14875e-05 4
12.0483 6.19198 -2.63313 3.11399e-05 4
13.3326 6.85203 -2.37423 9.33019e-05 6
13.3541 6.86306 -1.84354 0.000824622 6
8.73581 4.52821 -2.63653 0.000162013 4
10.1407 5.25646 -2.63701 4.49895e-05 4
12.0089 6.22483 -2.62926 4.04803e-05 4
13.3772 6.93408 -2.38647 5.51995e-05 6
13.4265 6.95965 -1.85689 0.000161705 6
8.72679 4.56225 -2.6386 0.000123435 4
10.1048 5.28264 -2.63243 8.84765e-05 4
11.9958 6.27126 -2.63117 6.61672e-05 4
13.5364 7.07663 -1.87548 0.000155946 6
8.70407 4.58913 -2.63656 0.000200577 4
10.0949 5.32242 -2.63468 0.000119964 4
11.9824 6.31758 -2.63304 3.73635e-05 4
8.68961 4.62035 -2.63705 0.000118286 4
11.9616 6.36009 -2.63334 5.60431e-05 4
18.0442 9.59427 -2.50927 3.72438e-05 4
8.66133 4.64416 -2.63337 0.000195424 4
10.0668 5.39776 -2.63711 8.99675e-05 4
11.9248 6.394 -2.63012 5.99326e-05 4
18.0715 9.68985 -2.51775 9.44585e-05 4
8.66006 4.68247 -2.63793 7.97101e-05 4
10.0382 5.42764 -2.63458 6.14758e-05 4
11.9103 6.43987 -2.63187 3.73591e-05 4
14.5788 7.88273 -2.62498 6.55267e-05 4
18.0956 9.78427 -2.52585 0.00010536 4
8.63699 4.70904 -2.6359 0.000159416 4
10.0197 5.46289 -2.6347 3.44853e-05 4
11.8949 6.4853 -2.63346 4.66969e-05 4
18.1062 9.87185 -2.53213 9.83877e-05 4
8.62334 4.74072 -2.63677 8.22769e-05 4
9.99431 5.49442 -2.63306 5.69738e-05 4
18.1254 9.96454 -2.53966 5.20271e-05 4
8.59576 4.76471 -2.6334 0.000133696 4
9.97758 5.53066 -2.63372 0.000115443 4
11.8363 6.56098 -2.63057 5.99228e-05 4
18.132 10.0507 -2.54548 9.79078e-05 4
8.58107 4.79579 -2.63402 0.000172258 4
9.96694 5.57033 -2.63603 6.4466e-05 4
18.1435 10.14 -2.55205 8.51376e-05 4
8.56929 4.82855 -2.63556 0.000131118 4
9.93506 5.59812 -2.63275 6.44638e-05 4
11.796 6.64669 -2.63185 6.22522e-05 4
14.4578 8.14656 -2.6284 4.44647e-05 4
18.1545 10.2295 -2.55861 8.20125e-05 4
8.56046 4.86301 -2.63805 0.000128543 4
9.92806 5.63992 -2.6361 5.99643e-05 4
11.7661 6.68409 -2.63038 4.82434e-05 4
14.4091 8.18553 -2.62472 6.38084e-05 4
18.1913 10.3341 -2.56886 8.4868e-05 4
8.53993 4.89086 -2.63696 0.00016453 4
9.89267 5.66558 -2.63194 4.34726e-05 4
14.3933 8.2431 -2.62706 6.82169e-05 4
18.2038 10.4254 -2.57575 6.75028e-05 4
8.52045 4.91928 -2.63624 0.000123394 4
9.87302 5.70019 -2.63199 0.000157395 4
14.3495 8.28471 -2.62434 7.12674e-05 4
18.2254 10.5225 -2.58399 9.28421e-05 4
8.5096 4.9527 -2.63821 0.000141385 4
9.85869 5.73789 -2.63349 5.69601e-05 4
11.6929 6.80544 -2.6298 2.95647e-05 4
14.336 8.34376 -2.62718 6.82092e-05 4
18.2299 10.6101 -2.58986 9.66299e-05 4
8.48915 4.98056 -2.63725 0.000113104 4
9.84152 5.77398 -2.63427 5.54591e-05 4
18.2391 10.7008 -2.59645 8.15997e-05 4
8.47703 5.0133 -2.6389 0.000187645 4
9.81091 5.80216 -2.63148 5.6956e-05 4
11.6465 6.88772 -2.63011 7.31272e-05 4
8.44751 5.03572 -2.63517 9.51049e-05 4
9.79799 5.84077 -2.63347 7.34406e-05 4
11.6166 6.9249 -2.62881 2.95607e-05 4
14.2503 8.49485 -2.62762 5.22508e-05 4
18.2905 10.9033 -2.61455 4.17946e-05 4
29.1824 17.3962 5.38097 3.5585e-05 10
29.1642 17.3853 6.59977 3.43708e-05 10
8.4354 5.06849 -2.63689 6.68284e-05 4
9.79076 5.88288 -2.63703 9.14227e-05 4
14.2125 8.5397 -2.62613 3.39271e-05 4
8.40594 5.09082 -2.63322 0.00010538 4
9.75536 5.90805 -2.63303 8.84219e-05 4
11.5837 7.01535 -2.63238 3.11138e-05 4
8.40991 5.13343 -2.64006 0.000123368 4
9.75062 5.9518 -2.63734 5.5449e-05 4
8.39342 5.16366 -2.64053 5.91119e-05 4
9.72069 5.98021 -2.63488 0.000119885 4
8.37476 5.19257 -2.64034 0.00016448 4
9.68793 6.00677 -2.63167 8.69135e-05 4
11.5131 7.13845 -2.63319 4.82196e-05 4
17.3961 10.786 -2.51322 0.000115149 4
8.35738 5.22227 -2.6406 8.22374e-05 4
9.66581 6.03987 -2.63137 5.09473e-05 4
17.429 10.8909 -2.52346 9.58497e-05 4
8.32758 5.24416 -2.63695 7.96649e-05 4
9.65792 6.08192 -2.63499 7.19229e-05 4
11.4482 7.20932 -2.62979 4.58821e-05 4
17.44 10.9825 -2.53058 3.4586e-05 4
27.8961 17.5671 -1.72771 3.00846e-05 10
27.9049 17.5726 -0.575615 3.03024e-05 10
27.885 17.5602 0.575206 3.03131e-05 10
27.9029 17.5714 1.72813 3.01166e-05 10
8.31395 5.2762 -2.63845 0.000138767 4
9.64146 6.11866 -2.63631 0.000104883 4
11.4305 7.25401 -2.63152 3.18826e-05 4
14.016 8.8948 -2.6292 7.05384e-05 4
17.4714 11.0877 -2.54075 5.10831e-05 4
27.9232 17.7206 -1.7332 2.97716e-05 10
27.9221 17.7199 -0.577243 2.99875e-05 10
27.9199 17.7185 0.577197 2.99982e-05 10
27.917 17.7167 1.73282 2.98034e-05 10
8.28187 5.29647 -2.63412 0.000113066 4
9.61157 6.14685 -2.63398 0.000128852 4
13.9653 8.93117 -2.62553 6.17173e-05 4
17.4688 11.1718 -2.54602 9.08073e-05 4
27.9625 17.8828 -1.73951 2.94573e-05 10
27.9516 17.8758 -0.579138 2.96713e-05 10
27.9368 17.8663 0.578832 2.96819e-05 10
27.9451 17.8717 1.73843 2.9489e-05 10
8.26233 5.32471 -2.6338 8.47963e-05 4
9.59176 6.18146 -2.63445 4.64448e-05 4
11.3914 7.34124 -2.63425 4.82081e-05 4
13.9366 8.9815 -2.62601 6.8156e-05 4
17.4895 11.2712 -2.55476 7.6327e-05 4
27.9727 18.0272 -1.74405 2.91419e-05 10
27.9759 18.0293 -0.580944 2.93539e-05 10
27.9805 18.0322 0.581039 2.93644e-05 10
27.9731 18.0274 1.74407 2.91733e-05 10
8.25309 5.35962 -2.6368 0.000133614 4
9.57626 6.21889 -2.63614 6.29227e-05 4
13.922 9.04104 -2.62919 5.66235e-05 4
17.5224 11.3792 -2.56535 8.93413e-05 4
28.0078 18.1884 -1.75018 2.88252e-05 10
27.989 18.1763 -0.582529 2.90353e-05 10
28.0068 18.1878 0.582898 2.90458e-05 10
28.006 18.1873 1.75007 2.88564e-05 10
8.24379 5.39458 -2.63983 0.000184998 4
9.54358 6.24514 -2.63313 5.09354e-05 4
11.316 7.40497 -2.6287 7.46374e-05 4
13.8723 9.0778 -2.62578 5.86541e-05 4
17.5414 11.4788 -2.57398 0.000103247 4
28.0326 18.344 -0.584765 2.87156e-05 10
28.0275 18.3407 0.584658 2.8726e-05 10
8.20843 5.41246 -2.63454 0.000136174 4
9.52895 6.28318 -2.63513 3.44549e-05 4
11.2997 7.45075 -2.63094 3.65394e-05 4
13.8392 9.12526 -2.62552 6.20405e-05 4
17.5615 11.5797 -2.58284 7.99684e-05 4
28.0427 18.4907 -1.76039 3.13187e-05 10
28.0478 18.4941 -0.586425 3.15487e-05 10
8.18688 5.43935 -2.6337 9.5062e-05 4
9.50306 6.31382 -2.63405 6.14171e-05 4
11.2731 7.48986 -2.63083 4.74211e-05 4
13.8106 9.17576 -2.62617 6.27145e-05 4
17.5796 11.6798 -2.59148 8.25514e-05 4
28.1028 18.6715 -1.76824 3.08272e-05 10
28.112 18.6776 -0.589128 3.1054e-05 10
28.1017 18.6707 0.588912 3.10663e-05 10
28.0916 18.664 1.76753 3.08639e-05 10
8.18477 5.47923 -2.63916 7.70746e-05 4
9.48523 6.34981 -2.63523 3.74479e-05 4
11.2481 7.52996 -2.63111 3.2649e-05 4
13.7935 9.23393 -2.62902 4.47447e-05 4
17.6046 11.7852 -2.60122 8.37505e-05 4
28.1581 18.8502 -1.77585 3.03373e-05 10
28.1496 18.8445 -0.591291 3.05611e-05 10
28.1553 18.8483 0.591409 3.05732e-05 10
28.1415 18.8391 1.7748 3.03736e-05 10
8.16763 5.50914 -2.63982 0.000120746 4
11.2209 7.5686 -2.63091 5.36349e-05 4
17.6202 11.8849 -2.60963 8.86225e-05 4
28.2074 19.0261 -1.78314 2.98493e-05 10
28.2053 19.0247 -0.593853 3.00699e-05 10
28.2008 19.0217 0.593757 3.00819e-05 10
28.1874 19.0126 1.78187 2.98852e-05 10
8.14085 5.53251 -2.63739 0.00015157 4
9.44412 6.41822 -2.6362 4.79294e-05 4
11.1926 7.60647 -2.63048 4.43048e-05 4
17.6414 11.989 -2.61895 9.02312e-05 4
28.2462 19.1961 -1.78982 2.93632e-05 10
28.2441 19.1946 -0.596075 2.95806e-05 10
28.2452 19.1954 0.596098 2.95926e-05 10
28.2328 19.187 1.78897 2.93987e-05 10
8.12213 5.56134 -2.6376 0.000156702 4
9.42575 6.45395 -2.63734 6.73979e-05 4
11.1692 7.64773 -2.63125 3.73074e-05 4
13.6953 9.37739 -2.62889 3.86355e-05 4
17.6606 12.0924 -2.62806 8.39034e-05 4
28.3058 19.3814 -1.79787 2.8879e-05 10
28.2847 19.3669 -0.598355 2.90933e-05 10
28.2901 19.3706 0.598468 2.91051e-05 10
28.2833 19.366 1.79644 2.89141e-05 10
8.10986 5.59462 -2.63994 0.000100183 4
9.39167 6.47888 -2.63412 4.34324e-05 4
13.657 9.42132 -2.62782 4.98161e-05 4
17.6795 12.1963 -2.63719 7.95308e-05 4
8.08218 5.61726 -2.63729 3.85306e-05 4
17.7026 12.3036 -2.64703 7.64379e-05 4
8.07041 5.65096 -2.63988 0.000128431 4
9.35596 6.55111 -2.63687 8.68574e-05 4
13.5823 9.5104 -2.62615 3.21897e-05 4
17.7185 12.4066 -2.65586 8.25935e-05 4
8.03771 5.66998 -2.63564 0.000272264 4
9.33615 6.58593 -2.63775 8.53562e-05 4
11.0531 7.79709 -2.62928 3.41912e-05 4
17.7566 12.5259 -2.66811 6.08825e-05 4
8.02725 5.70467 -2.63872 0.000156674 4
9.29745 6.60735 -2.63331 9.28395e-05 4
11.0263 7.83599 -2.6294 8.54736e-05 4
17.7681 12.6272 -2.67646 8.08809e-05 4
7.99722 5.72544 -2.6354 0.00012328 4
9.29112 6.65179 -2.63808 4.94125e-05 4
11.0035 7.87771 -2.63049 5.51663e-05 4
17.7889 12.7356 -2.68627 7.2939e-05 4
7.97497 5.75173 -2.63467 0.000100161 4
9.26367 6.68117 -2.63689 8.98369e-05 4
10.99 7.92626 -2.63388 3.49627e-05 4
17.813 12.8471 -2.69665 3.262e-05 4
7.96068 5.78377 -2.6366 0.000190043 4
9.23278 6.70801 -2.63475 5.24025e-05 4
10.9606 7.96336 -2.63348 0.000151497 4
7.93436 5.80707 -2.63459 0.000156651 4
9.20016 6.7335 -2.63213 2.9943e-05 4
10.9247 7.9957 -2.63155 0.00014605 4
7.91229 5.83344 -2.634 0.000179757 4
9.19324 6.77784 -2.6369 5.23979e-05 4
10.9089 8.04275 -2.63448 0.000156918 4
7.9092 5.87389 -2.63978 3.59501e-05 4
9.15656 6.80026 -2.63317 5.53896e-05 4
10.8686 8.07173 -2.63153 0.000122731 4
13.3175 9.89045 -2.62735 6.29885e-05 4
7.88744 5.90056 -2.63938 0.000179744 4
10.8341 8.10495 -2.63002 0.000160007 4
13.2829 9.93686 -2.62735 6.23067e-05 4
7.85499 5.91916 -2.63542 0.000207981 4
9.11199 6.86637 -2.63408 6.28689e-05 4
10.812 8.14744 -2.63154 0.000150678 4
13.2438 9.97993 -2.6265 6.19636e-05 4
7.8457 5.95521 -2.63926 7.95946e-05 4
9.09286 6.90185 -2.6355 3.44267e-05 4
10.7821 8.18407 -2.6312 7.76647e-05 4
13.2232 10.037 -2.62934 6.50062e-05 4
7.82178 5.9802 -2.63822 0.000102699 4
9.0567 6.92437 -2.63201 0.000149674 4
13.1778 10.0752 -2.6273 6.94025e-05 4
10.7241 8.25866 -2.63105 3.57217e-05 4
7.78142 6.03589 -2.63875 0.000120662 4
9.00887 6.98799 -2.63222 4.78913e-05 4
10.7113 8.30851 -2.635 4.11552e-05 4
7.76684 6.06812 -2.64098 0.000105254 4
8.98473 7.01964 -2.63231 4.7889e-05 4
10.6825 8.34606 -2.63507 4.42587e-05 4
7.74363 6.09363 -2.6403 9.49815e-05 4
8.95921 7.0502 -2.63203 6.13549e-05 4
10.6363 8.36995 -2.63087 6.59959e-05 4
13.0477 10.2675 -2.62968 3.58754e-05 4
7.71267 6.11298 -2.637 8.47099e-05 4
8.94065 7.08627 -2.63383 4.93809e-05 4
10.6235 8.4201 -2.63496 2.95023e-05 4
7.70203 6.14844 -2.64069 0.000161712 4
8.92327 7.12335 -2.63601 0.000122698 4
10.5831 8.44837 -2.63223 6.44355e-05 4
12.9739 10.3569 -2.62931 3.0794e-05 4
7.66946 6.1664 -2.63689 4.10682e-05 4
8.90421 7.15917 -2.63775 8.52861e-05 4
10.5447 8.47812 -2.63002 5.27874e-05 4
7.63972 6.18653 -2.63407 7.44331e-05 4
8.86362 7.17762 -2.63313 5.38623e-05 4
10.5296 8.52669 -2.63367 7.99526e-05 4
7.63001 6.22289 -2.6382 3.59317e-05 4
8.84169 7.21111 -2.63408 0.000164571 4
10.5041 8.56695 -2.63476 2.87191e-05 4
12.8682 10.495 -2.63002 3.89064e-05 4
7.60462 6.2465 -2.63694 7.18606e-05 4
8.83249 7.25508 -2.63887 8.67697e-05 4
10.4671 8.5978 -2.633 4.50164e-05 4
7.57496 6.26655 -2.63422 0.00016168 4
8.8039 7.28321 -2.6379 5.38544e-05 4
10.435 8.63254 -2.63247 3.25961e-05 4
7.55204 6.29212 -2.63388 8.98183e-05 4
8.77407 7.31028 -2.6366 2.99176e-05 4
7.54526 6.33122 -2.6392 9.49468e-05 4
7.51653 6.35196 -2.63689 0.000102641 4
8.71361 7.36357 -2.63381 0.000185471 4
7.49412 6.37799 -2.63682 0.000115466 4
8.69464 7.39972 -2.63587 6.13219e-05 4
10.3126 8.77669 -2.63225 7.75906e-05 4
7.47564 6.4074 -2.63818 0.000423358 4
8.66098 7.42336 -2.6335 0.000112169 4
10.2815 8.81229 -2.63215 5.27583e-05 4
7.44806 6.42899 -2.63635 0.000107759 4
8.64645 7.46342 -2.63699 3.88831e-05 4
10.2487 8.84647 -2.63166 3.87905e-05 4
12.5602 10.8417 -2.62795 4.05721e-05 4
7.43383 6.46213 -2.63928 8.97956e-05 4
8.61651 7.49022 -2.63582 4.63583e-05 4
10.2266 8.88989 -2.63394 7.13699e-05 4
7.40811 6.48531 -2.63817 0.000120577 4
8.5798 7.51105 -2.63259 0.000122619 4
10.1927 8.92299 -2.63319 7.36925e-05 4
7.37696 6.50366 -2.63514 0.000153922 4
8.55557 7.54275 -2.63322 0.000210834 4
10.1603 8.95751 -2.63289 4.96423e-05 4
7.35158 6.52704 -2.6342 0.000261656 4
8.52697 7.57059 -2.63254 4.63511e-05 4
10.1328 8.9963 -2.63388 3.41269e-05 4
8.51319 7.61167 -2.63647 5.38243e-05 4
7.32553 6.59593 -2.6413 0.000148772 4
8.47536 7.63125 -2.63299 4.48512e-05 4
10.0618 9.05965 -2.6318 4.49796e-05 4
7.30266 6.62165 -2.64137 0.000171849 4
8.46424 7.6749 -2.63784 8.96977e-05 4
10.0369 9.10087 -2.63358 5.81595e-05 4
7.2685 6.63706 -2.63738 6.92497e-05 4
8.42586 7.69386 -2.63423 7.32492e-05 4
7.24204 6.6594 -2.6362 0.000156446 4
9.97435 9.17189 -2.63392 0.000178332 4
7.22827 6.69345 -2.63968 4.87269e-05 4
8.38121 7.76108 -2.63715 7.47361e-05 4
9.94285 9.20718 -2.63407 0.000166691 4
7.20473 6.71852 -2.63963 0.000115401 4
8.34985 7.78635 -2.63582 7.77213e-05 4
9.90594 9.23744 -2.63282 0.000149624 4
7.16708 6.73033 -2.63442 0.000151296 4
8.31728 7.81044 -2.63412 8.07062e-05 4
9.87052 9.26904 -2.63199 0.00015349 4
7.15858 6.76953 -2.63997 0.000312835 4
8.30216 7.85096 -2.638 7.62184e-05 4
9.84699 9.31183 -2.63436 0.000128675 4
8.27435 7.87956 -2.63789 9.71358e-05 4
9.81745 9.34902 -2.63517 0.000128666 4
7.10075 6.80937 -2.63611 5.38438e-05 4
8.2438 7.90552 -2.63693 0.000128511 4
9.77553 9.37439 -2.63269 0.000144158 4
7.08516 6.84206 -2.63917 0.000133321 4
8.20763 7.92601 -2.63419 8.81597e-05 4
9.74359 9.40928 -2.63292 0.000146474 4
7.05659 6.86223 -2.63744 8.71676e-05 4
9.71743 9.44979 -2.63475 0.000161962 4
7.03513 6.8893 -2.63839 9.48544e-05 4
8.1675 7.99821 -2.63917 0.000100102 4
9.67205 9.47158 -2.63139 0.00016815 4
7.01387 6.91661 -2.63945 0.000133303 4
9.64987 9.51606 -2.63438 0.000127847 4
6.98732 6.93871 -2.63856 0.00012817 4
8.10874 8.05232 -2.63829 2.9878e-05 4
9.62327 9.55631 -2.6362 0.000152631 4
6.96052 6.96051 -2.6376 0.000105094 4
8.08089 8.08089 -2.63839 6.27401e-05 4
9.58211 9.5821 -2.63408 7.51482e-05 4
6.93318 6.98175 -2.63646 0.000217868 4
8.0567 8.11314 -2.63972 8.96237e-05 4
9.55474 9.62168 -2.63577 8.6763e-05 4
6.91904 7.01633 -2.64038 7.17647e-05 4
8.01602 8.12874 -2.63567 9.11122e-05 4
9.51029 9.64402 -2.63278 2.86607e-05 4
6.88854 7.03434 -2.63809 0.000120457 4
7.98881 8.15791 -2.63607 7.61714e-05 4
9.48706 9.68786 -2.63569 7.51323e-05 4
6.86024 7.05454 -2.63667 9.22601e-05 4
7.96181 8.18731 -2.63657 5.67519e-05 4
6.84424 7.08742 -2.64002 9.99436e-05 4
7.92954 8.21128 -2.63537 4.92817e-05 4
9.42289 9.75769 -2.63673 3.33013e-05 4
6.82462 7.11664 -2.64201 0.00018194 4
7.91371 8.25234 -2.63966 3.13592e-05 4
6.78374 7.12363 -2.6358 0.000171681 4
7.87018 8.2645 -2.63475 0.000101538 4
9.35531 9.82404 -2.63694 3.25222e-05 4
6.77453 7.16386 -2.64192 0.000386904 4
7.85136 8.30258 -2.63813 8.06286e-05 4
9.30522 9.83999 -2.63249 6.34911e-05 4
6.73316 7.17008 -2.63553 7.17403e-05 4
7.81191 8.31883 -2.63462 4.92702e-05 4
6.71785 7.20401 -2.63936 4.35545e-05 4
7.7933 8.35729 -2.63816 0.000113464 4
9.23462 9.90292 -2.63201 4.18051e-05 4
6.69301 7.22779 -2.6395 0.000284371 4
7.76026 8.38032 -2.63687 0.000129879 4
6.66281 7.24575 -2.63755 0.00015883 4
6.64197 7.27389 -2.63934 9.22192e-05 4
7.69723 8.42955 -2.63538 8.95607e-05 4
9.14015 10.0097 -2.63482 3.63778e-05 4
6.61325 7.2934 -2.63802 0.000271521 4
6.58676 7.31534 -2.63763 0.000125508 4
7.63912 8.4841 -2.6357 7.01474e-05 4
6.56217 7.33939 -2.63802 9.9889e-05 4
7.61718 8.51935 -2.63838 5.37267e-05 4
9.04156 10.1124 -2.63678 6.88702e-05 4
11.0717 12.383 -2.6309 4.31332e-05 4
6.53803 7.36395 -2.63863 0.000122934 4
7.5861 8.54443 -2.63793 7.61082e-05 4
8.99245 10.1284 -2.63276 8.58879e-05 4
6.50909 7.38311 -2.63734 7.42688e-05 4
7.55374 8.56803 -2.63706 7.31191e-05 4
8.96464 10.1684 -2.63499 0.000155515 4
6.48265 7.40507 -2.63709 9.47519e-05 4
7.52364 8.59419 -2.63701 4.92404e-05 4
8.93639 10.208 -2.63714 0.000157824 4
6.46322 7.43509 -2.63972 0.000102429 4
7.48951 8.61569 -2.63557 6.26658e-05 4
8.89864 10.2367 -2.63653 0.000152397 4
10.9053 12.5451 -2.63274 3.23372e-05 4
6.44353 7.4649 -2.64231 7.93786e-05 4
8.85055 10.2535 -2.63287 0.000153159 4
10.8465 12.5658 -2.62912 3.09867e-05 4
6.41863 7.48875 -2.6428 0.000553061 4
7.43579 8.67548 -2.63791 6.56417e-05 4
8.82674 10.2983 -2.63647 7.65734e-05 4
6.3913 7.50975 -2.64232 0.000524868 4
7.40375 8.69938 -2.63731 4.62447e-05 4
8.79191 10.3305 -2.63682 3.32566e-05 4
6.36508 7.53206 -2.64234 0.000373789 4
7.38107 8.73431 -2.64007 5.81751e-05 4
6.33753 7.55277 -2.64183 0.000542733 4
7.34118 8.74888 -2.63671 6.86125e-05 4
6.30348 7.56567 -2.63863 0.000565744 4
7.31588 8.78079 -2.63862 0.000133683 4
8.68511 10.4242 -2.63738 6.34048e-05 4
6.27984 7.59101 -2.63981 0.000483801 4
7.30142 8.82589 -2.64449 9.73292e-05 4
8.63866 10.4423 -2.63433 3.47925e-05 4
10.5893 12.8003 -2.63119 3.23144e-05 4
6.24366 7.60115 -2.63574 0.000491454 4
7.28648 8.8707 -2.65028 0.000127721 4
6.21953 7.62589 -2.63677 9.47022e-05 4
7.25733 8.89837 -2.65096 0.000109038 4
8.57685 10.5163 -2.63781 3.78793e-05 4
10.4924 12.8649 -2.62936 4.24039e-05 4
6.20115 7.65778 -2.6403 0.000143325 4
7.24775 8.95022 -2.65886 0.000110707 4
8.5299 10.5336 -2.63466 3.78762e-05 4
6.16587 7.6688 -2.63666 9.98105e-05 4
7.2389 9.00338 -2.66713 0.000108684 4
8.4994 10.5711 -2.63662 3.94191e-05 4
10.4164 12.9554 -2.63292 3.2974e-05 4
6.14807 7.70155 -2.64053 0.000145869 4
7.21935 9.04352 -2.67154 0.000132409 4
8.45767 10.5947 -2.63513 4.48259e-05 4
6.11791 7.71887 -2.63913 0.00022263 4
7.19434 9.07699 -2.67399 0.000133101 4
8.41814 10.621 -2.63435 2.93664e-05 4
6.08378 7.73111 -2.63603 0.000133059 4
7.17915 9.12307 -2.68017 0.000143865 4
6.05963 7.75598 -2.63728 6.39672e-05 4
7.16689 9.1732 -2.68753 0.000117084 4
8.33992 10.6746 -2.63313 9.11755e-05 4
6.0396 7.7862 -2.64038 6.65222e-05 4
7.14407 9.21007 -2.69101 0.000107742 4
8.30153 10.7023 -2.63279 3.63127e-05 4
6.01751 7.81389 -2.64263 5.88433e-05 4
7.12247 9.24871 -2.69502 0.000114836 4
8.27171 10.741 -2.63521 5.56235e-05 4
5.987 7.83067 -2.64122 0.000115122 4
7.09906 9.28518 -2.69841 0.000113711 4
5.95075 7.83982 -2.63728 8.4418e-05 4
7.08076 9.32855 -2.70381 0.000117127 4
5.93245 7.87263 -2.64134 8.69713e-05 4
7.0615 9.37092 -2.70893 0.000126869 4
8.15548 10.8227 -2.63414 3.78455e-05 4
5.89686 7.8825 -2.63772 0.000332519 4
7.04487 9.41707 -2.71515 0.000225604 1
8.11966 10.8538 -2.63479 5.2516e-05 4
5.86743 7.9005 -2.63688 0.000120212 4
7.01004 9.43902 -2.7144 0.000225588 1
8.09345 10.8978 -2.63861 4.47894e-05 4
5.84684 7.93046 -2.64005 0.00011509 4
6.98449 9.47354 -2.7173 0.000225573 1
8.05029 10.9192 -2.63695 0.00012818 4
5.82732 7.96202 -2.64377 0.000145772 4
6.94031 9.48273 -2.71297 0.000225558 1
8.01711 10.954 -2.63859 0.000135118 4
9.81324 13.4081 -2.63164 3.25926e-05 4
5.78727 7.96549 -2.6382 9.97331e-05 4
6.91244 9.51414 -2.71504 0.000225542 1
7.96501 10.9629 -2.63402 0.000138967 4
5.76068 7.98737 -2.63877 0.000125299 4
6.56629 9.10438 -2.59155 0.000692412 4
7.94028 11.0095 -2.63854 0.000142043 4
9.71943 13.4763 -2.63165 3.15777e-05 4
5.73922 8.01646 -2.64174 5.62533e-05 4
6.53514 9.12818 -2.59181 0.000647311 4
7.89063 11.0215 -2.63481 0.000158241 4
5.70518 8.02797 -2.63896 5.36933e-05 4
6.48148 9.12033 -2.58315 0.000771211 4
7.86235 11.0634 -2.63825 4.32231e-05 4
9.62941 13.5499 -2.63283 3.86238e-05 4
5.6801 8.05205 -2.64034 7.41436e-05 4
6.43959 9.1287 -2.57914 0.000764419 4
7.83781 11.1108 -2.64301 6.28547e-05 4
5.644 8.06047 -2.63663 0.000286331 4
6.40158 9.1424 -2.57668 0.000801723 4
7.8193 11.1671 -2.6499 6.03179e-05 4
6.35903 9.14944 -2.57239 0.000672601 4
7.79265 11.2122 -2.65411 6.49537e-05 4
9.48045 13.6406 -2.63101 5.43911e-05 4
5.59172 8.10566 -2.63857 8.43557e-05 4
6.32926 9.17478 -2.57329 0.000575574 4
7.77404 11.2691 -2.66116 6.14642e-05 4
5.56668 8.12993 -2.64013 0.000138029 4
6.28637 9.18102 -2.56886 0.000724639 4
7.74907 11.3172 -2.66611 5.9414e-05 4
5.53832 8.14939 -2.64016 0.00023259 4
6.24953 9.1959 -2.56691 0.000767918 4
7.72631 11.3689 -2.67192 3.13987e-05 4
5.50911 8.16759 -2.63981 0.000288804 4
6.19916 9.19063 -2.55938 0.000641321 4
7.71047 11.4312 -2.68023 6.89998e-05 4
5.48309 8.19054 -2.64102 0.00050346 4
6.16246 9.20536 -2.55748 0.00070732 4
7.68572 11.4808 -2.68554 0.000128975 4
5.458 8.21496 -2.64274 0.000516208 4
6.12774 9.22298 -2.55642 0.000768198 4
7.66556 11.5376 -2.69255 9.62751e-05 4
5.41905 8.21841 -2.63775 0.000490624 4
6.09494 9.24346 -2.55618 0.000720159 4
7.63148 11.5737 -2.69475 0.00013027 4
5.3913 8.23878 -2.63823 0.000457378 4
6.04362 9.23562 -2.54816 0.000920541 4
7.62059 11.6455 -2.70525 0.000114046 4
5.3667 8.26399 -2.64029 0.000439465 4
6.00178 9.24193 -2.54411 0.000674852 4
7.5848 11.6796 -2.707 0.000129595 4
9.05333 13.9409 -2.63277 2.95158e-05 4
5.34238 8.28975 -2.64254 0.000145628 4
5.96399 9.2543 -2.54176 0.000689784 4
7.55915 11.7295 -2.71244 0.000116169 1
5.31092 8.30445 -2.6413 9.70796e-05 4
5.93361 9.27812 -2.54261 0.000869263 4
7.51674 11.7536 -2.71193 0.000116159 1
5.27961 8.31933 -2.64016 0.000429168 4
5.88478 9.27292 -2.53554 0.000731721 4
6.96483 10.9748 -2.52661 0.000106583 4
5.2504 8.3375 -2.64009 0.000444469 4
5.85872 9.30349 -2.53829 0.000758833 4
6.91623 10.9828 -2.52287 0.000114501 4
5.21992 8.35361 -2.63941 0.000462322 4
5.80666 9.29259 -2.52977 0.000696805 4
6.87773 11.0067 -2.52283 0.000131224 4
5.19224 8.37423 -2.64018 0.000444415 4
5.77725 9.31775 -2.53111 0.000634159 4
6.84604 11.0415 -2.52533 0.000136496 4
8.75623 14.1223 -2.63181 6.43535e-05 4
5.16666 8.39829 -2.64206 0.000482698 4
5.73871 9.32814 -2.52848 0.000227834 4
6.85988 11.1506 -2.54477 8.17221e-05 4
8.71249 14.162 -2.63351 5.86488e-05 4
5.13838 8.41802 -2.64261 0.000533744 4
5.70029 9.33858 -2.5259 0.000216004 4
6.86715 11.2502 -2.56202 9.05866e-05 4
8.65788 14.1839 -2.63195 6.73544e-05 4
5.10398 8.42767 -2.64003 0.000434119 4
5.67743 9.37455 -2.53025 0.000226113 4
6.88152 11.3627 -2.58217 7.73099e-05 4
5.07673 8.44909 -2.64117 0.000531125 4
5.63782 9.3829 -2.52718 0.000197413 4
6.88537 11.4592 -2.5986 5.8109e-05 4
8.57745 14.2753 -2.63773 5.78713e-05 4
5.04337 8.46033 -2.63917 0.000457046 4
5.6131 9.41606 -2.53082 0.000204147 4
6.90891 11.5898 -2.62274 0.000145058 4
8.54274 14.3306 -2.64243 6.24672e-05 4
5.02137 8.49067 -2.64315 0.000541273 4
5.57839 9.43253 -2.52999 0.000158582 4
6.91345 11.69 -2.63994 8.7804e-05 4
8.52781 14.4197 -2.65336 6.38732e-05 4
4.99334 8.51094 -2.64402 0.000444225 4
5.53736 9.4382 -2.52631 0.000234482 4
6.85946 11.6917 -2.63489 0.000126303 4
8.4975 14.4836 -2.65965 5.31345e-05 4
4.96038 8.52278 -2.6423 0.000408457 4
5.5118 9.47022 -2.52972 0.000219283 4
6.81904 11.7163 -2.63506 0.000117821 4
8.47638 14.5639 -2.66893 5.4596e-05 4
4.9261 8.53225 -2.63989 0.00048246 4
5.47495 9.4829 -2.52799 0.000207461 4
6.78466 11.7514 -2.63761 6.54499e-05 4
8.44411 14.6256 -2.67483 4.59016e-05 4
4.89934 8.55474 -2.64154 0.00048243 4
5.44038 9.49944 -2.52732 0.000112999 4
6.73846 11.766 -2.6356 3.1567e-05 4
8.41652 14.6961 -2.68232 4.8642e-05 4
4.86324 8.56085 -2.63817 0.000564076 4
5.40866 9.52096 -2.528 0.000249591 4
6.70452 11.8021 -2.63842 0.000156281 4
8.39291 14.7742 -2.69122 5.58162e-05 4
4.84487 8.59825 -2.64446 0.000553832 4
5.37104 9.53206 -2.52596 0.000198983 4
6.65537 11.8114 -2.63529 0.000116238 4
8.35784 14.8328 -2.69656 4.69946e-05 4
4.80981 8.60614 -2.64171 0.000574214 4
5.33661 9.54873 -2.52543 7.41916e-05 4
6.61961 11.8444 -2.63748 0.000115457 4
8.33493 14.9136 -2.70595 4.75859e-05 4
4.78285 8.62848 -2.64343 0.000410856 4
5.54105 9.99632 -2.63867 0.00013373 4
6.5775 11.8661 -2.63719 0.000109289 4
8.298 14.97 -2.71091 5.00683e-05 1
4.75412 8.64771 -2.64422 0.000395519 4
5.51082 10.0241 -2.64092 0.000169378 4
6.53626 11.8894 -2.63728 0.000183927 4
8.24484 14.9973 -2.71063 5.00622e-05 1
4.72477 8.66583 -2.6447 4.08252e-05 4
5.4733 10.0387 -2.63972 0.000200564 4
6.49407 11.911 -2.63702 8.38753e-05 4
7.63277 13.9995 -2.52545 3.32142e-05 4
4.69082 8.67548 -2.64263 0.000165842 4
5.43577 10.0532 -2.63853 0.000184208 4
7.58281 14.0241 -2.5251 6.37172e-05 4
4.65308 8.67796 -2.63842 0.000117358 4
5.39947 10.07 -2.63795 0.000311941 4
6.14358 11.4577 -2.52712 0.000136273 4
7.53393 14.0507 -2.52514 0.000108894 4
4.62806 8.70412 -2.64145 0.000142861 4
5.37455 10.1081 -2.643 0.000252504 4
6.10769 11.4869 -2.52883 9.49425e-05 4
7.54661 14.1931 -2.54598 5.95221e-05 4
4.59426 8.7138 -2.6395 0.000237236 4
5.32776 10.105 -2.63732 0.000154462 4
6.06183 11.4973 -2.52645 8.70225e-05 4
7.56705 14.3522 -2.56976 9.44161e-05 4
4.5629 8.72803 -2.63897 0.000181104 4
5.29985 10.1377 -2.641 0.000179696 4
6.01744 11.5103 -2.52467 0.000117777 4
7.59144 14.5211 -2.59524 6.7519e-05 4
4.54275 8.76385 -2.64499 0.000502525 4
5.26833 10.1636 -2.64296 6.23691e-05 4
5.98321 11.5428 -2.5272 0.000100189 4
7.61564 14.6921 -2.62103 9.02366e-05 4
4.52655 8.80772 -2.65345 0.000549995 4
5.2301 10.1767 -2.64159 0.000270245 4
5.94304 11.5639 -2.52727 0.000124785 4
7.61353 14.8143 -2.63809 4.14468e-05 4
4.50095 8.8336 -2.6565 0.000414587 4
5.19191 10.1897 -2.64025 0.000244984 4
5.89458 11.5688 -2.52382 0.00012038 4
7.55307 14.8237 -2.63505 4.37812e-05 4
4.47727 8.86349 -2.66077 0.000540433 4
5.15905 10.2132 -2.64165 0.00032365 4
5.86745 11.6156 -2.52955 0.000124761 4
7.50832 14.8639 -2.63753 5.41348e-05 4
4.44926 8.88496 -2.66254 0.000582957 4
5.12268 10.2297 -2.64129 8.75866e-05 4
5.82543 11.6331 -2.52892 9.83939e-05 4
4.43159 8.92737 -2.67059 0.000555633 4
5.0859 10.2455 -2.64076 0.000143987 4
5.78294 11.6497 -2.52812 0.000104534 4
7.40112 14.9095 -2.63637 3.14037e-05 4
4.40205 8.94615 -2.6716 0.000423383 4
5.05176 10.2665 -2.64162 0.000133586 4
5.74069 11.6666 -2.52743 0.000104524 4
7.34758 14.9322 -2.63585 6.31336e-05 4
4.38175 8.98391 -2.67829 0.00046981 4
5.0131 10.2784 -2.64015 3.56201e-05 4
5.70091 11.6886 -2.52787 9.74874e-05 4
4.36053 9.02018 -2.68455 0.00048388 4
4.97235 10.2858 -2.63758 0.000181055 4
5.65234 11.6924 -2.52441 0.000116798 4
7.24214 14.9811 -2.63548 3.7737e-05 4
4.33647 9.0509 -2.68917 0.000485904 4
4.94783 10.3269 -2.64368 0.00018104 4
5.61645 11.7224 -2.52664 0.000100103 4
4.30418 9.06458 -2.68875 0.000547434 4
4.91174 10.3441 -2.64367 0.000207735 4
5.57994 11.7513 -2.52866 0.000101849 4
6.83607 14.3967 -2.52422 3.43054e-05 4
4.28017 9.09582 -2.69357 0.00045835 4
4.86535 10.3394 -2.63811 0.000178044 4
5.53104 11.7541 -2.52508 0.000131689 4
6.78287 14.4143 -2.52314 4.62487e-05 4
4.25562 9.1262 -2.69815 0.000405403 4
4.83001 10.358 -2.63854 0.00017803 4
5.49627 11.7868 -2.52797 0.000131676 4
6.73124 14.4352 -2.52266 5.12525e-05 4
4.23316 9.16138 -2.70417 0.000552844 4
4.79902 10.386 -2.6414 0.000597184 4
5.45959 11.8156 -2.53005 0.000128152 4
6.68891 14.4761 -2.52572 5.39432e-05 4
4.20027 9.17419 -2.70361 0.000578101 4
4.7608 10.3985 -2.64032 0.00047112 4
5.41729 11.8324 -2.52958 8.16234e-05 4
6.63171 14.4849 -2.5232 4.5846e-05 4
4.17675 9.20758 -2.70913 0.000505904 4
4.71821 10.4012 -2.63683 0.000551843 4
5.3767 11.8529 -2.52993 0.00010531 4
6.58903 14.5254 -2.52624 5.16183e-05 4
8.64901 19.0666 -2.57069 3.13407e-05 4
4.15309 9.24103 -2.71469 0.000573845 4
4.68461 10.4237 -2.63836 0.000610832 4
5.33276 11.8659 -2.52873 9.3015e-05 4
6.53486 14.5407 -2.52491 5.08415e-05 4
8.68347 19.3216 -2.60096 2.91689e-05 4
4.12351 9.26154 -2.71647 0.00038711 1
4.63784 10.4168 -2.63249 0.000519212 4
5.29027 11.8821 -2.52823 0.000112309 4
6.48902 14.5746 -2.52684 4.77541e-05 4
4.09288 9.27979 -2.71762 0.000387083 1
4.59848 10.4261 -2.63079 0.000649543 4
5.24353 11.8887 -2.52571 4.47437e-05 4
6.43441 14.5887 -2.52539 5.66045e-05 4
4.06237 9.29841 -2.7189 0.000387057 1
4.56524 10.4494 -2.63262 0.000553035 4
5.20798 11.9206 -2.52861 6.22841e-05 4
6.38533 14.6154 -2.52614 5.65973e-05 4
4.02838 9.30903 -2.71788 0.000387031 1
4.51907 10.4429 -2.627 0.000540967 4
5.15933 11.9225 -2.52518 6.14008e-05 4
6.33419 14.6374 -2.5261 5.00457e-05 4
3.99781 9.3276 -2.71921 0.000387005 1
4.47909 10.4505 -2.62496 0.000591553 4
5.12774 11.9639 -2.53015 3.68369e-05 4
6.27685 14.645 -2.52361 4.15711e-05 4
3.97108 9.35528 -2.72322 0.000386978 1
4.44508 10.4719 -2.62643 0.000521065 4
5.08211 11.9727 -2.52824 3.68332e-05 4
6.23084 14.6789 -2.5257 4.73388e-05 4
3.93031 9.34984 -2.71763 0.000386952 1
6.18479 14.713 -2.52783 4.61782e-05 4
3.89853 9.36561 -2.71824 0.000386926 1
4.99645 12.0032 -2.52725 5.69925e-05 4
6.13263 14.7327 -2.52752 4.69418e-05 4
3.86643 9.38065 -2.71867 0.000386899 1
4.95059 12.011 -2.52525 0.000138522 4
6.07209 14.732 -2.52374 4.27038e-05 4
3.83485 9.39701 -2.71952 0.000386872 1
4.90906 12.0293 -2.52547 9.02931e-05 4
6.02847 14.7723 -2.52703 5.0007e-05 4
3.80639 9.42113 -2.72264 0.000386846 1
4.87718 12.0714 -2.53073 0.000115704 4
5.97774 14.7954 -2.5274 5.73083e-05 4
3.77265 9.4323 -2.72204 0.000386819 1
4.83243 12.0819 -2.52938 0.000115692 4
5.91762 14.7951 -2.5238 4.49946e-05 4
3.73517 9.43395 -2.71874 0.000386793 1
4.7894 12.0966 -2.52894 0.000122692 4
5.87555 14.8399 -2.52794 4.92185e-05 4
3.70784 9.46129 -2.72287 0.000386766 1
4.82562 12.3135 -2.57074 7.80482e-05 4
5.82225 14.8566 -2.5273 3.84469e-05 4
3.66847 9.45787 -2.71819 0.000386739 1
4.90084 12.6351 -2.6343 7.88604e-05 4
5.76674 14.8675 -2.52572 5.38187e-05 4
3.63761 9.47631 -2.71982 0.000386712 1
4.97956 12.9722 -2.70094 7.18973e-05 4
5.71281 14.8824 -2.52484 4.3818e-05 4
3.60695 9.49537 -2.72166 0.000386685 1
4.96146 13.0611 -2.71583 0.000115498 1
5.66713 14.9188 -2.52765 5.8032e-05 4
3.57501 9.51115 -2.72259 0.000386658 1
4.92191 13.0945 -2.71918 0.000115486 1
5.61312 14.9334 -2.52679 5.4566e-05 4
3.5347 9.50451 -2.71714 0.000386631 1
4.87783 13.1161 -2.72011 0.000115474 1
5.55985 14.95 -2.52629 4.9564e-05 4
3.5106 9.54152 -2.7242 0.000386604 1
4.82891 13.1246 -2.71836 0.000115462 1
5.51279 14.9833 -2.52866 3.45749e-05 4
3.46819 9.52878 -2.71709 0.000386577 1
4.78473 13.1459 -2.71931 0.00011545 1
5.45744 14.9942 -2.52726 4.95509e-05 4
3.43928 9.55297 -2.72055 0.00038655 1
4.7319 13.1434 -2.71534 0.000115438 1
5.51773 15.3261 -2.57994 2.98627e-05 4
3.40977 9.57574 -2.72362 0.000386523 1
3.78822 10.6385 -2.60717 2.8686e-05 4
4.69497 13.185 -2.72054 0.000115426 1
3.37709 9.58976 -2.72425 0.000386495 1
3.75336 10.6582 -2.60877 3.36315e-05 4
4.6463 13.1939 -2.71901 0.000115414 1
5.69797 16.1802 -2.71696 4.97581e-05 1
