VERSION 0.7
FIELDS x y z intensity label
SIZE 4 4 4 4 4
TYPE F F F F F
COUNT 1 1 1 1 1
WIDTH 1183
HEIGHT 1
VIEWPOINT 5.37238 37.9543 2.72841 0.826063 -0.000568938 0.000680506 0.563577
POINTS 1183
DATA ascii
15.6135 -14.5599 -2.6213 5.08194e-05 4
6.91487 -6.40324 -2.52523 0.000367036 4
8.63628 -7.99728 -2.71741 0.000225847 1
10.2245 -9.468 -2.70869 0.000116521 1
11.8872 -11.0077 -2.566 0.00012292 4
15.5622 -14.4108 -2.60423 4.83673e-05 4
6.95114 -6.3919 -2.53031 0.000407523 4
8.66377 -7.96675 -2.71729 0.000225865 1
10.2675 -9.44145 -2.71133 0.000116532 1
11.8324 -10.8804 -2.54595 0.000102043 4
15.5318 -14.2822 -2.59077 5.50212e-05 4
6.96967 -6.36418 -2.52895 0.000381535 4
8.68076 -7.92663 -2.71393 0.000225883 1
10.3063 -9.41094 -2.71288 0.000116544 1
11.7863 -10.7624 -2.52795 0.00014666 4
15.4765 -14.132 -2.57331 5.49274e-05 4
6.98781 -6.33616 -2.52749 0.000410466 4
8.71386 -7.90125 -2.71563 0.0002259 1
10.3318 -9.3683 -2.71097 0.000116555 1
11.7753 -10.6772 -2.51757 4.62651e-05 4
15.4367 -13.9972 -2.55855 5.5624e-05 4
7.0025 -6.30509 -2.52483 0.000390256 4
8.72611 -7.85702 -2.71089 0.000225918 1
10.3625 -9.33048 -2.71048 0.000116566 1
11.8275 -10.6495 -2.52076 5.4825e-05 4
15.3961 -13.8628 -2.5438 5.894e-05 4
7.0374 -6.29216 -2.52948 0.000393173 4
8.76484 -7.83668 -2.71441 0.000225935 1
10.3998 -9.29847 -2.71171 0.000116578 1
11.8644 -10.608 -2.52072 4.89986e-05 4
15.3497 -13.7242 -2.52819 5.60527e-05 4
7.05213 -6.26118 -2.5269 0.000355613 4
8.78435 -7.79912 -2.712 0.000225953 1
10.4324 -9.26234 -2.71177 0.000116589 1
11.9032 -10.5682 -2.52111 4.1615e-05 4
15.3203 -13.602 -2.51552 6.6415e-05 4
7.07451 -6.23702 -2.52711 0.000372983 4
8.82006 -7.77593 -2.71463 0.000225971 1
10.4725 -9.23276 -2.7138 0.0001166 1
11.9402 -10.5267 -2.52115 5.25113e-05 4
7.09043 -6.20721 -2.52504 0.000422163 4
8.84747 -7.74538 -2.71473 0.000225988 1
10.4858 -9.17962 -2.70892 0.000116611 1
11.9685 -10.4776 -2.51939 4.59043e-05 4
7.11355 -6.18372 -2.52557 0.000378814 4
8.87697 -7.71663 -2.7155 0.000226005 1
10.5314 -9.15478 -2.71242 0.000116622 1
12.0018 -10.433 -2.51872 4.74661e-05 4
7.13787 -6.16124 -2.52655 0.000384622 4
8.8884 -7.67227 -2.71078 0.000226023 1
10.5553 -9.11113 -2.71039 0.000116633 1
12.0383 -10.3912 -2.51875 4.94175e-05 4
7.1575 -6.13472 -2.5259 0.000349941 4
8.91766 -7.64337 -2.71155 0.00022604 1
10.5897 -9.07647 -2.71106 0.000116644 1
12.0849 -10.358 -2.52091 5.17584e-05 4
7.18077 -6.11131 -2.52657 0.000367316 4
8.9513 -7.61816 -2.71368 0.000226057 1
10.616 -9.03495 -2.70971 0.000116655 1
12.1066 -10.3036 -2.51793 3.65855e-05 4
7.19544 -6.08062 -2.52425 0.000370232 4
8.35796 -7.06303 -2.52631 6.09907e-05 4
10.6558 -9.00482 -2.71181 0.000116666 1
12.1511 -10.2685 -2.51971 5.60525e-05 4
7.21863 -6.05715 -2.52495 0.00036447 4
8.38234 -7.03362 -2.52625 0.000191457 4
10.6933 -8.97274 -2.71338 0.000116677 1
12.1784 -10.2189 -2.51797 5.8395e-05 4
7.24795 -6.03876 -2.52782 0.000387635 4
8.40136 -6.99975 -2.5246 0.000227055 4
10.7198 -8.93143 -2.71218 0.000116688 1
12.2213 -10.1824 -2.51946 4.32174e-05 4
7.26635 -6.01125 -2.5269 0.000289297 4
8.4297 -6.97365 -2.52578 0.000218599 4
10.7491 -8.8924 -2.71171 0.000116699 1
12.2548 -10.1381 -2.51906 5.49042e-05 4
7.29731 -5.99408 -2.53038 0.000384789 4
8.44196 -6.9343 -2.52219 0.000244035 4
10.7848 -8.85874 -2.71291 0.00011671 1
12.2926 -10.0973 -2.51957 5.10163e-05 4
7.30361 -5.95668 -2.52534 0.000347199 4
8.48019 -6.91627 -2.52638 0.000252527 4
10.7945 -8.80377 -2.7076 0.000116721 1
12.3226 -10.05 -2.51851 4.7517e-05 4
7.33025 -5.93592 -2.52737 0.000381943 4
8.50259 -6.88526 -2.52588 0.000220342 4
10.8312 -8.77097 -2.70912 0.000116731 1
12.3492 -10.0002 -2.51679 4.75225e-05 4
7.35149 -5.91075 -2.52756 0.000390647 4
8.51201 -6.84383 -2.52157 0.000194932 4
10.8762 -8.7447 -2.71271 0.000116742 1
12.4 -9.96986 -2.52005 4.86968e-05 4
7.36666 -5.88073 -2.52571 0.000445654 4
8.55448 -6.82895 -2.52707 0.000166128 4
10.9032 -8.70392 -2.71185 0.000116753 1
12.4323 -9.92461 -2.51956 5.10402e-05 4
7.39347 -5.86 -2.52787 0.000445681 4
8.57978 -6.80025 -2.52752 0.000200046 4
10.9188 -8.65411 -2.70819 0.000116763 1
12.4523 -9.86957 -2.51661 5.26047e-05 4
7.41197 -5.83265 -2.52722 0.000390718 4
8.59368 -6.76256 -2.52464 0.000222101 4
10.9535 -8.61953 -2.70932 0.000264614 4
12.4866 -9.82602 -2.5166 5.06622e-05 4
7.44587 -5.81735 -2.53184 0.00019621 4
8.61088 -6.72756 -2.52278 0.000213639 4
10.9046 -8.51958 -2.68985 0.000235388 4
12.5254 -9.78593 -2.51752 5.26168e-05 4
7.48049 -5.80247 -2.53671 0.000698714 4
8.65061 -6.7101 -2.52754 0.000145828 4
10.8739 -8.43467 -2.67501 0.000264312 4
12.56 -9.74257 -2.51763 4.75554e-05 4
7.50643 -5.78073 -2.53865 0.000974065 4
8.66581 -6.67357 -2.52516 0.000223844 4
10.8369 -8.34554 -2.65873 0.000270732 4
12.5873 -9.6935 -2.51629 5.37983e-05 4
7.52852 -5.75599 -2.53931 0.000655151 4
8.69666 -6.6491 -2.52737 0.000228948 4
10.7983 -8.25592 -2.64217 0.000277245 4
12.619 -9.64797 -2.51589 4.75662e-05 4
7.58193 -5.755 -2.55053 0.000813856 4
8.69952 -6.6033 -2.52149 0.000200132 4
10.7728 -8.17704 -2.62894 0.000159537 4
12.6727 -9.61913 -2.51989 4.99112e-05 4
7.59524 -5.72343 -2.54827 0.000635973 4
8.72565 -6.57525 -2.52239 0.00022898 4
10.7451 -8.09703 -2.61526 0.000318123 4
12.6936 -9.5653 -2.51738 4.91369e-05 4
7.63577 -5.71228 -2.55516 0.00067828 4
8.76508 -6.55712 -2.52716 0.000132309 4
10.7035 -8.00726 -2.59832 0.000249597 4
12.7388 -9.52983 -2.51973 5.18725e-05 4
7.67076 -5.69681 -2.5602 0.000567833 4
8.7662 -6.51035 -2.52092 0.000205263 4
10.6794 -7.93119 -2.58572 0.000306454 4
12.7578 -9.4748 -2.51694 4.83677e-05 4
7.71626 -5.68892 -2.56874 0.000640546 4
8.80917 -6.49468 -2.52674 0.000147596 4
10.6524 -7.85361 -2.57253 0.000322574 4
12.8009 -9.43764 -2.51892 4.44721e-05 4
7.74014 -5.66493 -2.5701 0.000524148 4
8.82249 -6.45709 -2.52408 0.000237527 4
10.6087 -7.76439 -2.55542 0.000243946 4
7.78116 -5.65334 -2.57715 0.000566245 4
8.83918 -6.42204 -2.52243 0.000240937 4
10.5898 -7.69396 -2.54439 0.000294578 4
13.4252 -9.75394 -2.62829 4.19154e-05 4
7.8152 -5.6365 -2.58189 0.00108262 4
8.87194 -6.39864 -2.52538 0.000196835 4
10.5618 -7.61742 -2.53126 0.000296295 4
13.4509 -9.70111 -2.6267 6.52466e-05 4
7.8537 -5.6227 -2.58811 0.000619679 4
8.89278 -6.36661 -2.52498 0.00021891 4
10.548 -7.55166 -2.52162 0.000122339 4
13.4836 -9.65332 -2.62648 5.68013e-05 4
7.87546 -5.5968 -2.58882 0.000746364 4
8.89912 -6.32428 -2.52049 0.00021553 4
10.5704 -7.51196 -2.52067 0.000116144 4
13.5241 -9.61105 -2.62781 4.59871e-05 4
7.90503 -5.57638 -2.59213 0.000860567 4
8.93208 -6.30089 -2.52358 0.00015784 4
10.6041 -7.48038 -2.52248 0.00012236 4
7.93471 -5.55595 -2.59549 0.00102283 4
8.9512 -6.2677 -2.52279 0.000257993 4
10.6214 -7.43718 -2.5204 0.000113503 4
13.6028 -9.52475 -2.63012 3.72036e-05 4
7.98154 -5.54732 -2.60446 0.000779653 4
8.98687 -6.24604 -2.52668 0.000213877 4
10.6435 -7.3974 -2.51949 0.00010287 4
13.6157 -9.46313 -2.62621 0.000153343 4
8.0275 -5.53781 -2.61313 0.000694023 4
8.99083 -6.20236 -2.52169 0.000217286 4
10.668 -7.35934 -2.5192 0.000122391 4
13.5997 -9.38179 -2.61679 0.000141958 4
8.05155 -5.51301 -2.61468 0.000741168 4
9.00797 -6.16789 -2.52045 0.000285207 4
10.6928 -7.3215 -2.51901 0.000127722 4
13.5707 -9.29208 -2.60497 0.000159234 4
8.08357 -5.49359 -2.61883 0.000758035 4
9.03671 -6.14134 -2.52247 0.00021392 4
10.734 -7.29482 -2.5227 8.95904e-05 4
13.5265 -9.19262 -2.5903 0.000174611 4
8.10947 -5.46991 -2.62102 0.000666684 4
9.07185 -6.11904 -2.5263 0.000183372 4
10.7619 -7.25902 -2.5233 9.1372e-05 4
13.5 -9.1059 -2.57913 4.91972e-05 4
8.15946 -5.46228 -2.631 0.000827419 4
9.07335 -6.07408 -2.5208 0.000264888 4
10.781 -7.21723 -2.52184 6.91999e-05 4
13.4828 -9.02595 -2.5698 0.000208138 4
8.20178 -5.44925 -2.6385 0.000682294 4
9.09808 -6.04475 -2.5218 0.000249622 4
10.8056 -7.1792 -2.52171 0.000113568 4
13.458 -8.94148 -2.55911 0.000147846 4
8.20623 -5.41102 -2.63384 0.000205399 4
9.11476 -6.01008 -2.52059 0.000241147 4
10.8347 -7.14414 -2.52267 0.000130436 4
13.4466 -8.86637 -2.55103 0.000145209 4
8.23886 -5.39136 -2.63825 0.00028244 4
9.14287 -5.98293 -2.52257 0.000239465 4
10.8523 -7.10155 -2.52099 0.000135771 4
13.4009 -8.76929 -2.53655 0.000181737 4
8.25321 -5.3597 -2.63684 0.000279887 4
9.17588 -5.95889 -2.52593 0.000256465 4
10.8694 -7.05867 -2.51922 6.92223e-05 4
13.3795 -8.68877 -2.52675 0.00017809 4
8.27922 -5.33559 -2.63918 0.000238816 4
9.19395 -5.9251 -2.52519 0.000249687 4
10.8892 -7.01759 -2.51811 0.00013313 4
13.3532 -8.60554 -2.51608 0.00017704 4
8.29423 -5.30438 -2.63805 0.000269646 4
9.20978 -5.8899 -2.52388 0.000270087 4
10.9186 -6.98275 -2.51927 0.000136691 4
13.3798 -8.55672 -2.51545 5.0035e-05 4
8.31679 -5.278 -2.63935 0.000367251 4
9.22974 -5.85737 -2.52373 0.000188563 4
10.9507 -6.94949 -2.52105 0.000124275 4
13.4081 -8.50905 -2.51518 5.04311e-05 4
8.32051 -5.23971 -2.63471 0.000267106 4
9.24159 -5.81974 -2.5214 0.00027182 4
10.9591 -6.9013 -2.51743 0.000118958 4
13.4552 -8.4732 -2.51845 4.10528e-05 4
8.34283 -5.21318 -2.636 0.000249141 4
9.27307 -5.79446 -2.52445 0.00025145 4
10.9971 -6.87176 -2.52064 0.000112753 4
14.295 -8.93252 -2.66979 7.62126e-05 4
8.37269 -5.19129 -2.63969 0.000251723 4
9.28621 -5.7577 -2.52254 0.00016821 4
11.0095 -6.8262 -2.51801 0.000134959 4
14.2837 -8.85625 -2.66188 7.41546e-05 4
8.37996 -5.15539 -2.6363 0.00010275 4
9.30087 -5.72194 -2.52108 0.000246384 4
11.0415 -6.79275 -2.51987 0.000127865 4
8.4046 -5.13019 -2.6384 0.000328816 4
9.33844 -5.70021 -2.52586 0.000248099 4
11.0723 -6.75853 -2.5215 0.000117219 4
14.2899 -8.72257 -2.65162 4.12839e-05 4
8.42353 -5.10147 -2.63873 0.000218366 4
9.34926 -5.66211 -2.52342 0.000214126 4
11.0905 -6.71663 -2.5203 0.000126997 4
14.3075 -8.66491 -2.64926 6.82727e-05 4
8.4358 -5.06874 -2.63702 0.000382803 4
9.36771 -5.62869 -2.52309 0.000198844 4
11.1071 -6.67379 -2.51875 9.41448e-05 4
14.3149 -8.60128 -2.64507 7.05207e-05 4
8.4629 -5.0449 -2.63997 0.00053441 4
9.38061 -5.59196 -2.52129 0.000197156 4
11.1277 -6.63341 -2.51816 0.000115469 4
14.3153 -8.53366 -2.63962 7.84415e-05 4
8.46459 -5.00595 -2.63503 0.00034944 4
9.39768 -5.55778 -2.52065 0.000202268 4
11.1504 -6.59436 -2.51809 9.23826e-05 4
14.3161 -8.46654 -2.6343 5.97429e-05 4
8.49826 -4.9859 -2.64008 0.000611552 4
9.42495 -5.52959 -2.52277 0.000237976 4
11.1775 -6.5578 -2.51902 9.50546e-05 4
14.3195 -8.40118 -2.6295 6.71168e-05 4
8.49823 -4.94609 -2.63469 0.000256968 4
9.44765 -5.49867 -2.52369 0.000192093 4
11.1991 -6.51804 -2.51874 0.000105723 4
8.15246 -4.70683 -2.52238 0.000171147 4
9.45605 -5.45946 -2.52083 0.000187004 4
11.2291 -6.48315 -2.52039 9.24034e-05 4
14.3546 -8.28761 -2.62526 6.37493e-05 4
8.18349 -4.68673 -2.5269 0.000351013 4
9.47906 -5.42871 -2.52189 0.000255021 4
11.2366 -6.43528 -2.51702 0.00012351 4
14.3862 -8.23907 -2.62577 6.17208e-05 4
8.18081 -4.64734 -2.52105 0.000336525 4
9.48894 -5.39047 -2.5195 0.000226132 4
11.2782 -6.4069 -2.5213 9.59716e-05 4
14.4153 -8.18901 -2.62584 6.88491e-05 4
8.20068 -4.62085 -2.52219 0.00033074 4
9.52357 -5.36626 -2.52371 0.000205742 4
11.2813 -6.3567 -2.51702 0.000111975 4
14.4584 -8.14691 -2.62851 6.17328e-05 4
8.22832 -4.59865 -2.52574 0.00038008 4
9.54588 -5.33502 -2.52467 0.000204053 4
11.3116 -6.32183 -2.51884 0.000135091 4
14.4826 -8.09403 -2.62774 6.58094e-05 4
8.25329 -4.57487 -2.52849 0.000333674 4
9.55831 -5.29826 -2.52305 0.000227873 4
11.3448 -6.28855 -2.52134 0.000118213 4
8.25035 -4.53567 -2.52272 0.000493282 4
9.58648 -5.27022 -2.52562 0.000251696 4
11.3509 -6.24023 -2.51784 0.000131555 4
8.28179 -4.51538 -2.5275 0.00102832 4
9.60377 -5.23615 -2.52534 0.000154768 4
11.3759 -6.20235 -2.51856 0.000116452 4
8.33457 -4.50649 -2.53879 0.000668189 4
9.62302 -5.20315 -2.52561 0.000188794 4
11.4018 -6.16495 -2.51952 0.000103126 4
8.36857 -4.48719 -2.54436 0.00102073 4
9.61748 -5.15685 -2.51942 0.000251739 4
11.4133 -6.11976 -2.51732 0.000132473 4
8.38957 -4.46081 -2.54599 0.000935776 4
9.6363 -5.12371 -2.51965 0.000161599 4
11.4486 -6.08734 -2.5204 0.000119145 4
14.6431 -7.78589 -2.62671 4.75182e-05 4
8.42519 -4.4421 -2.55208 0.0010569 4
9.67536 -5.10124 -2.52519 0.000221148 4
11.4677 -6.04623 -2.51994 0.000113818 4
8.47958 -4.43302 -2.56386 0.00110387 4
9.67182 -5.05631 -2.51964 0.000267094 4
11.4863 -6.00491 -2.51942 0.000107601 4
8.52329 -4.41806 -2.57239 0.00109211 4
9.71018 -5.03328 -2.52504 0.000205861 4
11.5126 -5.96755 -2.52059 0.000109387 4
8.53907 -4.38849 -2.57251 0.000935331 4
9.72206 -4.99646 -2.52358 0.000236498 4
12.0389 -6.18717 -2.63108 0.000101968 4
8.59426 -4.37899 -2.58452 0.000685905 4
9.729 -4.95718 -2.52088 0.000210989 4
12.0548 -6.14222 -2.62985 0.000105868 4
8.6398 -4.36428 -2.59362 0.000841116 4
9.75685 -4.92854 -2.52362 0.00023142 4
12.0713 -6.09766 -2.62879 5.683e-05 4
8.66564 -4.33943 -2.59681 0.000844591 4
9.78061 -4.89777 -2.52533 0.000442784 4
12.1114 -6.06496 -2.63291 0.000130017 4
8.69732 -4.31739 -2.60178 0.000876454 4
9.81762 -4.87351 -2.53047 0.000352986 4
12.1141 -6.01352 -2.62892 3.03654e-05 4
8.7394 -4.30032 -2.60986 0.000666769 4
9.86119 -4.85231 -2.53732 0.000352395 4
12.1537 -5.98034 -2.63294 0.000146387 4
8.78036 -4.28247 -2.61761 0.000783717 4
9.8997 -4.82841 -2.54288 0.000462088 4
12.1747 -5.938 -2.633 5.8403e-05 4
8.82766 -4.26746 -2.62725 0.000948687 4
9.95535 -4.8126 -2.55284 0.000405547 4
12.1934 -5.89451 -2.63257 0.000108248 4
8.86868 -4.24916 -2.63503 0.000748324 4
10.0039 -4.79306 -2.56098 0.000484945 4
12.1972 -5.84392 -2.62898 0.000344444 4
8.90803 -4.22985 -2.64232 0.000946512 4
10.0358 -4.76535 -2.56488 0.000419274 4
12.179 -5.78301 -2.62068 0.000367974 4
8.94138 -4.2075 -2.64784 0.000990304 4
10.0714 -4.73923 -2.56973 0.000443832 4
12.1737 -5.72851 -2.61523 0.000375455 4
9.00169 -4.19756 -2.66134 0.000737267 4
10.1266 -4.72212 -2.5796 0.000380005 4
12.1509 -5.66605 -2.60606 0.000357869 4
9.03092 -4.17287 -2.66566 0.000767771 4
10.1731 -4.70063 -2.58725 0.000359335 4
12.1196 -5.60003 -2.59514 0.000147222 4
9.08155 -4.15786 -2.67631 0.000736501 4
10.2209 -4.67951 -2.59524 0.000348588 4
12.1146 -5.54648 -2.5899 0.000266416 4
9.11302 -4.13385 -2.68131 0.000942896 4
10.25 -4.64961 -2.59849 0.000472602 4
12.1036 -5.49044 -2.58345 0.000246279 4
9.1702 -4.12125 -2.69389 0.000526267 4
10.2931 -4.6259 -2.6053 0.000389446 4
12.062 -5.42088 -2.57051 0.000265777 4
9.20469 -4.09819 -2.6998 0.000658972 4
10.3368 -4.60223 -2.61228 0.00041508 4
12.0523 -5.36602 -2.56443 0.00027145 4
32.5009 -14.4703 -0.620993 2.87707e-05 10
32.5082 -14.4736 0.621131 2.87712e-05 10
9.23491 -4.07308 -2.70448 0.000301923 4
10.3825 -4.57923 -2.61978 0.000412847 4
12.034 -5.30764 -2.55659 0.000235826 4
9.28181 -4.05513 -2.71405 0.00039107 1
10.4283 -4.55599 -2.62729 0.000339162 4
12.0151 -5.24926 -2.54866 0.000199166 4
9.2877 -4.01915 -2.71165 0.000391087 1
10.476 -4.53336 -2.63531 0.000165121 4
12.0036 -5.19443 -2.54236 0.000212448 4
9.29052 -3.98192 -2.7084 0.000391103 1
10.4721 -4.48834 -2.63038 0.000187647 4
11.9994 -5.14295 -2.53765 0.00026047 4
9.32091 -3.95649 -2.71322 0.00039112 1
10.5082 -4.46048 -2.63553 0.000172644 4
11.9726 -5.08207 -2.52822 0.000200648 4
9.33804 -3.92535 -2.7142 0.000391136 1
10.5125 -4.41906 -2.63272 0.000126111 4
11.942 -5.01997 -2.51805 0.000302692 4
9.34991 -3.89199 -2.71369 0.000391153 1
10.5211 -4.37952 -2.63103 0.000243227 4
11.9626 -4.97955 -2.5187 0.000135389 4
9.36629 -3.86051 -2.71451 0.000391169 1
10.5484 -4.34773 -2.63404 0.000144141 4
11.9833 -4.93914 -2.51941 0.000105111 4
9.37081 -3.82416 -2.71194 0.000391185 1
10.5562 -4.30791 -2.63222 8.70897e-05 4
11.9937 -4.89453 -2.51799 0.00010779 4
9.3902 -3.79389 -2.7137 0.000391201 1
10.5852 -4.27669 -2.6357 0.000160673 4
12.0118 -4.85308 -2.51822 0.000109578 4
9.38512 -3.75378 -2.70843 0.000391217 1
10.593 -4.23688 -2.63394 9.16033e-05 4
12.0378 -4.81478 -2.52014 0.000120276 4
9.39831 -3.72106 -2.70847 0.000391233 1
10.6034 -4.19818 -2.63287 0.000202738 4
12.7644 -5.05379 -2.66855 3.07034e-05 4
9.41335 -3.68905 -2.70907 0.000391248 1
10.6271 -4.16471 -2.63513 0.000153187 4
9.44306 -3.66272 -2.71393 0.000391264 1
10.6356 -4.12527 -2.63365 0.000208765 4
9.44032 -3.6238 -2.70949 0.000391279 1
10.1838 -3.90919 -2.51838 0.000153372 4
9.45345 -3.59103 -2.70964 0.000368811 4
10.2021 -3.87542 -2.51955 7.83939e-05 4
12.774 -4.8524 -2.65613 3.33127e-05 4
9.42862 -3.54398 -2.69896 0.000437959 4
10.2103 -3.8378 -2.51825 0.000155091 4
12.7657 -4.79831 -2.6509 3.03919e-05 4
9.38965 -3.49198 -2.6843 0.000371538 4
10.2448 -3.81 -2.52346 0.000207933 4
9.3837 -3.45253 -2.67914 0.000378189 4
10.2451 -3.76948 -2.52029 0.000204534 4
12.7711 -4.69884 -2.64514 2.88873e-05 4
9.37123 -3.41085 -2.67217 0.00049184 4
10.275 -3.73979 -2.52441 0.000594895 4
12.7878 -4.65438 -2.64522 2.8993e-05 4
9.34575 -3.36468 -2.66153 0.00036657 4
10.3085 -3.71129 -2.52944 0.000510394 4
12.7696 -4.59736 -2.63813 3.16446e-05 4
9.315 -3.31692 -2.64946 0.000456594 4
10.3626 -3.68997 -2.53955 0.000400699 4
9.30691 -3.27748 -2.64389 0.000493275 4
10.4176 -3.6686 -2.54986 0.000580474 4
12.7732 -4.49816 -2.63232 3.098e-05 4
9.29277 -3.23608 -2.63665 0.000133948 4
10.4654 -3.64443 -2.55843 0.000537443 4
9.30204 -3.20295 -2.63609 0.000185473 4
10.5258 -3.62433 -2.5701 0.000439209 4
9.32247 -3.17363 -2.63873 0.000538406 4
10.5857 -3.60366 -2.58163 0.000439898 4
12.8113 -4.36132 -2.63061 7.33587e-05 4
15.672 -5.33518 -2.62209 4.19045e-05 4
9.31703 -3.13553 -2.63407 0.000468868 4
10.6395 -3.58058 -2.59168 0.00046953 4
12.8127 -4.31196 -2.62779 9.36544e-05 4
15.6894 -5.28007 -2.6219 5.51952e-05 4
9.32766 -3.1029 -2.634 0.000463732 4
10.6926 -3.55696 -2.60159 0.000576919 4
12.8371 -4.27035 -2.62973 0.000150635 4
9.34179 -3.07142 -2.63495 0.000530735 4
10.7386 -3.53067 -2.60976 0.000426812 4
12.8467 -4.2238 -2.62866 0.000137374 4
9.36524 -3.04295 -2.63855 0.000476647 4
10.7731 -3.50039 -2.61516 0.000433981 4
12.8539 -4.17648 -2.62712 0.00014909 4
9.35476 -3.00349 -2.63263 0.000523042 4
10.8419 -3.48097 -2.62891 0.000382678 4
12.8862 -4.1373 -2.63076 0.000156123 4
9.37924 -2.97527 -2.63658 0.000435454 4
10.9039 -3.45891 -2.64098 0.000453889 4
12.8859 -4.08766 -2.62778 0.000140518 4
9.39661 -2.94472 -2.63855 0.000404548 4
10.9331 -3.42622 -2.64514 0.000502811 4
12.9074 -4.04494 -2.62926 0.000144429 4
9.40463 -2.91122 -2.63794 6.18439e-05 4
10.9947 -3.40342 -2.65715 0.00026034 4
12.9157 -3.99806 -2.62808 3.66946e-05 4
9.41006 -2.87695 -2.63662 0.000123692 4
11.044 -3.37649 -2.66621 0.000342506 4
12.9417 -3.95669 -2.63056 3.43541e-05 4
15.8516 -4.84633 -2.62537 3.27257e-05 4
11.1033 -3.35228 -2.67768 0.000412413 4
9.43606 -2.81301 -2.63834 0.00022163 4
11.1791 -3.33262 -2.69313 0.000362215 4
9.44374 -2.77944 -2.63776 8.76239e-05 4
11.2227 -3.30303 -2.70085 0.000359189 4
12.9683 -3.81679 -2.6277 4.84151e-05 4
9.45599 -2.74722 -2.63849 0.000113399 4
11.2643 -3.2726 -2.70811 0.000227661 1
9.45908 -2.71235 -2.63669 0.000206187 4
11.2706 -3.23179 -2.70688 0.00022767 1
9.4631 -2.67779 -2.63519 0.000185574 4
11.2773 -3.19116 -2.7058 0.000227679 1
13.0038 -3.6797 -2.62693 0.000169477 4
9.4784 -2.64642 -2.63687 0.00012372 4
11.3002 -3.15508 -2.70864 0.000227687 1
13.022 -3.63582 -2.62804 0.000153864 4
9.48693 -2.61314 -2.63668 0.000216517 4
11.3067 -3.11438 -2.70757 0.000227696 1
13.0432 -3.59271 -2.62977 0.000156215 4
9.49027 -2.57845 -2.6351 7.47523e-05 4
11.319 -3.07531 -2.70793 0.000227704 1
13.0403 -3.54298 -2.62667 0.000153879 4
15.988 -4.34383 -2.62404 4.87748e-05 4
9.50828 -2.54774 -2.63761 6.18659e-05 4
11.3219 -3.0337 -2.70608 0.000227713 1
13.0518 -3.49721 -2.6265 2.89024e-05 4
16.0088 -4.28956 -2.62499 2.86527e-05 4
9.5111 -2.51294 -2.63594 0.000126313 4
11.3407 -2.99633 -2.70804 0.000227721 1
13.0797 -3.45582 -2.62969 4.76521e-05 4
9.51373 -2.47814 -2.63426 9.28045e-05 4
11.363 -2.95984 -2.71089 0.00022773 1
13.0813 -3.40743 -2.6276 3.5936e-05 4
16.04 -4.17812 -2.62527 3.37731e-05 4
9.52229 -2.44491 -2.63425 5.67156e-05 4
11.352 -2.91469 -2.70582 0.000227738 1
13.0901 -3.36097 -2.62699 4.68751e-05 4
9.53889 -2.41371 -2.6365 3.86709e-05 4
11.3805 -2.87971 -2.7102 0.000227746 1
9.5318 -2.37654 -2.63223 0.000154688 4
11.3565 -2.83149 -2.70212 0.000222977 4
13.1242 -3.27223 -2.62918 4.21912e-05 4
16.0675 -4.00608 -2.62275 7.23347e-05 4
9.55482 -2.34689 -2.63631 0.000177896 4
11.3012 -2.77583 -2.68663 0.000294555 4
16.0852 -3.9509 -2.62336 6.55143e-05 4
11.7534 -2.88692 -1.05886 0.00142274 9
9.54338 -2.30879 -2.63091 0.000234624 4
11.269 -2.72626 -2.67671 0.000283476 4
13.1371 -3.17819 -2.62725 6.56365e-05 4
16.1085 -3.89705 -2.62493 6.17643e-05 4
11.7467 -2.84184 -1.05735 0.00143665 9
9.56231 -2.27806 -2.63392 0.000113448 4
11.2302 -2.67543 -2.66527 0.000276253 4
11.7758 -2.80538 -2.35303 0.000119413 9
11.7497 -2.79916 -1.91304 0.000127951 9
11.7523 -2.79978 -1.48338 0.000136158 9
11.7154 -2.791 -1.05365 0.00181952 9
9.57052 -2.24475 -2.63401 0.000283627 4
11.1847 -2.62335 -2.65227 0.00026252 4
11.7572 -2.75763 -2.34739 0.000168081 9
11.7461 -2.75502 -1.91088 0.000100026 9
11.7482 -2.75551 -1.48164 6.80043e-05 9
11.7087 -2.74626 -1.05218 0.00143067 9
9.58877 -2.21374 -2.63689 9.79831e-05 4
11.1532 -2.57493 -2.64266 0.000293027 4
11.683 -2.69724 -1.04902 0.00146142 9
9.59483 -2.17989 -2.63645 9.54072e-05 4
11.1143 -2.52511 -2.63133 0.000306987 4
9.58926 -2.14345 -2.63284 7.73594e-05 4
11.1313 -2.48813 -2.63327 4.81438e-05 4
9.60765 -2.11238 -2.63585 0.000152144 4
11.1352 -2.44824 -2.63217 6.61999e-05 4
16.1661 -3.55435 -2.62162 3.44762e-05 4
9.59724 -2.075 -2.63099 0.000363609 4
11.1424 -2.40908 -2.63187 0.000293395 4
13.2238 -2.85908 -2.62983 5.31496e-05 4
9.61602 -2.04395 -2.63417 0.000103154 4
11.1427 -2.36846 -2.62998 0.000288891 4
9.63485 -2.01283 -2.63738 0.000211471 4
11.1491 -2.32916 -2.62953 0.000318994 4
9.62865 -1.97648 -2.63378 0.000123791 4
11.1742 -2.29373 -2.63356 0.000261824 4
9.62384 -1.94051 -2.6306 0.000484862 4
11.1596 -2.25017 -2.62825 0.000299451 4
13.2417 -2.67 -2.62573 6.25386e-05 4
9.63692 -1.90816 -2.63234 0.00017538 4
11.1878 -2.21525 -2.63306 0.000260335 4
13.2692 -2.62738 -2.62935 3.12705e-05 4
9.65387 -1.87652 -2.63516 8.76923e-05 4
11.1819 -2.17355 -2.62987 0.000285925 4
13.2807 -2.58151 -2.62982 5.78525e-05 4
9.64599 -1.84007 -2.63124 0.000502953 4
11.1834 -2.13335 -2.62845 0.000276904 4
9.67431 -1.8105 -2.63723 0.000456538 4
11.2066 -2.09725 -2.63216 0.000266378 4
13.275 -2.48435 -2.6252 0.000137605 4
16.2813 -3.04697 -2.62348 3.7565e-05 4
9.67118 -1.77499 -2.63467 0.000492661 4
11.2059 -2.05666 -2.63029 0.000302506 4
13.3086 -2.44258 -2.63014 0.000123536 4
9.6815 -1.74198 -2.63581 0.000477196 4
11.2191 -2.01863 -2.63172 0.000112879 4
13.2983 -2.39275 -2.62644 0.000155599 4
9.67623 -1.70618 -2.63274 0.000510741 4
11.2109 -1.97679 -2.62818 0.000108366 4
13.3142 -2.34766 -2.62795 0.000164206 4
9.69224 -1.67414 -2.63548 0.000461741 4
11.2436 -1.94211 -2.63423 5.26796e-05 4
13.33 -2.3025 -2.62947 0.00015952 4
16.3174 -2.81851 -2.62269 3.5181e-05 4
11.2418 -1.9014 -2.63223 4.06397e-05 4
16.3261 -2.76135 -2.62253 3.10836e-05 4
9.71207 -1.60782 -2.63776 0.00047724 4
11.2564 -1.86348 -2.63411 9.93441e-05 4
9.71706 -1.57382 -2.63761 0.000147045 4
11.2561 -1.82309 -2.63254 7.82732e-05 4
13.3589 -2.16367 -2.63054 3.59737e-05 4
9.69602 -1.5357 -2.63043 0.000466942 4
11.2649 -1.78419 -2.63313 5.118e-05 4
13.3494 -2.11434 -2.62721 3.98852e-05 4
9.70091 -1.50178 -2.63031 0.00051855 4
13.3725 -2.07017 -2.63031 4.84895e-05 4
9.71357 -1.46904 -2.63234 0.00053662 4
11.2834 -1.70646 -2.63461 8.12901e-05 4
9.73261 -1.43719 -2.63612 0.000448913 4
11.285 -1.66642 -2.63359 0.000106884 4
13.3692 -1.97419 -2.62689 3.12855e-05 4
9.74035 -1.40361 -2.63688 0.000456662 4
11.2854 -1.62625 -2.63235 8.12942e-05 4
13.3826 -1.92846 -2.62818 4.14546e-05 4
16.4017 -2.36352 -2.6246 7.72192e-05 4
9.73503 -1.36817 -2.63413 0.000448932 4
11.2763 -1.58478 -2.62891 0.000111406 4
16.3997 -2.30483 -2.62298 7.00468e-05 4
9.75032 -1.33563 -2.63699 0.000523764 4
11.284 -1.54572 -2.62946 6.02209e-05 4
16.4144 -2.24849 -2.62406 6.08235e-05 4
9.73375 -1.29876 -2.63126 0.000490232 4
11.2963 -1.50725 -2.63106 7.97946e-05 4
13.4035 -1.78841 -2.62846 5.86675e-05 4
9.74008 -1.26502 -2.63177 0.000521205 4
11.3044 -1.46818 -2.63174 7.52797e-05 4
13.4104 -1.74171 -2.62861 4.06773e-05 4
16.4166 -2.13215 -2.62198 4.33999e-05 4
9.75203 -1.23197 -2.63382 0.000536697 4
11.3103 -1.42882 -2.63193 9.63603e-05 4
9.75308 -1.19753 -2.63296 9.54719e-05 4
11.3016 -1.38766 -2.62877 6.02266e-05 4
13.4296 -1.64895 -2.63006 5.08495e-05 4
9.75265 -1.16293 -2.63173 0.000167724 4
11.3203 -1.34986 -2.63201 9.33533e-05 4
13.4087 -1.59889 -2.62484 3.91161e-05 4
9.75754 -1.12899 -2.63197 8.51538e-05 4
11.3226 -1.31007 -2.63147 4.81834e-05 4
9.76031 -1.0948 -2.63167 0.000131604 4
11.3306 -1.27093 -2.63228 4.5173e-05 4
9.75858 -1.06012 -2.63019 0.000162572 4
11.3387 -1.23177 -2.63314 5.42087e-05 4
11.3287 -1.1907 -2.62985 7.83032e-05 4
13.4517 -1.41383 -2.62914 2.8949e-05 4
9.77166 -0.99257 -2.63178 0.000165159 4
11.3387 -1.15174 -2.63121 7.5293e-05 4
13.4388 -1.36507 -2.62568 0.000108757 4
9.77057 -0.958014 -2.63057 0.000190968 4
11.3506 -1.11294 -2.63306 3.46355e-05 4
13.4543 -1.31921 -2.62779 3.91223e-05 4
9.78378 -0.92484 -2.63324 0.000175487 4
11.343 -1.07223 -2.63042 0.000111438 4
9.77673 -0.889753 -2.63049 0.000252912 4
11.3578 -1.03364 -2.633 5.12024e-05 4
21.8022 -1.98416 -2.68804 9.78968e-05 4
9.79711 -0.857138 -2.63515 0.000276143 4
13.4582 -1.17744 -2.62599 5.32103e-05 4
21.7749 -1.90507 -2.68384 7.69079e-05 4
9.78501 -0.821672 -2.63111 0.000141945 4
11.3497 -0.95306 -2.6295 9.63847e-05 4
13.4763 -1.13164 -2.62875 5.16465e-05 4
9.8 -0.788491 -2.63439 0.0001213 4
11.3663 -0.914512 -2.63259 6.47597e-05 4
21.7334 -1.74863 -2.67715 7.59188e-05 4
9.80757 -0.754653 -2.6357 3.87134e-05 4
11.3506 -0.87338 -2.62823 8.43397e-05 4
16.5068 -1.27013 -2.62214 3.35065e-05 4
21.6972 -1.66951 -2.67195 8.26114e-05 4
9.79425 -0.719246 -2.63143 3.35522e-05 4
11.3721 -0.835118 -2.63253 4.66889e-05 4
13.4818 -0.990042 -2.62765 5.24326e-05 4
16.5178 -1.21299 -2.62321 6.39376e-05 4
21.6641 -1.59092 -2.66718 5.25469e-05 4
9.80488 -0.685625 -2.63362 0.000141954 4
11.356 -0.794087 -2.62813 9.18733e-05 4
13.4816 -0.942724 -2.62695 2.97385e-05 4
16.5154 -1.15487 -2.62217 6.08621e-05 4
21.6286 -1.51242 -2.66214 7.90858e-05 4
9.79925 -0.650866 -2.63149 4.38772e-05 4
11.3713 -0.755281 -2.63105 0.000121998 4
13.4813 -0.895429 -2.62628 3.99131e-05 4
16.512 -1.09673 -2.62101 6.63347e-05 4
21.5975 -1.43451 -2.65769 8.8007e-05 4
9.79758 -0.616412 -2.63044 6.19451e-05 4
11.3845 -0.716251 -2.63351 0.000146099 4
16.5297 -1.03996 -2.62323 6.97559e-05 4
21.5888 -1.35825 -2.65602 7.19171e-05 4
9.80407 -0.582469 -2.63163 0.000108405 4
11.3886 -0.676605 -2.63389 0.000147607 4
13.4952 -0.801763 -2.62783 6.10461e-05 4
21.5601 -1.28091 -2.65192 7.59745e-05 4
9.80853 -0.548384 -2.63229 5.16224e-05 4
11.3691 -0.635632 -2.62886 5.12115e-05 4
16.5304 -0.924194 -2.62224 3.35119e-05 4
21.5298 -1.20371 -2.64765 8.92962e-05 4
9.81938 -0.514614 -2.63471 0.000191005 4
11.3937 -0.597119 -2.63404 5.5731e-05 4
13.4834 -0.706639 -2.62451 3.75683e-05 4
9.80994 -0.479787 -2.63171 0.000154871 4
11.3959 -0.557355 -2.6341 9.64011e-05 4
13.491 -0.65982 -2.62551 3.28729e-05 4
21.4734 -1.05023 -2.63976 6.61597e-05 4
9.81088 -0.445511 -2.63153 0.000131642 4
11.388 -0.517128 -2.63184 6.02516e-05 4
13.4972 -0.612905 -2.62629 4.4614e-05 4
21.4361 -0.973411 -2.63474 0.000112994 4
9.81322 -0.411297 -2.63175 0.000129062 4
11.394 -0.477552 -2.63283 3.76578e-05 4
13.4933 -0.565538 -2.62514 6.18346e-05 4
21.4082 -0.897273 -2.63091 6.05485e-05 4
9.83495 -0.377821 -2.63721 8.2601e-05 4
11.3979 -0.437862 -2.63334 0.000159671 4
13.5165 -0.519251 -2.62927 3.28747e-05 4
21.3817 -0.821402 -2.62727 9.03638e-05 4
9.81018 -0.34258 -2.63023 8.77645e-05 4
11.3856 -0.397593 -2.63016 5.87478e-05 4
21.3621 -0.745983 -2.62454 9.5436e-05 4
9.83595 -0.309107 -2.63684 8.51842e-05 4
11.3939 -0.358068 -2.63179 9.94208e-05 4
13.5025 -0.424334 -2.62592 4.69654e-05 4
21.3132 -0.669796 -2.61823 0.000110997 4
9.83838 -0.274813 -2.63721 0.000144557 4
11.402 -0.318489 -2.63338 0.000198844 4
21.2983 -0.594919 -2.61612 8.10069e-05 4
9.83843 -0.240448 -2.63699 8.77675e-05 4
11.3915 -0.278405 -2.63073 4.66989e-05 4
13.5106 -0.330194 -2.62697 5.4012e-05 4
21.257 -0.519514 -2.61081 0.000101947 4
9.82235 -0.205751 -2.63247 0.000165211 4
11.3848 -0.23848 -2.62897 6.77895e-05 4
13.5138 -0.283077 -2.6274 2.89634e-05 4
21.239 -0.444897 -2.60839 0.00012316 4
9.82903 -0.171568 -2.63408 0.000147143 4
11.4056 -0.199087 -2.63359 4.97129e-05 4
21.2215 -0.370426 -2.60607 0.000101021 4
9.81771 -0.137091 -2.63091 9.03517e-05 4
11.3827 -0.158944 -2.62816 4.8207e-05 4
13.5079 -0.18862 -2.62593 6.49739e-05 4
21.1796 -0.295745 -2.60078 0.00011016 4
9.84025 -0.103051 -2.63683 0.000415622 4
11.399 -0.119375 -2.6318 6.62855e-05 4
13.5014 -0.141393 -2.62456 3.83586e-05 4
21.1711 -0.221713 -2.59962 8.91682e-05 4
9.8166 -0.0685344 -2.63041 0.000147147 4
11.4018 -0.0796016 -2.63238 6.47797e-05 4
13.5098 -0.0943186 -2.62611 9.55064e-05 4
21.1223 -0.147465 -2.59356 0.000106912 4
9.81586 -0.0342642 -2.63017 0.000144567 4
11.4011 -0.0397978 -2.63217 5.87543e-05 4
13.5247 -0.0472107 -2.62895 4.07082e-05 4
21.0988 -0.0736496 -2.59062 4.86925e-05 4
9.83331 0 -2.63483 0.000211689 4
11.3981 0 -2.63145 7.68333e-05 4
13.5215 0 -2.62831 0.00011508 4
21.076 0 -2.58781 5.45325e-05 4
9.8321 0.0343186 -2.63452 7.22846e-05 4
11.3934 0.0397683 -2.63039 9.49128e-05 4
13.5186 0.0471861 -2.62776 6.18467e-05 4
21.0347 0.0734208 -2.58275 8.90697e-05 4
9.8244 0.0685866 -2.6325 0.000121336 4
11.3853 0.0794838 -2.62857 6.62889e-05 4
21.0203 0.146748 -2.58103 9.20209e-05 4
9.81917 0.102828 -2.63118 0.000206531 4
11.3876 0.119253 -2.62918 7.08093e-05 4
13.5216 0.141601 -2.62848 2.97498e-05 4
21.0013 0.21993 -2.57877 8.05076e-05 4
9.82096 0.137134 -2.63178 0.000134246 4
11.3836 0.158953 -2.62836 7.23165e-05 4
20.9579 0.292644 -2.57356 0.000117442 4
9.81366 0.171297 -2.62996 0.000193625 4
11.388 0.198778 -2.62954 9.34096e-05 4
20.9445 0.365586 -2.57206 0.000112441 4
9.83388 0.20599 -2.63556 0.000131666 4
11.3887 0.238559 -2.62987 4.97184e-05 4
20.8969 0.437725 -2.56638 9.67144e-05 4
9.83406 0.240339 -2.63582 0.000281406 4
13.5024 0.32999 -2.62538 3.20998e-05 4
20.8716 0.51009 -2.56348 8.65629e-05 4
9.83151 0.274619 -2.63537 0.000141995 4
13.5106 0.377384 -2.62721 2.89683e-05 4
20.8512 0.582426 -2.5612 0.000109452 4
9.80939 0.30827 -2.62972 0.000136832 4
11.3954 0.358113 -2.63214 5.72528e-05 4
13.5015 0.424298 -2.62572 4.07126e-05 4
20.8366 0.654811 -2.55967 0.00010007 4
9.81784 0.342845 -2.63229 0.000121342 4
11.3863 0.397615 -2.63033 3.16399e-05 4
20.8057 0.726546 -2.55617 0.000122441 4
9.81057 0.376882 -2.63067 0.000118761 4
11.3864 0.437421 -2.6307 7.53336e-05 4
13.5169 0.519266 -2.62936 4.77598e-05 4
20.7649 0.797703 -2.55149 0.000103729 4
9.82369 0.411733 -2.63456 0.00014458 4
11.3724 0.476643 -2.62783 0.000102454 4
13.4906 0.565421 -2.62461 7.04658e-05 4
20.7436 0.869411 -2.54923 0.000110238 4
9.83144 0.446442 -2.63704 0.000165235 4
11.3728 0.516435 -2.62832 4.67074e-05 4
20.7196 0.940869 -2.54667 0.000115955 4
9.82863 0.480699 -2.63672 0.000126508 4
11.3769 0.55642 -2.62969 0.000131083 4
13.4907 0.659805 -2.62547 4.93267e-05 4
16.5255 0.808231 -2.62051 3.93452e-05 4
20.6923 1.01202 -2.54373 9.68649e-05 4
9.81709 0.514492 -2.63409 7.48726e-05 4
11.3896 0.596903 -2.6331 5.57481e-05 4
20.6643 1.08297 -2.54074 9.30724e-05 4
9.80977 0.548451 -2.63263 0.000121346 4
13.4852 0.753939 -2.62535 3.67997e-05 4
20.6271 1.15323 -2.53664 0.000126483 4
9.80813 0.58271 -2.63271 0.000121346 4
11.3823 0.676234 -2.63245 9.04031e-05 4
20.6146 1.22473 -2.53562 9.84038e-05 4
9.81586 0.617559 -2.63535 0.000103274 4
11.363 0.714896 -2.62854 7.98564e-05 4
13.4983 0.849238 -2.62899 5.40257e-05 4
20.581 1.29485 -2.53203 0.000123418 4
9.81506 0.651914 -2.63573 0.000330476 4
11.37 0.755195 -2.63076 8.28701e-05 4
13.4812 0.89542 -2.62626 3.91492e-05 4
20.559 1.36552 -2.52989 0.000111728 4
9.79574 0.684983 -2.63117 4.38915e-05 4
11.3626 0.794551 -2.62968 6.93098e-05 4
20.5288 1.43551 -2.52677 0.000119362 4
9.79047 0.718966 -2.63041 0.000100693 4
11.3749 0.83532 -2.63318 9.94447e-05 4
20.5112 1.50625 -2.52524 0.000113733 4
9.80946 0.754796 -2.63621 0.000147166 4
11.3549 0.873709 -2.62923 4.36955e-05 4
13.4657 1.03613 -2.62521 3.13197e-05 4
20.4927 1.57682 -2.52362 0.000121432 4
9.79471 0.788063 -2.63296 6.45467e-05 4
11.3707 0.914864 -2.63362 0.000173276 4
20.4458 1.64503 -2.51854 3.31961e-05 4
9.79251 0.8223 -2.63313 7.74562e-05 4
11.3529 0.953326 -2.63024 0.000201904 4
13.4745 1.13149 -2.6284 8.06485e-05 4
20.4263 1.71525 -2.51686 0.000114486 4
9.79891 0.857293 -2.63564 0.000263351 4
13.4563 1.17727 -2.62563 6.57717e-05 4
20.4007 1.78483 -2.51446 0.000107779 4
9.79714 0.891607 -2.63598 5.68013e-05 4
11.3363 1.03168 -2.628 8.28713e-05 4
20.3646 1.85332 -2.51079 0.000103729 4
9.77066 0.923597 -2.62971 3.87282e-05 4
11.3442 1.07234 -2.63069 3.0135e-05 4
13.4488 1.27128 -2.62583 8.53468e-05 4
20.3395 1.92265 -2.50851 0.000130712 4
9.77561 0.958505 -2.63193 4.64738e-05 4
11.344 1.11229 -2.63152 0.000128074 4
20.3327 1.99364 -2.50852 0.000109266 4
9.78049 0.993464 -2.63416 0.000121348 4
11.3471 1.1526 -2.63318 7.68443e-05 4
13.4308 1.36425 -2.62412 9.39598e-05 4
20.2835 2.06032 -2.50331 9.68407e-05 4
11.3328 1.19113 -2.6308 0.00011602 4
20.2549 2.12887 -2.50069 0.000142657 4
9.76872 1.06122 -2.63292 0.000180731 4
11.3254 1.23033 -2.63006 0.000162729 4
9.76332 1.09513 -2.63248 0.000472483 4
11.3237 1.27015 -2.63067 6.47901e-05 4
13.4158 1.50482 -2.62412 3.83668e-05 4
28.2226 3.16567 3.48703 3.53196e-05 10
28.2173 3.16508 4.49721 3.44278e-05 10
28.2186 3.16522 5.51953 3.33353e-05 10
28.221 3.16549 6.55619 3.20585e-05 10
28.2188 3.16524 7.60861 3.06164e-05 10
9.74922 1.12802 -2.62972 0.000506046 4
11.326 1.31046 -2.63226 7.23237e-05 4
13.4208 1.55283 -2.62614 6.26395e-05 4
28.5817 3.30702 3.53281 3.34159e-05 10
28.5895 3.30791 4.55833 3.25675e-05 10
28.5859 3.3075 5.59361 3.15283e-05 10
28.5863 3.30755 6.6437 3.0314e-05 10
28.574 3.30613 7.70747 2.89428e-05 10
9.74784 1.16236 -2.63043 0.000518955 4
11.3078 1.34837 -2.6291 5.57494e-05 4
13.42 1.60024 -2.62706 5.01115e-05 4
28.9649 3.45386 3.58164 3.15762e-05 10
28.9555 3.45274 4.6186 3.077e-05 10
28.9411 3.45102 5.66543 2.97827e-05 10
9.75251 1.19746 -2.6328 0.000557681 4
11.3126 1.38901 -2.63133 0.000113005 4
13.4118 1.64675 -2.62656 3.36685e-05 4
29.3263 3.60081 4.67971 6.77551e-05 10
29.3289 3.60114 5.74378 6.55684e-05 10
29.3232 3.60043 6.82063 6.30141e-05 10
9.75271 1.23205 -2.634 0.00048797 4
11.3112 1.42894 -2.63215 8.28703e-05 4
29.709 3.75312 4.74285 6.38501e-05 10
29.7269 3.75538 5.82425 6.17773e-05 10
29.7159 3.75398 6.91498 5.93565e-05 10
9.75451 1.26689 -2.63567 0.000516369 4
11.3082 1.46868 -2.63264 0.000131085 4
13.4008 1.74046 -2.62673 5.71578e-05 4
16.404 2.13051 -2.61997 3.11351e-05 4
30.1166 3.91146 4.81007 6.0088e-05 10
30.1356 3.91393 5.90696 5.81256e-05 10
9.73322 1.29869 -2.63112 0.000459567 4
11.3052 1.50843 -2.63314 3.76681e-05 4
30.5517 4.07646 4.88179 5.64673e-05 10
30.5294 4.07349 5.98691 5.46118e-05 10
9.74043 1.33427 -2.63431 0.000555094 4
11.2958 1.54733 -2.63219 0.00010547 4
13.3753 1.83218 -2.62417 3.67999e-05 4
20.8737 2.85934 -2.5869 0.000114803 4
30.9741 4.24293 4.95163 5.29865e-05 10
30.9652 4.2417 6.07524 5.12344e-05 10
9.73458 1.3681 -2.63401 0.000444073 4
11.2948 1.58738 -2.63324 0.00012355 4
13.389 1.8817 -2.62813 4.54124e-05 4
20.8551 2.93099 -2.58585 6.24771e-05 4
31.4154 4.41514 5.0246 4.96441e-05 10
31.3982 4.41273 6.16317 4.7992e-05 10
9.74133 1.40375 -2.63714 0.000485381 4
11.2855 1.62626 -2.63237 4.52011e-05 4
13.3826 1.92847 -2.62819 4.14973e-05 4
16.3839 2.36095 -2.62175 5.09781e-05 4
20.8376 3.00275 -2.58497 0.00011845 4
31.8663 4.59201 5.09926 4.64383e-05 10
31.8486 4.58945 6.25468 4.48827e-05 10
9.72931 1.4367 -2.63523 0.000477633 4
11.2806 1.66578 -2.63258 5.27344e-05 4
13.376 1.9752 -2.62823 9.31727e-05 4
16.3604 2.4159 -2.61934 3.72924e-05 4
20.7956 3.07083 -2.58107 8.25189e-05 4
32.3203 4.77265 5.17454 4.33674e-05 10
32.3031 4.77011 6.34719 4.19048e-05 10
9.7051 1.46776 -2.63004 0.000537012 4
11.2633 1.70342 -2.62992 5.27341e-05 4
13.3716 2.02226 -2.62873 3.13183e-05 4
20.7701 3.14118 -2.57925 0.000107379 4
32.8088 4.96185 5.25549 4.04297e-05 10
32.7866 4.9585 6.44554 3.90568e-05 10
9.72653 1.50575 -2.63726 0.000503446 4
11.252 1.74189 -2.62866 0.000109988 4
13.3414 2.06535 -2.62419 3.60158e-05 4
20.7635 3.21436 -2.57981 8.87428e-05 4
33.2988 5.15491 5.33683 3.76228e-05 10
33.2873 5.15313 6.54746 3.63362e-05 10
9.71792 1.53917 -2.63637 0.000549916 4
11.2493 1.78171 -2.62947 0.000106974 4
13.3531 2.11492 -2.62794 4.4628e-05 4
20.7421 3.28523 -2.57856 0.000110254 4
9.71519 1.57352 -2.6371 0.000438898 4
11.2389 1.82029 -2.62851 3.31466e-05 4
20.7101 3.35431 -2.57602 8.43917e-05 4
9.70812 1.60717 -2.63669 0.000575727 4
11.2518 1.86271 -2.63303 9.79324e-05 4
20.6802 3.42358 -2.57377 8.89447e-05 4
9.67874 1.63703 -2.63024 0.000444056 4
11.2283 1.89912 -2.62907 5.8759e-05 4
20.6664 3.49546 -2.57356 0.000106372 4
9.6849 1.67287 -2.63349 0.000500851 4
11.2222 1.93841 -2.62922 5.42387e-05 4
13.3059 2.29833 -2.62471 3.83631e-05 4
20.6324 3.56383 -2.57085 9.45416e-05 4
9.67745 1.70639 -2.63307 0.000606696 4
11.2277 1.97975 -2.63211 4.51985e-05 4
20.6037 3.63298 -2.56884 8.83764e-05 4
9.68295 1.74224 -2.6362 0.000506007 4
11.2185 2.01853 -2.6316 0.000143128 4
13.3024 2.39349 -2.62725 2.97504e-05 4
20.5792 3.70278 -2.56738 4.32453e-05 4
9.66096 1.77312 -2.63188 0.000487932 4
11.1981 2.05523 -2.62846 4.51978e-05 4
9.65246 1.80641 -2.63127 0.00047502 4
11.19 2.09415 -2.62827 4.67039e-05 4
20.5193 3.84008 -2.56319 9.13689e-05 4
9.66688 1.84405 -2.63694 0.000526649 4
11.2037 2.13721 -2.63321 0.000213932 4
13.2683 2.53107 -2.62561 3.67953e-05 4
16.2638 3.10248 -2.62238 3.86555e-05 4
20.5 3.91059 -2.56248 9.30936e-05 4
9.64015 1.87385 -2.63142 0.000516318 4
11.1975 2.17658 -2.63354 0.000173253 4
13.2622 2.57792 -2.62617 2.9749e-05 4
16.253 3.15926 -2.6224 4.3444e-05 4
20.4703 3.97901 -2.56047 7.65873e-05 4
9.63597 1.90797 -2.63208 0.000480172 4
11.1711 2.21194 -2.62913 7.08072e-05 4
13.2706 2.62766 -2.62963 9.70746e-05 4
20.4515 4.0495 -2.55988 0.000100212 4
29.5699 5.85499 4.77433 4.14242e-05 10
29.5661 5.85423 5.85864 4.00741e-05 10
9.62714 1.94117 -2.6315 0.000505983 4
11.1825 2.25479 -2.63365 4.36891e-05 4
20.4087 4.11511 -2.55631 0.000110761 4
9.62109 1.97492 -2.63171 0.000511142 4
11.1589 2.2906 -2.62996 6.62862e-05 4
13.2328 2.71631 -2.62583 4.07076e-05 4
20.3909 4.18564 -2.55589 8.89975e-05 4
9.62589 2.01095 -2.63493 0.000175542 4
11.141 2.32748 -2.62764 0.000159688 4
20.374 4.25635 -2.55562 8.77603e-05 4
9.60091 2.04074 -2.63003 8.77701e-05 4
11.1498 2.36995 -2.63163 5.42329e-05 4
13.2199 2.80998 -2.6271 4.14893e-05 4
20.343 4.32403 -2.5536 9.76022e-05 4
9.59506 2.07452 -2.63039 0.000183283 4
11.1488 2.41045 -2.63337 6.02581e-05 4
20.3213 4.39361 -2.55279 0.000106747 4
29.4813 6.37408 4.77727 4.18432e-05 10
29.4537 6.36811 5.8575 4.04805e-05 10
9.60153 2.11103 -2.63417 0.000175537 4
11.1285 2.44675 -2.63057 4.97123e-05 4
13.1962 2.90137 -2.62635 3.99225e-05 4
20.3 4.46323 -2.55205 0.000103299 4
9.58132 2.14168 -2.63066 0.000116163 4
11.1137 2.48421 -2.62912 0.000111475 4
13.1879 2.94783 -2.62672 5.08808e-05 4
20.2586 4.52833 -2.54883 9.83367e-05 4
9.57898 2.17629 -2.63209 7.22783e-05 4
11.1205 2.52652 -2.6328 5.87494e-05 4
13.1689 2.99191 -2.62502 3.60074e-05 4
20.2416 4.59878 -2.54869 0.000106039 4
9.56288 2.20776 -2.62977 0.00015488 4
11.1133 2.5657 -2.63319 4.8204e-05 4
13.1621 3.03872 -2.62576 5.94895e-05 4
20.2065 4.66503 -2.5463 0.000103293 4
9.5618 2.2427 -2.63161 0.000103252 4
11.1072 2.60516 -2.63388 6.92923e-05 4
13.1462 3.0834 -2.6247 8.29707e-05 4
20.1936 4.73637 -2.54675 7.95213e-05 4
9.54955 2.27502 -2.6304 5.67881e-05 4
11.0819 2.64007 -2.63005 7.53167e-05 4
20.1711 4.80542 -2.54601 0.000107517 4
9.55919 2.31261 -2.63527 9.55062e-05 4
11.0719 2.67857 -2.62988 6.17588e-05 4
13.1392 3.1787 -2.62768 3.05259e-05 4
20.1329 4.87066 -2.54332 0.000100215 4
9.53526 2.34208 -2.63091 0.000152292 4
11.0555 2.71548 -2.62822 8.8871e-05 4
13.1152 3.2214 -2.62511 8.3749e-05 4
20.1091 4.93927 -2.54248 9.81609e-05 4
28.1984 6.92619 -2.54037 2.86701e-05 10
28.1928 6.92481 -1.52144 2.90539e-05 10
28.1722 6.91974 -0.506364 2.9252e-05 10
28.1945 6.92523 0.506765 2.92613e-05 10
28.1833 6.92247 1.52093 2.90817e-05 10
9.52498 2.37484 -2.63034 0.00010841 4
11.0542 2.75612 -2.63019 6.47694e-05 4
13.1229 3.27191 -2.62893 4.61785e-05 4
20.0886 5.00865 -2.54208 9.45792e-05 4
28.1995 7.03092 -2.54266 2.87575e-05 10
28.1918 7.029 -1.5227 2.91428e-05 10
28.2097 7.03347 -0.507477 2.93416e-05 10
28.2021 7.03157 0.507339 2.93509e-05 10
28.1878 7.02801 1.52249 2.91706e-05 10
9.52429 2.41001 -2.63246 9.03402e-05 4
11.0526 2.79673 -2.63211 0.000182255 4
20.0557 5.07487 -2.54014 8.94612e-05 4
28.2178 7.14019 -2.54654 2.88407e-05 10
28.2095 7.1381 -1.52499 2.92273e-05 10
28.2202 7.1408 -0.50811 2.94268e-05 10
28.2066 7.13737 0.507866 2.94361e-05 10
28.1975 7.13506 1.52434 2.92552e-05 10
9.50661 2.44088 -2.62991 0.000165191 4
11.0348 2.83324 -2.63021 5.27177e-05 4
20.0311 5.14311 -2.53929 0.000104827 4
28.2303 7.24831 -2.54994 2.89196e-05 10
28.2324 7.24886 -1.52759 2.93075e-05 10
28.2299 7.2482 -0.508738 2.95077e-05 10
28.2114 7.24345 0.508404 2.95171e-05 10
28.2115 7.24349 1.52646 2.93355e-05 10
9.51875 2.47945 -2.63565 0.000126473 4
11.0158 2.86939 -2.62805 0.000167188 4
13.0898 3.40964 -2.62931 4.22626e-05 4
20.0015 5.20999 -2.53782 8.98039e-05 4
28.2378 7.35539 -2.55292 2.89943e-05 10
28.255 7.35988 -1.5302 2.93834e-05 10
28.2347 7.35459 -0.509284 2.95842e-05 10
28.2466 7.35769 0.509498 2.95937e-05 10
28.2287 7.35301 1.52877 2.94116e-05 10
9.49652 2.50909 -2.6319 0.000108404 4
11.0158 2.91051 -2.63048 5.27159e-05 4
13.0736 3.45419 -2.62845 5.94795e-05 4
17.0321 4.50007 -2.16304 0.000128273 6
28.2713 7.46959 -2.55829 3.49794e-05 10
28.2492 7.46376 -1.53128 3.54495e-05 10
28.2486 7.46361 -0.510002 3.56923e-05 10
28.2451 7.46267 0.509938 3.57041e-05 10
28.2566 7.46572 1.53168 3.54845e-05 10
9.48049 2.54029 -2.6299 5.67822e-05 4
11.0059 2.94901 -2.63053 0.000108442 4
16.8714 4.52067 -2.14462 0.000132625 6
28.2921 7.58084 -2.56255 3.49444e-05 10
28.2856 7.5791 -1.53468 3.54144e-05 10
28.2887 7.57994 -0.511201 3.56572e-05 10
28.2871 7.57951 0.511171 3.56689e-05 10
28.2886 7.57991 1.53484 3.54494e-05 10
9.48508 2.57704 -2.63365 0.000147115 4
10.995 2.98729 -2.63043 8.28365e-05 4
13.0435 3.54383 -2.6273 4.85207e-05 4
16.723 4.54355 -2.12777 0.000137078 6
28.3016 7.68938 -2.56583 3.49048e-05 10
28.2983 7.68848 -1.53681 3.53746e-05 10
28.3154 7.69312 -0.512164 3.56173e-05 10
28.311 7.69194 0.512085 3.56291e-05 10
28.3043 7.69011 1.53714 3.54097e-05 10
9.48438 2.61243 -2.63597 0.000154856 4
10.9812 3.02471 -2.62961 3.76523e-05 4
13.0286 3.58867 -2.62682 0.000108778 4
16.5878 4.56903 -2.11257 0.000144734 6
28.3286 7.80299 -2.57073 3.48606e-05 10
28.3375 7.80546 -1.54042 3.53303e-05 10
28.3277 7.80274 -0.512876 3.55729e-05 10
28.3281 7.80287 0.512884 3.55846e-05 10
28.3249 7.80197 1.53973 3.53653e-05 10
9.46027 2.64135 -2.63182 7.48459e-05 4
10.9849 3.06705 -2.63307 0.000137052 4
13.0257 3.63682 -2.62877 3.20848e-05 4
16.4611 4.59603 -2.09848 0.000103717 6
28.3476 7.91478 -2.57495 3.48119e-05 10
28.3483 7.91497 -1.54249 3.52813e-05 10
28.3671 7.92022 -0.514087 3.55237e-05 10
28.3649 7.91962 0.514047 3.55355e-05 10
28.3404 7.91278 1.54206 3.53163e-05 10
9.45555 2.67565 -2.63309 0.000229696 4
10.9647 3.10271 -2.63081 4.2169e-05 4
28.3851 8.03217 -2.58089 3.4666e-05 10
28.3839 8.03184 -1.54595 3.51339e-05 10
28.3814 8.03113 -0.514852 3.53755e-05 10
28.3838 8.03179 0.514894 3.53872e-05 10
28.3882 8.03304 1.54618 3.51688e-05 10
9.44522 2.70837 -2.63283 9.29093e-05 4
10.9624 3.14342 -2.63287 6.77704e-05 4
13.0054 3.72924 -2.62987 5.63415e-05 4
28.4242 8.15052 -2.58702 3.46103e-05 10
28.3959 8.14239 -1.54814 3.50777e-05 10
28.418 8.14871 -0.516028 3.53192e-05 10
28.4137 8.14749 0.51595 3.53309e-05 10
28.3909 8.14096 1.54787 3.51127e-05 10
9.43805 2.742 -2.63348 0.000258077 4
10.9371 3.17753 -2.62944 8.73468e-05 4
12.9857 3.77269 -2.62853 3.99076e-05 4
16.1024 4.67817 -2.05887 0.000214789 6
28.441 8.26288 -2.59115 3.455e-05 10
28.441 8.26288 -1.55216 3.50171e-05 10
28.4266 8.25868 -0.516704 3.52583e-05 10
28.4295 8.25954 0.516757 3.52701e-05 10
28.4425 8.26331 1.55224 3.5052e-05 10
9.42267 2.77324 -2.63188 0.000103229 4
10.932 3.21745 -2.63088 0.000123488 4
15.9637 4.69837 -2.04323 0.000187522 6
28.4492 8.37305 -2.59454 3.44854e-05 10
28.4476 8.37259 -1.55411 3.4952e-05 10
28.4671 8.37833 -0.51797 3.5193e-05 10
28.455 8.37475 0.517748 3.52047e-05 10
28.465 8.3777 1.55506 3.49869e-05 10
9.40785 2.8046 -2.63046 3.35489e-05 4
10.9302 3.25844 -2.63318 7.22842e-05 4
12.9627 3.86435 -2.62928 6.10323e-05 4
15.9233 4.74695 -2.04017 0.000880266 6
28.4901 8.49326 -2.60096 3.00701e-05 10
28.4841 8.49149 -1.55771 3.0477e-05 10
28.4707 8.48748 -0.51857 3.06871e-05 10
28.4802 8.49032 0.518743 3.06971e-05 10
28.4768 8.48931 1.55731 3.05068e-05 10
9.42264 2.84486 -2.63735 0.000157419 4
12.9365 3.90576 -2.62671 5.47712e-05 4
15.9073 4.80268 -2.04024 0.000882318 6
28.4871 8.60075 -2.60341 3.00808e-05 10
28.5068 8.60671 -1.56059 3.04882e-05 10
28.4996 8.60454 -0.519641 3.06986e-05 10
28.4907 8.60186 0.519479 3.07085e-05 10
28.5054 8.6063 1.56051 3.0518e-05 10
9.38634 2.86969 -2.62998 0.000196126 4
10.904 3.33369 -2.63242 8.28223e-05 4
12.9277 3.9524 -2.62771 2.97322e-05 4
15.8721 4.85257 -2.03789 0.000884324 6
28.5189 8.7191 -2.60909 3.00874e-05 10
28.5082 8.71583 -1.56232 3.04952e-05 10
28.5142 8.71766 -0.520459 3.07057e-05 10
28.5147 8.71781 0.520467 3.07157e-05 10
28.4961 8.71214 1.56166 3.0525e-05 10
9.39464 2.90813 -2.63513 9.29e-05 4
10.8789 3.36757 -2.62917 0.000134019 4
12.9017 3.99374 -2.62524 5.86804e-05 4
15.8335 4.9013 -2.03513 0.000886286 6
28.532 8.83213 -2.61309 3.00898e-05 10
28.5443 8.83595 -1.56598 3.04979e-05 10
28.5272 8.83063 -0.521255 3.07086e-05 10
28.5203 8.82851 0.521129 3.07186e-05 10
28.5362 8.83341 1.56553 3.05278e-05 10
9.37591 2.93823 -2.63274 0.000227085 4
10.8734 3.40752 -2.6307 3.91507e-05 4
12.9025 4.04341 -2.62827 6.72851e-05 4
15.8024 4.95216 -2.03333 0.000734617 6
9.38329 2.97655 -2.63771 0.000183213 4
10.8727 3.44901 -2.63342 4.66787e-05 4
12.8865 4.08784 -2.62789 4.92889e-05 4
15.7898 5.00881 -2.03395 0.000890074 6
9.3586 3.00472 -2.63371 0.000193531 4
10.8523 3.48429 -2.63142 3.61375e-05 4
12.8571 4.12795 -2.62481 6.10227e-05 4
15.778 5.06575 -2.03469 0.000891899 6
9.36097 3.04156 -2.63735 8.51522e-05 4
10.8497 3.5253 -2.63377 9.63646e-05 4
15.757 5.11976 -2.03428 0.000904147 6
9.33537 3.06931 -2.63314 0.00015998 4
10.8379 3.56332 -2.6339 5.72152e-05 4
15.7082 5.16459 -2.0303 0.000906486 6
9.33148 3.10417 -2.63508 4.38646e-05 4
