VERSION 0.7
FIELDS x y z intensity label
SIZE 4 4 4 4 4
TYPE F F F F F
COUNT 1 1 1 1 1
WIDTH 1181
HEIGHT 1
VIEWPOINT 10.5953 43.8998 2.72868 0.879798 -0.000189105 0.00074561 0.475348
POINTS 1181
DATA ascii
3.57773 13.1682 -2.65243 0.000151668 4
2.56149 9.5596 -2.65185 6.7981e-05 4
2.97245 11.0933 -2.65145 9.50411e-05 4
3.52614 13.1597 -2.64823 0.00013807 4
8.20383 30.6171 5.02034 4.01143e-05 10
8.20541 30.623 6.16249 3.87747e-05 10
2.52871 9.57079 -2.65249 0.000143504 4
2.92968 11.0884 -2.6478 9.79565e-05 4
3.48437 13.1878 -2.65142 0.000158423 4
2.49422 9.57546 -2.65135 7.30054e-05 4
2.89688 11.1213 -2.65323 7.6019e-05 4
3.43812 13.1991 -2.65126 0.000150108 4
7.67652 29.4706 -2.66438 3.27111e-05 10
7.67617 29.4693 -1.59595 3.31494e-05 10
7.67885 29.4796 -0.531738 3.33712e-05 10
7.67771 29.4752 0.531659 3.3373e-05 10
7.67574 29.4676 1.59587 3.31546e-05 10
2.45769 9.57208 -2.64802 0.000168655 4
2.8541 11.116 -2.64957 7.30885e-05 4
3.38903 13.1994 -2.64893 3.62028e-05 4
7.58618 29.5462 -2.6688 3.26016e-05 10
7.59239 29.5704 -1.59998 3.30389e-05 10
7.5917 29.5677 -0.532847 3.32602e-05 10
7.59164 29.5675 0.532842 3.3262e-05 10
7.59149 29.5669 1.5998 3.30442e-05 10
7.58724 29.5503 7.04352 2.88979e-05 10
2.42532 9.58479 -2.64918 5.7892e-05 4
2.8169 11.1323 -2.65109 9.35447e-05 4
7.50278 29.6507 -2.67586 3.24883e-05 10
7.50381 29.6548 -1.60312 3.29245e-05 10
7.5011 29.6441 -0.533747 3.31453e-05 10
7.50204 29.6478 0.533814 3.31471e-05 10
7.49987 29.6392 1.60228 3.29299e-05 10
7.49779 29.631 7.05646 2.87944e-05 10
2.77817 11.1426 -2.65123 8.62286e-05 4
3.301 13.2396 -2.6523 3.01622e-05 4
7.41635 29.7453 -2.68205 3.23711e-05 10
7.41188 29.7274 -1.60564 3.28062e-05 10
7.41081 29.7231 -0.534702 3.30264e-05 10
7.41642 29.7456 0.535107 3.30282e-05 10
7.41159 29.7262 1.60558 3.28117e-05 10
7.40853 29.714 7.07002 2.86876e-05 10
2.36277 9.61948 -2.65414 0.000108216 4
2.74254 11.1656 -2.65441 0.000105218 4
3.25182 13.239 -2.6499 5.42858e-05 4
7.32339 29.8155 -2.68605 3.22502e-05 10
7.32705 29.8304 -1.60981 3.26841e-05 10
7.32595 29.8259 -0.536088 3.29037e-05 10
7.32605 29.8263 0.536094 3.29056e-05 10
7.32325 29.8149 1.60898 3.26897e-05 10
2.32437 9.6078 -2.64867 0.000125823 4
2.70023 11.1614 -2.65115 9.64414e-05 4
7.23703 29.9143 -2.69266 3.21255e-05 10
7.23985 29.926 -1.6136 3.25582e-05 10
7.23612 29.9105 -0.537151 3.27772e-05 10
7.23943 29.9242 0.537397 3.27791e-05 10
7.23496 29.9057 1.61251 3.25638e-05 10
2.29588 9.63709 -2.65452 9.05858e-05 4
2.66378 11.1814 -2.65366 4.67552e-05 4
3.16092 13.2682 -2.65125 3.76899e-05 4
3.87635 16.2712 -2.64922 4.07132e-05 4
7.14755 30.0022 -2.69831 3.88162e-05 10
7.1504 30.0142 -1.617 3.93424e-05 10
7.15095 30.0165 -0.538603 3.96103e-05 10
7.14406 29.9876 0.538084 3.96155e-05 10
7.14398 29.9873 1.61555 3.24342e-05 10
2.26267 9.64694 -2.65504 0.000135868 4
2.62217 11.1797 -2.65108 6.42825e-05 4
3.11182 13.2673 -2.64889 3.69319e-05 4
7.06371 30.1163 -2.70634 3.84728e-05 10
7.06223 30.11 -1.62082 3.89952e-05 10
7.06527 30.1229 -0.540067 3.92611e-05 10
7.06512 30.1223 0.540055 3.92663e-05 10
7.06224 30.11 1.62082 3.90107e-05 10
7.05893 30.0959 7.13674 3.41017e-05 10
2.22691 9.64578 -2.65257 0.000294359 4
2.58055 11.1776 -2.64842 9.64149e-05 4
3.06673 13.2834 -2.64996 4.74785e-05 4
6.97921 30.2303 -2.71438 3.81271e-05 10
6.98166 30.2409 -1.62654 3.86454e-05 10
6.9778 30.2241 -0.541441 3.89093e-05 10
6.97812 30.2255 0.541466 3.89145e-05 10
6.97809 30.2254 1.62571 3.8661e-05 10
6.97593 30.216 7.15942 3.37901e-05 10
2.1909 9.64329 -2.64976 0.000226413 4
2.5415 11.1865 -2.64841 5.40458e-05 4
3.02183 13.3006 -2.65127 4.29519e-05 4
6.89681 30.3564 -2.72352 3.77789e-05 10
6.89439 30.3458 -1.63088 3.82932e-05 10
6.89218 30.336 -0.543012 3.85552e-05 10
6.8936 30.3423 0.543123 3.85603e-05 10
6.89392 30.3437 1.63077 3.83088e-05 10
6.89023 30.3275 7.18007 3.34764e-05 10
2.15686 9.64924 -2.64931 0.00015093 4
2.50618 11.212 -2.65237 0.000100779 4
2.97638 13.3155 -2.65215 4.14401e-05 4
6.80848 30.4594 -1.6357 3.79389e-05 10
6.81012 30.4667 -0.544922 3.81987e-05 10
6.80709 30.4532 0.544679 3.82039e-05 10
6.81005 30.4664 1.63608 3.79544e-05 10
6.80774 30.4561 7.20485 3.31608e-05 10
2.12642 9.67152 -2.65337 0.000153434 4
2.46447 11.2091 -2.64963 0.000284784 4
2.93226 13.3367 -2.65431 5.34893e-05 4
6.72303 30.5781 -1.64081 3.75822e-05 10
6.72186 30.5728 -0.546396 3.78399e-05 10
6.72069 30.5674 0.5463 3.78452e-05 10
6.72364 30.5809 1.64096 3.75977e-05 10
7.15932 32.5625 5.28057 2.88886e-05 10
6.72023 30.5654 7.22511 3.28432e-05 10
2.09068 9.6698 -2.65088 0.000133301 4
2.42483 11.2153 -2.64908 0.00029644 4
2.88397 13.3389 -2.65273 4.51971e-05 4
3.53808 16.3642 -2.65173 5.01143e-05 4
6.63282 30.678 -1.64491 3.72234e-05 10
6.63407 30.6838 -0.547962 3.74791e-05 10
6.63253 30.6767 0.547835 3.74843e-05 10
6.63292 30.6784 1.64494 3.72389e-05 10
7.02109 32.4738 5.26219 2.92736e-05 10
6.63123 30.6707 7.24449 3.25239e-05 10
2.05771 9.68077 -2.65191 0.000103112 4
2.38845 11.2367 -2.65216 0.000281811 4
2.83848 13.354 -2.65374 0.000149134 4
6.55188 30.8241 -1.65151 4.11331e-05 10
6.55274 30.8282 -0.550129 4.14188e-05 10
6.54948 30.8128 0.549855 4.14272e-05 10
6.54928 30.8119 1.65086 4.11582e-05 10
6.88276 32.3808 5.24319 2.96585e-05 10
6.54959 30.8134 7.27275 3.59516e-05 10
2.02542 9.69512 -2.65388 0.000331945 4
2.35148 11.2559 -2.65473 0.000270105 4
2.79039 13.3568 -2.65236 0.000140079 4
6.46994 30.9698 -1.6581 4.056e-05 10
6.46716 30.9565 -0.552014 4.08423e-05 10
6.46548 30.9485 0.55187 4.08506e-05 10
6.467 30.9558 1.65735 4.0585e-05 10
6.74947 32.3079 5.22754 3.00434e-05 10
6.74815 32.3016 6.41434 2.90068e-05 10
6.46457 30.9441 7.29825 3.54427e-05 10
1.99032 9.69606 -2.65222 0.000223794 4
2.30966 11.2518 -2.65184 0.000255482 4
2.74291 13.3624 -2.65154 0.000154371 4
4.16118 20.2717 -2.54095 3.00782e-05 4
6.38217 31.0915 -1.66341 3.99877e-05 10
6.38406 31.1007 -0.554184 4.02666e-05 10
6.38591 31.1097 0.554344 4.02749e-05 10
6.38499 31.1052 1.66415 4.00126e-05 10
6.61101 32.2063 5.20734 3.0428e-05 10
6.61522 32.2268 6.39487 2.93799e-05 10
6.38349 31.0979 7.32922 3.49347e-05 10
1.95499 9.69567 -2.65023 8.54879e-05 4
2.27262 11.2709 -2.65447 0.000289033 4
2.69721 13.3767 -2.6525 0.000146071 4
4.10654 20.3662 -2.55098 8.82697e-05 4
6.30061 31.2476 -1.67057 3.94163e-05 10
6.30202 31.2545 -0.55653 3.96917e-05 10
6.29858 31.2375 0.556225 3.96999e-05 10
6.30015 31.2452 1.67045 3.94409e-05 10
6.47889 32.1317 5.19159 3.08124e-05 10
6.48003 32.1374 6.37259 2.97528e-05 10
1.92493 9.7216 -2.65547 0.000105595 4
2.22974 11.261 -2.65028 0.000278789 4
2.65197 13.3934 -2.65396 0.000170899 4
4.04962 20.4521 -2.55995 5.64975e-05 4
6.2169 31.3976 -1.67743 3.88459e-05 10
6.21498 31.3879 -0.558515 3.91178e-05 10
6.21166 31.3711 0.558216 3.91261e-05 10
6.21263 31.3761 1.67627 3.88704e-05 10
6.34436 32.0413 5.17337 3.11964e-05 10
6.34608 32.05 6.35084 3.01253e-05 10
1.88611 9.70318 -2.64862 0.000153352 4
2.19163 11.275 -2.65175 0.00011676 4
3.98841 20.5186 -2.56652 6.94158e-05 4
6.12878 31.5298 -1.68334 3.82766e-05 10
6.13063 31.5394 -0.560826 3.85451e-05 10
6.12681 31.5197 0.560476 3.85532e-05 10
6.12906 31.5313 1.68341 3.8301e-05 10
6.20977 31.9465 5.15453 3.15799e-05 10
6.20992 31.9473 6.32615 3.04974e-05 10
1.85327 9.71516 -2.65011 9.55234e-05 4
2.15014 11.2714 -2.64914 0.000135721 4
2.55456 13.3914 -2.64997 6.54838e-05 4
3.92779 20.5902 -2.57375 7.45363e-05 4
6.04072 31.6666 -1.6895 3.77087e-05 10
6.04183 31.6724 -0.562812 3.79737e-05 10
6.04053 31.6655 0.56269 3.79818e-05 10
6.04094 31.6677 1.68956 3.77329e-05 10
6.08036 31.8743 5.13943 3.19628e-05 10
6.07696 31.8565 6.30394 3.0869e-05 10
1.81902 9.71985 -2.64964 5.78124e-05 4
2.1109 11.2795 -2.64929 5.54507e-05 4
2.50962 13.41 -2.6519 6.54764e-05 4
3.86836 20.6704 -2.58207 5.88503e-05 4
5.95609 31.8261 -1.69689 3.56055e-05 10
5.95423 31.8162 -0.564995 3.58552e-05 10
5.95644 31.828 0.565205 3.58618e-05 10
5.95328 31.8111 1.69609 3.56254e-05 10
1.7869 9.73606 -2.65234 5.7808e-05 4
2.07148 11.2866 -2.64924 5.39865e-05 4
2.4648 13.4297 -2.65406 5.04186e-05 4
3.02579 16.4862 -2.65478 3.34736e-05 4
3.80893 20.7532 -2.59073 7.82695e-05 4
5.86424 31.9517 -1.70249 3.51319e-05 10
5.86384 31.9495 -0.566996 3.53787e-05 10
5.86718 31.9677 0.567318 3.53853e-05 10
5.86585 31.9605 1.70296 3.51516e-05 10
1.75121 9.7328 -2.64978 0.000150792 4
2.03231 11.2951 -2.64956 0.000106504 4
3.75252 20.8556 -2.60187 6.70685e-05 4
5.77488 32.0954 -1.70906 3.46585e-05 10
5.77256 32.0825 -0.568995 3.49024e-05 10
5.77261 32.0827 0.568999 3.4909e-05 10
5.77525 32.0974 1.70917 3.46781e-05 10
1.71691 9.73705 -2.64928 8.04162e-05 4
1.9965 11.3227 -2.65438 5.39766e-05 4
3.69278 20.9428 -2.61112 8.63055e-05 4
5.6849 32.2406 -1.71573 3.41853e-05 10
5.68198 32.2241 -0.571151 3.44264e-05 10
5.68421 32.2367 0.571375 3.4433e-05 10
5.68118 32.2196 1.7146 3.42049e-05 10
1.68276 9.74215 -2.64906 0.000306563 4
1.95518 11.3193 -2.65196 7.00173e-05 4
2.3235 13.4516 -2.65345 4.81447e-05 4
2.8507 16.5038 -2.65265 3.9306e-05 4
3.62864 21.0075 -2.6176 8.66727e-05 4
5.59178 32.3729 -1.72171 3.37127e-05 10
5.59152 32.3714 -0.573412 3.39509e-05 10
5.59367 32.3838 0.573632 3.39574e-05 10
5.59034 32.3646 1.72127 3.37322e-05 10
1.65214 9.76803 -2.65451 8.54292e-05 4
1.91703 11.3342 -2.65386 6.70938e-05 4
2.27601 13.4566 -2.65284 7.07046e-05 4
2.79236 16.5094 -2.65198 4.09242e-05 4
3.56545 21.0802 -2.62509 7.01586e-05 4
5.50092 32.5234 -1.72869 3.32405e-05 10
5.49812 32.5068 -0.575468 3.34759e-05 10
5.49831 32.508 0.575487 3.34824e-05 10
5.50053 32.5211 1.72856 3.32599e-05 10
1.61796 9.77328 -2.65439 0.000133159 4
1.87456 11.3233 -2.64977 4.81281e-05 4
2.22731 13.454 -2.6508 5.71589e-05 4
3.50397 21.1658 -2.6342 5.68968e-05 4
5.40618 32.6561 -1.73473 3.27691e-05 10
5.40386 32.642 -0.577524 3.30016e-05 10
5.40432 32.6448 0.577572 3.3008e-05 10
5.40409 32.6434 1.73405 3.27884e-05 10
1.58131 9.76329 -2.65016 4.27081e-05 4
1.83722 11.3433 -2.65294 5.24986e-05 4
2.18166 13.47 -2.65242 4.58724e-05 4
3.44436 21.2661 -2.64518 8.58878e-05 4
5.31238 32.7997 -1.74136 3.22983e-05 10
5.31437 32.8119 -0.580198 3.25279e-05 10
5.31032 32.7869 0.579755 3.25343e-05 10
5.31166 32.7952 1.74112 3.23175e-05 10
1.54667 9.76529 -2.64922 4.27048e-05 4
1.79852 11.3554 -2.65428 7.43662e-05 4
3.37987 21.3397 -2.65284 7.75555e-05 4
5.2191 32.952 -1.74847 3.18285e-05 10
5.21758 32.9425 -0.582181 3.20552e-05 10
5.21606 32.9329 0.582011 3.20616e-05 10
5.21958 32.9551 1.74863 3.18475e-05 10
1.51618 9.7939 -2.65553 8.7915e-05 4
1.75987 11.368 -2.65578 8.60237e-05 4
2.08832 13.4897 -2.65337 6.76652e-05 4
5.12151 33.0829 -1.75445 3.13597e-05 10
5.12235 33.0883 -0.584438 3.15834e-05 10
5.12337 33.0949 0.584554 3.15898e-05 10
5.12014 33.074 1.75398 3.13785e-05 10
5.12158 33.0833 2.92889 3.09532e-05 10
5.12134 33.0818 4.11032 3.03209e-05 10
1.47957 9.78318 -2.6512 0.000173305 4
1.71773 11.3579 -2.652 0.000163284 4
5.02603 33.233 -1.76148 3.08918e-05 10
5.0271 33.2401 -0.586807 3.11127e-05 10
5.02815 33.2471 1.76222 3.09105e-05 10
5.02671 33.2375 2.94097 3.04909e-05 10
5.02518 33.2274 4.12621 2.98669e-05 10
1.44543 9.78841 -2.65124 3.76721e-05 4
1.67971 11.375 -2.65459 7.14304e-05 4
4.92954 33.3827 -1.76849 3.04252e-05 10
4.93169 33.3972 -0.589273 3.06432e-05 10
4.92921 33.3805 1.76837 3.04438e-05 10
4.9308 33.3912 2.95303 3.00297e-05 10
4.92967 33.3836 4.14344 2.94141e-05 10
1.41215 9.79964 -2.65293 0.0001557 4
1.63868 11.3716 -2.65246 4.51865e-05 4
2.95145 20.4816 -2.54081 2.93055e-05 4
4.83332 33.5409 -1.77596 2.99597e-05 10
4.83078 33.5233 -0.591196 3.01748e-05 10
4.83153 33.5285 1.7753 2.99782e-05 10
4.83289 33.5379 2.96449 2.95698e-05 10
4.83144 33.5279 4.15923 2.89625e-05 10
1.37678 9.79628 -2.6507 0.00018331 4
1.60057 11.3886 -2.6551 7.43323e-05 4
1.89959 13.5162 -2.65311 3.75748e-05 4
2.89445 20.5951 -2.55361 5.62884e-05 4
4.73488 33.6904 -1.78299 2.94957e-05 10
4.73542 33.6942 -0.593915 2.9708e-05 10
4.73436 33.6867 1.78279 2.95141e-05 10
4.73505 33.6915 2.97659 2.91113e-05 10
1.34502 9.81888 -2.65553 0.000231003 4
1.55923 11.3827 -2.65244 0.000109302 4
2.83226 20.676 -2.5624 8.87485e-05 4
4.6342 33.8305 -1.78954 2.90332e-05 10
4.63393 33.8285 -0.595994 2.92425e-05 10
4.63394 33.8286 1.78944 2.90514e-05 10
4.63219 33.8158 2.98612 2.86542e-05 10
1.3092 9.81202 -2.65242 0.000150643 4
1.52029 11.394 -2.65383 4.80886e-05 4
1.80387 13.5193 -2.65118 6.16088e-05 4
2.76805 20.7456 -2.56981 9.54021e-05 4
4.53551 33.992 -0.598591 2.87787e-05 10
1.27608 9.82527 -2.65478 0.000163184 4
1.48129 11.4053 -2.65524 6.11981e-05 4
2.15821 16.6173 -2.65403 3.79396e-05 4
2.70875 20.8562 -2.58233 7.5714e-05 4
1.23917 9.80906 -2.64922 0.000235971 4
1.4417 11.4122 -2.65566 9.61597e-05 4
2.64374 20.9273 -2.58998 7.55806e-05 4
1.20613 9.82308 -2.65185 0.000346399 4
1.39933 11.3966 -2.65088 0.000170449 4
1.66247 13.5397 -2.65161 9.68884e-05 4
1.17155 9.82492 -2.65123 0.000243465 4
1.36089 11.4127 -2.6535 9.61422e-05 4
1.61564 13.5492 -2.65235 0.000148696 4
2.51661 21.1049 -2.60972 8.46253e-05 4
1.13681 9.82512 -2.6502 0.000288622 4
1.32162 11.4224 -2.65466 5.09799e-05 4
1.57056 13.5739 -2.6561 0.000146426 4
1.9253 16.6398 -2.65307 4.37509e-05 4
2.45273 21.1983 -2.62019 6.57687e-05 4
1.10254 9.82935 -2.65028 0.000180689 4
1.52323 13.5799 -2.65622 0.000144157 4
2.39089 21.3152 -2.6336 6.5121e-05 4
1.06891 9.8395 -2.652 8.78282e-05 4
1.47469 13.5747 -2.65419 0.000166663 4
1.80975 16.659 -2.65406 3.01307e-05 4
2.32503 21.4022 -2.64333 7.11337e-05 4
1.03398 9.8377 -2.65052 0.000213281 4
1.20175 11.4339 -2.65426 2.91234e-05 4
1.42742 13.581 -2.65442 0.000125359 4
1.75257 16.6746 -2.65554 4.11401e-05 4
2.25708 21.4747 -2.65128 5.94382e-05 4
1.00112 9.85586 -2.65446 7.02519e-05 4
1.16021 11.4221 -2.65056 0.000110659 4
1.38042 13.59 -2.65522 4.72856e-05 4
2.19241 21.5838 -2.6638 6.41985e-05 4
0.965971 9.85174 -2.65242 0.000120423 4
1.12142 11.4371 -2.65313 9.02662e-05 4
2.1249 21.6714 -2.67368 7.08455e-05 4
0.932762 9.86758 -2.6558 8.78016e-05 4
1.08165 11.4426 -2.65351 4.36732e-05 4
1.28482 13.5919 -2.65378 6.82861e-05 4
2.05777 21.7689 -2.6848 5.50716e-05 4
0.898354 9.87122 -2.65592 0.000117896 4
1.04154 11.4445 -2.6531 0.000296951 4
1.99158 21.8837 -2.69808 7.41917e-05 4
0.862078 9.85359 -2.65035 0.00012792 4
1.00294 11.4636 -2.6567 0.000291102 4
1.92327 21.983 -2.70948 6.97715e-05 4
0.829666 9.8802 -2.65671 9.02897e-05 4
0.961901 11.4549 -2.65389 0.000285254 4
1.8535 22.0727 -2.71972 5.96642e-05 4
0.793216 9.85875 -2.65018 0.000150471 4
0.921127 11.4485 -2.65164 0.000298326 4
1.09613 13.6236 -2.65672 3.37527e-05 4
1.78249 22.1543 -2.729 6.133e-05 4
0.758879 9.86248 -2.65046 0.000215659 4
0.882279 11.4662 -2.65501 0.000305574 4
1.04791 13.6188 -2.65504 2.92491e-05 4
0.724732 9.86898 -2.65151 4.51346e-05 4
0.842844 11.4774 -2.65689 0.000317187 4
0.999446 13.6099 -2.65262 7.79888e-05 4
0.691522 9.8892 -2.65628 0.000173003 4
0.802279 11.4731 -2.65524 0.00024296 4
0.953223 13.6317 -2.6562 5.8485e-05 4
0.655465 9.86852 -2.65009 7.52131e-05 4
0.762818 11.4848 -2.65732 7.12814e-05 4
0.905695 13.6359 -2.65639 3.74862e-05 4
0.621227 9.8741 -2.65099 4.51244e-05 4
0.722642 11.486 -2.65701 5.81836e-05 4
0.858505 13.6455 -2.65767 7.87122e-05 4
0.586806 9.87701 -2.6512 0.000180484 4
0.681778 11.4756 -2.65402 3.92704e-05 4
0.810575 13.6435 -2.65669 4.94708e-05 4
0.552803 9.8876 -2.65351 7.0183e-05 4
0.641076 11.4665 -2.65138 0.000142524 4
0.519081 9.9046 -2.65757 0.000145368 4
0.601022 11.4681 -2.65126 0.000103248 4
0.483592 9.88775 -2.65258 0.000483689 4
0.562057 11.4921 -2.65633 4.21679e-05 4
0.667341 13.6448 -2.65545 5.02035e-05 4
0.448811 9.88355 -2.65102 0.000513724 4
0.619086 13.6333 -2.65277 5.31948e-05 4
0.414556 9.89103 -2.65262 0.000441018 4
0.481423 11.4864 -2.65418 9.44973e-05 4
0.571922 13.6457 -2.65478 6.14294e-05 4
0.702154 16.7529 -2.65573 3.26321e-05 4
0.380775 9.91182 -2.65782 0.000561253 4
0.440885 11.4765 -2.65152 0.000306725 4
0.64367 16.7551 -2.65571 3.10122e-05 4
0.345326 9.88875 -2.6513 0.000460995 4
0.401696 11.5029 -2.65728 0.000289255 4
0.476547 13.6464 -2.65421 6.59096e-05 4
0.311225 9.90332 -2.6549 0.00045595 4
0.360802 11.4809 -2.65188 0.000265975 4
0.527276 16.7781 -2.65871 3.2295e-05 4
0.276432 9.8963 -2.65274 0.000563632 4
0.321336 11.5039 -2.65692 0.000263044 4
0.242121 9.90696 -2.65535 0.000475921 4
0.280902 11.4938 -2.65434 0.000258661 4
0.334169 13.6733 -2.65861 3.74362e-05 4
0.207568 9.90909 -2.65572 0.000475885 4
0.240619 11.4869 -2.65254 0.000277527 4
0.28591 13.6491 -2.65369 4.04266e-05 4
0.172725 9.89543 -2.65188 0.000445796 4
0.200583 11.4914 -2.65341 0.000289126 4
0.238375 13.6565 -2.65496 3.51822e-05 4
0.1383 9.90426 -2.6541 0.000335574 4
0.160452 11.4906 -2.65308 0.000270214 4
0.103601 9.89284 -2.65092 3.50574e-05 4
0.120591 11.5153 -2.65866 0.000313769 4
0.143076 13.6623 -2.65584 7.63359e-05 4
0.0691635 9.90659 -2.65453 0.000365571 4
0.0803879 11.5143 -2.65835 0.000143798 4
0.117145 16.7791 -2.65762 3.06494e-05 4
0.0345798 9.90537 -2.65415 6.76006e-05 4
0.0401814 11.5099 -2.6573 5.8095e-05 4
0.04775 13.678 -2.65874 3.9656e-05 4
7.48154e-07 9.9096 -2.65527 0.000105149 4
8.67934e-07 11.4961 -2.65409 9.73004e-05 4
1.03109e-06 13.6572 -2.6547 4.86293e-05 4
-0.0345571 9.90066 -2.65289 0.000135181 4
-0.0401299 11.4973 -2.65437 8.13185e-05 4
-0.0692188 9.91473 -2.65671 7.00887e-05 4
-0.0803655 11.5114 -2.65767 0.000103091 4
-0.095465 13.6742 -2.65805 3.21631e-05 4
-0.117098 16.7728 -2.65662 5.3525e-05 4
-0.103659 9.89854 -2.65245 0.000315376 4
-0.120428 11.4999 -2.6551 5.66225e-05 4
-0.143044 13.6595 -2.65528 7.62855e-05 4
-0.175723 16.7801 -2.65785 3.48185e-05 4
-0.138509 9.91934 -2.65814 0.000310347 4
-0.160731 11.5107 -2.65772 9.1459e-05 4
-0.190986 13.6774 -2.65888 4.11298e-05 4
-0.17278 9.89868 -2.65275 4.25444e-05 4
-0.200561 11.4902 -2.65314 4.79028e-05 4
-0.20728 9.89541 -2.65205 4.75461e-05 4
-0.241115 11.5107 -2.65803 3.04809e-05 4
-0.241772 9.89271 -2.65154 7.75695e-05 4
-0.280753 11.4878 -2.65295 3.77349e-05 4
-0.334151 13.6727 -2.65849 8.59703e-05 4
-0.277065 9.9192 -2.65888 0.000107588 4
-0.321096 11.4955 -2.65499 6.38535e-05 4
-0.381236 13.6486 -2.65406 3.36369e-05 4
-0.311079 9.89871 -2.65366 0.000107581 4
-0.401043 11.4845 -2.65301 7.2548e-05 4
-0.380213 9.89722 -2.65391 0.000162598 4
-0.441202 11.4848 -2.65343 5.80333e-05 4
-0.525245 13.6725 -2.65963 6.27683e-05 4
-0.643786 16.7582 -2.6562 3.12365e-05 4
-0.414951 9.90047 -2.65515 0.000130069 4
-0.481433 11.4867 -2.65424 0.000159577 4
-0.572349 13.6559 -2.65677 3.43693e-05 4
-0.703438 16.7836 -2.6606 3.96036e-05 4
-0.449747 9.90418 -2.65655 8.25375e-05 4
-0.522296 11.5018 -2.65814 8.26828e-05 4
-0.484011 9.89636 -2.65489 8.75334e-05 4
-0.518546 9.89442 -2.65484 0.000140043 4
-0.602868 11.5034 -2.65941 8.55689e-05 4
-0.716018 13.6624 -2.65935 3.21174e-05 4
-0.552675 9.88534 -2.6529 0.000162538 4
-0.643105 11.5028 -2.65978 8.9912e-05 4
-0.587849 9.89467 -2.65594 8.25134e-05 4
-0.681912 11.478 -2.65457 0.000104405 4
-0.810485 13.6421 -2.65643 3.13636e-05 4
-0.723303 11.4966 -2.65944 4.63981e-05 4
-0.857791 13.6342 -2.65546 5.60004e-05 4
-1.05498 16.7684 -2.66111 4.92212e-05 4
-0.656683 9.88687 -2.65502 3.50006e-05 4
-0.762836 11.4851 -2.65738 9.85873e-05 4
-0.691884 9.8944 -2.65767 7.74956e-05 4
-0.802382 11.4746 -2.65559 0.0002334 4
-0.952756 13.625 -2.65491 3.73255e-05 4
-1.17032 16.7364 -2.65726 3.18401e-05 4
-0.726121 9.88792 -2.65659 0.000267465 4
-0.843494 11.4862 -2.65895 0.000301508 4
-0.76119 9.89254 -2.65853 0.000137472 4
-0.881921 11.4616 -2.65394 0.000278291 4
-0.793963 9.86805 -2.65268 0.000119967 4
-0.923474 11.4777 -2.6584 0.000279716 4
-1.09666 13.6302 -2.658 3.73135e-05 4
-0.828667 9.86837 -2.65353 0.000164943 4
-0.962233 11.459 -2.65482 0.000295633 4
-1.14494 13.6347 -2.65965 6.86494e-05 4
-0.863131 9.86565 -2.65359 0.000279883 4
-1.00292 11.4635 -2.65666 4.20226e-05 4
-1.19174 13.6217 -2.6579 3.73054e-05 4
-0.898047 9.86791 -2.65502 0.000144929 4
-1.04369 11.4682 -2.65859 4.49168e-05 4
-1.23891 13.6134 -2.65712 6.63965e-05 4
-0.931624 9.85556 -2.65256 5.24704e-05 4
-1.08341 11.4612 -2.65783 0.000156471 4
-0.968362 9.87615 -2.659 0.00010993 4
-1.12422 11.4657 -2.65976 6.95366e-05 4
-1.00166 9.86118 -2.65589 7.99433e-05 4
-1.16406 11.46 -2.65936 6.51849e-05 4
-1.38127 13.5983 -2.65685 4.10184e-05 4
-1.03759 9.87204 -2.65977 0.000144887 4
-1.20236 11.4397 -2.65561 8.54573e-05 4
-1.42945 13.6003 -2.6582 6.11481e-05 4
-1.07003 9.84983 -2.65478 0.000132387 4
-1.24191 11.432 -2.6548 3.91042e-05 4
-1.10391 9.84159 -2.65358 7.2433e-05 4
-1.28443 11.451 -2.66024 6.95126e-05 4
-1.13795 9.83508 -2.65288 9.74029e-05 4
-1.3222 11.4275 -2.65584 3.90975e-05 4
-1.57135 13.5808 -2.65746 9.31838e-05 4
-1.17495 9.85342 -2.65892 6.24333e-05 4
-1.36434 11.4417 -2.66024 8.83238e-05 4
-1.62097 13.5939 -2.6611 5.59043e-05 4
-1.20668 9.82767 -2.65309 8.74004e-05 4
-1.40382 11.4332 -2.65938 0.000243232 4
-1.6679 13.584 -2.66029 3.42843e-05 4
-1.24383 9.84592 -2.65917 8.73942e-05 4
-1.44337 11.4255 -2.65874 3.47444e-05 4
-1.71326 13.5618 -2.6571 6.11091e-05 4
-1.27866 9.84515 -2.66016 0.000246895 4
-1.4834 11.4215 -2.65902 7.09304e-05 4
-1.31231 9.83531 -2.65872 0.000220986 4
-1.81088 13.5719 -2.6615 3.9489e-05 4
-1.35033 9.85763 -2.66601 0.000280011 4
-1.56176 11.4011 -2.65674 8.24968e-05 4
-1.85729 13.5586 -2.66013 4.46997e-05 4
-1.38594 9.86145 -2.66834 0.000232097 4
-1.60362 11.4104 -2.66018 0.000105645 4
-1.90372 13.5457 -2.65889 4.91645e-05 4
-1.42299 9.87489 -2.6733 0.000248607 4
-1.64112 11.3886 -2.65642 0.000285072 4
-1.9502 13.5335 -2.65781 3.12832e-05 4
-1.46357 9.91129 -2.68452 0.000229601 4
-1.68066 11.3814 -2.6561 0.00027926 4
-1.99665 13.5213 -2.65678 8.04341e-05 4
-1.4978 9.90371 -2.68387 0.000229193 4
-1.72377 11.3979 -2.66133 0.000276343 4
-2.04694 13.5347 -2.66081 6.10639e-05 4
-1.53557 9.91917 -2.68949 0.000227098 4
-1.76219 11.3831 -2.65929 0.000248832 4
-2.09192 13.513 -2.65794 4.46762e-05 4
-2.57099 16.6076 -2.66173 6.37891e-05 4
-1.57282 9.93037 -2.694 0.000230042 4
-1.79893 11.358 -2.65488 0.000282082 4
-2.13814 13.4997 -2.65679 6.40292e-05 4
-1.60979 9.93917 -2.6979 0.000237997 4
-1.83915 11.3553 -2.65573 0.000290737 4
-2.18729 13.5048 -2.65927 2.90335e-05 4
-1.64753 9.95192 -2.7029 0.00021915 4
-1.87966 11.3541 -2.65698 0.000276249 4
-1.68838 9.98229 -2.71274 0.000223745 4
-1.92215 11.3645 -2.66096 0.000296473 4
-2.28401 13.5039 -2.66218 3.72146e-05 4
-1.72468 9.98485 -2.71505 0.000203317 4
-1.95849 11.3385 -2.65645 0.000323924 4
-2.32812 13.4784 -2.65873 3.1257e-05 4
-1.7613 9.98884 -2.71779 0.0001813 4
-1.99959 11.3402 -2.65849 0.000245814 4
-2.37831 13.4881 -2.66226 3.64627e-05 4
-1.79893 9.99804 -2.72199 0.000182603 4
-2.04053 11.3408 -2.66028 0.000232781 4
-1.83876 10.0186 -2.72932 0.000178927 4
-2.07721 11.3178 -2.65657 0.000284808 4
-1.87723 10.0309 -2.73444 0.000188487 4
-2.11953 11.3256 -2.66012 0.000283338 4
-1.90995 10.0123 -2.73117 0.000378864 1
-2.15515 11.2977 -2.65531 0.000254405 4
-1.94955 10.0296 -2.73772 0.000378837 1
-2.19476 11.2911 -2.65554 4.91423e-05 4
-1.98472 10.0235 -2.73794 0.000378811 1
-2.23695 11.2974 -2.65886 0.000179663 4
-2.6582 13.4249 -2.6602 3.27217e-05 4
-2.01824 10.0094 -2.73599 0.000378784 1
-2.28138 11.3144 -2.6647 0.00021681 4
-2.70682 13.4243 -2.66194 5.72571e-05 4
-1.9117 9.31309 -2.54747 0.000219567 4
-2.32864 11.3443 -2.67364 0.00025881 4
-2.75424 13.4176 -2.6625 3.4202e-05 4
-1.94329 9.302 -2.54627 0.000379994 4
-2.37125 11.3505 -2.67705 0.000238643 4
-3.43958 16.4643 -2.66399 4.25467e-05 4
-1.97467 9.29009 -2.54488 0.000405299 4
-2.41509 11.3621 -2.68175 0.00026361 4
-2.00807 9.28768 -2.54613 0.000413714 4
-2.46129 11.3839 -2.68891 0.00027036 4
-2.89074 13.3702 -2.65895 8.02758e-05 4
-2.0371 9.26529 -2.54192 0.000340517 4
-2.50732 11.404 -2.69569 0.000234634 4
-2.93686 13.3576 -2.65848 0.000124861 4
-2.07411 9.27903 -2.54766 0.000234046 4
-2.54734 11.3961 -2.69593 0.000208216 4
-2.98371 13.3484 -2.65869 8.39752e-05 4
-2.11851 9.32467 -2.56221 0.000219864 4
-2.59462 11.4203 -2.70376 0.000223857 4
-3.03505 13.3588 -2.66287 8.17374e-05 4
-2.16796 9.39046 -2.58235 0.00021617 4
-2.64307 11.4484 -2.71259 0.000234055 4
-2.21057 9.42481 -2.5939 0.000167419 4
-2.68676 11.4551 -2.71638 0.000220169 4
-3.12559 13.326 -2.66061 3.41742e-05 4
-2.26198 9.49482 -2.61533 0.000166434 4
-2.7338 11.4753 -2.72343 0.000206489 4
-3.1742 13.3239 -2.66239 3.49136e-05 4
-2.30857 9.5425 -2.63067 0.000126099 4
-2.774 11.4663 -2.72358 0.000208121 4
-3.21555 13.2915 -2.65814 3.491e-05 4
-3.95484 16.3473 -2.66386 3.35495e-05 4
-2.35894 9.60388 -2.64984 0.000174612 4
-2.82589 11.505 -2.73508 0.000231341 4
-3.26329 13.2857 -2.65925 0.000153737 4
-2.4031 9.6383 -2.66164 0.000104625 4
-2.86639 11.4965 -2.73542 0.000218525 1
-3.31043 13.2774 -2.65987 0.000129215 4
-2.4369 9.63056 -2.66183 0.000567926 4
-2.90989 11.4998 -2.73861 0.000218507 1
-3.36124 13.2835 -2.66343 0.000158162 4
-2.47 9.62001 -2.66128 0.000266509 4
-2.94763 11.4803 -2.7364 0.000218489 1
-3.40133 13.2473 -2.65853 0.000132902 4
-2.49979 9.59686 -2.65728 0.000321283 4
-2.98463 11.4582 -2.7336 0.000218471 1
-3.45088 13.2481 -2.66111 0.000126949 4
-4.23706 16.2664 -2.66231 3.704e-05 4
-2.53604 9.59853 -2.66017 0.000204213 4
-2.82024 10.6742 -2.5489 0.000194921 4
-2.57159 9.5973 -2.66231 0.000343652 4
-2.85428 10.6523 -2.54604 0.000183441 4
-3.55301 13.26 -2.66841 0.000118886 4
-2.60197 9.57686 -2.65914 0.000298808 4
-2.8921 10.6447 -2.54661 0.000237471 4
-3.60647 13.274 -2.67375 0.000127015 4
-2.63384 9.5621 -2.65758 0.000236541 4
-2.93314 10.6487 -2.55 0.000235815 4
-3.66377 13.3012 -2.68179 0.000137733 4
-2.66562 9.54718 -2.656 0.000174281 4
-2.97061 10.6396 -2.55028 9.93114e-05 4
-3.71792 13.3161 -2.68739 0.000153702 4
-2.70069 9.54403 -2.65773 0.000136926 4
-3.02849 10.7024 -2.56787 4.95725e-05 4
-3.77561 13.3427 -2.6954 0.000118615 4
-4.58083 16.1883 -2.66465 3.063e-05 4
-3.09496 10.7934 -2.59227 0.00032444 4
-3.83429 13.3718 -2.70395 0.000119179 4
-4.63667 16.17 -2.66428 3.25402e-05 4
-2.76651 9.5224 -2.65702 0.000323601 4
-3.15427 10.8571 -2.61019 0.000302785 4
-3.8891 13.3864 -2.70964 0.000127693 4
-2.79815 9.50732 -2.65552 0.000405719 4
-3.2177 10.9328 -2.63109 0.000274854 4
-3.94066 13.3892 -2.71298 0.000102667 4
-2.83523 9.51058 -2.65918 0.000311114 4
-3.2811 11.0062 -2.6515 0.000327086 4
-4.00206 13.4246 -2.72297 0.000110273 4
-4.80517 16.1186 -2.66396 3.69923e-05 4
-2.86939 9.50389 -2.66009 0.000323537 4
-3.32653 11.018 -2.65712 0.000173036 4
-4.05496 13.4307 -2.72705 0.000120281 4
-2.90363 9.49735 -2.66108 0.000286187 4
-3.367 11.013 -2.65872 0.000141301 4
-4.11879 13.472 -2.73834 0.000111358 4
-2.93262 9.47376 -2.65733 0.000201562 4
-3.40899 11.0127 -2.6615 9.22712e-05 4
-4.16742 13.4628 -2.73941 0.000111686 1
-2.8438 9.07458 -2.54813 0.000193857 4
-3.45013 11.0094 -2.6636 0.000361848 4
-4.21699 13.4564 -2.7411 0.000111675 1
-5.03332 16.0614 -2.66586 3.1555e-05 4
-2.87329 9.05775 -2.5462 0.000379261 4
-3.48368 10.982 -2.65989 0.000221993 4
-4.26525 13.4458 -2.74194 0.000111664 1
-5.08559 16.0318 -2.66388 5.32224e-05 4
-2.90618 9.0517 -2.54734 0.000353954 4
-3.52487 10.9787 -2.66206 8.50426e-05 4
-4.00532 12.4751 -2.54684 0.000130499 4
-5.14716 16.0316 -2.66681 7.07418e-05 4
-2.94089 9.05113 -2.55005 0.000297752 4
-4.05458 12.4787 -2.55045 0.000107609 4
-5.20005 16.0041 -2.66525 5.76696e-05 4
-2.9724 9.04062 -2.55 0.000323012 4
-3.60163 10.9544 -2.66221 6.91764e-05 4
-4.0999 12.4699 -2.55155 0.000116071 4
-3.0036 9.02916 -2.54971 0.000387589 4
-3.63582 10.9297 -2.65927 0.000139783 4
-4.13773 12.4385 -2.54806 8.81038e-05 4
-5.3151 15.9778 -2.66698 5.16871e-05 4
-3.02716 8.99504 -2.54304 0.000337012 4
-3.68024 10.9356 -2.66382 0.00018156 4
-4.21243 12.517 -2.56714 0.000170973 4
-5.3928 16.0244 -2.67789 5.581e-05 4
-3.06378 8.99979 -2.54739 0.000325758 4
-3.71134 10.902 -2.65878 0.000302576 4
-4.30065 12.6331 -2.59402 0.000166187 4
-5.46465 16.0523 -2.68572 5.58476e-05 4
-3.09667 8.99339 -2.54863 0.000393131 4
-3.75042 10.892 -2.65951 0.000190176 4
-4.38414 12.7325 -2.61755 0.000185417 4
-5.53535 16.0758 -2.69287 5.11818e-05 4
-3.12333 8.96898 -2.54478 0.00044084 4
-3.78889 10.8802 -2.65985 0.000148384 4
-4.47014 12.8365 -2.64213 0.000177431 4
-5.6066 16.1 -2.70018 3.85367e-05 4
-3.15828 8.96842 -2.54774 0.000376235 4
-3.82692 10.8671 -2.6599 0.000220398 4
-4.55045 12.9217 -2.66292 9.62855e-05 4
-5.68551 16.1449 -2.71102 4.97903e-05 4
-3.19211 8.96449 -2.54977 0.000381826 4
-3.70526 10.4056 -2.55007 0.00013243 4
-4.59812 12.913 -2.66442 4.14729e-05 4
-5.7599 16.1757 -2.71956 5.24773e-05 4
-3.21789 8.93804 -2.54542 0.000401453 4
-3.73482 10.3739 -2.54548 0.000228874 4
-5.83647 16.2114 -2.72897 4.95321e-05 4
-3.25116 8.9325 -2.54706 0.00033967 4
-3.77296 10.3661 -2.5468 0.000230491 4
-4.68095 12.8608 -2.66032 0.000119212 4
-5.91191 16.2428 -2.73772 4.66553e-05 4
-3.27902 8.91213 -2.5445 0.000348069 4
-3.81606 10.3718 -2.55144 0.000209225 4
-4.73364 12.8657 -2.66473 9.99509e-05 4
-5.97563 16.2413 -2.74096 4.75876e-05 1
-3.31576 8.91581 -2.54884 0.000350854 4
-3.84707 10.3445 -2.54801 0.000223919 4
-4.774 12.8369 -2.66221 7.03292e-05 4
-6.03665 16.2321 -2.74294 4.75818e-05 1
-3.34351 8.89526 -2.54629 0.000364866 4
-3.88348 10.3318 -2.54823 0.000184679 4
-4.81759 12.817 -2.66156 5.25569e-05 4
-6.09476 16.2148 -2.74361 4.75759e-05 1
-3.37717 8.89048 -2.54828 0.000429392 4
-3.91519 10.3068 -2.54541 0.00021408 4
-4.86877 12.8171 -2.66509 0.000135451 4
-5.72014 15.0584 -2.55129 5.43809e-05 4
-3.40746 8.87675 -2.54774 0.000376046 4
-3.95465 10.3022 -2.54767 0.000205894 4
-4.90706 12.7833 -2.66161 6.36486e-05 4
-5.77404 15.0419 -2.5519 5.21699e-05 4
-3.43654 8.85994 -2.54634 0.000381634 4
-3.99696 10.3048 -2.55173 0.000220584 4
-4.95485 12.7744 -2.66333 0.000111005 4
-5.83314 15.0387 -2.5548 3.85718e-05 4
-3.46439 8.84009 -2.54409 0.000373193 4
-4.03243 10.2896 -2.55144 0.000186257 4
-4.99854 12.7548 -2.66287 8.65755e-05 4
-5.93115 15.1345 -2.57458 6.4165e-05 4
-3.49867 8.83662 -2.5466 0.000364753 4
-4.06106 10.2571 -2.54688 0.000236889 4
-5.04228 12.7353 -2.66247 5.25324e-05 4
-6.05951 15.3046 -2.60708 7.11702e-05 4
-3.52705 8.81824 -2.54483 0.000415231 4
-4.10119 10.2537 -2.54959 0.000197665 4
-4.87557 12.1898 -2.55196 0.00011503 4
-6.17875 15.448 -2.63517 6.9908e-05 4
-3.55901 8.80887 -2.5457 0.000339458 4
-4.13961 10.2459 -2.55123 0.000243388 4
-4.91769 12.1717 -2.55175 9.2185e-05 4
-6.29913 15.5909 -2.66329 6.09921e-05 4
-3.59417 8.80724 -2.54884 0.000322606 4
-4.17464 10.2296 -2.55079 0.000222136 4
-4.95353 12.1382 -2.54834 0.000110781 4
-6.35701 15.5774 -2.66475 3.94068e-05 4
-3.62563 8.79645 -2.54936 0.000364663 4
-4.21149 10.2178 -2.5515 0.000182922 4
-5.00443 12.1417 -2.55271 0.00011669 4
-6.41109 15.5545 -2.66465 4.63928e-05 4
-3.65837 8.78866 -2.55079 0.00038708 4
-4.24667 10.202 -2.55122 0.000241701 4
-5.03744 12.1017 -2.54799 0.000129362 4
-6.46481 15.5307 -2.66442 3.3043e-05 4
-3.6861 8.76888 -2.54877 0.000333766 4
-4.27949 10.1805 -2.54957 0.00019596 4
-5.07997 12.0848 -2.54815 9.04607e-05 4
-6.52637 15.5256 -2.66744 3.55805e-05 4
-3.71718 8.75713 -2.54911 0.000406665 4
-4.31075 10.1555 -2.54706 0.000205743 4
-5.12912 12.0834 -2.55163 9.29886e-05 4
-6.5745 15.4886 -2.665 4.00233e-05 4
-3.74761 8.74384 -2.54903 0.000300073 4
-4.35069 10.1509 -2.5497 0.000248179 4
-5.16867 12.0594 -2.55035 0.000117493 4
-6.63778 15.4871 -2.66872 4.03362e-05 4
-3.77495 8.7234 -2.5469 0.000398203 4
-4.38559 10.1345 -2.54941 0.000231835 4
-5.21178 12.0437 -2.55086 0.000101424 4
-6.68772 15.4544 -2.66709 4.60477e-05 4
-3.80431 8.70772 -2.54618 0.000342097 4
-4.42247 10.1226 -2.55029 0.00020733 4
-5.25051 12.0179 -2.54927 7.85965e-05 4
-6.74135 15.4303 -2.66699 5.01702e-05 4
-3.83811 8.70217 -2.54846 0.00045143 4
-4.45836 10.1085 -2.55063 0.000101209 4
-5.29901 12.0145 -2.55244 0.000103096 4
-6.79699 15.4109 -2.6677 3.3972e-05 4
-3.87197 8.69659 -2.55077 0.0003 4
-4.49528 10.0966 -2.55157 0.000137112 4
-5.34188 11.9981 -2.5529 0.000109847 4
-6.55786 14.7292 -2.55365 4.58433e-05 4
-3.8996 8.67702 -2.54901 0.000325215 4
-4.52066 10.0589 -2.54603 0.000171378 4
-5.37641 11.9631 -2.54943 0.0001242 4
-6.6101 14.7082 -2.55399 4.43712e-05 4
-3.92508 8.65279 -2.5459 0.000420511 4
-4.56169 10.0562 -2.54935 0.000212167 4
-5.42711 11.964 -2.55365 8.6172e-05 4
-6.65813 14.6778 -2.55273 3.51996e-05 4
-3.96379 8.65767 -2.55139 0.000353208 4
-4.59813 10.0432 -2.55011 0.000236631 4
-5.46973 11.9469 -2.55406 9.20777e-05 4
-6.71019 14.6563 -2.55306 4.50943e-05 4
-3.98576 8.62597 -2.54613 0.000269095 4
-4.62788 10.0156 -2.5472 0.000226823 4
-5.50449 11.9128 -2.55086 0.000124167 4
-6.76752 14.6463 -2.5554 4.06902e-05 4
-4.01388 8.60779 -2.54488 0.000330743 4
-4.66327 10.0004 -2.54746 0.000218649 4
-5.54164 11.8841 -2.54884 0.000111487 4
-6.81878 14.6229 -2.55547 5.31478e-05 4
-4.04652 8.5993 -2.54654 0.000412003 4
-4.70801 10.005 -2.5528 0.00018437 4
-5.59329 11.8863 -2.5535 0.000130902 4
-6.8677 14.5946 -2.55469 4.69114e-05 4
-4.08192 8.5965 -2.54991 0.000406374 4
-4.73842 9.97909 -2.55039 0.000182725 4
-5.63464 11.8665 -2.55345 0.000122446 4
-6.91745 14.5681 -2.55427 3.81111e-05 4
-4.11107 8.58048 -2.5494 0.000358709 4
-4.77318 9.9624 -2.55036 0.000205552 4
-5.67371 11.842 -2.55241 0.00011568 4
-6.96747 14.5423 -2.55398 4.58015e-05 4
-4.13978 8.56355 -2.54865 0.000381106 4
-4.81064 9.9513 -2.55181 0.000166387 4
-5.71165 11.8151 -2.5509 0.000112293 4
-7.02139 14.5245 -2.55515 4.17663e-05 4
-4.16401 8.53749 -2.5452 0.000381084 4
-4.8473 9.93845 -2.55283 0.000185949 4
-5.75337 11.7962 -2.55113 0.000113972 4
-7.0672 14.4899 -2.5534 4.43259e-05 4
-4.20252 8.54064 -2.5505 0.000381062 4
-4.87719 9.91176 -2.55034 0.000161471 4
-5.79615 11.7793 -2.55185 0.000124092 4
-7.12707 14.4841 -2.55674 5.38444e-05 4
-4.23018 8.52164 -2.54922 0.000353022 4
-4.91497 9.90116 -2.55201 0.000244636 4
-5.83985 11.7643 -2.553 0.000114796 4
-7.16593 14.4357 -2.55259 5.75009e-05 4
-4.25436 8.49576 -2.54591 0.000100858 4
-4.94237 9.86967 -2.54832 0.000259296 4
-5.87515 11.7324 -2.55051 8.77778e-05 4
-7.22776 14.4335 -2.55665 5.60297e-05 4
-4.28173 8.47639 -2.54457 0.000366988 4
-4.9786 9.85595 -2.54925 0.000234818 4
-5.92354 11.7266 -2.55373 0.000103805 4
-7.27807 14.4081 -2.55665 4.35738e-05 4
-4.31645 8.47152 -2.54761 0.000397782 4
-5.01559 9.84366 -2.55058 0.000236433 4
-5.96254 11.7021 -2.55292 0.0001308 4
-7.32853 14.3831 -2.55672 4.61318e-05 4
-4.34338 8.4513 -2.54607 0.000369748 4
-5.04758 9.82152 -2.5494 0.000198916 4
-5.99821 11.6713 -2.55073 0.000111382 4
-7.37236 14.3451 -2.55452 3.51442e-05 4
-4.37798 8.44599 -2.54906 0.000386532 4
-5.08149 9.8032 -2.54923 0.000132058 4
-6.04693 11.6657 -2.55412 0.000115591 4
-7.42979 14.3335 -2.55707 5.45407e-05 4
-4.41097 8.4374 -2.5511 0.000324893 4
-5.20905 9.964 -2.59576 7.34908e-05 4
-6.08729 11.6439 -2.55398 0.000128236 4
-7.48069 14.3092 -2.55738 5.67308e-05 4
-4.43843 8.41824 -2.54997 0.000414495 4
-5.42858 10.2962 -2.68723 7.18001e-05 4
-6.12475 11.6166 -2.55267 0.000102918 4
-7.52658 14.2754 -2.55602 5.1601e-05 4
-4.46053 8.38904 -2.54583 0.000375264 4
-5.56773 10.4714 -2.738 0.000217371 1
-6.16503 11.5947 -2.55257 0.00012231 4
-7.57703 14.2503 -2.55624 5.70843e-05 4
-4.49695 8.38679 -2.5499 0.000282833 4
-5.6124 10.4671 -2.74198 0.000217356 1
-6.20935 11.5804 -2.55417 0.000134108 4
-7.62287 14.2166 -2.55495 4.82968e-05 4
-4.52255 8.36427 -2.54784 0.000411624 4
-5.6417 10.4341 -2.73848 0.000217341 1
-6.24697 11.5535 -2.55304 9.44581e-05 4
-7.67511 14.1948 -2.55584 4.64624e-05 4
-4.55609 8.35647 -2.55029 0.000333201 4
-5.68658 10.4299 -2.74258 0.000217327 1
-7.71844 14.1566 -2.5538 4.7189e-05 4
-4.58509 8.34025 -2.55021 0.000296784 4
-5.72374 10.4115 -2.74296 0.000217312 1
-6.80152 12.3719 -2.74431 0.000111094 1
-7.77386 14.1406 -2.55578 4.53551e-05 4
-4.61762 8.33041 -2.55211 0.000307967 4
-5.761 10.3931 -2.74341 0.000217297 1
-6.84215 12.3436 -2.7433 0.000111085 1
-4.64249 8.30677 -2.54982 0.000450726 4
-5.79571 10.3702 -2.74269 0.000217283 1
-6.88907 12.3266 -2.74485 0.000111076 1
-7.87891 14.0977 -2.5579 5.37562e-05 4
-4.66534 8.27965 -2.54648 0.000386315 4
-5.82851 10.3439 -2.7411 0.000217268 1
-6.92621 12.292 -2.74253 0.000111067 1
-4.70274 8.27832 -2.5511 0.00040029 4
-5.86897 10.3313 -2.74316 0.000217253 1
-6.97146 12.272 -2.74347 0.000111057 1
-8.55899 15.0666 -2.74448 4.73281e-05 1
-4.72546 8.25111 -2.54778 0.000369479 4
-5.89487 10.293 -2.73845 0.000217239 1
-7.0121 12.2438 -2.74263 0.000111048 1
-8.61772 15.0474 -2.74645 4.73229e-05 1
-4.75714 8.2396 -2.54934 0.000380654 4
-5.92929 10.2698 -2.73777 0.000217224 1
-7.05386 12.2177 -2.74226 0.000111039 1
-8.6721 15.0205 -2.74705 4.73178e-05 1
-4.78438 8.22038 -2.54855 0.000358243 4
-5.976 10.2678 -2.74277 0.00021721 1
-7.09895 12.1972 -2.74322 0.00011103 1
-8.72358 14.9886 -2.74677 4.73128e-05 1
-4.8175 8.21124 -2.55091 0.0004058 4
-6.0038 10.2332 -2.73912 0.000217195 1
-7.14139 12.1722 -2.74319 0.000111021 1
-8.77469 14.9561 -2.74641 4.73077e-05 1
-4.83867 8.18175 -2.54698 0.000436561 4
-6.04187 10.2163 -2.7402 0.000217181 1
-7.19128 12.1598 -2.74603 0.000111012 1
-8.83431 14.938 -2.74873 4.73026e-05 1
-4.87811 8.18311 -2.55269 0.000402958 4
-6.0869 10.2109 -2.74444 0.000217167 1
-7.23119 12.1304 -2.74509 0.000111002 1
-8.87718 14.8916 -2.74588 4.72976e-05 1
-4.9016 8.15763 -2.55006 0.000352569 4
-6.11396 10.1753 -2.74061 0.000217153 1
-7.26331 12.0882 -2.74124 0.000110993 1
-8.93007 14.8621 -2.74618 4.72926e-05 1
-4.93499 8.14864 -2.55262 0.000349752 4
-6.14401 10.145 -2.73819 0.000217138 1
-7.31625 12.0806 -2.74529 0.000110984 1
-8.98252 14.8319 -2.74637 4.72876e-05 1
-4.95403 8.11601 -2.5478 0.000293776 4
-6.18877 10.1388 -2.74235 0.000217124 1
-7.35122 12.0432 -2.74262 0.000110975 1
-9.0374 14.8056 -2.74733 4.72826e-05 1
-4.9863 8.10511 -2.54983 0.000369299 4
-6.2148 10.102 -2.73824 0.00021711 1
-7.39229 12.016 -2.74228 0.000110967 1
-9.08373 14.7654 -2.74573 4.72776e-05 1
-5.00959 8.07964 -2.5473 0.000318923 4
-6.26294 10.1011 -2.7439 0.000217096 1
-7.43184 11.9863 -2.74141 0.000110958 1
-9.1405 14.7421 -2.74732 4.72727e-05 1
-5.03902 8.06412 -2.54794 0.00034688 4
-6.28544 10.0588 -2.73836 0.000217082 1
-7.47892 11.9688 -2.74335 0.000110949 1
-9.19072 14.7082 -2.74696 4.72678e-05 1
-5.07694 8.06205 -2.55287 0.000388821 4
-6.31977 10.0356 -2.73803 0.000217068 1
-7.52319 11.9466 -2.74428 0.00011094 1
-9.24046 14.6736 -2.7465 4.72629e-05 1
-5.10462 8.0436 -2.55265 0.000355235 4
-6.36455 10.0289 -2.74226 0.000217054 1
-7.55949 11.9119 -2.74233 0.000110931 1
-9.29905 14.653 -2.7487 4.7258e-05 1
-5.12508 8.01387 -2.54888 0.000447517 4
-6.3963 10.0016 -2.74087 0.00021704 1
-7.60638 11.8938 -2.74427 0.000110922 1
-9.34463 14.6118 -2.74708 4.72531e-05 1
-5.16167 8.00934 -2.55315 0.000324433 4
-6.43174 9.98012 -2.74112 0.000217027 1
-7.65175 11.8732 -2.74567 0.000110914 1
-9.39153 14.5728 -2.74589 4.72482e-05 1
-5.18608 7.98587 -2.55143 0.000385944 4
-6.46064 9.94851 -2.73861 0.000217013 1
-7.68634 11.8359 -2.74324 0.000110905 1
-9.44778 14.5483 -2.74747 4.72434e-05 1
-5.21179 7.96446 -2.55038 0.000346772 4
-6.49848 9.93073 -2.73995 0.000216999 1
-7.72602 11.8066 -2.74267 0.000110896 1
-9.50009 14.5177 -2.74793 4.72386e-05 1
-5.23287 7.93607 -2.54713 0.000302012 4
-6.53721 9.9142 -2.74167 0.000216986 1
-7.7796 11.7984 -2.74705 0.000110888 1
-9.55479 14.4906 -2.74911 4.72338e-05 1
-5.27172 7.93458 -2.55254 0.000310385 4
-6.57015 9.88888 -2.74099 0.000216972 1
-7.81664 11.765 -2.74562 0.000110879 1
-9.60374 14.4548 -2.74866 4.7229e-05 1
-5.2929 7.90644 -2.54941 0.00023767 4
-6.60885 9.87219 -2.74274 0.000216959 1
-7.85602 11.7352 -2.74505 0.00011087 1
-9.647 14.4105 -2.74662 4.72243e-05 1
-5.326 7.89612 -2.55207 0.000299169 4
-6.64382 9.84986 -2.74296 0.000216945 1
-7.89787 11.7091 -2.74537 0.000110862 1
-9.7057 14.3893 -2.74902 4.72195e-05 1
-5.35569 7.88067 -2.5531 0.000287971 4
-6.67211 9.81772 -2.74048 0.000216932 1
-7.94273 11.6874 -2.74677 0.000110853 1
-9.75095 14.3481 -2.74763 4.72148e-05 1
-5.3767 7.85247 -2.55003 0.00036344 4
-6.71187 9.80244 -2.74274 0.000216918 1
-7.98009 11.6546 -2.7456 0.000110845 1
-9.80738 14.3233 -2.74943 4.72101e-05 1
-5.40423 7.83388 -2.5501 0.000360626 4
-6.74693 9.78024 -2.7431 0.000216905 1
-8.02435 11.632 -2.74684 0.000110836 1
-9.85406 14.2843 -2.74852 4.72054e-05 1
-5.43051 7.81349 -2.54962 0.000391358 4
-6.78424 9.76124 -2.7444 0.000216892 1
-8.05895 11.5953 -2.74481 0.000110828 1
-9.90875 14.2568 -2.74988 4.72007e-05 1
-5.45532 7.791 -2.54848 0.000296299 4
-6.80418 9.71739 -2.73873 0.000216879 1
-8.10482 11.5749 -2.74666 0.00011082 1
-9.94797 14.2072 -2.74698 4.71961e-05 1
-5.48875 7.7808 -2.55139 0.000391319 4
-6.84251 9.69987 -2.74051 0.000216866 1
-8.14365 11.5444 -2.74614 0.000110811 1
-9.99477 14.1685 -2.74623 4.71914e-05 1
-5.50912 7.75209 -2.54827 0.000338194 4
-6.88745 9.69159 -2.74494 0.000216852 1
-8.18706 11.5203 -2.74721 0.000110803 1
-10.055 14.1488 -2.7492 4.71868e-05 1
-5.54676 7.74763 -2.55315 0.000329793 4
-6.91403 9.65742 -2.74208 0.000216839 1
-8.21461 11.4741 -2.74299 0.000110795 1
-10.1024 14.1109 -2.74868 4.71823e-05 1
-5.56486 7.71586 -2.54907 0.000338161 4
-6.9497 9.636 -2.74287 0.000216827 1
-8.25642 11.4478 -2.74359 0.000110787 1
-10.1514 14.0753 -2.74863 4.71777e-05 1
-5.59014 7.69417 -2.54834 0.000382858 4
-6.97848 9.60506 -2.74098 0.000216814 1
-8.30514 11.431 -2.74651 0.000110778 1
-10.1955 14.0329 -2.74727 4.71731e-05 1
-5.62767 7.68924 -2.55319 0.000396811 4
-7.02083 9.59274 -2.74445 0.000216801 1
-8.33703 11.3911 -2.74389 0.00011077 1
-10.2421 13.9941 -2.74667 4.71686e-05 1
-5.64492 7.65658 -2.54888 0.000312963 4
-7.05636 9.57101 -2.74526 0.000216788 1
-8.38712 11.376 -2.74729 0.000110762 1
-10.3019 13.9732 -2.74961 4.71641e-05 1
-5.66589 7.62913 -2.54631 0.000349272 4
-7.08104 9.53463 -2.7419 0.000216775 1
-8.42243 11.3408 -2.74587 0.000110754 1
-10.356 13.9443 -2.75101 4.71596e-05 1
-5.70367 7.62426 -2.55131 0.00039396 4
-7.11849 9.51548 -2.74352 0.000216762 1
-8.45458 11.3015 -2.74347 0.000110746 1
-10.4025 13.9053 -2.75047 4.71551e-05 1
-5.73518 7.61084 -2.5535 0.000405117 4
-7.14809 9.48584 -2.74215 0.00021675 1
-8.50704 11.2892 -2.74769 0.000110738 1
-10.4478 13.8648 -2.74964 4.71507e-05 1
-5.75296 7.57925 -2.54963 0.000335253 4
-7.19056 9.47321 -2.74574 0.000216737 1
-8.54685 11.2601 -2.74784 0.00011073 1
-10.4994 13.8324 -2.75048 4.71462e-05 1
-5.77945 7.55921 -2.54966 0.000279364 4
-7.20816 9.42789 -2.73988 0.000216725 1
-8.57405 11.2144 -2.74398 0.000110722 1
-10.5376 13.7827 -2.74789 4.71418e-05 1
-5.8026 7.53483 -2.54825 0.000351982 4
-7.24278 9.40495 -2.74054 0.000216712 1
-8.62526 11.2001 -2.74784 0.000110714 1
-10.585 13.745 -2.74772 4.71374e-05 1
-5.83674 7.52469 -2.55169 0.000251404 4
-7.27556 9.3796 -2.74054 0.0002167 1
-8.64876 11.1499 -2.74291 0.000110706 1
-10.6323 13.7071 -2.74756 4.7133e-05 1
-7.31596 9.36401 -2.74343 0.000216687 1
-8.69983 11.1353 -2.74676 0.000110698 1
-10.6851 13.6763 -2.74884 4.71287e-05 1
-5.88474 7.47817 -2.54979 0.000153621 4
-7.34626 9.33543 -2.74255 0.000216675 1
-8.73851 11.1047 -2.74672 0.00011069 1
-10.7306 13.6361 -2.74828 4.71244e-05 1
-5.906 7.45152 -2.54772 0.000393811 4
-7.37047 9.29922 -2.73946 0.000216663 1
-8.77012 11.0651 -2.7445 0.000110683 1
-10.7886 13.6119 -2.75096 4.712e-05 1
-5.93751 7.43779 -2.55009 0.000399379 4
-7.41047 9.28294 -2.74226 0.00021665 1
-8.81812 11.0463 -2.74744 0.000110675 1
-10.8384 13.5771 -2.75155 4.71157e-05 1
-5.96477 7.41868 -2.55066 0.000446837 4
-7.44846 9.26401 -2.74434 0.000216638 1
-8.85083 11.0082 -2.74564 0.000110667 1
-10.8704 13.52 -2.74767 4.71114e-05 1
-5.98729 7.39369 -2.54924 0.000296016 4
-7.47916 9.23599 -2.74375 0.000216626 1
-8.88296 10.9695 -2.74371 0.00011066 1
-10.9219 13.4874 -2.74877 4.71072e-05 1
-6.01746 7.37814 -2.55111 0.000371399 4
-7.51075 9.2091 -2.74354 0.000216614 1
-8.92814 10.947 -2.74585 0.000110652 1
-10.9641 13.4433 -2.74757 4.71029e-05 1
-22.7394 27.8813 3.1477 2.97844e-05 10
-6.04147 7.35501 -2.55039 0.00036859 4
-7.54988 9.19137 -2.74609 0.000216602 1
-8.97392 10.925 -2.74818 0.000110644 1
-11.0255 13.4226 -2.75119 4.70987e-05 1
-22.8285 27.7919 3.14659 2.97196e-05 10
-6.06527 7.33166 -2.54961 0.000346236 4
-7.57439 9.15587 -2.74337 0.00021659 1
-8.99844 10.8773 -2.74405 0.000110637 1
-11.0646 13.3748 -2.74927 4.70945e-05 1
-21.5184 26.0113 2.95348 4.02967e-05 10
-21.5136 26.0055 6.56051 3.70155e-05 10
-6.09984 7.32126 -2.55339 0.000393686 4
-7.60477 9.12753 -2.74281 0.000216578 1
-9.04613 10.8575 -2.74701 0.000110629 1
-11.1041 13.3276 -2.74753 4.70903e-05 1
-22.8972 27.4821 -0.624381 4.00833e-05 10
-22.8841 27.4663 0.624023 4.0074e-05 10
-20.8425 25.016 2.84871 4.76282e-05 10
-20.8376 25.01 6.32768 4.38126e-05 10
-6.12498 7.29946 -2.55323 0.000388084 4
-7.64633 9.11254 -2.74631 0.000216567 1
-9.07778 10.8185 -2.74514 0.000110622 1
-11.153 13.2917 -2.74814 4.70862e-05 1
-23.0021 27.4128 -0.624628 3.99878e-05 10
-22.994 27.4032 0.624407 3.99785e-05 10
-6.1506 7.27825 -2.5533 0.000374108 4
-7.67722 9.08477 -2.746 0.000216555 1
-9.12079 10.793 -2.74674 0.000110614 1
-11.2132 13.2691 -2.75154 4.70821e-05 1
-23.0915 27.3251 -0.624463 3.98897e-05 10
-23.1083 27.3449 0.624915 3.98803e-05 10
-19.9488 23.6062 1.61974 6.12098e-05 10
-19.9446 23.6012 2.70339 6.03852e-05 10
-19.9381 23.5936 3.7928 5.91714e-05 10
-19.9375 23.5928 4.89231 5.75876e-05 10
-19.9368 23.592 6.00398 5.56584e-05 10
-19.9391 23.5948 7.13186 5.34141e-05 10
-19.9401 23.5959 8.27772 5.08893e-05 10
-6.16259 7.24102 -2.54777 0.000329423 4
-7.69873 9.04598 -2.74238 0.000216543 1
-9.16357 10.7672 -2.74829 0.000110607 1
-11.2544 13.2239 -2.75031 4.70779e-05 1
-20.0269 23.5316 1.6194 6.10653e-05 10
-20.0287 23.5336 2.70364 6.02425e-05 10
-20.0313 23.5367 3.79487 5.90313e-05 10
-20.0444 23.5521 4.89835 5.74509e-05 10
-20.0399 23.5468 6.01026 5.5526e-05 10
-20.0366 23.5429 7.13727 5.32866e-05 10
-20.0426 23.55 8.28613 5.07673e-05 10
-6.20158 7.2355 -2.55343 0.000362908 4
-7.73609 9.02585 -2.74445 0.000216532 1
-9.18464 10.7159 -2.74337 0.0001106 1
-11.2985 13.1822 -2.74982 4.70738e-05 1
-20.124 23.479 1.62061 6.0917e-05 10
-20.1221 23.4768 2.70517 6.0096e-05 10
-20.1248 23.48 3.79703 5.88876e-05 10
-20.1294 23.4853 4.89906 5.73106e-05 10
-20.1209 23.4754 6.00992 5.539e-05 10
-20.1206 23.4751 7.13797 5.31556e-05 10
-20.1346 23.4914 8.29018 5.06421e-05 10
-6.21409 7.1991 -2.54822 0.00039639 4
-7.76551 8.99644 -2.74373 0.00021652 1
-9.22911 10.692 -2.74549 0.000110592 1
-11.3385 13.1358 -2.74838 4.70698e-05 1
-20.2109 23.4145 -2.7061 7.69661e-05 10
-20.219 23.4239 -1.62167 7.79834e-05 10
-20.2215 23.4268 -0.540184 7.84877e-05 10
-20.2115 23.4153 0.539918 7.84705e-05 10
-20.2221 23.4276 1.62192 6.07649e-05 10
-20.2181 23.4228 2.70706 5.99458e-05 10
-20.2127 23.4166 3.79818 5.87401e-05 10
-20.2144 23.4186 4.89982 5.71668e-05 10
-20.2178 23.4225 6.01441 5.52506e-05 10
-20.2145 23.4187 7.14222 5.30214e-05 10
-20.2272 23.4335 8.2946 5.05137e-05 10
-6.24447 7.18344 -2.55038 0.00032938 4
