VERSION 0.7
FIELDS x y z intensity label
SIZE 4 4 4 4 4
TYPE F F F F F
COUNT 1 1 1 1 1
WIDTH 1174
HEIGHT 1
VIEWPOINT 12.5679 43.8718 2.72849 0.878828 -0.000471364 0.000705454 0.477138
POINTS 1174
DATA ascii
4.61475 -13.8725 2.84182 0.000909783 10
4.6078 -13.8516 3.37018 0.000882044 10
4.52601 -13.6057 3.84205 0.000234347 10
3.24013 -9.62785 -2.72195 0.000384638 1
3.76388 -11.1841 -2.72436 0.000222812 1
4.46869 -13.2784 -2.72331 0.000114587 1
5.0926 -15.1324 -2.52881 0.00023192 10
5.09214 -15.131 -1.96024 0.000236627 10
6.32142 -18.7837 -1.73393 0.000446213 10
6.36047 -18.8998 -1.04508 7.47195e-05 10
6.36323 -18.908 -0.348228 7.5066e-05 10
6.36274 -18.9065 0.348201 7.49934e-05 10
6.36177 -18.9036 1.04529 7.45028e-05 10
5.10019 -15.1549 1.39895 0.000186406 10
5.09861 -15.1502 1.96273 0.000183334 10
4.65695 -13.8378 2.31248 0.000936917 10
4.65312 -13.8265 2.83571 0.000913226 10
4.65473 -13.8312 3.36917 0.000885389 10
5.10204 -15.1604 4.28609 0.000162493 10
3.27917 -9.63249 -2.72648 0.00038467 1
3.79741 -11.1548 -2.72043 0.000222834 1
4.51571 -13.2648 -2.72373 0.000114601 1
5.21518 -15.3195 -2.56311 0.000218688 10
5.21756 -15.3265 -1.98791 0.000223142 10
6.37813 -18.7357 -1.73154 0.000448037 10
8.5028 -24.9768 1.38275 7.50948e-05 10
5.2226 -15.3413 1.41783 0.000175777 10
5.22077 -15.3359 1.98914 0.000172866 10
5.22188 -15.3392 2.56641 0.000169096 10
5.22048 -15.3351 3.14883 0.000164512 10
5.22216 -15.34 3.74111 0.000159169 10
5.22202 -15.3396 4.34187 0.00015313 10
3.31423 -9.62522 -2.72768 0.000384701 1
3.84046 -11.1535 -2.72336 0.000222855 1
4.5557 -13.2307 -2.71998 0.000114615 1
5.3381 -15.503 -2.59692 0.00020598 10
5.33614 -15.4973 -2.01247 0.000210191 10
6.43695 -18.6943 -1.72978 0.00044984 10
8.56006 -24.8602 -1.37794 0.000101145 10
8.55668 -24.8504 -0.45876 0.00010179 10
8.5566 -24.8502 0.458755 0.000101805 10
5.34219 -15.5149 1.43559 0.000165569 10
5.34658 -15.5276 2.01641 0.000162814 10
5.35316 -15.5467 2.60424 0.000159246 10
5.34836 -15.5328 3.19324 0.000154909 10
5.35389 -15.5488 3.79658 0.000149854 10
5.35629 -15.5558 4.40834 0.000144143 10
3.34128 -9.59486 -2.72236 0.000384733 1
3.88097 -11.1446 -2.72449 0.000222878 1
4.60181 -13.2146 -2.71995 0.000114629 1
5.46456 -15.6921 -2.63177 0.000193787 10
5.47036 -15.7087 -2.0424 0.000197763 10
6.49422 -18.6489 -1.72766 0.000451623 10
6.49493 -18.6509 -1.03502 0.0003017 10
6.49283 -18.6449 -0.344616 0.000303427 10
6.49322 -18.646 0.344637 0.000303466 10
6.50047 -18.6668 1.03591 0.000301818 10
5.47836 -15.7317 1.45741 0.000155774 10
5.48158 -15.741 2.04658 0.000153168 10
5.47609 -15.7252 2.63732 0.000149796 10
5.48393 -15.7477 3.24134 0.000145696 10
5.47822 -15.7313 3.84577 0.00014092 10
5.48611 -15.754 4.4699 0.000135523 10
3.37639 -9.58778 -2.72368 0.000384765 1
3.91854 -11.1273 -2.72358 0.000222899 1
4.65171 -13.2093 -2.72218 0.000114643 1
5.6019 -15.9075 -2.67116 0.000182097 10
5.60525 -15.917 -2.072 0.000185847 10
6.55591 -18.6165 -1.72678 0.000453387 10
5.60824 -15.9255 1.47717 0.000146382 10
5.59271 -15.8814 2.06737 0.000603434 10
5.59507 -15.8881 2.6679 0.000590756 10
5.59159 -15.8782 3.27219 0.000575181 10
5.61624 -15.9482 3.90356 0.000132357 10
5.61803 -15.9533 4.53198 0.000127264 10
3.40963 -9.57535 -2.72352 0.000384796 1
3.95413 -11.1045 -2.72136 0.000222921 1
4.69989 -13.1988 -2.72339 0.000114657 1
5.73737 -16.1124 -2.70892 0.0001709 10
5.7409 -16.1223 -2.10133 0.000174434 10
5.99128 -16.8255 -1.56258 0.00042447 10
5.99669 -16.8407 -0.936866 0.000429136 10
5.99692 -16.8413 -0.312047 0.000431511 10
5.99453 -16.8346 0.311922 0.000431565 10
5.99723 -16.8422 0.93695 0.000429297 10
5.74782 -16.1418 1.49908 0.000137387 10
5.63935 -15.8371 2.06416 0.000605638 10
5.64506 -15.8532 2.66533 0.000592916 10
5.63976 -15.8383 3.26801 0.000577289 10
5.75576 -16.1641 3.9613 0.000124158 10
5.75935 -16.1741 4.60041 0.000119358 10
3.44031 -9.55584 -2.72136 0.000384828 1
3.99201 -11.0882 -2.72077 0.000222943 1
4.74649 -13.1839 -2.72371 0.000114671 1
5.82002 -16.1657 -2.72128 4.93406e-05 1
5.88942 -16.3585 -2.13478 0.000163511 10
6.05158 -16.8089 -1.56299 0.000426024 10
6.05001 -16.8045 -0.936026 0.000430705 10
6.05112 -16.8076 -0.311813 0.000433088 10
6.05013 -16.8049 0.311761 0.000433143 10
6.0429 -16.7848 0.934927 0.000430868 10
5.89154 -16.3644 1.52166 0.000128778 10
5.69083 -15.8069 2.06279 0.000607815 10
5.6881 -15.7993 2.6596 0.000595051 10
5.69175 -15.8094 3.26614 0.000579371 10
5.8997 -16.387 4.02096 0.000116316 10
5.90497 -16.4017 4.67096 0.000111796 10
3.4779 -9.55545 -2.72469 0.000384859 1
4.03315 -11.081 -2.72243 0.000222965 1
4.78897 -13.1576 -2.72171 0.000114685 1
5.87548 -16.1428 -2.72085 4.93484e-05 1
6.03391 -16.578 -2.16616 0.000153067 10
6.09831 -16.755 -1.55995 0.000427559 10
6.10589 -16.7758 -0.935606 0.000432256 10
6.10208 -16.7653 -0.311421 0.000434647 10
6.10347 -16.7692 0.311492 0.000434701 10
6.1058 -16.7756 0.935593 0.000432419 10
6.03827 -16.59 1.54459 0.000120548 10
5.74726 -15.7905 2.06325 0.000609966 10
5.7434 -15.7799 2.65968 0.00059716 10
5.74033 -15.7714 3.2624 0.000581428 10
5.74506 -15.7844 3.87799 0.000562962 10
6.04351 -16.6044 4.73467 0.000104571 10
3.51134 -9.54355 -2.72478 0.000384891 1
4.07308 -11.0703 -2.72328 0.000222987 1
4.83893 -13.1518 -2.724 0.000114699 1
5.92761 -16.1108 -2.71893 4.93562e-05 1
6.18298 -16.8049 -2.19861 0.000143093 10
6.18023 -16.7974 -1.56589 9.59651e-05 10
6.18679 -16.8152 -0.939004 9.69065e-05 10
6.25262 -16.9941 -0.316075 0.000413721 10
6.24825 -16.9823 0.315853 0.000413773 10
6.25078 -16.9891 0.948715 0.00041159 10
6.19544 -16.8387 1.56975 0.000112687 10
5.79141 -15.7406 2.05937 0.000612089 10
5.79718 -15.7563 2.6591 0.000599241 10
5.78947 -15.7353 3.25909 0.000583459 10
5.79656 -15.7546 3.87561 0.000564933 10
6.1995 -16.8498 4.81077 9.76752e-05 10
3.54242 -9.52529 -2.72308 0.000384922 1
4.10794 -11.0459 -2.72079 0.000223009 1
4.88088 -13.1243 -2.72181 0.000114712 1
5.98677 -16.0979 -2.72027 4.9364e-05 1
6.34347 -17.0571 -2.23449 0.000133576 10
6.40268 -17.2163 -1.60702 0.000387493 10
6.40606 -17.2254 -0.963151 0.00039179 10
6.40172 -17.2137 -0.320572 0.000393977 10
6.40015 -17.2095 0.320493 0.000394027 10
6.40405 -17.22 0.962848 0.000391938 10
6.34843 -17.0704 1.5934 0.000105188 10
5.84151 -15.7074 2.05767 0.000614185 10
5.83959 -15.7022 2.6534 0.000601297 10
5.84437 -15.715 3.2591 0.000585464 10
5.84405 -15.7142 3.87066 0.000566879 10
6.36083 -17.1038 4.8896 9.11002e-05 10
3.57877 -9.52118 -2.72546 0.000384954 1
4.15207 -11.0464 -2.72447 0.000223031 1
4.92865 -13.1125 -2.72291 0.000114726 1
6.04092 -16.0716 -2.71937 4.93718e-05 1
6.50527 -17.307 -2.27019 0.000124506 10
6.54972 -17.4252 -1.62865 0.000369131 10
6.55558 -17.4409 -0.976473 0.000373244 10
6.55674 -17.4439 -0.325284 0.000375338 10
6.54891 -17.4231 0.324895 0.000375385 10
6.55093 -17.4285 0.975779 0.000373386 10
6.5069 -17.3113 1.618 9.80405e-05 10
5.91857 -15.7461 2.06545 0.000133277 10
5.92591 -15.7656 2.6676 0.000130319 10
5.92642 -15.767 3.27414 0.000126727 10
6.51213 -17.3253 4.27307 8.83469e-05 10
6.51373 -17.3295 4.96061 8.48387e-05 10
3.61176 -9.50802 -2.72529 0.000384985 1
4.18723 -11.023 -2.72228 0.000223053 1
4.96771 -13.0776 -2.71925 0.00011474 1
6.09842 -16.0542 -2.72001 4.93796e-05 1
6.67039 -17.5599 -2.30641 0.000115872 10
6.67028 -17.5597 -1.64338 0.00011767 10
6.7125 -17.6708 -0.990652 0.000355724 10
6.70417 -17.6489 -0.32954 0.000357729 10
6.71038 -17.6652 0.329845 0.000357774 10
6.70597 -17.6536 0.989688 0.00035586 10
6.67748 -17.5786 1.64515 9.12364e-05 10
6.07317 -15.9877 2.09991 0.000124283 10
6.38035 -16.7964 2.84576 0.000475923 10
6.37445 -16.7809 3.48928 0.000463115 10
6.68236 -17.5914 4.34445 8.21636e-05 10
6.68968 -17.6107 5.04776 7.88819e-05 10
3.64173 -9.48704 -2.7229 0.000385017 1
4.22687 -11.0114 -2.72304 0.000223074 1
5.0195 -13.0763 -2.7226 0.000114754 1
6.15623 -16.0375 -2.72081 4.93873e-05 1
6.8434 -17.8277 -2.3447 0.000107662 10
6.84362 -17.8283 -1.67074 0.000109339 10
6.86484 -17.8835 -1.00392 0.000339163 10
6.86825 -17.8924 -0.334533 0.000341084 10
6.86627 -17.8872 0.334436 0.000341127 10
6.86168 -17.8753 1.00345 0.000339293 10
6.84706 -17.8372 1.67158 8.4767e-05 10
6.23253 -16.2363 2.1354 0.000115717 10
6.4366 -16.7679 2.84472 0.00047751 10
6.43078 -16.7528 3.48808 0.000464662 10
6.86099 -17.8735 4.42 7.62875e-05 10
6.85789 -17.8654 5.1276 7.32225e-05 10
3.6758 -9.47678 -2.72362 0.000385048 1
4.26418 -10.9937 -2.72234 0.000223096 1
5.06805 -13.0662 -2.72418 0.000114768 1
6.21162 -16.0145 -2.72057 4.93951e-05 1
7.01354 -18.082 -2.38135 9.98647e-05 10
7.02015 -18.099 -1.6984 0.000101428 10
7.025 -18.1115 -1.01809 0.00048976 10
7.01675 -18.0903 -0.338688 0.00010289 10
7.02795 -18.1191 0.339228 0.00010277 10
7.02186 -18.1034 1.01763 0.000102082 10
7.02232 -18.1046 1.69893 7.86234e-05 10
6.48512 -16.7196 2.20193 0.000489569 10
6.48928 -16.7304 2.84218 0.000479074 10
6.4923 -16.7381 3.48974 0.000466188 10
7.02863 -18.1209 4.48721 7.07105e-05 10
7.03196 -18.1295 5.2104 6.78521e-05 10
3.70419 -9.45198 -2.72019 0.000385079 1
4.30702 -10.9902 -2.72518 0.000223118 1
5.11211 -13.0446 -2.72337 0.000114782 1
6.26223 -15.9793 -2.71829 4.94029e-05 1
7.19833 -18.368 -2.42231 9.24699e-05 10
7.20439 -18.3834 -1.72744 9.39238e-05 10
7.19982 -18.3718 -1.03412 9.48649e-05 10
7.20392 -18.3822 -0.344623 9.52817e-05 10
7.20422 -18.383 0.344637 9.51682e-05 10
7.20786 -18.3923 1.03528 9.45259e-05 10
7.14253 -18.2256 1.71261 0.000366589 10
6.56064 -16.7408 2.20772 9.98227e-05 10
6.56215 -16.7446 2.84848 9.75535e-05 10
6.56301 -16.7468 3.49631 9.48015e-05 10
7.14707 -18.2372 4.52216 0.00033138 10
7.14699 -18.237 5.24844 0.000318399 10
3.73866 -9.44279 -2.72129 0.00038511 1
4.33701 -10.954 -2.71994 0.00022314 1
5.15581 -13.0221 -2.72241 0.000114796 1
6.32535 -15.976 -2.72146 4.94106e-05 1
9.57986 -24.196 -2.27675 0.000159296 10
9.57741 -24.1898 1.36348 0.000125826 10
7.20325 -18.1933 1.71193 0.00036778 10
7.20052 -18.1864 2.40167 0.000361715 10
7.19956 -18.184 3.09759 0.000353736 10
7.19822 -18.1806 3.80087 0.000343943 10
7.20098 -18.1876 4.51608 0.000332464 10
7.20107 -18.1878 5.24149 0.000319444 10
3.77677 -9.44259 -2.72501 0.000385142 1
4.37605 -10.9409 -2.72046 0.000223161 1
5.20084 -13.003 -2.72221 0.00011481 1
6.37922 -15.9492 -2.72067 4.94184e-05 1
9.6544 -24.1377 -2.27443 0.000159862 10
9.65919 -24.1497 -0.454002 0.000107603 10
9.65845 -24.1479 0.453967 0.000107618 10
9.65167 -24.1309 1.36205 0.000126272 10
7.25894 -18.1487 1.7101 0.000368952 10
7.26581 -18.1658 2.40228 0.00036287 10
7.26299 -18.1588 3.09759 0.000354867 10
7.25676 -18.1432 3.79831 0.000345046 10
7.2583 -18.1471 4.51227 0.000333532 10
7.25775 -18.1457 5.23661 0.000320473 10
3.80779 -9.42461 -2.72364 0.000385173 1
4.41825 -10.9355 -2.72294 0.000223183 1
5.24734 -12.9876 -2.7228 0.000114823 1
6.4314 -15.9183 -2.71921 4.94261e-05 1
9.73737 -24.1008 -2.27414 0.000160419 10
9.73368 -24.0917 1.36175 0.000126712 10
7.3249 -18.1298 1.71072 0.000370107 10
7.31765 -18.1118 2.3985 0.000364007 10
7.31568 -18.1069 3.09309 0.000355981 10
7.31805 -18.1128 3.79728 0.000346131 10
7.32427 -18.1282 4.51391 0.000334584 10
7.3214 -18.1211 5.23686 0.000321487 10
3.84318 -9.41743 -2.72543 0.000385204 1
4.45438 -10.9151 -2.72172 0.000223205 1
5.29336 -12.971 -2.72317 0.000114837 1
6.49026 -15.9039 -2.72061 4.94338e-05 1
9.80822 -24.0343 -2.27108 0.000160967 10
9.80851 -24.035 1.36047 0.000127145 10
7.38198 -18.089 1.70929 0.000371244 10
7.3811 -18.0868 2.39859 0.000365127 10
7.38243 -18.0901 3.09459 0.000357078 10
7.38227 -18.0897 3.79781 0.0003472 10
7.37768 -18.0785 4.50791 0.000335619 10
7.37591 -18.0741 5.23069 0.000322484 10
3.86914 -9.38725 -2.72058 0.000385235 1
4.49362 -10.9023 -2.72242 0.000223226 1
5.33039 -12.9325 -2.71898 0.000114851 1
6.54798 -15.8866 -2.72154 4.94416e-05 1
9.88499 -23.9828 -2.26946 0.000161507 10
9.88722 -23.9882 -1.35977 0.000108024 10
9.89037 -23.9958 -0.453032 0.000108709 10
9.88117 -23.9735 0.45261 0.000108724 10
9.89038 -23.9959 1.3602 0.00012757 10
7.4809 -18.15 1.71751 6.80264e-05 10
7.48669 -18.1641 2.41228 6.68063e-05 10
7.49302 -18.1794 3.11433 6.52348e-05 10
7.49615 -18.187 3.82372 6.3332e-05 10
7.49495 -18.1841 4.54075 6.11224e-05 10
7.49281 -18.1789 5.26856 5.86341e-05 10
3.90125 -9.37214 -2.72014 0.000385267 1
4.53355 -10.8911 -2.72356 0.000223248 1
5.38258 -12.9308 -2.72256 0.000114865 1
6.60281 -15.8622 -2.7213 4.94493e-05 1
9.96803 -23.9467 -2.26932 0.000162038 10
9.96297 -23.9345 1.35869 0.00012799 10
9.96086 -23.9294 2.26769 0.000126433 10
9.959 -23.925 3.18196 0.000124118 10
9.96375 -23.9364 4.10649 0.000121078 10
9.96662 -23.9433 5.04121 0.000117356 10
9.95952 -23.9262 5.98326 0.000113005 10
9.96513 -23.9397 6.94817 0.000108089 10
3.94023 -9.37344 -2.72449 0.000385298 1
4.57136 -10.8748 -2.72345 0.00022327 1
5.42356 -12.9022 -2.7205 0.000114879 1
6.64875 -15.8168 -2.71746 4.9457e-05 1
10.0429 -23.8911 -2.26736 0.000162561 10
10.0431 -23.8917 1.35824 0.000128402 10
10.0368 -23.8766 2.26599 0.000126841 10
10.0419 -23.8886 3.18177 0.000124519 10
10.0405 -23.8854 4.10373 0.000121469 10
10.0395 -23.8829 5.03586 0.000117736 10
10.0422 -23.8895 5.98279 0.000113373 10
10.0353 -23.8731 6.93896 0.000108442 10
3.96668 -9.3449 -2.7202 0.000385329 1
4.60588 -10.8508 -2.72144 0.000223291 1
5.47438 -12.8968 -2.72339 0.000114892 1
6.71039 -15.8087 -2.72008 4.94647e-05 1
10.1134 -23.8257 -2.2645 0.000163074 10
10.1165 -23.8329 -1.3569 0.000165127 10
10.1176 -23.8357 -0.451984 0.000166173 10
10.1206 -23.8427 0.452116 0.000166197 10
10.1184 -23.8375 1.35716 0.000128807 10
10.1196 -23.8403 2.26588 0.000127242 10
10.122 -23.8459 3.18077 0.000124913 10
10.1196 -23.8404 4.10203 0.000121854 10
10.1201 -23.8415 5.03455 0.00011811 10
10.1204 -23.8422 5.97976 0.000113734 10
10.1211 -23.8439 6.9407 0.000108789 10
3.9979 -9.32781 -2.71927 0.00038536 1
4.63949 -10.8248 -2.71896 0.000223313 1
5.51518 -12.8679 -2.72132 0.000114906 1
6.76071 -15.7739 -2.71815 4.94724e-05 1
10.1918 -23.7793 -2.26346 0.000163579 10
10.1974 -23.7923 -1.35661 0.000165638 10
10.196 -23.789 -0.45177 0.000166687 10
10.1966 -23.7905 0.451799 0.00016671 10
10.1955 -23.7879 1.35635 0.000129205 10
10.1916 -23.7788 2.2634 0.000127635 10
10.1979 -23.7936 3.17852 0.0001253 10
10.1915 -23.7786 4.0975 0.000122233 10
10.1944 -23.7854 5.03018 0.000118478 10
10.1942 -23.7848 5.97427 0.000114089 10
10.1903 -23.7757 6.93116 0.00010913 10
4.03642 -9.32763 -2.72331 0.000385391 1
4.67702 -10.808 -2.71882 0.000223334 1
5.55562 -12.8383 -2.71915 0.00011492 1
6.81397 -15.7462 -2.71744 4.94801e-05 1
10.2714 -23.7358 -2.26271 0.000164074 10
10.2727 -23.7388 -1.35559 0.000166139 10
10.2675 -23.7267 -0.451266 0.000167191 10
10.2751 -23.7445 0.451603 0.000167215 10
10.2735 -23.7407 1.35569 0.000129596 10
10.2664 -23.7242 2.26161 0.000128022 10
10.2762 -23.7468 3.17704 0.00012568 10
10.2714 -23.7358 4.09628 0.000122604 10
10.2736 -23.741 5.02834 0.000118839 10
10.2745 -23.743 5.97274 0.000114438 10
10.2684 -23.7289 6.92792 0.000109464 10
4.06634 -9.30749 -2.72156 0.000385422 1
4.72349 -10.8117 -2.72388 0.000223356 1
5.6027 -12.8241 -2.72026 0.000114934 1
6.87723 -15.7414 -2.72074 4.94878e-05 1
10.3519 -23.6945 -2.2622 0.000164561 10
10.3515 -23.6936 -1.35506 0.000166631 10
10.354 -23.6995 -0.451432 0.000167686 10
10.3512 -23.6929 0.451306 0.00016771 10
10.3492 -23.6885 1.35477 0.00012998 10
10.3515 -23.6937 2.26212 0.000128401 10
10.3455 -23.68 3.17291 0.000126053 10
10.3509 -23.6923 4.09499 0.000122969 10
10.346 -23.681 5.02325 0.000119193 10
10.3448 -23.6783 5.96551 0.00011478 10
10.3424 -23.6728 6.92205 0.000109793 10
4.09824 -9.29195 -2.72118 0.000385453 1
4.75784 -10.7875 -2.72196 0.000223377 1
5.65344 -12.8181 -2.72316 0.000114947 1
6.92462 -15.7002 -2.71779 4.94954e-05 1
10.4317 -23.6519 -2.2616 0.000165038 10
10.4269 -23.6409 -1.35412 0.000167114 10
10.4212 -23.628 -0.450762 0.000168172 10
10.4307 -23.6495 0.451171 0.000168195 10
10.4275 -23.6424 1.35421 0.000130356 10
10.4284 -23.6444 2.26088 0.000128774 10
10.4253 -23.6373 3.17205 0.000126419 10
10.4278 -23.6431 4.09274 0.000123327 10
10.4253 -23.6374 5.02169 0.000119541 10
10.4289 -23.6455 5.96637 0.000115116 10
10.4219 -23.6296 6.92 0.000110115 10
4.13659 -9.29094 -2.7251 0.000385484 1
4.79671 -10.7736 -2.72266 0.000223399 1
5.69475 -12.7906 -2.72154 0.000114961 1
6.9777 -15.6722 -2.71714 4.95031e-05 1
10.5055 -23.5957 -2.25972 0.000165506 10
10.5006 -23.5848 -1.353 0.000167588 10
10.5011 -23.5858 -0.450653 0.000168648 10
10.5024 -23.5888 0.45071 0.000168672 10
10.4991 -23.5813 1.3528 0.000130726 10
10.5068 -23.5987 2.26 0.000129139 10
10.4955 -23.5734 3.16837 0.000126778 10
10.5066 -23.5982 4.09129 0.000123678 10
10.4969 -23.5765 5.0165 0.000119882 10
10.4996 -23.5824 5.95967 0.000115445 10
10.5035 -23.5913 6.9195 0.000110432 10
4.16586 -9.26946 -2.72304 0.000385515 1
4.83605 -10.7607 -2.72366 0.00022342 1
5.73644 -12.7642 -2.72015 0.000114975 1
7.03078 -15.6442 -2.71653 4.95108e-05 1
10.572 -23.5237 1.3516 0.000131088 10
10.5717 -23.5231 2.25629 0.000129497 10
10.5821 -23.5462 3.16966 0.00012713 10
10.5764 -23.5335 4.08646 0.000124022 10
10.5733 -23.5267 5.01373 0.000120216 10
10.5773 -23.5356 5.95712 0.000115768 10
10.5727 -23.5254 6.91094 0.000110742 10
4.19613 -9.25031 -2.72171 0.000385546 1
4.87196 -10.7402 -2.72275 0.000223442 1
5.78637 -12.756 -2.72269 0.000114988 1
7.0846 -15.6179 -2.71624 4.95184e-05 1
11.2707 -24.8462 -1.42984 8.83784e-05 10
11.2753 -24.8562 -0.476419 8.89504e-05 10
11.2744 -24.8542 0.47638 8.89633e-05 10
10.65 -23.4777 1.35109 0.000131442 10
10.6537 -23.4859 2.25627 0.000129847 10
10.6494 -23.4765 3.16526 0.000127475 10
10.656 -23.491 4.08552 0.000124359 10
10.6511 -23.4801 5.0117 0.000120544 10
10.6498 -23.4773 5.95176 0.000116085 10
10.6513 -23.4807 6.90868 0.000111045 10
4.22758 -9.23385 -2.72119 0.000385576 1
4.91105 -10.7267 -2.72365 0.000223463 1
5.82035 -12.7128 -2.71779 0.000115002 1
7.14877 -15.6143 -2.71993 4.9526e-05 1
11.3492 -24.7888 -1.42881 8.86174e-05 10
11.3544 -24.8002 -0.476101 8.91908e-05 10
11.3456 -24.781 0.475734 8.92038e-05 10
10.7314 -23.4393 1.35103 0.00013179 10
10.7324 -23.4416 2.2556 0.000130191 10
10.736 -23.4495 3.16666 0.000127812 10
10.729 -23.4341 4.0821 0.000124689 10
10.7268 -23.4293 5.00882 0.000120864 10
10.7353 -23.448 5.95377 0.000116394 10
10.7274 -23.4307 6.90497 0.000111343 10
4.25979 -9.21903 -2.72119 0.000385607 1
4.9476 -10.7076 -2.72318 0.000223485 1
5.8691 -12.7019 -2.71983 0.000115016 1
7.19862 -15.5792 -2.71819 4.95337e-05 1
10.8091 -23.393 1.35053 0.000132129 10
10.8089 -23.3925 2.25449 0.000130527 10
10.8099 -23.3949 3.16435 0.000128143 10
10.8056 -23.3854 4.08017 0.000125011 10
10.8008 -23.3751 5.00526 0.000121178 10
10.8048 -23.3838 5.94702 0.000116697 10
10.81 -23.395 6.9055 0.000111634 10
4.29046 -9.20093 -2.72025 0.000385638 1
4.97598 -10.671 -2.71828 0.000223506 1
5.91278 -12.68 -2.71954 0.000115029 1
7.25085 -15.5495 -2.7174 4.95413e-05 1
12.0892 -25.9254 -1.49915 7.24688e-05 10
12.0901 -25.9273 -0.499348 7.29474e-05 10
12.0852 -25.9168 0.499144 7.29581e-05 10
11.4199 -24.4901 2.3641 0.000107335 10
11.4246 -24.5002 3.31923 0.000105335 10
11.4227 -24.496 6.23999 9.57475e-05 10
11.4183 -24.4867 7.23946 9.15105e-05 10
4.31969 -9.17981 -2.71844 0.000385669 1
5.01337 -10.654 -2.71838 0.000223527 1
5.95633 -12.6579 -2.71924 0.000115043 1
7.30479 -15.5235 -2.71729 4.95489e-05 1
12.519 -26.6043 -1.54093 6.43367e-05 10
12.5185 -26.6032 -0.513204 6.47668e-05 10
12.5185 -26.6032 0.513203 6.47764e-05 10
11.4969 -24.4322 2.36238 0.000107603 10
11.5034 -24.4461 3.31732 0.000105599 10
12.4561 -26.4705 5.68655 7.09203e-05 10
11.4957 -24.4296 6.23326 9.59892e-05 10
11.5013 -24.4416 7.23797 9.17424e-05 10
4.35828 -9.17852 -2.72255 0.000385699 1
5.05413 -10.644 -2.72032 0.000223548 1
6.00534 -12.6472 -2.72144 0.000115056 1
7.35693 -15.4937 -2.71655 4.95565e-05 1
12.5432 -26.416 2.5584 7.69001e-05 10
12.5401 -26.4094 3.58967 7.5419e-05 10
12.5351 -26.399 5.68054 7.11003e-05 10
12.5334 -26.3953 6.74592 6.83285e-05 10
4.3843 -9.15074 -2.71883 0.00038573 1
5.09679 -10.6378 -2.72327 0.00022357 1
6.04197 -12.6106 -2.71807 0.00011507 1
7.41832 -15.4832 -2.71924 4.95641e-05 1
14.8794 -31.0557 -0.601086 4.798e-05 10
14.8721 -31.0406 0.600793 4.79877e-05 10
13.1465 -27.4388 1.59454 6.53797e-05 10
12.6301 -26.3611 2.55735 7.70889e-05 10
12.6283 -26.3572 3.58854 7.56045e-05 10
13.1543 -27.4551 4.8218 6.16049e-05 10
12.6268 -26.3541 5.68034 7.12761e-05 10
12.6234 -26.347 6.74481 6.84979e-05 10
13.1531 -27.4526 8.15663 5.45495e-05 10
4.41685 -9.13669 -2.71923 0.000385761 1
5.12953 -10.6109 -2.72096 0.000223591 1
6.08625 -12.59 -2.71821 0.000115084 1
7.46783 -15.448 -2.71761 4.95717e-05 1
14.1931 -29.3599 -0.56922 4.09127e-05 10
14.1865 -29.3461 0.568952 4.0919e-05 10
13.2343 -27.3765 1.59359 6.55385e-05 10
12.7192 -26.311 2.55678 7.72731e-05 10
12.7185 -26.3095 3.58806 7.57854e-05 10
13.2424 -27.3931 4.81901 6.17553e-05 10
12.7102 -26.2924 5.67658 7.14475e-05 10
12.7061 -26.2838 6.73994 6.86632e-05 10
13.2391 -27.3865 8.15065 5.46841e-05 10
4.45463 -9.13335 -2.72284 0.000385791 1
5.16767 -10.5953 -2.72156 0.000223612 1
6.13502 -12.5787 -2.72036 0.000115097 1
7.52476 -15.428 -2.71871 4.95793e-05 1
14.2849 -29.2883 -0.568795 4.10123e-05 10
13.3262 -27.3228 1.59316 6.56934e-05 10
13.3237 -27.3177 2.65911 6.48385e-05 10
13.3258 -27.3219 3.73246 6.35681e-05 10
13.3287 -27.3279 4.8157 6.19019e-05 10
13.3312 -27.333 5.91124 5.98658e-05 10
13.3234 -27.3169 7.01675 5.74914e-05 10
13.3219 -27.3139 8.14284 5.48152e-05 10
4.47944 -9.10343 -2.71857 0.000385822 1
5.19774 -10.5632 -2.71795 0.000223633 1
6.17506 -12.5494 -2.71868 0.000115111 1
7.57678 -15.3981 -2.71807 4.95868e-05 1
14.8598 -30.1991 -0.587486 3.53016e-05 10
14.8544 -30.1882 0.587274 3.53071e-05 10
4.51575 -9.09692 -2.72131 0.000385852 1
5.23399 -10.5438 -2.71765 0.000223655 1
6.22483 -12.5398 -2.7213 0.000115124 1
7.63188 -15.3743 -2.71857 4.95944e-05 1
4.54782 -9.08178 -2.72152 0.000385882 1
5.27801 -10.5399 -2.72138 0.000223676 1
6.2702 -12.5213 -2.72201 0.000115137 1
7.68416 -15.3449 -2.7181 4.96019e-05 1
4.58106 -9.06895 -2.72245 0.000385913 1
5.31975 -10.5313 -2.72394 0.000223697 1
6.31092 -12.4935 -2.72074 0.000115151 1
7.72957 -15.3019 -2.71525 4.96095e-05 1
4.60731 -9.04237 -2.71928 0.000385943 1
5.35588 -10.5115 -2.72363 0.000223718 1
6.35333 -12.4691 -2.72024 0.000115164 1
7.78419 -15.2773 -2.71569 4.9617e-05 1
4.63744 -9.02348 -2.71845 0.000385974 1
5.38092 -10.4701 -2.71776 0.000223739 1
6.39393 -12.4412 -2.71901 0.000115178 1
7.84744 -15.2695 -2.71914 4.96245e-05 1
4.67579 -9.02051 -2.72246 0.000386004 1
5.42692 -10.4696 -2.72252 0.00022376 1
6.43147 -12.4076 -2.71654 0.000115191 1
7.89749 -15.2358 -2.71804 4.9632e-05 1
4.70469 -8.99924 -2.72098 0.000386034 1
5.45946 -10.443 -2.72054 0.000223781 1
6.48328 -12.4014 -2.72012 0.000115205 1
7.9534 -15.2134 -2.71898 4.96395e-05 1
4.73491 -8.98055 -2.72031 0.000386064 1
5.48954 -10.4118 -2.7174 0.000223802 1
6.52898 -12.3833 -2.72115 0.000115218 1
7.99743 -15.1685 -2.71592 4.9647e-05 1
4.76172 -8.95549 -2.71773 0.000386094 1
5.52771 -10.3961 -2.71832 0.000223823 1
6.57116 -12.3586 -2.72073 0.000115231 1
8.04928 -15.1385 -2.71556 4.96545e-05 1
4.80324 -8.95801 -2.72357 0.000386124 1
5.57218 -10.3921 -2.72233 0.000223844 1
6.6068 -12.3216 -2.71766 0.000115245 1
8.11007 -15.1252 -2.71825 4.9662e-05 1
4.83294 -8.93833 -2.7227 0.000386154 1
5.59865 -10.3545 -2.71759 0.000223865 1
6.64918 -12.2974 -2.71742 0.000115258 1
8.16258 -15.0964 -2.71817 4.96694e-05 1
4.86187 -8.91729 -2.72144 0.000386185 1
5.64472 -10.3531 -2.72239 0.000223885 1
6.69647 -12.2822 -2.71921 0.000115271 1
8.21266 -15.0631 -2.71732 4.96769e-05 1
4.89301 -8.90035 -2.72147 0.000386215 1
5.67537 -10.3235 -2.71978 0.000223906 1
6.73908 -12.2583 -2.71912 0.000115285 1
8.26511 -15.0342 -2.71729 4.96843e-05 1
4.92402 -8.88317 -2.72145 0.000386244 1
5.71548 -10.311 -2.72173 0.000223927 1
6.78484 -12.2402 -2.72033 0.000115298 1
8.31096 -14.9934 -2.71514 4.96917e-05 1
4.96002 -8.87492 -2.72421 0.000386274 1
5.74908 -10.2868 -2.72062 0.000223948 1
6.82234 -12.2071 -2.71826 0.000115311 1
8.36733 -14.9716 -2.71647 4.96992e-05 1
4.98923 -8.85446 -2.72326 0.000386304 1
5.78125 -10.2601 -2.71888 0.000223969 1
6.85997 -12.1745 -2.7163 0.000115324 1
8.4127 -14.9301 -2.71426 4.97065e-05 1
5.01646 -8.83057 -2.72128 0.000386334 1
5.8176 -10.2408 -2.71914 0.000223989 1
6.90143 -12.1487 -2.71591 0.000115337 1
8.47552 -14.9196 -2.71771 4.9714e-05 1
5.04189 -8.80365 -2.71839 0.000386364 1
5.84858 -10.2122 -2.71695 0.00022401 1
6.95629 -12.1464 -2.7208 0.000115351 1
8.52854 -14.8917 -2.71803 4.97213e-05 1
5.08199 -8.80226 -2.72343 0.000386393 1
5.89623 -10.2126 -2.7225 0.000224031 1
6.9871 -12.102 -2.71631 0.000115364 1
8.56974 -14.8432 -2.71463 4.97287e-05 1
5.10915 -8.7784 -2.72155 0.000386423 1
5.93193 -10.1921 -2.72254 0.000224051 1
7.03223 -12.0826 -2.71744 0.000115377 1
8.62529 -14.8197 -2.71582 4.97361e-05 1
5.13782 -8.75721 -2.72052 0.000386453 1
5.96161 -10.1613 -2.71987 0.000224072 1
7.08148 -12.0701 -2.72018 0.00011539 1
8.66899 -14.7759 -2.71332 4.97434e-05 1
5.16741 -8.73761 -2.72002 0.000386482 1
5.99908 -10.1439 -2.72079 0.000224092 1
7.1125 -12.0266 -2.71595 0.000115403 1
8.72633 -14.7554 -2.71513 4.97508e-05 1
5.19895 -8.72132 -2.72058 0.000386512 1
6.03531 -10.1243 -2.72118 0.000224113 1
7.16096 -12.0126 -2.71842 0.000115416 1
8.7717 -14.7147 -2.71325 4.97581e-05 1
5.23405 -8.71093 -2.72302 0.000386541 1
6.06358 -10.0915 -2.71803 0.000224133 1
7.19955 -11.9821 -2.71718 0.000115429 1
8.83128 -14.6977 -2.7158 4.97654e-05 1
5.25873 -8.6832 -2.72008 0.000386571 1
6.10103 -10.074 -2.71904 0.000224154 1
7.24424 -11.9617 -2.71827 0.000115442 1
8.88356 -14.6685 -2.71611 4.97727e-05 1
5.29316 -8.6716 -2.72221 0.0003866 1
6.14321 -10.0642 -2.72216 0.000224174 1
7.2875 -11.9388 -2.71885 0.000115455 1
8.93346 -14.6354 -2.71573 4.978e-05 1
5.31271 -8.63568 -2.71674 0.000386629 1
6.1739 -10.0355 -2.72022 0.000224195 1
7.32275 -11.903 -2.71648 0.000115468 1
8.98387 -14.6031 -2.71554 4.97873e-05 1
5.35113 -8.63049 -2.72097 0.000386659 1
6.20536 -10.0082 -2.71867 0.000224215 1
7.36169 -11.8732 -2.71554 0.000115481 1
9.0367 -14.5747 -2.71611 4.97946e-05 1
5.37236 -8.59758 -2.71649 0.000386688 1
6.24337 -9.99148 -2.72003 0.000224235 1
7.41086 -11.8599 -2.71839 0.000115494 1
9.08649 -14.5414 -2.71581 4.98018e-05 1
5.41666 -8.60152 -2.72369 0.000386717 1
6.28149 -9.97484 -2.72145 0.000224256 1
7.44829 -11.8277 -2.71695 0.000115507 1
9.13994 -14.514 -2.71662 4.98091e-05 1
5.43876 -8.57011 -2.71974 0.000386746 1
6.30275 -9.93155 -2.71563 0.000224276 1
7.48594 -11.796 -2.71565 0.00011552 1
9.18552 -14.4741 -2.71514 4.98163e-05 1
5.47004 -8.55327 -2.72044 0.000386775 1
6.34108 -9.91527 -2.71721 0.000224296 1
7.5361 -11.7839 -2.71891 0.000115533 1
9.23949 -14.4474 -2.71617 4.98235e-05 1
5.49263 -8.5229 -2.71686 0.000386804 1
6.37755 -9.89602 -2.71802 0.000224316 1
7.57311 -11.7512 -2.71745 0.000115546 1
9.28663 -14.41 -2.71522 4.98308e-05 1
5.53615 -8.52493 -2.72365 0.000386833 1
6.40974 -9.87014 -2.71704 0.000224336 1
7.61117 -11.7202 -2.71641 0.000115559 1
9.33753 -14.3785 -2.71541 4.98379e-05 1
5.56414 -8.50289 -2.7228 0.000386862 1
6.44697 -9.852 -2.71822 0.000224356 1
7.65631 -11.7001 -2.71792 0.000115572 1
9.39149 -14.3517 -2.71652 4.98451e-05 1
5.59497 -8.48521 -2.72338 0.000386891 1
6.48019 -9.82773 -2.71775 0.000224376 1
7.68613 -11.6566 -2.71405 0.000115584 1
9.43774 -14.3131 -2.71543 4.98523e-05 1
5.62118 -8.46056 -2.72175 0.00038692 1
6.52349 -9.81863 -2.72152 0.000224396 1
7.73569 -11.6431 -2.71718 0.000115597 1
9.48502 -14.2761 -2.71468 4.98595e-05 1
5.63885 -8.42321 -2.71605 0.000386949 1
6.54483 -9.77655 -2.71617 0.000224416 1
7.77887 -11.6199 -2.71809 0.00011561 1
9.52865 -14.2337 -2.71293 4.98666e-05 1
5.67367 -8.41157 -2.71866 0.000386977 1
6.57767 -9.7518 -2.71565 0.000224436 1
7.81914 -11.5923 -2.718 0.000115623 1
9.58698 -14.2133 -2.71539 4.98737e-05 1
5.71158 -8.40434 -2.72275 0.000387006 1
6.61317 -9.73098 -2.71627 0.000224456 1
7.84796 -11.5479 -2.71399 0.000115635 1
9.62806 -14.1673 -2.713 4.98809e-05 1
5.72649 -8.36332 -2.71592 0.000387035 1
6.65297 -9.71642 -2.71867 0.000224476 1
7.89688 -11.5331 -2.71697 0.000115648 1
9.6728 -14.1268 -2.7117 4.9888e-05 1
5.76089 -8.35088 -2.7184 0.000387063 1
6.6813 -9.68509 -2.71642 0.000224496 1
7.93572 -11.5035 -2.7165 0.000115661 1
9.73569 -14.1127 -2.71551 4.98951e-05 1
5.79432 -8.33694 -2.72043 0.000387092 1
6.71932 -9.66784 -2.71814 0.000224516 1
7.9769 -11.4773 -2.71687 0.000115673 1
9.78658 -14.081 -2.71597 4.99021e-05 1
5.8279 -8.32311 -2.72254 0.00038712 1
6.75098 -9.6414 -2.71731 0.000224536 1
8.01646 -11.4487 -2.71671 0.000115686 1
9.83432 -14.0449 -2.7156 4.99092e-05 1
5.84618 -8.28749 -2.71754 0.000387148 1
6.78755 -9.62196 -2.7185 0.000224555 1
8.06085 -11.427 -2.71822 0.000115698 1
9.88228 -14.009 -2.71532 4.99163e-05 1
5.88148 -8.27605 -2.72051 0.000387177 1
6.81965 -9.59617 -2.71792 0.000224575 1
8.09187 -11.3864 -2.71526 0.000115711 1
9.93035 -13.9734 -2.71511 4.99233e-05 1
5.90545 -8.24865 -2.71826 0.000387205 1
6.85706 -9.57784 -2.71949 0.000224595 1
8.14229 -11.373 -2.71884 0.000115724 1
9.97906 -13.9386 -2.71511 4.99303e-05 1
5.93756 -8.23264 -2.7198 0.000387233 1
6.88918 -9.55208 -2.71899 0.000224614 1
8.1756 -11.3357 -2.71674 0.000115736 1
10.0137 -13.8844 -2.71134 4.99373e-05 1
5.96973 -8.21663 -2.72138 0.000387262 1
6.92025 -9.52491 -2.71811 0.000224634 1
8.21338 -11.3048 -2.71616 0.000115749 1
10.0681 -13.8576 -2.71295 4.99443e-05 1
5.99327 -8.18876 -2.71906 0.00038729 1
6.94643 -9.4911 -2.71537 0.000224653 1
8.24964 -11.2717 -2.71512 0.000115761 1
10.1098 -13.8133 -2.71118 4.99513e-05 1
6.0285 -8.17686 -2.72208 0.000387318 1
6.98204 -9.47022 -2.71635 0.000224673 1
8.29563 -11.2519 -2.71732 0.000115773 1
10.1695 -13.7936 -2.71426 4.99583e-05 1
6.04821 -8.14392 -2.71812 0.000387346 1
7.0215 -9.45446 -2.71884 0.000224692 1
8.32979 -11.2161 -2.71567 0.000115786 1
10.2067 -13.7434 -2.71137 4.99653e-05 1
6.08547 -8.13462 -2.72209 0.000387374 1
7.04816 -9.42147 -2.71641 0.000224712 1
8.36813 -11.1859 -2.71542 0.000115798 1
6.11138 -8.11008 -2.721 0.000387402 1
7.08856 -9.40683 -2.71931 0.000224731 1
8.40347 -11.1518 -2.71424 0.000115811 1
6.13314 -8.08012 -2.71812 0.000387429 1
7.10934 -9.36622 -2.71473 0.00022475 1
8.44582 -11.127 -2.71535 0.000115823 1
9.64314 -12.7044 -2.52618 5.47675e-05 4
6.16176 -8.05924 -2.71831 0.000387457 1
7.1471 -9.34802 -2.71667 0.00022477 1
8.47578 -11.0859 -2.71253 0.000115835 1
9.68652 -12.6695 -2.52594 5.20747e-05 4
6.19944 -8.05013 -2.72252 0.000387485 1
7.18044 -9.32399 -2.71695 0.000224789 1
8.5316 -11.0785 -2.718 0.000115848 1
9.71898 -12.6204 -2.5229 4.82238e-05 4
6.22521 -8.0255 -2.72152 0.000387512 1
7.20603 -9.28997 -2.71435 0.000224808 1
8.28905 -10.6862 -2.62883 4.73153e-05 4
9.77464 -12.6014 -2.52592 4.12851e-05 4
6.24252 -7.99006 -2.71688 0.00038754 1
7.23779 -9.26395 -2.71411 0.000224827 1
8.00676 -10.2482 -2.52794 0.000108093 4
9.80774 -12.5533 -2.52313 5.59546e-05 4
6.27568 -7.97497 -2.71918 0.000387568 1
7.27719 -9.24766 -2.71677 0.000224846 1
8.04497 -10.2233 -2.52872 0.000121288 4
9.85546 -12.5241 -2.52414 5.94356e-05 4
6.29715 -7.94503 -2.71645 0.000387595 1
7.30163 -9.21237 -2.71387 0.000224865 1
8.08215 -10.1971 -2.52921 0.000113389 4
9.90379 -12.4955 -2.52534 5.59696e-05 4
6.3228 -7.92044 -2.71557 0.000387622 1
7.24043 -9.06994 -2.67934 8.76082e-05 4
8.11063 -10.16 -2.527 0.000123071 4
9.94812 -12.4618 -2.52553 3.70607e-05 4
6.35655 -7.90595 -2.7182 0.00038765 1
7.01863 -8.72941 -2.58597 9.78435e-05 4
8.13505 -10.118 -2.52359 0.000120446 4
9.97708 -12.409 -2.52187 5.98455e-05 4
6.39166 -7.89305 -2.72141 0.000387677 1
6.88308 -8.4999 -2.52508 0.00023094 4
8.1836 -10.1059 -2.5277 0.000116062 4
10.0213 -12.3752 -2.5221 5.17442e-05 4
6.41226 -7.86221 -2.71848 0.000387704 1
6.92968 -8.49664 -2.53128 0.000192184 4
8.20653 -10.0622 -2.52392 0.000102004 4
10.068 -12.3446 -2.52301 4.51856e-05 4
6.4463 -7.84786 -2.72128 0.000387731 1
6.9414 -8.4506 -2.52477 0.000193886 4
8.25809 -10.0536 -2.52896 0.000108171 4
10.1213 -12.3218 -2.52556 4.44191e-05 4
6.28937 -7.60255 -2.64382 0.00016424 4
6.9801 -8.43749 -2.52812 0.000124772 4
8.29232 -10.0237 -2.52872 0.000113459 4
10.1456 -12.264 -2.52094 5.44689e-05 4
6.13092 -7.35856 -2.5664 0.000125481 4
7.00036 -8.40209 -2.52482 0.000210781 4
8.32201 -9.98838 -2.52712 0.000109952 4
10.2057 -12.2493 -2.52524 4.63626e-05 4
6.06373 -7.22647 -2.5277 0.000316939 4
7.03395 -8.38274 -2.52636 0.000141656 4
8.34757 -9.94825 -2.52432 8.79703e-05 4
10.2418 -12.2057 -2.52359 3.0526e-05 4
6.08982 -7.20632 -2.52807 0.000394759 4
7.06338 -8.35839 -2.52644 0.000237799 4
8.39333 -9.93216 -2.52766 0.000120532 4
10.2802 -12.165 -2.52258 3.5554e-05 4
6.12137 -7.19258 -2.53073 0.00034868 4
7.10465 -8.34794 -2.53076 0.000258059 4
8.41228 -9.8844 -2.52296 0.000107345 4
10.3153 -12.1205 -2.52081 4.94728e-05 4
6.15109 -7.1766 -2.53264 0.00032853 4
7.13335 -8.32263 -2.53062 0.000241212 4
8.45185 -9.86094 -2.52449 0.000135515 4
10.3681 -12.0967 -2.52337 5.56641e-05 4
6.1588 -7.13504 -2.52555 0.000325671 4
7.15508 -8.28924 -2.52805 0.000246292 4
8.48947 -9.83515 -2.52546 0.000130248 4
10.4098 -12.0599 -2.52327 4.13669e-05 4
6.18495 -7.11497 -2.52607 0.000296871 4
7.18216 -8.26214 -2.52742 0.000221006 4
8.52557 -9.80755 -2.526 0.000111778 4
10.4519 -12.0236 -2.52328 4.75588e-05 4
6.21574 -7.10019 -2.52851 0.000348774 4
7.20542 -8.23069 -2.52547 0.000248019 4
8.55952 -9.77746 -2.52593 0.00011179 4
10.4915 -11.9843 -2.52272 4.25377e-05 4
6.24055 -7.07852 -2.52854 0.000302676 4
7.24491 -8.21774 -2.52924 0.00023454 4
8.59253 -9.74632 -2.52562 0.000125886 4
10.5273 -11.9409 -2.5213 5.14386e-05 4
6.26186 -7.05291 -2.52718 0.000227743 4
7.27652 -8.19574 -2.53028 0.000215997 4
8.62578 -9.71545 -2.5254 0.000118855 4
10.5767 -11.9129 -2.52316 4.91243e-05 4
6.30043 -7.04664 -2.5328 0.000369026 4
7.29045 -8.15392 -2.52521 0.000222765 4
8.66706 -9.69358 -2.52757 0.000111823 4
10.6241 -11.8824 -2.52455 4.87438e-05 4
6.31871 -7.01764 -2.53029 0.000418065 4
7.32878 -8.13944 -2.52863 0.000205905 4
8.68648 -9.64732 -2.5234 9.59833e-05 4
10.6535 -11.8319 -2.5217 5.53274e-05 4
6.33828 -6.99015 -2.52834 0.000325824 4
7.34621 -8.10174 -2.52487 0.000202546 4
8.72125 -9.6182 -2.52373 0.000128578 4
10.7062 -11.8073 -2.52441 5.0691e-05 4
6.36819 -6.97406 -2.53055 0.000403702 4
7.37697 -8.07882 -2.52573 0.000207626 4
8.76481 -9.5987 -2.52662 0.000112737 4
10.7384 -11.7601 -2.52232 5.03105e-05 4
13.9261 -15.251 -2.53582 3.03596e-05 4
6.39039 -6.94949 -2.52971 0.00036624 4
7.41753 -8.06651 -2.52997 0.000231276 4
8.79821 -9.56799 -2.52661 0.000118033 4
11.2464 -12.2303 -2.63158 5.43142e-05 4
6.41324 -6.92567 -2.52917 0.000354728 4
7.44009 -8.03457 -2.52808 0.00020597 4
8.8238 -9.52884 -2.52439 0.000116282 4
11.2913 -12.1935 -2.63211 7.10869e-05 4
6.42814 -6.89334 -2.52554 0.000348983 4
7.46288 -8.00296 -2.52631 0.000205986 4
8.86808 -9.50985 -2.52754 0.000107483 4
11.3445 -12.1655 -2.6346 4.09138e-05 4
6.46157 -6.88087 -2.52922 0.000357659 4
7.48843 -7.97437 -2.52553 0.000199249 4
8.88816 -9.46493 -2.52383 0.000115424 4
11.3854 -12.1242 -2.63426 3.5888e-05 4
6.47951 -6.85189 -2.52687 0.000372105 4
7.52848 -7.96115 -2.52964 0.000190821 4
8.93215 -9.44549 -2.52695 0.000124247 4
11.418 -12.0742 -2.63202 5.90382e-05 4
6.50217 -6.82795 -2.52639 0.000340398 4
7.55012 -7.92841 -2.5276 0.000221234 4
8.95778 -9.40659 -2.52489 0.000121615 4
11.4726 -12.0474 -2.63491 3.69035e-05 4
6.5266 -6.80588 -2.52664 0.000357729 4
7.5721 -7.89611 -2.52571 0.00017565 4
8.99922 -9.3843 -2.52732 8.28472e-05 4
11.5042 -11.9965 -2.63254 6.37505e-05 4
6.55143 -6.78421 -2.52707 0.000375063 4
7.60696 -7.87724 -2.52816 0.000239848 4
9.02547 -9.34616 -2.52552 0.000111061 4
11.5549 -11.9654 -2.63455 5.87249e-05 4
6.58398 -6.77046 -2.5305 0.000372202 4
7.63534 -7.85159 -2.52846 0.000234799 4
9.04612 -9.30233 -2.5222 6.78772e-05 4
11.5818 -11.9099 -2.6312 3.05408e-05 4
6.59733 -6.73697 -2.52657 0.000337601 4
7.66231 -7.8245 -2.52834 0.000238196 4
9.08479 -9.27709 -2.52394 0.000117254 4
11.6341 -11.8804 -2.63365 4.46422e-05 4
6.63204 -6.7253 -2.53086 0.000441506 4
7.68704 -7.79513 -2.5275 0.000273693 4
9.11404 -9.2422 -2.52308 0.0001252 4
11.5857 -11.7486 -2.61337 6.93497e-05 4
6.63862 -6.68513 -2.52445 0.000406904 4
7.70767 -7.76167 -2.52536 0.000246681 4
9.56244 -9.62944 -2.6379 0.000149699 4
11.5157 -11.5964 -2.58845 5.54304e-05 4
6.67403 -6.67403 -2.52904 0.000427133 4
7.74018 -7.74018 -2.52715 0.000234872 4
9.5871 -9.5871 -2.63545 0.000104182 4
11.426 -11.426 -2.55929 7.80833e-05 4
6.69356 -6.647 -2.52763 0.000392525 4
7.76941 -7.71536 -2.52788 0.000202782 4
9.62232 -9.55537 -2.63594 0.000109595 4
6.7203 -6.62712 -2.52898 0.000389664 4
7.79462 -7.68654 -2.52734 0.000229838 4
9.65584 -9.52196 -2.63601 0.000100343 4
11.3234 -11.1664 -2.5188 3.21812e-05 4
6.7495 -6.6096 -2.53127 0.000375256 4
7.82318 -7.66102 -2.52791 0.000258587 4
9.68111 -9.48044 -2.63386 9.80363e-05 4
11.371 -11.1353 -2.52073 5.19615e-05 4
6.75988 -6.5737 -2.52654 0.000450335 4
7.83726 -7.6214 -2.52385 0.000218041 4
9.71561 -9.44802 -2.63425 6.4849e-05 4
11.4106 -11.0964 -2.52091 2.86986e-05 4
6.77897 -6.54637 -2.52512 0.000435929 4
7.86609 -7.5962 -2.52458 0.000246793 4
9.74879 -9.4143 -2.63432 0.00010732 4
12.295 -11.8731 -2.70711 5.0275e-05 1
6.81786 -6.5381 -2.53109 0.000386875 4
7.89558 -7.57159 -2.52555 0.000211312 4
9.78664 -9.38506 -2.63568 6.10004e-05 4
12.3417 -11.8353 -2.70829 5.02811e-05 1
6.82206 -6.49656 -2.52422 0.000415773 4
7.92666 -7.54846 -2.52704 0.000147084 4
9.81878 -9.3503 -2.63553 8.80342e-05 4
12.3746 -11.7842 -2.70647 4.21073e-05 4
6.85997 -6.48715 -2.52985 0.000450448 4
7.95915 -7.5266 -2.52901 0.000256993 4
9.85384 -9.31831 -2.63619 9.03593e-05 4
12.3789 -11.7061 -2.69844 4.77378e-05 4
6.88402 -6.46453 -2.53038 0.000288767 4
7.97254 -7.48672 -2.52495 0.000258703 4
9.88025 -9.27817 -2.63458 9.5002e-05 4
12.3698 -11.616 -2.68761 5.82347e-05 4
6.90411 -6.43818 -2.52949 0.000358093 4
8.36178 -7.79749 -2.63958 0.000141577 4
12.3842 -11.5485 -2.68196 4.74679e-05 4
6.92105 -6.40896 -2.52748 0.000441868 4
8.38202 -7.76184 -2.6374 4.02407e-05 4
9.92295 -9.18876 -2.6288 0.000158466 4
12.3873 -11.4707 -2.67394 4.44784e-05 4
6.94574 -6.38694 -2.52834 0.000277268 4
8.40188 -7.72593 -2.63515 0.000137127 4
9.86108 -9.06773 -2.60401 0.000163101 4
12.3791 -11.3832 -2.66358 6.31177e-05 4
6.96732 -6.36204 -2.5281 0.000407262 4
8.43806 -7.70501 -2.63805 0.000201233 4
9.79186 -8.9412 -2.57747 0.000182551 4
12.3793 -11.3038 -2.65512 5.06798e-05 4
6.9855 -6.33407 -2.52666 0.000398621 4
8.47441 -7.68413 -2.64101 0.000169943 4
9.74475 -8.836 -2.55693 0.000175303 4
12.379 -11.2246 -2.64664 5.76783e-05 4
7.01997 -6.32081 -2.53113 0.000450643 4
8.49912 -7.65265 -2.64037 6.11244e-05 4
9.68642 -8.72169 -2.53362 0.000239283 4
12.3849 -11.1514 -2.63955 5.24788e-05 4
7.03573 -6.29067 -2.52888 0.000390003 4
8.51332 -7.61179 -2.63651 0.000166986 4
9.68063 -8.65549 -2.52419 0.000125408 4
12.3799 -11.0689 -2.63025 5.31793e-05 4
7.06245 -6.27034 -2.5306 0.000390027 4
8.55368 -7.59431 -2.64078 0.000116303 4
9.7105 -8.62139 -2.52412 0.00012542 4
12.4301 -11.0359 -2.6327 5.41718e-05 4
7.07475 -6.23723 -2.52719 0.000384272 4
8.56246 -7.54883 -2.63534 9.09612e-05 4
9.73539 -8.5829 -2.52278 0.000111298 4
12.4622 -10.9869 -2.63136 5.61972e-05 4
7.08671 -6.20395 -2.52371 0.000364069 4
8.60013 -7.52885 -2.63883 0.000225183 4
10.5026 -9.19429 -2.71325 0.000116489 1
12.4986 -10.9417 -2.63097 6.59637e-05 4
7.11404 -6.18414 -2.52574 0.000369871 4
8.61878 -7.49219 -2.63651 9.84314e-05 4
10.5292 -9.15289 -2.71186 0.0001165 1
12.5429 -10.9034 -2.63227 6.15958e-05 4
7.14685 -6.16899 -2.52973 0.000358334 4
8.64235 -7.45988 -2.63574 0.000196877 4
10.5562 -9.11191 -2.71062 0.00011651 1
7.4726 -6.4048 -2.6371 0.000174089 4
8.66631 -7.42793 -2.63512 0.000159601 4
10.6003 -9.08554 -2.71377 0.000116521 1
7.5021 -6.38479 -2.63963 0.000184341 4
8.7007 -7.40488 -2.63771 0.000196905 4
10.6027 -9.02363 -2.70631 0.000122978 4
7.52381 -6.35811 -2.63945 0.000307253 4
8.72543 -7.37357 -2.63739 0.000277477 4
10.6021 -8.95944 -2.69815 0.000122468 4
7.54285 -6.3292 -2.63836 0.000463468 4
8.68903 -7.29097 -2.61868 0.000348097 4
10.6196 -8.91089 -2.69467 0.000137397 4
12.7244 -10.677 -2.63084 3.70461e-05 4
7.55739 -6.29658 -2.63574 0.000601776 4
8.66145 -7.21645 -2.60275 0.000305786 4
10.6247 -8.85217 -2.68811 0.000132392 4
7.58057 -6.27119 -2.63617 0.00028426 4
8.62119 -7.13207 -2.58316 0.000358621 4
10.6265 -8.79102 -2.68079 0.000109613 4
7.61275 -6.25318 -2.63976 0.000266349 4
8.58354 -7.0506 -2.56449 0.000379658 4
10.6273 -8.72933 -2.67328 0.000122006 4
7.63603 -6.22779 -2.64028 0.000307344 4
8.54426 -6.96853 -2.54547 0.000341412 4
10.6217 -8.66281 -2.66424 0.000109038 4
12.883 -10.5072 -2.63306 3.09981e-05 4
7.65133 -6.19593 -2.63807 0.000307362 4
8.51336 -6.89399 -2.52908 0.0004045 4
10.6356 -8.61252 -2.66018 0.000101533 4
7.68219 -6.17664 -2.64126 0.000217728 4
8.53165 -6.85962 -2.52738 0.000218467 4
10.6361 -8.55168 -2.65284 0.000145142 4
7.69974 -6.14662 -2.6399 0.000302275 4
8.55043 -6.82572 -2.52587 0.000199852 4
10.6446 -8.49744 -2.64752 8.6014e-05 4
12.971 -10.3547 -2.62874 3.47161e-05 4
7.71256 -6.1129 -2.63697 0.000276674 4
8.57589 -6.79717 -2.52637 0.000235435 4
10.6477 -8.43923 -2.64095 0.000153032 4
7.74912 -6.09796 -2.64217 0.000176774 4
8.595 -6.7636 -2.52503 0.000267635 4
10.6491 -8.38001 -2.63403 8.12803e-05 4
7.7689 -6.06973 -2.64168 0.000315138 4
9.26224 -7.23646 -2.71361 0.000226052 1
10.6856 -8.34847 -2.63583 0.00014864 4
7.79072 -6.0431 -2.64191 0.000361276 4
9.29507 -7.21 -2.71584 0.000226067 1
10.6971 -8.29749 -2.63151 0.000137039 4
7.80869 -6.0135 -2.64087 0.000276738 4
9.30323 -7.16445 -2.7109 0.000226083 1
10.7449 -8.27469 -2.63616 0.00014789 4
7.82307 -5.98119 -2.63865 0.000115314 4
9.3307 -7.13386 -2.71164 0.000226098 1
10.7714 -8.23536 -2.63559 0.000146354 4
7.8094 -5.92766 -2.62705 0.000595644 4
9.35193 -7.0985 -2.71059 0.000250426 4
10.805 -8.20145 -2.63679 0.000136299 4
7.76893 -5.85431 -2.60655 0.000627218 4
9.35629 -7.05048 -2.7047 0.000228129 4
7.74222 -5.79192 -2.59079 0.000716643 4
9.35674 -6.99974 -2.69775 0.000230019 4
10.8509 -8.11748 -2.63408 8.36519e-05 4
13.2941 -9.94529 -2.62958 2.93523e-05 4
7.71312 -5.72827 -2.57434 0.000559288 4
9.36282 -6.95344 -2.69249 0.000223067 4
13.3235 -9.8949 -2.62854 3.5429e-05 4
7.68435 -5.6654 -2.55812 0.000609191 4
9.36676 -6.90577 -2.68667 0.000215976 4
10.9032 -8.03855 -2.63311 4.18329e-05 4
7.66765 -5.61187 -2.54603 0.000510995 4
9.3781 -6.86373 -2.68304 0.000233941 4
10.9253 -7.99613 -2.63169 5.34575e-05 4
7.63485 -5.54705 -2.52869 0.00070999 4
9.37034 -6.80795 -2.674 0.000275763 4
10.9699 -7.97007 -2.6357 4.41642e-05 4
7.64345 -5.51263 -2.52515 0.000399362 4
9.37438 -6.76101 -2.6684 0.0001957 4
10.985 -7.92265 -2.63268 3.64191e-05 4
7.66145 -5.48506 -2.52475 0.000243103 4
9.38064 -6.71588 -2.6635 0.000212035 4
7.68189 -5.45924 -2.5252 0.000384934 4
9.37887 -6.66522 -2.65637 0.000185865 4
11.0339 -7.84142 -2.63122 4.1075e-05 4
7.69342 -5.42711 -2.52274 0.000396533 4
9.37935 -6.6164 -2.64995 0.000241691 4
11.0814 -7.81711 -2.63603 3.95282e-05 4
7.71337 -5.40096 -2.52309 0.000332873 4
9.38727 -6.57304 -2.64569 0.000236071 4
11.1031 -7.77444 -2.63469 3.41055e-05 4
8.32775 -5.78794 -2.71743 0.00038965 1
9.39314 -6.52841 -2.64091 0.000232241 4
11.1283 -7.73434 -2.63425 2.86819e-05 4
13.6437 -9.4826 -2.63161 3.1072e-05 4
8.33361 -5.74897 -2.71277 0.000389672 1
9.39564 -6.48162 -2.63523 0.000220653 4
11.1461 -7.68917 -2.6321 7.98506e-05 4
8.36798 -5.72968 -2.71744 0.000389693 1
9.42868 -6.45596 -2.63816 9.56642e-05 4
11.1737 -7.65079 -2.6323 5.11704e-05 4
8.38077 -5.69557 -2.71512 0.000389714 1
9.43324 -6.41083 -2.63316 0.000276547 4
11.2053 -7.61509 -2.63346 3.48917e-05 4
8.38297 -5.65439 -2.70942 0.000426588 4
9.46188 -6.38212 -2.63492 0.000287029 4
8.40432 -5.6262 -2.70995 0.000369837 4
9.49015 -6.3531 -2.6366 0.000296017 4
8.40785 -5.58617 -2.70479 0.000249229 4
9.50613 -6.31586 -2.6349 0.000305007 4
11.2937 -7.50355 -2.63564 4.57577e-05 4
13.8294 -9.18826 -2.62974 4.22433e-05 4
8.39644 -5.53644 -2.69489 0.000480662 4
9.53014 -6.28397 -2.63546 0.000248208 4
11.3169 -7.4621 -2.63494 4.11075e-05 4
8.42287 -5.51177 -2.69718 0.00037129 4
9.54574 -6.24656 -2.63372 0.000282615 4
11.3421 -7.42203 -2.63476 5.50728e-05 4
8.42304 -5.46999 -2.6911 0.00036765 4
9.58217 -6.22273 -2.63777 0.000209358 4
11.3626 -7.37895 -2.63353 3.4908e-05 4
13.9127 -9.03501 -2.62744 3.21146e-05 4
8.41616 -5.42384 -2.68284 0.000348514 4
9.60432 -6.18956 -2.6379 0.000182452 4
11.3914 -7.34124 -2.63425 3.64622e-05 4
8.41707 -5.38294 -2.67712 0.000434659 4
9.62704 -6.15675 -2.63822 8.82403e-05 4
11.4193 -7.30293 -2.63478 5.19821e-05 4
8.4274 -5.34819 -2.67445 0.000412537 4
9.63519 -6.11468 -2.63459 4.18793e-05 4
11.4341 -7.2563 -2.63235 3.80196e-05 4
8.42835 -5.30762 -2.66886 0.000327174 4
9.65037 -6.07717 -2.63293 7.03017e-05 4
11.469 -7.22245 -2.63457 3.18147e-05 4
8.44364 -5.27617 -2.66785 0.000484489 4
9.68101 -6.04937 -2.63551 8.22729e-05 4
11.4798 -7.17339 -2.63128 3.33692e-05 4
8.44323 -5.23503 -2.66193 0.000267737 4
9.71154 -6.02141 -2.63808 4.48789e-05 4
8.43678 -5.19035 -2.65417 0.000404227 4
9.71209 -5.97492 -2.63255 0.000101732 4
11.545 -7.10252 -2.63478 3.02696e-05 4
8.45367 -5.16014 -2.6538 0.000477893 4
9.75522 -5.95461 -2.63859 0.000113707 4
11.5578 -7.05491 -2.63208 8.22773e-05 4
8.46101 -5.12417 -2.65048 0.000380242 4
9.75268 -5.90643 -2.63231 0.000134661 4
11.5821 -7.01435 -2.63201 3.26029e-05 4
8.4673 -5.08767 -2.64686 0.000359799 4
9.78346 -5.8785 -2.63506 4.63859e-05 4
11.6016 -6.97094 -2.6309 6.13289e-05 4
8.45121 -5.03794 -2.63632 0.000421368 4
9.81651 -5.85181 -2.63845 7.63169e-05 4
8.47134 -5.00994 -2.63713 0.000110388 4
9.82722 -5.8118 -2.63586 6.43494e-05 4
8.49911 -4.9864 -2.64034 0.000454409 4
9.83326 -5.76914 -2.63206 0.000109251 4
11.6826 -6.85412 -2.63284 3.10594e-05 4
8.51404 -4.95529 -2.63959 0.000490375 4
9.86552 -5.74187 -2.63531 6.28602e-05 4
11.7115 -6.81626 -2.63398 5.82406e-05 4
8.52709 -4.92312 -2.63829 0.000400535 4
9.87493 -5.70129 -2.63249 6.73541e-05 4
8.53282 -4.88679 -2.63477 0.000564884 4
9.91109 -5.67614 -2.63684 0.000133219 4
8.55086 -4.85757 -2.63509 0.000503285 4
11.7669 -6.68452 -2.63055 6.05832e-05 4
8.57871 -4.83386 -2.63846 0.000493037 4
9.94759 -5.60518 -2.63607 4.49105e-05 4
11.8019 -6.65003 -2.63317 4.19452e-05 4
8.58077 -4.79563 -2.63392 0.000513605 4
9.95896 -5.56588 -2.63392 0.000169173 4
11.8244 -6.60844 -2.63303 2.87422e-05 4
8.60889 -4.77198 -2.63743 0.000210588 4
9.98648 -5.5356 -2.63607 0.000101809 4
11.8305 -6.55778 -2.62929 6.0596e-05 4
8.6197 -4.73872 -2.63565 0.000120709 4
9.99382 -5.49415 -2.63293 5.39018e-05 4
11.8698 -6.52548 -2.63293 3.03001e-05 4
11.8956 -6.48572 -2.63363 2.87482e-05 4
8.66377 -4.68449 -2.63907 0.000141268 4
