VERSION 0.7
FIELDS x y z intensity label
SIZE 4 4 4 4 4
TYPE F F F F F
COUNT 1 1 1 1 1
WIDTH 1197
HEIGHT 1
VIEWPOINT 8.12757 5.10728 2.7262 0.999984 0.000177994 0.00106433 -0.00558887
POINTS 1197
DATA ascii
19.7465 15.7634 3.10237 8.63202e-05 10
19.731 15.751 3.99872 8.42067e-05 10
19.748 15.7647 4.91175 8.16244e-05 10
19.7424 15.7601 5.83208 7.861e-05 10
19.742 15.7598 6.76867 7.52061e-05 10
7.65398 6.15396 -2.63156 9.27328e-05 4
9.15351 7.35961 -2.7116 0.000227421 1
10.5082 8.44881 -2.62093 0.000208361 4
19.6004 15.7592 -2.20035 0.000115389 10
19.5975 15.7568 -1.31787 0.000116795 10
19.5906 15.7512 -0.438776 0.000117498 10
19.5848 15.7466 0.438647 0.000117485 10
19.5953 15.755 1.31772 9.10383e-05 10
19.6035 15.7616 2.20069 8.99229e-05 10
19.5845 15.7463 3.08553 8.82747e-05 10
19.6041 15.7621 3.98413 8.61171e-05 10
19.6007 15.7593 4.88874 8.3481e-05 10
19.5971 15.7565 5.80538 8.04036e-05 10
19.5931 15.7532 6.73642 7.69282e-05 10
7.6363 6.18376 -2.63289 5.15141e-05 4
9.11749 7.3832 -2.70855 0.000227399 1
10.4336 8.449 -2.60967 0.000280295 4
12.3437 9.99572 -2.51568 4.35661e-05 4
19.4426 15.7443 -2.18878 0.000117973 10
19.4602 15.7586 -1.31232 0.000119409 10
19.4592 15.7577 -0.437063 0.000120126 10
19.4421 15.7439 0.436678 0.000120113 10
18.7864 15.2129 1.26688 0.000137331 10
19.4512 15.7512 2.18975 9.19374e-05 10
19.458 15.7568 3.07425 9.02553e-05 10
19.4564 15.7554 3.96526 8.80532e-05 10
19.4561 15.7552 4.86637 8.53626e-05 10
19.4589 15.7575 5.78071 8.22214e-05 10
19.4541 15.7536 6.70751 7.86737e-05 10
7.62918 6.22221 -2.63791 7.72651e-05 4
9.08495 7.4095 -2.70655 0.000227377 1
10.354 8.4445 -2.5971 0.00032586 4
13.2259 10.7868 -2.70313 5.08699e-05 1
19.3003 15.741 -2.17894 0.000120592 10
19.318 15.7554 -1.30644 0.000122057 10
19.2993 15.7401 -0.434702 0.000122788 10
19.3095 15.7484 0.434931 0.000122776 10
18.6478 15.2088 1.26111 0.000140334 10
19.305 15.7448 2.17947 9.39785e-05 10
19.305 15.7447 3.05874 9.2262e-05 10
19.3074 15.7467 3.94608 9.0015e-05 10
19.32 15.757 4.84607 8.72692e-05 10
19.3111 15.7498 5.75309 8.40635e-05 10
19.318 15.7554 6.67951 8.04428e-05 10
7.5917 6.23589 -2.63246 0.00016997 4
9.06893 7.4493 -2.70951 0.000227356 1
10.2997 8.46029 -2.59089 0.000288698 4
13.1692 10.8173 -2.69924 5.0862e-05 1
19.168 15.7447 -2.17019 0.000123245 10
19.1804 15.7549 -1.30084 0.000124739 10
19.1828 15.7569 -0.433315 0.000125486 10
19.1629 15.7406 0.432865 0.000125473 10
18.5007 15.1966 1.25474 0.000143375 10
19.1695 15.746 2.17036 9.60461e-05 10
19.1827 15.7569 3.04806 9.42949e-05 10
19.1655 15.7427 3.92828 9.20023e-05 10
19.1737 15.7495 4.82312 8.92008e-05 10
19.1691 15.7457 5.72713 8.59298e-05 10
19.1794 15.7541 6.65055 8.22351e-05 10
7.56675 6.25976 -2.63137 0.000167381 4
9.04535 7.48296 -2.71025 0.000227334 1
10.231 8.46379 -2.58101 0.000359524 4
13.14 10.8703 -2.70101 5.08541e-05 1
19.0385 15.75 -2.16174 0.000125932 10
19.0329 15.7454 -1.29455 0.000127456 10
19.0339 15.7462 -0.43119 0.000128218 10
19.0288 15.742 0.431075 0.000128205 10
18.3816 15.2066 1.25025 0.000146454 10
19.0285 15.7418 2.16061 9.81403e-05 10
19.035 15.7471 3.03331 9.63541e-05 10
19.0384 15.7499 3.91348 9.40154e-05 10
19.0266 15.7402 4.79991 9.11576e-05 10
19.0449 15.7553 5.7064 8.78206e-05 10
19.043 15.7537 6.62227 8.40511e-05 10
7.5591 6.298 -2.63634 0.000131319 4
9.02555 7.5198 -2.71217 0.000227312 1
10.1727 8.47555 -2.57375 0.000380987 4
13.1156 10.9275 -2.70382 5.08462e-05 1
18.8916 15.7399 -2.15129 0.000128653 10
18.904 15.7502 -1.28952 0.000130208 10
18.8956 15.7433 -0.429301 0.000130984 10
18.8863 15.7355 0.429089 0.000130971 10
18.2393 15.1964 1.24417 0.000149572 10
18.8905 15.7389 2.15116 0.000100261 10
18.9067 15.7525 3.02161 9.84396e-05 10
18.896 15.7435 3.89547 9.60544e-05 10
18.8967 15.7442 4.78098 9.31395e-05 10
18.9085 15.7539 5.68197 8.97358e-05 10
18.8945 15.7423 6.58971 8.58906e-05 10
7.52698 6.31588 -2.63281 0.000195675 4
8.97651 7.53219 -2.70531 0.000495657 4
10.1076 8.48128 -2.56476 0.00040844 4
13.0566 10.9558 -2.69953 5.08383e-05 1
18.7578 15.7397 -2.1423 0.000131408 10
18.7529 15.7356 -1.28295 0.000132994 10
18.767 15.7474 -0.427625 0.000133785 10
18.7529 15.7355 0.427302 0.000133772 10
18.1142 15.1996 1.23926 0.000152728 10
18.7661 15.7466 2.14324 0.000102409 10
18.7643 15.7451 3.00762 0.000100551 10
18.7696 15.7496 3.88073 9.8119e-05 10
18.7663 15.7468 4.76186 9.51465e-05 10
18.7748 15.7539 5.6583 9.16753e-05 10
18.7693 15.7493 6.56517 8.77537e-05 10
7.50896 6.34556 -2.63424 0.000187936 4
8.90417 7.52461 -2.69141 0.000535841 4
10.025 8.47176 -2.55128 0.000344801 4
13.035 11.0154 -2.70299 5.08304e-05 1
18.6164 15.7321 -2.1324 0.000134197 10
18.6346 15.7475 -1.27861 0.000135814 10
18.6253 15.7396 -0.425645 0.000136621 10
18.6347 15.7475 0.425859 0.000136608 10
17.984 15.1977 1.23397 0.000155923 10
18.6343 15.7472 2.13445 0.000104583 10
18.625 15.7393 2.99407 0.000102689 10
18.6185 15.7338 3.86082 0.000100209 10
18.6299 15.7435 4.74116 9.71784e-05 10
18.6412 15.7531 5.63457 9.36391e-05 10
18.6348 15.7476 6.53731 8.96402e-05 10
7.47788 6.36417 -2.63111 8.23763e-05 4
8.86438 7.54418 -2.68733 0.000581209 4
9.9722 8.487 -2.54537 0.000454081 4
12.9925 11.0575 -2.70218 5.08224e-05 1
18.5981 15.8282 -2.13662 0.000161271 10
18.592 15.823 -1.27947 0.000163309 10
18.5916 15.8227 -0.426135 0.000164375 10
18.585 15.8171 0.425982 0.000164454 10
17.8598 15.1999 1.22908 0.000159155 10
18.576 15.8094 2.13409 0.000126046 10
18.5906 15.8218 2.9974 0.000123836 10
18.5721 15.8061 3.86262 0.000120916 10
18.5811 15.8138 4.74277 0.000117329 10
18.5785 15.8115 5.63226 0.000113125 10
18.5777 15.8109 6.53662 0.000108361 10
7.4649 6.39819 -2.63439 5.40551e-05 4
8.7957 7.53882 -2.67447 0.000488713 4
9.89814 8.48373 -2.53401 0.000403313 4
12.9534 11.1024 -2.70209 5.08144e-05 1
18.5836 15.9281 -2.14134 0.000158958 10
18.584 15.9284 -1.28274 0.00016097 10
18.5896 15.9333 -0.427362 0.000162022 10
18.5803 15.9253 0.427148 0.0001621 10
17.7352 15.2009 1.22415 0.000162426 10
18.5855 15.9297 2.14155 0.00012424 10
18.5794 15.9245 3.00455 0.000122059 10
18.5811 15.926 3.87604 0.000119179 10
18.5697 15.9161 4.75401 0.000115639 10
18.565 15.9121 5.64498 0.00011149 10
18.562 15.9096 6.55059 0.00010679 10
7.446 6.42721 -2.63562 0.000120971 4
8.73234 7.53756 -2.66319 0.000235126 4
9.84402 8.49713 -2.52774 0.0004525 4
12.9038 11.1382 -2.69983 5.08064e-05 1
18.5956 16.0513 -2.14916 0.00015666 10
18.5835 16.0409 -1.28656 0.000158646 10
18.5902 16.0466 -0.428659 0.000159684 10
18.5804 16.0381 0.428432 0.000159761 10
17.6099 15.2004 1.21915 0.000165734 10
18.5815 16.0392 2.14754 0.000122445 10
18.5812 16.0389 3.01388 0.000120293 10
18.5688 16.0281 3.8851 0.000117452 10
18.5737 16.0324 4.76934 0.00011396 10
18.5779 16.036 5.66589 0.000109867 10
18.568 16.0275 6.57241 0.00010523 10
7.42621 6.4555 -2.63657 7.46353e-05 4
8.67949 7.54497 -2.65509 0.000177835 4
9.78867 8.50916 -2.52114 0.000205882 4
12.8812 11.1974 -2.70326 5.07984e-05 1
18.5842 16.155 -2.15435 0.000154377 10
18.5951 16.1645 -1.29127 0.000156336 10
18.5753 16.1472 -0.429612 0.000157361 10
18.5724 16.1448 0.429546 0.000157437 10
17.4722 15.1884 1.21329 0.000169081 10
18.5695 16.1422 2.15264 0.000120662 10
18.5754 16.1473 3.02205 0.000118539 10
18.5724 16.1448 3.89764 0.000115735 10
18.5711 16.1436 4.78311 0.000112291 10
18.5622 16.1358 5.67823 0.000108253 10
18.5775 16.1491 6.59567 0.000103679 10
7.39321 6.47226 -2.63286 0.000259915 4
8.61165 7.53893 -2.64237 0.000206814 4
9.73839 8.52531 -2.51583 0.000104977 4
12.8284 11.2304 -2.70039 5.07903e-05 1
18.5814 16.2668 -2.16059 0.000152109 10
18.593 16.2769 -1.29505 0.000154041 10
18.5789 16.2646 -0.431006 0.000155052 10
18.5714 16.2581 0.430833 0.000155128 10
17.3483 15.1873 1.20836 0.000172465 10
18.5768 16.2628 2.16006 0.00011889 10
18.5847 16.2697 3.03278 0.000116796 10
18.5759 16.262 3.91026 0.000114031 10
18.5815 16.2668 4.80037 0.000110633 10
18.5687 16.2557 5.69755 0.00010665 10
18.5716 16.2582 6.61368 0.000102139 10
7.38475 6.51053 -2.63793 0.000517215 4
8.55765 7.54458 -2.63386 0.000544558 4
9.72641 8.57498 -2.52046 0.000136098 4
12.8052 11.2893 -2.70378 5.07822e-05 1
18.593 16.392 -2.16859 0.000149855 10
18.5871 16.3867 -1.29862 0.000151761 10
18.578 16.3787 -0.43231 0.000152759 10
18.581 16.3814 0.432379 0.000152834 10
17.2345 15.1942 1.20411 0.000175887 10
18.5813 16.3816 2.16722 0.00011713 10
18.5813 16.3816 3.04155 0.000115065 10
18.5782 16.3788 3.92274 0.000112337 10
18.5606 16.3633 4.8097 0.000108986 10
18.5702 16.3718 5.71551 0.000105058 10
18.5659 16.368 6.63197 0.000100609 10
7.35546 6.53048 -2.63559 0.000548048 4
8.50575 7.55176 -2.62599 0.000584022 4
9.69312 8.60595 -2.5196 0.000113846 4
12.7602 11.329 -2.70261 5.07741e-05 1
18.5807 16.4968 -2.17385 0.000147617 10
18.5852 16.5007 -1.3025 0.000149497 10
18.5854 16.5009 -0.433819 0.000150481 10
18.5785 16.4947 0.433657 0.000150555 10
17.1135 15.1941 1.19936 0.000179347 10
18.5699 16.4871 2.17258 0.000115382 10
18.5699 16.4871 3.04908 0.000113345 10
18.5745 16.4912 3.9341 0.000110655 10
18.5796 16.4958 4.82953 0.00010735 10
18.5576 16.4762 5.72929 0.000103477 10
18.5725 16.4894 6.65485 9.909e-05 10
7.34192 6.56443 -2.63893 0.000493974 4
8.45564 7.56021 -2.61865 0.000564748 4
9.66856 8.64469 -2.52104 0.000136954 4
12.7283 11.3804 -2.70426 5.07659e-05 1
18.5828 16.615 -2.18087 0.000145393 10
18.5713 16.6047 -1.30558 0.000147248 10
18.5815 16.6138 -0.435079 0.000148219 10
18.5666 16.6005 0.434731 0.000148292 10
16.9854 15.1867 1.19409 0.000182845 10
18.5712 16.6046 2.17951 0.000113645 10
18.5692 16.6028 3.05847 0.000111637 10
18.5589 16.5936 3.94304 0.000108984 10
18.5732 16.6064 4.8429 0.000105726 10
18.5705 16.604 5.75115 0.000101907 10
18.5611 16.5955 6.67149 9.75813e-05 10
7.31364 6.58523 -2.63702 0.0004502 4
8.39447 7.55842 -2.60786 0.000665809 4
9.63838 8.67844 -2.52106 0.0001236 4
12.6707 11.4087 -2.70047 5.07578e-05 1
18.5889 16.7375 -2.18842 0.000143186 10
18.57 16.7205 -1.30959 0.000145015 10
18.5818 16.7311 -0.43645 0.000145972 10
18.5719 16.7222 0.436218 0.000146044 10
16.8559 15.1772 1.18871 0.00018638 10
18.5622 16.7134 2.18528 0.000111921 10
18.5806 16.73 3.06994 0.00010994 10
18.5747 16.7247 3.95878 0.000107326 10
18.5562 16.7081 4.85365 0.000104113 10
18.5551 16.7071 5.76439 0.000100348 10
18.5543 16.7064 6.68998 9.60831e-05 10
7.29173 6.61174 -2.63742 0.000483603 4
8.3327 7.55563 -2.59684 0.000637333 4
9.58891 8.69469 -2.51604 0.000117361 4
12.6433 11.4642 -2.70314 5.07496e-05 1
18.5743 16.8422 -2.19362 0.000140994 10
18.5768 16.8444 -1.31421 0.000142797 10
18.5811 16.8483 -0.437813 0.000143741 10
18.58 16.8473 0.437788 0.000143812 10
16.7367 15.1759 1.18403 0.000189953 10
18.5764 16.844 2.19386 0.000110208 10
18.5749 16.8427 3.07869 0.000108256 10
18.5574 16.8269 3.96759 0.000105678 10
18.564 16.8328 4.87102 0.000102511 10
18.5577 16.8271 5.78341 9.87997e-05 10
18.5572 16.8266 6.71213 9.4596e-05 10
7.26321 6.63222 -2.63546 0.000450125 4
8.28977 7.5696 -2.59169 0.000636589 4
9.56628 8.73522 -2.51809 0.000117347 4
12.6009 11.5062 -2.70266 5.07414e-05 1
18.5679 16.9549 -2.19984 0.000138817 10
18.5852 16.9706 -1.31898 0.000140595 10
18.5815 16.9673 -0.439217 0.000141526 10
18.5683 16.9552 0.438903 0.000141597 10
16.6169 15.1733 1.17929 0.000193563 10
18.5585 16.9462 2.19872 0.000108508 10
18.5615 16.9489 3.08625 0.000106584 10
18.5603 16.9478 3.98082 0.000104043 10
18.5731 16.9596 4.88891 0.000100921 10
18.5571 16.9449 5.80162 9.72631e-05 10
18.5649 16.952 6.73627 9.31197e-05 10
7.23661 6.65441 -2.63422 0.000465519 4
8.21629 7.55527 -2.57694 0.00068901 4
9.53234 8.76543 -2.51719 0.000123554 4
12.5584 11.548 -2.70215 5.07333e-05 1
18.5768 17.0822 -2.20794 0.000136657 10
18.5707 17.0766 -1.32217 0.00013841 10
18.5798 17.085 -0.440582 0.000139327 10
18.5684 17.0746 0.440313 0.000139397 10
16.511 15.1827 1.17553 0.000197211 10
18.5725 17.0783 2.20743 0.000106821 10
18.5721 17.0779 3.09791 0.000104924 10
18.5616 17.0683 3.99386 0.00010242 10
18.5657 17.072 4.90262 9.93432e-05 10
18.5615 17.0682 5.82159 9.57377e-05 10
18.5562 17.0633 6.75469 9.16544e-05 10
7.21974 6.68555 -2.63656 0.000475767 4
8.16861 7.56421 -2.57025 0.00064431 4
9.5057 8.80238 -2.51826 0.000121762 4
12.5117 11.586 -2.7008 5.0725e-05 1
18.5862 17.211 -2.21619 0.000134513 10
18.5704 17.1964 -1.32642 0.00013624 10
18.5652 17.1916 -0.441657 0.000137145 10
18.5715 17.1974 0.441807 0.000137214 10
16.3963 15.1831 1.17113 0.000200895 10
18.5567 17.1837 2.21267 0.000105146 10
18.5588 17.1856 3.10568 0.000103277 10
18.5668 17.193 4.00786 0.000100809 10
18.57 17.196 4.91958 9.7777e-05 10
18.5641 17.1906 5.84121 9.42241e-05 10
18.5548 17.1819 6.77598 9.02004e-05 10
7.18801 6.70292 -2.6335 0.00010286 4
8.11026 7.56294 -2.56019 0.000593216 4
9.48109 8.84125 -2.5199 0.000133299 4
12.4857 11.6431 -2.70395 5.07167e-05 1
18.5835 17.3294 -2.22307 0.000132384 10
18.5737 17.3203 -1.33097 0.000134087 10
18.5789 17.3251 -0.443418 0.000134979 10
18.5678 17.3148 0.443154 0.000135047 10
16.264 15.1664 1.16545 0.000204616 10
18.566 17.3131 2.22097 0.000103483 10
18.5557 17.3035 3.11526 0.000101642 10
18.5679 17.3149 4.02113 9.92102e-05 10
18.5528 17.3007 4.93099 9.62226e-05 10
18.5653 17.3124 5.86056 9.27219e-05 10
18.5577 17.3053 6.79907 8.87575e-05 10
7.174 6.73683 -2.63697 5.65681e-05 4
8.07233 7.58042 -2.55655 0.000611295 4
9.44756 8.87185 -2.5192 0.000112846 4
12.4377 11.6798 -2.70236 5.07085e-05 1
18.567 17.4356 -2.22836 0.000130273 10
18.5653 17.4339 -1.33471 0.000131951 10
18.577 17.445 -0.444825 0.00013283 10
18.5623 17.4311 0.444471 0.000132897 10
16.1633 15.1783 1.16203 0.000208374 10
18.5673 17.4359 2.22839 0.000101834 10
18.5712 17.4395 3.12806 0.00010002 10
18.5525 17.4219 4.03094 9.76236e-05 10
18.5599 17.4289 4.94901 9.46803e-05 10
18.5465 17.4163 5.87377 9.12315e-05 10
18.5586 17.4277 6.82164 8.73259e-05 10
7.14852 6.76001 -2.63626 0.000180355 4
8.01253 7.57707 -2.54597 0.000675766 4
9.41853 8.90666 -2.51974 0.000119051 4
12.392 11.7186 -2.70132 5.07002e-05 1
18.5622 17.5534 -2.23512 0.000128177 10
18.5613 17.5525 -1.33882 0.000129831 10
18.567 17.558 -0.44605 0.000130697 10
18.5627 17.5539 0.445945 0.000130764 10
16.0382 15.1666 1.15683 0.000212169 10
18.5539 17.5455 2.23412 0.000100197 10
18.5512 17.543 3.13498 9.84099e-05 10
18.5508 17.5426 4.04384 9.60496e-05 10
18.5562 17.5478 4.96434 9.31501e-05 10
18.5449 17.5371 5.89262 8.97528e-05 10
18.5608 17.5521 6.84492 8.59058e-05 10
7.16093 6.81926 -2.6496 0.000133509 4
7.94608 7.56695 -2.53323 0.000710653 4
9.39344 8.94525 -2.52136 0.000103047 4
12.3647 11.7747 -2.70429 5.06918e-05 1
18.5669 17.681 -2.2431 0.000126099 10
18.5796 17.6932 -1.34459 0.000127728 10
18.5594 17.6739 -0.447347 0.000128581 10
18.555 17.6697 0.44724 0.000128647 10
15.9258 15.1659 1.15254 0.000216 10
15.5555 14.8133 1.87929 0.000182287 10
15.5447 14.803 2.63563 0.000179141 10
15.5566 14.8144 3.40241 0.000175019 10
18.5572 17.6718 4.98107 9.16322e-05 10
15.5612 14.8187 4.96095 0.000164074 10
15.5563 14.814 5.75595 0.000157397 10
7.1663 6.87224 -2.66045 0.000142109 4
7.89337 7.56947 -2.52484 0.000709485 4
9.35664 8.97269 -2.51988 0.000120798 4
12.3188 11.8133 -2.70325 5.06835e-05 1
18.5667 17.8048 -2.25057 0.000124037 10
18.5606 17.799 -1.3477 0.000125641 10
18.5703 17.8083 -0.449105 0.000126482 10
18.5678 17.8059 0.449045 0.000126547 10
15.8224 15.1731 1.14888 0.000219868 10
15.5369 14.8993 1.88331 0.000193568 10
15.5294 14.8922 2.64184 0.000190334 10
15.5354 14.8979 3.40911 0.000186059 10
18.4874 17.7288 4.97891 8.58388e-05 10
15.5243 14.8872 4.96572 0.000174622 10
15.5173 14.8805 5.7607 0.000167614 10
7.16219 6.91645 -2.66787 0.000179787 4
7.86479 7.59494 -2.52416 0.000226109 4
9.3225 9.00263 -2.51913 0.000111014 4
12.2761 11.8549 -2.70296 5.06751e-05 1
18.5607 17.9239 -2.25742 0.000121992 10
18.5571 17.9204 -1.35198 0.000123572 10
18.554 17.9174 -0.450221 0.000124401 10
18.5665 17.9295 0.450524 0.000124465 10
15.7167 15.1774 1.14504 0.000174478 10
15.5257 14.993 1.88829 0.000190589 10
15.5228 14.9902 2.64959 0.000187402 10
15.5205 14.9879 3.4173 0.000183188 10
18.3416 17.7122 4.95626 8.74696e-05 10
15.5158 14.9835 4.97972 0.000171915 10
15.519 14.9865 5.78072 0.000165007 10
7.15249 6.95549 -2.67328 0.000145983 4
7.82759 7.612 -2.52074 0.000207387 4
9.28479 9.02906 -2.51744 8.6136e-05 4
12.2426 11.9054 -2.7047 5.06667e-05 1
18.5611 18.0499 -2.26512 0.000119964 10
18.5745 18.0629 -1.35784 0.00012152 10
18.5731 18.0615 -0.452211 0.000122336 10
18.5605 18.0493 0.451904 0.0001224 10
15.5966 15.167 1.14015 0.00017755 10
15.5393 15.1113 1.89635 0.000187632 10
15.5249 15.0973 2.65894 0.000184491 10
15.5232 15.0956 3.42948 0.000180337 10
15.5971 15.1675 4.22893 0.000163584 10
15.5228 15.0953 4.99885 0.000169227 10
15.5231 15.0956 5.80184 0.000162419 10
7.1627 7.01424 -2.68623 0.000178858 4
7.80125 7.63955 -2.52082 0.000220964 4
9.26237 9.07039 -2.51993 0.000104771 4
12.1945 11.9417 -2.70328 5.06584e-05 1
18.5605 18.1757 -2.27277 0.000117953 10
18.5578 18.1731 -1.36125 0.000119486 10
18.5624 18.1777 -0.453493 0.000120289 10
18.5664 18.1816 0.45359 0.000120352 10
15.4798 15.159 1.13547 0.000180649 10
15.5083 15.1869 1.89903 0.000118749 10
15.503 15.1816 2.66424 0.000116761 10
15.4904 15.1693 3.43391 0.000114131 10
15.487 15.166 4.21342 0.000166458 10
15.4888 15.1678 5.00492 0.000107097 10
15.4889 15.1678 5.80881 0.000102787 10
7.15562 7.0564 -2.6928 0.000165492 4
7.77608 7.66825 -2.52132 0.000248134 4
9.23103 9.10303 -2.52003 0.000129616 4
12.1552 11.9867 -2.70383 5.06499e-05 1
18.5646 18.3071 -2.28108 0.00011596 10
18.5608 18.3034 -1.36614 0.000117469 10
18.5595 18.3021 -0.454979 0.00011826 10
18.5549 18.2976 0.454865 0.000118322 10
15.3869 15.1735 1.13253 0.000183777 10
15.4582 15.2438 1.89939 0.000114036 10
15.439 15.2249 2.66236 0.000112061 10
15.4469 15.2328 3.43605 0.000109473 10
15.3838 15.1705 4.19971 0.000169359 10
15.4563 15.242 5.01158 0.000102602 10
15.4596 15.2452 5.81775 9.84108e-05 10
7.16194 7.11211 -2.7045 0.000137923 4
7.75763 7.70366 -2.52405 0.000226017 4
9.19815 9.13415 -2.51975 9.94186e-05 4
12.1045 12.0202 -2.70186 5.06414e-05 1
18.5674 18.4382 -2.28932 0.000113983 10
18.5505 18.4215 -1.37011 0.000115469 10
18.5532 18.4241 -0.456399 0.000116248 10
18.5576 18.4285 0.456507 0.000116309 10
15.2798 15.1735 1.12854 0.000186932 10
15.2714 15.1651 4.18345 0.000172285 10
14.911 14.8073 4.8515 0.000182115 10
7.16626 7.16626 -2.71556 0.000390378 1
7.71819 7.71819 -2.51996 0.000224295 4
9.164 9.164 -2.51914 0.000107394 4
12.0792 12.0792 -2.70562 5.0633e-05 1
18.553 18.5529 -2.29551 0.000112025 10
18.5658 18.5658 -1.37602 0.000113487 10
18.5518 18.5518 -0.457954 0.000114254 10
18.5492 18.5492 0.457891 0.000114315 10
15.1697 15.1697 1.12431 0.000190115 10
15.175 15.1749 4.17152 0.000175237 10
14.7917 14.7917 4.82945 0.000185216 10
7.14343 7.19348 -2.71641 0.000390344 1
8.03462 8.0909 -2.63248 0.000223095 4
9.12969 9.19365 -2.51851 0.000117142 4
12.0357 12.12 -2.70532 5.06245e-05 1
18.5657 18.6957 -2.30515 0.000110084 10
18.5607 18.6907 -1.38047 0.000111523 10
18.5592 18.6892 -0.459746 0.000112278 10
18.5507 18.6806 0.459534 0.000112338 10
15.0546 15.1601 1.1197 0.000193325 10
15.0498 15.1552 4.15162 0.000178215 10
14.696 14.799 4.81504 0.000188344 10
15.1329 15.239 5.75456 0.000103597 10
7.11274 7.21275 -2.7143 0.00039031 1
8.00418 8.11673 -2.63178 0.000275471 4
9.09317 9.22103 -2.5173 0.000119789 4
11.984 12.1525 -2.70323 5.0616e-05 1
18.549 18.8098 -2.31122 0.00010816 10
18.559 18.8199 -1.38522 0.000109576 10
18.5461 18.8069 -0.461044 0.00011032 10
18.5585 18.8194 0.461351 0.000110379 10
14.9544 15.1646 1.11617 0.000196562 10
14.9481 15.1583 4.13815 0.000181218 10
14.5832 14.7883 4.79497 0.000191499 10
15.014 15.2251 5.7295 0.000105357 10
7.0849 7.23486 -2.71329 0.000390276 1
7.97908 8.14796 -2.63286 0.000193109 4
9.07287 9.26491 -2.52062 0.000113564 4
11.9463 12.1992 -2.70432 5.06075e-05 1
18.5553 18.9481 -2.32023 0.000106254 10
18.5606 18.9535 -1.39027 0.000107648 10
18.5468 18.9394 -0.462703 0.000108379 10
18.5567 18.9495 0.462949 0.000108437 10
14.8538 15.1682 1.11261 0.000199826 10
14.8554 15.1698 4.12712 0.000184247 10
14.494 14.8008 4.78259 0.000194679 10
14.9193 15.2351 5.71363 0.000107131 10
7.06152 7.26152 -2.71403 0.000390241 1
7.96043 8.18589 -2.63612 0.000106274 4
9.03992 9.29595 -2.52047 9.04845e-05 4
11.9128 12.2502 -2.7064 5.05989e-05 1
15.2706 15.7031 -2.68946 0.000221964 10
18.5454 19.0707 -2.3273 0.000104367 10
18.549 19.0743 -1.39438 0.000105738 10
18.5463 19.0716 -0.464347 0.000106457 10
18.5415 19.0666 0.464226 0.000106515 10
14.7455 15.1631 1.10846 0.000203116 10
14.8138 15.2334 1.85902 0.000126069 10
14.8074 15.2268 2.60788 0.000123902 10
14.8057 15.225 3.36361 0.000121063 10
14.7373 15.1547 4.10899 0.0001873 10
14.3899 14.7974 4.76524 0.000197886 10
14.8143 15.2339 5.69376 0.000108921 10
7.03354 7.28344 -2.71303 0.000390207 1
7.92099 8.20243 -2.63252 0.000143679 4
9.00718 9.32721 -2.5204 8.249e-05 4
11.8618 12.2833 -2.70453 5.05904e-05 1
15.1654 15.7042 -2.68056 0.000225645 10
18.5045 19.162 -2.33055 0.00010502 10
18.5023 19.1597 -1.39589 0.000106332 10
18.4928 19.1499 -0.464679 0.000106989 10
18.5087 19.1664 0.465079 0.000106979 10
14.628 15.1477 1.10359 0.000206433 10
14.6357 15.1558 4.09539 0.000190379 10
14.2789 14.7862 4.74557 0.000201118 10
7.00495 7.30469 -2.71182 0.000390172 1
7.90115 8.23924 -2.63547 0.000202027 4
8.98306 9.36744 -2.52279 0.000105538 4
11.8242 12.3302 -2.70576 5.05818e-05 1
15.0473 15.6911 -2.66935 0.000229355 10
18.375 19.1613 -2.32265 0.000104735 10
18.3791 19.1655 -1.39163 0.000108219 10
18.3707 19.1567 -0.463287 0.000108886 10
18.3716 19.1577 0.463311 0.000108876 10
14.5244 15.1459 1.09976 0.000209777 10
14.5426 15.1649 4.08411 0.000193482 10
14.1979 14.8055 4.7358 6.53932e-05 10
6.98525 7.33523 -2.71409 0.000390138 1
7.86088 8.25473 -2.63163 0.000270838 4
8.95064 9.3991 -2.52288 0.000115279 4
11.7705 12.3602 -2.70332 5.05732e-05 1
14.9578 15.7073 -2.66319 0.000233095 10
18.3678 19.2881 -2.33023 0.000102834 10
18.3698 19.2901 -1.39601 0.000104186 10
18.3726 19.2931 -0.465032 0.000104896 10
18.3666 19.2869 0.464881 0.000104954 10
14.439 15.1624 1.0973 0.000213146 10
14.0799 14.7853 1.78625 0.000230273 10
14.078 14.7833 2.50654 0.000226371 10
14.0792 14.7846 3.23356 0.000221254 10
14.4335 15.1567 4.06831 0.000196609 10
14.1577 14.867 4.73965 6.54014e-05 10
6.95763 7.35749 -2.71332 0.000390103 1
7.8483 8.29935 -2.63711 0.000324672 4
8.90646 9.41832 -2.51968 0.000101078 4
11.7253 12.3992 -2.70287 5.05645e-05 1
14.8535 15.7072 -2.65437 0.000236864 10
18.3659 19.4214 -2.33858 0.000100952 10
18.365 19.4205 -1.4008 0.000102282 10
18.3755 19.4315 -0.466819 0.00010298 10
18.369 19.4247 0.466654 0.000103037 10
14.3232 15.1464 1.09251 0.000216542 10
13.9953 14.7996 1.78206 0.000233914 10
13.9908 14.7948 2.50019 0.000229954 10
13.9937 14.7979 3.22576 0.000224762 10
14.329 15.1525 4.05375 0.000199761 10
14.1018 14.9123 4.73836 6.54097e-05 10
13.9928 14.797 5.45689 0.000202546 10
6.93895 7.38923 -2.71608 0.000390069 1
7.81988 8.32732 -2.63731 0.000157083 4
8.87849 9.45463 -2.52109 0.000138299 4
11.6929 12.4517 -2.7054 5.05559e-05 1
14.7375 15.6938 -2.6434 0.000240663 10
18.3658 19.5576 -2.34725 9.90894e-05 10
18.3735 19.5658 -1.40665 0.000100397 10
18.3655 19.5573 -0.468297 0.000101083 10
18.3726 19.5649 0.468478 0.000101139 10
14.2321 15.1557 1.08959 0.000219964 10
13.969 14.8755 1.78531 0.000223235 10
13.969 14.8755 2.50557 0.000219581 10
13.9681 14.8745 3.23181 0.000214746 10
14.2262 15.1493 4.03958 0.000202938 10
14.0449 14.9563 4.73674 6.5418e-05 10
13.9628 14.8689 5.46539 0.000193858 10
6.90732 7.40719 -2.7138 0.000390034 1
7.78783 8.35142 -2.63631 0.000210917 4
8.83655 9.47604 -2.51856 9.83923e-05 4
11.6384 12.4807 -2.70285 5.05472e-05 1
14.6318 15.6907 -2.63426 0.000244492 10
18.3677 19.6969 -2.35626 9.72453e-05 10
18.3615 19.6903 -1.41098 9.85304e-05 10
18.3687 19.698 -0.470128 9.92054e-05 10
18.3671 19.6963 0.470088 9.92604e-05 10
14.1276 15.15 1.08563 0.000223411 10
13.9798 14.9915 1.79337 0.000219494 10
13.9794 14.9911 2.5168 0.000215897 10
13.9692 14.9802 3.24416 0.000211138 10
14.1361 15.1591 4.02901 0.000206138 10
13.9901 15.0025 4.73588 6.54264e-05 10
13.9589 14.9691 5.48429 0.000190576 10
6.87346 7.42266 -2.71066 0.000389999 1
7.75477 8.37438 -2.635 0.000119657 4
8.81684 9.52132 -2.5224 0.000107243 4
11.6127 12.5405 -2.70702 5.05386e-05 1
14.5384 15.7001 -2.62729 0.000248348 10
18.5451 20.0269 -2.38797 9.16596e-05 10
18.5392 20.0205 -1.42999 9.28779e-05 10
18.5315 20.0122 -0.476081 9.35179e-05 10
18.5335 20.0143 0.476131 9.35702e-05 10
14.0325 15.1537 1.08238 0.000226883 10
13.9712 15.0875 1.79901 0.000215785 10
13.971 15.0873 2.52475 0.000212245 10
13.9597 15.0751 3.25415 0.000207561 10
14.0361 15.1576 4.01555 0.000209362 10
13.9632 15.0788 4.74456 0.000195018 10
13.9673 15.0833 5.50824 0.000187323 10
6.86384 7.46437 -2.71713 0.000389964 1
7.72994 8.40625 -2.63652 0.000164511 4
8.77334 9.54094 -2.51947 0.000124066 4
11.5661 12.578 -2.70638 5.05298e-05 1
14.4297 15.6922 -2.61754 0.000252234 10
18.5415 20.1637 -2.39655 8.99177e-05 10
18.5332 20.1547 -1.43495 9.1115e-05 10
18.5483 20.1711 -0.478317 9.1744e-05 10
18.545 20.1676 0.478233 9.17956e-05 10
13.929 15.1477 1.07847 0.00023038 10
13.9292 15.1479 1.8004 0.000227765 10
13.9339 15.153 2.52759 0.000223895 10
13.9289 15.1475 3.25926 0.000218821 10
13.9325 15.1515 4.00104 0.00021261 10
13.9388 15.1583 4.75424 0.000205342 10
13.9418 15.1616 5.51904 0.000197112 10
6.82099 7.46994 -2.71047 0.000389929 1
7.67467 8.40483 -2.62766 0.000612441 4
8.75079 9.58334 -2.52258 0.000108987 4
11.5117 12.6069 -2.70394 5.05211e-05 1
14.3199 15.6823 -2.60752 0.000256147 10
18.5393 20.3031 -2.40542 8.81944e-05 10
18.5307 20.2937 -1.44023 8.93708e-05 10
18.5448 20.3092 -0.480053 8.99889e-05 10
18.5378 20.3015 0.479871 9.00397e-05 10
13.8429 15.16 1.79608 0.00023125 10
13.836 15.1523 2.51941 0.000227326 10
13.8403 15.1571 3.2509 0.00022218 10
13.827 15.1425 3.98589 0.00021588 10
13.8386 15.1552 4.73807 0.000208509 10
13.8346 15.1508 5.49749 0.000200162 10
6.7939 7.49263 -2.71009 0.000389894 1
7.63203 8.41696 -2.6231 0.000710787 4
8.71424 9.61047 -2.5217 6.20169e-05 4
11.4836 12.6646 -2.7077 5.05124e-05 1
14.2267 15.6899 -2.60052 0.00026009 10
18.5304 20.4362 -2.4135 8.64896e-05 10
18.5467 20.4541 -1.44702 8.76453e-05 10
18.5367 20.4431 -0.481688 8.82527e-05 10
18.5321 20.4381 0.481568 8.83028e-05 10
13.741 15.1543 1.78971 0.00023476 10
13.726 15.1376 2.50898 0.000230781 10
13.7371 15.1499 3.23905 0.000225562 10
13.7438 15.1574 3.97715 0.000219174 10
13.7444 15.158 4.72391 0.000211699 10
13.7294 15.1414 5.47666 0.000203234 10
6.77083 7.51976 -2.71134 0.000821893 4
7.58641 8.42556 -2.61752 0.000571667 4
8.68129 9.64154 -2.52189 5.49221e-05 4
11.4271 12.691 -2.7048 5.05036e-05 1
14.1217 15.6837 -2.59131 0.000264059 10
18.5349 20.5851 -2.42344 8.48037e-05 10
18.533 20.583 -1.45155 8.59388e-05 10
18.5355 20.5857 -0.48352 8.65355e-05 10
18.5294 20.579 0.483362 8.65849e-05 10
13.6292 15.1368 1.78202 0.000238294 10
13.631 15.1388 2.50127 0.000234259 10
13.6478 15.1574 3.23046 0.000228968 10
13.6447 15.154 3.96374 0.000222491 10
13.6393 15.148 4.70592 0.000214912 10
13.6399 15.1486 5.462 0.000206328 10
6.71833 7.51404 -2.7008 0.00097058 4
7.53579 8.42832 -2.61019 0.000622058 4
8.63913 9.66234 -2.51942 4.51719e-05 4
11.3923 12.7416 -2.7071 5.04948e-05 1
14.0353 15.6977 -2.58551 0.000268057 10
18.5387 20.7344 -2.43338 8.31364e-05 10
18.5341 20.7293 -1.45729 8.42512e-05 10
18.5315 20.7264 -0.485301 8.48373e-05 10
18.5362 20.7316 0.485422 8.4886e-05 10
13.5483 15.1529 1.77834 0.000241852 10
13.5452 15.1495 2.49522 0.000237761 10
13.5506 15.1555 3.21994 0.000232397 10
13.5353 15.1383 3.94727 0.000225831 10
13.5333 15.1361 4.68754 0.000218146 10
13.5494 15.1541 5.44691 0.000209443 10
6.68563 7.5302 -2.6982 0.000988231 4
7.48218 8.42738 -2.60179 0.000613532 4
8.60771 9.69509 -2.52011 7.52766e-05 4
11.3515 12.7855 -2.70799 5.0486e-05 1
13.9232 15.6821 -2.57491 0.000272082 10
18.5256 20.8658 -2.4412 8.14878e-05 10
18.5404 20.8825 -1.46351 8.25824e-05 10
18.524 20.8641 -0.487009 8.31581e-05 10
18.5299 20.8707 0.487162 8.32061e-05 10
13.4552 15.1549 1.77305 0.000245433 10
13.442 15.14 2.48592 0.000241286 10
13.4468 15.1454 3.20782 0.000235849 10
13.4453 15.1438 3.93644 0.000229193 10
13.449 15.1479 4.67664 0.000221402 10
13.4394 15.1372 5.42392 0.000212579 10
6.63462 7.52549 -2.6882 0.000849097 4
7.42212 8.41874 -2.59111 0.000549286 4
8.58242 9.73484 -2.52264 0.00011777 4
11.3036 12.8214 -2.70721 5.04772e-05 1
13.834 15.6916 -2.56854 0.000276133 10
18.5405 21.03 -2.45282 7.9858e-05 10
18.5224 21.0096 -1.46787 8.09327e-05 10
18.5222 21.0093 -0.488885 8.1498e-05 10
18.5217 21.0088 0.488873 8.15453e-05 10
13.3415 15.1329 1.76502 0.000249038 10
13.3519 15.1448 2.47902 0.000244835 10
13.3582 15.1519 3.1993 0.000239324 10
13.3454 15.1373 3.92262 0.000232577 10
13.3603 15.1543 4.66418 0.00022468 10
13.3612 15.1553 5.41368 0.000215736 10
6.5913 7.52918 -2.68128 0.000930348 4
7.38396 8.43462 -2.58805 0.000605797 4
8.54438 9.76017 -2.52146 0.000124838 4
11.2463 12.8466 -2.70422 5.04684e-05 1
13.7249 15.6778 -2.55842 0.000280212 10
18.5231 21.1588 -2.46028 7.8247e-05 10
18.5216 21.1571 -1.47365 7.9302e-05 10
18.5368 21.1744 -0.49122 7.98569e-05 10
18.5345 21.1717 0.491157 7.99036e-05 10
13.2563 15.1426 1.76074 0.000252666 10
13.2638 15.1511 2.47246 0.000248407 10
13.2597 15.1464 3.18834 0.000242821 10
13.2491 15.1343 3.90983 0.000235983 10
13.2605 15.1474 4.64777 0.00022798 10
13.2606 15.1474 5.39428 0.000218914 10
6.55309 7.53846 -2.67643 0.0011298 4
7.33664 8.43984 -2.58177 0.000509088 4
8.51894 9.79992 -2.52403 0.000117739 4
11.2074 12.8927 -2.70568 5.04595e-05 1
13.6427 15.6942 -2.5533 0.000284317 10
18.528 21.3141 -2.4708 7.66549e-05 10
18.5207 21.3056 -1.47948 7.76903e-05 10
18.5318 21.3184 -0.493055 7.82351e-05 10
18.5306 21.3171 0.493025 7.8281e-05 10
13.1659 15.1456 1.75573 0.000256317 10
13.1632 15.1425 2.46356 0.000252001 10
13.1579 15.1364 3.17656 0.000246341 10
13.1661 15.1459 3.90092 0.000239411 10
13.1582 15.1368 4.63039 0.0002313 10
13.1614 15.1405 5.37541 0.000222113 10
6.50061 7.53103 -2.66571 0.000736625 4
7.28725 8.44236 -2.57475 0.000649253 4
8.47246 9.81544 -2.5204 7.78922e-05 4
11.1735 12.9447 -2.70838 5.04506e-05 1
13.5311 15.676 -2.54264 0.000288448 10
18.5285 21.4655 -2.48085 7.50815e-05 10
18.5196 21.4552 -1.48537 7.60977e-05 10
18.5318 21.4693 -0.495047 7.66324e-05 10
18.5131 21.4476 0.494546 7.66776e-05 10
13.0687 15.1402 1.74981 0.00025999 10
13.0667 15.1379 2.45537 0.000255617 10
13.0688 15.1403 3.16778 0.000249882 10
13.0648 15.1357 3.88652 0.00024286 10
13.0651 15.136 4.61618 0.000234641 10
13.0713 15.1432 5.36016 0.000225332 10
6.45063 7.52608 -2.65598 0.00102724 4
7.23044 8.43589 -2.56506 0.000771146 4
8.44947 9.85816 -2.52378 0.000100892 4
11.1179 12.9714 -2.70585 5.04417e-05 1
13.4512 15.6938 -2.5379 0.000292605 10
18.5226 21.6107 -2.49014 7.35273e-05 10
18.5187 21.6062 -1.49134 7.45243e-05 10
18.5138 21.6004 -0.496577 7.5049e-05 10
18.5218 21.6097 0.496791 7.50935e-05 10
12.9741 15.1372 1.74421 0.000263686 10
12.9806 15.1447 2.44911 0.000259255 10
12.9756 15.1389 3.15797 0.000253445 10
12.9844 15.1492 3.87833 0.00024633 10
12.9812 15.1455 4.60521 0.000238003 10
12.9762 15.1395 5.34279 0.00022857 10
6.4087 7.5302 -2.64952 0.000797277 4
7.18049 8.43705 -2.55778 0.000678132 4
8.41225 9.88437 -2.52295 8.31808e-05 4
11.0678 13.0046 -2.70469 5.04328e-05 1
13.3535 15.6904 -2.52979 0.000296788 10
18.5294 21.772 -2.50126 7.19918e-05 10
18.5161 21.7563 -1.49723 7.29698e-05 10
18.5274 21.7697 -0.498978 7.34846e-05 10
18.5268 21.7689 0.49896 7.35285e-05 10
12.8931 15.1493 1.74041 0.000267404 10
12.8774 15.1309 2.43959 0.000262916 10
12.8776 15.1311 3.14697 0.00025703 10
12.8854 15.1404 3.86453 0.000249822 10
12.892 15.1481 4.5923 0.000241386 10
12.8819 15.1362 5.3257 0.000231829 10
6.36977 7.5376 -2.64429 0.00104113 4
7.13572 8.44399 -2.55231 0.000813209 4
8.37338 9.90856 -2.52165 0.000137141 4
11.0347 13.0578 -2.70772 5.04239e-05 1
13.2459 15.6743 -2.51974 0.000300995 10
18.5334 21.9314 -2.51212 7.04754e-05 10
18.5278 21.9246 -1.50436 7.14347e-05 10
18.5137 21.908 -0.500665 7.19397e-05 10
18.5099 21.9034 0.50056 7.19829e-05 10
12.7924 15.1377 1.73394 0.000271144 10
12.7916 15.1368 2.43333 0.000266598 10
12.7998 15.1465 3.14086 0.000260635 10
12.8012 15.1482 3.85511 0.000253334 10
12.7956 15.1415 4.57673 0.000244788 10
12.7943 15.14 5.31131 0.000235107 10
6.33124 7.54528 -2.63921 0.000967386 4
7.0894 8.44882 -2.54628 0.000561845 4
8.34202 9.94164 -2.52265 0.000130046 4
10.9789 13.0842 -2.70523 5.0415e-05 1
13.166 15.6907 -2.51496 0.000305228 10
18.5143 22.0644 -1.50951 6.99184e-05 10
18.5146 22.0648 -0.502769 7.04139e-05 10
18.5225 22.0743 0.502984 7.04564e-05 10
12.6932 15.1272 1.72765 0.000274905 10
12.6963 15.1309 2.42523 0.000270301 10
12.6918 15.1255 3.12728 0.000264262 10
12.6976 15.1325 3.83979 0.000256867 10
12.7053 15.1416 4.56331 0.000248211 10
12.7092 15.1463 5.29791 0.000238404 10
6.28684 7.54569 -2.63166 0.00104707 4
7.04739 8.45854 -2.54178 0.00076367 4
8.30377 9.96649 -2.52158 0.000115876 4
10.9371 13.1271 -2.70619 5.0406e-05 1
13.0649 15.6809 -2.50608 0.000309485 10
18.5125 22.2194 -1.51568 6.84217e-05 10
18.5202 22.2287 -0.505026 6.89075e-05 10
18.5132 22.2202 0.504833 6.89494e-05 10
12.6046 15.1285 1.72277 0.000278687 10
12.6033 15.1269 2.41753 0.000274024 10
12.6146 15.1406 3.12128 0.000267909 10
12.6145 15.1404 3.83062 0.000260419 10
12.6097 15.1346 4.54794 0.000251652 10
12.6068 15.1311 5.27717 0.00024172 10
6.23675 7.53893 -2.62169 0.00108119 4
7.00181 8.46373 -2.53598 0.000561748 4
8.89473 10.7519 -2.71242 0.000116607 1
10.8892 13.1627 -2.70569 5.0397e-05 1
12.9735 15.6823 -2.49904 0.000313766 10
18.5212 22.3883 -1.52278 6.6944e-05 10
18.5214 22.3885 -0.507185 6.74204e-05 10
18.5096 22.3743 0.506863 6.74616e-05 10
12.5235 15.1383 1.71889 0.00028249 10
12.5293 15.1453 2.41347 0.000277769 10
12.5154 15.1285 3.10978 0.000271576 10
12.5289 15.1448 3.82064 0.000263992 10
12.5181 15.1318 4.53392 0.000255113 10
12.5181 15.1318 5.26214 0.000245055 10
6.20245 7.55099 -2.61834 0.000910066 4
6.95655 8.46905 -2.53028 0.000155681 4
8.84479 10.7678 -2.70864 0.000116591 1
10.8545 13.2144 -2.70851 5.0388e-05 1
12.8799 15.6802 -2.49153 0.000318071 10
18.5162 22.542 -1.52883 6.54853e-05 10
18.5112 22.5359 -0.509057 6.59523e-05 10
18.5033 22.5263 0.508839 6.59928e-05 10
12.4743 15.1865 1.71941 0.000237975 10
12.4771 15.1899 2.41362 0.00023414 10
12.4741 15.1862 3.11267 0.000229061 10
12.4611 15.1704 3.81609 0.000222803 10
12.4687 15.1796 4.53518 0.000215448 10
12.4623 15.1719 5.26093 0.000207088 10
6.14633 7.53614 -2.60574 0.00106303 4
6.91666 8.48066 -2.52652 0.000193114 4
8.8206 10.8151 -2.71277 0.000116575 1
10.7975 13.2391 -2.70582 5.0379e-05 1
12.7858 15.6769 -2.48389 0.0003224 10
18.5089 22.6941 -1.53475 6.4046e-05 10
18.505 22.6894 -0.511062 6.45037e-05 10
18.5179 22.7052 0.511417 6.45436e-05 10
12.4743 15.295 1.72675 0.000233482 10
12.46 15.2774 2.4206 0.000229715 10
12.4669 15.2859 3.12415 0.000224725 10
12.471 15.2909 3.83544 0.000218578 10
12.459 15.2762 4.55103 0.000211352 10
12.4611 15.2789 5.2829 0.00020314 10
6.11341 7.54943 -2.60294 0.00115429 4
6.88494 8.5022 -2.52576 0.000189705 4
8.76863 10.8284 -2.7084 0.000116559 1
10.7591 13.2864 -2.70781 5.037e-05 1
12.7013 15.6848 -2.47811 0.000326752 10
18.5167 22.8662 -1.54201 6.26256e-05 10
18.513 22.8616 -0.513483 6.30742e-05 10
18.5009 22.8468 0.513149 6.31134e-05 10
12.4635 15.3912 1.73269 0.000229036 10
12.459 15.3856 2.43084 0.000225336 10
12.4629 15.3904 3.13661 0.000220435 10
12.4627 15.3901 3.84938 0.000214397 10
12.4606 15.3876 4.57122 0.000207299 10
12.4532 15.3784 5.30228 0.000199234 10
6.066 7.54458 -2.59395 0.00096187 4
6.85913 8.53103 -2.5272 0.000211702 4
8.73843 10.8684 -2.71077 0.000116543 1
10.7066 13.3163 -2.70627 5.03609e-05 1
12.6026 15.6745 -2.46951 0.000331126 10
18.5141 23.0269 -1.54848 6.12246e-05 10
18.5097 23.0214 -0.515619 6.16641e-05 10
18.5106 23.0225 0.515642 6.17027e-05 10
12.4735 15.5139 1.74159 0.000224638 10
12.4681 15.5072 2.44315 0.000221004 10
12.4658 15.5044 3.15094 0.000216191 10
12.4555 15.4916 3.86386 0.000210261 10
12.4587 15.4955 4.59033 0.000203291 10
12.4531 15.4885 5.32521 0.00019537 10
6.03013 7.55382 -2.58987 0.00102889 4
6.82659 8.55152 -2.5262 0.000110073 4
8.70343 10.9026 -2.7117 0.000116527 1
10.6576 13.3505 -2.70564 5.03519e-05 1
12.5037 15.6631 -2.46082 0.000335524 10
18.4998 23.1743 -1.55404 5.98424e-05 10
18.506 23.1821 -0.517766 6.0273e-05 10
18.4974 23.1713 0.517525 6.0311e-05 10
12.4689 15.6195 1.74855 0.000220288 10
12.4586 15.6066 2.45195 0.000216719 10
12.4552 15.6024 3.162 0.000211993 10
12.463 15.6121 3.88306 0.00020617 10
12.4606 15.6092 4.61109 0.000199326 10
12.4564 15.6038 5.34986 0.000191549 10
5.99225 7.56033 -2.58492 0.00120509 4
6.78561 8.56131 -2.52208 5.24904e-05 4
8.66324 10.9303 -2.71105 0.00011651 1
10.6262 13.4069 -2.70953 5.03428e-05 1
12.4206 15.6709 -2.45523 0.000339943 10
13.1319 16.5683 -1.84963 0.000281554 10
13.1497 16.5908 -1.10947 0.000284773 10
13.1356 16.573 -0.369127 0.000286382 10
13.1343 16.5714 0.369091 0.00028636 10
12.4592 15.7196 1.75488 0.000215985 10
12.4682 15.7309 2.46463 0.000212481 10
12.4564 15.7161 3.17623 0.000207841 10
12.4664 15.7287 3.90121 0.000202125 10
12.4629 15.7242 4.6322 0.000195406 10
12.4625 15.7238 5.37606 0.00018777 10
5.93979 7.54813 -2.57364 0.000948183 4
6.78652 8.62413 -2.53359 7.71417e-05 4
8.62406 10.9592 -2.71075 0.000116494 1
10.5661 13.4271 -2.70614 5.03337e-05 1
12.3364 15.6768 -2.44939 0.000344385 10
13.0525 16.5867 -1.84659 0.000285302 10
13.0496 16.583 -1.1059 0.000288561 10
13.0523 16.5865 -0.368412 0.00029019 10
13.0427 16.5743 0.36814 0.000290168 10
12.4558 15.8285 1.76217 0.00021173 10
12.4588 15.8324 2.4737 0.000208291 10
12.4536 15.8257 3.18957 0.000203736 10
12.4603 15.8342 3.91656 0.000198124 10
12.4617 15.836 4.65228 0.000191529 10
12.4608 15.8348 5.3991 0.000184034 10
5.90912 7.56333 -2.57178 0.000381204 4
6.77628 8.67324 -2.54105 0.000263221 4
8.58042 10.9824 -2.70906 0.000116478 1
10.5192 13.4639 -2.70615 5.03246e-05 1
12.2503 15.6796 -2.44314 0.000348847 10
12.9538 16.5801 -1.8408 0.000289069 10
12.9502 16.5755 -1.10238 0.000292367 10
12.9604 16.5885 -0.367449 0.000294016 10
12.9488 16.5737 0.36712 0.000293994 10
12.4675 15.9577 1.7717 0.000207523 10
12.4597 15.9477 2.48491 0.000204148 10
12.4519 15.9377 3.20337 0.000199677 10
12.458 15.9455 3.9333 0.000194169 10
12.4593 15.9471 4.67213 0.000187696 10
12.4573 15.9447 5.4217 0.000180341 10
5.87104 7.56889 -2.56668 0.00035153 4
6.77855 8.73885 -2.55333 0.000149113 4
8.54529 11.0165 -2.71009 0.000116462 1
10.478 13.5081 -2.70767 5.03155e-05 1
12.1515 15.6656 -2.43433 0.00035333 10
12.8567 16.5747 -1.83521 0.000292854 10
12.8592 16.578 -1.09955 0.000296192 10
12.8574 16.5756 -0.366167 0.000297861 10
12.8523 16.5691 0.366023 0.000297839 10
12.4616 16.0654 1.77881 0.000203365 10
12.4606 16.0641 2.49624 0.000200052 10
12.454 16.0556 3.21829 0.000195665 10
12.4605 16.064 3.95178 0.00019026 10
12.4537 16.0552 4.69102 0.000183908 10
12.4606 16.064 5.44747 0.000176691 10
5.84779 7.5935 -2.56809 0.000315517 4
6.78032 8.80443 -2.56555 0.000226433 4
8.51268 11.0539 -2.71197 0.000116445 1
10.426 13.5385 -2.70644 5.03063e-05 1
12.0594 15.6594 -2.42681 0.000357834 10
12.7613 16.5709 -1.82985 0.000296658 10
12.7734 16.5867 -1.09716 0.000300036 10
12.7619 16.5717 -0.365094 0.000301726 10
12.7641 16.5745 0.365155 0.000301702 10
12.4656 16.1869 1.78744 0.000199253 10
12.466 16.1874 2.50863 0.000196003 10
12.4493 16.1657 3.23164 0.000191699 10
12.4561 16.1746 3.96828 0.000186396 10
12.4587 16.1779 4.71415 0.000180164 10
12.4452 16.1604 5.46538 0.000173083 10
5.81452 7.60507 -2.56513 0.000337627 4
6.75127 8.83028 -2.56621 0.000195681 4
8.4741 11.0837 -2.71199 0.000116429 1
10.3863 13.5847 -2.70841 5.02972e-05 1
11.9715 15.658 -2.4201 0.000362359 10
12.6658 16.5661 -1.82442 0.000300479 10
12.6767 16.5804 -1.09382 0.000303898 10
12.6681 16.5692 -0.364063 0.000305607 10
12.6744 16.5774 0.364242 0.000305584 10
12.4589 16.2956 1.07502 0.000197302 10
12.4529 16.2877 1.79376 0.000195191 10
12.453 16.2878 2.51744 0.000192003 10
12.4627 16.3005 3.24987 0.00018778 10
12.4473 16.2804 3.98355 0.000182578 10
12.453 16.2879 4.73349 0.000176464 10
12.4445 16.2767 5.48999 0.000169518 10
5.78239 7.61802 -2.56267 0.000332061 4
6.70909 8.8389 -2.56189 0.000223149 4
8.43153 11.1081 -2.71076 0.000116413 1
10.3297 13.6089 -2.70604 5.0288e-05 1
11.8948 15.6708 -2.41564 0.000366903 10
12.5891 16.5855 -1.8217 0.000304319 10
12.5726 16.5638 -1.08982 0.000307778 10
12.5837 16.5785 -0.363299 0.000309507 10
12.5792 16.5725 0.363168 0.000309484 10
12.4546 16.4083 1.07959 0.000193246 10
12.4492 16.4012 1.80146 0.000191176 10
12.4537 16.4071 2.52915 0.000188049 10
12.4612 16.4171 3.26442 0.000183907 10
12.4446 16.3952 4.00098 0.000178805 10
12.4535 16.4069 4.75542 0.000172808 10
12.4545 16.4082 5.51966 0.000165996 10
5.77321 7.6613 -2.57044 0.000401203 4
6.69196 8.88052 -2.56717 0.000195637 4
8.39625 11.1422 -2.7119 0.000116396 1
10.2883 13.653 -2.70766 5.02788e-05 1
11.8124 15.6756 -2.41002 0.000371467 10
12.4925 16.5781 -1.8161 0.000308175 10
12.4961 16.5828 -1.08819 0.000311674 10
12.4872 16.5711 -0.362181 0.000313424 10
12.4918 16.5771 0.362312 0.0003134 10
12.4532 16.526 1.08446 0.00018924 10
12.4487 16.52 1.80973 0.00018721 10
12.4494 16.5209 2.53997 0.000184143 10
12.4497 16.5212 3.27647 0.000180081 10
12.4549 16.5282 4.0228 0.000175078 10
12.456 16.5297 4.77837 0.000169197 10
12.4404 16.5089 5.5389 0.000162517 10
5.73582 7.66723 -2.56569 0.000376266 4
6.64796 8.88651 -2.56217 0.000169749 4
8.36368 11.18 -2.71397 0.00011638 1
10.2362 13.6831 -2.70651 5.02696e-05 1
11.7188 15.6648 -2.40205 0.00037605 10
12.4635 16.6603 -1.82032 0.000234405 10
12.4519 16.6447 -1.0894 0.000237223 10
12.4651 16.6624 -0.363222 0.00023871 10
12.458 16.653 0.363017 0.000238846 10
12.4596 16.6551 1.09008 0.000185282 10
12.4573 16.652 1.81941 0.000183291 10
12.4491 16.641 2.55175 0.000180285 10
12.4459 16.6368 3.29075 0.000176302 10
12.4532 16.6465 4.04099 0.000171396 10
12.4401 16.629 4.79449 0.00016563 10
12.4418 16.6313 5.56535 0.000159081 10
5.7039 7.6803 -2.56339 0.000395595 4
6.62862 8.92544 -2.56671 0.000258636 4
8.32005 11.203 -2.71249 0.000116363 1
10.2023 13.7373 -2.71018 5.02603e-05 1
11.6311 15.6613 -2.39528 0.000380651 10
12.4577 16.7742 -1.82801 0.000229453 10
12.454 16.7694 -1.0947 0.000232216 10
12.4586 16.7755 -0.364737 0.000233674 10
12.4551 16.7707 0.364634 0.000233808 10
12.4482 16.7615 1.09419 0.000224491 10
12.4585 16.7754 1.82813 0.000179421 10
12.4509 16.7651 2.56409 0.000176474 10
12.4489 16.7625 3.307 0.00017257 10
12.4427 16.7541 4.05654 0.000207099 10
12.4394 16.7496 4.81674 0.000199986 10
12.4413 16.7523 5.59126 0.000155688 10
5.92901 8.04192 -2.67715 0.000279691 4
6.6009 8.95324 -2.56806 0.000171327 4
8.28011 11.2309 -2.71223 0.000116347 1
10.1493 13.7661 -2.70885 5.02511e-05 1
11.5435 15.6572 -2.38847 0.000385271 10
12.4546 16.893 -1.8362 0.000224561 10
12.4516 16.889 -1.09966 0.00022727 10
12.459 16.8989 -0.366473 0.0002287 10
12.4589 16.8988 0.36647 0.000228832 10
12.354 16.7566 1.09104 0.000227276 10
12.373 16.7823 1.82417 0.000172404 10
12.4565 16.8955 2.57737 0.00017271 10
12.4562 16.8952 3.32459 0.000168884 10
12.3478 16.7482 4.04466 0.000209683 10
12.3527 16.7547 4.80577 0.000202488 10
12.3698 16.778 5.58539 0.00014911 10
5.90918 8.07387 -2.68091 0.000250226 4
6.56823 8.97435 -2.56753 0.00018262 4
8.24606 11.2668 -2.71395 0.00011633 1
10.1008 13.8009 -2.70875 5.02418e-05 1
11.4542 15.6502 -2.38128 0.000389908 10
13.9868 19.1105 -2.07191 0.00018924 10
14.0002 19.1289 -1.24232 0.000143199 10
13.9905 19.1156 -0.413483 0.000144142 10
13.9936 19.1198 0.413573 0.000144229 10
12.2553 16.7447 1.08748 0.000230071 10
12.2688 16.7631 1.81742 0.000174527 10
13.9351 19.0399 2.89706 0.000133327 10
13.9362 19.0414 3.73731 0.000130243 10
12.2566 16.7466 4.03391 0.000212278 10
12.2651 16.7581 4.79443 0.000205001 10
12.2858 16.7864 5.57388 0.000150967 10
5.88291 8.09713 -2.6818 0.000196237 4
6.52492 8.98077 -2.56283 0.000224614 4
8.20038 11.2868 -2.71186 0.000116314 1
10.0506 13.8335 -2.70824 5.02326e-05 1
11.3808 15.6643 -2.37737 0.000394563 10
13.8747 19.0969 -2.06518 0.000191666 10
13.9854 19.2492 -1.24696 0.000139959 10
13.9844 19.2478 -0.415285 0.000140883 10
13.9915 19.2576 0.415496 0.000140969 10
12.1638 16.742 1.08454 0.000232877 10
12.1846 16.7707 1.81361 0.000176659 10
13.8638 19.0819 2.89606 0.00013276 10
13.8646 19.0829 3.73594 0.000174235 10
12.1694 16.7497 4.0244 0.000214884 10
12.1681 16.7479 4.77934 0.000207524 10
12.1955 16.7857 5.55948 0.000152832 10
5.85233 8.11445 -2.68075 6.86764e-05 4
6.50117 9.0141 -2.56585 0.000187426 4
8.16559 11.3219 -2.71341 0.000116297 1
10.0089 13.8776 -2.71002 5.02233e-05 1
11.2892 15.6528 -2.36963 0.000399235 10
13.7848 19.1131 -2.06171 0.000194104 10
13.7768 19.102 -1.2343 0.000129737 10
13.785 19.1134 -0.411343 0.0001305 10
13.7874 19.1167 0.411415 0.00013049 10
12.0867 16.7586 1.08287 0.000235694 10
12.0998 16.7768 1.8097 0.000178799 10
13.832 19.1785 2.90338 0.000177177 10
13.8361 19.1842 3.7463 0.000127789 10
12.0783 16.747 4.01361 0.0002175 10
12.0779 16.7464 4.76685 0.000210058 10
12.0967 16.7725 5.5411 0.000154704 10
5.82686 8.13887 -2.68208 0.000154507 4
6.46643 9.03221 -2.56457 0.000208407 4
8.1257 11.3499 -2.7133 0.000116281 1
9.95121 13.8997 -2.70753 5.0214e-05 1
11.2081 15.6553 -2.36407 0.000403923 10
13.6726 19.0977 -2.05489 0.000196552 10
13.7537 19.211 -1.23823 9.43191e-05 10
13.7572 19.2158 -0.412511 9.49405e-05 10
13.7456 19.1996 0.412164 9.49987e-05 10
11.9986 16.7594 1.08022 0.000238522 10
12.0125 16.7789 1.80539 0.000180947 10
13.7254 19.1715 2.89504 0.000179418 10
13.7283 19.1754 3.7352 0.000175145 10
11.9935 16.7523 4.00482 0.000220126 10
11.9966 16.7567 4.75781 0.0002126 10
12.0091 16.7741 5.52775 0.000156584 10
5.78778 8.14419 -2.67716 0.000404623 4
6.43722 9.05805 -2.56551 0.00019223 4
8.08685 11.3793 -2.71358 0.000116264 1
9.90777 13.9416 -2.70894 5.02047e-05 1
11.1257 15.6554 -2.3582 0.000408628 10
13.5771 19.1048 -2.05054 0.00019901 10
11.8964 16.7398 1.07627 0.000241361 10
11.9259 16.7814 1.80116 0.000183104 10
13.6268 19.1748 3.72578 0.000177346 10
11.9083 16.7566 3.99589 0.000222762 10
11.899 16.7435 4.74225 0.000215153 10
11.9231 16.7774 5.51509 0.000158471 10
5.76967 8.17903 -2.68198 0.000431556 4
6.40646 9.08173 -2.56587 0.00020836 4
8.04905 11.4102 -2.71424 0.000116248 1
9.85696 13.9731 -2.70836 5.01953e-05 1
11.036 15.6446 -2.35076 0.000413348 10
13.484 19.1148 -2.04655 0.000201478 10
13.4856 19.117 -1.22607 9.70822e-05 10
13.4845 19.1154 -0.408326 9.77199e-05 10
13.4825 19.1126 0.408265 9.77802e-05 10
11.82 16.7559 1.07464 0.000244209 10
11.8349 16.7771 1.79626 0.000185267 10
