VERSION 0.7
FIELDS x y z intensity label
SIZE 4 4 4 4 4
TYPE F F F F F
COUNT 1 1 1 1 1
WIDTH 1166
HEIGHT 1
VIEWPOINT 13.0469 52.993 2.72759 0.999997 0.000442575 0.000254082 -0.00223105
POINTS 1166
DATA ascii
-11.1276 15.204 4.3498 0.000192983 10
-11.1219 15.1962 5.04585 0.000185463 10
-6.06306 8.22374 -2.73768 0.000377309 1
-7.04597 9.55693 -2.74122 0.000217699 1
-8.37241 11.3561 -2.74247 0.000111316 1
-10.2889 13.9556 -2.74613 4.74584e-05 1
-11.2079 15.2021 -2.31904 0.000244292 10
-11.2045 15.1975 -1.6519 0.000248328 10
-11.2077 15.2018 1.65237 0.000248125 10
-10.5055 14.2493 2.17369 0.000130972 10
-11.2023 15.1945 2.98992 0.000204441 10
-11.2031 15.1955 3.66968 0.000198789 10
-6.09187 8.20271 -2.73774 0.000377311 1
-7.07949 9.53254 -2.7413 0.0002177 1
-8.40323 11.315 -2.73961 0.000111317 1
-10.3399 13.9226 -2.74674 4.74589e-05 1
-11.2794 15.1877 -2.32284 0.00024326 10
-11.2922 15.205 -1.65699 0.000247282 10
-11.2916 15.2042 1.6569 0.00024708 10
-10.5722 14.2355 2.17721 0.000130449 10
-11.2888 15.2004 2.99882 0.000203573 10
-11.292 15.2047 3.6814 0.000197939 10
-6.1275 8.1908 -2.74089 0.000377313 1
-7.09941 9.48998 -2.73617 0.000217702 1
-8.45078 11.2964 -2.74224 0.000111318 1
-10.3784 13.8731 -2.7441 4.74595e-05 1
-11.3591 15.184 -2.32832 0.000242205 10
-11.3738 15.2037 -1.66117 0.000246213 10
-11.3677 15.1956 1.66028 0.000246011 10
-10.6614 14.2514 2.18532 0.000129916 10
-11.3664 15.1938 3.00534 0.000202685 10
-11.3691 15.1973 3.68921 0.000197072 10
-6.15562 8.16879 -2.7407 0.000377315 1
-7.14155 9.47715 -2.73964 0.000217703 1
-8.49007 11.2667 -2.74221 0.000111319 1
-10.4202 13.8281 -2.74238 4.74601e-05 1
-11.4491 15.1934 -2.33588 0.000241127 10
-11.4426 15.1848 -1.66346 0.000245122 10
-11.4566 15.2034 1.6655 0.00024492 10
-10.7384 14.2503 2.19088 0.00012937 10
-11.4479 15.1919 3.01283 0.000201779 10
-11.4552 15.2016 3.69992 0.000196186 10
-6.17896 8.14048 -2.73842 0.000377318 1
-7.16896 9.44476 -2.73749 0.000217705 1
-8.52969 11.2375 -2.74232 0.00011132 1
-10.4697 13.7934 -2.74272 4.74606e-05 1
-11.5249 15.1835 -2.34052 0.000240028 10
-11.5398 15.2031 -1.66987 0.000244008 10
-11.5375 15.2001 1.66953 0.000243806 10
-10.8184 14.2528 2.19705 0.000128812 10
-11.5332 15.1944 3.0213 0.000200855 10
-11.5315 15.1922 3.70741 0.000195282 10
-6.20994 8.12227 -2.73957 0.00037732 1
-7.20327 9.4215 -2.73802 0.000217707 1
-8.56892 11.2077 -2.74234 0.000111321 1
-10.5282 13.7703 -2.74541 4.74612e-05 1
-11.6228 15.202 -2.34963 0.000238907 10
-11.6076 15.1822 -1.67201 0.000242872 10
-11.6111 15.1867 1.6725 0.000242671 10
-10.8893 14.2427 2.20135 0.000128243 10
-11.621 15.1997 3.0304 0.000199913 10
-11.6234 15.2028 3.71989 0.000194361 10
-6.23466 8.09587 -2.73799 0.000377323 1
-7.24634 9.40956 -2.74189 0.000217709 1
-8.61113 11.1818 -2.74334 0.000111322 1
-10.5649 13.7188 -2.74249 4.74619e-05 1
-11.6953 15.1867 -2.35355 0.000237765 10
-11.7034 15.1972 -1.67815 0.000241714 10
-11.6974 15.1894 1.67729 0.000241514 10
-10.9606 14.2327 2.2057 0.000127662 10
-11.7067 15.2015 3.03888 0.000198952 10
-11.7032 15.1969 3.72841 0.000193422 10
-6.26764 8.08019 -2.74007 0.000377325 1
-7.26738 9.36906 -2.73746 0.00021771 1
-8.64229 11.1416 -2.74086 0.000111323 1
-10.6226 13.6946 -2.74504 4.74625e-05 1
-11.7804 15.1872 -2.35999 0.000236602 10
-11.788 15.197 -1.68266 0.000240535 10
-11.7916 15.2016 1.68318 0.000240335 10
-11.044 14.2379 2.21247 0.00012707 10
-11.7886 15.1978 3.04635 0.000197974 10
-6.28704 8.04705 -2.73626 0.000377328 1
-7.30318 9.34764 -2.73863 0.000217712 1
-8.68898 11.1214 -2.74334 0.000111324 1
-10.669 13.6557 -2.7447 4.74631e-05 1
-11.8699 15.1927 -2.36727 0.000235418 10
-11.8783 15.2036 -1.68797 0.000239335 10
-11.8632 15.1842 1.68582 0.000239136 10
-11.1301 14.2458 2.21972 0.000126467 10
-11.8819 15.2081 3.05671 0.000196979 10
-6.31799 8.02873 -2.73751 0.000377331 1
-7.34525 9.33415 -2.74218 0.000217714 1
-8.71669 11.0769 -2.73986 0.000111326 1
-10.7119 13.6124 -2.74349 4.74638e-05 1
-11.9558 15.1931 -2.37381 0.000234213 10
-11.9635 15.2028 -1.69252 0.000238114 10
-11.9545 15.1915 1.69125 0.000237915 10
-11.2045 14.2384 2.22464 0.000125852 10
-11.9668 15.2071 3.0649 0.000195966 10
-6.34442 8.00467 -2.73684 0.000377334 1
-7.37517 9.30514 -2.7412 0.000217716 1
-8.75909 11.0512 -2.74105 0.000111327 1
-10.7648 13.5818 -2.74488 4.74645e-05 1
-12.0341 15.1833 -2.37883 0.000232989 10
-12.0339 15.183 -1.69498 0.000236872 10
-12.0419 15.193 1.69609 0.000236674 10
-11.2846 14.2377 2.23068 0.000125227 10
-12.0403 15.1911 3.07012 0.000194936 10
-6.37676 7.98803 -2.73875 0.000377336 1
-7.41002 9.28238 -2.7421 0.000217718 1
-8.79103 11.0123 -2.739 0.000111328 1
-10.8096 13.5409 -2.74423 4.74652e-05 1
-12.1213 15.184 -2.38556 0.000231744 10
-12.1334 15.1992 -1.7015 0.000235611 10
-12.1344 15.2005 1.70165 0.000235412 10
-11.3669 14.2391 2.2371 0.000124592 10
-12.1333 15.1992 3.08029 0.00019389 10
-6.40521 7.96647 -2.739 0.000377339 1
-7.44078 9.25446 -2.74151 0.00021772 1
-8.82921 10.9813 -2.73893 0.000111329 1
-10.8627 13.5105 -2.74573 4.74659e-05 1
-12.2129 15.1898 -2.39316 0.000230479 10
-12.2119 15.1885 -1.70507 0.000234329 10
-12.2248 15.2046 1.70688 0.000234131 10
-11.4575 14.2502 2.24512 0.000123945 10
-12.2157 15.1933 3.08772 0.000192828 10
-6.43305 7.94416 -2.73904 0.000377342 1
-7.47461 9.23037 -2.74208 0.000217722 1
-8.87186 10.9558 -2.74028 0.000111331 1
-10.9092 13.4717 -2.74558 4.74666e-05 1
-12.2977 15.1864 -2.39937 0.000229196 10
-12.2996 15.1888 -1.7099 0.000233027 10
-12.3017 15.1914 1.7102 0.00023283 10
-11.5391 14.2496 2.25135 0.000123288 10
-12.3057 15.1962 3.09703 0.000191749 10
-6.45295 7.9121 -2.73573 0.000377345 1
-7.50241 9.19887 -2.74049 0.000217724 1
-8.91428 10.93 -2.74158 0.000111332 1
-10.9541 13.4311 -2.74507 4.74674e-05 1
-12.3813 15.181 -2.40533 0.000227893 10
-12.3932 15.1956 -1.71553 0.000231706 10
-12.3985 15.202 1.71626 0.00023151 10
-11.604 14.2279 2.2543 0.000122621 10
-12.3926 15.1948 3.10554 0.000190654 10
-6.48595 7.89613 -2.73802 0.000377349 1
-7.53783 9.17671 -2.74171 0.000217726 1
-8.96 10.9081 -2.74392 0.000111333 1
-11.0068 13.3999 -2.74652 4.74681e-05 1
-12.4845 15.1989 -2.41505 0.000226571 10
-12.4799 15.1933 -1.72018 0.000230366 10
-12.4725 15.1843 -1.02982 0.00023291 10
-12.4766 15.1893 -0.343107 0.000234171 10
-12.4751 15.1874 0.343064 0.000234131 10
-12.4745 15.1867 1.02998 0.000232791 10
-12.4707 15.182 1.71891 0.000230169 10
-11.6948 14.2374 2.26228 0.000121944 10
-12.4784 15.1914 3.11374 0.000189544 10
-12.489 15.2043 3.82463 0.000184231 10
-12.4765 15.1891 4.53803 0.000178015 10
-12.4738 15.1858 5.26576 0.000170976 10
-6.5169 7.87759 -2.73946 0.000377352 1
-7.5599 9.13835 -2.73812 0.000217729 1
-8.99569 10.8739 -2.74321 0.000111335 1
-11.054 13.3621 -2.74666 4.74689e-05 1
-12.559 15.1812 -2.41919 0.000225232 10
-12.569 15.1933 -1.72514 0.000229008 10
-12.5665 15.1903 -1.03319 0.000231539 10
-12.5609 15.1835 -0.343965 0.000232793 10
-12.5666 15.1904 0.344121 0.000232753 10
-12.5703 15.1949 1.0335 0.00023142 10
-12.5603 15.1828 1.72395 0.000228811 10
-11.7863 14.2472 2.27034 0.000121257 10
-12.5651 15.1886 3.12212 0.000188418 10
-12.5757 15.2014 3.83491 0.000183131 10
-12.5673 15.1913 4.55175 0.000176947 10
-12.5741 15.1995 5.28567 0.000169943 10
-6.53282 7.84093 -2.73463 0.000377355 1
-7.59631 9.11737 -2.73976 0.000217731 1
-9.03542 10.8447 -2.74376 0.000111336 1
-11.0917 13.3127 -2.74446 4.74697e-05 1
-12.6634 15.1991 -2.42906 0.000223874 10
-12.6551 15.1891 -1.72966 0.000227631 10
-12.6615 15.1968 -1.03664 0.000230149 10
-12.6524 15.1859 -0.345018 0.000231397 10
-12.6483 15.181 0.344905 0.000231357 10
-12.655 15.189 1.03611 0.000230031 10
-12.6508 15.184 1.72908 0.000227434 10
-11.8583 14.2328 2.27464 0.00012056 10
-12.6643 15.2001 3.13357 0.000187277 10
-12.6604 15.1955 3.84454 0.000182017 10
-12.6661 15.2023 4.56828 0.000175864 10
-12.6586 15.1934 5.29889 0.000168897 10
-6.55747 7.81489 -2.73351 0.000377358 1
-7.61961 9.08071 -2.73672 0.000217733 1
-9.07294 10.8127 -2.74368 0.000111338 1
-11.1314 13.2659 -2.7428 4.74705e-05 1
-12.7517 15.1969 -2.43582 0.000222498 10
-12.7383 15.181 -1.73379 0.000226235 10
-12.7411 15.1843 -1.03881 0.000228741 10
-12.7459 15.19 -0.346119 0.000229982 10
-12.74 15.1829 0.345957 0.000229943 10
-12.7454 15.1894 1.03916 0.000228623 10
-12.7424 15.1858 1.73435 0.00022604 10
-11.9375 14.2265 2.28028 0.000119853 10
-12.7577 15.2041 3.14354 0.000186121 10
-12.7494 15.1942 3.85546 0.000180889 10
-12.7427 15.1861 4.57676 0.000174768 10
-12.7474 15.1917 5.31381 0.000167836 10
-6.594 7.80294 -2.73737 0.000377362 1
-7.65475 9.05817 -2.73796 0.000217736 1
-9.095 10.7625 -2.73897 0.000111339 1
-11.1909 13.2426 -2.74605 4.74714e-05 1
-12.8335 15.1864 -2.4413 0.000221105 10
-12.8396 15.1936 -1.74035 0.000224823 10
-12.8418 15.1962 -1.04268 0.000227315 10
-12.8385 15.1923 -0.34719 0.00022855 10
-12.8383 15.1921 0.347186 0.00022851 10
-12.8431 15.1978 1.04279 0.000227196 10
-12.8339 15.1868 1.73957 0.000224627 10
-12.0351 14.2416 2.28941 0.000119137 10
-12.836 15.1893 3.14973 0.000184951 10
-12.8403 15.1944 3.86686 0.000179746 10
-12.8336 15.1865 4.59034 0.000173657 10
-12.8432 15.1979 5.33162 0.000166763 10
-6.61275 7.76996 -2.73388 0.000377365 1
-7.69867 9.04591 -2.74236 0.000217738 1
-9.14206 10.7419 -2.74183 0.000111341 1
-11.2386 13.2054 -2.74644 4.74722e-05 1
-12.9186 15.1793 -2.44739 0.000219694 10
-12.9191 15.1799 -1.74393 0.000223392 10
-12.9206 15.1816 -1.04477 0.000225871 10
-12.9359 15.1996 -0.348387 0.000227099 10
-12.937 15.2009 0.348417 0.00022706 10
-12.9196 15.1804 1.04469 0.000225753 10
-12.9287 15.1912 1.74523 0.000223198 10
-12.1124 14.232 2.29466 0.000118412 10
-12.9224 15.1838 3.15791 0.000183766 10
-12.9319 15.1949 3.87844 0.000178589 10
-12.9323 15.1954 4.60664 0.000172534 10
-12.9245 15.1863 5.34333 0.000165677 10
-6.64212 7.74949 -2.73482 0.000377369 1
-7.72546 9.01345 -2.74068 0.00021774 1
-9.17105 10.7 -2.73931 0.000111342 1
-11.2802 13.1608 -2.74536 4.74731e-05 1
-13.0209 15.1917 -2.45671 0.000218267 10
-13.0189 15.1894 -1.75023 0.000221945 10
-13.0133 15.1828 -1.04798 0.00022441 10
-13.0213 15.1922 -0.349257 0.000225632 10
-13.0231 15.1943 0.349306 0.000225592 10
-13.011 15.1802 1.04779 0.000224293 10
-13.0277 15.1997 1.75141 0.000221751 10
-12.1941 14.2271 2.30071 0.000117677 10
-13.0172 15.1874 3.1681 0.000182567 10
-13.0179 15.1883 3.88833 0.000177419 10
-13.0211 15.1919 4.61934 0.000171397 10
-13.0199 15.1906 5.36081 0.000164579 10
-6.66926 7.72642 -2.73488 0.000377372 1
-7.75443 8.9836 -2.73981 0.000217743 1
-9.22347 10.6855 -2.74381 0.000111344 1
-11.3297 13.1256 -2.74625 4.74739e-05 1
-13.1172 15.1964 -2.46485 0.000216824 10
-13.1179 15.1972 -1.75639 0.000220481 10
-13.1109 15.1891 -1.05156 0.000222932 10
-13.1101 15.1882 -0.350215 0.000224147 10
-13.1021 15.179 0.350002 0.000224107 10
-13.1108 15.189 1.05156 0.000222815 10
-13.1212 15.201 1.75683 0.000220288 10
-12.2863 14.2338 2.30872 0.000116933 10
-13.1169 15.1961 3.17944 0.000181355 10
-13.1131 15.1916 3.90089 0.000176235 10
-13.1158 15.1948 4.63409 0.000170247 10
-13.1102 15.1883 5.37612 0.000163468 10
-6.70795 7.71662 -2.73968 0.000377376 1
-7.7863 8.95712 -2.74001 0.000217745 1
-9.24714 10.6376 -2.73979 0.000111345 1
-11.3639 13.0727 -2.74345 4.74748e-05 1
-13.2011 15.1862 -2.47066 0.000215364 10
-13.2102 15.1966 -1.76165 0.000219 10
-13.1928 15.1765 -1.05387 0.000221438 10
-13.1928 15.1766 -0.351008 0.000222644 10
-13.1946 15.1787 0.351054 0.000222606 10
-13.2075 15.1935 1.05505 0.000221321 10
-13.2084 15.1946 1.76141 0.000218808 10
-12.3831 14.2451 2.31756 0.000116181 10
-13.2066 15.1924 3.1883 0.000180129 10
-13.2026 15.1878 3.91173 0.000175039 10
-13.2061 15.1919 4.64725 0.000169085 10
-13.2106 15.1971 5.39553 0.000162345 10
-6.73415 7.69235 -2.73939 0.00037738 1
-7.8136 8.92541 -2.73864 0.000217748 1
-9.28523 10.6064 -2.74009 0.000111347 1
-11.4216 13.0468 -2.74637 4.74758e-05 1
-13.2933 15.1849 -2.47798 0.000213888 10
-13.3039 15.1969 -1.76705 0.000217503 10
-13.2922 15.1835 -1.05758 0.000219927 10
-13.2977 15.1898 -0.352384 0.000221126 10
-13.2952 15.1869 0.352317 0.000221088 10
-13.2996 15.192 1.05817 0.00021981 10
-13.2957 15.1875 1.76596 0.000217312 10
-12.4597 14.2326 2.32259 0.00011542 10
-13.2992 15.1916 3.19785 0.00017889 10
-13.2917 15.183 3.92241 0.000173829 10
-13.2903 15.1814 4.65821 0.00016791 10
-13.3071 15.2006 5.41323 0.000161209 10
-6.76067 7.66847 -2.73928 0.000377383 1
-7.83713 8.88948 -2.73599 0.000217751 1
-9.32275 10.5746 -2.74025 0.000111349 1
-11.4659 13.0055 -2.74609 4.74767e-05 1
-13.3917 15.1899 -2.48641 0.000212397 10
-13.3964 15.1953 -1.77229 0.000215991 10
-13.3867 15.1843 -1.06087 0.000218399 10
-13.3902 15.1882 -0.353428 0.000219592 10
-13.3843 15.1815 0.353272 0.000219554 10
-13.3938 15.1923 1.06143 0.000218284 10
-13.383 15.1801 1.77052 0.0002158 10
-12.5579 14.2442 2.33161 0.00011465 10
-13.3898 15.1877 3.20685 0.000177638 10
-13.3849 15.1822 3.93424 0.000172607 10
-13.3911 15.1892 4.67492 0.000166723 10
-13.4018 15.2013 5.43011 0.000160063 10
-6.78701 7.6444 -2.73912 0.000377387 1
-7.87538 8.87026 -2.73852 0.000217753 1
-9.3673 10.5506 -2.7425 0.00011135 1
-11.5136 12.9681 -2.74665 4.74776e-05 1
-13.4875 15.1914 -2.49434 0.000210891 10
-13.4861 15.1898 -1.77713 0.000214463 10
-13.4736 15.1757 -1.06356 0.000216857 10
-13.4812 15.1842 -0.35443 0.000218043 10
-13.4753 15.1776 0.354276 0.000218004 10
-13.4868 15.1905 1.0646 0.000216742 10
-13.4918 15.1961 1.77787 0.000214273 10
-12.6389 14.2355 2.3374 0.000113873 10
-13.487 15.1907 3.21741 0.000176373 10
-13.4837 15.187 3.94767 0.000171372 10
-13.4847 15.1882 4.68906 0.000165525 10
-13.4901 15.1942 5.44436 0.000158905 10
-6.80778 7.61409 -2.73676 0.000377391 1
-7.91694 8.85462 -2.74221 0.000217756 1
-9.3941 10.5067 -2.7396 0.000111352 1
-11.5398 12.9066 -2.74215 4.74786e-05 1
-13.5811 15.1896 -2.50183 0.00020937 10
-13.577 15.185 -1.78211 0.000212919 10
-13.5782 15.1864 -1.06762 0.000215299 10
-13.5836 15.1924 -0.355726 0.000216478 10
-13.5779 15.186 0.355575 0.000216439 10
-13.5813 15.1899 1.06786 0.000215185 10
-13.5848 15.1938 1.78313 0.000212731 10
-12.7301 14.2378 2.34506 0.000113087 10
-13.5798 15.1881 3.22688 0.000175095 10
-13.5774 15.1855 3.95957 0.000170126 10
-13.583 15.1917 4.70476 0.000164314 10
-13.5754 15.1833 5.45738 0.000157736 10
-6.83094 7.58652 -2.73541 0.000377395 1
-7.94734 8.82642 -2.74205 0.000217759 1
-9.42631 10.469 -2.73831 0.000111354 1
-11.6004 12.8836 -2.74584 4.74795e-05 1
-13.6727 15.1851 -2.50893 0.000207834 10
-13.6751 15.1877 -1.78802 0.000211361 10
-13.6776 15.1905 -1.07126 0.000213726 10
-13.67 15.1821 -0.356598 0.000214898 10
-13.6709 15.1831 0.356622 0.00021486 10
-13.6693 15.1813 1.07061 0.000213613 10
-13.6657 15.1773 1.78679 0.000211174 10
-12.8103 14.2273 2.35067 0.000112293 10
-13.6733 15.1858 3.2365 0.000173806 10
-13.685 15.1988 3.97546 0.000168868 10
-13.6744 15.1869 4.71803 0.000163093 10
-13.6796 15.1927 5.47791 0.000156556 10
-6.87042 7.57702 -2.74061 0.000377399 1
-7.96998 8.78967 -2.73926 0.000217762 1
-9.46884 10.4427 -2.74006 0.000111356 1
-11.6324 12.8288 -2.74279 4.74806e-05 1
-13.7594 15.1745 -2.51509 0.000206285 10
-13.7767 15.1936 -1.79435 0.000209789 10
-13.7617 15.177 -1.07369 0.000212139 10
-13.7769 15.1938 -0.358002 0.000213303 10
-13.7653 15.181 0.3577 0.000213265 10
-13.777 15.1939 1.07488 0.000212026 10
-13.7792 15.1964 1.79468 0.000209602 10
-12.9095 14.2372 2.35975 0.000111491 10
-13.7651 15.1808 3.24566 0.000172505 10
-13.7748 15.1915 3.98611 0.000167598 10
-13.7807 15.198 4.73638 0.00016186 10
-13.7807 15.198 5.49713 0.000155366 10
-6.87989 7.53445 -2.73388 0.000377404 1
-8.00874 8.77069 -2.74204 0.000217764 1
-9.51662 10.422 -2.74335 0.000111357 1
-11.6891 12.8012 -2.74561 4.74815e-05 1
-13.8543 15.1724 -2.52274 0.000204722 10
-13.86 15.1786 -1.79829 0.000208204 10
-13.862 15.1809 -1.07738 0.000210539 10
-13.8761 15.1963 1.80038 0.000208018 10
-12.991 14.2269 2.36554 0.000110682 10
-13.8635 15.1824 3.25634 0.000171193 10
-6.91707 7.52226 -2.7382 0.000377408 1
-8.02579 8.72798 -2.73743 0.000217767 1
-9.54654 10.3818 -2.74151 0.000111359 1
-11.7193 12.7447 -2.74224 4.74826e-05 1
-13.9644 15.1862 -2.53314 0.000203145 10
-13.9528 15.1736 -1.80345 0.000206604 10
-13.9568 15.1779 -1.08062 0.000208924 10
-13.9674 15.1894 1.80534 0.000206419 10
-13.0923 14.2378 2.37494 0.000109865 10
-13.9664 15.1883 3.26804 0.000169869 10
-6.46366 6.98012 -2.54906 0.000244063 4
-8.06265 8.70688 -2.73962 0.00021777 1
-9.58794 10.354 -2.743 0.000111361 1
-11.7783 12.7195 -2.74565 4.74836e-05 1
-14.0625 15.1862 -2.5413 0.000201555 10
-14.061 15.1846 -1.81058 0.000204991 10
-14.0639 15.1877 -1.0848 0.000207295 10
-14.0644 15.1882 1.81102 0.000204807 10
-13.1696 14.2218 2.37993 0.000109041 10
-14.0723 15.1967 3.2804 0.000168534 10
-6.49273 6.9626 -2.55092 0.000415193 4
-8.08684 8.67208 -2.73754 0.000217773 1
-9.60821 10.3035 -2.73849 0.000111363 1
-11.8254 12.6812 -2.74627 4.74847e-05 1
-14.1638 15.1888 -2.55 0.000199952 10
-14.1595 15.1842 -1.81642 0.000203365 10
-14.1551 15.1795 -1.08774 0.000205653 10
-14.1525 15.1767 1.81552 0.000203182 10
-13.2612 14.2209 2.3875 0.00010821 10
-14.1557 15.1801 3.28745 0.000167189 10
-6.51446 6.9372 -2.54993 0.000398365 4
-8.11407 8.64061 -2.73652 0.000217776 1
-9.65747 10.2842 -2.74228 0.000111365 1
-11.8579 12.6273 -2.74357 4.74857e-05 1
-14.2512 15.176 -2.55618 0.000198337 10
-14.2541 15.179 -1.82174 0.000201727 10
-14.2638 15.1894 -1.09201 0.000203999 10
-14.2609 15.1863 1.82261 0.000201544 10
-13.359 14.2259 2.39616 0.000107372 10
-14.2694 15.1954 3.30152 0.000165833 10
-6.52871 6.90392 -2.54606 0.000356288 4
-8.14885 8.61717 -2.7381 0.000217779 1
-9.69879 10.2562 -2.74383 0.000111367 1
-11.9131 12.5978 -2.74616 4.74868e-05 1
-14.3632 15.1886 -2.56674 0.00019671 10
-14.3504 15.1751 -1.82727 0.000200076 10
-14.3541 15.179 -1.09486 0.000202332 10
-14.3507 15.1755 1.09461 0.000202222 10
-14.365 15.1905 1.82913 0.000199894 10
-13.4656 14.2395 2.40635 0.000106527 10
-14.3632 15.1886 3.31094 0.000164468 10
-6.56374 6.89261 -2.55032 0.000406791 4
-8.18673 8.59692 -2.74072 0.000217783 1
-9.73253 10.2202 -2.74327 0.000111369 1
-11.9541 12.5531 -2.7455 4.74879e-05 1
-14.4594 15.1839 -2.57445 0.000195072 10
-14.4623 15.1869 -1.83477 0.000198413 10
-14.4645 15.1892 -1.09923 0.000200653 10
-14.4571 15.1815 1.09867 0.000200543 10
-14.4499 15.1738 1.83318 0.000198232 10
-13.5506 14.2296 2.41265 0.000105676 10
-14.4544 15.1786 3.31973 0.000163092 10
-6.57601 6.8574 -2.54577 0.000364713 4
-8.20888 8.56014 -2.73812 0.000217786 1
-9.76091 10.1786 -2.74124 0.000111371 1
-11.9933 12.5065 -2.74445 4.74891e-05 1
-14.5599 15.1829 -2.58289 0.000193422 10
-14.5652 15.1885 -1.84108 0.000196739 10
-14.5606 15.1836 -1.1025 0.000198962 10
-14.5613 15.1844 1.10255 0.000198853 10
-14.5529 15.1756 1.83952 0.000196558 10
-13.6479 14.2319 2.42111 0.000104818 10
-14.5576 15.1805 3.33124 0.000161708 10
-6.60335 6.83797 -2.5471 0.000395578 4
-8.24701 8.54004 -2.74088 0.000217789 1
-9.79756 10.1457 -2.74157 0.000111373 1
-12.0267 12.454 -2.74212 4.74902e-05 1
-14.6596 15.1804 -2.59116 0.000191761 10
-14.6632 15.1842 -1.84676 0.000195053 10
-14.6641 15.1851 -1.10632 0.00019726 10
-14.6536 15.1742 1.10552 0.000197152 10
-14.6706 15.1919 1.84769 0.000194874 10
-13.7317 14.2196 2.42716 0.000103955 10
-14.6614 15.1823 3.34285 0.000160314 10
-6.61902 6.80649 -2.54396 0.000325444 4
-8.2756 8.51 -2.74049 0.000217792 1
-9.83001 10.1084 -2.74076 0.000111375 1
-12.0737 12.4156 -2.74294 4.74913e-05 1
-14.7646 15.1827 -2.60033 0.00019009 10
-14.7656 15.1838 -1.85297 0.000193357 10
-14.7667 15.1849 -1.11005 0.000195548 10
-14.7736 15.1921 1.11057 0.00019544 10
-14.7642 15.1823 1.85279 0.000193179 10
-13.8464 14.2386 2.43863 0.000103085 10
-14.7565 15.1745 3.35244 0.000158911 10
-6.64705 6.78774 -2.54561 0.000291781 4
-8.2905 8.46599 -2.73562 0.000217796 1
-9.86578 10.0746 -2.74091 0.000111377 1
-12.1285 12.3852 -2.74556 4.74925e-05 1
-14.8676 15.1823 -2.60913 0.000188408 10
-14.8719 15.1867 -1.85965 0.000191651 10
-14.8755 15.1903 -1.11424 0.000193824 10
-14.8728 15.1876 1.11404 0.000193717 10
-14.8695 15.1842 1.85933 0.000191473 10
-13.9373 14.2323 2.44587 0.00010221 10
-14.8603 15.1748 3.36396 0.0001575 10
-6.67861 6.77252 -2.54863 0.000367537 4
-8.33168 8.44883 -2.73946 0.000217799 1
-9.90768 10.047 -2.74279 0.000111379 1
-12.1651 12.3361 -2.74408 4.74937e-05 1
-14.9628 15.1732 -2.61652 0.000186717 10
-14.9779 15.1885 -1.86625 0.000189934 10
-14.9644 15.1748 -1.11692 0.000192091 10
-14.9731 15.1836 1.11757 0.000191984 10
-14.9632 15.1736 1.86442 0.000189758 10
-14.0316 14.2289 2.45368 0.000101329 10
-14.9623 15.1727 3.37504 0.000156081 10
-6.7019 6.74886 -2.54851 0.000350708 4
-8.35613 8.41467 -2.73782 0.000217802 1
-9.93463 10.0042 -2.74057 0.000111381 1
-12.219 12.3046 -2.74653 4.74949e-05 1
-15.0814 15.1871 -2.62798 0.000185016 10
-15.0794 15.185 -1.87228 0.000188208 10
-15.0798 15.1854 -1.12157 0.000190347 10
-15.0773 15.1829 -0.373491 0.000191407 10
-15.083 15.1887 0.373633 0.000191371 10
-15.0697 15.1753 1.12083 0.000190241 10
-15.0726 15.1782 1.87145 0.000188032 10
-14.1363 14.2354 2.46329 0.000100442 10
-15.0677 15.1732 3.38684 0.000154654 10
-15.0783 15.1839 4.15949 0.000150187 10
-15.078 15.1837 4.9402 0.000144965 10
-15.0734 15.179 5.7319 0.000139059 10
-6.71367 6.71368 -2.54406 0.000356324 4
-8.38456 8.38457 -2.73753 0.000217806 1
-9.97656 9.97657 -2.74251 0.000111384 1
-12.2457 12.2457 -2.74291 4.74961e-05 1
-15.1707 15.1707 -2.63429 0.000183306 10
-15.1788 15.1788 -1.87803 0.000186472 10
-15.1786 15.1786 -1.12498 0.000188595 10
-15.1891 15.1891 -0.374946 0.000189645 10
-15.1788 15.1788 0.374691 0.00018961 10
-15.1791 15.1791 1.12501 0.000188489 10
-15.1762 15.1763 1.87772 0.000186298 10
-14.2183 14.2183 2.46891 9.95504e-05 10
-15.1851 15.1851 3.40131 0.000153219 10
-15.1765 15.1765 4.17195 0.000148788 10
-15.1765 15.1765 4.95509 0.000143609 10
-15.1935 15.1935 5.75738 0.00013775 10
-6.75335 6.70636 -2.55021 0.000387191 4
-8.41866 8.3601 -2.73912 0.000217809 1
-10.0021 9.93253 -2.73999 0.000111386 1
-12.2926 12.2071 -2.74385 4.74973e-05 1
-15.2757 15.1694 -2.64331 0.000181587 10
-15.2892 15.1828 -1.88513 0.000184728 10
-15.2917 15.1853 -1.12942 0.000186833 10
-15.2884 15.182 -0.376086 0.000187875 10
-15.2772 15.1709 0.375811 0.00018784 10
-15.2937 15.1873 1.12957 0.000186728 10
-15.2967 15.1903 1.88605 0.000184554 10
-14.3173 14.2177 2.47748 9.86536e-05 10
-15.2931 15.1867 3.41359 0.000151777 10
-15.2804 15.1741 4.18592 0.000147382 10
-15.2902 15.1838 4.97487 0.000142245 10
-15.2989 15.1925 5.77721 0.000136434 10
-6.77279 6.67888 -2.54873 0.000409643 4
-8.43963 8.32261 -2.73648 0.000217813 1
-10.0346 9.89544 -2.7394 0.000111388 1
-12.345 12.1738 -2.74604 4.74986e-05 1
-15.3973 15.1838 -2.65517 0.00017986 10
-15.3972 15.1837 -1.8919 0.000182975 10
-15.3952 15.1817 -1.13314 0.000185063 10
-15.39 15.1767 -0.377282 0.000186096 10
-15.3957 15.1822 0.37742 0.000186061 10
-15.3951 15.1817 1.13314 0.000184958 10
-15.4016 15.188 1.89244 0.000182802 10
-14.4361 14.2359 2.48942 9.77521e-05 10
-15.3945 15.1811 3.42439 0.000150329 10
-15.3907 15.1773 4.20161 0.00014597 10
-15.3891 15.1757 4.98977 0.000140875 10
-15.3994 15.1859 5.7951 0.000135113 10
-6.78862 6.64791 -2.54594 0.000418066 4
-8.46878 8.29324 -2.73652 0.000217816 1
-10.0725 9.86368 -2.74033 0.00011139 1
-12.3835 12.1268 -2.74518 4.74999e-05 1
-15.5066 15.1852 -2.66486 0.000178125 10
-15.4922 15.1711 -1.89706 0.000181214 10
-15.4902 15.1691 -1.13623 0.000183284 10
-15.5037 15.1823 -0.378765 0.000184309 10
-15.5045 15.1831 0.378785 0.000184274 10
-15.5047 15.1833 1.13729 0.00018318 10
-15.494 15.1729 1.89728 0.000181042 10
-14.5347 14.2335 2.49785 9.68458e-05 10
-15.4921 15.171 3.43429 0.000148873 10
-15.504 15.1826 4.21804 0.00014455 10
-15.5123 15.1908 5.01251 0.000139499 10
-15.4984 15.1771 5.81236 0.000133786 10
-6.81242 6.62479 -2.54618 0.000378789 4
-8.49962 8.26552 -2.73715 0.00021782 1
-10.0991 9.82096 -2.73824 0.000111393 1
-12.4116 12.0697 -2.74205 4.75012e-05 1
-15.608 15.1782 -2.67317 0.000176383 10
-15.6047 15.1749 -1.90433 0.000179445 10
-15.6075 15.1776 -1.14094 0.000181497 10
-15.6011 15.1714 -0.379851 0.000182513 10
-15.6027 15.173 0.379888 0.000182479 10
-15.6036 15.1739 1.14066 0.000181394 10
-15.6051 15.1753 1.90438 0.000179274 10
-14.631 14.228 2.50583 9.59352e-05 10
-15.6106 15.1807 3.4488 0.000147411 10
-15.6097 15.1798 4.23235 0.000143126 10
-15.616 15.1859 5.02885 0.000138118 10
-15.6123 15.1823 5.83519 0.000132454 10
-6.83358 6.59912 -2.54546 0.000381601 4
-8.53212 8.23938 -2.73834 0.000217824 1
-10.1338 9.78611 -2.73836 0.000111395 1
-12.4678 12.0401 -2.74517 4.75024e-05 1
-15.7034 15.1646 -2.68043 0.000174633 10
-15.7233 15.1838 -1.91232 0.000177669 10
-15.7127 15.1735 -1.14475 0.000179704 10
-15.7151 15.1759 -0.381333 0.000180711 10
-15.7066 15.1677 0.381128 0.000180676 10
-15.7265 15.1869 1.14576 0.000179601 10
-15.7159 15.1767 1.91143 0.000177499 10
-14.7221 14.2169 2.51292 9.50202e-05 10
-15.7104 15.1714 3.45912 0.000145943 10
-15.723 15.1835 4.24868 0.000141695 10
-15.7217 15.1823 5.04579 0.00013673 10
-15.7143 15.1752 5.85349 0.000131116 10
-6.85515 6.57385 -2.54493 0.000350741 4
-8.55199 8.20106 -2.73551 0.000217827 1
-10.1748 9.75726 -2.74021 0.000111397 1
-12.515 12.0015 -2.74632 4.75038e-05 1
-15.8311 15.1815 -2.69316 0.000172876 10
-15.8325 15.1829 -1.91915 0.000175885 10
-15.8261 15.1767 -1.14915 0.000177902 10
-15.836 15.1861 -0.382977 0.000178901 10
-15.8347 15.1849 0.382947 0.000178866 10
-15.8171 15.1681 1.1485 0.0001778 10
-15.8193 15.1701 1.91754 0.000175716 10
-14.8266 14.2182 2.52228 9.41011e-05 10
-15.836 15.1862 3.47509 0.00014447 10
-15.8194 15.1703 4.2604 0.000140259 10
-15.8223 15.1731 5.06106 0.000135338 10
-15.8404 15.1904 5.88067 0.000129773 10
-6.88705 6.55845 -2.54826 0.000246925 4
-8.59111 8.18121 -2.73887 0.000217831 1
-10.2186 9.73109 -2.74286 0.0001114 1
-12.5415 11.9431 -2.74296 4.75051e-05 1
-15.9252 15.1654 -2.70015 0.000171113 10
-15.942 15.1814 -1.92599 0.000174095 10
-15.9302 15.1701 -1.15286 0.000176095 10
-15.9431 15.1824 -0.384285 0.000177084 10
-15.9394 15.1789 0.384195 0.00017705 10
-15.9369 15.1765 1.15334 0.000175993 10
-15.9474 15.1865 1.92663 0.000173927 10
-15.9432 15.1825 2.7032 0.000146406 10
-15.9406 15.18 3.48639 0.000142991 10
-15.9436 15.1829 4.27955 0.000138817 10
-15.9477 15.1868 5.08419 0.000133941 10
-15.9481 15.1872 5.90093 0.000128426 10
-6.9095 6.53399 -2.54812 0.000322691 4
-8.61355 8.14543 -2.73694 0.000217835 1
-10.2505 9.69337 -2.7423 0.000111402 1
-12.5795 11.8959 -2.74218 4.75064e-05 1
-16.0514 15.1791 -2.71255 0.000169344 10
-16.0351 15.1637 -1.93083 0.000172299 10
-16.055 15.1824 -1.15805 0.00017428 10
-16.0366 15.165 -0.385259 0.00017526 10
-16.0486 15.1764 0.385547 0.000175227 10
-16.0487 15.1765 1.15759 0.000174179 10
-16.0539 15.1815 1.9331 0.000172132 10
-16.0528 15.1804 2.71279 0.000144891 10
-16.0548 15.1822 3.49974 0.000141507 10
-16.0454 15.1734 4.29262 0.000137371 10
-16.0578 15.1851 5.10235 0.000132539 10
-16.0567 15.184 5.92145 0.000127074 10
-6.93474 6.51215 -2.54902 0.000398459 4
-8.64194 8.11533 -2.73695 0.000217839 1
-10.2772 9.6509 -2.74042 0.000111405 1
-12.6377 11.8676 -2.74582 4.75078e-05 1
-16.1487 15.1646 -2.72002 0.000167569 10
-16.1513 15.1671 -1.93844 0.000170497 10
-16.1607 15.1759 -1.16184 0.00017246 10
-16.1697 15.1843 -0.387181 0.000173431 10
-16.1611 15.1763 0.386975 0.000173398 10
-16.1614 15.1766 1.16189 0.00017236 10
-16.1523 15.168 1.93855 0.000170331 10
-16.1632 15.1783 2.72246 0.000143371 10
-16.1683 15.1831 3.51292 0.000140018 10
-16.1703 15.1849 4.31182 0.00013592 10
-16.1673 15.1821 5.12028 0.000131132 10
-16.1705 15.1851 5.94384 0.000125718 10
-6.9583 6.48872 -2.54934 0.000376016 4
-8.66572 8.08091 -2.73553 0.000217843 1
-10.3045 9.60912 -2.73875 0.000111407 1
-12.6646 11.8099 -2.74268 4.75092e-05 1
-16.2688 15.1709 -2.73132 0.000165788 10
-16.262 15.1646 -1.94536 0.000168689 10
-16.2803 15.1816 -1.16662 0.000170634 10
-16.2659 15.1682 -0.388215 0.000171596 10
-16.2762 15.1778 0.388461 0.000171563 10
-16.2836 15.1847 1.16686 0.000170534 10
-16.2756 15.1773 1.94698 0.000168525 10
-16.2762 15.1778 2.73255 0.000141847 10
-16.2763 15.1779 3.52486 0.000138525 10
-16.2869 15.1878 4.32877 0.000134465 10
-16.287 15.1879 5.14135 0.000129722 10
-16.2751 15.1768 5.96278 0.000124359 10
-6.97839 6.46206 -2.54842 0.000353572 4
-8.71048 8.066 -2.74075 0.000217847 1
-10.3372 9.57231 -2.73853 0.00011141 1
-12.713 11.7724 -2.74426 4.75105e-05 1
-16.386 15.1736 -2.74208 0.000164003 10
-16.3787 15.1669 -1.95297 0.000166877 10
-16.3899 15.1772 -1.17067 0.000168803 10
-16.3824 15.1703 -0.389729 0.000169757 10
-16.3821 15.17 0.389723 0.000169723 10
-16.3971 15.1839 1.17119 0.000168704 10
-16.3817 15.1696 1.95332 0.000166713 10
-16.3922 15.1793 2.74312 0.000140319 10
-16.3957 15.1826 3.53922 0.000137028 10
-16.3966 15.1834 4.3438 0.000133006 10
-16.3927 15.1798 5.15795 0.000128308 10
-16.3922 15.1793 5.98622 0.000122996 10
-6.99733 6.43437 -2.54712 0.000319904 4
-8.74101 8.03777 -2.74151 0.000217851 1
-10.3736 9.53901 -2.73934 0.000111412 1
-12.7608 11.7341 -2.74571 4.7512e-05 1
-16.5048 15.177 -1.96168 0.000165059 10
-16.5079 15.1798 -1.17531 0.000166967 10
-16.4904 15.1637 -0.391037 0.000167911 10
-16.5029 15.1752 0.391333 0.000167878 10
-16.4936 15.1666 1.17429 0.000166869 10
-16.4919 15.1651 1.96015 0.000164897 10
-16.5101 15.1818 2.75397 0.000138786 10
-16.5112 15.1828 3.55267 0.000135527 10
-16.4967 15.1695 4.35627 0.000131543 10
-16.5001 15.1726 5.17505 0.00012689 10
-16.5028 15.1751 6.00723 0.00012163 10
-7.02685 6.4164 -2.5497 0.000159954 4
-8.76852 8.00676 -2.74136 0.000217855 1
-10.4222 9.51675 -2.74338 0.000111415 1
-12.7929 11.6815 -2.74382 4.75134e-05 1
-16.6154 15.1719 -1.96851 0.000163237 10
-16.6121 15.1689 -1.17895 0.000165127 10
-16.6222 15.1782 -0.392904 0.000166062 10
-16.6172 15.1736 0.392786 0.000166029 10
-16.6114 15.1683 1.1789 0.000165029 10
-16.6265 15.1821 1.96982 0.000163076 10
-16.6193 15.1755 2.76333 0.00013725 10
-16.6206 15.1767 3.5648 0.000134022 10
-16.6194 15.1756 4.37465 0.000130078 10
-16.6108 15.1677 5.19314 0.00012547 10
-16.6304 15.1856 6.03435 0.000120261 10
-7.03596 6.37982 -2.54491 0.000297463 4
-8.77695 7.95846 -2.7353 0.000217859 1
-10.4508 9.47622 -2.7422 0.000111417 1
-12.8245 11.6286 -2.74189 4.75148e-05 1
-16.7305 15.1703 -1.97586 0.000168425 10
-16.7351 15.1745 -1.18391 0.000170377 10
-16.735 15.1744 -0.394316 0.000171341 10
-16.7399 15.1788 0.39443 0.000171306 10
-16.7382 15.1773 1.18414 0.000170272 10
-16.7414 15.1802 1.97715 0.000168253 10
-19.6391 17.8076 6.12042 7.64146e-05 10
-18.9272 17.1622 6.84599 3.09842e-05 10
-7.06757 6.36367 -2.54829 0.000381657 4
-8.80911 7.93176 -2.73667 0.000217863 1
-10.4692 9.4265 -2.73837 0.00011142 1
-12.8845 11.6013 -2.74605 4.75163e-05 1
-16.8669 15.187 -1.9857 0.000166213 10
-16.8574 15.1785 -1.18881 0.000168142 10
-16.8506 15.1723 -0.395789 0.000169095 10
-16.849 15.1709 0.395751 0.000169061 10
-16.8668 15.187 1.18948 0.000168038 10
-16.8679 15.1879 1.98582 0.000166042 10
-19.7635 17.7951 6.1398 7.54435e-05 10
-18.9843 17.0936 6.84501 3.09835e-05 10
-7.0822 6.33222 -2.54558 0.000384469 4
-8.83576 7.90009 -2.73637 0.000217867 1
-10.5024 9.39022 -2.73846 0.000111423 1
-12.9125 11.5451 -2.7434 4.75178e-05 1
-16.9907 15.1915 -1.99403 0.000164002 10
-16.9765 15.1787 -1.19347 0.000165909 10
-16.9741 15.1766 -0.397442 0.000166851 10
-16.9836 15.1851 0.397665 0.000166817 10
-16.9821 15.1838 1.19386 0.000165806 10
-16.9762 15.1785 1.99232 0.000163833 10
-19.9039 17.7962 6.1641 7.44725e-05 10
-19.0422 17.0257 6.84439 3.09829e-05 10
-7.11166 6.31403 -2.54823 0.000390088 4
-8.87964 7.88371 -2.74142 0.000217871 1
-10.5428 9.36038 -2.74048 0.000111425 1
-12.9488 11.4965 -2.74258 4.75192e-05 1
-17.1067 15.1881 -2.0014 0.000161794 10
-17.1099 15.1909 -1.19911 0.000163677 10
-17.1042 15.1858 -0.399245 0.000164608 10
-17.1188 15.1988 0.399587 0.000164574 10
-17.1024 15.1842 1.19858 0.000163575 10
-17.1067 15.188 2.0014 0.000161626 10
-20.058 17.8083 6.19251 7.35014e-05 10
-19.1179 16.9737 6.85028 3.09822e-05 10
-7.12095 6.27796 -2.54369 0.000420965 4
-8.8991 7.84562 -2.73895 0.000217876 1
-10.57 9.31869 -2.73905 0.000111428 1
-12.9939 11.4556 -2.74363 4.75207e-05 1
-17.2429 15.2017 -2.01112 0.000159588 10
-17.2448 15.2033 -1.20484 0.000161448 10
-17.2454 15.2039 -0.4013 0.000162368 10
-17.2259 15.1866 0.400845 0.000162334 10
-17.2396 15.1988 1.20448 0.000161347 10
-17.2404 15.1995 2.01082 0.000159421 10
-20.1991 17.8079 6.21686 7.25309e-05 10
-19.1673 16.8982 6.84679 3.09815e-05 10
-7.16201 6.26987 -2.55053 0.000415359 4
-8.9337 7.82086 -2.74118 0.00021788 1
-10.6187 9.296 -2.74326 0.000111431 1
-13.0387 11.4145 -2.74466 4.75223e-05 1
-17.3615 15.1989 -2.01875 0.000157384 10
-17.3728 15.2088 -1.21007 0.000159222 10
-17.359 15.1967 -0.402707 0.00016013 10
-17.3745 15.2102 0.403066 0.000160097 10
-17.3637 15.2007 1.20943 0.000159122 10
-17.3632 15.2003 2.01894 0.000157219 10
-20.3398 17.8062 6.241 7.15607e-05 10
-19.2295 16.8341 6.84798 3.09809e-05 10
-7.1757 6.23775 -2.54764 0.000392914 4
-8.94509 7.77585 -2.73633 0.000217884 1
-10.6462 9.25459 -2.74199 0.000111433 1
-13.0788 11.3692 -2.74473 4.75238e-05 1
-17.5022 15.2144 -2.02892 0.000155184 10
-17.4962 15.2093 -1.21496 0.000156999 10
-17.4937 15.2071 -0.404598 0.000157896 10
-17.4871 15.2013 0.404444 0.000157863 10
-17.5024 15.2146 1.21538 0.0001569 10
-17.5031 15.2152 2.02902 0.00015502 10
-20.4841 17.8066 6.26615 7.05914e-05 10
-19.2846 16.7639 6.84675 3.09802e-05 10
-7.19078 6.20692 -2.54528 0.00030311 4
-8.96947 7.74224 -2.73551 0.000217889 1
-10.6659 9.20652 -2.73877 0.000111436 1
-13.1083 11.3148 -2.74262 4.75254e-05 1
-17.6127 15.2029 -2.03557 0.000152987 10
-17.6303 15.2181 -1.22057 0.000154779 10
-17.6332 15.2206 -0.406593 0.000155665 10
-17.6136 15.2037 0.406141 0.000155632 10
-17.6157 15.2055 1.21956 0.000154681 10
-17.6204 15.2095 2.03645 0.000152825 10
-20.6159 17.7952 5.29374 7.23885e-05 10
-20.6218 17.8003 6.28923 6.96231e-05 10
-19.3529 16.705 6.85024 3.09795e-05 10
-7.21547 6.18441 -2.54636 0.000420993 4
-9.0071 7.72002 -2.73875 0.000217893 1
-10.7091 9.17878 -2.74162 0.000111439 1
-13.1457 11.2672 -2.74219 4.75269e-05 1
-17.7462 15.2103 -2.04484 0.000142501 10
-17.7507 15.2142 -1.22522 0.000144174 10
-17.7621 15.2239 -0.408337 0.000145002 10
-17.7629 15.2247 0.408356 0.000144972 10
-17.754 15.217 1.22545 0.000144086 10
-17.7575 15.22 2.04615 0.000142355 10
-20.7681 17.8004 5.31682 7.13875e-05 10
-20.7646 17.7975 6.31381 6.86558e-05 10
-19.4063 16.6332 6.84854 3.09788e-05 10
-7.23807 6.16008 -2.54673 0.000291893 4
-9.04067 7.69422 -2.74077 0.000217897 1
-10.7269 9.12933 -2.73801 0.000111442 1
-13.1961 11.2308 -2.74452 4.75285e-05 1
-17.8615 15.2013 -2.052 0.000140809 10
-17.8824 15.2191 -1.23064 0.000142465 10
-17.8725 15.2107 -0.409652 0.000143284 10
-17.8705 15.209 0.409605 0.000143254 10
-17.8843 15.2208 1.23077 0.000142377 10
-20.9095 17.7954 5.33709 7.03881e-05 10
-20.9091 17.795 6.33881 6.769e-05 10
-19.4653 16.5662 6.8489 3.09781e-05 10
-7.26215 6.13699 -2.54765 0.000277865 4
-9.06684 7.66208 -2.74058 0.000217902 1
-10.7716 9.10273 -2.7413 0.000111445 1
-13.228 11.1786 -2.74303 4.75301e-05 1
-17.9914 15.2039 -2.06082 0.000139115 10
-18.0012 15.2122 -1.23515 0.000140753 10
-17.9864 15.1997 -0.411045 0.000141564 10
-17.999 15.2103 0.411331 0.000141535 10
-17.9964 15.2081 1.23482 0.000140667 10
-21.0547 17.7926 5.35825 6.93901e-05 10
-21.0616 17.7984 6.36617 6.67256e-05 10
-19.51 16.4872 6.84435 3.09774e-05 10
-7.28748 6.11493 -2.54904 0.000314357 4
-9.08178 7.62052 -2.73704 0.000217907 1
-10.7956 9.05863 -2.73935 0.000111448 1
-13.2629 11.1289 -2.74219 4.75317e-05 1
-18.1086 15.195 -2.06816 0.00013742 10
-18.12 15.2045 -1.23965 0.000139041 10
-18.13 15.2129 -0.413111 0.000139842 10
-18.1184 15.2031 0.412845 0.000139814 10
-18.114 15.1994 1.23924 0.000138955 10
-21.219 17.8048 5.38422 6.83939e-05 10
-21.211 17.7981 6.39249 6.57631e-05 10
-19.5792 16.4289 6.84848 3.09767e-05 10
-7.29497 6.07794 -2.54422 0.000311556 4
-9.11468 7.59406 -2.73895 0.000217911 1
-10.8367 9.02876 -2.74174 0.000111451 1
-13.3152 11.0938 -2.74497 4.75333e-05 1
-18.2505 15.2058 -2.07829 0.000135724 10
-18.2534 15.2082 -1.24514 0.000137327 10
-18.2554 15.2098 -0.414755 0.00013812 10
-18.2396 15.1966 0.414395 0.000138091 10
-18.249 15.2045 1.24484 0.000137241 10
-21.3543 17.7917 5.40276 6.73996e-05 10
-21.3704 17.8052 6.42178 6.48024e-05 10
-19.6286 16.3539 6.84574 3.0976e-05 10
-7.33329 6.06663 -2.55018 0.000378926 4
-9.12845 7.55171 -2.73515 0.000217916 1
-10.865 8.98832 -2.74096 0.000111454 1
-13.3568 11.0497 -2.74559 4.75349e-05 1
-18.3735 15.1999 -2.08623 0.000134027 10
-18.3753 15.2014 -1.24983 0.000135612 10
-18.375 15.2012 -0.416265 0.000136396 10
-18.3642 15.1922 0.416018 0.000136368 10
-18.3688 15.196 1.24939 0.000135528 10
-21.5018 17.7879 5.42435 6.64076e-05 10
-21.5104 17.795 6.44515 6.38441e-05 10
-19.6931 16.2916 6.84837 3.09752e-05 10
-7.35301 6.03983 -2.54969 0.000303146 4
-9.16244 7.52611 -2.73745 0.00021792 1
-10.8866 8.94235 -2.73851 0.000111456 1
-13.3794 10.9899 -2.74232 4.75366e-05 1
-18.4873 15.1856 -2.09312 0.00013233 10
-18.5042 15.1995 -1.25498 0.000133897 10
-18.4956 15.1925 -0.417792 0.000134673 10
-18.491 15.1887 0.417688 0.000134644 10
-18.4937 15.1909 1.25427 0.000133813 10
-21.6578 17.7899 5.448 6.54178e-05 10
-21.6764 17.8052 6.47621 6.2888e-05 10
-19.7446 16.2184 6.84654 3.09745e-05 10
-7.36998 6.01081 -2.54829 0.000319994 4
-9.19085 7.49588 -2.7381 0.000217925 1
-10.9346 8.91805 -2.74274 0.000111459 1
-13.4337 10.9563 -2.7456 4.75383e-05 1
-18.6243 15.1896 -2.10262 0.000121081 10
-18.6185 15.1849 -1.25913 0.000122519 10
-18.6183 15.1847 -0.419364 0.00012323 10
-18.6092 15.1773 0.419159 0.000123205 10
-18.6182 15.1847 1.25911 0.000122445 10
-21.8245 17.7996 5.47427 6.44308e-05 10
-21.8242 17.7994 6.50177 6.19346e-05 10
-19.8027 16.1507 6.84709 3.09738e-05 10
-7.37984 5.97608 -2.54447 0.000443508 4
-8.586 6.95281 -2.55066 0.000228797 4
-10.9646 8.87898 -2.74248 0.000111463 1
-13.4682 10.9063 -2.74485 4.754e-05 1
-18.7431 15.1779 -2.11004 0.000119872 10
-18.7416 15.1767 -1.26387 0.000121297 10
-18.7462 15.1804 -0.421049 0.000122002 10
-18.7306 15.1678 0.420698 0.000121978 10
-18.7381 15.1739 1.26363 0.000121224 10
-21.9673 17.7888 5.49447 6.34465e-05 10
-21.9764 17.7962 6.52858 6.09839e-05 10
-19.8706 16.0909 6.85111 3.0973e-05 10
-7.39984 5.94962 -2.54419 6.45625e-05 4
-8.60999 6.92261 -2.55059 0.000191213 4
-10.9929 8.8385 -2.74181 0.000111466 1
-13.5016 10.8556 -2.74392 4.75416e-05 1
-18.8418 15.1492 -2.11518 0.000118658 10
-18.8493 15.1552 -1.26755 0.00012007 10
-18.8468 15.1532 -0.422118 0.000120769 10
-18.8561 15.1607 0.422325 0.000120745 10
-18.8478 15.154 1.26745 0.000119998 10
-22.1249 17.7889 6.5542 6.00361e-05 10
-19.9135 16.0109 6.84659 3.09722e-05 10
-7.43605 5.93613 -2.5495 0.000289133 4
-8.62257 6.88331 -2.54719 0.000209195 4
-11.0242 8.80054 -2.74196 0.000111469 1
-13.5351 10.8049 -2.74305 4.75434e-05 1
-18.9627 15.1377 -2.12281 0.000117439 10
-18.9657 15.1402 -1.27182 0.000118839 10
-18.9672 15.1413 -0.423628 0.000119532 10
-18.9833 15.1542 0.423987 0.000119508 10
-18.9698 15.1434 1.27209 0.000118767 10
-22.2791 17.7852 6.58145 5.90915e-05 10
-19.9833 15.9525 6.8514 3.09715e-05 10
-7.45415 5.90809 -2.54862 0.000249838 4
-8.64901 6.85512 -2.54791 0.0002092 4
-11.0469 8.75563 -2.73996 0.000111472 1
-13.5657 10.752 -2.74163 4.75451e-05 1
-19.0848 15.1265 -2.13056 0.000116216 10
-19.0865 15.1277 -1.27636 0.000117603 10
-19.0853 15.1269 -0.425085 0.00011829 10
-19.0896 15.1302 0.425179 0.000118266 10
-19.1002 15.1386 1.27728 0.000117532 10
-22.4399 17.7856 6.61055 5.81502e-05 10
-20.0278 15.8738 6.84762 3.09707e-05 10
-7.47534 5.88252 -2.54883 0.000174048 4
-8.66333 6.81737 -2.54511 0.000240258 4
-11.0878 8.72526 -2.74255 0.000111475 1
-13.6168 10.7154 -2.74439 4.75469e-05 1
-19.2165 15.1219 -2.13936 0.000103345 10
-19.2119 15.1183 -1.28122 0.000104582 10
-19.2115 15.1179 -0.426716 0.000105194 10
-19.2231 15.1271 0.426975 0.000105174 10
-19.2086 15.1157 1.281 0.000104522 10
-22.621 17.801 6.64557 5.72126e-05 10
-20.0785 15.8003 6.84607 3.09699e-05 10
-7.48777 5.85009 -2.54608 0.000224582 4
-8.70156 6.7984 -2.54935 0.000212478 4
-11.1139 8.68315 -2.7415 0.000111478 1
-13.6399 10.6567 -2.74153 4.75486e-05 1
-19.3249 15.0983 -2.14554 0.000102577 10
-19.3139 15.0897 -1.2845 0.000103806 10
-19.3306 15.1028 -0.428189 0.000104415 10
-19.3265 15.0995 0.428098 0.000104395 10
-19.3153 15.0908 1.28459 0.000103746 10
-22.7833 17.8003 6.67496 5.62785e-05 10
-20.1439 15.7381 6.84958 3.09692e-05 10
-7.50449 5.82108 -2.54485 0.000300384 4
-8.73021 6.77185 -2.5508 0.000237 4
-11.137 8.63875 -2.73974 0.000111481 1
-13.6919 10.6205 -2.74451 4.75504e-05 1
-19.4324 15.0733 -2.15162 0.000101802 10
-19.4367 15.0767 -1.28916 0.000103023 10
-19.4294 15.071 -0.42921 0.000103628 10
-19.4343 15.0748 0.429318 0.000103608 10
-19.4306 15.0719 1.28875 0.000102964 10
-22.9327 17.7884 6.7005 5.53485e-05 10
-20.2006 15.6692 6.8502 3.09684e-05 10
-7.53166 5.80016 -2.54718 0.000140369 4
-8.75277 6.74054 -2.5505 0.000223929 4
-11.1622 8.59608 -2.73854 0.000111485 1
-13.7152 10.5621 -2.74176 4.75522e-05 1
-19.5457 15.0522 -2.15834 0.00010102 10
-19.5441 15.051 -1.29279 0.000102233 10
-19.5351 15.044 -0.430381 0.000102834 10
-19.5489 15.0547 0.430685 0.000102814 10
-19.5543 15.0589 1.29347 0.000102173 10
-23.1057 17.7938 6.73285 5.44225e-05 10
-20.2598 15.6021 6.85177 3.09676e-05 10
-7.54198 5.76628 -2.54384 0.000350929 4
-8.75765 6.69573 -2.5451 0.000205954 4
-11.2101 8.57078 -2.74293 0.000111488 1
-13.758 10.5188 -2.74297 4.7554e-05 1
-19.6442 15.0192 -2.16341 0.000100231 10
-19.6534 15.0262 -1.29654 0.000101435 10
-19.6626 15.0332 -0.432031 0.000102032 10
-19.663 15.0335 0.432039 0.000102012 10
-19.6601 15.0313 1.29698 0.000101376 10
-23.264 17.7867 6.76086 5.35008e-05 10
-20.2997 15.5203 6.84693 3.09668e-05 10
-7.57825 5.75221 -2.54929 0.000314439 4
-8.79227 6.6737 -2.54837 0.000250093 4
-11.2317 8.52533 -2.74092 0.000111491 1
-13.7888 10.4663 -2.7418 4.75559e-05 1
-19.7716 15.0075 -2.17166 9.94343e-05 10
-19.7635 15.0013 -1.30034 0.000100631 10
-19.7562 14.9958 -0.432934 0.000101224 10
-19.7541 14.9942 0.432888 0.000101204 10
-19.7782 15.0125 1.30131 0.000100572 10
-18.7266 14.2143 2.05688 5.84782e-05 10
-23.4312 17.7853 6.79137 5.25836e-05 10
-20.3568 15.4516 6.84793 3.0966e-05 10
-7.58782 5.71783 -2.54578 0.000328483 4
-8.8187 6.64537 -2.54929 0.000209233 4
-11.2585 8.48385 -2.7402 0.000111494 1
-13.8322 10.4233 -2.74319 4.75577e-05 1
-19.8724 14.9749 -2.17698 8.58562e-05 10
-19.8755 14.9773 -1.30427 8.68915e-05 10
-19.874 14.9761 -0.434369 8.74049e-05 10
-19.8691 14.9724 0.434261 8.7389e-05 10
-19.8757 14.9774 1.30427 8.6844e-05 10
-18.8429 14.1992 2.0642 5.78313e-05 10
-23.6031 17.7862 6.82314 5.1671e-05 10
-20.4133 15.3826 6.84885 3.09652e-05 10
-7.61747 5.6986 -2.54904 0.000272337 4
-8.83148 6.60679 -2.54631 0.000232124 4
-11.2871 8.44384 -2.73999 0.000111498 1
-13.8719 10.3775 -2.74385 4.75596e-05 1
-19.971 14.9402 -2.18205 8.545e-05 10
-19.9629 14.9341 -1.30657 8.64815e-05 10
-19.9558 14.9288 -0.435014 8.6993e-05 10
-19.9579 14.9304 0.43506 8.69771e-05 10
-19.9573 14.93 1.3062 8.64341e-05 10
-18.9553 14.1804 2.07108 5.71829e-05 10
-20.4657 15.3103 6.84846 3.09643e-05 10
-7.61901 5.65838 -2.54293 0.00031165 4
-8.85287 6.57472 -2.54584 0.000237033 4
-11.3175 8.40512 -2.74022 0.000111501 1
-13.9022 10.3247 -2.7427 4.75614e-05 1
-20.0753 14.9093 -2.18775 8.50355e-05 10
-20.0709 14.906 -1.31022 8.60629e-05 10
-20.0601 14.898 -0.436153 8.65724e-05 10
-20.0591 14.8972 0.43613 8.65566e-05 10
-20.0691 14.9047 1.31011 8.60156e-05 10
-19.0704 14.163 2.07824 5.11354e-05 10
-20.5179 15.238 6.84809 3.09635e-05 10
-7.64423 5.63581 -2.54476 0.000407118 4
-8.8834 6.54941 -2.54803 0.000184727 4
-11.3519 8.36933 -2.74146 0.000111504 1
-13.9511 10.2857 -2.74526 4.75633e-05 1
-20.1644 14.8665 -2.19179 8.46127e-05 10
-20.1649 14.8669 -1.31297 8.5636e-05 10
-20.1623 14.8649 -0.437242 8.61434e-05 10
-20.1732 14.873 0.437479 8.61276e-05 10
-20.1689 14.8698 1.31323 8.55888e-05 10
-19.1995 14.1551 2.08691 5.07172e-05 10
-20.5623 15.1599 6.84521 3.09627e-05 10
-7.66973 5.61339 -2.54671 0.000275161 4
-8.91029 6.52135 -2.5492 0.000207619 4
-11.3873 8.33422 -2.74296 0.000111508 1
-13.9833 10.2342 -2.74454 4.75652e-05 1
-20.2619 14.8295 -2.19674 7.07459e-05 10
-20.2627 14.83 -1.31595 7.16033e-05 10
-20.2747 14.8389 -0.438555 7.2029e-05 10
-20.2601 14.8281 0.438238 7.20168e-05 10
-20.2626 14.83 1.31595 7.15668e-05 10
-19.2964 14.1229 2.09207 5.02958e-05 10
-20.6165 15.089 6.84567 3.09618e-05 10
-7.69584 5.59136 -2.54889 0.000353786 4
-8.93668 6.49288 -2.55025 0.00019291 4
-11.4054 8.28652 -2.74035 0.000111511 1
-14.0141 10.1819 -2.7436 4.75671e-05 1
-20.3696 14.7994 -2.2028 7.06258e-05 10
-20.3669 14.7974 -1.31936 7.14824e-05 10
-20.368 14.7982 -0.439454 7.19077e-05 10
-20.3568 14.7901 0.439212 7.18954e-05 10
-20.3561 14.7896 1.31866 7.14459e-05 10
-19.4194 14.109 2.10005 4.98714e-05 10
-24.4819 17.7871 5.8822 4.9149e-05 10
-20.6685 15.0166 6.84549 3.0961e-05 10
-7.69775 5.5518 -2.54309 0.000342562 4
-8.96102 6.46289 -2.55074 0.00025504 4
-11.4249 8.23987 -2.73809 0.000111515 1
-14.0491 10.1325 -2.7435 4.75691e-05 1
-20.456 14.7533 -2.20656 7.04973e-05 10
-20.46 14.7562 -1.32204 7.1353e-05 10
-20.4443 14.7449 -0.439987 7.17778e-05 10
-20.4462 14.7463 0.440027 7.17656e-05 10
-20.4559 14.7533 1.32178 7.13164e-05 10
-19.522 14.0797 2.10582 4.94439e-05 10
-24.6444 17.7741 5.90629 4.82355e-05 10
-20.7412 14.959 6.85221 3.09601e-05 10
-7.73724 5.53932 -2.54973 0.00038188 4
-8.9785 6.42797 -2.54931 0.000204364 4
-11.4655 8.20846 -2.74094 0.000111518 1
-14.0926 10.0893 -2.74511 4.7571e-05 1
-20.5354 14.7019 -2.20958 7.03603e-05 10
-20.5386 14.7042 -1.3238 7.1215e-05 10
-20.5392 14.7046 -0.44092 7.16395e-05 10
-20.5485 14.7113 0.44112 7.16272e-05 10
-20.5577 14.7179 1.32503 7.11785e-05 10
-19.6208 14.0471 2.11118 4.29422e-05 10
-24.8415 17.7847 5.93862 4.73281e-05 10
-20.7825 14.8788 6.84865 3.09593e-05 10
-7.75422 5.51064 -2.54897 0.000370656 4
-8.9997 6.39576 -2.54898 0.000142241 4
-11.4995 8.17229 -2.74225 0.000111522 1
-14.1243 10.0376 -2.74443 4.7573e-05 1
-20.6302 14.6611 -2.21426 7.02151e-05 10
-20.6312 14.6618 -1.32646 7.10688e-05 10
-20.6422 14.6696 -0.442029 7.14925e-05 10
-20.6441 14.671 0.44207 7.14803e-05 10
-20.6441 14.671 1.32729 7.10322e-05 10
-19.7212 14.0151 2.1167 4.27128e-05 10
-25.0302 17.7881 4.86353 4.8033e-05 10
-25.0283 17.7867 5.96841 4.64268e-05 10
-20.8287 14.8022 6.84683 3.09584e-05 10
-7.77145 5.48216 -2.54833 0.000424017 4
-9.00796 6.35441 -2.54502 0.000202739 4
-11.5081 8.11808 -2.73752 0.000111525 1
-14.1628 9.99079 -2.74514 4.7575e-05 1
-20.7147 14.6126 -2.21785 5.84037e-05 10
-20.7186 14.6154 -1.32879 5.91151e-05 10
