VERSION 0.7
FIELDS x y z intensity label
SIZE 4 4 4 4 4
TYPE F F F F F
COUNT 1 1 1 1 1
WIDTH 1195
HEIGHT 1
VIEWPOINT 13.0387 52.9968 2.72586 0.999998 0.000174708 0.000810978 -0.00160357
POINTS 1195
DATA ascii
12.6022 9.29115 2.47982 0.000293715 10
7.56382 5.61738 -2.52451 8.39486e-05 4
8.78309 6.52289 -2.52577 0.000235619 4
11.1861 8.30756 -2.70842 0.00011666 1
12.5176 9.29636 -2.46954 0.000105851 10
14.5656 10.8173 -2.22769 5.06141e-05 10
13.693 10.1693 2.09423 7.16183e-05 10
12.5589 9.32708 2.4777 0.000292626 10
7.55011 5.6482 -2.5265 0.000173676 4
8.75761 6.55153 -2.52501 0.000162718 4
11.1727 8.35824 -2.71221 0.000116649 1
12.4745 9.33211 -2.46745 0.000105838 10
14.5275 10.868 -2.22766 5.06062e-05 10
13.6518 10.2128 2.09337 7.16295e-05 10
12.5102 9.35882 2.47451 0.000165099 10
7.51978 5.66656 -2.52295 0.000272076 4
8.73765 6.58429 -2.52587 0.000191518 4
11.1358 8.39145 -2.71035 0.000116639 1
12.456 9.38628 -2.47026 0.000105826 10
14.4813 10.9124 -2.22639 5.05982e-05 10
13.6014 10.2494 2.09111 7.16408e-05 10
12.4479 9.38019 2.46866 0.000162871 10
7.50313 5.69518 -2.52402 0.000280742 4
8.70822 6.6099 -2.52401 0.000227094 4
11.1048 8.42897 -2.70994 0.000116628 1
12.4198 9.42711 -2.46958 0.000105814 10
14.442 10.9621 -2.22622 5.05902e-05 10
13.5852 10.3117 2.09414 7.16521e-05 10
12.4177 9.42555 2.46918 0.000160622 10
7.49359 5.72928 -2.52752 0.000324136 4
8.68709 6.64179 -2.52459 0.000176239 4
11.074 8.46668 -2.70962 0.000116617 1
12.3664 9.45484 -2.46552 0.000135255 10
14.4011 11.0105 -2.22583 5.05822e-05 10
13.5279 10.3428 2.09086 7.16633e-05 10
12.3802 9.46538 2.46827 0.000158352 10
7.47641 5.7576 -2.52849 0.000367524 4
8.65891 6.66825 -2.52315 0.000184698 4
11.0578 8.51565 -2.71292 0.000116606 1
12.3317 9.49671 -2.4652 0.000133295 10
14.3613 11.0597 -2.22563 5.05742e-05 10
13.5063 10.4012 2.09313 7.16747e-05 10
12.3246 9.49118 2.46377 0.000156062 10
7.45241 5.78068 -2.52718 0.000300946 4
8.63109 6.69496 -2.52184 0.000257541 4
11.0184 8.54671 -2.71055 0.000116595 1
12.3021 9.54248 -2.46592 0.000131317 10
14.3246 11.1113 -2.22594 5.05662e-05 10
13.4544 10.4363 2.09072 7.16861e-05 10
12.2895 9.53272 2.4634 0.000153753 10
7.43016 5.80507 -2.52649 0.000324075 4
8.61712 6.73243 -2.52461 0.000205001 4
10.9941 8.5895 -2.71193 0.000116584 1
12.2471 9.5685 -2.46158 0.000129322 10
14.2905 11.165 -2.22669 5.05581e-05 10
13.438 10.4989 2.09385 7.16974e-05 10
12.2592 9.57795 2.46402 0.000151423 10
7.40308 5.82565 -2.52419 0.000410855 4
8.58248 6.75375 -2.52135 0.000262585 4
10.9683 8.63119 -2.71299 0.000116573 1
12.1997 9.60018 -2.45876 0.000127311 10
14.2405 11.2062 -2.22498 5.055e-05 10
13.387 10.5345 2.09162 7.17089e-05 10
12.1952 9.59664 2.45786 0.000149074 10
7.3901 5.85732 -2.52672 0.000344287 4
8.56927 6.79192 -2.52442 0.000184643 4
10.9199 8.65504 -2.70849 0.000116562 1
12.1659 9.6426 -2.45874 0.000125283 10
14.2172 11.2684 -2.22747 5.05419e-05 10
13.3641 10.5923 2.09381 7.17204e-05 10
12.1588 9.63694 2.45729 0.000146706 10
7.37765 5.8895 -2.52947 0.000393446 4
8.5356 6.81388 -2.52149 0.000191404 4
10.909 8.70853 -2.71329 0.000116551 1
12.1267 9.68064 -2.45763 0.000123239 10
14.1849 11.3236 -2.22858 5.05338e-05 10
13.3147 10.629 2.09186 7.17319e-05 10
12.1274 9.68119 2.45777 0.00014432 10
7.34456 5.90518 -2.52518 0.000396314 4
8.52326 6.85288 -2.5249 0.000215102 4
10.8731 8.74221 -2.71194 0.00011654 1
12.089 9.7198 -2.45684 0.00012118 10
14.1241 11.3561 -2.22525 5.05256e-05 10
13.2756 10.6738 2.09156 7.17434e-05 10
12.0791 9.71183 2.45483 0.000141914 10
7.33759 5.94187 -2.5299 0.000344222 4
8.4905 6.87547 -2.52229 0.000257426 4
10.8377 8.77616 -2.71072 0.000116529 1
12.0337 9.74473 -2.45251 0.000119105 10
14.0856 11.4063 -2.22544 5.05174e-05 10
13.2517 10.731 2.09369 7.1755e-05 10
12.0363 9.74684 2.45304 0.000139491 10
7.29929 5.95316 -2.52384 0.000428081 4
8.48436 6.91968 -2.52763 0.000230311 4
10.8083 8.81507 -2.71107 0.000116518 1
11.9992 9.78631 -2.45242 0.000117014 10
14.0634 11.4698 -2.22824 5.05092e-05 10
13.1978 10.7638 2.09109 7.17666e-05 10
11.9909 9.77957 2.45073 0.000137049 10
7.29372 5.99112 -2.52913 0.000338394 4
8.44808 6.93933 -2.52402 0.00022352 4
10.7802 8.85499 -2.71176 0.000116507 1
14.0212 11.5171 -2.22792 5.0501e-05 10
13.1736 10.8209 2.09324 7.17783e-05 10
7.27523 6.01859 -2.52999 0.000292099 4
8.4295 6.97348 -2.52572 0.000240435 4
10.7562 8.89831 -2.71351 0.000116496 1
13.9851 11.5695 -2.22859 5.04928e-05 10
13.1277 10.8602 2.09195 7.17899e-05 10
7.25014 6.04059 -2.52858 0.000358594 4
8.40273 7.00089 -2.52501 0.000223486 4
10.7143 8.92683 -2.71079 0.000116485 1
13.9394 11.6139 -2.22775 5.04845e-05 10
13.084 10.9012 2.09105 7.18016e-05 10
7.21437 6.05358 -2.52346 0.000326762 4
9.0027 7.55416 -2.71321 0.000225863 1
10.6742 8.95672 -2.70853 0.000116473 1
13.894 11.6585 -2.22699 5.04762e-05 10
13.043 10.9443 2.09058 7.18134e-05 10
7.19245 6.07809 -2.5232 0.000396138 4
8.97735 7.58644 -2.71353 0.000225845 1
10.6572 9.00605 -2.71218 0.000116462 1
13.8546 11.7081 -2.22721 5.04679e-05 10
13.0058 10.9908 2.09076 7.18252e-05 10
7.1805 6.11109 -2.52648 0.000332503 4
8.95454 7.62091 -2.71466 0.000225828 1
10.6191 9.03754 -2.71049 0.000116451 1
13.815 11.7575 -2.22743 5.04596e-05 10
15.7031 13.3644 -1.80404 0.000233873 10
15.7159 13.3753 -1.08154 0.000236542 10
15.7151 13.3746 -0.360202 0.000237886 10
15.7065 13.3673 0.360005 0.000237887 10
15.7199 13.3786 1.08181 0.000236546 10
15.7142 13.3738 1.80531 0.000233878 10
12.9793 11.0462 2.09268 7.1837e-05 10
7.1493 6.12769 -2.52301 0.000384522 4
8.91818 7.64381 -2.71171 0.00022581 1
10.601 9.08615 -2.71395 0.000116439 1
13.7741 11.8058 -2.22746 5.04512e-05 10
15.5934 13.3652 -1.79678 0.000236704 10
15.5935 13.3652 -1.07632 0.000239402 10
15.5996 13.3705 -0.358624 0.000240761 10
15.6063 13.3762 0.358777 0.000240762 10
15.6074 13.3772 1.07728 0.000239406 10
15.6032 13.3735 1.79791 0.000236711 10
12.933 11.0849 2.09144 7.18488e-05 10
15.6037 13.374 5.50659 0.000204961 10
7.14147 6.16435 -2.52782 0.000378715 4
8.90164 7.68369 -2.71482 0.000225792 1
10.5621 9.11692 -2.71211 0.000116428 1
13.7242 11.8464 -2.22606 5.04429e-05 10
15.4976 13.3771 -1.79111 0.000239533 10
15.494 13.374 -1.07267 0.000242259 10
15.4847 13.366 -0.357051 0.000243632 10
15.4878 13.3687 0.357123 0.000243634 10
15.4824 13.3641 1.07187 0.000242264 10
15.5001 13.3793 1.79141 0.00023954 10
12.8966 11.132 2.09182 7.18607e-05 10
15.5054 13.3839 5.48834 0.000207455 10
7.1166 6.18637 -2.52665 0.000422052 4
8.86717 7.70811 -2.7125 0.000225774 1
10.5337 9.15682 -2.71303 0.000116417 1
13.692 11.9023 -2.22757 5.04345e-05 10
15.3881 13.3766 -1.78384 0.000242359 10
15.3926 13.3806 -1.06888 0.000245113 10
15.3937 13.3815 -0.356028 0.000246501 10
15.3738 13.3643 0.355569 0.000246502 10
15.3946 13.3823 1.06902 0.000245118 10
15.3877 13.3763 1.7838 0.000242367 10
12.8612 11.1801 2.09241 7.18726e-05 10
11.6929 10.1644 2.45388 2.8971e-05 10
15.3762 13.3663 5.45909 0.000209948 10
7.10541 6.22031 -2.53037 0.000346869 4
8.85175 7.74912 -2.71604 0.000225756 1
10.4937 9.18656 -2.71097 0.000116405 1
13.6601 11.9585 -2.22916 5.04261e-05 10
15.2778 13.3747 -1.77646 0.00024518 10
15.2676 13.3658 -1.06343 0.000247963 10
15.285 13.381 -0.354594 0.000249365 10
15.2643 13.3629 0.354111 0.000249367 10
15.2743 13.3716 1.0639 0.000247969 10
15.271 13.3688 1.77567 0.000245189 10
12.815 11.2187 2.09125 7.18846e-05 10
11.6648 10.2117 2.45545 3.17144e-05 10
15.2774 13.3743 5.44057 0.000212437 10
7.07659 6.23885 -2.52785 0.000338176 4
8.82067 7.77646 -2.71481 0.000225739 1
10.4722 9.23246 -2.71371 0.000116394 1
11.6308 10.2539 -2.45581 2.97707e-05 10
13.6161 12.0042 -2.2288 5.04176e-05 10
15.1571 13.3628 -1.76784 0.000247998 10
15.1654 13.3701 -1.05956 0.000250809 10
15.177 13.3803 -0.353168 0.000252225 10
15.1746 13.3782 0.353113 0.000252227 10
15.1693 13.3735 1.05983 0.000250815 10
15.1767 13.38 1.77012 0.000248008 10
12.7677 11.2562 2.08992 7.18965e-05 10
11.6246 10.2485 2.45452 3.4454e-05 10
15.1773 13.3806 5.42153 0.000214923 10
7.06154 6.26953 -2.53027 0.000387287 4
8.7895 7.80368 -2.71359 0.000225721 1
10.4413 9.27023 -2.71408 0.000116382 1
11.5887 10.2889 -2.45449 3.21113e-05 10
13.5597 12.0388 -2.22643 5.04092e-05 10
15.0594 13.3704 -1.76188 0.00025081 10
15.0683 13.3782 -1.05603 0.00025365 10
15.0677 13.3777 -0.35171 0.00025508 10
15.0628 13.3734 0.351594 0.000255082 10
15.0688 13.3787 1.05607 0.000253656 10
15.0633 13.3738 1.76233 0.000250821 10
12.7234 11.2963 2.08911 7.19086e-05 10
11.5829 10.2837 2.45326 3.7189e-05 10
15.0599 13.3708 5.39624 0.000217405 10
7.02539 6.28143 -2.52516 0.000315011 4
8.76364 7.83559 -2.71403 0.000225702 1
10.394 9.29327 -2.71019 0.000116371 1
11.5673 10.3424 -2.4576 0.000157366 10
13.5382 12.1045 -2.22982 5.04007e-05 10
14.9453 13.3626 -1.75397 0.000253617 10
14.9625 13.378 -1.05188 0.000256485 10
14.9439 13.3613 -0.349905 0.000257929 10
14.9624 13.3779 0.35034 0.000257932 10
14.9453 13.3626 1.05067 0.000256492 10
14.9626 13.3781 1.756 0.000253629 10
12.6895 11.3457 2.09004 7.19206e-05 10
11.5514 10.3282 2.45422 3.99192e-05 10
14.9611 13.3767 5.37751 0.000219884 10
7.01078 6.31253 -2.52782 0.000407465 4
8.7345 7.86457 -2.71349 0.000225684 1
10.3683 9.33569 -2.71199 0.000116359 1
11.5345 10.3858 -2.45833 0.00015922 10
13.4841 12.1411 -2.22788 5.03922e-05 10
14.8554 13.3758 -1.74889 0.000256419 10
14.8513 13.3722 -1.04734 0.000259313 10
14.859 13.3791 -0.34901 0.000260772 10
14.852 13.3728 0.348845 0.000260774 10
14.8542 13.3748 1.04754 0.000259321 10
14.8559 13.3763 1.74895 0.000256431 10
12.664 11.4027 2.09238 7.19326e-05 10
11.5383 10.3891 2.45913 0.000185821 10
14.8599 13.3799 5.3579 0.000222357 10
6.98743 6.33581 -2.52735 0.000349645 4
8.70122 7.88978 -2.71169 0.000225666 1
10.3419 9.37748 -2.71362 0.000116348 1
11.5095 10.4362 -2.46074 0.000161054 10
13.4518 12.1973 -2.22956 5.03837e-05 10
14.7388 13.3643 -1.74064 0.000259213 10
14.7343 13.3603 -1.04237 0.000262136 10
14.7404 13.3658 -0.347319 0.000263608 10
14.7502 13.3747 0.347549 0.000263611 10
14.7359 13.3617 1.04248 0.000262144 10
14.7469 13.3717 1.7416 0.000259226 10
12.6097 11.4337 2.08999 7.19448e-05 10
11.5059 10.4329 2.45996 0.000187966 10
14.7542 13.3783 5.33661 0.000224826 10
6.96816 6.36281 -2.5284 0.00035829 4
8.67415 7.92059 -2.71186 0.000225648 1
10.3006 9.4057 -2.71137 0.000116336 1
11.4901 10.4919 -2.4644 0.000162868 10
13.4109 12.2458 -2.22986 5.03751e-05 10
14.6369 13.3654 -1.73412 0.000262 10
14.6328 13.3616 -1.03848 0.000264951 10
14.6482 13.3757 -0.346245 0.000266437 10
14.6388 13.367 0.34602 0.00026644 10
14.6458 13.3734 1.0394 0.000264959 10
14.6411 13.3692 1.73461 0.000262015 10
12.5685 11.4766 2.08979 7.19569e-05 10
11.4751 10.4782 2.46118 0.000190087 10
14.6423 13.3702 5.31297 0.000227288 10
6.9364 6.37834 -2.52494 0.000372713 4
8.65354 7.95734 -2.71408 0.00022563 1
10.2756 9.44891 -2.71347 0.000116325 1
11.4617 10.5396 -2.46619 0.000164661 10
13.3665 12.2911 -2.2296 5.03666e-05 10
14.5369 13.3674 -1.72778 0.00026478 10
14.5285 13.3596 -1.03438 0.000267758 10
14.5399 13.3701 -0.344784 0.000269258 10
14.548 13.3776 0.344976 0.000269261 10
14.5419 13.3719 1.03533 0.000267767 10
14.5421 13.3721 1.7284 0.000264795 10
12.5274 11.5196 2.08964 7.19691e-05 10
11.4561 10.5345 2.46499 0.000192184 10
14.5371 13.3675 5.2917 0.000229744 10
6.90955 6.39831 -2.52328 0.000364021 4
8.63502 7.99611 -2.71701 0.000225612 1
10.232 9.4749 -2.71066 0.000116313 1
11.4211 10.576 -2.46538 0.000166434 10
13.3188 12.3334 -2.22881 5.0358e-05 10
14.4477 13.3787 -1.72271 0.000267551 10
14.4419 13.3733 -1.03153 0.000270556 10
14.4309 13.3631 -0.343303 0.00027207 10
14.4407 13.3723 0.343538 0.000272074 10
14.4349 13.3669 1.03104 0.000270566 10
14.4329 13.365 1.72096 0.000267567 10
12.4998 11.575 2.09176 7.19813e-05 10
11.4302 10.5845 2.46734 0.000194256 10
14.4327 13.3648 5.27063 0.000232194 10
6.88846 6.42359 -2.52375 0.00035533 4
8.5998 8.01944 -2.71472 0.000225594 1
10.1951 9.50705 -2.70966 0.000116301 1
11.4091 10.6392 -2.47079 0.000168185 10
13.2671 12.3717 -2.22736 5.03494e-05 10
14.3263 13.3595 -1.71379 0.000270313 10
14.3266 13.3597 -1.02662 0.000273345 10
14.3263 13.3595 -0.341923 0.000274873 10
14.3299 13.3629 0.342009 0.000274877 10
14.3282 13.3612 1.02674 0.000273356 10
14.3331 13.3659 1.71461 0.00027033 10
12.4502 11.61 2.09023 7.19935e-05 10
11.3878 10.6193 2.46618 0.000196304 10
14.3341 13.3668 5.25166 0.000234636 10
6.87556 6.45658 -2.52727 0.000392859 4
8.57832 8.05557 -2.7168 0.000225575 1
10.1753 9.55524 -2.71325 0.00011629 1
11.3775 10.6842 -2.47202 0.000169915 10
13.2353 12.4288 -2.22931 5.03408e-05 10
14.2379 13.3702 -1.70879 0.000273066 10
14.2295 13.3624 -1.023 0.000276126 10
14.2445 13.3764 -0.341082 0.000277667 10
14.2367 13.3691 0.340895 0.000277671 10
14.2265 13.3596 1.02279 0.000276137 10
14.2425 13.3746 1.70935 0.000273084 10
12.4079 11.6518 2.08994 7.20058e-05 10
11.3604 10.6682 2.46831 0.000198327 10
14.246 13.3778 5.23643 0.000237071 10
6.85881 6.48605 -2.52942 0.000413052 4
8.53822 8.07419 -2.71301 0.000225557 1
10.1476 9.59612 -2.71479 0.000116278 1
11.3402 10.7239 -2.47202 0.000105413 10
13.1978 12.4806 -2.23032 5.03321e-05 10
14.1398 13.3713 -1.7026 0.000275809 10
14.1432 13.3746 -1.02015 0.000278895 10
14.1379 13.3695 -0.339645 0.000280451 10
14.1326 13.3646 0.339519 0.000280455 10
14.1311 13.3631 1.01928 0.000278907 10
14.1362 13.3679 1.70217 0.000275828 10
12.373 11.7006 2.09092 7.20181e-05 10
11.3314 10.7156 2.47012 0.000200326 10
14.1473 13.3785 5.21731 0.000239497 10
6.83243 6.50643 -2.52805 0.000259945 4
8.50542 8.0996 -2.71155 0.000225538 1
10.1132 9.63065 -2.71455 0.000116266 1
11.3097 10.77 -2.47355 0.000105399 10
13.1491 12.5217 -2.22945 5.03235e-05 10
14.0441 13.374 0.338512 0.000283228 10
14.0339 13.3643 1.01562 0.000281667 10
14.0324 13.3629 1.69529 0.000278561 10
12.3172 11.7295 2.0884 7.20304e-05 10
11.3228 10.7826 2.47642 0.000202299 10
14.0314 13.362 5.19174 0.000241915 10
6.81542 6.53575 -2.53018 0.000340794 4
8.4916 8.14315 -2.71619 0.00022552 1
10.0668 9.65374 -2.71114 0.000116254 1
11.2725 10.8099 -2.47365 0.000105386 10
13.1072 12.5694 -2.22978 5.03148e-05 10
13.9335 13.3617 1.68896 0.000281284 10
12.2906 11.7863 2.09086 7.20427e-05 10
11.2831 10.8201 2.47599 0.000204246 10
6.77722 6.54469 -2.52447 0.000358099 4
8.45529 8.16517 -2.71368 0.000225501 1
10.0292 9.68505 -2.71008 0.000116243 1
11.2223 10.8373 -2.47094 0.000105372 10
13.0589 12.6108 -2.22903 5.03061e-05 10
13.8419 13.367 1.6835 0.000283994 10
12.2434 11.8233 2.08983 7.20551e-05 10
11.2515 10.8654 2.47735 0.000206168 10
6.76597 6.57962 -2.52882 0.000360962 4
8.42258 8.19061 -2.71234 0.000225483 1
10.0138 9.73801 -2.71511 0.000116231 1
11.1832 10.8751 -2.47065 0.000105359 10
13.0078 12.6495 -2.22783 5.02974e-05 10
13.7562 13.3773 1.67874 0.000286693 10
12.1933 11.8575 2.08834 7.20676e-05 10
11.2245 10.9153 2.47978 0.000208064 10
6.73387 6.59429 -2.52541 0.000349388 4
8.40533 8.23111 -2.71602 0.000225464 1
9.96782 9.76121 -2.71186 0.000116219 1
11.1413 10.9104 -2.46981 0.000105345 10
12.9646 12.6959 -2.22801 5.02886e-05 10
13.6584 13.3753 1.6725 0.000289378 10
12.1613 11.9093 2.08997 7.20801e-05 10
11.213 10.9805 2.48569 0.000340276 10
6.72021 6.62702 -2.52894 0.000404223 4
8.37209 8.256 -2.71458 0.000225446 1
9.93553 9.79776 -2.71236 0.000116207 1
11.1155 10.9614 -2.47255 0.000105332 10
12.9321 12.7528 -2.23006 5.02799e-05 10
13.5615 13.3734 1.66633 0.000292051 10
12.1176 11.9496 2.08961 7.20925e-05 10
11.1802 11.0251 2.48693 0.000340676 10
6.68765 6.64112 -2.5254 0.000415744 4
8.3382 8.28018 -2.71294 0.000225427 1
9.90973 9.84078 -2.71468 0.000116195 1
11.0631 10.9861 -2.46941 0.000105318 10
12.8773 12.7877 -2.2283 5.02711e-05 10
13.4707 13.377 1.66091 0.000294709 10
12.0758 11.9918 2.08961 7.2105e-05 10
11.174 11.0963 2.49417 0.000341038 10
6.66224 6.66224 -2.52457 0.000407055 4
8.31361 8.31361 -2.71437 0.000225408 1
9.8744 9.8744 -2.71443 0.000116183 1
11.0405 11.0405 -2.47297 0.000105304 10
12.8387 12.8387 -2.22935 5.02623e-05 10
13.3697 13.3697 1.6542 0.000297353 10
12.0306 12.0306 2.08904 7.21175e-05 10
11.153 11.153 2.49816 0.000341362 10
6.65499 6.70161 -2.53067 0.000334859 4
8.27656 8.33454 -2.71175 0.00022539 1
9.84054 9.90948 -2.71461 0.000116171 1
11.0006 11.0777 -2.47266 0.00010529 10
12.8029 12.8926 -2.23094 5.02535e-05 10
13.2695 13.3624 1.64756 0.000299982 10
11.9949 12.0789 2.09014 7.21301e-05 10
11.1441 11.2221 2.50491 0.000341647 10
6.61424 6.70724 -2.52406 0.000378134 4
8.25042 8.36643 -2.71274 0.000225371 1
9.79433 9.93205 -2.71141 0.000116159 1
10.963 11.1171 -2.47291 0.000105277 10
12.7481 12.9273 -2.22924 5.02447e-05 10
13.1733 13.3585 1.6414 0.000302596 10
11.9569 12.125 2.09088 7.21427e-05 10
11.1187 11.275 2.50804 0.000341895 10
6.60168 6.74142 -2.52824 0.000343472 4
8.23125 8.40547 -2.71607 0.000225352 1
9.76501 9.9717 -2.71291 0.000116147 1
10.9252 11.1565 -2.47316 0.000105263 10
12.7018 12.9707 -2.22906 5.02358e-05 10
13.0958 13.373 1.63755 0.000305193 10
11.9078 12.1598 2.08971 7.21554e-05 10
11.0896 11.3243 2.51038 0.000342104 10
6.57502 6.76124 -2.52705 0.000383854 4
8.19354 8.4256 -2.71331 0.000225333 1
9.7343 10.01 -2.71407 0.000116135 1
10.8746 11.1826 -2.47053 0.000105249 10
12.6606 13.0192 -2.22978 5.0227e-05 10
12.9946 13.3626 1.63071 0.000307774 10
11.8547 12.1905 2.08785 7.2168e-05 10
11.0784 11.3921 2.51682 0.000342276 10
6.54544 6.778 -2.52476 0.000337653 4
8.1674 8.45759 -2.71442 0.000225314 1
9.69034 10.0346 -2.71157 0.000116123 1
10.8456 11.2309 -2.47283 0.000105235 10
12.6235 13.072 -2.23127 5.02181e-05 10
12.9132 13.372 1.62635 0.000310338 10
11.8095 12.2291 2.0874 7.21807e-05 10
11.065 11.4582 2.52286 0.000342409 10
6.52346 6.8026 -2.52542 0.000383801 4
8.13038 8.47828 -2.71193 0.000225295 1
9.6545 10.0676 -2.71135 0.000116111 1
10.8101 11.2727 -2.4737 0.000105222 10
12.5619 13.0994 -2.22845 5.02092e-05 10
12.823 13.3716 1.62085 0.000312884 10
11.7706 12.2743 2.08808 7.21934e-05 10
11.0444 11.517 2.52731 0.000342505 10
6.50122 6.82695 -2.52603 0.000378003 4
8.10216 8.5081 -2.71241 0.000225276 1
9.63204 10.1146 -2.71494 0.000116099 1
10.7728 11.3125 -2.47418 0.000105208 10
12.5236 13.1511 -2.22979 5.02003e-05 10
12.7268 13.3644 1.61458 0.000315411 10
11.7373 12.3254 2.08979 7.22062e-05 10
11.023 11.5753 2.53164 0.000342563 10
6.47764 6.84991 -2.52614 0.000262564 4
8.07288 8.53682 -2.71257 0.000225257 1
9.59453 10.1459 -2.71434 0.000116087 1
10.7189 11.335 -2.47089 0.000105194 10
12.48 13.1972 -2.2302 5.01913e-05 10
12.6406 13.3671 1.60956 0.000317921 10
11.6952 12.3673 2.08996 7.22189e-05 10
10.9932 11.625 2.53411 0.000342583 10
6.46232 6.88167 -2.52952 0.000328904 4
8.04531 8.56739 -2.71334 0.000225238 1
9.55247 10.1723 -2.71247 0.000116075 1
10.6883 11.3819 -2.47296 0.00010518 10
12.432 13.2387 -2.22988 5.01823e-05 10
12.5477 13.3619 1.60366 0.00032041 10
11.6517 12.4078 2.08993 7.22317e-05 10
10.9752 11.6874 2.53935 0.000447067 10
6.43267 6.89819 -2.52732 0.000429853 4
8.01897 8.59929 -2.71456 0.000225219 1
9.51999 10.2089 -2.71335 0.000116062 1
10.6425 11.4127 -2.47156 0.000105166 10
12.3949 13.2919 -2.23154 5.01734e-05 10
12.4563 13.3577 1.59792 0.00032288 10
11.6107 12.4509 2.09035 7.22446e-05 10
10.9694 11.7632 2.54749 0.000444737 10
6.41822 6.93104 -2.53113 0.000487517 4
7.98708 8.62526 -2.71394 0.0002252 1
9.49314 10.2517 -2.71588 0.00011605 1
10.6106 11.4584 -2.47343 0.000105152 10
12.3499 13.3367 -2.23181 5.01644e-05 10
12.3756 13.3644 1.59354 0.00032533 10
11.5539 12.4771 2.08795 7.22574e-05 10
10.9701 11.8466 2.55724 0.00044237 10
6.39089 6.95004 -2.52991 0.000383641 4
7.97107 8.66847 -2.71876 0.000225181 1
9.44764 10.2742 -2.71311 0.000116038 1
10.5606 11.4845 -2.4711 0.000105138 10
12.2824 13.3571 1.58755 0.000327759 10
11.5064 12.5131 2.08725 7.22704e-05 10
10.9582 11.9169 2.56414 0.000439968 10
6.36437 6.96987 -2.52902 0.000210555 4
7.93457 8.68947 -2.71665 0.000225162 1
9.42286 10.3194 -2.71632 0.000116026 1
10.5254 11.5268 -2.47227 0.000105124 10
12.1926 13.3527 1.58196 0.000330167 10
11.461 12.5514 2.08695 7.22833e-05 10
6.3466 6.99932 -2.53166 0.000291295 4
7.89889 8.71126 -2.71482 0.000225142 1
9.38282 10.3478 -2.71517 0.000116013 1
10.4923 11.5714 -2.47398 0.00010511 10
12.1104 13.3559 1.57732 0.000332552 10
11.428 12.6033 2.08894 7.22962e-05 10
6.31761 7.01641 -2.52985 0.000389327 4
7.86195 8.73157 -2.71258 0.000225123 1
9.35075 10.3851 -2.71636 0.000116001 1
10.4532 11.6095 -2.4743 0.000105096 10
12.0303 13.361 1.57296 0.000334915 10
11.3818 12.6408 2.08854 7.23092e-05 10
6.75404 7.55398 -2.71516 0.000388074 1
7.83185 8.75945 -2.71273 0.000225104 1
9.29831 10.3996 -2.71166 0.000115989 1
10.4147 11.6482 -2.47478 0.000105082 10
11.9467 13.3617 1.56812 0.000337256 10
11.3263 12.6678 2.08646 7.23222e-05 10
6.73636 7.58734 -2.71868 0.000388046 1
7.81251 8.79944 -2.71666 0.000225084 1
9.27716 10.4491 -2.71611 0.000115976 1
10.3658 11.6753 -2.47285 0.000105067 10
11.8568 13.3546 1.56242 0.000339572 10
11.2815 12.7067 2.08638 7.23352e-05 10
6.71225 7.61355 -2.71966 0.000388018 1
7.779 8.82354 -2.7157 0.000225065 1
9.22753 10.4666 -2.71226 0.000115964 1
10.3358 11.7237 -2.47544 0.000105053 10
11.7744 13.3555 1.55771 0.000341865 10
11.2522 12.7631 2.08917 7.23482e-05 10
6.67756 7.62771 -2.71637 0.00038799 1
7.75512 8.8586 -2.71814 0.000225045 1
9.19141 10.4993 -2.7124 0.000115952 1
10.2858 11.7494 -2.47326 0.000105039 10
11.7062 13.3719 1.55485 0.000344134 10
11.2022 12.7962 2.08817 7.23613e-05 10
6.64391 7.64295 -2.71352 0.000387962 1
7.72408 8.88553 -2.71811 0.000225026 1
9.16709 10.5455 -2.71607 0.000115939 1
10.2447 11.7852 -2.47326 0.000105025 10
11.6088 13.3544 -2.17264 0.000340747 10
11.6149 13.3615 -1.54891 0.000346325 10
11.6093 13.355 -0.927385 0.000350087 10
11.6103 13.3561 -0.308902 0.000351985 10
11.6122 13.3583 0.308952 0.000351996 10
11.6103 13.3561 0.927464 0.000350119 10
11.6235 13.3713 1.55004 0.000346378 10
11.1614 12.8398 2.08892 7.23744e-05 10
11.6137 13.36 4.74328 0.000302105 10
6.61901 7.66819 -2.71427 0.000387934 1
7.69518 8.91495 -2.71888 0.000225006 1
9.12229 10.5683 -2.71371 0.000115927 1
10.2057 11.8234 -2.47378 0.000105011 10
11.539 13.368 -2.16829 0.000342933 10
11.5244 13.3511 -1.54303 0.000348542 10
11.527 13.3542 -0.924527 0.000352325 10
11.5331 13.3612 -0.308087 0.000354233 10
11.5412 13.3706 0.308304 0.000354244 10
11.5287 13.3562 0.924665 0.000352357 10
11.5392 13.3683 1.54502 0.000348596 10
11.1143 12.876 2.08849 7.23876e-05 10
11.5333 13.3615 4.72948 0.000304081 10
6.60143 7.70202 -2.71807 0.000387906 1
7.65637 8.93284 -2.71617 0.000224987 1
9.08503 10.5997 -2.71361 0.000115914 1
10.1694 11.8648 -2.47501 0.000104996 10
11.4482 13.3568 -2.15998 0.000345094 10
11.4417 13.3493 -1.5382 0.000350733 10
11.443 13.3508 -0.921523 0.000354536 10
11.4578 13.368 -0.307321 0.000356455 10
11.4448 13.3528 0.306971 0.000356466 10
11.4502 13.3591 0.922098 0.00035457 10
11.4466 13.355 1.53886 0.000350788 10
11.0629 12.9074 2.0873 7.24008e-05 10
11.449 13.3578 4.714 0.000306036 10
6.57144 7.72142 -2.7168 0.000387877 1
7.62494 8.95928 -2.7161 0.000224967 1
9.04897 10.6325 -2.71391 0.000115902 1
10.1279 11.9003 -2.47502 0.000104982 10
11.3771 13.3681 -2.15537 0.000347229 10
11.3651 13.354 -1.53416 0.000352898 10
11.3766 13.3674 -0.919925 0.000356721 10
11.3766 13.3675 -0.306394 0.00035865 10
11.37 13.3597 0.306215 0.000358662 10
11.379 13.3703 0.920124 0.000356755 10
11.3755 13.3662 1.53556 0.000352955 10
11.0137 12.941 2.08651 7.24139e-05 10
11.3785 13.3697 4.70417 0.000307967 10
6.55176 7.75295 -2.71983 0.000387849 1
7.60083 8.99437 -2.71868 0.000224948 1
9.00876 10.6604 -2.713 0.000115889 1
10.0752 11.9224 -2.4723 0.000104968 10
11.281 13.3493 -2.14597 0.000349338 10
11.2949 13.3656 -1.53096 0.000355036 10
11.2967 13.3678 -0.91723 0.000358879 10
11.2987 13.3702 -0.30555 0.000360818 10
11.2842 13.353 0.305156 0.00036083 10
11.2808 13.349 0.91594 0.000358914 10
11.2826 13.3511 1.5293 0.000355094 10
10.9699 12.9811 2.08678 7.24272e-05 10
11.2967 13.3678 4.68959 0.000309875 10
6.5282 7.78001 -2.72131 0.000387821 1
7.55749 9.00667 -2.7144 0.000224928 1
8.97677 10.6981 -2.71459 0.000115877 1
10.0447 11.9708 -2.47504 0.000104953 10
11.2167 13.3675 -2.1426 0.00035142 10
11.203 13.3512 -1.52482 0.000357147 10
11.2104 13.36 -0.914008 0.000361009 10
11.2121 13.362 -0.304466 0.000362958 10
11.2121 13.3621 0.304467 0.00036297 10
11.213 13.3631 0.914216 0.000361045 10
11.2167 13.3675 1.52668 0.000357206 10
10.9245 13.0193 2.08678 7.24404e-05 10
11.2147 13.3652 4.6749 0.00031176 10
6.48361 7.78187 -2.71403 0.000387793 1
7.52402 9.0306 -2.71369 0.000224908 1
8.93815 10.7279 -2.71422 0.000115864 1
9.99133 11.992 -2.47219 0.000104939 10
11.1327 13.3619 -2.13546 0.000353475 10
11.1234 13.3507 -1.52032 0.00035923 10
11.1208 13.3475 -0.910491 0.000363111 10
11.1271 13.3552 -0.303423 0.000365069 10
11.1233 13.3506 0.30332 0.000365082 10
11.1328 13.362 0.911479 0.000363147 10
11.1302 13.3589 1.52125 0.00035929 10
10.9134 13.0987 2.0934 0.000467529 10
11.1236 13.3509 4.65632 0.00031362 10
6.45612 7.8041 -2.71391 0.000387764 1
7.4959 9.06098 -2.71493 0.000224889 1
8.89432 10.7514 -2.71229 0.000115851 1
9.9778 12.0611 -2.47924 0.000446037 10
11.0522 13.3598 -2.12894 0.000355501 10
11.0602 13.3694 -1.51805 0.000361284 10
11.0428 13.3485 -0.907918 0.000365184 10
11.0435 13.3493 -0.302413 0.000367152 10
11.0534 13.3613 0.302684 0.000367165 10
11.0469 13.3534 0.908252 0.000365222 10
11.0559 13.3642 1.51746 0.000361346 10
10.899 13.1746 2.09943 0.000461636 10
11.0448 13.3508 4.64281 0.000315455 10
6.43481 7.83386 -2.71643 0.000387736 1
7.46662 9.09001 -2.71581 0.000224869 1
8.86804 10.7961 -2.71575 0.000115839 1
9.96478 12.1313 -2.48651 0.000442967 10
10.9791 13.3662 -2.12384 0.0003575 10
10.9793 13.3665 -1.51335 0.00036331 10
10.9645 13.3484 -0.905304 0.000367228 10
10.9775 13.3642 -0.30188 0.000369206 10
10.9817 13.3693 0.301995 0.000369219 10
10.9761 13.3625 0.906259 0.000367267 10
10.9806 13.368 1.51352 0.000363374 10
10.9127 13.2853 2.11099 0.000455743 10
10.9692 13.3541 4.6306 0.000317266 10
6.41599 7.86678 -2.72006 0.000387707 1
7.43492 9.11611 -2.71583 0.000224849 1
8.83322 10.8306 -2.71665 0.000115826 1
9.95444 12.2053 -2.49455 0.000439869 10
10.8975 13.3616 -2.11706 0.00035947 10
10.8916 13.3544 -1.50767 0.000365307 10
10.895 13.3586 -0.903411 0.000369243 10
10.9027 13.368 -0.301105 0.000371231 10
10.8912 13.3539 0.300788 0.000371244 10
10.9035 13.3691 0.90412 0.000369283 10
10.8942 13.3576 1.50803 0.000365372 10
10.8868 13.3485 2.11498 0.000359559 10
10.8895 13.3518 2.72886 0.000351916 10
10.9004 13.3653 3.35243 0.000342538 10
10.8992 13.3638 3.98127 0.000331538 10
10.8869 13.3486 4.6155 0.000319051 10
6.38059 7.87937 -2.7167 0.000387678 1
7.41107 9.15191 -2.71878 0.000224829 1
8.79209 10.8573 -2.71564 0.000115813 1
9.93957 12.2743 -2.50154 0.000436741 10
10.8088 13.3478 -2.10887 0.000361411 10
10.8195 13.3609 -1.50413 0.000367274 10
10.8187 13.3599 -0.900944 0.000371228 10
10.8161 13.3567 -0.299999 0.000373225 10
10.8245 13.3671 0.300232 0.000373238 10
10.8215 13.3634 0.90118 0.000371269 10
10.8212 13.363 1.50437 0.00036734 10
10.8226 13.3647 2.11155 0.000361502 10
10.8111 13.3506 2.7209 0.000353825 10
10.8244 13.367 3.34336 0.000344404 10
10.8268 13.37 3.97184 0.000333355 10
10.8128 13.3527 4.60382 0.000320811 10
6.34787 7.89515 -2.71448 0.00038765 1
7.36646 9.16203 -2.71413 0.000224809 1
8.75492 10.8889 -2.71589 0.000115801 1
9.94127 12.3644 -2.51282 0.000433586 10
10.7436 13.3623 -2.10523 0.000363322 10
10.7431 13.3617 -1.49999 0.000369211 10
10.738 13.3553 -0.8981 0.000373183 10
10.7462 13.3656 -0.299352 0.000375188 10
10.7418 13.3601 0.299231 0.000375202 10
10.732 13.3479 0.897599 0.000373224 10
10.7317 13.3476 1.4984 0.000369279 10
10.7402 13.3581 2.10457 0.000363415 10
10.7362 13.3531 2.71374 0.000355705 10
10.7481 13.3679 3.33418 0.000346242 10
10.732 13.3479 3.95413 0.000335144 10
10.7359 13.3528 4.59091 0.000322544 10
6.33008 7.92956 -2.7187 0.000387621 1
7.3352 9.18865 -2.71441 0.000224789 1
8.71703 10.9196 -2.71594 0.000115788 1
9.92185 12.4289 -2.51886 0.000498852 10
10.6622 13.3563 -2.09841 0.000365203 10
10.6714 13.3679 -1.49649 0.000371118 10
10.6612 13.3551 -0.895573 0.000375107 10
10.6671 13.3624 -0.298447 0.000377121 10
10.6658 13.3608 0.29841 0.000377135 10
10.6614 13.3553 0.895593 0.000375149 10
10.657 13.3498 1.49447 0.000371187 10
10.6624 13.3566 2.09845 0.000365299 10
10.672 13.3685 2.70929 0.000357555 10
10.664 13.3586 3.32256 0.000348052 10
10.6723 13.3689 3.9493 0.000336905 10
10.6612 13.3551 4.57888 0.000324251 10
6.306 7.95619 -2.72027 0.000387593 1
7.308 9.2204 -2.71624 0.000224769 1
8.68246 10.9545 -2.71706 0.000115775 1
9.92581 12.5232 -2.53095 0.000492395 10
10.5917 13.3633 -2.09369 0.000367053 10
10.5926 13.3645 -1.49196 0.000372993 10
10.583 13.3525 -0.892918 0.000376999 10
10.5854 13.3554 -0.297463 0.000379022 10
10.5947 13.3672 0.297725 0.000379037 10
10.583 13.3524 0.892913 0.000377042 10
10.581 13.35 1.49034 0.000373064 10
10.5839 13.3535 2.09215 0.000367151 10
10.5833 13.3527 2.69859 0.000359375 10
10.5888 13.3597 3.31362 0.000349832 10
10.581 13.3499 3.93275 0.000338639 10
10.5876 13.3583 4.56727 0.000325931 10
6.26628 7.96302 -2.71511 0.000387564 1
7.27934 9.25039 -2.71757 0.00022475 1
8.64127 10.9811 -2.71616 0.000115763 1
9.93775 12.6286 -2.54522 0.000485941 10
10.5131 13.3598 -2.08738 0.000368874 10
10.5034 13.3475 -1.48596 0.000374838 10
10.5077 13.3529 -0.890487 0.00037886 10
10.5082 13.3535 -0.296602 0.000380892 10
10.508 13.3533 0.296598 0.000380906 10
10.5154 13.3627 0.891141 0.000378904 10
10.5186 13.3668 1.48811 0.00037491 10
10.5069 13.3519 2.08614 0.000368973 10
10.5043 13.3486 2.69032 0.000361166 10
10.5121 13.3585 3.30421 0.000351584 10
10.5185 13.3666 3.92684 0.000340344 10
10.52 13.3685 4.55819 0.000327583 10
6.24241 7.98991 -2.71683 0.000387535 1
7.24673 9.27539 -2.71747 0.000224729 1
8.60303 11.0114 -2.7162 0.00011575 1
9.94219 12.7254 -2.55772 0.000479494 10
10.4326 13.3531 -2.08062 0.000370662 10
10.436 13.3575 -1.48301 0.00037665 10
10.4268 13.3458 -0.887578 0.000380689 10
10.4376 13.3595 -0.295923 0.000382729 10
10.4264 13.3452 0.295606 0.000382744 10
10.4341 13.3551 0.888198 0.000380734 10
10.4437 13.3673 1.4841 0.000376724 10
10.4416 13.3646 2.08242 0.000370764 10
10.4327 13.3532 2.6839 0.000362925 10
10.4301 13.3499 3.29305 0.000353305 10
10.4306 13.3506 3.9114 0.00034202 10
10.4348 13.3559 4.54144 0.000329208 10
6.20969 8.00548 -2.71474 0.000387506 1
7.21661 9.3036 -2.71833 0.000224709 1
8.56537 11.0424 -2.71646 0.000115737 1
9.94749 12.8242 -2.57058 0.000473054 10
10.3564 13.3513 -2.07471 0.000372419 10
10.3515 13.3451 -1.47761 0.000378431 10
10.3644 13.3617 -0.88623 0.000382485 10
10.3687 13.3673 -0.295292 0.000384533 10
10.3514 13.3449 0.294799 0.000384548 10
10.3657 13.3634 0.886343 0.000382531 10
10.3536 13.3478 1.47792 0.000378506 10
10.3567 13.3517 2.07476 0.000372523 10
10.3596 13.3555 2.67707 0.000364654 10
10.3636 13.3606 3.28675 0.000354997 10
10.364 13.3612 3.90389 0.000343667 10
10.3666 13.3646 4.53205 0.000330804 10
6.18128 8.02656 -2.71455 0.000387477 1
7.18099 9.32471 -2.71716 0.000224689 1
8.52497 11.0699 -2.71589 0.000115724 1
9.94856 12.9185 -2.5825 0.00046662 10
10.2833 13.3531 -2.06939 0.000374144 10
10.2824 13.352 -1.4744 0.000380179 10
10.2945 13.3677 -0.884237 0.000384249 10
10.2906 13.3626 -0.294393 0.000386304 10
10.2896 13.3613 0.294364 0.00038632 10
10.2855 13.356 0.88346 0.000384295 10
10.2867 13.3575 1.47501 0.000380255 10
10.2951 13.3684 2.07176 0.000374249 10
10.2891 13.3607 2.6709 0.000366351 10
10.2852 13.3556 3.27666 0.000356657 10
10.2873 13.3584 3.89255 0.000345285 10
10.2895 13.3611 4.51869 0.000332373 10
6.15948 8.05626 -2.71731 0.000387448 1
7.14211 9.34148 -2.71477 0.000224669 1
8.47924 11.0904 -2.71364 0.000115712 1
9.95844 13.0251 -2.59684 0.000460197 10
10.2154 13.3611 -2.06509 0.000375836 10
10.203 13.345 -1.46968 0.000381893 10
10.2077 13.3512 -0.880781 0.000385978 10
10.2123 13.3572 -0.293487 0.000388042 10
10.2134 13.3586 0.293518 0.000388058 10
10.2037 13.3459 0.880433 0.000386026 10
10.2089 13.3526 1.47052 0.000381971 10
10.2201 13.3674 2.06606 0.000375944 10
10.2202 13.3675 2.66511 0.000368016 10
10.2091 13.3529 3.26725 0.000358287 10
10.2158 13.3617 3.88309 0.000346873 10
10.2123 13.3571 4.50523 0.000333912 10
6.12939 8.07518 -2.71645 0.000387419 1
7.11701 9.37631 -2.71765 0.000224649 1
8.44063 11.1201 -2.71369 0.000115699 1
9.94975 13.1083 -2.6065 0.000453784 10
10.1325 13.3491 -2.05775 0.000377495 10
10.1392 13.3579 -1.4672 0.000383574 10
10.1468 13.368 1.4683 0.000383654 10
10.1322 13.3486 2.05769 0.000377605 10
10.1453 13.366 2.65773 0.00036965 10
10.1471 13.3683 3.26231 0.000359886 10
6.10277 8.09864 -2.71716 0.00038739 1
7.0906 9.40954 -2.7201 0.000224629 1
8.40341 11.1517 -2.71422 0.000115686 1
9.95855 13.2154 -2.62087 0.000447382 10
10.058 13.3474 -2.05206 0.000379121 10
10.0643 13.3558 -1.4631 0.000385222 10
10.0557 13.3443 1.46184 0.000385303 10
10.0611 13.3515 2.0527 0.000379233 10
10.0604 13.3507 2.64769 0.000371251 10
10.0614 13.3519 3.24972 0.000361452 10
6.07371 8.1189 -2.71683 0.000387361 1
7.05158 9.42604 -2.71773 0.000224609 1
8.37017 11.1886 -2.71608 0.000115673 1
9.96032 13.3142 -2.63355 0.000440992 10
9.99682 13.363 -2.04909 0.000380714 10
9.99008 13.354 -1.45907 0.000386835 10
9.99432 13.3597 1.45969 0.000386918 10
9.98608 13.3487 2.04689 0.000380828 10
9.99829 13.365 2.64359 0.000372819 10
9.99108 13.3554 3.24206 0.000362987 10
6.04707 8.14238 -2.71761 0.000387332 1
7.00987 9.4388 -2.71434 0.000224588 1
8.33739 11.2263 -2.71814 0.00011566 1
9.92356 13.3621 -2.63615 0.000374206 10
9.91717 13.3535 -2.04231 0.000382272 10
9.91748 13.3539 -1.45527 0.000388414 10
9.91969 13.3569 1.45559 0.000388498 10
9.91096 13.3451 2.04103 0.000382388 10
9.92736 13.3672 2.63716 0.000374353 10
9.91686 13.3531 3.23308 0.000364488 10
6.02029 8.16572 -2.71837 0.000387303 1
6.9822 9.47043 -2.71641 0.000224568 1
8.28458 11.2369 -2.7137 0.000115647 1
9.84246 13.35 -2.62697 0.000375704 10
9.84839 13.358 -2.03773 0.000383796 10
9.84902 13.3589 -1.45206 0.000389957 10
9.84789 13.3574 1.45189 0.000390043 10
9.84033 13.3471 2.03607 0.000383914 10
9.85488 13.3668 2.63028 0.000375853 10
9.84352 13.3514 3.22434 0.000365957 10
5.99014 8.18448 -2.71764 0.000387274 1
6.95921 9.50855 -2.72036 0.000224548 1
8.25658 11.2812 -2.71741 0.000115634 1
9.77539 13.3564 -2.6215 0.000377167 10
9.77232 13.3522 -2.03163 0.000385284 10
9.77483 13.3556 -1.44798 0.000391465 10
9.77822 13.3602 1.44848 0.000391553 10
9.76877 13.3473 2.03089 0.000385405 10
9.78094 13.364 2.62298 0.000377319 10
9.77886 13.3611 3.21842 0.000367393 10
5.95855 8.20124 -2.71628 0.000387244 1
6.91185 9.51333 -2.71481 0.000224528 1
8.2132 11.3045 -2.7161 0.000115621 1
9.70923 13.3636 -2.61624 0.000378596 10
9.70478 13.3575 -2.02727 0.000386738 10
9.70436 13.3569 -1.44444 0.000392938 10
9.7006 13.3517 1.44388 0.000393027 10
9.71124 13.3664 2.02861 0.000386861 10
9.71031 13.3651 2.61654 0.000378751 10
9.69676 13.3464 3.20671 0.000368796 10
5.93105 8.22361 -2.71681 0.000387215 1
6.88348 9.54418 -2.71674 0.000224507 1
8.17327 11.3325 -2.71596 0.000115608 1
9.63559 13.3601 -2.60895 0.00037999 10
9.6223 13.3416 -2.01975 0.000388156 10
9.63058 13.3531 -1.44039 0.000394374 10
9.63888 13.3646 1.44163 0.000394465 10
9.62744 13.3488 2.02083 0.000388282 10
9.62462 13.3449 2.60598 0.000380148 10
9.63425 13.3582 3.20144 0.000370164 10
5.91383 8.26035 -2.72211 0.000387186 1
6.85037 9.56848 -2.71683 0.000224487 1
8.13459 11.3623 -2.71627 0.000115595 1
9.56302 13.3575 -2.60191 0.00038135 10
9.56405 13.3589 -2.0173 0.000389538 10
9.55814 13.3507 -1.43651 0.000395774 10
9.55292 13.3434 1.43573 0.000395866 10
9.55955 13.3526 2.01635 0.000389666 10
9.55754 13.3498 2.60042 0.00038151 10
9.56956 13.3666 3.19543 0.000371498 10
5.87117 8.26154 -2.71574 0.000387156 1
6.81796 9.5938 -2.71725 0.000224466 1
8.10312 11.4022 -2.71904 0.000115582 1
9.49277 13.3576 -2.59547 0.000382673 10
9.49659 13.363 -2.0129 0.000390884 10
9.48606 13.3482 -1.43268 0.000397136 10
9.48469 13.3463 1.43247 0.000397231 10
9.4906 13.3546 2.01163 0.000391014 10
9.49868 13.3659 2.59709 0.000382837 10
9.4946 13.3602 3.18595 0.000372797 10
5.84846 8.29071 -2.7186 0.000387127 1
6.77818 9.60867 -2.71474 0.000224446 1
8.058 11.4229 -2.71726 0.000115569 1
9.42442 13.36 -2.58952 0.000383961 10
9.42713 13.3638 -2.00805 0.000392193 10
9.41305 13.3438 -1.42868 0.000398462 10
9.42125 13.3555 1.42992 0.000398558 10
9.41941 13.3529 2.00641 0.000392325 10
9.41387 13.345 2.58662 0.000384127 10
9.42629 13.3626 3.17866 0.000374062 10
5.81746 8.30819 -2.71765 0.000387098 1
6.74438 9.63197 -2.71465 0.000224426 1
8.02044 11.4544 -2.71806 0.000115556 1
9.35092 13.3545 -2.58212 0.000385212 10
9.34767 13.3499 -2.00104 0.000393466 10
9.35356 13.3583 -1.42672 0.00039975 10
9.35014 13.3534 1.42619 0.000399848 10
9.34915 13.352 2.00136 0.0003936 10
9.35596 13.3617 2.58351 0.000385382 10
9.35077 13.3543 3.1689 0.000375291 10
9.34583 13.3472 3.76176 0.00036345 10
5.78463 8.32299 -2.71587 0.000387068 1
6.71396 9.66011 -2.71597 0.000224405 1
7.9784 11.4794 -2.71738 0.000115543 1
9.28431 13.3584 -2.57658 0.000386427 10
9.27963 13.3516 -1.99644 0.000394701 10
9.27625 13.3468 -1.42202 0.000401001 10
9.28057 13.353 1.42268 0.0004011 10
9.2829 13.3563 1.99714 0.000394837 10
9.27522 13.3453 2.57406 0.000386599 10
9.28963 13.366 3.16397 0.000376485 10
9.28427 13.3583 3.75572 0.000364615 10
5.7659 8.35815 -2.72076 0.000387039 1
6.68746 9.69403 -2.71892 0.000224385 1
7.94186 11.5124 -2.7186 0.00011553 1
9.20681 13.346 -2.56799 0.000387605 10
9.21278 13.3547 -1.99208 0.000395898 10
9.2083 13.3482 -1.41874 0.000402213 10
9.20996 13.3506 1.41899 0.000402313 10
9.21361 13.3559 1.99226 0.000396037 10
9.21418 13.3567 2.57004 0.00038778 10
9.20805 13.3478 3.15204 0.000377642 10
9.21822 13.3626 3.74785 0.000365745 10
5.73379 8.37398 -2.71939 0.000387009 1
6.65267 9.71597 -2.71855 0.000224364 1
7.90203 11.5406 -2.71874 0.000115517 1
9.13714 13.3445 -2.56153 0.000388746 10
9.14634 13.3579 -1.98778 0.000397057 10
9.13647 13.3435 -1.41484 0.000403386 10
9.14519 13.3562 1.41619 0.000403488 10
9.1418 13.3513 1.98679 0.000397198 10
9.14199 13.3515 2.56289 0.000388924 10
9.1494 13.3624 3.14791 0.000378764 10
9.14502 13.356 3.73702 0.000366841 10
5.69994 8.38721 -2.7172 0.000386979 1
6.61727 9.73701 -2.71795 0.000224343 1
7.85013 11.5511 -2.71474 0.000115504 1
9.07616 13.3552 -2.55749 0.000389849 10
9.08074 13.3619 -1.98364 0.000398178 10
9.06694 13.3416 -1.41127 0.000404521 10
9.07812 13.358 1.41301 0.000404625 10
9.07076 13.3472 1.98147 0.000398322 10
9.07387 13.3518 2.55684 0.00039003 10
9.07641 13.3555 3.13881 0.000379849 10
9.07094 13.3475 3.72577 0.0003679 10
5.66948 8.40535 -2.71665 0.00038695 1
6.57941 9.75437 -2.71637 0.000224323 1
7.81285 11.583 -2.71582 0.000115491 1
9.00884 13.3562 -2.55164 0.000390915 10
9.00174 13.3456 -1.97655 0.000399261 10
9.00231 13.3465 -1.40846 0.000405616 10
9.01348 13.363 1.41021 0.000405722 10
9.00525 13.3508 1.97732 0.000399407 10
9.00898 13.3564 2.55168 0.000391099 10
9.00022 13.3434 3.12855 0.000380897 10
9.00488 13.3503 3.71775 0.000368924 10
5.65023 8.4402 -2.72153 0.00038692 1
6.55491 9.7916 -2.72035 0.000224302 1
7.776 11.6156 -2.71708 0.000115477 1
8.93938 13.3535 -2.54515 0.000391942 10
8.9436 13.3598 -1.97401 0.000400305 10
8.94526 13.3623 -1.40682 0.000406672 10
8.94228 13.3578 1.40635 0.000406779 10
8.94355 13.3597 1.974 0.000400452 10
8.94334 13.3594 2.54628 0.000392129 10
8.94641 13.364 3.12605 0.000381908 10
8.93581 13.3481 3.70845 0.000369912 10
5.6118 8.44644 -2.7172 0.00038689 1
6.50862 9.79626 -2.71532 0.000224282 1
7.73327 11.6395 -2.71633 0.000115464 1
8.86744 13.3466 -2.53792 0.000392932 10
8.87545 13.3586 -1.96925 0.000401309 10
8.86355 13.3407 -1.40129 0.000407689 10
8.86765 13.3469 1.40193 0.000407798 10
8.86361 13.3408 1.96663 0.00040146 10
8.87403 13.3565 2.53981 0.000393121 10
8.86441 13.342 3.11365 0.000382881 10
8.87962 13.3649 3.70447 0.000370864 10
5.58252 8.46633 -2.71732 0.00038686 1
6.48644 9.8372 -2.72037 0.000224261 1
7.69196 11.6655 -2.71611 0.000115451 1
8.80601 13.355 -2.53367 0.000393882 10
8.80394 13.3519 -1.96371 0.000402274 10
8.79925 13.3448 -1.39848 0.000408665 10
8.80309 13.3506 1.39909 0.000408775 10
8.80649 13.3557 1.96428 0.000402427 10
8.80337 13.351 2.53291 0.000394074 10
8.79661 13.3408 3.10617 0.000383817 10
8.80026 13.3463 3.69077 0.000371779 10
5.55935 8.49558 -2.72046 0.00038683 1
6.45371 9.8623 -2.72107 0.00022424 1
7.64666 11.6853 -2.7145 0.000115438 1
8.73484 13.3482 -2.52658 0.000394793 10
8.73744 13.3522 -1.95927 0.0004032 10
8.73698 13.3515 -1.39598 0.0004096 10
8.73134 13.3429 1.39508 0.000409713 10
8.73083 13.3421 1.95779 0.000403354 10
8.74212 13.3594 2.52869 0.000394988 10
8.74035 13.3567 3.10275 0.000384715 10
8.73102 13.3424 3.68125 0.000372657 10
5.5275 8.51161 -2.7194 0.000386801 1
6.41532 9.87872 -2.7194 0.000224219 1
7.60652 11.713 -2.71475 0.000115425 1
8.6685 13.3483 -2.52085 0.000395665 10
8.66685 13.3458 -1.95387 0.000404085 10
8.67361 13.3562 -1.39329 0.000410496 10
8.67027 13.351 1.39276 0.000410609 10
8.66587 13.3443 1.95365 0.000404242 10
8.66301 13.3399 2.51926 0.000395863 10
8.67335 13.3558 3.0955 0.000385575 10
8.67105 13.3522 3.67559 0.000373498 10
5.50032 8.53483 -2.72067 0.000386771 1
6.3745 9.8913 -2.71672 0.000224199 1
7.57305 11.7511 -2.71743 0.000115411 1
8.60141 13.3468 -2.51488 0.000396498 10
8.59733 13.3404 -1.94869 0.00040493 10
8.60468 13.3519 -1.3897 0.00041135 10
8.60042 13.3452 1.38901 0.000411466 10
8.61019 13.3604 1.9516 0.000405089 10
8.60863 13.358 2.51699 0.000396699 10
8.61178 13.3629 3.09015 0.000386396 10
8.60252 13.3485 3.66627 0.000374302 10
5.4616 8.54007 -2.71624 0.000386741 1
6.35096 9.93072 -2.72144 0.000224178 1
7.52875 11.7724 -2.71626 0.000115398 1
8.54039 13.3542 -2.51065 0.000397291 10
8.53179 13.3408 -1.94437 0.000405734 10
8.54292 13.3582 -1.38725 0.000412163 10
8.53276 13.3423 1.3856 0.00041228 10
8.53551 13.3466 1.94522 0.000405896 10
8.53567 13.3469 2.50926 0.000397495 10
8.53357 13.3436 3.07878 0.000387178 10
8.53568 13.3469 3.65762 0.000375068 10
5.43165 8.55891 -2.71619 0.000386711 1
6.30989 9.94279 -2.7187 0.000224157 1
7.48364 11.7923 -2.71482 0.000115385 1
8.46862 13.3444 -2.50323 0.000398043 10
8.46459 13.338 -1.93966 0.000406497 10
8.47564 13.3555 -1.38388 0.000412934 10
8.47132 13.3487 1.38318 0.000413053 10
8.47072 13.3477 1.94106 0.000406661 10
8.4764 13.3567 2.50553 0.000398251 10
8.46845 13.3441 3.07207 0.000387921 10
8.47113 13.3484 3.6499 0.000375796 10
5.41352 8.59652 -2.72211 0.000386681 1
6.27907 9.971 -2.7204 0.000224136 1
7.45049 11.8312 -2.71776 0.000115372 1
8.39918 13.3377 -2.49645 0.000398756 10
8.40069 13.3401 -1.93568 0.000407219 10
8.40634 13.349 -1.38017 0.000413664 10
8.40227 13.3426 1.3795 0.000413785 10
8.40552 13.3477 1.93679 0.000407386 10
8.40827 13.3521 2.49915 0.000398966 10
8.40395 13.3452 3.06556 0.000388626 10
8.40495 13.3468 3.64144 0.000376487 10
5.38042 8.61046 -2.72056 0.000386651 1
6.24152 9.98851 -2.71922 0.000224115 1
7.40879 11.8565 -2.71762 0.000115358 1
8.34555 13.3557 -2.49435 0.000399428 10
8.34925 13.3616 -1.93456 0.000407901 10
8.34331 13.3521 -1.37746 0.000414352 10
8.34386 13.353 1.37755 0.000414474 10
8.33753 13.3428 1.93184 0.00040807 10
8.3412 13.3487 2.49305 0.000399641 10
8.33922 13.3455 3.05892 0.00038929 10
8.34691 13.3578 3.63647 0.000377139 10
5.3459 8.62205 -2.71831 0.000386621 1
6.20162 10.0022 -2.71704 0.000224094 1
7.36832 11.8839 -2.71798 0.000115345 1
8.26968 13.3376 -2.48558 0.000400059 10
8.27827 13.3515 -1.9289 0.00040854 10
8.27583 13.3476 -1.37401 0.000414998 10
8.27895 13.3526 1.37453 0.000415122 10
8.2758 13.3475 1.92832 0.000408712 10
8.27949 13.3534 2.48852 0.000400275 10
8.27357 13.3439 3.0519 0.000389915 10
8.27298 13.3429 3.62453 0.000377752 10
5.31204 8.6346 -2.7164 0.00038659 1
6.17178 10.0321 -2.71929 0.000224073 1
7.32095 11.9 -2.71582 0.000115332 1
8.20605 13.3387 -2.48043 0.00040065 10
8.21104 13.3468 -1.92408 0.000409137 10
8.21674 13.3561 -1.37193 0.000415601 10
8.20833 13.3424 1.37052 0.000415726 10
8.2074 13.3409 1.92322 0.000409311 10
8.21319 13.3503 2.48259 0.000400869 10
8.20955 13.3444 3.04545 0.0003905 10
8.21152 13.3476 3.61799 0.000378327 10
5.28268 8.65443 -2.71682 0.00038656 1
6.142 10.0622 -2.72163 0.000224053 1
7.28539 11.9354 -2.71806 0.000115318 1
8.15213 13.3553 -2.47821 0.000401199 10
8.14997 13.3518 -1.92068 0.000409693 10
8.14115 13.3373 -1.36707 0.000416161 10
8.14654 13.3462 1.36798 0.000416289 10
8.14923 13.3506 1.9205 0.000409869 10
8.14975 13.3514 2.47749 0.000401421 10
8.15139 13.3541 3.04115 0.000391044 10
8.15021 13.3522 3.6115 0.000378863 10
5.26305 8.69033 -2.72231 0.00038653 1
6.10012 10.0725 -2.71863 0.000224031 1
7.2371 11.9499 -2.71559 0.000115305 1
8.09128 13.3603 -2.47387 0.000401706 10
8.07713 13.3369 -1.91447 0.000410206 10
8.08418 13.3486 -1.36532 0.000416679 10
8.08426 13.3487 1.36534 0.000416808 10
8.08878 13.3562 1.91723 0.000410385 10
8.0926 13.3625 2.47428 0.000401931 10
8.07789 13.3382 3.03108 0.000391549 10
8.09206 13.3616 3.60637 0.000379359 10
5.2327 8.70867 -2.72232 0.0003865 1
6.07316 10.1074 -2.72232 0.000224011 1
7.2038 11.9891 -2.71878 0.000115291 1
8.02735 13.3597 -2.46857 0.000402172 10
8.02516 13.3561 -1.91319 0.000410677 10
8.02758 13.3601 -1.36363 0.000417153 10
8.02578 13.3571 1.36333 0.000417284 10
8.01917 13.3461 1.91176 0.000410858 10
8.02468 13.3553 2.46775 0.0004024 10
8.01519 13.3395 3.02501 0.000392012 10
8.01836 13.3448 3.59427 0.000379816 10
5.20294 8.72801 -2.72267 0.00038647 1
6.02981 10.1151 -2.7187 0.000223989 1
7.15986 12.0108 -2.71801 0.000115278 1
7.95318 13.3416 -2.46007 0.000402596 10
7.9611 13.3549 -1.90902 0.000411105 10
7.96264 13.3574 -1.36051 0.000417585 10
7.95239 13.3403 1.35876 0.000417717 10
7.95319 13.3416 1.90712 0.000411289 10
7.95279 13.3409 2.45995 0.000402828 10
7.95719 13.3483 3.02069 0.000392435 10
7.95803 13.3497 3.58809 0.000380234 10
5.16936 8.7409 -2.72105 0.000386439 1
5.99228 10.1324 -2.71771 0.000223968 1
7.12065 12.0403 -2.71906 0.000115265 1
7.88762 13.3372 -2.45417 0.000402979 10
7.89432 13.3485 -1.90417 0.000411491 10
7.89364 13.3474 -1.35668 0.000417972 10
7.90101 13.3599 1.35794 0.000418107 10
7.8911 13.3431 1.90339 0.000411676 10
7.89009 13.3414 2.45494 0.000403213 10
7.89425 13.3484 3.01446 0.000392817 10
7.89228 13.3451 3.57942 0.000380612 10
5.13448 8.75152 -2.71875 0.000386409 1
5.95706 10.1536 -2.71779 0.000223947 1
7.07835 12.0648 -2.71897 0.000115251 1
7.83148 13.3484 -2.45119 0.000403318 10
7.82731 13.3413 -1.89923 0.000411833 10
7.83441 13.3534 -1.3545 0.000418316 10
7.83835 13.3601 1.35518 0.000418452 10
7.83736 13.3585 1.90166 0.000412021 10
7.83798 13.3595 2.45322 0.000403556 10
7.82805 13.3426 3.00695 0.000393158 10
7.83368 13.3522 3.57397 0.00038095 10
5.11038 8.78051 -2.7222 0.000386379 1
