VERSION 0.7
FIELDS x y z intensity label
SIZE 4 4 4 4 4
TYPE F F F F F
COUNT 1 1 1 1 1
WIDTH 1131
HEIGHT 1
VIEWPOINT 12.9371 47.5101 2.72615 0.969555 -0.000965159 0.00116785 0.24487
POINTS 1131
DATA ascii
-16.0561 -0.280257 0.841592 0.000830621 10
-16.0674 -0.280455 1.40593 0.000640711 10
-16.0696 -0.280494 1.9734 0.000630515 10
-16.0578 -0.280287 2.54369 0.000617181 10
-16.0733 -0.280557 3.12481 0.000600868 10
-16.0792 -0.28066 3.71273 0.000581772 10
-16.0673 -0.280453 4.30588 0.00056012 10
-9.97187 -0.208879 -2.67254 8.49015e-05 4
-11.9339 -0.249977 -2.75576 0.000211517 1
-13.2218 -0.276956 -2.57063 9.38032e-05 4
-16.0855 -0.33694 -2.54824 0.000787076 10
-16.107 -0.33739 -1.97812 0.000803583 10
-16.083 -0.336888 -1.40739 0.000816075 10
-16.1081 -0.337413 -0.844372 0.0008244 10
-16.1059 -0.337368 -0.281191 0.000828461 10
-16.1085 -0.337422 0.281236 0.000828206 10
-16.0948 -0.337136 0.843679 0.000823638 10
-16.0997 -0.337239 1.40885 0.000635321 10
-16.1026 -0.337298 1.97758 0.000625205 10
-16.094 -0.337119 2.5496 0.000611975 10
-16.097 -0.337182 3.12963 0.00059579 10
-16.0962 -0.337164 3.71691 0.000576843 10
-16.1186 -0.337635 4.31992 0.000555362 10
-9.98621 -0.244056 -2.6766 0.000123706 4
-11.9522 -0.292103 -2.7602 0.000211501 1
-13.2217 -0.323129 -2.5708 0.000123972 4
-16.1347 -0.394321 -2.55624 0.000780384 10
-16.1108 -0.393738 -1.97875 0.00079676 10
-16.1339 -0.394302 -1.41195 0.000809152 10
-16.1256 -0.394099 -0.845359 0.000817413 10
-16.1298 -0.394202 -0.281631 0.000821441 10
-16.1182 -0.393919 0.281429 0.000821187 10
-16.1203 -0.39397 0.845083 0.000816655 10
-16.1457 -0.394591 1.41299 0.00062993 10
-16.1327 -0.394273 1.98144 0.000619893 10
-16.1309 -0.394229 2.55565 0.000606767 10
-16.1355 -0.394341 3.13736 0.00059071 10
-16.1323 -0.394262 3.72554 0.000571913 10
-16.1346 -0.394318 4.32454 0.000550603 10
-11.9492 -0.33377 -2.75976 0.000211486 1
-13.2358 -0.369707 -2.57377 0.000117436 4
-16.166 -0.451555 -2.56144 0.000773692 10
-16.1687 -0.451631 -1.98604 0.000789936 10
-16.153 -0.451193 -1.41376 0.00080223 10
-16.1472 -0.451031 -0.84657 0.000810423 10
-16.1551 -0.451251 -0.282098 0.000814419 10
-16.1539 -0.451218 0.282078 0.000814167 10
-16.171 -0.451695 0.847816 0.00080967 10
-16.165 -0.451529 1.41481 0.000624538 10
-16.1509 -0.451134 1.98385 0.00061458 10
-16.1636 -0.451489 2.56106 0.000601559 10
-16.1693 -0.451647 3.14421 0.000585629 10
-16.1705 -0.451683 3.73472 0.000566983 10
-16.1793 -0.451926 4.33691 0.000545843 10
-9.98223 -0.313703 -2.67605 6.3058e-05 4
-11.9363 -0.375112 -2.75707 0.00021147 1
-13.2373 -0.415997 -2.57434 9.54085e-05 4
-16.1978 -0.509034 -2.56674 0.000766999 10
-16.177 -0.50838 -1.98726 0.000783112 10
-16.1741 -0.508291 -1.41575 0.000795306 10
-16.1828 -0.508565 -0.848525 0.000803434 10
-16.2019 -0.509165 -0.282945 0.000807396 10
-16.1854 -0.508646 0.282657 0.000807146 10
-16.1817 -0.508529 0.848465 0.000802685 10
-16.1933 -0.508894 1.41743 0.000619145 10
-16.2038 -0.509223 1.99055 0.000609268 10
-16.1984 -0.509054 2.56684 0.00059635 10
-16.1828 -0.508565 3.14718 0.000580549 10
-16.199 -0.509072 3.74168 0.000562053 10
-16.203 -0.5092 4.34373 0.000541083 10
-9.97427 -0.348309 -2.67423 7.03296e-05 4
-11.9377 -0.416874 -2.75772 0.000211454 1
-13.2355 -0.462194 -2.57429 0.000243946 4
-16.2173 -0.56632 -2.57013 0.000760307 10
-16.2289 -0.566725 -1.99387 0.000776289 10
-19.0915 -0.666689 1.00115 2.95306e-05 10
-16.2188 -0.566371 1.41982 0.000613754 10
-16.2232 -0.566525 1.99317 0.000603955 10
-16.2357 -0.566963 2.57305 0.000591143 10
-16.2158 -0.566267 3.15395 0.000575469 10
-16.2386 -0.567064 3.75127 0.000557124 10
-16.2361 -0.566975 4.35309 0.000536324 10
-9.99107 -0.383818 -2.67907 0.000194001 4
-11.9314 -0.45836 -2.75662 0.000211439 1
-13.2581 -0.509323 -2.57901 0.000317557 4
-16.2455 -0.624089 -2.57493 0.000753615 10
-16.2623 -0.624735 -1.99823 0.000769466 10
-16.3725 -0.628968 -1.43347 0.000297346 10
-16.3855 -0.629466 -0.85936 0.000300271 10
-16.3813 -0.629305 -0.286147 0.000301633 10
-16.3645 -0.62866 0.285854 0.000301415 10
-16.377 -0.62914 0.858914 0.00029962 10
-16.2666 -0.6249 1.42419 0.000608362 10
-16.2679 -0.624951 1.99892 0.000598644 10
-16.2483 -0.624198 2.57538 0.000585936 10
-16.2693 -0.625003 3.16476 0.00057039 10
-16.255 -0.624453 3.75552 0.000552195 10
-16.2637 -0.624786 4.36105 0.000531567 10
-9.99138 -0.418763 -2.67953 5.33471e-05 4
-11.9286 -0.499957 -2.75636 0.000211424 1
-13.2751 -0.556391 -2.58268 0.000263663 4
-16.2857 -0.682572 -2.58166 0.000746926 10
-16.2723 -0.682013 -1.99975 0.000762646 10
-16.2762 -0.682176 -1.42524 0.000511605 10
-16.2862 -0.682594 -0.854273 0.000516842 10
-16.2941 -0.682924 -0.284664 0.000519395 10
-16.2741 -0.682086 0.284314 0.000519232 10
-16.2742 -0.682089 0.853641 0.000516356 10
-16.2865 -0.682607 1.42614 0.000602973 10
-16.2743 -0.682094 1.99998 0.000593334 10
-16.3029 -0.683296 2.5844 0.00058073 10
-16.3001 -0.683176 3.17119 0.000565313 10
-16.2994 -0.683147 3.76632 0.000547268 10
-16.2945 -0.68294 4.36992 0.00052681 10
-9.99023 -0.453652 -2.67963 9.45643e-05 4
-11.9369 -0.542047 -2.75868 0.000211409 1
-13.3044 -0.604149 -2.58879 0.000241095 4
-16.3112 -0.740684 -2.5861 0.000740239 10
-16.3141 -0.740814 -2.00518 0.000755828 10
-16.3188 -0.741029 -1.42918 0.000507036 10
-16.3023 -0.74028 -0.855248 0.000512229 10
-16.325 -0.741311 -0.285248 0.00051476 10
-16.302 -0.740264 0.284845 0.000514599 10
-16.3274 -0.741418 0.856563 0.000511747 10
-16.3303 -0.741551 1.43019 0.000597585 10
-16.3297 -0.741525 2.0071 0.000588026 10
-16.3312 -0.741593 2.58928 0.000575527 10
-16.3217 -0.741163 3.1759 0.000560238 10
-16.3107 -0.740661 3.7695 0.000542343 10
-16.3219 -0.741171 4.37795 0.000522057 10
-9.97919 -0.488062 -2.67711 0.000130927 4
-11.9245 -0.583203 -2.75628 0.000211394 1
-13.3343 -0.652152 -2.59501 0.000316678 4
-16.3288 -0.798609 -2.58932 0.000733556 10
-16.3377 -0.799043 -2.00841 0.000749013 10
-19.0567 -0.932026 0.999914 2.95707e-05 10
-16.348 -0.799547 1.43197 0.0005922 10
-16.3432 -0.799312 2.00909 0.000582721 10
-16.3482 -0.799558 2.5924 0.000570326 10
-16.3542 -0.799849 3.18272 0.000555165 10
-16.3412 -0.799213 3.77716 0.000537421 10
-16.3642 -0.800339 4.39001 0.000517305 10
-9.9743 -0.522729 -2.67627 0.000351544 4
-11.928 -0.625117 -2.75757 0.000211379 1
-13.3423 -0.69924 -2.59705 0.000251733 4
-16.3862 -0.858762 -2.59888 0.000726876 10
-16.3781 -0.858338 -2.01374 0.000742202 10
-16.5058 -0.865031 -1.44605 0.000295773 10
-16.5058 -0.865028 -0.866217 0.000298696 10
-16.4977 -0.864605 -0.288364 0.000300059 10
-16.5077 -0.86513 0.288538 0.000299847 10
-16.5203 -0.865788 0.866978 0.000298061 10
-16.3785 -0.858359 1.4349 0.000586818 10
-16.3776 -0.858309 2.01367 0.000577419 10
-16.397 -0.859328 2.60059 0.000565128 10
-16.3828 -0.858583 3.18886 0.000550096 10
-16.3795 -0.858409 3.78669 0.000532502 10
-16.3746 -0.858155 4.39359 0.000512557 10
-9.9608 -0.556894 -2.67316 9.6972e-05 4
-11.9275 -0.666848 -2.75797 0.000211364 1
-13.3596 -0.746917 -2.6009 0.000267018 4
-16.4165 -0.91782 -2.60417 0.000720201 10
-16.4106 -0.917494 -2.01812 0.000735395 10
-16.4175 -0.917879 -1.43859 0.000493343 10
-16.4215 -0.918105 -0.861961 0.000498405 10
-16.3994 -0.916869 -0.2867 0.000500871 10
-16.408 -0.91735 0.286851 0.00030732 10
-16.4148 -0.917729 0.861608 0.000305495 10
-16.413 -0.917627 1.43819 0.000581439 10
-16.42 -0.918017 2.01927 0.00057212 10
-16.4299 -0.918573 2.60631 0.000559934 10
-16.4253 -0.918316 3.19774 0.000545029 10
-16.4049 -0.917172 3.79327 0.000527586 10
-16.4302 -0.91859 4.40934 0.000507812 10
-9.97744 -0.592769 -2.67816 0.000167267 4
-11.933 -0.708951 -2.75981 0.000211349 1
-13.4039 -0.796336 -2.61005 0.000326693 4
-16.4321 -0.976248 -2.60718 0.000713531 10
-16.4392 -0.976665 -2.02204 0.000728594 10
-16.4524 -0.977451 -1.44194 0.000488785 10
-16.4399 -0.976707 -0.863097 0.000493803 10
-16.442 -0.976831 -0.287502 0.000496248 10
-16.4347 -0.976402 0.287375 0.000496091 10
-16.4409 -0.97677 0.863152 0.000493332 10
-16.4339 -0.97635 1.44031 0.000576065 10
-16.4328 -0.976284 2.02125 0.000566825 10
-16.4518 -0.977417 2.61031 0.000554744 10
-16.4432 -0.976906 3.20187 0.000539967 10
-16.4457 -0.977051 3.80347 0.000522674 10
-16.4504 -0.97733 4.41563 0.000503071 10
-9.97039 -0.627283 -2.67684 0.000184226 4
-11.9282 -0.75046 -2.75929 0.000211335 1
-13.4094 -0.843647 -2.61168 0.000288533 4
-16.4732 -1.03641 -2.61426 0.000706866 10
-16.4832 -1.03704 -2.02789 0.000721799 10
-32.3358 -2.03439 -1.698 5.40207e-05 10
-32.351 -2.03535 -0.565805 5.43672e-05 10
-32.3687 -2.03646 0.566114 5.43449e-05 10
-19.0508 -1.19857 1.00038 2.96094e-05 10
-16.4658 -1.03594 1.44342 0.000570695 10
-16.4734 -1.03642 2.02668 0.000561535 10
-16.4783 -1.03673 2.61507 0.000549558 10
-16.4826 -1.03699 3.21022 0.00053491 10
-16.4914 -1.03755 3.81486 0.000517767 10
-16.4721 -1.03634 4.42242 0.000498335 10
-9.97882 -0.662792 -2.67971 0.000167248 4
-11.9383 -0.792939 -2.76224 0.00021132 1
-13.4244 -0.891647 -2.61519 0.000250454 4
-16.5038 -1.09618 -2.61971 0.000700209 10
-16.4925 -1.09543 -2.02949 0.00071501 10
-16.6172 -1.10371 -1.45702 0.000294229 10
-16.6222 -1.10404 -0.87305 0.000297149 10
-16.646 -1.10562 -0.291197 0.000298513 10
-16.6339 -1.10482 0.290985 0.000298306 10
-16.6348 -1.10488 0.873712 0.00029653 10
-16.498 -1.0958 1.44657 0.00056533 10
-16.5028 -1.09611 2.03075 0.00055625 10
-16.5021 -1.09607 2.61943 0.000544378 10
-16.4997 -1.09591 3.21427 0.000529857 10
-16.5129 -1.09678 3.8207 0.000512864 10
-16.5264 -1.09768 4.43798 0.000493603 10
-9.97094 -0.697236 -2.67823 0.000237528 4
-11.8761 -0.830459 -2.74851 8.01128e-05 4
-13.4609 -0.941277 -2.62292 0.000334186 4
-16.5462 -1.15703 -2.62707 0.000693558 10
-16.5503 -1.15731 -2.03708 0.000708229 10
-16.5265 -1.15565 -1.44942 0.000475136 10
-16.5526 -1.15747 -0.869603 0.000480023 10
-16.5398 -1.15658 -0.289408 0.000482404 10
-16.5486 -1.15719 0.289562 0.000482249 10
-16.5312 -1.15598 0.868481 0.000479562 10
-16.5555 -1.15767 1.45196 0.000559972 10
-16.5425 -1.15677 2.03613 0.000550971 10
-16.552 -1.15743 2.62799 0.000539203 10
-16.5594 -1.15795 3.22669 0.000524811 10
-16.5388 -1.15651 3.82761 0.000507967 10
-16.5589 -1.15791 4.44778 0.000488877 10
-9.97168 -0.732275 -2.6791 0.000135723 4
-11.8077 -0.8671 -2.73335 9.61307e-05 4
-13.4975 -0.991192 -2.63071 0.00024528 4
-16.5683 -1.2167 -2.63122 0.000686916 10
-16.5546 -1.21569 -2.03812 0.000701455 10
-16.5658 -1.21652 -1.45322 0.000470597 10
-16.5753 -1.21721 -0.871012 0.000475439 10
-16.5607 -1.21614 -0.289846 0.000477799 10
-16.5843 -1.21788 0.29026 0.000477646 10
-16.5723 -1.21699 0.870856 0.000474982 10
-16.5463 -1.21509 1.45151 0.000354982 10
-16.5674 -1.21663 2.0397 0.000349145 10
-16.5683 -1.2167 2.63122 0.000341556 10
-16.5732 -1.21706 3.23018 0.000332309 10
-16.5667 -1.21658 3.83502 0.000503077 10
-16.5882 -1.21816 4.45677 0.000484157 10
-9.97136 -0.767252 -2.67972 7.0281e-05 4
-11.7356 -0.903 -2.71738 8.91017e-05 4
-13.5201 -1.04031 -2.6358 0.000317686 4
-16.5939 -1.27683 -2.63598 0.000680282 10
-16.6111 -1.27815 -2.04561 0.000694691 10
-22.6358 -1.74173 -1.98623 0.000150339 10
-22.6354 -1.74169 -1.18978 0.000152 10
-22.6626 -1.74378 -0.396746 0.000152777 10
-22.6506 -1.74286 0.396536 0.000152662 10
-19.0166 -1.46324 0.999564 2.96468e-05 10
-16.4756 -1.26772 1.44569 0.000363446 10
-16.4641 -1.26684 2.02751 0.00035748 10
-16.4602 -1.26654 2.61474 0.000349725 10
-16.4848 -1.26844 3.2138 0.000340274 10
-16.4884 -1.26871 3.8179 0.000329241 10
-16.6058 -1.27774 4.46266 0.000479444 10
-9.95955 -0.801325 -2.67728 0.000142978 4
-11.6962 -0.94105 -2.709 9.74105e-05 4
-13.5284 -1.08847 -2.63815 0.00026649 4
-16.6422 -1.339 -2.64439 0.000673657 10
-16.6302 -1.33803 -2.04852 0.000687935 10
-16.7462 -1.34737 -1.46984 0.000292698 10
-16.7491 -1.3476 -0.88062 0.000295614 10
-16.7411 -1.34696 -0.293162 0.000296979 10
-16.7575 -1.34827 0.293448 0.000296778 10
-16.7403 -1.34689 0.880157 0.00029501 10
-16.3646 -1.31666 1.43634 0.000372031 10
-16.3657 -1.31675 2.01595 0.000365936 10
-16.3862 -1.3184 2.6037 0.000358011 10
-16.3781 -1.31775 3.19388 0.000348353 10
-16.3765 -1.31762 3.79302 0.000337079 10
-16.6383 -1.33868 4.47262 0.000474737 10
-9.96703 -0.836954 -2.68006 7.02734e-05 4
-11.612 -0.975084 -2.69027 5.59227e-05 4
-13.5415 -1.13711 -2.64146 0.000277009 4
-16.6652 -1.39942 -2.6488 0.000667042 10
-16.6623 -1.39917 -2.05308 0.000681189 10
-16.6742 -1.40017 -1.46393 0.000457014 10
-16.6598 -1.39896 -0.876174 0.000461726 10
-16.6643 -1.39934 -0.291901 0.000464021 10
-16.6702 -1.39983 0.292003 0.000463871 10
-16.67 -1.39982 0.876712 0.000461278 10
-16.286 -1.36757 1.42985 0.000380736 10
-16.2857 -1.36755 2.00667 0.00037451 10
-16.2759 -1.36672 2.58692 0.000366414 10
-16.2776 -1.36686 3.17517 0.000356547 10
-16.3033 -1.36903 3.77716 0.000345027 10
-16.6934 -1.40178 4.48873 0.000470037 10
-9.94678 -0.870229 -2.67541 7.26927e-05 4
-13.5858 -1.1886 -2.6509 0.000309412 4
-16.6953 -1.46065 -2.65438 0.000660437 10
-16.7139 -1.46227 -2.06004 0.000674453 10
-16.7008 -1.46113 -1.46672 0.0004525 10
-16.6972 -1.46081 -0.878404 0.000457169 10
-16.7114 -1.46206 -0.292814 0.000459442 10
-16.6916 -1.46032 0.292465 0.000459293 10
-16.713 -1.46219 0.879236 0.000456723 10
-16.2635 -1.42287 1.42831 0.000581479 10
-16.2742 -1.42381 2.00586 0.000572171 10
-16.2777 -1.42411 2.58798 0.000560003 10
-16.2725 -1.42366 3.17513 0.000545121 10
-16.2692 -1.42337 3.77039 0.000527702 10
-16.7265 -1.46338 4.49897 0.000465345 10
-9.96352 -0.90675 -2.68075 0.000104187 4
-11.5589 -1.05195 -2.67962 3.48944e-05 4
-13.5994 -1.23764 -2.65439 0.000208066 4
-16.7393 -1.52339 -2.66219 0.000653844 10
-16.7449 -1.52391 -2.06452 0.00066773 10
-22.55 -2.05221 -1.98103 0.00023458 10
-22.5341 -2.05076 -1.18584 0.000237263 10
-22.5436 -2.05163 -0.395126 0.00023857 10
-22.5578 -2.05292 0.395375 0.000238484 10
-19.0049 -1.72958 1.00012 2.9683e-05 10
-16.3144 -1.48472 1.43322 0.00057573 10
-16.305 -1.48387 2.01027 0.000566509 10
-16.3141 -1.4847 2.59458 0.000554452 10
-16.3065 -1.48401 3.18276 0.000539706 10
-16.3193 -1.48517 3.78318 0.000522449 10
-16.7398 -1.52344 4.50394 0.000460661 10
-9.93604 -0.939232 -2.67422 0.000181713 4
-11.5668 -1.09339 -2.68232 0.00026239 4
-13.6304 -1.28845 -2.66128 0.000244806 4
-16.7571 -1.58401 -2.6659 0.000647262 10
-16.7557 -1.58388 -2.06652 0.000661017 10
-16.8667 -1.59437 -1.48222 0.000291167 10
-16.862 -1.59393 -0.887639 0.000294079 10
-16.8487 -1.59267 -0.295407 0.000295444 10
-16.8588 -1.59362 0.295582 0.000295247 10
-16.8722 -1.59489 0.888176 0.000293489 10
-16.8619 -1.59391 2.0796 0.000323017 10
-16.3493 -1.54546 3.79136 0.000517204 10
-16.7677 -1.58501 4.51292 0.000455986 10
-9.95105 -0.975708 -2.67916 0.000164744 4
-11.5598 -1.13345 -2.6816 0.000277725 4
-13.6563 -1.33901 -2.66725 0.000257382 4
-16.7957 -1.64684 -2.67294 0.000640692 10
-16.8003 -1.64728 -2.0727 0.000654318 10
-16.8007 -1.64733 -1.47692 0.000439005 10
-16.8171 -1.64893 -0.885571 0.000443543 10
-16.8052 -1.64776 -0.294742 0.000445752 10
-16.7972 -1.64698 0.294603 0.000445606 10
-16.8087 -1.64811 0.885131 0.000443106 10
-16.8916 -1.65623 2.08397 0.000319736 10
-16.374 -1.60548 3.79835 0.000511969 10
-16.8041 -1.64766 4.52425 0.00045132 10
-9.9399 -1.00966 -2.67709 0.000113862 4
-11.5549 -1.1737 -2.68138 0.000281894 4
-13.6721 -1.38876 -2.67126 0.000324295 4
-16.8271 -1.70924 -2.67887 0.000634136 10
-16.8349 -1.71003 -2.07771 0.000647631 10
-22.6906 -2.30483 -1.99538 0.00022678 10
-22.6683 -2.30256 -1.19411 0.00022938 10
-22.6707 -2.3028 -0.397755 0.000230647 10
-22.6901 -2.30478 0.398095 0.000230563 10
-16.8411 -1.71066 0.887147 0.000438585 10
-16.4277 -1.66867 3.81215 0.000506744 10
-16.8598 -1.71256 4.54083 0.000446663 10
-9.94595 -1.04536 -2.67969 6.2984e-05 4
-11.5431 -1.21323 -2.67961 0.000269318 4
-13.6824 -1.43807 -2.67423 0.000288822 4
-16.8653 -1.77261 -2.68591 0.000627593 10
-16.871 -1.77321 -2.08291 0.000640959 10
-17.0492 -1.79194 -1.49983 0.00028326 10
-17.0591 -1.79299 -0.898956 0.000286107 10
-17.0578 -1.79284 -0.299385 0.000287444 10
-17.0764 -1.79481 0.299712 0.000287255 10
-17.0664 -1.79375 0.899339 0.00028554 10
-16.4399 -1.7279 3.81636 0.00050153 10
-16.8935 -1.77557 4.55152 0.000442017 10
-9.92566 -1.07827 -2.67522 3.14904e-05 4
-11.5486 -1.25457 -2.68188 0.000246976 4
-13.722 -1.49069 -2.68298 0.000240487 4
-16.8919 -1.83505 -2.69116 0.000621064 10
-16.916 -1.83767 -2.08925 0.000634301 10
-16.9486 -1.8412 -1.49154 0.000289623 10
-16.9711 -1.84365 -0.894652 0.00029253 10
-16.977 -1.84428 -0.298077 0.000293896 10
-16.9816 -1.84479 0.298158 0.000293704 10
-16.9637 -1.84284 0.894258 0.000291955 10
-16.9169 -1.83776 3.92855 0.000454604 10
-16.9187 -1.83796 4.56004 0.000437381 10
-9.94085 -1.11504 -2.68035 0.000157444 4
-11.5492 -1.29545 -2.68307 0.000274867 4
-13.7418 -1.54139 -2.6879 0.000242072 4
-16.9496 -1.9012 -2.70139 0.000614551 10
-16.9336 -1.89941 -2.09223 0.000627657 10
-16.9438 -1.90055 -1.49169 0.000421135 10
-16.9373 -1.89982 -0.893212 0.0004255 10
-16.9523 -1.9015 -0.297759 0.000427625 10
-16.9377 -1.89987 0.297503 0.000427483 10
-16.9378 -1.89988 0.893242 0.000425076 10
-16.9352 -1.89958 3.93431 0.00044981 10
-16.9395 -1.90007 4.56739 0.000432755 10
-9.93428 -1.14943 -2.67964 7.75072e-05 4
-11.5382 -1.33502 -2.68159 0.00027206 4
-13.7502 -1.59095 -2.6906 6.9725e-05 4
-16.9672 -1.96317 -2.70528 0.000608052 10
-16.971 -1.96361 -2.09768 0.00062103 10
-33.5645 -3.88354 -1.77078 4.31229e-05 10
-33.5504 -3.88191 -0.589532 2.86696e-05 10
-33.5658 -3.88369 0.589802 2.86572e-05 10
-18.9423 -2.19169 0.999345 2.9743e-05 10
-16.9721 -1.96374 3.94447 0.000445028 10
-16.9736 -1.96392 4.57842 0.000428141 10
-9.92404 -1.18337 -2.67798 0.000271262 4
-11.5467 -1.37686 -2.68465 0.000263673 4
-13.7462 -1.63914 -2.69093 3.34371e-05 4
-17.0183 -2.02931 -2.71453 0.00060157 10
-17.0199 -2.0295 -2.10459 0.000614419 10
-17.1514 -2.04518 -1.51119 0.000281897 10
-17.1514 -2.04518 -0.905236 0.000284742 10
-17.1497 -2.04498 -0.30147 0.000286079 10
-17.1779 -2.04833 0.301964 0.000285894 10
-17.1521 -2.04526 0.905269 0.000284187 10
-17.0104 -2.02837 3.95498 0.000440258 10
-17.0064 -2.02788 4.58912 0.000423539 10
-9.91096 -1.21691 -2.67558 0.000111406 4
-11.5254 -1.41513 -2.68082 0.000232968 4
-13.7225 -1.68491 -2.68741 6.82921e-05 4
-17.0408 -2.09235 -2.71927 0.000595104 10
-17.0314 -2.09119 -2.1069 0.000607824 10
-17.0692 -2.09583 -1.50457 0.000288057 10
-17.0525 -2.09378 -0.900395 0.00029096 10
-17.0656 -2.09539 -0.300119 0.000292325 10
-17.0852 -2.0978 0.300463 0.000292137 10
-17.0861 -2.09791 0.902171 0.000290397 10
-17.1486 -2.10558 3.35837 0.000282689 10
-17.0548 -2.09407 3.96698 0.0004355 10
-17.0585 -2.09452 4.60514 0.000418949 10
-9.92135 -1.25336 -2.67955 0.000176788 4
-11.5384 -1.45764 -2.68502 0.000315256 4
-13.7225 -1.73356 -2.68859 8.60704e-05 4
-17.0629 -2.15555 -2.72398 0.000588655 10
-17.07 -2.15645 -2.11259 0.000601247 10
-17.0761 -2.15722 -1.50584 0.000403433 10
-17.0891 -2.15885 -0.902718 0.000407626 10
-17.0784 -2.15751 -0.300474 0.000409667 10
-17.0954 -2.15965 0.300773 0.000409529 10
-17.0852 -2.15836 0.902514 0.000407215 10
-17.0851 -2.15834 3.97575 0.000430756 10
-17.0957 -2.15969 4.61719 0.000414371 10
-9.9156 -1.28781 -2.67919 6.05408e-05 4
-11.5162 -1.49569 -2.68105 5.57943e-05 4
-13.7222 -1.7822 -2.68972 0.000115226 4
-17.1153 -2.22289 -2.73357 0.000582225 10
-17.1146 -2.2228 -2.11906 0.000594688 10
-28.7804 -3.73792 -2.53911 5.99049e-05 10
-28.8067 -3.74134 -1.52238 6.06403e-05 10
-28.8057 -3.74121 -0.507029 6.0987e-05 10
-28.819 -3.74294 0.507263 6.09398e-05 10
-18.8904 -2.45343 0.998319 2.97755e-05 10
-17.1375 -2.22577 3.98973 0.000426024 10
-17.1373 -2.22574 4.63048 0.000409807 10
-9.91751 -1.32328 -2.68094 9.92823e-05 4
-11.5029 -1.53482 -2.6792 3.7659e-05 4
-13.7232 -1.83106 -2.69115 0.000181362 4
-17.1443 -2.28754 -2.73946 0.000575812 10
-17.1371 -2.28658 -2.12282 0.000588148 10
-28.6421 -3.82168 -2.52807 6.14626e-05 10
-28.6505 -3.8228 -1.51482 6.22158e-05 10
-28.6545 -3.82333 -0.504599 6.2571e-05 10
-28.664 -3.8246 0.504766 6.25228e-05 10
-18.9021 -2.52208 0.999398 2.97834e-05 10
-17.1458 -2.28774 3.99351 0.000421307 10
-17.1645 -2.29024 4.63998 0.000405256 10
-9.89954 -1.35607 -2.67734 0.000184027 4
-11.5153 -1.57739 -2.68333 8.3682e-05 4
-17.1731 -2.35242 -2.74535 0.000569419 10
-17.1832 -2.35381 -2.12954 0.000581628 10
-28.5238 -3.90727 -2.51882 8.59665e-05 10
-28.5301 -3.90814 -1.50916 8.70496e-05 10
-28.5238 -3.90727 -0.502535 8.75773e-05 10
-28.5131 -3.9058 0.502345 8.75414e-05 10
-18.8795 -2.58616 0.99867 2.97912e-05 10
-17.2031 -2.35653 4.00874 0.000416604 10
-17.2066 -2.35701 4.65356 0.000400719 10
-9.88122 -1.38871 -2.67368 6.77963e-05 4
-13.1076 -1.84215 -2.5729 0.000115513 4
-17.2093 -2.41861 -2.75248 0.000563046 10
-17.223 -2.42053 -2.1355 0.000575127 10
-28.5676 -4.01491 -2.52391 8.48078e-05 10
-28.5871 -4.01765 -1.51291 8.58774e-05 10
-28.5753 -4.01599 -0.503685 8.63984e-05 10
-28.584 -4.01721 0.503838 8.63629e-05 10
-18.873 -2.65242 0.998811 2.9799e-05 10
-17.2417 -2.42315 4.01967 0.000411915 10
-17.24 -2.42292 4.66484 0.000396196 10
-9.8857 -1.42455 -2.67623 4.84237e-05 4
-13.1169 -1.89017 -2.576 0.000100863 4
-17.2375 -2.48395 -2.75834 0.000556692 10
-17.2413 -2.48451 -2.13883 0.000568647 10
-28.635 -4.12636 -2.53111 8.36551e-05 10
-28.6261 -4.12508 -1.51573 8.47112e-05 10
-28.6527 -4.12891 -0.5053 8.52257e-05 10
-28.6505 -4.1286 0.505262 8.51904e-05 10
-18.8636 -2.71828 0.99881 2.98067e-05 10
-17.2537 -2.4863 4.02448 0.000407242 10
-17.2339 -2.48344 4.6655 0.000133228 10
-9.88886 -1.46026 -2.67844 0.000150107 4
-11.4852 -1.69599 -2.68032 0.000161759 4
-13.0957 -1.93381 -2.57315 0.000113057 4
-17.2963 -2.5541 -2.76918 0.00055036 10
-17.3026 -2.55502 -2.14753 0.000562188 10
-28.7006 -4.23813 -2.53821 8.25084e-05 10
-28.6952 -4.23733 -1.52016 8.35512e-05 10
-28.6892 -4.23644 -0.506202 8.4059e-05 10
-28.6885 -4.23635 0.50619 8.40242e-05 10
-18.8405 -2.78212 0.998097 2.98142e-05 10
-17.3002 -2.55467 4.03737 0.000402584 10
-17.2145 -2.54201 4.66262 0.000133235 10
-9.87256 -1.49308 -2.67543 0.000217887 4
-11.4862 -1.73712 -2.68195 4.60152e-05 4
-13.0967 -1.98069 -2.57469 0.000112236 4
-17.3327 -2.62133 -2.77645 0.000544049 10
-17.3177 -2.61906 -2.15053 0.00055575 10
-28.7662 -4.35048 -2.54534 8.1368e-05 10
-28.7453 -4.34732 -1.52361 8.23975e-05 10
-28.7691 -4.35092 -0.507877 8.28988e-05 10
-28.7583 -4.34928 0.507686 8.28644e-05 10
-18.8504 -2.85085 0.99914 2.98217e-05 10
-17.3261 -2.62033 4.04554 0.000397942 10
-17.2129 -2.6032 4.66463 0.000133241 10
-9.86984 -1.52793 -2.67612 0.000123464 4
-11.4814 -1.77741 -2.68226 8.50538e-05 4
-13.0882 -2.02616 -2.57439 0.000108976 4
-17.3226 -2.68168 -2.77631 4.50791e-05 1
-17.3687 -2.68882 -2.15801 0.000549335 10
-34.3195 -5.31294 -1.82003 3.67406e-05 10
-18.8182 -2.91321 0.997967 2.98291e-05 10
-17.3838 -2.69115 4.06117 0.000393316 10
-17.2107 -2.66436 4.66653 0.000133248 10
-9.86634 -1.56267 -2.67663 0.000154929 4
-11.475 -1.81746 -2.68223 6.83184e-05 4
-13.0939 -2.07387 -2.57693 8.37404e-05 4
-17.3154 -2.74249 -2.77667 4.50752e-05 1
-17.4119 -2.75778 -2.16456 0.000542942 10
-34.3991 -5.44828 -1.82525 3.6182e-05 10
-18.8278 -2.98202 0.999021 2.98364e-05 10
-17.409 -2.75731 4.06927 0.000388707 10
-17.1934 -2.72317 4.66439 0.000133254 10
-9.86615 -1.59797 -2.67808 8.4723e-05 4
-11.4735 -1.8583 -2.68339 6.27381e-05 4
-13.1129 -2.12383 -2.5821 0.000164205 4
-17.3047 -2.80275 -2.77651 4.50715e-05 1
-17.4235 -2.82199 -2.16722 0.000536573 10
-34.4807 -5.58465 -1.8306 3.56272e-05 10
-18.8041 -3.0456 0.998323 2.98437e-05 10
-17.541 -2.84102 1.55464 0.000266464 10
-17.5392 -2.84073 2.18161 0.000262083 10
-17.5292 -2.83911 2.81253 0.000256359 10
-17.5197 -2.83758 3.44987 0.000249364 10
-17.447 -2.8258 4.08045 0.000384115 10
-17.1838 -2.78317 4.66439 0.000133261 10
-9.8474 -1.63022 -2.67452 0.000191224 4
-11.4599 -1.89717 -2.68173 7.94643e-05 4
-13.1218 -2.17229 -2.58533 0.000222628 4
-16.0876 -2.66328 -2.58271 3.76488e-05 4
-17.4825 -2.89421 -2.1758 0.000530228 10
-34.5444 -5.71878 -1.83503 3.50763e-05 10
-18.7904 -3.11072 0.998166 2.98508e-05 10
-17.4852 -2.89465 1.55058 0.000267672 10
-17.4789 -2.89361 2.17535 0.000263274 10
-17.4815 -2.89404 2.80648 0.000257528 10
-17.4902 -2.89549 3.44603 0.000250505 10
-17.4943 -2.89616 4.09385 0.000379542 10
-17.1636 -2.84141 4.66157 0.000133267 10
-9.85627 -1.66706 -2.67849 0.000261409 4
-11.4525 -1.93704 -2.68157 8.36424e-05 4
-13.1686 -2.2273 -2.59607 0.000400867 4
-17.5023 -2.96028 -2.17953 0.000523907 10
-34.6016 -5.85241 -1.83915 3.45294e-05 10
-18.7931 -3.17861 0.998891 2.98579e-05 10
-17.4099 -2.94465 1.5448 0.000330362 10
-17.412 -2.94502 2.16829 0.000324854 10
-17.4092 -2.94455 2.79652 0.000317687 10
-17.4225 -2.94679 3.43469 0.000308949 10
-17.5265 -2.96438 4.10377 0.000374985 10
-17.1649 -2.90322 4.66464 0.000133274 10
-9.83581 -1.69894 -2.67452 9.68141e-05 4
-11.4531 -1.9783 -2.68332 5.99407e-05 4
-13.1826 -2.27703 -2.60039 0.000394039 4
-17.5431 -3.03022 -2.18592 0.000517612 10
-34.703 -5.99425 -1.84564 3.39863e-05 10
-18.7598 -3.24037 0.997716 2.98649e-05 10
-17.3242 -2.99241 1.53812 0.000336923 10
-17.3059 -2.98924 2.15636 0.000331314 10
-17.3346 -2.9942 2.78618 0.000324016 10
-17.3278 -2.99303 3.41806 0.000315118 10
-17.5613 -3.03336 4.11438 0.000370447 10
-17.1461 -2.96164 4.66232 0.00013328 10
-9.85433 -1.73758 -2.68119 5.56658e-05 4
-11.4399 -2.01716 -2.68185 4.87866e-05 4
-13.2122 -2.32966 -2.60781 0.000331526 4
-16.0603 -2.83187 -2.58295 3.69428e-05 4
-17.5956 -3.10257 -2.19379 0.000511342 10
-34.7546 -6.12816 -1.84951 3.34473e-05 10
-18.7695 -3.30957 0.998843 2.98718e-05 10
-17.2289 -3.03791 1.53058 0.000343556 10
-17.2266 -3.03752 2.14779 0.000337846 10
-17.2437 -3.04053 2.77327 0.000330415 10
-17.2314 -3.03835 3.40111 0.000321355 10
-17.6107 -3.10524 4.12847 0.000365928 10
-17.1501 -3.02402 4.66625 0.000384951 10
-11.4242 -2.05554 -2.67984 3.3452e-05 4
-13.2329 -2.38097 -2.61352 0.000398911 4
-16.0584 -2.88936 -2.58425 4.28643e-05 4
-17.622 -3.1707 -2.19846 0.000505098 10
-34.8451 -6.26963 -1.85548 3.29123e-05 10
-18.7512 -3.37388 0.998492 2.98786e-05 10
-17.1796 -3.09109 1.52715 0.000436561 10
-17.1871 -3.09245 2.1442 0.00042942 10
-17.1812 -3.09139 2.76494 0.000420091 10
-17.1778 -3.09077 3.39264 0.000408687 10
-17.6348 -3.173 4.13669 0.000361428 10
-17.1841 -3.09191 4.67842 0.000380243 10
-9.82056 -1.80241 -2.67536 6.77617e-05 4
-11.438 -2.09927 -2.68479 9.33825e-05 4
-13.2655 -2.43468 -2.62163 0.00031048 4
-16.0523 -2.94616 -2.58491 5.05272e-05 4
-17.6685 -3.24278 -2.20566 0.00049888 10
-34.9268 -6.41026 -1.86101 3.23814e-05 10
-18.7309 -3.43775 0.998039 2.98853e-05 10
-17.2069 -3.15805 1.53055 0.000431234 10
-17.227 -3.16174 2.15053 0.000424174 10
-17.2088 -3.15841 2.77114 0.00041495 10
-17.2198 -3.16042 3.4031 0.000403676 10
-17.6777 -3.24447 4.14939 0.000356948 10
-17.2344 -3.1631 4.69508 0.000375555 10
-9.82408 -1.83853 -2.67805 0.000106478 4
-11.4346 -2.13993 -2.68572 4.18111e-05 4
-13.2858 -2.48637 -2.62733 0.000353752 4
-16.0369 -3.00123 -2.58409 4.84327e-05 4
-17.6935 -3.31124 -2.2102 0.00049269 10
-34.9802 -6.54637 -1.86506 3.18547e-05 10
-18.7148 -3.50239 0.997831 2.98919e-05 10
-17.6929 -3.31114 1.5748 0.00038963 10
-17.6979 -3.31207 2.21075 0.000383191 10
-17.7215 -3.31648 2.85553 0.000374781 10
-17.7238 -3.31692 3.50497 0.000364504 10
-17.709 -3.31415 4.15943 0.000352487 10
-17.7262 -3.31737 4.83219 0.00033888 10
-9.81479 -1.87227 -2.67729 8.22756e-05 4
-11.4185 -2.17819 -2.6837 6.68946e-05 4
-13.3216 -2.54122 -2.63614 0.000391409 4
-16.0315 -3.05817 -2.58493 4.3203e-05 4
-17.7349 -3.38312 -2.21684 0.000486527 10
-35.0646 -6.68894 -1.8708 3.13321e-05 10
-18.7113 -3.56938 0.998302 2.98985e-05 10
-17.7542 -3.38679 1.5813 0.000384759 10
-17.7324 -3.38263 2.21652 0.000378395 10
-17.7387 -3.38384 2.8602 0.000370082 10
-17.7397 -3.38402 3.51042 0.000359924 10
-17.7369 -3.3835 4.16874 0.000348047 10
-17.7667 -3.38919 4.84643 0.000334598 10
-9.81016 -1.9069 -2.67782 0.000169385 4
-11.4195 -2.21973 -2.68575 0.000115667 4
-13.3562 -2.59618 -2.64477 0.000327375 4
-16.0273 -3.11539 -2.58599 5.05159e-05 4
-17.7663 -3.45342 -2.22225 0.000480393 10
-35.1429 -6.83108 -1.87623 3.08138e-05 10
-18.6935 -3.63364 0.998019 2.9905e-05 10
-17.7956 -3.45912 1.58606 0.00037991 10
-17.7763 -3.45536 2.22351 0.00037362 10
-17.7907 -3.45817 2.87052 0.000365404 10
-17.7901 -3.45804 3.52276 0.000355365 10
-17.7942 -3.45885 4.18502 0.000343627 10
-17.7904 -3.45811 4.85615 0.000330337 10
-9.80664 -1.94176 -2.6787 7.01709e-05 4
-11.3982 -2.2569 -2.68257 8.63977e-05 4
-13.3629 -2.64592 -2.64791 0.00032853 4
-15.9917 -3.16644 -2.58201 3.62294e-05 4
-17.8122 -3.52692 -2.22953 0.000474288 10
-35.2255 -6.97483 -1.88193 3.02997e-05 10
-18.6925 -3.7012 0.998649 2.99113e-05 10
-17.8376 -3.53193 1.59088 0.000375085 10
-17.8293 -3.5303 2.23167 0.000368868 10
-17.8278 -3.53001 2.87847 0.000360749 10
-17.8372 -3.53185 3.53451 0.000350828 10
-17.8185 -3.52815 4.19358 0.000339229 10
-17.8421 -3.53283 4.8736 0.000326096 10
-9.796 -1.97522 -2.67766 0.000406493 4
-13.4009 -2.70209 -2.6573 0.000311612 4
-15.9905 -3.22424 -2.58361 4.49352e-05 4
-17.8508 -3.59936 -2.23592 0.000468211 10
-18.6686 -3.76424 0.998068 2.99176e-05 10
-17.8737 -3.60397 1.59522 0.000370282 10
-17.9547 -3.6203 2.90098 0.000223575 10
-17.8661 -3.60243 4.20772 0.000334851 10
-17.8572 -3.60065 4.88113 0.000321875 10
-9.78755 -2.00909 -2.67725 0.000162107 4
-13.4354 -2.75789 -2.66603 0.000302502 4
-15.9937 -3.28304 -2.58598 5.78196e-05 4
-17.8925 -3.67281 -2.24273 0.000462164 10
-35.1465 -7.21454 -1.88036 3.02296e-05 10
-35.1462 -7.21447 -0.626271 3.04317e-05 10
-35.1577 -7.21683 0.626474 3.04172e-05 10
-18.6644 -3.83126 0.998557 2.99238e-05 10
-17.8887 -3.67202 1.59769 0.000365502 10
-18.0032 -3.69552 2.91088 0.000220676 10
-17.906 -3.67557 4.22012 0.000330496 10
-17.913 -3.67701 4.89986 0.000317676 10
-11.3845 -2.37834 -2.68506 4.59798e-05 4
-13.4367 -2.80707 -2.66821 0.000331717 4
-15.966 -3.33548 -2.58337 4.42324e-05 4
-17.9456 -3.74902 -2.25101 0.000456147 10
-35.2248 -7.35884 -1.88591 2.97139e-05 10
-35.2195 -7.35773 -0.628031 2.99128e-05 10
-35.2192 -7.35767 0.628025 2.98985e-05 10
-18.6334 -3.89272 0.997619 2.993e-05 10
-17.9453 -3.74896 1.6039 0.000360747 10
-18.0319 -3.76705 2.91762 0.000217792 10
-17.9516 -3.75028 4.23393 0.000326163 10
-17.958 -3.75162 4.91572 0.000313498 10
-9.76925 -2.07652 -2.67614 0.000171773 4
-11.3623 -2.41512 -2.68179 0.000111461 4
-13.4867 -2.86668 -2.68011 0.000327607 4
-15.9474 -3.38973 -2.58225 5.18911e-05 4
-17.9851 -3.82284 -2.25762 0.000450161 10
-35.2882 -7.50074 -0.629719 2.93985e-05 10
-35.3043 -7.50415 0.630005 2.93843e-05 10
-18.6213 -3.95807 0.997702 2.9936e-05 10
-17.9846 -3.82275 1.6086 0.000356015 10
-17.982 -3.82219 4.24421 0.000321851 10
-17.975 -3.82071 4.92399 0.000309342 10
-9.77891 -2.11427 -2.68079 0.000152413 4
-11.36 -2.45611 -2.68326 4.31895e-05 4
-13.4919 -2.91704 -2.68315 0.00036899 4
-15.9575 -3.45013 -2.58582 3.55204e-05 4
-18.023 -3.89672 -2.26408 0.000444206 10
-18.4721 -3.9938 -1.65344 0.000353782 10
-18.4832 -3.9962 -0.991044 0.000357485 10
-18.4789 -3.99527 -0.330003 0.000359242 10
-18.4763 -3.99471 0.329956 0.00035903 10
-18.4925 -3.99823 0.991546 0.000356851 10
-18.0206 -3.89618 1.61302 0.000351308 10
-18.027 -3.89758 4.25804 0.000317563 10
-18.0213 -3.89634 4.94036 0.000305208 10
-9.75049 -2.14378 -2.67504 0.000133054 4
-11.3625 -2.49822 -2.68591 6.4085e-05 4
-13.5209 -2.97277 -2.69097 0.000281669 4
-15.9344 -3.50341 -2.58404 4.77056e-05 4
-18.0574 -3.97018 -2.27013 0.000438283 10
-18.372 -4.03936 -1.64574 0.000360323 10
-18.3847 -4.04213 -0.986513 0.000364091 10
-18.3898 -4.04325 -0.328662 0.000365878 10
-18.4 -4.0455 0.328844 0.000365663 10
-18.3858 -4.04237 0.986572 0.000363448 10
-18.0583 -3.97038 1.61763 0.000346626 10
-18.1431 -3.98902 3.6109 0.00020343 10
-18.0586 -3.97043 4.26873 0.000313298 10
-18.0761 -3.97429 4.95916 0.000301096 10
-9.74128 -2.17743 -2.67458 9.19252e-05 4
-11.349 -2.53681 -2.68479 0.00013513 4
-13.5446 -3.02759 -2.69778 0.000300276 4
-15.9201 -3.55857 -2.58373 4.66579e-05 4
-18.0966 -4.04508 -2.27682 0.000432392 10
-18.291 -4.08852 -1.63974 0.000366929 10
-18.2912 -4.08856 -0.982255 0.000370761 10
-18.3039 -4.09141 -0.32738 0.000372579 10
-18.3143 -4.09373 0.327566 0.000372362 10
-18.3117 -4.09315 0.983358 0.00037011 10
-18.1122 -4.04855 1.62371 0.000341969 10
-18.1956 -4.0672 2.28927 0.000211091 10
-18.1791 -4.06351 2.95034 0.000206404 10
-18.2034 -4.06895 3.62571 0.000200679 10
-18.0987 -4.04554 4.28153 0.000309056 10
-18.1118 -4.04846 4.9728 0.000297007 10
-9.74679 -2.21442 -2.6782 0.000191101 4
-13.5932 -3.0883 -2.70958 0.000313681 4
-15.9128 -3.6153 -2.58457 4.2825e-05 4
-18.1475 -4.12301 -2.28502 0.000426533 10
-18.2104 -4.1373 -1.6338 0.000373599 10
-18.216 -4.13858 -0.978991 0.000377496 10
-18.222 -4.13993 -0.326171 0.000379346 10
-18.2014 -4.13526 0.325803 0.000379126 10
-18.2193 -4.13932 0.979166 0.000376837 10
-18.1502 -4.12363 1.6284 0.000337338 10
-18.1887 -4.13238 2.29021 0.000183842 10
-18.1718 -4.12854 2.95148 0.000179721 10
-18.194 -4.13357 3.62668 0.000174697 10
-18.1539 -4.12447 4.29797 0.000304838 10
-18.1374 -4.12072 4.98375 0.000292941 10
-9.72681 -2.24561 -2.67485 0.000171743 4
-11.3198 -2.61338 -2.68213 6.82561e-05 4
-13.6202 -3.14446 -2.71713 0.000378919 4
-15.8998 -3.67076 -2.58453 4.14297e-05 4
-18.1618 -4.19299 -2.28865 0.000420707 10
-18.1884 -4.19911 -1.63313 0.00042754 10
-18.164 -4.19348 -0.976974 0.000432088 10
-18.1856 -4.19847 -0.32578 0.000434295 10
-18.1946 -4.20054 0.325941 0.000434133 10
-18.1934 -4.20027 0.978554 0.000431603 10
-18.1928 -4.20014 1.63353 0.000332734 10
-18.1807 -4.19733 2.29102 0.000327167 10
-18.1888 -4.19922 2.95661 0.000319899 10
-18.1856 -4.19848 3.62791 0.000311021 10
-18.1808 -4.19735 4.30777 0.000300644 10
-18.1937 -4.20035 5.00322 0.000288899 10
-9.73417 -2.28313 -2.67905 5.80523e-05 4
-11.3275 -2.65684 -2.68613 7.24323e-05 4
-13.6463 -3.20071 -2.72456 0.000307937 4
-15.8866 -3.72616 -2.58447 4.87377e-05 4
-18.2048 -4.2699 -2.29593 0.000414915 10
-18.2133 -4.27189 -1.6367 0.00042166 10
-18.2171 -4.27278 -0.980626 0.00042615 10
-18.2247 -4.27457 -0.326747 0.000428329 10
-18.2321 -4.27631 0.32688 0.000428168 10
-18.2216 -4.27383 0.980869 0.00042567 10
-18.2285 -4.27545 1.63806 0.000328155 10
-18.2282 -4.27538 2.29888 0.000322659 10
-18.234 -4.27675 2.96636 0.000315484 10
-18.2284 -4.27544 3.63941 0.000306719 10
-18.2372 -4.27748 4.32464 0.000296475 10
-18.2383 -4.27774 5.01955 0.00028488 10
-9.71558 -2.31458 -2.67614 0.000152382 4
-11.3032 -2.6928 -2.68258 3.90005e-05 4
-13.6746 -3.25774 -2.73246 0.000274427 4
-15.8746 -3.78186 -2.58465 5.2912e-05 4
-18.2474 -4.34713 -2.3032 0.000409156 10
-18.2481 -4.3473 -1.64118 0.000415814 10
-18.2585 -4.34979 -0.983668 0.000420246 10
-18.2653 -4.3514 -0.327744 0.000422396 10
-18.2506 -4.34791 0.327481 0.000422237 10
-18.2734 -4.35333 0.984469 0.000419771 10
-18.2815 -4.35526 1.64418 0.000323603 10
-18.2786 -4.35456 2.30713 0.000318178 10
-18.2644 -4.3512 2.97376 0.000311094 10
-18.2603 -4.3502 3.64877 0.000302442 10
-18.2743 -4.35354 4.33702 0.00029233 10
-18.273 -4.35323 5.03325 0.000280885 10
-9.72702 -2.35321 -2.68154 9.91663e-05 4
-11.3084 -2.73578 -2.68605 7.52124e-05 4
-13.6834 -3.31036 -2.73651 0.000319224 4
-15.8598 -3.83689 -2.58441 4.9776e-05 4
-18.3077 -4.42909 -2.31275 0.000403432 10
-18.3135 -4.43049 -1.64844 0.000410003 10
-18.3099 -4.42963 -0.987263 0.000414377 10
-18.2956 -4.42616 -0.328563 0.000416499 10
-18.3057 -4.4286 0.328744 0.000416341 10
-18.301 -4.42748 0.986785 0.000413906 10
-18.3072 -4.42898 1.64788 0.000319078 10
-18.3171 -4.43138 2.31394 0.000313723 10
-18.3103 -4.42973 2.98373 0.000306731 10
-18.3167 -4.43128 3.66312 0.000298191 10
-18.3288 -4.43421 4.35362 0.00028821 10
-18.3219 -4.43254 5.05098 0.000276915 10
-9.70449 -2.38365 -2.6776 0.000101582 4
-13.7292 -3.37223 -2.74802 0.000261711 4
-15.8413 -3.89101 -2.5836 4.4204e-05 4
-18.3471 -4.50647 -2.31969 0.000397742 10
-18.3303 -4.50234 -1.65136 0.000404227 10
-18.3541 -4.5082 -0.990489 0.000408544 10
-18.3493 -4.50703 -0.329809 0.000410638 10
-18.3398 -4.5047 0.329638 0.000410481 10
-18.3386 -4.5044 0.989653 0.000408078 10
-18.3605 -4.50976 1.65408 0.00031458 10
-18.3568 -4.50885 2.32092 0.000309295 10
-18.3568 -4.50886 2.99385 0.000302394 10
-18.3614 -4.50999 3.67518 0.000293965 10
-18.3548 -4.50837 4.3635 0.000284115 10
-18.3589 -4.50939 5.06548 0.000272968 10
-9.6928 -2.41669 -2.67669 0.000125764 4
-11.2783 -2.812 -2.68352 7.52069e-05 4
-13.7454 -3.42711 -2.75363 0.000238543 4
-15.8197 -3.9443 -2.58231 5.74271e-05 4
-18.3834 -4.5835 -2.3263 0.000392088 10
-18.3934 -4.58599 -1.65848 0.000398486 10
-18.3732 -4.58097 -0.992379 0.000402746 10
-18.3809 -4.58288 -0.330662 0.000404812 10
-18.3767 -4.58183 0.330586 0.000404657 10
-18.4054 -4.58898 0.994115 0.000402285 10
-18.402 -4.58813 1.65925 0.000310111 10
-18.4047 -4.58881 2.329 0.000304894 10
-18.4041 -4.58865 3.00415 0.000298084 10
-18.408 -4.58963 3.68769 0.000289766 10
-18.3981 -4.58717 4.37758 0.000280047 10
-18.3931 -4.5859 5.07928 0.000269047 10
-9.70011 -2.4545 -2.68106 0.000106413 4
-11.272 -2.85224 -2.68436 5.29214e-05 4
-13.7785 -3.4865 -2.76268 0.000337787 4
-15.8112 -4.00086 -2.58318 4.80272e-05 4
-18.4212 -4.66129 -2.33313 0.000386469 10
-24.3162 -6.15296 0.437819 0.000129448 10
-18.4241 -4.66201 1.6627 0.000305669 10
-18.4438 -4.66701 2.33599 0.000300521 10
-18.4324 -4.66411 3.01142 0.000293801 10
-18.433 -4.66425 3.69593 0.000285594 10
-18.4384 -4.66563 4.391 0.000276003 10
-18.4386 -4.66568 5.09633 0.000265151 10
-11.2497 -2.88842 -2.68143 2.9245e-05 4
-13.7801 -3.53813 -2.76547 0.000106883 1
-15.7928 -4.0549 -2.58247 4.66325e-05 4
-18.4591 -4.73948 -2.34 0.000380886 10
-24.226 -6.22017 0.436582 0.000131921 10
-18.486 -4.74638 1.00023 0.000304718 10
-18.4774 -4.74419 1.669 0.000301256 10
-18.3999 -4.72428 2.3325 0.000277891 10
-18.4038 -4.72528 3.00942 0.000271628 10
-18.4062 -4.72591 3.69386 0.000263992 10
-18.4889 -4.74715 4.40696 0.000271987 10
-18.4932 -4.74824 5.11596 0.00026128 10
-9.6657 -2.51773 -2.67634 7.01316e-05 4
-11.2337 -2.92615 -2.68004 7.51989e-05 4
-13.7862 -3.59103 -2.76918 0.000106879 1
-15.7876 -4.11236 -2.58394 4.94137e-05 4
-18.5097 -4.82141 -2.34854 0.000375339 10
-24.0918 -6.27544 0.434556 0.000134421 10
-18.5073 -4.8208 1.00229 0.000300287 10
-18.5263 -4.82574 1.67492 0.000296871 10
-18.309 -4.76913 2.32307 0.000282662 10
-18.3148 -4.77064 2.99757 0.0002763 10
-18.3246 -4.7732 3.6808 0.000268543 10
-18.5333 -4.82756 4.42152 0.000267996 10
-18.5379 -4.82875 5.13295 0.000257435 10
-9.65552 -2.5511 -2.67597 5.32018e-05 4
-11.2279 -2.96653 -2.68111 8.07664e-05 4
-13.7797 -3.64075 -2.77042 0.000106874 1
-15.784 -4.1703 -2.58572 5.0107e-05 4
-18.5668 -4.90555 -2.35794 0.000369829 10
-23.9911 -6.33872 0.433136 0.000136946 10
-18.5707 -4.90659 1.00665 0.000295885 10
-18.5638 -4.90476 1.67985 0.000292515 10
-18.2394 -4.81905 2.31636 0.000287474 10
-18.2253 -4.81533 2.98566 0.000281012 10
-18.2453 -4.82062 3.66823 0.000273134 10
-18.581 -4.90932 4.43698 0.000264033 10
-18.5699 -4.90638 5.14653 0.000253616 10
-9.66037 -2.58849 -2.6798 0.000106401 4
-11.2251 -3.00775 -2.68293 6.82314e-05 4
-13.7672 -3.68892 -2.77048 0.000106869 1
-15.7699 -4.22554 -2.58582 4.62769e-05 4
-18.592 -4.98172 -2.36334 0.000364356 10
-18.8239 -5.04386 -1.70498 4.1316e-05 10
-23.8813 -6.39896 0.431554 0.000139497 10
-18.6056 -4.98536 1.00948 0.000291513 10
-18.6027 -4.98458 1.68494 0.000288188 10
-18.1545 -4.86447 2.30772 0.000292327 10
-18.1419 -4.8611 2.97475 0.000285766 10
-18.142 -4.86113 3.65085 0.000277764 10
-18.614 -4.9876 4.44898 0.000260096 10
-18.6125 -4.9872 5.16313 0.000249823 10
-9.63383 -2.61745 -2.67496 0.000174105 4
-11.2232 -3.04928 -2.68502 3.06335e-05 4
-13.7497 -3.73571 -2.76956 0.000106865 1
-15.7535 -4.28013 -2.58556 4.90579e-05 4
-18.6441 -5.06549 -2.3722 0.00035892 10
-18.8046 -5.10909 -1.70483 4.13118e-05 10
-23.7599 -6.45542 0.429765 0.000142073 10
-18.6571 -5.06902 1.01322 0.00028717 10
-18.6407 -5.06457 1.68997 0.000283891 10
-18.165 -4.93531 2.31123 0.000305955 10
-18.1811 -4.93968 2.98399 0.000299134 10
-18.1685 -4.93626 3.65962 0.000290803 10
-18.6673 -5.07178 4.46591 0.000256187 10
-18.6645 -5.07103 5.18244 0.000246056 10
-9.62884 -2.65222 -2.67612 4.59432e-05 4
-11.2146 -3.08903 -2.68553 5.56955e-05 4
-13.738 -3.78406 -2.76984 0.000106861 1
-15.7382 -4.33501 -2.58551 4.2445e-05 4
-18.679 -5.14506 -2.37891 0.000353522 10
-18.7933 -5.17654 -1.70543 4.13077e-05 10
-23.6652 -6.51849 0.428461 0.000144674 10
-18.6971 -5.15002 1.01636 0.000282858 10
-18.6986 -5.15045 1.69684 0.000279624 10
-18.3246 -5.04744 3.6946 7.65783e-05 10
-18.7002 -5.15089 4.47806 0.000252305 10
-18.6956 -5.14963 5.19604 0.000242316 10
-9.64145 -2.69194 -2.68223 0.00013299 4
-11.1903 -3.12438 -2.68229 0.000176828 4
-13.7145 -3.82915 -2.76778 0.000106857 1
-15.7259 -4.39075 -2.586 5.00966e-05 4
-18.7397 -5.23223 -2.38896 0.000348162 10
-18.7644 -5.23912 -1.70446 4.13036e-05 10
-23.6347 -6.59892 -1.28601 0.000144312 10
-23.6446 -6.6017 -0.428503 0.000145098 10
-23.5499 -6.57524 0.426786 0.000147301 10
-18.746 -5.23399 1.02001 0.000278576 10
-18.7447 -5.23361 1.70267 0.000275387 10
-18.8332 -5.25833 2.40087 0.000169881 10
-18.8349 -5.25881 3.09725 0.000166045 10
-18.3096 -5.11214 3.69515 7.65815e-05 10
-18.7374 -5.23158 4.49132 0.000248451 10
-18.7534 -5.23606 5.21716 0.000238603 10
-9.61966 -2.72209 -2.67879 0.000130569 4
-11.178 -3.16305 -2.68197 4.45536e-05 4
-13.6898 -3.87383 -2.76552 0.000106852 1
-15.6898 -4.43976 -2.58259 4.31366e-05 4
-18.7873 -5.31626 -2.39737 0.000342841 10
-18.7797 -5.31411 -1.70752 0.000348488 10
-23.4439 -6.63397 0.425283 0.000149952 10
-18.7895 -5.31689 1.02338 0.000274324 10
-18.7935 -5.31802 1.70878 0.00027118 10
-18.3098 -5.18114 3.69881 0.000277826 10
-18.7888 -5.31669 4.50805 0.000244625 10
-18.7894 -5.31687 5.23229 0.000234917 10
-9.59945 -2.7526 -2.67582 0.00011364 4
-11.1706 -3.20311 -2.68286 5.15136e-05 4
-13.7009 -3.92867 -2.77051 0.000106848 1
-15.6779 -4.49557 -2.58321 3.37423e-05 4
-18.8107 -5.39387 -2.40274 0.000337558 10
-18.8259 -5.39824 -1.71343 0.000343125 10
-23.3408 -6.69288 0.423834 0.000152629 10
-18.8319 -5.39997 1.02671 0.000270104 10
-18.8389 -5.40196 1.71461 0.000267004 10
-18.3533 -5.26272 3.71128 0.000273562 10
-18.8513 -5.40554 4.52757 0.000240827 10
-18.8299 -5.39939 5.24879 0.000231259 10
-9.58916 -2.78591 -2.67565 0.000203097 4
-11.1743 -3.24644 -2.68647 5.29042e-05 4
-13.6662 -3.97039 -2.76628 0.000106844 1
-15.6871 -4.55752 -2.58733 4.24367e-05 4
-18.857 -5.47847 -2.41109 0.000332315 10
-18.8683 -5.48174 -1.71902 0.000337802 10
-23.2459 -6.75356 0.422536 0.00015533 10
-18.8684 -5.48178 1.02974 0.000265914 10
-18.8768 -5.48422 1.71979 0.000262859 10
-18.3858 -5.34155 3.7216 0.00026933 10
-18.8758 -5.48394 4.53802 0.000237058 10
-18.8738 -5.48334 5.26633 0.000227628 10
-9.59642 -2.82438 -2.68041 0.000157154 4
-11.1512 -3.28198 -2.68365 9.60602e-05 4
-18.9024 -5.56328 -2.41936 0.000327111 10
-18.9271 -5.57055 -1.72614 0.000332517 10
-19.077 -5.61467 -1.04219 0.000213687 10
-19.0697 -5.61252 -0.34698 0.000214765 10
-19.0846 -5.6169 0.347251 0.000214646 10
-18.9327 -5.5722 1.0343 0.000261756 10
-18.9136 -5.56658 1.72491 0.000258745 10
-18.4415 -5.42762 3.73669 0.00026513 10
-18.9192 -5.56822 4.55309 0.000233318 10
-18.9319 -5.57196 5.28793 0.000224025 10
-9.59364 -2.85999 -2.6824 0.000106379 4
-11.1502 -3.32403 -2.68619 7.65676e-05 4
-15.6505 -4.66562 -2.5866 5.18237e-05 4
-18.9508 -5.64948 -2.42806 0.000321947 10
-18.954 -5.65042 -1.73038 0.000327274 10
-18.9789 -5.65786 -1.0379 0.000217151 10
-18.9958 -5.66288 -0.345993 0.000218245 10
-19.0035 -5.66517 0.346132 0.000218125 10
-18.9827 -5.659 1.03811 0.00025763 10
-18.9622 -5.65288 1.73113 0.000254662 10
-19.0615 -5.68247 2.44224 0.000157059 10
-19.0598 -5.68198 3.15007 0.000153491 10
-18.4846 -5.51051 3.74931 0.000260961 10
-18.9736 -5.65627 4.5709 0.000229607 10
-18.9894 -5.66099 5.30949 0.00022045 10
-9.56437 -2.88765 -2.67702 0.000152312 4
-11.1386 -3.36294 -2.68619 0.000101623 4
-13.4116 -4.04921 -2.72318 3.25562e-05 4
-15.6369 -4.72106 -2.58706 3.65184e-05 4
-18.9983 -5.73593 -2.4367 0.000316823 10
-19.0185 -5.74202 -1.73809 0.000322071 10
-18.9984 -5.73595 -1.04005 0.000215043 10
-19.0257 -5.74418 -0.3469 0.000216159 10
-19.016 -5.74127 0.346724 0.000216072 10
-19.0184 -5.74201 1.04115 0.000253536 10
-19.0295 -5.74534 1.73909 0.000250611 10
-19.0047 -5.73786 2.43752 0.000157248 10
-19.0241 -5.7437 3.14745 0.000153661 10
-18.5328 -5.59537 3.76301 0.000256824 10
-19.0221 -5.74311 4.58739 0.000225924 10
-19.0252 -5.74404 5.32506 0.000216904 10
-9.54863 -2.91931 -2.67545 0.000101539 4
-11.1151 -3.39824 -2.68338 3.06253e-05 4
-15.6182 -4.77495 -2.5867 5.11236e-05 4
-19.0555 -5.82584 -2.44662 0.000311739 10
-19.0471 -5.82329 -1.74255 0.000316909 10
-19.1925 -5.86774 -1.0518 0.000209327 10
-19.17 -5.86086 -0.349903 0.000210387 10
-19.1882 -5.86642 0.350235 0.000210271 10
-19.0521 -5.82482 1.0441 0.000249474 10
-19.0639 -5.82841 1.74408 0.000246592 10
-18.9461 -5.79239 2.43258 0.000250779 10
-18.9526 -5.79438 3.13895 0.000245053 10
-18.5701 -5.67745 3.7746 0.00025272 10
-19.0765 -5.83228 4.6054 0.000222271 10
-19.0788 -5.83297 5.34573 0.000213386 10
-9.54867 -2.95581 -2.67834 0.000152305 4
-11.0984 -3.43552 -2.68222 4.31528e-05 4
-13.2107 -4.08939 -2.68811 3.47645e-05 4
-15.5961 -4.8278 -2.58582 0.000171995 4
-19.1035 -5.91351 -2.45542 0.000306696 10
-19.0926 -5.91014 -1.74858 0.000311788 10
-19.1008 -5.91267 -1.04789 0.000208182 10
-19.0986 -5.912 -0.348974 0.000209265 10
-19.108 -5.91492 0.349146 0.000209179 10
-19.1225 -5.9194 1.04908 0.000245444 10
-19.1076 -5.9148 1.74996 0.000242605 10
-18.8664 -5.84012 2.42495 0.000254765 10
-18.8744 -5.84259 3.12936 0.000248955 10
-18.6317 -5.76748 3.79119 0.000248648 10
-19.1263 -5.92059 4.62239 0.000218648 10
-19.1065 -5.91445 5.35925 0.000209896 10
-9.55132 -2.9932 -2.682 0.000135379 4
-11.0955 -3.47712 -2.68444 5.84635e-05 4
-13.2182 -4.14234 -2.69258 0.000128412 4
-15.6174 -4.89418 -2.59216 0.000208511 4
-19.1376 -5.99736 -2.46248 0.000301694 10
-19.1488 -6.00087 -1.75564 0.000306709 10
-19.3563 -6.06589 -1.06307 0.000201909 10
-19.3562 -6.06585 -0.354065 0.000202937 10
-19.3819 -6.07393 0.354536 0.000202825 10
-19.1578 -6.00369 1.05216 0.000241447 10
-19.1609 -6.00465 1.75675 0.00023865 10
-18.7844 -5.88667 2.41704 0.000258782 10
-18.7898 -5.88836 3.11872 0.000252887 10
-18.6743 -5.85216 3.80398 0.000244609 10
-19.1684 -6.00702 4.6376 0.000215055 10
-19.1752 -6.00913 5.38436 0.000206435 10
-9.51792 -3.01926 -2.67556 3.38441e-05 4
-11.0824 -3.51554 -2.68422 4.45425e-05 4
-13.1826 -4.18177 -2.68828 0.000140468 4
-15.648 -4.96385 -2.60012 0.000215964 4
-19.2055 -6.09233 -2.47394 0.000296733 10
-19.2106 -6.09398 -1.76325 0.000301671 10
-19.2805 -6.11613 -1.06007 0.000205091 10
-19.2732 -6.11382 -0.352936 0.000206135 10
-19.2728 -6.1137 0.352928 0.000206022 10
