VERSION 0.7
FIELDS x y z intensity label
SIZE 4 4 4 4 4
TYPE F F F F F
COUNT 1 1 1 1 1
WIDTH 1169
HEIGHT 1
VIEWPOINT 16.0633 54.9893 2.72785 0.999994 -4.82617e-05 -3.4411e-05 -0.00352537
POINTS 1169
DATA ascii
13.315 -14.9971 -2.46245 0.000326024 10
13.3116 -14.9932 -1.75413 0.000331574 10
22.1736 -24.9747 -1.7503 3.644e-05 10
13.312 -14.9937 1.0508 0.000261431 10
13.3153 -14.9974 1.75462 0.000258505 10
12.9971 -14.639 2.40364 0.000277181 10
12.9993 -14.6415 3.10108 0.000271024 10
13.0003 -14.6426 3.80615 0.000263479 10
13.3216 -15.0045 4.63236 0.000233335 10
13.3166 -14.9989 5.37437 0.000224083 10
6.68863 -7.48083 -2.68886 0.000866553 4
7.5121 -8.40182 -2.60198 0.000564628 4
8.71705 -9.74949 -2.54215 0.00011964 4
11.4766 -12.8359 -2.72712 4.86422e-05 1
13.3989 -14.9858 -2.46826 0.000321447 10
13.4041 -14.9917 -1.75941 0.000326925 10
22.1732 -24.7993 -1.74342 3.72688e-05 10
22.1856 -24.8132 -0.580993 3.75257e-05 10
22.1808 -24.8079 0.580868 3.75249e-05 10
13.3994 -14.9865 1.05356 0.000257768 10
13.4095 -14.9977 1.76012 0.000254881 10
13.0921 -14.6428 2.41175 0.000273321 10
13.0876 -14.6377 3.10993 0.000267244 10
13.0872 -14.6372 3.8166 0.000259797 10
13.4059 -14.9937 4.64343 0.000230038 10
13.4078 -14.9958 5.39 0.000220907 10
6.74108 -7.48673 -2.69942 0.000751151 4
7.56085 -8.39718 -2.6087 0.00058893 4
8.73299 -9.69897 -2.53691 0.000117058 4
11.5358 -12.8119 -2.73056 4.86422e-05 1
13.4941 -14.9867 -2.47615 0.000316898 10
13.5077 -15.0018 -1.76613 0.000322304 10
22.1772 -24.6303 -1.73697 3.81087e-05 10
22.1879 -24.6422 -0.578799 3.8371e-05 10
22.1764 -24.6294 0.578498 3.83702e-05 10
13.4938 -14.9864 1.05687 0.000254128 10
13.492 -14.9844 1.76408 0.000251278 10
13.1859 -14.6444 3.83045 0.000256137 10
13.4977 -14.9907 4.65708 0.000226761 10
13.498 -14.991 5.40518 0.00021775 10
6.7964 -7.49539 -2.71108 0.000820324 4
7.61192 -8.39478 -2.61619 0.000662053 4
8.77382 -9.67617 -2.53894 9.72612e-05 4
11.5663 -12.7558 -2.72721 4.86423e-05 1
13.6035 -15.0026 -2.4866 0.000312377 10
13.6035 -15.0025 -1.77179 0.000317711 10
22.1716 -24.4519 -1.72984 3.89599e-05 10
22.1809 -24.4621 -0.576383 3.92275e-05 10
22.1888 -24.4709 0.57659 3.92268e-05 10
13.5962 -14.9946 1.06078 0.00025051 10
13.605 -15.0042 1.77199 0.000247698 10
13.6637 -15.069 2.4976 0.000152968 10
13.6659 -15.0714 3.22227 0.000149526 10
13.2731 -14.6382 3.84093 0.000252499 10
13.6022 -15.0011 4.67503 0.000223505 10
13.5935 -14.9915 5.42243 0.000214613 10
6.83514 -7.48544 -2.7161 0.00101967 4
7.64929 -8.37704 -2.61897 0.000591764 4
8.80167 -9.63906 -2.53725 0.000127386 4
11.614 -12.7189 -2.72796 4.86424e-05 1
13.6992 -15.0025 -2.4945 0.000307884 10
13.6805 -14.982 -1.775 0.000313148 10
15.813 -17.3175 -1.22901 0.000121978 10
15.8101 -17.3142 -0.409261 0.000122702 10
15.8073 -17.3112 0.409189 0.000122699 10
13.6978 -15.0011 1.06462 0.000246914 10
13.6809 -14.9825 1.77506 0.00024414 10
13.3619 -14.6331 3.85181 0.000248883 10
13.6831 -14.9849 4.68484 0.000220269 10
13.6997 -15.0031 5.44388 0.000211497 10
6.87376 -7.47516 -2.72106 0.000782274 4
7.71151 -8.3862 -2.63023 0.000668014 4
8.8348 -9.60778 -2.53712 0.00013169 4
11.6714 -12.6925 -2.73102 4.86425e-05 1
13.781 -14.9867 -2.49986 0.00030342 10
13.7839 -14.9899 -1.78162 0.000308613 10
15.9207 -17.3136 -1.23267 0.000120118 10
15.9183 -17.3111 -0.410497 0.000120832 10
15.925 -17.3183 0.410668 0.000120829 10
13.7916 -14.9983 1.06783 0.000243342 10
13.7946 -15.0015 1.783 0.000240604 10
13.4536 -14.6307 3.8635 0.000245291 10
13.7769 -14.9822 4.699 0.000217055 10
13.7886 -14.995 5.45839 0.000208401 10
6.91741 -7.47012 -2.728 0.000382099 1
7.74767 -8.36672 -2.63259 0.00052221 4
8.87299 -9.58196 -2.53846 0.000105869 4
11.7143 -12.6503 -2.73073 4.86425e-05 1
13.8866 -14.9962 -2.50951 0.000298985 10
13.8735 -14.982 -1.78643 0.000304108 10
13.9899 -15.1077 -1.07909 0.000180179 10
13.9925 -15.1105 -0.359472 0.000181198 10
13.9997 -15.1183 0.359655 0.000181195 10
13.8797 -14.9887 1.07059 0.000239792 10
13.8781 -14.987 1.78702 0.000237092 10
13.887 -14.9966 3.97291 0.000221396 10
13.8871 -14.9967 4.71873 0.000213861 10
13.8906 -15.0005 5.478 0.000205325 10
6.95111 -7.45415 -2.73101 0.0003821 1
7.80501 -8.36985 -2.64213 0.000682748 4
8.90968 -9.55447 -2.5394 9.72615e-05 4
11.7502 -12.6006 -2.72882 4.86426e-05 1
13.9702 -14.9812 -2.51514 0.00029458 10
13.9768 -14.9883 -1.79298 0.000299633 10
13.9918 -15.0044 -1.07519 0.000183391 10
13.9932 -15.0059 -0.358143 0.000184428 10
13.9841 -14.9961 0.357909 0.000184425 10
13.9857 -14.9979 1.07473 0.000236267 10
13.9723 -14.9835 1.7924 0.000233603 10
13.9825 -14.9944 3.98524 0.000218121 10
13.9898 -15.0022 4.73577 0.000210689 10
13.9879 -15.0002 5.49567 0.00020227 10
6.97653 -7.42925 -2.73079 0.0003821 1
7.85045 -8.35988 -2.64762 0.000497338 4
8.93437 -9.51414 -2.53696 9.81224e-05 4
11.8005 -12.5663 -2.7303 4.86427e-05 1
14.0745 -14.9878 -2.52449 0.000290204 10
14.0696 -14.9826 -1.79817 0.000295188 10
14.0715 -14.9846 -1.07729 0.000197197 10
14.0826 -14.9964 -0.359087 0.000198311 10
14.071 -14.9841 0.358792 0.000198306 10
14.0714 -14.9846 1.07729 0.000232764 10
14.0838 -14.9977 1.79998 0.000230137 10
14.143 -15.0608 2.53677 0.000142093 10
14.1384 -15.0558 3.27121 0.000138878 10
14.0833 -14.9972 3.99901 0.000214868 10
14.0742 -14.9875 4.74663 0.000207538 10
14.07 -14.983 5.50735 0.000199236 10
7.0007 -7.40303 -2.73012 0.0003821 1
7.89444 -8.34814 -2.65261 0.000280327 4
8.98057 -9.49669 -2.54065 0.00010759 4
11.8312 -12.5111 -2.72727 4.86427e-05 1
14.1846 -14.9998 -2.53483 0.000285858 10
14.1654 -14.9795 -1.80372 0.000290773 10
14.2577 -15.0771 -1.08751 0.000177054 10
14.2567 -15.0761 -0.362185 0.000178058 10
14.2681 -15.0881 0.362473 0.000178055 10
14.1809 -14.9958 1.08165 0.000229286 10
14.1754 -14.9901 1.80499 0.000226695 10
14.1709 -14.9853 2.53239 0.000207914 10
14.1755 -14.9901 3.26766 0.000203213 10
14.1855 -15.0007 4.01313 0.000211638 10
14.1721 -14.9866 4.76198 0.00020441 10
14.1737 -14.9883 5.52744 0.000196223 10
7.01346 -7.36486 -2.72506 0.0003821 1
7.92316 -8.32014 -2.65248 0.000198565 4
9.00081 -9.45179 -2.53702 0.000120501 4
11.8924 -12.4882 -2.73132 4.86428e-05 1
14.2721 -14.9872 -2.5411 0.000281543 10
14.265 -14.9797 -1.80973 0.000286389 10
14.2797 -14.9951 -1.08519 0.000191324 10
14.2654 -14.9801 -0.361074 0.000192407 10
14.2742 -14.9894 0.361296 0.000192403 10
14.276 -14.9913 1.08491 0.000225832 10
14.2812 -14.9968 1.81179 0.000223277 10
14.1729 -14.883 2.52343 0.000211554 10
14.1776 -14.8879 3.25615 0.000206776 10
14.2775 -14.9929 4.02435 0.00020843 10
14.2831 -14.9987 4.78164 0.000201303 10
14.2682 -14.9831 5.54387 0.000193232 10
7.0563 -7.35824 -2.7317 0.0003821 1
7.95507 -8.29548 -2.65346 0.000186885 4
9.04236 -9.42929 -2.53944 8.60726e-05 4
11.9235 -12.4337 -2.72848 4.86429e-05 1
14.3673 -14.9821 -2.54873 0.000277257 10
14.3752 -14.9904 -1.81707 0.000282036 10
14.5395 -15.1617 -1.1009 0.000171041 10
14.5283 -15.15 -0.366388 0.000172015 10
14.5278 -15.1495 0.366375 0.000172012 10
14.3758 -14.9909 1.08851 0.000222402 10
14.3691 -14.984 1.81629 0.000219883 10
14.1653 -14.7714 2.51289 0.000215227 10
14.1737 -14.7802 3.2434 0.000210372 10
14.3732 -14.9882 4.03654 0.000205245 10
14.3688 -14.9837 4.7928 0.000198219 10
14.3714 -14.9864 5.56359 0.000190262 10
7.08023 -7.3318 -2.73104 0.000382101 1
7.97065 -8.25385 -2.64903 0.000270108 4
9.07503 -9.39747 -2.53939 0.00011878 4
11.9724 -12.3978 -2.72976 4.8643e-05 1
14.4707 -14.9848 -2.55777 0.000273004 10
14.4715 -14.9856 -1.82261 0.000277714 10
14.5319 -15.0483 -1.09635 0.000174005 10
14.5426 -15.0593 -0.36542 0.000174995 10
14.5415 -15.0582 0.365392 0.000174992 10
14.4658 -14.9798 1.09136 0.000218997 10
14.4831 -14.9977 1.82408 0.000216514 10
14.1795 -14.6833 2.5063 0.000218931 10
14.1667 -14.6701 3.23007 0.000214 10
14.4749 -14.9892 4.05039 0.000202083 10
14.4662 -14.9802 4.80782 0.000195158 10
14.4684 -14.9824 5.58086 0.000187314 10
7.08989 -7.29069 -2.72494 0.000382101 1
8.01171 -8.23863 -2.6531 0.000144544 4
9.10781 -9.36578 -2.5394 0.000105009 4
12.0135 -12.3537 -2.72926 4.8643e-05 1
14.5778 -14.9907 -2.56745 0.000268781 10
14.5813 -14.9943 -1.82984 0.000273424 10
14.5774 -14.9903 -1.09582 0.00018267 10
14.5761 -14.9889 -0.364945 0.000183707 10
14.5705 -14.9832 0.364805 0.000183704 10
14.5668 -14.9794 1.09503 0.000215617 10
14.5762 -14.989 1.82919 0.000213169 10
14.2278 -14.6308 2.5058 0.000228884 10
14.218 -14.6207 3.2301 0.000223726 10
14.5692 -14.9818 4.06211 0.000198945 10
14.5744 -14.9871 4.82634 0.000192119 10
14.5656 -14.9781 5.59815 0.000184388 10
7.12613 -7.27697 -2.72909 0.000382101 1
8.03686 -8.20697 -2.65193 0.000131404 4
9.13886 -9.3323 -2.53896 0.00011792 4
12.0646 -12.32 -2.7311 4.86431e-05 1
14.6694 -14.9799 -2.57435 0.000264589 10
14.6824 -14.9932 -1.83595 0.000269165 10
14.8072 -15.1207 -1.10913 0.000168166 10
14.8024 -15.1157 -0.369288 0.000169127 10
14.8071 -15.1206 0.369406 0.000169124 10
14.6794 -14.9901 1.09955 0.000212261 10
14.6798 -14.9905 1.83562 0.000209848 10
14.6835 -14.9943 2.57681 0.000206271 10
14.6716 -14.9821 3.32123 0.000201578 10
14.6671 -14.9775 4.0748 0.00019583 10
14.6712 -14.9818 4.84107 0.000189102 10
14.6789 -14.9896 5.62155 0.000181484 10
7.15487 -7.25548 -2.73038 0.000382102 1
8.05984 -8.17317 -2.65008 0.000256968 4
9.1702 -9.29914 -2.53863 0.000122224 4
12.1054 -12.2756 -2.73061 4.86432e-05 1
14.7763 -14.9841 -2.58392 0.000260429 10
14.7674 -14.9751 -1.84003 0.000264939 10
14.8008 -15.0089 -1.10471 0.000171028 10
14.8041 -15.0122 -0.368019 0.000172004 10
14.8104 -15.0187 0.368178 0.000172001 10
14.7707 -14.9784 1.10247 0.000208931 10
14.7861 -14.994 1.84236 0.000206553 10
14.7812 -14.989 2.58476 0.000203028 10
14.7796 -14.9874 3.33382 0.000198403 10
14.7745 -14.9823 4.0901 0.000192738 10
14.7726 -14.9803 4.85722 0.000186109 10
14.7745 -14.9823 5.63811 0.000178603 10
7.17678 -7.22706 -2.72909 0.000382102 1
8.08679 -8.14345 -2.64958 5.84019e-05 4
9.1998 -9.26425 -2.53786 0.000107591 4
12.1386 -12.2237 -2.72847 4.86433e-05 1
14.8754 -14.9796 -2.59208 0.000256301 10
14.8782 -14.9824 -1.8473 0.000260745 10
14.8798 -14.9841 -1.1067 0.000174206 10
14.8786 -14.9829 -0.368571 0.0001752 10
14.8869 -14.9912 0.368774 0.000175196 10
14.885 -14.9893 1.10709 0.000205627 10
14.8796 -14.9838 1.84747 0.000203284 10
14.8817 -14.986 2.59318 0.00019981 10
14.8881 -14.9924 3.34647 0.000195253 10
14.8905 -14.9948 4.10769 0.000189671 10
14.872 -14.9762 4.87269 0.00018314 10
14.8795 -14.9838 5.6582 0.000175744 10
7.19114 -7.19114 -2.72499 0.000382103 1
9.24143 -9.24143 -2.54043 9.38198e-05 4
12.1827 -12.1827 -2.72879 4.86434e-05 1
14.9891 -14.9891 -2.60276 0.000252205 10
14.9844 -14.9844 -1.85399 0.000256584 10
15.0741 -15.0741 -1.11723 0.000165354 10
15.063 -15.063 -0.371834 0.000166301 10
15.0648 -15.0648 0.371877 0.000166299 10
14.9834 -14.9834 1.11051 0.000202348 10
14.9832 -14.9832 1.85384 0.000200039 10
14.974 -14.974 2.60014 0.000196617 10
14.9909 -14.9909 3.35781 0.000192127 10
14.9927 -14.9927 4.12141 0.000186628 10
14.9873 -14.9873 4.89331 0.000180193 10
14.9829 -14.9829 5.6776 0.000172907 10
7.21717 -7.16696 -2.72536 0.000382103 1
8.15382 -8.09709 -2.65295 0.000327051 4
9.26097 -9.19654 -2.53696 0.000118781 4
12.2328 -12.1477 -2.7305 4.86435e-05 1
15.0821 -14.9771 -2.60981 0.000248142 10
15.0938 -14.9888 -1.86103 0.000252455 10
15.0946 -14.9896 -1.11486 0.000168673 10
15.0883 -14.9833 -0.371164 0.000169637 10
15.0807 -14.9758 0.370978 0.000169633 10
15.0979 -14.9929 1.11511 0.000199095 10
15.0959 -14.9909 1.8613 0.00019682 10
15.0808 -14.9758 2.60959 0.000193449 10
15.0788 -14.9739 3.36577 0.000189025 10
15.098 -14.9929 4.13595 0.000183609 10
15.0914 -14.9864 4.91019 0.00017727 10
15.0952 -14.9902 5.70029 0.000170094 10
7.25634 -7.15572 -2.7307 0.000382103 1
8.17543 -8.06207 -2.65081 0.000258429 4
9.29573 -9.16683 -2.5377 9.12379e-05 4
12.2703 -12.1002 -2.72944 4.86436e-05 1
15.1919 -14.9813 -2.61975 0.000244111 10
15.1918 -14.9812 -1.86666 0.00024836 10
15.343 -15.1303 -1.1293 0.000159954 10
15.3394 -15.1267 -0.376039 0.000160874 10
15.3402 -15.1275 0.37606 0.000160872 10
15.1849 -14.9743 1.11766 0.000195868 10
15.1874 -14.9768 1.86611 0.000193627 10
15.1975 -14.9868 2.62072 0.000190306 10
15.1968 -14.9861 3.38041 0.00018595 10
15.1961 -14.9854 4.14848 0.000180614 10
15.1943 -14.9836 4.92661 0.000174371 10
15.1968 -14.9861 5.71885 0.000167303 10
7.27199 -7.12126 -2.72722 0.000382104 1
8.20452 -8.03446 -2.65113 0.000246749 4
9.32647 -9.13316 -2.53737 0.000112756 4
12.3214 -12.066 -2.73142 4.86437e-05 1
15.2948 -14.9778 -2.62846 0.000240114 10
15.301 -14.9839 -1.87364 0.000244298 10
15.3432 -15.0251 -1.12545 0.0001626 10
15.3473 -15.0291 -0.374944 0.000163534 10
15.3475 -15.0294 0.37495 0.000163531 10
15.2927 -14.9757 1.12175 0.000192667 10
15.3048 -14.9876 1.87411 0.00019046 10
15.2932 -14.9762 2.62818 0.00018719 10
15.2955 -14.9785 3.39071 0.000182899 10
15.2967 -14.9796 4.16163 0.000177644 10
15.3001 -14.983 4.94394 0.000171496 10
15.2893 -14.9724 5.73395 0.000164536 10
7.27667 -7.07625 -2.71969 0.000162606 4
7.88563 -7.66845 -2.53943 0.000193879 4
9.37025 -9.11217 -2.54061 0.000115339 4
12.3574 -12.017 -2.73007 4.86437e-05 1
15.4045 -14.9803 -2.63832 0.000236149 10
15.4085 -14.9842 -1.88039 0.00024027 10
15.3959 -14.9718 -1.12547 0.000160538 10
15.4034 -14.9791 -0.375035 0.000161459 10
15.4048 -14.9805 0.375071 0.000161456 10
15.4107 -14.9862 1.12655 0.000189493 10
15.3997 -14.9756 1.87932 0.00018732 10
15.4109 -14.9865 2.63941 0.000184099 10
15.4035 -14.9793 3.40304 0.000179873 10
15.4158 -14.9913 4.17979 0.000174699 10
15.4151 -14.9905 4.96414 0.000168646 10
15.3963 -14.9722 5.75444 0.000161792 10
7.27338 -7.02383 -2.70929 0.000173052 4
7.92022 -7.64847 -2.54195 0.000258506 4
9.40081 -9.07826 -2.54029 9.29598e-05 4
12.3976 -11.9723 -2.72972 4.86439e-05 1
15.5149 -14.9826 -2.64825 0.000232218 10
15.5207 -14.9881 -1.88768 0.000236275 10
15.6033 -15.0679 -1.13678 0.00023821 10
15.6129 -15.0772 -0.378853 0.000239584 10
15.6099 -15.0744 0.378781 0.00023958 10
15.5207 -14.9882 1.13077 0.000186345 10
15.5172 -14.9848 1.88726 0.000184206 10
15.5088 -14.9766 2.6472 0.000181034 10
15.5203 -14.9878 3.41727 0.000176873 10
15.5058 -14.9738 4.18998 0.000171779 10
15.5221 -14.9895 4.98173 0.000165819 10
15.5123 -14.98 5.77821 0.000159071 10
7.28152 -6.98273 -2.70322 0.000159724 4
7.93228 -7.60678 -2.53728 0.000183937 4
9.43504 -9.04788 -2.54099 0.000124807 4
12.4399 -11.9294 -2.72983 4.8644e-05 1
15.6152 -14.9745 -2.65644 0.00022832 10
15.6173 -14.9764 -1.89306 0.000232314 10
15.6195 -14.9786 -1.13415 0.000235006 10
15.6114 -14.9708 -0.377546 0.000236357 10
15.6172 -14.9763 0.377685 0.000236352 10
15.6183 -14.9774 1.13406 0.000183224 10
15.6162 -14.9754 1.89293 0.000181118 10
15.6256 -14.9845 2.65821 0.000177995 10
15.6258 -14.9846 3.42896 0.000173899 10
15.6296 -14.9883 4.20929 0.000168884 10
15.6289 -14.9876 4.99919 0.000163016 10
15.613 -14.9723 5.79623 0.000156374 10
7.27165 -6.9247 -2.69057 0.000141147 4
7.97126 -7.59093 -2.54126 0.000169023 4
9.46728 -9.01557 -2.54118 6.79986e-05 4
12.4756 -11.8804 -2.72856 4.86441e-05 1
15.7375 -14.9866 -2.66832 0.000224456 10
15.7262 -14.9758 -1.89991 0.000228388 10
15.7342 -14.9835 -1.13867 0.000231037 10
15.7237 -14.9735 -0.378997 0.000232368 10
15.7214 -14.9713 0.37894 0.000232363 10
15.7207 -14.9706 1.13769 0.00018013 10
15.7337 -14.983 1.90083 0.000178056 10
15.7241 -14.9738 2.66604 0.000174983 10
15.74 -14.989 3.44252 0.000170951 10
15.7239 -14.9736 4.22056 0.000166014 10
15.7302 -14.9797 5.01485 0.000160239 10
15.7299 -14.9794 5.8202 0.000153701 10
7.27332 -6.87804 -2.68228 0.000155336 4
7.98184 -7.54806 -2.53622 0.00028502 4
9.48215 -8.96683 -2.53676 0.000118783 4
12.5218 -11.8413 -2.7296 4.86442e-05 1
15.8405 -14.9796 -2.6769 0.000220626 10
15.8331 -14.9726 -1.9065 0.000224496 10
15.8385 -14.9777 -1.14243 0.000227103 10
15.8301 -14.9698 -0.3803 0.000228413 10
15.8303 -14.9699 0.380303 0.000228408 10
15.7938 -14.9354 1.13921 0.00018665 10
15.799 -14.9404 1.9024 0.000184502 10
15.7856 -14.9277 2.66762 0.000181317 10
15.7904 -14.9322 3.44211 0.00017714 10
15.8015 -14.9427 4.22736 0.000172024 10
15.7894 -14.9313 5.01708 0.00016604 10
15.7853 -14.9274 5.82136 0.000159265 10
7.27448 -6.83119 -2.6739 0.000151136 4
8.03064 -7.54128 -2.54335 0.000672809 4
9.51727 -8.93732 -2.53779 0.00012739 4
12.5658 -11.8001 -2.7302 4.86443e-05 1
15.9489 -14.977 -2.68637 0.00021683 10
15.9537 -14.9815 -1.91472 0.000220639 10
15.9538 -14.9816 -1.14697 0.000223205 10
15.9462 -14.9745 -0.381831 0.000224494 10
15.9474 -14.9756 0.381859 0.000224489 10
15.7952 -14.8327 1.13557 0.000189618 10
15.7943 -14.8319 1.89559 0.000187439 10
15.7946 -14.8321 2.66037 0.000184208 10
15.7929 -14.8305 3.43134 0.000179969 10
15.7877 -14.8257 4.20982 0.000174778 10
15.8019 -14.839 5.00455 0.000168705 10
15.8019 -14.8389 5.80834 0.00016183 10
7.2779 -6.78676 -2.66644 0.000178435 4
8.06802 -7.52355 -2.54685 0.000725967 4
9.55016 -8.90567 -2.53826 0.000123087 4
12.6018 -11.7514 -2.7291 4.86444e-05 1
22.1455 -20.651 -2.64917 6.19111e-05 10
15.7852 -14.7199 1.13114 0.00019261 10
15.7826 -14.7175 1.888 0.000190399 10
15.7835 -14.7184 2.64984 0.00018712 10
15.7903 -14.7247 3.4196 0.000182819 10
15.8001 -14.7339 4.19939 0.000177553 10
15.7824 -14.7173 4.98206 0.000171391 10
15.7974 -14.7314 5.78778 0.000164415 10
7.26683 -6.72916 -2.65376 0.000192321 4
8.12606 -7.52482 -2.55687 0.000787742 4
9.59446 -8.88457 -2.54177 0.000118783 4
12.6474 -11.7116 -2.73009 4.86445e-05 1
22.1435 -20.5051 -2.64035 6.30243e-05 10
15.799 -14.63 1.12847 0.000195623 10
15.7951 -14.6264 1.88338 0.00019338 10
15.7988 -14.6299 2.64382 0.000190054 10
15.7882 -14.62 3.40807 0.000185691 10
15.7884 -14.6202 4.18267 0.000180348 10
15.7929 -14.6244 4.96923 0.000174097 10
15.7967 -14.6279 5.76876 0.000167019 10
7.28825 -6.7019 -2.65302 7.79676e-05 4
8.1854 -7.52686 -2.56725 0.000496593 4
9.61306 -8.83967 -2.53851 0.000104151 4
12.6785 -11.6585 -2.72801 4.86446e-05 1
22.1447 -20.3631 -2.632 6.41479e-05 10
26.4416 -24.3143 -1.88256 2.86745e-05 10
26.4456 -24.318 -0.627105 2.88796e-05 10
26.4478 -24.32 0.627157 2.8879e-05 10
15.8915 -14.613 1.13142 0.000180683 10
15.9076 -14.6278 1.8907 0.000178607 10
15.907 -14.6272 2.65336 0.00017553 10
15.903 -14.6236 3.42182 0.000171494 10
15.8867 -14.6086 4.19518 0.000166552 10
15.9033 -14.6238 4.98788 0.00016077 10
15.9022 -14.6228 5.7886 0.000154224 10
7.30879 -6.67385 -2.652 0.000231388 4
8.23402 -7.5187 -2.57426 0.000613843 4
9.64252 -8.80483 -2.53816 0.00011448 4
12.7191 -11.6142 -2.72801 4.86447e-05 1
22.1524 -20.2279 -2.62451 6.52819e-05 10
21.8687 -19.9689 1.55201 5.04351e-05 10
21.8838 -19.9827 2.59269 4.97776e-05 10
21.8811 -19.9802 3.63821 4.88047e-05 10
21.875 -19.9746 4.69176 4.75315e-05 10
21.8685 -19.9687 5.75635 4.59774e-05 10
21.8752 -19.9748 6.83898 4.41664e-05 10
21.8709 -19.9709 7.93588 4.21258e-05 10
7.32 -6.63737 -2.64765 0.000450201 4
8.2843 -7.51175 -2.58176 0.000478728 4
9.67063 -8.76879 -2.53748 0.000101569 4
12.7606 -11.5706 -2.72822 4.86449e-05 1
22.153 -20.0871 -2.61626 6.6426e-05 10
22.1408 -20.076 -1.56634 6.73041e-05 10
22.1479 -20.0825 -0.521855 6.77461e-05 10
22.1465 -20.0812 0.521822 6.77448e-05 10
22.0379 -19.9827 1.55906 4.94217e-05 10
22.0324 -19.9778 2.60202 4.87764e-05 10
22.0207 -19.9672 3.64982 4.78214e-05 10
22.0288 -19.9745 4.70978 4.65718e-05 10
22.0309 -19.9764 5.78071 4.50466e-05 10
22.0319 -19.9773 6.86613 4.32693e-05 10
22.0387 -19.9835 7.9714 4.12668e-05 10
7.34755 -6.61577 -2.64924 0.000432596 4
8.33954 -7.50896 -2.59079 0.000428981 4
9.69922 -8.73322 -2.53697 6.02527e-05 4
12.8056 -11.5302 -2.72923 4.8645e-05 1
22.154 -19.9476 -2.60814 6.75804e-05 10
22.1515 -19.9453 -1.56216 6.84725e-05 10
22.1419 -19.9367 -0.520072 6.89214e-05 10
22.1411 -19.936 0.520053 6.89202e-05 10
22.1495 -19.9435 1.56202 5.33861e-05 10
22.1511 -19.9449 2.60779 5.26887e-05 10
22.1491 -19.9431 3.65953 5.16567e-05 10
22.1511 -19.9449 4.721 5.0306e-05 10
22.1461 -19.9404 5.79263 4.86574e-05 10
22.158 -19.9512 6.8837 4.67363e-05 10
22.1591 -19.9521 7.98971 4.45717e-05 10
7.37148 -6.59086 -2.64956 0.000540746 4
8.40515 -7.51508 -2.60301 7.13313e-05 4
9.72906 -8.69878 -2.53682 9.38223e-05 4
12.8568 -11.4953 -2.73157 4.86451e-05 1
22.1522 -19.8063 -2.59977 6.87449e-05 10
22.1572 -19.8108 -1.55768 6.96511e-05 10
22.145 -19.7999 -0.518517 7.01071e-05 10
22.1376 -19.7933 0.518344 7.01059e-05 10
22.1411 -19.7964 1.55654 5.4305e-05 10
22.1509 -19.8052 2.59962 5.35967e-05 10
22.1394 -19.795 3.6465 5.25484e-05 10
22.1463 -19.8011 4.70522 5.11762e-05 10
22.1484 -19.803 5.77512 4.95015e-05 10
22.1554 -19.8093 6.86137 4.75497e-05 10
22.142 -19.7972 7.95858 4.53505e-05 10
7.38931 -6.56054 -2.64772 0.000470324 4
8.44663 -7.49927 -2.60773 0.000577021 4
9.77643 -8.67992 -2.54125 0.00012481 4
12.8838 -11.4388 -2.72881 4.86452e-05 1
22.1567 -19.6716 -2.59222 6.99196e-05 10
22.1473 -19.6633 -1.55214 7.08399e-05 10
22.1372 -19.6544 -0.516727 7.13031e-05 10
22.1555 -19.6706 0.517152 7.13018e-05 10
22.1512 -19.6668 1.55242 5.52319e-05 10
22.1374 -19.6545 2.58996 5.45124e-05 10
22.1569 -19.6718 3.63805 5.34477e-05 10
22.1554 -19.6705 4.69254 5.2054e-05 10
22.1377 -19.6547 5.7544 5.03529e-05 10
22.1419 -19.6585 6.83588 4.83703e-05 10
22.145 -19.6613 7.93495 4.61362e-05 10
7.42905 -6.54959 -2.65375 0.000422537 4
8.51883 -7.51036 -2.62191 0.00074039 4
9.8074 -8.64639 -2.54144 0.000115342 4
12.9193 -11.3899 -2.72789 4.86453e-05 1
22.147 -19.5252 -2.5831 7.11041e-05 10
22.2553 -19.6207 -1.5549 6.31476e-05 10
22.2384 -19.6058 -0.517488 6.35601e-05 10
22.2569 -19.6221 0.517916 6.35584e-05 10
22.1486 -19.5266 1.54745 5.61667e-05 10
22.1535 -19.531 2.58386 5.5436e-05 10
22.1369 -19.5163 3.62355 5.43547e-05 10
22.1513 -19.529 4.67719 5.29393e-05 10
22.1559 -19.5331 5.74139 5.12116e-05 10
22.1347 -19.5144 6.81259 4.9198e-05 10
22.1553 -19.5325 7.91415 4.69288e-05 10
7.44311 -6.51595 -2.65063 0.000558354 4
8.57503 -7.50687 -2.63113 0.000725682 4
9.83599 -8.61076 -2.54105 9.81267e-05 4
12.9649 -11.35 -2.72914 4.86455e-05 1
22.1342 -19.377 -2.5737 7.22986e-05 10
22.3998 -19.6096 -1.56021 6.18333e-05 10
22.3924 -19.6031 -0.519476 6.22379e-05 10
22.4102 -19.6187 0.519889 6.22362e-05 10
22.1449 -19.3864 1.54246 5.71092e-05 10
22.1472 -19.3884 2.57521 5.63673e-05 10
22.1455 -19.3869 3.61386 5.52693e-05 10
22.1469 -19.3881 4.66195 5.38321e-05 10
22.1473 -19.3885 5.72157 5.20776e-05 10
22.1413 -19.3833 6.79376 5.00327e-05 10
22.1429 -19.3847 7.88552 4.77281e-05 10
7.47377 -6.49685 -2.65346 0.000490447 4
8.62539 -7.49793 -2.63854 0.000486113 4
9.86685 -8.57712 -2.54127 8.60762e-05 4
13.0114 -11.3106 -2.73058 4.86456e-05 1
22.1447 -19.2501 -2.5671 7.35029e-05 10
22.1534 -19.2577 1.53836 5.80595e-05 10
22.1385 -19.2447 2.56637 5.73063e-05 10
22.1543 -19.2584 3.6043 5.61915e-05 10
22.1464 -19.2516 4.64767 5.47323e-05 10
22.1342 -19.241 5.70081 5.29509e-05 10
22.1482 -19.2532 6.77521 5.08744e-05 10
22.1539 -19.2581 7.86543 4.85342e-05 10
7.48714 -6.46273 -2.65018 0.000460266 4
8.68447 -7.49624 -2.64859 0.00052374 4
9.88906 -8.53601 -2.5393 6.71396e-05 4
13.0494 -11.2639 -2.7303 4.86457e-05 1
22.1524 -19.1214 -2.56023 7.47169e-05 10
22.1514 -19.1206 1.53357 5.90174e-05 10
22.1432 -19.1135 2.55917 5.82528e-05 10
22.1516 -19.1207 3.59299 5.71211e-05 10
22.1349 -19.1063 4.63123 5.56397e-05 10
22.1343 -19.1058 5.68363 5.38311e-05 10
22.1357 -19.107 6.75093 5.1723e-05 10
22.1466 -19.1165 7.83912 4.9347e-05 10
7.50509 -6.43264 -2.64857 6.03628e-05 4
8.7331 -7.48517 -2.65543 0.000595177 4
9.92893 -8.51012 -2.5419 0.000115343 4
13.0837 -11.2141 -2.72927 4.86458e-05 1
22.1329 -18.9702 -2.55031 7.59407e-05 10
22.1386 -18.9751 1.52809 5.9983e-05 10
22.1373 -18.974 2.55082 5.92069e-05 10
22.1522 -18.9867 3.58231 5.80582e-05 10
22.1376 -18.9742 4.61791 5.65544e-05 10
22.1313 -18.9688 5.66581 5.47186e-05 10
22.1348 -18.9718 6.73043 5.25785e-05 10
22.1473 -18.9825 7.81585 5.01664e-05 10
7.53932 -6.41647 -2.65273 0.000188634 4
8.78532 -7.4769 -2.66336 0.000552261 4
9.95829 -8.47517 -2.54182 0.00012395 4
13.1124 -11.1596 -2.72712 4.8646e-05 1
22.1314 -18.8353 -2.54255 7.71741e-05 10
21.7833 -18.539 1.49909 5.64669e-05 10
21.7799 -18.5362 2.50216 5.57419e-05 10
21.7763 -18.5331 3.51104 5.46688e-05 10
22.1416 -18.844 4.605 5.74764e-05 10
21.7844 -18.54 5.56039 5.15488e-05 10
21.7751 -18.5321 6.60135 4.9549e-05 10
22.1387 -18.8415 7.78956 5.09924e-05 10
7.56907 -6.39636 -2.65533 0.000125756 4
8.84715 -7.47642 -2.67418 0.000480611 4
9.98608 -8.4389 -2.54138 0.000114482 4
13.1642 -11.1246 -2.72979 4.86461e-05 1
22.1368 -18.707 -2.53564 7.84169e-05 10
21.9356 -18.537 1.50511 5.52689e-05 10
21.9322 -18.5342 2.51221 5.45579e-05 10
21.9347 -18.5362 3.52612 5.35058e-05 10
22.1428 -18.7121 4.59164 5.84056e-05 10
21.924 -18.5272 5.57949 5.0447e-05 10
21.9365 -18.5378 6.63061 4.84865e-05 10
22.1304 -18.7016 7.76362 5.1825e-05 10
7.58265 -6.3626 -2.65228 0.00010312 4
8.91481 -7.48041 -2.68672 0.00064561 4
10.0213 -8.40886 -2.54286 0.000512768 4
13.1909 -11.0685 -2.7273 4.86462e-05 1
22.1277 -18.5673 -2.52717 7.96691e-05 10
22.081 -18.5281 1.51064 5.40859e-05 10
22.0788 -18.5263 2.52158 5.3389e-05 10
22.0979 -18.5423 3.54194 5.23576e-05 10
22.1291 -18.5685 4.57533 5.93418e-05 10
22.09 -18.5357 5.60523 4.93592e-05 10
22.0807 -18.5279 6.65462 4.74376e-05 10
22.1288 -18.5683 7.74027 5.26639e-05 10
7.59717 -6.32972 -2.64961 0.000160968 4
8.96995 -7.47348 -2.69546 0.000553657 4
10.102 -8.41671 -2.55588 0.00035678 4
13.2413 -11.0322 -2.72974 4.86464e-05 1
22.1318 -18.4395 -2.52027 8.09306e-05 10
22.2081 -18.5031 1.51491 4.02711e-05 10
22.2113 -18.5058 2.52932 3.97521e-05 10
22.2083 -18.5033 3.54926 3.89838e-05 10
22.1384 -18.445 4.56391 6.0285e-05 10
22.1956 -18.4927 5.61562 3.67499e-05 10
22.21 -18.5047 6.67409 3.53181e-05 10
22.1275 -18.4359 7.71726 5.35093e-05 10
7.61597 -6.30048 -2.64849 0.000110666 4
9.03626 -7.47545 -2.70753 0.000627041 4
10.1567 -8.40231 -2.56226 0.000371198 4
13.286 -10.9911 -2.73103 4.86465e-05 1
22.138 -18.3141 -2.51368 8.22013e-05 10
22.1466 -18.3213 4.5524 6.12353e-05 10
22.1466 -18.3213 7.70158 5.43611e-05 10
7.65391 -6.287 -2.65403 0.000203726 4
9.08377 -7.46149 -2.71394 0.000417253 4
10.2323 -8.40487 -2.57391 0.000273125 4
13.3157 -10.9376 -2.72927 4.86467e-05 1
22.1275 -18.1757 -2.50527 8.34812e-05 10
22.143 -18.1885 4.53857 6.21923e-05 10
22.1469 -18.1917 7.67956 5.52191e-05 10
7.67451 -6.25918 -2.65358 0.000138333 4
9.15131 -7.46362 -2.72632 0.000502009 4
10.2857 -8.38878 -2.57996 5.38525e-05 4
13.3644 -10.8998 -2.73144 4.86468e-05 1
22.1446 -18.0607 -2.50006 8.47702e-05 10
22.1353 -18.0531 4.52405 6.31561e-05 10
22.1289 -18.0479 7.65141 5.60833e-05 10
7.69542 -6.23163 -2.65327 0.000326969 4
9.19156 -7.44318 -2.73055 0.000221039 1
10.3493 -8.38067 -2.58857 0.000371598 4
13.383 -10.8374 -2.7275 4.8647e-05 1
22.128 -17.9189 -2.4911 8.60679e-05 10
22.1437 -17.9316 4.51294 6.41266e-05 10
22.1401 -17.9287 7.63359 5.69537e-05 10
7.70184 -6.19244 -2.64802 0.000148394 4
9.22194 -7.41463 -2.73187 0.00022104 1
10.4102 -8.37001 -2.59648 0.000332256 4
13.4189 -10.7891 -2.72712 4.86471e-05 1
22.1354 -17.7973 -2.48493 8.73746e-05 10
22.1355 -17.7974 4.49858 6.51039e-05 10
22.1299 -17.7929 7.60863 5.78302e-05 10
7.73573 -6.17536 -2.65225 0.000110667 4
9.23598 -7.37299 -2.72839 0.00022104 1
10.4957 -8.37862 -2.6105 0.000358394 4
13.4674 -10.7509 -2.72932 4.86473e-05 1
22.1219 -17.6597 -2.47647 8.86899e-05 10
22.1429 -17.6765 4.48753 6.60877e-05 10
21.7743 -17.3822 7.46547 6.30438e-05 10
7.74695 -6.14016 -2.64873 0.000261577 4
9.25662 -7.33671 -2.72691 0.000221041 1
10.5545 -8.36541 -2.61785 0.000345554 4
13.5007 -10.7005 -2.7285 4.86474e-05 1
22.1273 -17.5379 -2.47021 9.00139e-05 10
22.1422 -17.5497 4.47495 6.70779e-05 10
21.7657 -17.2513 7.44182 6.39909e-05 10
7.78507 -6.12625 -2.65443 0.000171031 4
9.29222 -7.31226 -2.72986 0.000221041 1
10.6202 -8.3573 -2.6269 0.000388054 4
13.5467 -10.6602 -2.73025 4.86476e-05 1
22.1324 -17.4165 -2.46398 9.13464e-05 10
22.1921 -17.4634 1.47996 4.54556e-05 10
22.2059 -17.4744 2.47216 4.48755e-05 10
22.1962 -17.4667 3.46799 4.40168e-05 10
22.14 -17.4225 4.46217 6.80746e-05 10
22.2003 -17.4699 5.49119 4.15188e-05 10
22.1903 -17.462 6.51903 3.9917e-05 10
21.7755 -17.1357 7.42468 6.49441e-05 10
7.79935 -6.09352 -2.65203 0.000168516 4
9.31809 -7.28009 -2.72998 0.000221042 1
10.6839 -8.3472 -2.63543 0.000355188 4
12.6413 -9.87643 -2.5408 4.99552e-05 4
22.1228 -17.2843 -2.45618 9.26874e-05 10
22.1319 -17.2913 -1.47191 6.20097e-05 10
22.1341 -17.293 -0.490288 6.2406e-05 10
22.1353 -17.294 0.490314 6.2405e-05 10
22.1307 -17.2904 4.4481 6.90777e-05 10
21.7606 -17.0012 7.3993 6.59035e-05 10
7.81313 -6.06049 -2.64951 0.000143365 4
9.35039 -7.2529 -2.732 0.000221042 1
10.7632 -8.34883 -2.64779 0.000330463 4
12.6691 -9.8272 -2.5395 5.0331e-05 4
22.1355 -17.1701 -2.45092 9.40366e-05 10
22.2783 -17.2808 -1.47763 4.82118e-05 10
22.2568 -17.2641 -0.491668 4.85197e-05 10
22.2788 -17.2812 0.492154 4.85184e-05 10
22.1176 -17.1562 4.43342 7.0087e-05 10
21.7699 -16.8864 7.38237 6.68688e-05 10
7.84846 -6.04413 -2.65432 0.00021882 4
9.35359 -7.20323 -2.72558 0.000221043 1
10.8129 -8.32704 -2.65283 6.85279e-05 4
12.7035 -9.78297 -2.53951 4.95799e-05 4
22.1362 -17.0472 -2.4444 9.53938e-05 10
22.138 -17.0486 -1.46437 6.38186e-05 10
22.1356 -17.0467 -0.487674 6.42254e-05 10
22.126 -17.0393 0.487462 6.42244e-05 10
22.1317 -17.0437 4.42428 7.11024e-05 10
21.767 -16.7629 7.36152 6.784e-05 10
7.86556 -6.01367 -2.65298 6.79099e-05 4
9.39672 -7.18433 -2.73082 0.000221043 1
10.8297 -8.27991 -2.64984 0.000101663 4
12.7323 -9.73456 -2.53847 5.59654e-05 4
22.1366 -16.9247 -2.4379 9.67592e-05 10
22.2333 -16.9986 -1.46674 4.91552e-05 10
22.2464 -17.0087 -0.488804 4.94682e-05 10
22.2428 -17.0059 0.488723 4.94668e-05 10
22.1162 -16.9091 4.40937 7.21238e-05 10
7.89039 -5.98913 -2.65429 0.000150911 4
9.41857 -7.14908 -2.7299 0.000221044 1
10.8613 -8.24417 -2.65052 5.87385e-05 4
12.7765 -9.6979 -2.54052 4.50729e-05 4
22.1255 -16.7942 -2.43021 9.81325e-05 10
22.119 -16.7892 -1.45532 6.56487e-05 10
22.1202 -16.7901 -0.484739 6.60663e-05 10
22.1182 -16.7886 0.484696 6.60653e-05 10
22.129 -16.7968 4.40019 7.31513e-05 10
7.89736 -5.95109 -2.64963 0.000125759 4
9.45034 -7.12135 -2.73189 0.000221044 1
10.9019 -8.21514 -2.65341 0.000104675 4
12.8146 -9.6565 -2.54138 6.04731e-05 4
22.1262 -16.6733 -2.42387 9.95136e-05 10
22.2148 -16.74 -1.45777 5.01303e-05 10
22.205 -16.7327 -0.485315 5.04486e-05 10
22.2091 -16.7358 0.485405 5.04472e-05 10
22.1283 -16.6749 4.38846 7.41846e-05 10
7.91886 -5.92407 -2.64989 0.00031943 4
9.42746 -7.05264 -2.71814 8.82012e-05 4
10.9238 -8.17202 -2.65178 9.86511e-05 4
12.8368 -9.60314 -2.53911 5.1083e-05 4
22.1295 -16.555 -2.41789 0.000100902 10
22.1358 -16.5597 -1.44879 6.74999e-05 10
22.1166 -16.5454 -0.482119 6.79282e-05 10
22.1231 -16.5502 0.482259 6.79272e-05 10
21.7522 -16.2727 1.42368 8.537e-05 10
21.76 -16.2786 2.37752 8.42981e-05 10
21.764 -16.2815 3.3373 8.27108e-05 10
22.1276 -16.5536 4.37684 7.52238e-05 10
21.7555 -16.2752 5.28123 7.80916e-05 10
21.755 -16.2748 6.27244 7.51274e-05 10
21.7685 -16.285 7.28442 7.17825e-05 10
7.93468 -5.89281 -2.64829 0.000369734 4
9.42046 -6.99625 -2.70906 8.56221e-05 4
10.9409 -8.1254 -2.64903 0.000104676 4
12.8638 -9.55352 -2.53785 3.83124e-05 4
22.13 -16.4352 -2.41166 0.000102299 10
22.1796 -16.472 -1.44788 5.11394e-05 10
22.156 -16.4545 -0.481721 5.14631e-05 10
22.167 -16.4627 0.48196 5.14617e-05 10
21.8872 -16.2549 1.42879 6.36633e-05 10
21.8787 -16.2486 2.38427 6.28621e-05 10
21.8884 -16.2558 3.34766 6.1676e-05 10
22.1223 -16.4295 4.36441 7.62687e-05 10
21.8993 -16.2638 5.30231 5.82254e-05 10
21.8935 -16.2595 6.29597 5.60116e-05 10
21.8979 -16.2628 7.30868 5.35137e-05 10
7.96714 -5.87388 -2.65226 4.02432e-05 4
9.39846 -6.92914 -2.69577 6.18384e-05 4
10.9741 -8.09083 -2.65023 0.000136305 4
12.9089 -9.51724 -2.54017 5.40883e-05 4
22.131 -16.3164 -2.40555 0.000103703 10
26.5615 -19.5828 -1.72946 3.5118e-05 10
26.5563 -19.579 -0.575906 3.53588e-05 10
26.564 -19.5847 0.576071 3.53577e-05 10
22.0363 -16.2465 1.43481 6.2149e-05 10
22.0365 -16.2467 2.39527 6.13653e-05 10
22.0519 -16.2581 3.36397 6.02052e-05 10
22.1343 -16.3188 4.35552 7.73192e-05 10
22.0569 -16.2618 5.3267 5.68304e-05 10
22.0492 -16.256 6.32438 5.46654e-05 10
22.048 -16.2552 7.33979 5.22228e-05 10
7.98663 -5.84533 -2.65194 6.79106e-05 4
9.38642 -6.86982 -2.68542 9.51078e-05 4
11.0116 -8.05929 -2.65248 0.000158897 4
12.9391 -9.46997 -2.53959 3.6059e-05 4
22.1246 -16.1928 -2.3987 0.000105114 10
22.1311 -16.1975 -1.4373 5.21844e-05 10
22.1283 -16.1954 -0.478648 5.25138e-05 10
22.1351 -16.2005 0.478796 5.25123e-05 10
22.1103 -16.1823 1.43595 8.2998e-05 10
22.1158 -16.1864 2.39775 8.19522e-05 10
22.1335 -16.1992 3.36776 8.04035e-05 10
22.1203 -16.1896 4.34161 7.83752e-05 10
22.1152 -16.1859 5.3271 7.58972e-05 10
22.1118 -16.1834 6.32609 7.30059e-05 10
22.1179 -16.1878 7.34418 6.97437e-05 10
8.0015 -5.81343 -2.65012 8.55172e-05 4
9.35159 -6.79433 -2.66865 9.82349e-05 4
12.9788 -9.42962 -2.5409 4.2069e-05 4
22.1258 -16.0753 -2.39272 0.000106532 10
22.2756 -16.1842 -1.443 5.09222e-05 10
22.2895 -16.1943 -0.48091 5.12442e-05 10
22.2949 -16.1982 0.481026 5.12428e-05 10
22.1131 -16.0661 1.43248 8.41168e-05 10
22.1141 -16.0669 2.39146 8.3058e-05 10
22.1259 -16.0754 3.35804 8.14901e-05 10
22.1199 -16.071 4.3305 7.94366e-05 10
22.1194 -16.0707 5.31457 7.69278e-05 10
22.1178 -16.0695 6.31173 7.40004e-05 10
22.1125 -16.0657 7.32373 7.06974e-05 10
9.32954 -6.72867 -2.65564 7.92248e-05 4
10.6026 -7.64686 -2.54104 0.000118792 4
13.0008 -9.37648 -2.5388 4.46984e-05 4
22.1128 -15.9483 -2.38529 0.000107957 10
22.1279 -15.9591 -1.42982 7.22144e-05 10
22.1212 -15.9543 -0.476074 7.26701e-05 10
22.1096 -15.946 0.475825 7.2669e-05 10
22.1288 -15.9598 1.42988 8.5241e-05 10
22.1161 -15.9506 2.38564 8.41692e-05 10
22.1123 -15.9479 3.34751 8.25821e-05 10
22.123 -15.9556 4.32017 8.05033e-05 10
22.1298 -15.9605 5.30365 7.79635e-05 10
22.1186 -15.9524 6.29603 7.49999e-05 10
22.1179 -15.952 7.30705 7.16559e-05 10
8.04976 -5.76306 -2.65272 0.000140852 4
9.33526 -6.68339 -2.65061 4.81855e-05 4
10.6291 -7.60967 -2.54099 0.00010502 4
13.0319 -9.32993 -2.53849 4.62011e-05 4
22.1217 -15.8376 -2.38027 0.00010939 10
22.2511 -15.9302 -1.43418 5.19648e-05 10
22.2371 -15.9202 -0.477371 5.22923e-05 10
22.2463 -15.9268 0.477567 5.22908e-05 10
22.1223 -15.838 1.42588 8.63706e-05 10
22.108 -15.8278 2.3788 8.52858e-05 10
22.128 -15.8421 3.3415 8.36794e-05 10
22.1172 -15.8344 4.30822 8.15752e-05 10
22.1208 -15.837 5.28822 7.90043e-05 10
22.1266 -15.8411 6.28254 7.60044e-05 10
22.1116 -15.8304 7.28666 7.26191e-05 10
8.07499 -5.7386 -2.65442 0.000120731 4
9.36261 -6.65367 -2.65177 0.000294954 4
10.6475 -7.56678 -2.53907 7.31696e-05 4
13.076 -9.29262 -2.54075 4.2445e-05 4
22.1278 -15.7254 -2.375 0.000110829 10
22.1293 -15.7265 -1.42278 7.4133e-05 10
22.11 -15.7128 -0.473462 7.45999e-05 10
22.1262 -15.7243 0.473808 7.45987e-05 10
22.1085 -15.7117 1.42145 8.75058e-05 10
22.1091 -15.7121 2.373 8.64078e-05 10
22.1194 -15.7194 3.33189 8.4782e-05 10
22.116 -15.717 4.29728 8.26523e-05 10
22.1125 -15.7146 5.27309 8.00501e-05 10
22.1197 -15.7197 6.26497 7.70137e-05 10
22.1099 -15.7127 7.26798 7.35871e-05 10
8.09143 -5.70788 -2.65325 0.000115701 4
9.38683 -6.62168 -2.65206 0.000259911 4
10.6665 -7.52438 -2.53732 0.000129123 4
13.0949 -9.23747 -2.53815 4.05671e-05 4
22.1209 -15.6046 -2.36841 0.000112274 10
22.1953 -15.6571 -1.4235 5.30463e-05 10
22.1919 -15.6547 -0.474042 5.33797e-05 10
22.2009 -15.661 0.474235 5.33781e-05 10
22.112 -15.5983 1.41816 8.86461e-05 10
22.1133 -15.5992 2.36758 8.7535e-05 10
22.1115 -15.5979 3.32248 8.58896e-05 10
22.1268 -15.6087 4.28876 8.37344e-05 10
22.1076 -15.5952 5.2589 8.11009e-05 10
22.1172 -15.602 6.24878 7.80278e-05 10
22.1153 -15.6007 7.25182 7.45597e-05 10
8.11376 -5.68132 -2.65406 7.29418e-05 4
9.4183 -6.59477 -2.65444 0.000259911 4
10.7283 -7.51206 -2.54577 0.000421895 4
13.1353 -9.19744 -2.53973 5.55921e-05 4
22.1112 -15.4824 -2.36156 0.000113726 10
22.1082 -15.4803 1.41444 8.97915e-05 10
22.1224 -15.4903 2.36276 8.86672e-05 10
22.115 -15.4851 3.31487 8.70023e-05 10
22.1285 -15.4945 4.27857 8.48214e-05 10
22.1076 -15.4799 5.24601 8.21565e-05 10
22.1287 -15.4947 6.23672 7.90466e-05 10
22.1228 -15.4905 7.23649 7.55369e-05 10
8.12317 -5.64575 -2.65067 0.000223856 4
9.42302 -6.54917 -2.6493 0.000277434 4
10.8091 -7.51249 -2.55869 0.000327267 4
13.1553 -9.1432 -2.53742 4.95824e-05 4
22.1237 -15.3764 -2.35715 0.000115185 10
22.1035 -15.3624 -1.4107 0.00011664 10
22.1237 -15.3764 -0.47028 0.000117373 10
22.1051 -15.3634 0.469885 0.000117371 10
22.127 -15.3786 1.4122 9.09418e-05 10
22.1127 -15.3687 2.35598 8.98043e-05 10
22.1188 -15.373 3.30737 8.81198e-05 10
22.1039 -15.3626 4.26344 8.59132e-05 10
22.1267 -15.3785 5.23778 8.32167e-05 10
22.1147 -15.3701 6.21761 8.00699e-05 10
22.1201 -15.3739 7.21801 7.65184e-05 10
8.14712 -5.62032 -2.65207 0.000125762 4
9.45929 -6.52553 -2.65308 0.000230709 4
10.8729 -7.5007 -2.56759 0.00032656 4
13.2005 -9.10642 -2.53999 4.65775e-05 4
22.1071 -15.2507 -2.3497 0.00011665 10
22.1127 -15.2545 -1.40788 0.000118122 10
22.1183 -15.2584 -0.469031 0.000118863 10
22.1122 -15.2542 0.468902 0.000118861 10
22.1087 -15.2517 1.40762 9.20971e-05 10
22.1226 -15.2613 2.35134 9.09464e-05 10
22.1206 -15.26 3.29966 8.92421e-05 10
22.1079 -15.2512 4.25392 8.70096e-05 10
22.1157 -15.2566 5.22252 8.42815e-05 10
22.1268 -15.2643 6.206 8.10978e-05 10
22.1146 -15.2558 7.19879 7.75043e-05 10
8.15946 -5.5869 -2.64972 0.000143369 4
9.48409 -6.49389 -2.65366 0.00023363 4
10.9468 -7.49544 -2.57885 0.000295188 4
13.2295 -9.05841 -2.53946 4.65777e-05 4
22.1107 -15.1395 -2.34445 0.00011812 10
22.1068 -15.1369 -1.40413 0.00011961 10
22.12 -15.1459 -0.467944 0.000120359 10
22.1175 -15.1441 0.467889 0.000120357 10
22.1108 -15.1396 1.40439 9.32572e-05 10
22.1159 -15.1431 2.345 9.20931e-05 10
22.1264 -15.1503 3.29261 9.03691e-05 10
22.1118 -15.1402 4.24446 8.81107e-05 10
22.1236 -15.1483 5.21187 8.53509e-05 10
22.1034 -15.1345 6.18457 8.21299e-05 10
22.1119 -15.1403 7.18067 7.84944e-05 10
8.19186 -5.56718 -2.65391 0.000181098 4
9.50863 -6.46206 -2.6542 0.000233631 4
11.0219 -7.49047 -2.59036 0.000322266 4
13.2671 -9.01634 -2.54063 5.48417e-05 4
22.1103 -15.0261 -2.33883 0.000119597 10
22.1111 -15.0267 -1.40106 0.000121104 10
22.112 -15.0273 -0.466661 0.000121862 10
22.1156 -15.0297 0.466736 0.00012186 10
22.1183 -15.0316 1.40152 9.44219e-05 10
22.1015 -15.0202 2.3379 9.32444e-05 10
22.1059 -15.0232 3.28174 9.15006e-05 10
22.1057 -15.023 4.23321 8.92162e-05 10
22.1064 -15.0235 5.19545 8.64246e-05 10
22.1188 -15.0319 6.17416 8.31664e-05 10
22.1246 -15.0359 7.16771 7.94886e-05 10
8.20434 -5.5339 -2.65168 0.000251526 4
9.52345 -6.42365 -2.65207 9.19923e-05 4
11.1024 -7.48866 -2.60312 0.000355558 4
13.2928 -8.9661 -2.53954 5.44663e-05 4
22.142 -14.935 -2.33666 8.24958e-05 10
22.14 -14.9336 -1.39959 8.35332e-05 10
22.1449 -14.9369 -0.466253 8.40545e-05 10
22.128 -14.9256 0.465897 8.40519e-05 10
22.1206 -14.9205 1.39836 9.5591e-05 10
22.1171 -14.9182 2.33403 9.44002e-05 10
22.1054 -14.9103 3.27391 9.26366e-05 10
22.1031 -14.9087 4.22271 9.03261e-05 10
22.1192 -14.9196 5.18619 8.75025e-05 10
22.1205 -14.9205 6.16007 8.42069e-05 10
22.1139 -14.916 7.14733 8.04868e-05 10
8.22058 -5.5032 -2.65071 0.000158462 4
9.55231 -6.39472 -2.65387 7.88507e-05 4
11.1906 -7.49147 -2.61766 0.000332103 4
13.3238 -8.91954 -2.53951 4.92077e-05 4
22.3083 -14.9341 -2.34869 8.03547e-05 10
22.3081 -14.934 -1.40691 8.13672e-05 10
22.2941 -14.9246 -0.468295 8.18761e-05 10
22.2972 -14.9267 0.468359 8.18736e-05 10
22.1178 -14.8066 1.39491 9.67647e-05 10
22.1219 -14.8093 2.32906 9.55604e-05 10
22.1212 -14.8089 3.26859 9.37769e-05 10
22.1004 -14.795 4.21231 9.14402e-05 10
22.112 -14.8027 5.17235 8.85846e-05 10
22.1106 -14.8018 6.14288 8.52516e-05 10
22.1123 -14.8029 7.13007 8.1489e-05 10
8.23741 -5.47292 -2.64996 0.000128279 4
9.56166 -6.35275 -2.65029 9.78335e-05 4
11.2528 -7.47633 -2.62608 0.00029518 4
13.3441 -8.86581 -2.53745 5.22129e-05 4
22.466 -14.9263 -2.35979 7.82491e-05 10
22.1077 -14.6883 1.39103 9.79427e-05 10
22.1171 -14.6946 2.32315 9.6725e-05 10
22.116 -14.6938 3.26022 9.49214e-05 10
22.1093 -14.6894 4.2042 9.25586e-05 10
22.1186 -14.6955 5.16185 8.96708e-05 10
22.1203 -14.6967 6.13128 8.63002e-05 10
22.1229 -14.6985 7.11691 8.24951e-05 10
8.24986 -5.43979 -2.64784 0.000140856 4
9.59678 -6.32791 -2.65389 0.000166463 4
11.3289 -7.47003 -2.63774 0.000377643 4
13.3816 -8.82352 -2.53871 4.50761e-05 4
22.6438 -14.9308 -2.37298 7.61791e-05 10
22.109 -14.5782 1.3879 9.91248e-05 10
22.1113 -14.5797 2.31718 9.78936e-05 10
22.099 -14.5716 3.2502 9.607e-05 10
22.1184 -14.5844 4.19623 9.36809e-05 10
22.1063 -14.5764 5.14708 9.07609e-05 10
22.1016 -14.5733 6.11197 8.73526e-05 10
22.1025 -14.5739 7.09394 8.35049e-05 10
8.27478 -5.41486 -2.64975 0.000103127 4
9.61425 -6.29139 -2.65263 5.40277e-05 4
11.4099 -7.46643 -2.65052 0.000277268 4
13.4286 -8.78744 -2.54179 4.09443e-05 4
22.8249 -14.9362 -2.38648 7.41443e-05 10
22.2756 -14.5767 1.39515 6.47057e-05 10
22.2681 -14.5718 2.32826 6.38993e-05 10
22.268 -14.5718 3.26755 6.27055e-05 10
22.2792 -14.5791 4.21705 6.11419e-05 10
22.2793 -14.5791 5.17547 5.92314e-05 10
22.265 -14.5698 6.14305 5.70016e-05 10
22.2598 -14.5664 7.12804 5.44846e-05 10
8.30379 -5.39255 -2.653 6.53975e-05 4
9.64273 -6.26206 -2.65444 7.30106e-05 4
11.4867 -7.45957 -2.6623 0.000352189 4
13.4431 -8.73003 -2.53875 4.39495e-05 4
22.9836 -14.9257 -2.39761 7.21448e-05 10
30.7928 -19.9971 -1.92421 2.94122e-05 10
30.7965 -19.9995 -0.640961 2.96249e-05 10
30.8005 -20.0021 0.641043 2.96244e-05 10
22.9962 -14.9339 1.43701 5.69618e-05 10
22.9917 -14.931 4.34202 5.37867e-05 10
22.991 -14.9305 5.32867 5.20852e-05 10
22.9803 -14.9236 7.34205 3.05536e-05 10
8.31259 -5.3571 -2.64982 7.54588e-05 4
9.65191 -6.22023 -2.65097 0.000182527 4
11.571 -7.45702 -2.67579 0.000299465 4
13.4756 -8.68442 -2.53915 5.59702e-05 4
23.1613 -14.9264 -2.41069 7.018e-05 10
30.7777 -19.8349 -1.91893 2.98144e-05 10
30.7941 -19.8454 -0.639464 3.00298e-05 10
30.787 -19.8409 0.639317 3.00293e-05 10
23.1563 -14.9232 1.44375 5.54121e-05 10
23.2892 -15.0089 2.42401 5.2202e-05 10
23.2951 -15.0127 3.40279 5.12112e-05 10
23.1667 -14.9299 4.36521 5.23166e-05 10
23.166 -14.9295 5.35713 5.0658e-05 10
23.2857 -15.0066 6.39559 4.64797e-05 10
8.34331 -5.33577 -2.65366 0.000309382 4
9.68115 -6.19136 -2.65305 0.000153323 4
11.6675 -7.46167 -2.69206 0.000347198 4
13.5152 -8.64333 -2.54091 5.25896e-05 4
23.3443 -14.9293 -2.42431 6.82502e-05 10
23.5751 -15.0769 -1.46658 6.72513e-05 10
23.5949 -15.0895 -0.48887 6.76805e-05 10
23.5716 -15.0746 0.488387 6.76795e-05 10
23.3259 -14.9175 1.45107 5.38899e-05 10
23.3483 -14.9319 2.42472 5.22527e-05 10
23.3456 -14.9301 3.40254 5.12608e-05 10
23.3466 -14.9308 4.38925 5.08727e-05 10
23.344 -14.9291 5.38619 4.92562e-05 10
23.3538 -14.9354 6.39995 4.65241e-05 10
8.35649 -5.30319 -2.65195 0.000150918 4
9.69923 -6.15532 -2.6521 3.65056e-05 4
11.7459 -7.4542 -2.70414 0.000262625 4
13.5388 -8.59201 -2.5397 5.67219e-05 4
23.5144 -14.9227 -2.43654 6.6355e-05 10
23.592 -14.972 -1.46437 6.80503e-05 10
23.5949 -14.9738 -0.487786 6.84842e-05 10
23.585 -14.9675 0.48758 6.84832e-05 10
23.5081 -14.9187 1.45916 5.23949e-05 10
23.3838 -14.8398 2.42301 8.23724e-05 10
23.3612 -14.8255 3.39725 8.08096e-05 10
23.5188 -14.9255 4.4118 4.94548e-05 10
23.5216 -14.9273 5.41513 4.78799e-05 10
23.3799 -14.8373 6.39287 7.33454e-05 10
8.37598 -5.27464 -2.65228 0.000128281 4
9.70935 -6.11431 -2.64902 0.000109517 4
11.8313 -7.45059 -2.7178 0.000269768 4
13.5609 -8.53977 -2.53824 5.63465e-05 4
23.7076 -14.9295 -2.45116 6.44943e-05 10
23.8637 -15.0278 -1.47796 6.55971e-05 10
23.8526 -15.0208 -0.492026 6.6017e-05 10
23.8541 -15.0218 0.492057 6.6016e-05 10
23.695 -14.9216 1.46752 5.09271e-05 10
23.3607 -14.711 2.41528 8.33399e-05 10
23.3759 -14.7206 3.3919 8.17601e-05 10
23.7013 -14.9255 4.43625 4.8063e-05 10
23.6959 -14.9221 5.44322 4.65288e-05 10
23.3599 -14.7105 6.37332 7.4215e-05 10
8.39722 -5.24717 -2.65319 8.04901e-05 4
9.73702 -6.08437 -2.65076 4.96479e-05 4
11.9173 -7.44674 -2.73155 0.000113455 1
13.6014 -8.49908 -2.54024 4.658e-05 4
23.8732 -14.9176 -2.46287 6.26677e-05 10
23.8829 -14.9237 -1.47592 4.19259e-05 10
23.8716 -14.9167 -0.491341 4.21934e-05 10
23.8897 -14.9279 0.491712 4.2192e-05 10
23.8722 -14.917 1.47526 4.94862e-05 10
23.3599 -14.5969 2.40992 8.43103e-05 10
23.375 -14.6063 3.38435 8.27137e-05 10
23.8682 -14.9145 4.4577 4.66967e-05 10
23.8677 -14.9142 5.47068 4.52026e-05 10
23.3673 -14.6015 6.3614 7.50874e-05 10
23.3005 -14.5598 7.36203 4.60283e-05 10
8.41536 -5.21774 -2.65314 9.30669e-05 4
9.76316 -6.05342 -2.6521 2.92047e-05 4
11.9352 -7.40016 -2.72973 0.000113456 1
13.6172 -8.44301 -2.53767 5.03366e-05 4
24.0708 -14.9245 -2.47787 6.08752e-05 10
24.1288 -14.9605 -1.48788 6.39889e-05 10
24.1343 -14.9639 -0.495669 6.43997e-05 10
24.1149 -14.9519 0.495271 6.43988e-05 10
24.0648 -14.9208 1.48393 4.80721e-05 10
23.4924 -14.5659 2.41832 5.25683e-05 10
23.4966 -14.5685 3.39456 5.15706e-05 10
24.0711 -14.9247 4.48584 4.5356e-05 10
24.076 -14.9278 5.50646 4.39014e-05 10
23.4967 -14.5686 6.38275 4.68074e-05 10
24.0588 -14.9171 7.58512 4.02927e-05 10
8.4239 -5.18242 -2.65012 0.000160981 4
9.78209 -6.01799 -2.65152 8.03132e-05 4
11.9522 -7.35304 -2.72772 0.000113456 1
13.6506 -8.39789 -2.53842 4.77073e-05 4
24.2412 -14.9133 -2.49003 5.91164e-05 10
24.4056 -15.0144 -1.50171 6.17125e-05 10
24.4037 -15.0133 -0.500124 6.21102e-05 10
24.4001 -15.011 0.500048 6.21093e-05 10
24.2405 -14.9129 1.49155 4.66846e-05 10
24.248 -14.9175 2.49073 4.6086e-05 10
24.2517 -14.9198 3.49612 4.52003e-05 10
24.2611 -14.9255 4.51152 4.40407e-05 10
24.2415 -14.9135 5.53238 4.2625e-05 10
24.2582 -14.9238 6.57541 4.09743e-05 10
24.2613 -14.9256 7.63249 3.9113e-05 10
8.44108 -5.15246 -2.64985 0.000218834 4
9.80932 -5.98763 -2.65322 0.000113899 4
11.9905 -7.31902 -2.73061 0.000113456 1
13.7468 -8.39106 -2.55084 0.000177632 4
24.4366 -14.9162 -2.50474 5.73913e-05 10
24.451 -14.9249 -1.50128 3.83994e-05 10
24.4405 -14.9185 -0.499806 3.86461e-05 10
24.441 -14.9188 0.499816 3.86448e-05 10
24.4283 -14.9111 1.49989 4.53236e-05 10
24.4498 -14.9242 2.5061 4.47411e-05 10
24.4286 -14.9113 3.51409 4.3879e-05 10
24.4281 -14.911 4.53287 4.27507e-05 10
24.4455 -14.9216 5.56701 4.13732e-05 10
24.436 -14.9158 6.60944 3.9767e-05 10
24.4297 -14.912 7.66904 3.79563e-05 10
8.45456 -5.12027 -2.64845 0.000138344 4
9.82208 -5.94846 -2.65104 9.92968e-05 4
12.0062 -7.27119 -2.72838 0.000113457 1
13.8253 -8.37288 -2.55997 0.0001777 4
24.6256 -14.9138 -2.51876 5.56995e-05 10
24.6714 -14.9415 -1.5116 6.02168e-05 10
24.6528 -14.9303 -0.50308 6.0606e-05 10
24.6509 -14.9291 0.50304 6.06051e-05 10
24.6355 -14.9198 1.50941 4.39889e-05 10
24.6377 -14.9211 2.52 4.34221e-05 10
24.6207 -14.9108 3.53421 4.25835e-05 10
24.6232 -14.9123 4.55938 4.14859e-05 10
