VERSION 0.7
FIELDS x y z intensity label
SIZE 4 4 4 4 4
TYPE F F F F F
COUNT 1 1 1 1 1
WIDTH 1185
HEIGHT 1
VIEWPOINT 17.0322 44.9965 2.72861 0.999999 -7.7594e-05 0.000793786 -0.00122494
POINTS 1185
DATA ascii
6.52685 21.3483 4.3393 6.29545e-05 10
6.52007 21.3262 5.1485 6.07574e-05 10
6.52422 21.3397 5.97923 5.82684e-05 10
2.85043 9.44107 -2.64251 0.000147268 4
3.31072 10.9656 -2.64448 6.49869e-05 4
3.80823 12.6135 -2.56112 0.000545156 4
4.96178 16.4342 -2.71897 4.9583e-05 1
6.00031 19.874 -2.54901 0.000230526 10
6.44583 21.3496 -1.95112 6.6956e-05 10
6.44539 21.3482 -1.16869 6.77562e-05 10
6.44554 21.3486 -0.389256 6.81662e-05 10
6.43892 21.3267 0.388856 6.81807e-05 10
6.44417 21.3441 1.16847 6.77992e-05 10
6.43922 21.3277 1.94912 6.7027e-05 10
6.43974 21.3294 2.73569 6.58745e-05 10
6.44211 21.3373 3.53016 6.43575e-05 10
6.4428 21.3396 4.33292 6.24965e-05 10
6.43954 21.3288 5.14367 6.03164e-05 10
6.44444 21.345 5.97437 5.78465e-05 10
2.82417 9.47347 -2.6488 0.000200575 4
3.26877 10.9649 -2.64153 7.53191e-05 4
3.75879 12.6086 -2.55745 0.000585244 4
4.90633 16.4579 -2.72005 4.9576e-05 1
5.97785 20.0523 -2.56919 0.000224368 10
6.35893 21.3306 -1.94734 6.64529e-05 10
6.35961 21.3329 -1.16663 6.72468e-05 10
6.35805 21.3276 -0.388466 6.76538e-05 10
6.35749 21.3258 0.388431 6.76683e-05 10
6.36445 21.3491 1.16752 6.729e-05 10
6.36225 21.3417 1.94836 6.65241e-05 10
6.3574 21.3255 2.73231 6.53808e-05 10
6.35819 21.3281 3.52495 6.3876e-05 10
6.36099 21.3375 4.32797 6.20297e-05 10
6.35739 21.3254 5.13748 5.98668e-05 10
6.36481 21.3503 5.9696 5.74165e-05 10
2.78901 9.47623 -2.64684 0.000126937 4
3.23089 10.9776 -2.64187 7.67893e-05 4
3.71324 12.6165 -2.55641 0.000600252 4
4.8488 16.4748 -2.72002 4.95689e-05 1
5.94868 20.2119 -2.58696 0.000218289 10
6.28355 21.3497 -1.94707 6.59403e-05 10
6.28257 21.3463 -1.16616 6.6728e-05 10
6.28451 21.3529 -0.388525 6.71319e-05 10
6.28106 21.3412 0.388311 6.71464e-05 10
6.28212 21.3448 1.16608 6.67713e-05 10
6.28398 21.3511 1.94721 6.60116e-05 10
6.28226 21.3453 2.73203 6.48778e-05 10
6.27779 21.3301 3.52164 6.33853e-05 10
6.279 21.3342 4.32283 6.1554e-05 10
6.28209 21.3447 5.13682 5.94088e-05 10
6.28055 21.3395 5.9604 5.69782e-05 10
2.75134 9.47017 -2.64245 0.000213238 4
3.19342 10.9918 -2.64259 6.20166e-05 4
3.65923 12.5951 -2.54948 0.000598362 4
4.78415 16.4672 -2.71598 4.95619e-05 1
5.93059 20.4132 -2.61007 0.000212292 10
6.20121 21.3447 -1.94463 6.54185e-05 10
6.1962 21.3275 -1.16394 6.61998e-05 10
6.1987 21.336 -0.387821 6.66005e-05 10
6.19937 21.3383 0.387863 6.66151e-05 10
6.1968 21.3295 1.16405 6.62432e-05 10
6.1975 21.3319 1.94347 6.54901e-05 10
6.19873 21.3362 2.72807 6.43658e-05 10
6.19999 21.3405 3.51976 6.28857e-05 10
6.20091 21.3437 4.32033 6.10697e-05 10
6.19527 21.3243 5.12665 5.89423e-05 10
6.19691 21.3299 5.95165 5.65319e-05 10
2.72091 9.48895 -2.64502 0.000149763 4
3.15428 11.0003 -2.64196 8.7111e-05 4
3.61473 12.6061 -2.54912 0.000604939 4
4.72896 16.4919 -2.71732 4.95548e-05 1
5.93436 20.6956 -2.6435 0.000213933 10
6.11768 21.3349 -1.94178 6.48874e-05 10
6.11928 21.3405 -1.16348 6.56623e-05 10
6.12057 21.345 1.16372 6.57058e-05 10
6.11748 21.3342 1.94172 6.49592e-05 10
6.11972 21.342 2.72607 6.38446e-05 10
6.11499 21.3255 3.51374 6.23772e-05 10
6.12086 21.346 5.95014 5.60778e-05 10
2.68876 9.50188 -2.64599 0.000129447 4
3.11548 11.0099 -2.64163 0.000115153 4
3.57064 12.6184 -2.54907 8.12517e-05 4
4.67227 16.5114 -2.71784 4.95477e-05 1
5.94674 21.0153 -2.68168 0.00020294 10
6.04187 21.3515 -1.94136 6.43473e-05 10
6.04061 21.3471 -1.16268 6.51155e-05 10
6.03752 21.3361 1.16209 6.51591e-05 10
6.03574 21.3298 1.93939 6.44192e-05 10
6.04196 21.3518 2.72461 6.33144e-05 10
6.04059 21.347 3.51379 6.18599e-05 10
6.03552 21.3291 5.93952 5.56154e-05 10
2.65566 9.51151 -2.64608 0.000131975 4
3.08406 11.0458 -2.64767 6.7905e-05 4
3.5179 12.5997 -2.5428 0.000279014 4
4.61508 16.5293 -2.71812 4.95406e-05 1
5.95739 21.337 -1.93814 6.3798e-05 10
5.95535 21.3296 -1.16059 6.45596e-05 10
5.95755 21.3375 1.16102 6.46033e-05 10
5.95857 21.3412 1.93852 6.38701e-05 10
5.9582 21.3399 2.72042 6.27753e-05 10
5.95824 21.34 3.50919 6.13338e-05 10
5.95715 21.3361 5.93564 5.51451e-05 10
2.61864 9.50692 -2.64224 7.86719e-05 4
3.47682 12.6225 -2.54495 0.000180956 4
4.55382 16.5325 -2.71601 4.95336e-05 1
5.87632 21.3338 -1.93598 6.32395e-05 10
5.87534 21.3303 -1.1595 6.39944e-05 10
5.87671 21.3353 1.15978 6.40382e-05 10
5.88027 21.3482 1.93728 6.33118e-05 10
5.878 21.3399 2.7178 6.22272e-05 10
5.87637 21.334 3.50482 6.07989e-05 10
5.87551 21.3309 5.92845 5.46668e-05 10
2.58692 9.52143 -2.64375 8.62789e-05 4
3.00696 11.0674 -2.64775 7.08449e-05 4
3.42457 12.6045 -2.53888 0.000691886 4
4.50108 16.5667 -2.71903 4.95264e-05 1
5.79397 21.3253 -2.71334 6.15704e-05 10
5.80039 21.349 -1.9355 6.26723e-05 10
5.7946 21.3277 -1.15825 6.34202e-05 10
5.79862 21.3425 1.15906 6.34641e-05 10
5.7963 21.3339 1.93414 6.27446e-05 10
5.80071 21.3501 2.7165 6.16703e-05 10
5.79891 21.3435 3.50303 6.02556e-05 10
5.7989 21.3435 5.92629 5.41807e-05 10
2.55417 9.5323 -2.64427 0.00018777 4
2.96797 11.0766 -2.64744 7.37902e-05 4
3.37686 12.6026 -2.53611 0.000520791 4
4.44173 16.5768 -2.71812 4.95194e-05 1
5.71665 21.3348 -2.712 6.10045e-05 10
5.71423 21.3258 -1.93158 6.2096e-05 10
5.71783 21.3392 -1.15779 6.2837e-05 10
5.71733 21.3374 1.15769 6.28809e-05 10
5.71613 21.3329 1.93222 6.21686e-05 10
5.71451 21.3268 2.71098 6.11046e-05 10
5.71724 21.337 3.49867 5.97035e-05 10
2.52503 9.55685 -2.64862 0.000182681 4
2.92964 11.0882 -2.64776 8.11621e-05 4
3.32956 12.6019 -2.53361 0.000609757 4
4.38309 16.5893 -2.71765 4.95122e-05 1
5.64129 21.3514 -2.71158 6.04299e-05 10
5.63437 21.3252 -1.92974 6.1511e-05 10
5.63682 21.3345 -1.15646 6.22449e-05 10
5.63885 21.3422 1.15688 6.2289e-05 10
5.63623 21.3322 1.93037 6.15837e-05 10
5.63841 21.3405 2.7102 6.05303e-05 10
5.63483 21.327 3.49377 5.9143e-05 10
2.48792 9.55128 -2.64466 0.000180131 4
2.88684 11.0827 -2.64403 9.73859e-05 4
3.28534 12.6126 -2.53345 0.000594417 4
4.32946 16.621 -2.72036 4.95051e-05 1
5.55883 21.3407 -2.70774 5.98467e-05 10
5.55821 21.3383 -1.92915 6.09171e-05 10
5.55427 21.3232 -1.15479 6.16438e-05 10
5.55779 21.3367 1.15552 6.16881e-05 10
5.55659 21.3321 1.92859 6.099e-05 10
5.55836 21.3389 2.70751 5.99473e-05 10
5.55597 21.3297 3.49102 5.85739e-05 10
2.45662 9.56791 -2.64687 0.000121769 4
2.84816 11.0928 -2.64405 0.00014164 4
3.23757 12.6095 -2.53054 0.000137765 4
4.27125 16.6354 -2.72025 4.9498e-05 1
5.48152 21.3491 -2.70637 5.9255e-05 10
5.47569 21.3264 -1.92634 6.03146e-05 10
5.4781 21.3358 -1.15443 6.10341e-05 10
5.48203 21.3511 1.15526 6.10784e-05 10
5.48129 21.3482 1.92831 6.03877e-05 10
5.47584 21.327 2.70356 5.93558e-05 10
5.47911 21.3397 3.48951 5.79967e-05 10
2.42144 9.56945 -2.64494 0.00014459 4
2.8105 11.107 -2.64507 6.78629e-05 4
3.19654 12.6326 -2.53292 0.000111595 4
4.21149 16.6436 -2.71918 4.94908e-05 1
5.39554 21.323 -2.70065 5.86547e-05 10
5.40062 21.3431 -1.92613 5.97035e-05 10
5.40147 21.3464 -1.15398 6.04157e-05 10
5.40179 21.3477 1.15405 6.04601e-05 10
5.40226 21.3495 1.92671 5.97767e-05 10
5.39979 21.3398 2.70278 5.87557e-05 10
5.39657 21.3271 3.48434 5.7411e-05 10
2.38932 9.58303 -2.64637 0.000205455 4
2.77147 11.1158 -2.64484 7.67077e-05 4
3.15061 12.6364 -2.53147 0.000130761 4
4.15384 16.6601 -2.71949 4.94837e-05 1
5.3215 21.3434 -2.70086 5.80462e-05 10
5.31937 21.3348 -1.9237 5.90839e-05 10
5.31934 21.3347 -1.15233 5.97886e-05 10
5.31812 21.3298 1.15207 5.98331e-05 10
5.31668 21.324 1.92272 5.91573e-05 10
5.31876 21.3324 2.69947 5.81474e-05 10
5.32165 21.344 3.48404 5.68172e-05 10
2.35691 9.59559 -2.64755 0.000286601 4
2.72996 11.1144 -2.64223 0.000147502 4
3.10589 12.6449 -2.53098 0.000124645 4
4.09539 16.6734 -2.7193 4.94765e-05 1
5.24093 21.3372 -2.69775 5.74293e-05 10
5.24403 21.3498 -1.92339 5.84558e-05 10
5.24198 21.3415 -1.15171 5.91531e-05 10
5.24169 21.3403 1.15164 5.91977e-05 10
5.24254 21.3438 1.92284 5.85294e-05 10
5.2388 21.3285 2.69666 5.75307e-05 10
5.23755 21.3234 3.47769 5.62152e-05 10
2.32271 9.60093 -2.64678 0.000180064 4
2.69325 11.1326 -2.6443 7.96438e-05 4
3.06238 12.6583 -2.53152 0.000110687 4
4.03935 16.6967 -2.72078 4.94693e-05 1
5.16379 21.3445 -2.69638 5.68041e-05 10
5.16185 21.3365 -1.92056 5.78193e-05 10
5.16122 21.3339 -1.15032 5.85089e-05 10
5.15847 21.3226 1.1497 5.85536e-05 10
5.15949 21.3268 1.91968 5.7893e-05 10
5.16061 21.3314 2.69472 5.69057e-05 10
5.15815 21.3212 3.47437 5.56051e-05 10
2.2867 9.59855 -2.6439 0.000281487 4
2.65189 11.1315 -2.64182 5.75154e-05 4
3.01811 12.6687 -2.53146 9.49886e-05 4
3.97784 16.6972 -2.71859 4.94621e-05 1
5.08314 21.3368 -2.69315 5.61709e-05 10
5.08581 21.348 -1.91998 5.71747e-05 10
5.08251 21.3341 -1.14936 5.78565e-05 10
5.08441 21.3421 1.14979 5.79013e-05 10
5.08041 21.3253 1.91794 5.72485e-05 10
5.08315 21.3368 2.69315 5.62727e-05 10
5.08156 21.3301 3.47291 5.49871e-05 10
2.2545 9.61209 -2.64545 0.000215537 4
2.61916 11.1668 -2.64803 0.000100274 4
2.97139 12.6686 -2.52935 8.53932e-05 4
3.92211 16.722 -2.72038 4.9455e-05 1
5.00114 21.3225 -2.68912 5.55295e-05 10
5.0015 21.324 -1.91624 5.65217e-05 10
5.00475 21.3379 -1.14862 5.71958e-05 10
5.00204 21.3263 1.148 5.72406e-05 10
5.0041 21.3351 1.91723 5.65957e-05 10
5.00206 21.3264 2.68961 5.56315e-05 10
5.00111 21.3224 3.46878 5.43612e-05 10
2.57752 11.1645 -2.64532 6.19286e-05 4
2.93198 12.6998 -2.53353 0.000127204 4
3.85916 16.7158 -2.71717 4.94478e-05 1
4.92286 21.3232 -2.68703 5.48802e-05 10
4.92645 21.3388 -1.91601 5.58607e-05 10
4.92794 21.3452 -1.14808 5.65269e-05 10
4.92513 21.3331 1.14743 5.65718e-05 10
4.92429 21.3294 1.91517 5.59348e-05 10
4.92842 21.3473 2.69006 5.49824e-05 10
4.92723 21.3422 3.46918 5.37275e-05 10
2.19034 9.64083 -2.64908 0.00018001 4
2.53898 11.1753 -2.64578 6.1923e-05 4
2.88871 12.7147 -2.53447 9.93132e-05 4
3.80697 16.7564 -2.72159 4.94406e-05 1
4.84779 21.3377 -2.6867 5.42229e-05 10
4.8485 21.3408 -1.91465 5.51916e-05 10
4.84799 21.3385 -1.1468 5.58498e-05 10
4.85023 21.3484 1.14733 5.58949e-05 10
4.84792 21.3382 1.91442 5.52658e-05 10
4.8483 21.3399 2.68698 5.43253e-05 10
4.84882 21.3422 3.46641 5.30859e-05 10
2.15535 9.64248 -2.64745 9.38008e-05 4
2.49652 11.1688 -2.64215 7.2237e-05 4
2.8437 12.722 -2.53392 0.000113239 4
3.74873 16.7708 -2.72179 4.94333e-05 1
4.76693 21.326 -2.68312 5.35579e-05 10
4.77118 21.345 -1.91353 5.45147e-05 10
4.76648 21.324 -1.14512 5.51649e-05 10
4.77174 21.3475 1.14639 5.521e-05 10
4.77179 21.3477 1.91377 5.4589e-05 10
4.76799 21.3307 2.68372 5.36605e-05 10
4.76919 21.3361 3.4627 5.24369e-05 10
2.11855 9.63573 -2.64355 0.000291521 4
2.46096 11.1931 -2.64585 0.000131194 4
2.79865 12.729 -2.53336 9.84203e-05 4
3.68955 16.781 -2.72134 4.94261e-05 1
4.69034 21.3329 -2.68191 5.28851e-05 10
4.68967 21.3298 -1.91069 5.38297e-05 10
4.68856 21.3248 -1.14428 5.44719e-05 10
4.69102 21.336 1.14488 5.4517e-05 10
4.68984 21.3306 1.91076 5.39042e-05 10
4.69176 21.3393 2.68272 5.29878e-05 10
4.69083 21.3351 3.45986 5.17801e-05 10
2.0896 9.66478 -2.64951 9.88563e-05 4
2.42037 11.1947 -2.64421 5.89583e-05 4
2.75095 12.7237 -2.53037 9.14424e-05 4
3.63175 16.7975 -2.72193 4.94189e-05 1
4.61054 21.3246 -2.67883 5.22047e-05 10
4.61053 21.3246 -1.90876 5.31372e-05 10
4.60967 21.3206 -1.14318 5.37711e-05 10
4.61112 21.3273 1.14354 5.38163e-05 10
4.61193 21.331 1.90934 5.32118e-05 10
4.61135 21.3283 2.6793 5.23076e-05 10
4.61543 21.3472 3.45919 5.1116e-05 10
2.05603 9.67285 -2.64974 5.57609e-05 4
2.38146 11.2039 -2.6444 6.63222e-05 4
2.70614 12.7314 -2.53001 0.000112331 4
3.5678 16.7851 -2.7179 4.94117e-05 1
4.5335 21.3284 -2.6773 5.15169e-05 10
4.53634 21.3417 -1.90887 5.2437e-05 10
4.53319 21.327 -1.14267 5.30626e-05 10
4.5317 21.3199 1.14229 5.31078e-05 10
4.53754 21.3474 1.90938 5.25117e-05 10
4.53436 21.3324 2.67781 5.16199e-05 10
4.53333 21.3276 3.45343 5.04445e-05 10
2.02026 9.67043 -2.64713 0.000164736 4
2.3424 11.2124 -2.64448 3.8316e-05 4
2.66547 12.7589 -2.53362 9.92584e-05 4
3.51399 16.8205 -2.72163 4.94045e-05 1
4.45728 21.3358 -2.67626 5.08214e-05 10
4.45411 21.3206 -1.90558 5.17292e-05 10
4.45973 21.3475 -1.14293 5.23463e-05 10
4.45517 21.3257 1.14176 5.23917e-05 10
4.45893 21.3437 1.90764 5.1804e-05 10
4.45478 21.3238 2.67476 5.09247e-05 10
4.45455 21.3227 3.4501 4.97656e-05 10
1.98546 9.67238 -2.64575 9.12313e-05 4
2.30484 11.2283 -2.64631 7.80987e-05 4
2.73678 13.3325 -2.64562 6.55107e-05 4
3.45561 16.8344 -2.7219 4.93972e-05 1
4.37947 21.3351 -2.67424 5.01188e-05 10
4.38214 21.3481 -1.90666 5.10139e-05 10
4.38223 21.3485 -1.14216 5.16226e-05 10
4.38142 21.3446 1.14195 5.16681e-05 10
4.37964 21.3359 1.90557 5.10889e-05 10
4.37681 21.3221 2.67262 5.02221e-05 10
4.37649 21.3206 3.44726 4.90796e-05 10
1.95275 9.68456 -2.6472 4.30782e-05 4
2.26244 11.2204 -2.64258 5.89371e-05 4
2.69211 13.3514 -2.64748 0.000147763 4
3.39493 16.837 -2.72039 4.93899e-05 1
4.30461 21.3485 -2.67402 4.94087e-05 10
4.30399 21.3454 -1.90507 5.02912e-05 10
4.30255 21.3383 -1.1408 5.08914e-05 10
4.30064 21.3288 1.14029 5.09369e-05 10
4.30067 21.3289 1.9036 5.03663e-05 10
4.29935 21.3224 2.67075 4.95123e-05 10
4.30388 21.3449 3.44874 4.83864e-05 10
1.91591 9.67606 -2.64303 0.000134292 4
2.22827 11.2536 -2.64853 3.97789e-05 4
3.33321 16.8339 -2.718 4.93827e-05 1
4.22644 21.345 -2.67172 4.86916e-05 10
4.22689 21.3473 -1.90391 4.95613e-05 10
4.22209 21.3231 -1.13919 5.01529e-05 10
4.22562 21.3409 1.14014 5.01984e-05 10
4.22695 21.3477 1.90394 4.96365e-05 10
4.22296 21.3275 2.66953 4.87953e-05 10
4.22606 21.3431 3.44605 4.76862e-05 10
1.88369 9.69075 -2.64523 0.000271098 4
2.18512 11.2415 -2.64387 6.4819e-05 4
2.59549 13.3527 -2.64407 0.00019342 4
3.27721 16.8598 -2.7203 4.93754e-05 1
4.14613 21.33 -2.66801 4.79674e-05 10
4.14765 21.3378 -1.90176 4.88242e-05 10
4.14773 21.3382 -1.13922 4.9407e-05 10
4.14872 21.3433 1.13949 4.94526e-05 10
4.14422 21.3202 1.90019 4.88994e-05 10
4.14928 21.3462 2.67004 4.80712e-05 10
4.14896 21.3445 3.44392 4.69791e-05 10
1.85107 9.70365 -2.64697 9.8804e-05 4
2.14951 11.2681 -2.64836 5.30289e-05 4
3.21997 16.8797 -2.72168 4.93681e-05 1
4.06857 21.3282 -2.66599 4.72362e-05 10
4.07117 21.3418 -1.90083 4.808e-05 10
4.0679 21.3247 -1.13773 4.86541e-05 10
4.0717 21.3446 1.13879 4.86998e-05 10
4.07095 21.3406 1.90073 4.81554e-05 10
4.0709 21.3404 2.66752 4.73402e-05 10
4.06888 21.3298 3.43923 4.62653e-05 10
1.81512 9.69903 -2.64397 0.000124129 4
2.11093 11.2796 -2.64932 5.15512e-05 4
2.50158 13.3671 -2.64341 0.000127902 4
3.15807 16.875 -2.71914 4.93609e-05 1
3.9926 21.3343 -2.665 4.64982e-05 10
3.99091 21.3253 -1.89811 4.73288e-05 10
3.99378 21.3406 -1.13783 4.78941e-05 10
3.99323 21.3376 1.13767 4.79398e-05 10
3.99063 21.3237 1.89797 4.74043e-05 10
3.9929 21.3359 2.6652 4.66023e-05 10
3.99418 21.3427 3.43904 4.55446e-05 10
1.78076 9.70259 -2.64322 0.000139318 4
2.06886 11.2723 -2.64589 5.59648e-05 4
2.45889 13.3975 -2.6477 5.70929e-05 4
3.10115 16.8968 -2.7209 4.93536e-05 1
3.91744 21.3445 -2.66454 4.57535e-05 10
3.91522 21.3324 -1.89751 4.65709e-05 10
3.91688 21.3414 -1.13714 4.71272e-05 10
3.91324 21.3215 1.13608 4.7173e-05 10
3.91474 21.3297 1.89728 4.66464e-05 10
3.9166 21.3399 2.66397 4.58577e-05 10
3.91304 21.3204 3.43323 4.48174e-05 10
1.75046 9.72864 -2.64864 0.000131709 4
2.0283 11.2728 -2.64432 5.89049e-05 4
2.41078 13.3985 -2.64623 5.70865e-05 4
3.04383 16.9169 -2.72239 4.93463e-05 1
3.83602 21.3197 -2.65976 4.50021e-05 10
3.83629 21.3212 -1.89532 4.58062e-05 10
3.83861 21.3341 -1.13603 4.63535e-05 10
3.83633 21.3214 1.13535 4.63993e-05 10
3.83925 21.3376 1.89678 4.58818e-05 10
3.83659 21.3229 2.66016 4.51064e-05 10
3.83741 21.3274 3.43217 4.40837e-05 10
1.71495 9.72598 -2.64627 0.000291256 4
1.99194 11.2969 -2.64832 4.56471e-05 4
2.36088 13.3892 -2.64275 4.10976e-05 4
2.98501 16.9288 -2.72263 4.9339e-05 1
3.75992 21.3236 -2.65859 4.42441e-05 10
3.7627 21.3393 -1.89575 4.50347e-05 10
3.7613 21.3314 -1.13518 4.55729e-05 10
3.76398 21.3466 -0.378354 4.58517e-05 10
3.75911 21.319 0.377864 4.5867e-05 10
3.76364 21.3447 1.13588 4.56188e-05 10
3.76041 21.3263 1.89459 4.51104e-05 10
3.75963 21.3219 2.65839 4.43485e-05 10
3.75905 21.3186 3.42862 4.33434e-05 10
3.75969 21.3223 4.20857 4.21086e-05 10
3.7598 21.3229 4.99872 4.06604e-05 10
3.76326 21.3425 5.80692 3.9018e-05 10
1.67962 9.72396 -2.64411 0.000169676 4
1.95171 11.2992 -2.64725 4.41706e-05 4
2.31471 13.4007 -2.64341 0.000144586 4
2.9237 16.9264 -2.72057 4.93317e-05 1
3.68327 21.3238 -2.65701 4.34797e-05 10
3.68548 21.3366 -1.89435 4.42567e-05 10
3.68705 21.3457 -1.13525 4.47859e-05 10
3.68543 21.3363 -0.377942 4.506e-05 10
3.6839 21.3275 0.377785 4.50754e-05 10
3.68584 21.3387 1.13487 4.48318e-05 10
3.68512 21.3345 1.89417 4.43325e-05 10
3.68642 21.3421 2.65928 4.35843e-05 10
3.68298 21.3221 3.4271 4.2597e-05 10
3.68476 21.3324 4.20801 4.13839e-05 10
3.68398 21.328 4.99686 3.99612e-05 10
3.6823 21.3182 5.79678 3.83477e-05 10
1.64698 9.73751 -2.64622 0.000139275 4
1.91057 11.296 -2.64492 5.59443e-05 4
2.26935 13.4172 -2.64509 4.79364e-05 4
2.86565 16.9427 -2.72158 4.93244e-05 1
3.60854 21.335 -2.65681 4.27089e-05 10
3.60608 21.3204 -1.89179 4.34723e-05 10
3.60754 21.3291 -1.13369 4.39922e-05 10
3.60662 21.3236 -0.377492 4.42617e-05 10
3.60794 21.3314 0.377629 4.42771e-05 10
3.60834 21.3338 1.13394 4.40382e-05 10
3.60587 21.3192 1.89168 4.35482e-05 10
3.60826 21.3333 2.65661 4.28135e-05 10
3.60951 21.3407 3.42805 4.18442e-05 10
3.60654 21.3231 4.20367 4.06532e-05 10
3.60765 21.3297 4.99429 3.92562e-05 10
3.60856 21.3351 5.79791 3.76717e-05 10
1.6113 9.73306 -2.64346 0.000232952 4
1.87387 11.3191 -2.6488 5.59392e-05 4
2.22433 13.4361 -2.64726 0.000133142 4
2.80599 16.9496 -2.72109 4.93171e-05 1
3.53263 21.3388 -2.65574 4.1932e-05 10
3.52976 21.3215 -1.89078 4.26816e-05 10
3.53119 21.3302 -1.13308 4.31923e-05 10
3.53227 21.3367 -0.377502 4.34571e-05 10
3.53214 21.3359 0.377489 4.34725e-05 10
3.53077 21.3276 1.13295 4.32383e-05 10
3.53345 21.3438 1.89276 4.27575e-05 10
3.53334 21.3431 2.65628 4.20367e-05 10
3.52932 21.3189 3.42254 4.10855e-05 10
3.52935 21.319 4.2004 3.99165e-05 10
3.5335 21.3441 4.99474 3.85454e-05 10
3.53347 21.3439 5.79693 3.69903e-05 10
1.57957 9.75255 -2.64724 0.000126595 4
1.83467 11.3276 -2.64926 5.44622e-05 4
2.17614 13.4359 -2.6457 0.000504437 4
2.74749 16.9635 -2.72177 4.93097e-05 1
3.45644 21.3407 -2.65446 4.11488e-05 10
3.45461 21.3294 -1.8904 4.18846e-05 10
3.45301 21.3196 -1.13187 4.23859e-05 10
3.45701 21.3443 -0.37742 4.26461e-05 10
3.45297 21.3193 0.376979 4.26615e-05 10
3.45639 21.3404 1.13298 4.2432e-05 10
3.4544 21.3281 1.89029 4.19606e-05 10
3.45524 21.3333 2.65353 4.12537e-05 10
3.45325 21.321 3.42093 4.03206e-05 10
3.45284 21.3185 4.1979 3.9174e-05 10
3.45454 21.329 4.98836 3.78289e-05 10
3.45263 21.3172 5.78636 3.63033e-05 10
1.54471 9.75291 -2.64586 0.000116458 4
1.7945 11.33 -2.64834 4.41545e-05 4
2.12787 13.4348 -2.64402 0.000414558 4
2.6898 16.9827 -2.72332 4.93024e-05 1
3.38027 21.3422 -2.65315 4.03597e-05 10
3.37637 21.3176 -1.88829 4.10816e-05 10
3.38011 21.3412 -1.13239 4.15735e-05 10
3.37969 21.3385 -0.377108 4.18289e-05 10
3.3803 21.3424 0.377176 4.18444e-05 10
3.37642 21.3179 1.13115 4.16196e-05 10
3.37934 21.3363 1.88995 4.11577e-05 10
3.38045 21.3433 2.6533 4.04647e-05 10
3.37636 21.3175 3.41845 3.955e-05 10
3.37719 21.3228 4.19639 3.84258e-05 10
3.37637 21.3175 4.98289 3.7107e-05 10
3.37841 21.3304 5.78672 3.5611e-05 10
1.5127 9.77142 -2.64943 0.000199989 4
1.75372 11.3283 -2.6465 9.56592e-05 4
2.0784 13.4256 -2.64076 0.000444539 4
2.627 16.9693 -2.71969 4.9295e-05 1
3.30355 21.3396 -2.65139 3.95648e-05 10
3.30277 21.3346 -1.88877 4.02726e-05 10
3.30007 21.3171 -1.13049 4.0755e-05 10
3.30414 21.3434 -0.376988 4.10057e-05 10
3.30038 21.3191 0.376559 4.10212e-05 10
3.30021 21.318 1.13054 4.08012e-05 10
3.30057 21.3203 1.8875 4.03487e-05 10
3.30212 21.3303 2.65023 3.96698e-05 10
3.30066 21.3209 3.41713 3.87736e-05 10
3.30157 21.3268 4.19489 3.7672e-05 10
3.30088 21.3224 4.98129 3.63796e-05 10
3.30203 21.3297 5.78337 3.49136e-05 10
1.47706 9.76658 -2.6467 0.00011644 4
1.71427 11.3351 -2.64666 8.0935e-05 4
2.03278 13.4411 -2.6424 0.000438107 4
2.56818 16.9813 -2.72016 4.92877e-05 1
3.22437 21.3201 -2.64755 3.8764e-05 10
3.22595 21.3306 -1.88741 3.94576e-05 10
3.22576 21.3293 -1.13053 3.99305e-05 10
3.22572 21.3291 -0.376534 4.01764e-05 10
3.22403 21.3179 0.376337 4.01919e-05 10
3.2263 21.3329 1.13072 3.99767e-05 10
3.22732 21.3397 1.88821 3.95338e-05 10
3.22428 21.3196 2.64748 3.88691e-05 10
3.22788 21.3433 3.41889 3.79914e-05 10
3.22577 21.3294 4.19316 3.69125e-05 10
3.22689 21.3368 4.98201 3.56468e-05 10
3.22686 21.3366 5.78213 3.42109e-05 10
1.44238 9.76778 -2.64565 0.000149336 4
1.67521 11.3444 -2.64747 8.68132e-05 4
1.98252 13.4256 -2.63796 0.000541365 4
2.50876 16.9892 -2.72001 4.92804e-05 1
3.14931 21.327 -2.64703 3.79576e-05 10
3.1515 21.3419 -1.88742 3.8637e-05 10
3.15173 21.3435 -1.13069 3.91003e-05 10
3.15045 21.3348 -0.376438 3.93414e-05 10
3.15013 21.3326 0.376399 3.93568e-05 10
3.15124 21.3401 1.13052 3.91465e-05 10
3.15056 21.3355 1.88685 3.87132e-05 10
3.15043 21.3346 2.64797 3.80627e-05 10
3.15105 21.3388 3.41639 3.72038e-05 10
3.14971 21.3297 4.19104 3.61478e-05 10
3.14881 21.3237 4.97635 3.49088e-05 10
3.15037 21.3342 5.77848 3.35032e-05 10
1.41015 9.78574 -2.64917 0.000101237 4
1.93647 13.4382 -2.63909 0.00055337 4
2.44909 16.9955 -2.71962 4.9273e-05 1
3.07211 21.319 -2.64468 3.71455e-05 10
3.07378 21.3306 -1.88546 3.78106e-05 10
3.07564 21.3434 -1.13012 3.82643e-05 10
3.07416 21.3332 -0.376219 3.85005e-05 10
3.07364 21.3295 0.376154 3.8516e-05 10
3.07489 21.3383 1.12984 3.83105e-05 10
3.07447 21.3353 1.88588 3.78869e-05 10
3.07442 21.335 2.64667 3.72508e-05 10
3.07286 21.3241 3.4123 3.64106e-05 10
3.074 21.3321 4.18937 3.53777e-05 10
3.07379 21.3306 4.97543 3.41656e-05 10
3.073 21.3251 5.77308 3.27905e-05 10
1.37573 9.78882 -2.64868 9.86983e-05 4
1.59684 11.3621 -2.64892 5.14899e-05 4
1.88681 13.4253 -2.63527 0.000473607 4
2.39155 17.0167 -2.72167 4.92656e-05 1
2.99811 21.3326 -2.64506 3.63281e-05 10
2.9998 21.3447 -1.88577 3.69788e-05 10
2.99856 21.3358 -1.12915 3.74227e-05 10
2.99797 21.3316 -0.376005 3.76541e-05 10
2.99903 21.3391 0.376136 3.76696e-05 10
2.99711 21.3255 1.12861 3.7469e-05 10
2.9985 21.3354 1.88495 3.70552e-05 10
2.99881 21.3376 2.64567 3.64334e-05 10
2.9974 21.3276 3.41115 3.56122e-05 10
2.9978 21.3304 4.18695 3.46024e-05 10
2.99969 21.3438 4.97604 3.34175e-05 10
2.99944 21.3421 5.7748 3.2073e-05 10
1.3395 9.77861 -2.64464 4.3019e-05 4
1.55776 11.3719 -2.64993 0.000269194 4
1.83929 13.4271 -2.63434 0.000533295 4
2.331 17.0168 -2.72036 4.92583e-05 1
2.92334 21.3409 -2.6448 3.55053e-05 10
2.92132 21.3261 -1.88322 3.61415e-05 10
2.92211 21.3319 -1.1284 3.65757e-05 10
2.92248 21.3347 -0.375876 3.6802e-05 10
2.92137 21.3265 0.375732 3.68176e-05 10
2.92004 21.3168 1.1276 3.6622e-05 10
2.92144 21.3271 1.8833 3.62179e-05 10
2.92052 21.3203 2.64225 3.56106e-05 10
2.92314 21.3395 3.4114 3.48085e-05 10
2.92215 21.3322 4.18529 3.3822e-05 10
2.9221 21.3318 4.97083 3.26643e-05 10
2.92042 21.3196 5.76591 3.13507e-05 10
1.3062 9.78953 -2.64634 0.000202427 4
1.51666 11.3669 -2.6475 3.97134e-05 4
1.79261 13.4349 -2.63463 0.000386847 4
2.2716 17.0248 -2.72036 4.92509e-05 1
2.84426 21.3167 -2.64056 3.46773e-05 10
2.84798 21.3446 -1.88396 3.52989e-05 10
2.84495 21.3219 -1.12733 3.57233e-05 10
2.84623 21.3315 -0.375643 3.59448e-05 10
2.84608 21.3304 0.375622 3.59603e-05 10
2.84663 21.3345 1.128 3.57697e-05 10
2.84414 21.3158 1.88142 3.53754e-05 10
2.84582 21.3284 2.64201 3.47828e-05 10
2.84584 21.3285 3.40805 3.39997e-05 10
2.84745 21.3407 4.18497 3.30367e-05 10
2.84706 21.3377 4.96986 3.19064e-05 10
2.84581 21.3283 5.76555 3.06239e-05 10
1.27137 9.789 -2.64498 0.000242894 4
1.4771 11.373 -2.64772 9.55976e-05 4
1.74705 13.4515 -2.63668 0.000420713 4
2.21465 17.0518 -2.72343 4.92435e-05 1
2.77028 21.33 -2.64099 3.38442e-05 10
2.77065 21.3328 -1.88205 3.44512e-05 10
2.7685 21.3163 -1.12652 3.48657e-05 10
2.76842 21.3157 -0.375191 3.50822e-05 10
2.7702 21.3294 0.375432 3.50977e-05 10
2.76848 21.3161 1.12651 3.4912e-05 10
2.76981 21.3264 1.88149 3.45277e-05 10
2.77084 21.3343 2.64153 3.39497e-05 10
2.7696 21.3247 3.40587 3.31859e-05 10
2.76938 21.3231 4.1796 3.22464e-05 10
2.76891 21.3194 4.96331 3.11438e-05 10
2.77155 21.3398 5.766 2.98924e-05 10
1.23943 9.81113 -2.64978 0.000245405 4
1.43709 11.3757 -2.64716 7.05886e-05 4
1.69925 13.451 -2.63538 0.000140468 4
2.15376 17.0488 -2.72172 4.92361e-05 1
2.69612 21.342 -2.64129 3.30062e-05 10
2.69568 21.3385 -1.88171 3.35985e-05 10
2.69452 21.3293 -1.12671 3.4003e-05 10
2.69465 21.3303 -0.375282 3.42145e-05 10
2.69548 21.3369 0.375397 3.42301e-05 10
2.69618 21.3425 1.1274 3.40494e-05 10
2.69546 21.3367 1.88156 3.3675e-05 10
2.69286 21.3162 2.6381 3.31118e-05 10
2.69531 21.3355 3.40608 3.23674e-05 10
2.69332 21.3198 4.17708 3.14516e-05 10
2.69599 21.3409 4.9661 3.03766e-05 10
2.69544 21.3365 5.76255 2.91567e-05 10
1.20353 9.80191 -2.64614 0.000189731 4
1.3965 11.3735 -2.64551 0.000107344 4
1.64888 13.429 -2.62993 0.000255467 4
2.09388 17.0533 -2.72126 4.92288e-05 1
2.61841 21.3252 -2.63807 3.21634e-05 10
2.61899 21.3299 -1.88014 3.27408e-05 10
2.61883 21.3286 -1.12618 3.31354e-05 10
2.61961 21.335 -0.3752 3.33419e-05 10
2.61742 21.3171 0.374886 3.33574e-05 10
2.61761 21.3186 1.12565 3.31818e-05 10
2.61877 21.3281 1.87998 3.28174e-05 10
2.61966 21.3354 2.63933 3.2269e-05 10
2.62026 21.3402 3.40534 3.1544e-05 10
2.61986 21.337 4.17864 3.06521e-05 10
2.61726 21.3158 4.9581 2.9605e-05 10
1.17036 9.81497 -2.64854 0.000194776 4
1.35749 11.3842 -2.64688 0.000338175 4
1.60344 13.4468 -2.63231 0.000559932 4
2.03655 17.079 -2.72422 4.92214e-05 1
2.5439 21.3337 -2.63801 3.13158e-05 10
2.54217 21.3192 -1.8784 3.18783e-05 10
2.54461 21.3397 -1.12629 3.22629e-05 10
2.54223 21.3198 -0.374774 3.24642e-05 10
2.54226 21.32 0.374778 3.24798e-05 10
2.54297 21.326 1.12557 3.23093e-05 10
2.54354 21.3307 1.87942 3.19549e-05 10
2.54371 21.3322 2.63782 3.14214e-05 10
2.54287 21.3251 3.4015 3.0716e-05 10
2.54331 21.3289 4.17528 2.9848e-05 10
2.54254 21.3223 4.95752 2.88289e-05 10
1.13469 9.80678 -2.64525 0.000204878 4
1.31653 11.3785 -2.64445 0.000126436 4
1.55662 13.4535 -2.63254 0.00051621 4
1.97395 17.0603 -2.72011 4.9214e-05 1
2.46896 21.3385 -2.63752 3.04636e-05 10
2.46842 21.3339 -1.87892 3.10112e-05 10
2.46939 21.3422 -1.12596 3.13856e-05 10
2.46902 21.3391 -0.37496 3.1582e-05 10
2.46835 21.3333 0.374858 3.15975e-05 10
2.46682 21.32 1.12479 3.14321e-05 10
2.46852 21.3347 1.879 3.10878e-05 10
2.46782 21.3287 2.63631 3.05693e-05 10
2.46751 21.326 3.40024 2.98835e-05 10
2.4668 21.3199 4.17181 2.90396e-05 10
1.1024 9.82814 -2.64996 0.000217508 4
1.27956 11.4076 -2.65016 3.52812e-05 4
1.50765 13.441 -2.62905 0.000528122 4
1.91574 17.0792 -2.72205 4.92066e-05 1
2.39315 21.3354 -2.63609 2.96069e-05 10
2.39164 21.3219 -1.87712 3.01394e-05 10
2.39304 21.3344 -1.1251 3.05037e-05 10
2.3914 21.3198 -0.374472 3.0695e-05 10
2.39278 21.3321 0.374688 3.07105e-05 10
2.39294 21.3335 1.12505 3.05502e-05 10
2.39106 21.3168 1.87667 3.02161e-05 10
2.39245 21.3291 2.63531 2.97126e-05 10
2.39149 21.3206 3.39803 2.90466e-05 10
1.06695 9.82143 -2.64713 9.10428e-05 4
1.23868 11.4023 -2.64791 7.34958e-05 4
1.45956 13.4355 -2.62695 0.000532594 4
1.85533 17.0786 -2.7209 4.91992e-05 1
2.31567 21.3161 -2.63268 2.87459e-05 10
2.31624 21.3213 -1.87635 2.92633e-05 10
2.31854 21.3424 -1.12509 2.96175e-05 10
2.31761 21.3339 1.12464 2.96639e-05 10
2.31609 21.3199 1.87623 2.934e-05 10
2.31784 21.336 2.63515 2.88516e-05 10
1.03261 9.82458 -2.64699 0.00012391 4
1.19961 11.4136 -2.64954 5.87912e-05 4
1.41284 13.4422 -2.6273 0.000440086 4
1.79791 17.106 -2.72425 4.91917e-05 1
2.24201 21.3313 -1.12408 2.87267e-05 10
2.24297 21.3405 1.12457 2.87732e-05 10
0.998892 9.83389 -2.64854 0.000118843 4
1.15755 11.3959 -2.64448 4.84982e-05 4
1.36444 13.4326 -2.62447 0.000463076 4
1.73852 17.1153 -2.72475 4.91843e-05 1
0.96353 9.82685 -2.64572 0.000252838 4
1.12034 11.4261 -2.65058 4.84937e-05 4
1.31856 13.4477 -2.62651 0.000430016 4
1.67857 17.1194 -2.72445 4.91769e-05 1
0.930854 9.84739 -2.65036 0.000116296 4
1.07976 11.4226 -2.64888 4.84892e-05 4
1.27098 13.4455 -2.6252 0.000426804 4
1.61733 17.1095 -2.72196 4.91695e-05 1
0.896672 9.85273 -2.65094 0.00037667 4
1.22262 13.4343 -2.62215 0.00054726 4
1.55764 17.1156 -2.72204 4.91621e-05 1
0.861378 9.84559 -2.6482 0.000535892 4
1.17704 13.4536 -2.62511 0.000499103 4
1.499 17.1336 -2.72406 4.91546e-05 1
0.82638 9.84107 -2.64619 0.000202207 4
0.960208 11.4348 -2.64922 4.99446e-05 4
1.12983 13.4547 -2.62454 0.000495897 4
1.43977 17.1457 -2.72517 4.91472e-05 1
0.792221 9.84638 -2.64685 0.000139007 4
0.919151 11.424 -2.64596 7.3441e-05 4
1.08154 13.4423 -2.62136 0.000560355 4
1.37885 17.1375 -2.72308 4.91398e-05 1
0.758742 9.8607 -2.64998 0.000159214 4
0.879656 11.4321 -2.64711 7.49029e-05 4
1.03518 13.4534 -2.6228 0.000579745 4
1.31999 17.1547 -2.72507 4.91323e-05 1
0.723828 9.85666 -2.6482 0.000199633 4
0.840345 11.4433 -2.64901 6.46161e-05 4
0.988665 13.4631 -2.624 0.000569003 4
1.25978 17.155 -2.7244 4.91249e-05 1
0.690418 9.87342 -2.65203 0.000409342 4
0.800014 11.4407 -2.64775 7.04837e-05 4
0.940261 13.4463 -2.62008 0.000358313 4
1.1991 17.1479 -2.72259 4.91174e-05 1
0.654437 9.85304 -2.64593 8.08515e-05 4
0.760741 11.4535 -2.65008 9.98425e-05 4
0.892521 13.4376 -2.61775 0.00054738 4
1.14055 17.1719 -2.72575 4.91099e-05 1
0.620954 9.86976 -2.64982 0.000146532 4
0.720792 11.4566 -2.6502 8.36837e-05 4
0.846158 13.4493 -2.61944 0.000600732 4
1.0806 17.1756 -2.72572 4.91025e-05 1
0.586187 9.86661 -2.64841 0.000141468 4
0.679767 11.4417 -2.64619 9.83558e-05 4
0.799713 13.4606 -2.6211 0.000472647 4
1.01925 17.1558 -2.722 4.9095e-05 1
0.552383 9.88009 -2.6515 0.000237445 4
0.641111 11.4671 -2.65152 5.57787e-05 4
0.752541 13.4602 -2.62048 0.000450297 4
0.960367 17.1774 -2.72488 4.90876e-05 1
0.517357 9.87171 -2.64875 0.000121239 4
0.600008 11.4488 -2.64679 5.43057e-05 4
0.705233 13.4566 -2.61928 0.000632373 4
0.899369 17.1609 -2.72175 4.90801e-05 1
0.483357 9.88296 -2.6513 0.000131332 4
0.560266 11.4555 -2.64787 8.36523e-05 4
0.657228 13.438 -2.6152 0.00058353 4
0.840047 17.176 -2.72366 4.90726e-05 1
0.448778 9.88281 -2.65082 0.000159102 4
0.520066 11.4527 -2.64679 0.000120331 4
0.610969 13.4545 -2.61799 0.000519433 4
0.780143 17.18 -2.72385 4.90651e-05 1
0.41424 9.88349 -2.6506 0.000166665 4
0.480517 11.4648 -2.64918 0.000158469 4
0.564215 13.4618 -2.619 0.000474205 4
0.719992 17.1785 -2.7232 4.90577e-05 1
0.379282 9.87294 -2.6474 6.06006e-05 4
0.440296 11.4612 -2.64798 6.30884e-05 4
0.516781 13.4521 -2.61676 0.000440294 4
0.660344 17.1892 -2.72451 4.90502e-05 1
0.345212 9.88549 -2.65042 0.000126241 4
0.400107 11.4575 -2.64678 0.000137901 4
0.469834 13.4542 -2.61682 0.000413924 4
0.600676 17.2009 -2.72602 4.90427e-05 1
0.310231 9.87169 -2.64642 0.00030548 4
0.360528 11.4722 -2.64987 8.65468e-05 4
0.422434 13.442 -2.61416 0.00056607 4
0.540786 17.208 -2.72683 4.90352e-05 1
0.275703 9.8702 -2.64574 3.5342e-05 4
0.375548 13.4447 -2.6144 0.000437071 4
0.480462 17.2006 -2.72538 4.90277e-05 1
0.241603 9.88577 -2.64968 7.06785e-05 4
0.280056 11.4592 -2.64634 6.30646e-05 4
0.328389 13.4368 -2.61263 0.000463837 4
0.420285 17.1969 -2.72454 4.90202e-05 1
0.207104 9.8869 -2.64977 0.000146394 4
0.281811 13.4533 -2.61564 0.000513419 4
0.360306 17.2006 -2.72491 4.90127e-05 1
0.172416 9.8777 -2.64713 0.000113573 4
0.23466 13.4437 -2.61359 0.000471707 4
0.300479 17.2144 -2.72692 4.90052e-05 1
0.138128 9.89194 -2.65079 9.08509e-05 4
0.160368 11.4846 -2.65169 0.000129026 4
0.188032 13.4657 -2.61773 0.000490834 4
0.240418 17.2173 -2.72722 4.89977e-05 1
0.103691 9.90145 -2.65323 0.000111031 4
0.120109 11.4692 -2.64802 4.25159e-05 4
0.140852 13.45 -2.61456 0.000502335 4
0.180276 17.2146 -2.72667 4.89902e-05 1
0.0689934 9.88223 -2.648 0.000201859 4
0.080069 11.4686 -2.64781 7.03646e-05 4
0.0938598 13.444 -2.61331 0.00041486 4
0.120101 17.2026 -2.72469 4.89827e-05 1
0.0344762 9.87569 -2.6462 0.000153905 4
0.040098 11.4861 -2.65178 4.39737e-05 4
0.0469923 13.4609 -2.61656 0.000479603 4
0.0600717 17.2075 -2.72542 4.89752e-05 1
7.47404e-07 9.89966 -2.65261 8.0731e-05 4
8.65457e-07 11.4633 -2.64652 8.94047e-05 4
1.01522e-06 13.447 -2.61383 0.000430137 4
1.29886e-06 17.204 -2.72484 4.89677e-05 1
-0.0345645 9.90278 -2.65346 0.000244696 4
-0.0400981 11.4882 -2.65227 3.07758e-05 4
-0.0469419 13.4489 -2.61422 0.000590009 4
-0.0600984 17.2183 -2.72712 4.89602e-05 1
-0.0690949 9.89698 -2.65195 8.32407e-05 4
-0.0801503 11.4805 -2.65056 3.95651e-05 4
-0.09383 13.44 -2.61253 0.000563336 4
-0.120148 17.2097 -2.72582 4.89527e-05 1
-0.103654 9.89811 -2.65234 0.000141246 4
-0.120094 11.468 -2.64774 0.000206598 4
-0.140759 13.4413 -2.61287 0.000258806 4
-0.180247 17.2121 -2.72627 4.89452e-05 1
-0.138269 9.90213 -2.65353 0.00019672 4
-0.16024 11.4755 -2.64959 3.0767e-05 4
-0.187897 13.4562 -2.61588 0.000186467 4
-0.240252 17.2056 -2.72536 4.89377e-05 1
-0.172536 9.88465 -2.64899 0.000184095 4
-0.200453 11.4841 -2.65171 7.1783e-05 4
-0.234603 13.4406 -2.61298 0.000407109 4
-0.300296 17.2041 -2.72528 4.89302e-05 1
-0.207158 9.88956 -2.65048 0.000113474 4
-0.240096 11.462 -2.6468 0.000190427 4
-0.281749 13.4505 -2.61508 0.00038039 4
-0.36073 17.221 -2.72814 4.89226e-05 1
-0.241521 9.88245 -2.64879 6.80791e-05 4
-0.280107 11.4613 -2.64684 4.54051e-05 4
-0.328885 13.4572 -2.6166 0.000361274 4
-0.420345 17.1995 -2.72495 4.89151e-05 1
-0.276207 9.88849 -2.65065 9.83287e-05 4
-0.37583 13.4551 -2.61642 0.000570253 4
-0.480488 17.2019 -2.72558 4.89076e-05 1
-0.310992 9.89594 -2.65292 0.000226894 4
-0.422446 13.4425 -2.61424 0.000562449 4
-0.540555 17.2008 -2.72568 4.89001e-05 1
-0.344664 9.86996 -2.64626 9.32714e-05 4
-0.400501 11.4689 -2.64942 3.22138e-05 4
-0.469288 13.4388 -2.61382 0.00050904 4
-0.600453 17.1949 -2.72506 4.88926e-05 1
-0.379828 9.88721 -2.65123 5.29337e-05 4
-0.44056 11.4681 -2.64957 9.80965e-05 4
-0.517084 13.4601 -2.6183 0.000349334 4
-0.660246 17.1867 -2.72411 4.8885e-05 1
-0.413804 9.87313 -2.64782 0.000136104 4
-0.480585 11.4665 -2.64957 0.000172751 4
-0.563222 13.4381 -2.6144 0.000440249 4
-0.720412 17.1886 -2.7248 4.88775e-05 1
-0.449238 9.89298 -2.65355 0.000133573 4
-0.52099 11.4731 -2.6515 0.000146385 4
-0.610943 13.454 -2.61789 0.000413461 4
-0.780383 17.1854 -2.7247 4.887e-05 1
-0.483398 9.88383 -2.65153 7.81216e-05 4
-0.561237 11.4754 -2.65246 3.95202e-05 4
-0.65815 13.4569 -2.61888 0.000504206 4
-0.8412 17.1996 -2.72741 4.88625e-05 1
-0.517309 9.87083 -2.64851 0.000188989 4
-0.600148 11.4515 -2.64741 0.000139039 4
-0.705157 13.4552 -2.61901 0.000621341 4
-0.90127 17.1972 -2.72751 4.88549e-05 1
-0.552842 9.88832 -2.65371 0.000120943 4
-0.640012 11.4475 -2.64698 0.000112684 4
-0.752184 13.4538 -2.61924 0.000583065 4
-0.961352 17.1951 -2.72768 4.88474e-05 1
-0.586687 9.87511 -2.65069 0.000105817 4
-0.681534 11.4716 -2.65309 9.36508e-05 4
-0.799483 13.4569 -2.62037 0.000408612 4
-1.02111 17.1873 -2.727 4.88399e-05 1
-0.620683 9.86549 -2.64868 0.000110847 4
-0.720167 11.4467 -2.64791 5.7063e-05 4
-0.846955 13.462 -2.62192 0.000461232 4
-1.0812 17.1853 -2.72726 4.88324e-05 1
-0.654765 9.858 -2.64726 7.30526e-05 4
-0.760875 11.4556 -2.65055 3.21864e-05 4
-0.894092 13.4613 -2.62237 0.000426865 4
-1.14167 17.1887 -2.72842 4.88248e-05 1
-0.689605 9.86182 -2.64892 0.000108311 4
-0.801163 11.4572 -2.65155 0.000125807 4
-0.94051 13.4499 -2.62078 0.000468022 4
-1.20114 17.1771 -2.72722 4.88173e-05 1
-0.723683 9.85471 -2.64767 9.06716e-05 4
-0.840219 11.4416 -2.64862 4.09567e-05 4
-0.988418 13.4597 -2.62335 0.000565653 4
-1.26204 17.1858 -2.7293 4.88098e-05 1
-0.758218 9.85391 -2.64815 0.000201476 4
-0.880219 11.4395 -2.64881 0.000247179 4
-1.03562 13.459 -2.6239 0.000501078 4
-1.32219 17.1833 -2.72961 4.88023e-05 1
-0.793744 9.86533 -2.65195 0.00015865 4
-0.919659 11.4303 -2.64742 3.8024e-05 4
-1.081 13.4355 -2.62004 0.000504352 4
-1.38108 17.1653 -2.7275 4.87948e-05 1
-0.827436 9.85371 -2.64959 8.8132e-05 4
-0.961518 11.4505 -2.65285 9.65132e-05 4
-1.12959 13.4519 -2.62399 0.000454957 4
-1.44064 17.1562 -2.72684 4.87872e-05 1
-0.861318 9.84492 -2.64801 7.80535e-05 4
-0.999969 11.4297 -2.64884 0.000118437 4
-1.1759 13.4406 -2.62257 0.000492032 4
-1.50036 17.1493 -2.72655 4.87797e-05 1
-0.895564 9.84062 -2.64768 8.56003e-05 4
-1.04063 11.4347 -2.65081 3.50891e-05 4
-1.22256 13.4338 -2.62205 0.000544011 4
-1.5602 17.1438 -2.72653 4.87722e-05 1
-0.931432 9.85352 -2.65201 0.000120838 4
-1.08047 11.4302 -2.65063 4.53191e-05 4
-1.27019 13.4372 -2.62357 0.000528392 4
-1.62226 17.1618 -2.73027 4.87646e-05 1
-0.965098 9.84286 -2.65003 9.56559e-05 4
-1.12035 11.4262 -2.6506 4.97001e-05 4
-1.3193 13.4553 -2.62799 0.000471614 4
-1.68154 17.1497 -2.72927 4.87571e-05 1
-1.00049 9.84965 -2.65279 3.27218e-05 4
-1.15912 11.4113 -2.64806 5.99267e-05 4
-1.36548 13.4429 -2.62649 0.000508411 4
-1.73954 17.1254 -2.72636 4.87496e-05 1
-1.0351 9.84835 -2.65339 0.000133393 4
-1.20139 11.4305 -2.65347 9.35353e-05 4
-1.41186 13.433 -2.62549 0.00039575 4
-1.80209 17.1458 -2.73058 4.87421e-05 1
-1.23908 11.4059 -2.64875 0.000217741 4
-1.45934 13.4335 -2.62657 0.000555549 4
-1.86046 17.1258 -2.72843 4.87346e-05 1
-1.10392 9.84164 -2.6536 0.000193767 4
-1.27992 11.4108 -2.65091 8.18279e-05 4
-1.50744 13.4392 -2.62869 0.000513826 4
-1.92189 17.1341 -2.73079 4.87271e-05 1
-2.39097 21.316 -1.8766 2.89822e-05 10
-2.39009 21.3081 -1.12371 2.93031e-05 10
-2.39121 21.3181 -0.374443 2.94574e-05 10
-2.3907 21.3136 1.12401 2.92602e-05 10
-2.39247 21.3294 1.87778 2.89113e-05 10
-1.13611 9.81912 -2.64858 0.000138394 4
-1.31984 11.4071 -2.6511 4.82154e-05 4
-1.5544 13.4343 -2.62879 0.000342063 4
-1.9817 17.1274 -2.73081 4.87195e-05 1
-2.46735 21.3247 -2.63581 2.93614e-05 10
-2.46784 21.329 -1.87849 2.98599e-05 10
-2.46714 21.323 -1.12495 3.01911e-05 10
-2.467 21.3217 -0.374655 3.03506e-05 10
-2.46764 21.3272 1.12517 3.01483e-05 10
-2.4659 21.3122 1.87702 2.97892e-05 10
-2.46812 21.3314 2.63664 2.92639e-05 10
-1.17042 9.81543 -2.64867 0.000123287 4
-1.36073 11.4115 -2.65321 8.18123e-05 4
-1.60172 13.4324 -2.62949 0.000426952 4
-2.0415 17.1205 -2.73084 4.8712e-05 1
-2.54279 21.3245 -2.63687 3.02198e-05 10
-2.54284 21.3249 -1.87891 3.07334e-05 10
-2.54221 21.3196 -1.12523 3.10747e-05 10
-2.54192 21.3172 -0.374729 3.12394e-05 10
-2.54323 21.3282 1.12568 3.1032e-05 10
-2.54316 21.3276 1.87914 3.06629e-05 10
-2.54275 21.3241 2.63682 3.01226e-05 10
-2.54108 21.3101 3.3991 2.94183e-05 10
-1.20469 9.81143 -2.64871 0.000140888 4
-1.4002 11.4037 -2.65253 8.03437e-05 4
-1.65007 13.4387 -2.63184 0.000496739 4
-2.0991 17.0959 -2.72806 4.87045e-05 1
-2.61604 21.306 -2.63569 3.10736e-05 10
-2.618 21.322 -1.87944 3.16022e-05 10
-2.61806 21.3224 -1.12585 3.19537e-05 10
-2.61649 21.3097 -0.374755 3.21235e-05 10
-2.61732 21.3164 1.12554 3.19112e-05 10
-2.61721 21.3155 1.87887 3.15319e-05 10
-2.61827 21.3242 2.63794 3.09766e-05 10
-2.61793 21.3214 3.40234 3.02528e-05 10
-2.61849 21.326 4.17648 2.93699e-05 10
-1.2388 9.8061 -2.64842 0.000145908 4
-1.43868 11.3883 -2.65009 8.4718e-05 4
-1.6971 13.4339 -2.63205 0.000581094 4
-2.16076 17.1042 -2.73057 4.8697e-05 1
-2.69116 21.3028 -2.63644 3.19229e-05 10
-2.69237 21.3123 -1.87941 3.24665e-05 10
-2.69274 21.3153 -1.12596 3.28282e-05 10
-2.69404 21.3255 -0.375197 3.30031e-05 10
-2.69343 21.3207 0.375112 3.29889e-05 10
-2.69405 21.3256 1.12651 3.27857e-05 10
-2.69304 21.3176 1.87987 3.23965e-05 10
-2.69456 21.3297 2.63977 3.18263e-05 10
-2.69364 21.3223 3.40397 3.10829e-05 10
-2.69385 21.3241 4.17792 3.01761e-05 10
-2.69207 21.3099 4.95888 2.9118e-05 10
-1.27599 9.82459 -2.6546 4.27629e-05 4
-1.47853 11.384 -2.65029 5.98812e-05 4
-1.74656 13.4478 -2.63594 0.000339968 4
-2.21773 17.0756 -2.72723 4.86895e-05 1
-2.7697 21.3255 -2.64044 3.27675e-05 10
-2.76894 21.3197 -1.8809 3.3326e-05 10
-2.76948 21.3238 -1.12692 3.36977e-05 10
-2.76765 21.3098 -0.375088 3.38777e-05 10
-2.76829 21.3147 0.375174 3.38635e-05 10
-2.76937 21.323 1.12688 3.36554e-05 10
-2.76902 21.3203 1.88095 3.32562e-05 10
-2.76907 21.3207 2.63984 3.26712e-05 10
-2.76824 21.3143 3.40421 3.19083e-05 10
-2.76813 21.3134 4.17771 3.09777e-05 10
-2.76686 21.3037 4.95965 2.98917e-05 10
-2.76997 21.3276 5.76271 2.86648e-05 10
-1.30913 9.81148 -2.65228 0.000105641 4
-1.52041 11.3949 -2.65404 9.78454e-05 4
-1.7939 13.4446 -2.63653 0.000468531 4
-2.27856 17.077 -2.7287 4.8682e-05 1
-2.84312 21.3082 -2.6395 3.36074e-05 10
-2.84371 21.3126 -1.88113 3.41807e-05 10
-2.84453 21.3187 -1.12717 3.45624e-05 10
-2.84435 21.3174 -0.375394 3.47474e-05 10
-2.84286 21.3062 0.375197 3.47333e-05 10
-2.84482 21.3209 1.12728 3.45202e-05 10
-2.84499 21.3222 1.88198 3.41111e-05 10
-2.84239 21.3027 2.63882 3.35113e-05 10
-2.84526 21.3242 3.40736 3.27291e-05 10
-2.84515 21.3234 4.18158 3.17748e-05 10
-2.8438 21.3133 4.96416 3.06611e-05 10
-2.84259 21.3042 5.75904 2.94027e-05 10
-1.34172 9.79484 -2.64903 7.04218e-05 4
-1.55903 11.3812 -2.6521 6.13301e-05 4
-1.84202 13.4471 -2.63825 0.000386713 4
-2.33887 17.0742 -2.72955 4.86744e-05 1
-2.91863 21.3066 -2.64055 3.44423e-05 10
-2.92154 21.3278 -1.88337 3.50303e-05 10
-2.92133 21.3263 -1.1281 3.5422e-05 10
-2.92054 21.3205 -0.375626 3.5612e-05 10
-2.91869 21.307 0.375388 3.55979e-05 10
-2.91837 21.3047 1.12696 3.53799e-05 10
-2.92172 21.3291 1.88348 3.49609e-05 10
-2.92049 21.3201 2.64223 3.43465e-05 10
-2.91867 21.3069 3.40619 3.3545e-05 10
-2.92011 21.3174 4.18237 3.25671e-05 10
-2.91912 21.3101 4.96578 3.14258e-05 10
-2.92048 21.32 5.76603 3.01362e-05 10
-1.37774 9.80309 -2.65255 0.000123228 4
-1.6006 11.3889 -2.65517 4.52631e-05 4
-1.88636 13.4221 -2.63464 0.000477956 4
-2.39616 17.0495 -2.72692 4.8667e-05 1
-2.99685 21.3237 -2.64395 3.52722e-05 10
-2.99772 21.3299 -1.88446 3.58749e-05 10
-2.9941 21.3041 -1.12747 3.62765e-05 10
-2.99678 21.3232 -0.375855 3.64715e-05 10
-2.99464 21.308 0.375587 3.64575e-05 10
-2.99434 21.3058 1.12756 3.62345e-05 10
-2.99379 21.3019 1.88199 3.58057e-05 10
-2.99681 21.3234 2.64391 3.51767e-05 10
-2.9968 21.3233 3.41048 3.43561e-05 10
-2.9947 21.3084 4.18263 3.33548e-05 10
-2.99597 21.3174 4.96987 3.2186e-05 10
-2.99727 21.3267 5.77063 3.08653e-05 10
-1.40959 9.78186 -2.64812 0.000138307 4
-1.6404 11.3836 -2.65527 7.15382e-05 4
-1.93599 13.4348 -2.63844 0.000568855 4
-2.45853 17.061 -2.73011 4.86595e-05 1
-3.07232 21.3204 -2.64486 3.60968e-05 10
-3.07368 21.3298 -1.8854 3.67141e-05 10
-3.07104 21.3116 -1.12843 3.71255e-05 10
-3.07366 21.3298 -0.376158 3.73256e-05 10
-3.07257 21.3222 0.376024 3.73116e-05 10
-3.07226 21.32 1.12888 3.70837e-05 10
-3.07339 21.3279 1.88522 3.66451e-05 10
-3.07148 21.3146 2.64414 3.60017e-05 10
-3.07271 21.3231 3.41214 3.5162e-05 10
-3.07162 21.3156 4.18612 3.41374e-05 10
-3.07192 21.3177 4.97241 3.29414e-05 10
-3.07304 21.3254 5.77315 3.15897e-05 10
-1.44629 9.7943 -2.65283 0.000155897 4
-1.67728 11.3586 -2.65077 5.8393e-05 4
-1.98326 13.4307 -2.63896 0.000395639 4
-2.5178 17.0506 -2.72983 4.86519e-05 1
-3.14557 21.3018 -2.64389 3.69162e-05 10
-3.14866 21.3228 -1.88573 3.7548e-05 10
-3.14943 21.328 -1.12987 3.79692e-05 10
-3.14647 21.3079 -0.375964 3.81741e-05 10
-3.14974 21.33 0.376354 3.81602e-05 10
-3.14614 21.3056 1.12869 3.79275e-05 10
-3.14853 21.3218 1.88565 3.74792e-05 10
-3.14582 21.3035 2.64411 3.68214e-05 10
-3.14885 21.324 3.41402 3.59628e-05 10
-3.14681 21.3102 4.1872 3.49149e-05 10
-3.14824 21.3199 4.97546 3.36918e-05 10
-3.14906 21.3254 5.77609 3.23095e-05 10
-1.47888 9.77865 -2.64998 0.000103085 4
-1.71579 11.3452 -2.64902 6.27665e-05 4
-2.02991 13.4221 -2.63867 0.000329082 4
-2.57746 17.0427 -2.72999 4.86445e-05 1
-3.22268 21.309 -2.64617 3.77303e-05 10
-3.22365 21.3154 -1.88606 3.83765e-05 10
-3.22225 21.3061 -1.1293 3.88074e-05 10
-3.22218 21.3057 -0.376122 3.90173e-05 10
-3.22229 21.3064 0.376134 3.90034e-05 10
-3.22537 21.3268 1.1304 3.87659e-05 10
-3.22248 21.3077 1.88538 3.83079e-05 10
-3.2215 21.3012 2.64519 3.76358e-05 10
-3.22514 21.3252 3.41599 3.67584e-05 10
-3.22369 21.3157 4.19046 3.56875e-05 10
-3.22382 21.3165 4.97727 3.44374e-05 10
-3.22359 21.315 5.77628 3.30245e-05 10
-1.51478 9.78488 -2.65308 0.000120675 4
-1.75575 11.3415 -2.64958 0.000195579 4
-2.07972 13.4342 -2.64245 0.000142992 4
-2.63597 17.0274 -2.72899 4.86369e-05 1
-3.3008 21.3219 -2.64919 3.85388e-05 10
-3.29956 21.3139 -1.88694 3.91993e-05 10
-3.30068 21.3211 -1.1307 3.96399e-05 10
-3.29796 21.3036 -0.376285 3.98547e-05 10
-3.29947 21.3133 0.376457 3.98408e-05 10
-3.29978 21.3153 1.1304 3.95985e-05 10
-3.30065 21.3209 1.88756 3.9131e-05 10
-3.29957 21.314 2.6482 3.84445e-05 10
-3.29796 21.3036 3.41435 3.75485e-05 10
-3.30185 21.3287 4.19526 3.64547e-05 10
-3.30112 21.324 4.98167 3.51778e-05 10
-3.29979 21.3154 5.77947 3.37346e-05 10
-1.54987 9.78552 -2.65471 0.00012318 4
-1.79821 11.3535 -2.65383 6.71328e-05 4
-2.12877 13.4405 -2.64514 0.00031616 4
-2.69653 17.0252 -2.73014 4.86294e-05 1
-3.37705 21.3219 -2.65063 3.93417e-05 10
-3.37587 21.3144 -1.88801 4.00164e-05 10
-3.37448 21.3056 -1.1305 4.04666e-05 10
-3.37451 21.3058 -0.37653 4.06863e-05 10
-3.37676 21.32 0.376781 4.06725e-05 10
-3.37564 21.3129 1.13089 4.04254e-05 10
-3.37506 21.3093 1.88756 3.99484e-05 10
-3.37785 21.3269 2.65125 3.92478e-05 10
-3.37491 21.3083 3.41698 3.83332e-05 10
-3.37481 21.3077 4.19343 3.72166e-05 10
-3.37792 21.3273 4.98518 3.59131e-05 10
-3.37499 21.3089 5.78087 3.44398e-05 10
-1.58096 9.76115 -2.64958 8.04375e-05 4
-1.83653 11.3391 -2.65194 0.000112364 4
-2.17501 13.4289 -2.64433 0.000407614 4
-2.75752 17.0255 -2.73171 4.86219e-05 1
-3.45303 21.3197 -2.65184 4.01388e-05 10
-3.45353 21.3228 -1.88981 4.08277e-05 10
-3.4509 21.3065 -1.13118 4.12874e-05 10
-3.45292 21.319 -0.376974 4.15119e-05 10
-3.45116 21.3082 0.376782 4.14982e-05 10
-3.45109 21.3077 1.13124 4.12463e-05 10
-3.4509 21.3065 1.88837 4.07598e-05 10
-3.44985 21.3 2.6494 4.00452e-05 10
-3.45399 21.3256 3.42166 3.91121e-05 10
-3.45026 21.3026 4.19476 3.7973e-05 10
-3.45337 21.3217 4.98666 3.6643e-05 10
-3.45326 21.3211 5.78742 3.51397e-05 10
-1.61428 9.75107 -2.64835 4.52425e-05 4
-1.87424 11.3214 -2.64932 3.50192e-05 4
-2.22104 13.4162 -2.64335 0.000256288 4
-2.81383 16.997 -2.7287 4.86145e-05 1
-3.52894 21.3166 -2.65297 4.09301e-05 10
-3.52981 21.3219 -1.89081 4.16331e-05 10
-3.52786 21.3101 -1.13201 4.21023e-05 10
-3.52774 21.3094 -0.377019 4.23316e-05 10
-3.52906 21.3173 0.377159 4.23179e-05 10
-3.5291 21.3176 1.13241 4.20613e-05 10
-3.52825 21.3124 1.88998 4.15655e-05 10
-3.53088 21.3283 2.65443 4.08369e-05 10
-3.52777 21.3095 3.42103 3.98855e-05 10
-3.52645 21.3015 4.19696 3.87239e-05 10
-3.5268 21.3037 4.98528 3.73676e-05 10
-3.52663 21.3026 5.78571 3.58346e-05 10
-1.6492 9.75067 -2.64979 0.000208602 4
-1.91452 11.3193 -2.65039 7.87857e-05 4
-2.27339 13.4411 -2.6498 0.000308523 4
-2.87478 16.9967 -2.73025 4.8607e-05 1
-3.60336 21.3044 -2.653 4.17154e-05 10
