VERSION 0.7
FIELDS x y z intensity label
SIZE 4 4 4 4 4
TYPE F F F F F
COUNT 1 1 1 1 1
WIDTH 1162
HEIGHT 1
VIEWPOINT 20.9175 49.4827 2.72688 0.968481 -0.000288816 0.000612428 -0.249085
POINTS 1162
DATA ascii
-2.26672 -9.22843 -2.54625 0.000353282 4
-2.75159 -11.2025 -2.66317 0.000103502 4
-3.27218 -13.3219 -2.66649 0.000161729 4
-7.66132 -31.1913 -0.560629 4.9177e-05 10
-7.74095 -31.5155 0.566456 4.31614e-05 10
-7.74516 -31.5327 1.70168 3.34123e-05 10
-7.65851 -31.1799 2.80897 3.75636e-05 10
-7.74059 -31.514 3.98445 3.22641e-05 10
-7.74516 -31.5326 5.14273 3.13758e-05 10
-7.6613 -31.1912 6.24317 3.45892e-05 10
-7.61642 -31.0085 7.37167 3.13492e-05 10
-2.23754 -9.24886 -2.54972 0.00034208 4
-2.713 -11.2142 -2.66369 0.000217077 4
-3.22322 -13.3232 -2.66447 0.000144014 4
-7.5326 -31.136 -1.67884 4.52942e-05 10
-7.53276 -31.1367 -0.559171 4.55844e-05 10
-7.66332 -31.6764 0.568863 4.22536e-05 10
-7.66113 -31.6673 1.70749 3.2709e-05 10
-7.53492 -31.1456 2.80349 3.47872e-05 10
-7.65905 -31.6587 3.99934 3.1583e-05 10
-7.66598 -31.6873 5.16356 3.07118e-05 10
-7.53888 -31.162 6.23201 3.20039e-05 10
-7.53828 -31.1595 7.40126 3.06866e-05 10
-2.20496 -9.25546 -2.5494 0.000311249 4
-2.67402 -11.2243 -2.66387 0.000284658 4
-3.1775 -13.3377 -2.66515 0.000149931 4
-7.57499 -31.7965 -1.71302 4.11072e-05 10
-7.58219 -31.8267 -0.571085 4.13731e-05 10
-7.58139 -31.8233 0.571024 4.13571e-05 10
-7.57758 -31.8073 1.7136 3.20146e-05 10
-7.57811 -31.8096 2.86086 3.15667e-05 10
-7.58106 -31.822 4.01659 3.09104e-05 10
-7.58129 -31.8229 5.18131 3.00563e-05 10
-7.57911 -31.8137 6.35703 2.9018e-05 10
-2.17037 -9.25342 -2.54673 0.00031687 4
-2.51963 -10.7425 -2.54741 0.000210538 4
-7.49937 -31.9737 -1.72115 4.02271e-05 10
-7.49742 -31.9654 -0.5731 4.04876e-05 10
-7.49941 -31.9739 0.573252 4.04719e-05 10
-7.499 -31.9721 1.72106 3.13289e-05 10
-7.49837 -31.9694 2.87287 3.08898e-05 10
-7.49608 -31.9597 4.03065 3.02464e-05 10
-7.49825 -31.9689 5.2008 2.94091e-05 10
-2.13698 -9.25626 -2.54545 0.000260798 4
-2.4817 -10.7494 -2.54698 8.97687e-05 4
-7.41257 -32.1074 -1.72694 3.93582e-05 10
-7.41471 -32.1166 -0.575344 3.96136e-05 10
-7.41684 -32.1259 0.575509 3.9598e-05 10
-7.41552 -32.1201 1.72762 3.0652e-05 10
-7.41318 -32.11 2.88315 3.02216e-05 10
-7.41905 -32.1354 4.04953 2.95909e-05 10
-7.41783 -32.1301 5.22277 2.87702e-05 10
-2.10588 -9.26908 -2.54693 0.000302874 4
-2.44619 -10.767 -2.5491 9.79343e-05 4
-3.0389 -13.3758 -2.66625 0.0001297 4
-7.33226 -32.2731 -1.73446 3.85006e-05 10
-7.32829 -32.2556 -0.577372 3.87508e-05 10
-7.32917 -32.2595 0.57744 3.87356e-05 10
-7.32841 -32.2561 1.73355 2.99839e-05 10
-7.33094 -32.2672 2.89496 2.95621e-05 10
-7.33087 -32.2669 4.06284 2.8944e-05 10
-2.07214 -9.2702 -2.54524 0.000297278 4
-2.406 -10.7638 -2.54635 0.000109365 4
-2.99853 -13.4147 -2.67189 0.000170264 4
-7.24774 -32.4245 -1.74123 3.76544e-05 10
-7.24602 -32.4168 -0.579801 3.78995e-05 10
-7.2452 -32.4131 0.579735 3.78845e-05 10
-7.24802 -32.4257 1.7413 2.93247e-05 10
-7.24494 -32.412 2.90566 2.89114e-05 10
-2.04009 -9.27884 -2.54564 0.000353382 4
-2.36808 -10.7706 -2.54599 0.000159975 4
-2.95918 -13.4591 -2.67867 0.000139947 4
-7.16161 -32.5728 -1.74784 3.68194e-05 10
-7.16348 -32.5814 -0.582294 3.70595e-05 10
-7.15937 -32.5627 0.581959 3.70447e-05 10
-7.15891 -32.5606 1.74719 2.86742e-05 10
-2.00902 -9.29209 -2.54734 0.000347787 4
-2.33124 -10.7824 -2.54684 0.000195898 4
-2.91281 -13.4723 -2.67925 0.000157966 4
-7.07431 -32.7199 -1.7544 3.59958e-05 10
-7.07696 -32.7322 -0.584545 3.62308e-05 10
-7.07535 -32.7248 0.584411 3.62163e-05 10
-1.97744 -9.30313 -2.54846 0.000392679 4
-2.29579 -10.8009 -2.54928 0.000226926 4
-2.87091 -13.5066 -2.68407 0.000143878 4
-6.98861 -32.8788 -1.7616 3.51833e-05 10
-6.99191 -32.8943 -0.587 3.54135e-05 10
-6.99233 -32.8963 0.587035 3.53992e-05 10
-1.94415 -9.30609 -2.54739 0.000308546 4
-2.25812 -10.809 -2.54933 0.000225305 4
-2.82537 -13.5243 -2.68561 0.000118856 4
-6.899 -33.0236 -1.76806 3.43823e-05 10
-6.90176 -33.0368 -0.58911 3.46075e-05 10
-6.89988 -33.0278 0.588949 3.45935e-05 10
-1.913 -9.31938 -2.54919 0.000370271 4
-2.21762 -10.8034 -2.54616 0.000200825 4
-2.78595 -13.5721 -2.69315 0.000173367 4
-6.77771 -33.0184 -1.7665 4.03306e-05 10
-6.78088 -33.0339 -0.588631 4.06085e-05 10
-6.81643 -33.2071 0.591717 3.37991e-05 10
-6.78025 -33.0308 1.76716 3.14403e-05 10
-6.78288 -33.0436 2.95122 3.10041e-05 10
-6.77883 -33.0238 5.33952 2.95193e-05 10
-1.87633 -9.30557 -2.5436 0.000406754 4
-2.1793 -10.8081 -2.54547 0.00023839 4
-2.74415 -13.6095 -2.69865 0.000180033 4
-6.64612 -32.9611 -1.76218 4.10165e-05 10
-6.64663 -32.9636 -0.586962 4.12984e-05 10
-6.72786 -33.3665 0.594135 3.30159e-05 10
-6.64304 -32.9458 1.76137 3.19747e-05 10
-6.64663 -32.9636 2.94198 3.1532e-05 10
-6.64342 -32.9477 5.32343 3.00238e-05 10
-6.64534 -32.9572 6.53516 2.89832e-05 10
-1.84361 -9.3109 -2.54329 0.000409577 4
-2.14178 -10.8168 -2.54573 0.000181251 4
-2.70079 -13.64 -2.70282 0.000167251 4
-6.5267 -32.9622 -1.76102 3.4633e-05 10
-6.52682 -32.9629 -0.58654 3.48593e-05 10
-6.63703 -33.5194 0.596443 3.22441e-05 10
-1.813 -9.32707 -2.54596 0.000367513 4
-2.10675 -10.8383 -2.54905 0.000192691 4
-2.65726 -13.6704 -2.70699 0.00010988 4
-6.54839 -33.6885 0.599041 3.14835e-05 10
-1.78108 -9.33672 -2.54688 0.000406806 4
-2.07039 -10.8533 -2.55087 0.000228628 4
-2.61443 -13.7053 -2.71208 0.000134731 4
-6.45599 -33.8435 0.601392 3.07342e-05 10
-1.74845 -9.34273 -2.54684 0.000359127 4
-2.02951 -10.8446 -2.54713 0.000186178 4
-2.57086 -13.7373 -2.71662 0.00012104 4
-3.0963 -16.5449 -2.66595 4.50686e-05 4
-6.36406 -34.0061 0.603883 2.9996e-05 10
-1.7158 -9.34867 -2.54681 0.000395618 4
-1.99484 -10.869 -2.55122 0.00020252 4
-2.36793 -12.9018 -2.54975 0.000129324 4
-6.27582 -34.1943 0.606832 2.92691e-05 10
-1.68222 -9.34938 -2.54539 0.000384411 4
-1.95637 -10.873 -2.55055 0.00022703 4
-2.32385 -12.9154 -2.55082 0.000111581 4
-1.64872 -9.35035 -2.54407 0.000331113 4
-1.91593 -10.8658 -2.54726 0.000238475 4
-2.27595 -12.9075 -2.54768 0.000112433 4
-1.61595 -9.35537 -2.54388 0.000370414 4
-1.87844 -10.875 -2.54788 0.000194384 4
-2.23548 -12.942 -2.55293 0.00012174 4
-6.00209 -34.7484 -1.84805 3.34115e-05 10
-6.00289 -34.753 -0.615599 3.36468e-05 10
-1.58602 -9.37708 -2.54827 0.00101881 4
-1.84304 -10.8967 -2.55143 0.000230332 4
-2.18731 -12.9321 -2.54946 0.000400775 4
-5.87419 -34.7303 -1.84599 3.37728e-05 10
-5.87448 -34.732 -0.61486 3.40105e-05 10
-5.87177 -34.716 0.614575 3.40083e-05 10
-1.55976 -9.42172 -2.5589 0.0010417 4
-1.80275 -10.8896 -2.54827 0.000200939 4
-2.1525 -13.0022 -2.56177 0.000439936 4
-5.73723 -34.6558 -1.84095 3.43185e-05 10
-5.73801 -34.6605 -0.613236 3.45596e-05 10
-5.73566 -34.6463 0.612984 3.45574e-05 10
-1.5346 -9.4749 -2.57188 0.0011526 4
-1.76601 -10.9037 -2.55012 0.000204217 4
-2.11506 -13.0587 -2.57144 0.000344919 4
-1.50849 -9.5242 -2.58381 0.00119727 4
-1.7265 -10.9007 -2.548 0.000199326 4
-2.07832 -13.122 -2.58245 0.000270876 4
-1.48011 -9.56095 -2.59236 0.00113806 4
-1.6896 -10.9142 -2.54975 0.000220577 4
-2.04052 -13.181 -2.59264 0.000431381 4
-1.45249 -9.60411 -2.60268 0.0011267 4
-1.65238 -10.9259 -2.55112 0.000230393 4
-2.00153 -13.2345 -2.60178 0.000364095 4
-1.42622 -9.65837 -2.61602 0.00104561 4
-1.61261 -10.9205 -2.54854 0.000225503 4
-1.95905 -13.2667 -2.60674 0.000479903 4
-1.39984 -9.7142 -2.6298 0.00118057 4
-1.57482 -10.9285 -2.54911 0.000194466 4
-1.92271 -13.3427 -2.62034 0.000416356 4
-1.373 -9.76938 -2.64342 0.000834528 4
-1.53699 -10.9362 -2.54964 0.000225527 4
-1.88456 -13.4093 -2.63212 0.000347768 4
-1.34611 -9.82685 -2.65769 0.000705661 4
-1.4969 -10.9277 -2.54641 0.000219002 4
-1.84265 -13.4517 -2.63916 0.000387097 4
-1.31641 -9.86604 -2.66702 0.00101011 4
-1.45938 -10.9375 -2.54751 0.000214111 4
-1.80264 -13.5101 -2.64938 0.000395407 4
-1.28964 -9.92968 -2.683 0.00102864 4
-1.42037 -10.9363 -2.54604 0.000199412 4
-1.7643 -13.5844 -2.66271 0.000286916 4
-2.1676 -16.6896 -2.66557 2.98754e-05 4
-1.26132 -9.98437 -2.69657 0.000843018 4
-1.38485 -10.9622 -2.55093 0.000202692 4
-1.71577 -13.5817 -2.661 8.14063e-05 4
-1.23009 -10.0183 -2.70455 0.000725915 4
-1.34622 -10.9641 -2.55026 0.000197799 4
-1.66836 -13.5877 -2.66101 7.99317e-05 4
-1.20049 -10.0676 -2.71673 0.000362459 4
-1.3056 -10.9491 -2.5457 0.000189636 4
-1.62075 -13.592 -2.66074 6.14332e-05 4
-1.99291 -16.7131 -2.66584 3.62416e-05 4
-1.17334 -10.1409 -2.73537 0.00099077 4
-1.26729 -10.9528 -2.54553 0.000245233 4
-1.5746 -13.6088 -2.66294 0.000122135 4
-1.13937 -10.1577 -2.73881 0.000377801 1
-1.22919 -10.9585 -2.54583 0.000202737 4
-1.52857 -13.6275 -2.66553 0.000188767 4
-1.10393 -10.1618 -2.73887 0.000377819 1
-1.19279 -10.9798 -2.54981 0.00024526 4
-1.47956 -13.6196 -2.66295 8.36554e-05 4
-1.0689 -10.1699 -2.74002 0.000377837 1
-1.15301 -10.9701 -2.54661 0.00020603 4
-1.43221 -13.6266 -2.66332 0.000103651 4
-1.03337 -10.1733 -2.73996 0.000377855 1
-1.11641 -10.9909 -2.5505 0.000217488 4
-1.38407 -13.6259 -2.66224 5.77526e-05 4
-0.995796 -10.1559 -2.73431 0.000377873 1
-1.07767 -10.9909 -2.54961 0.000204418 4
-1.33707 -13.6365 -2.66338 0.000105887 4
-0.960834 -10.1645 -2.73572 0.000377891 1
-1.03902 -10.9916 -2.54893 0.00024368 4
-1.2353 -13.0681 -2.5515 8.12804e-05 4
-0.926249 -10.1778 -2.73839 0.000377909 1
-0.999629 -10.9841 -2.54635 0.000189721 4
-1.18781 -13.0518 -2.5475 0.000117695 4
-0.889463 -10.1666 -2.73453 0.000377928 1
-0.962273 -10.9988 -2.54898 0.000173376 4
-1.14221 -13.0555 -2.54743 0.000121091 4
-1.46784 -16.7774 -2.66744 6.20434e-05 4
-0.853455 -10.1635 -2.73289 0.000377946 1
-0.923697 -11 -2.54849 0.00021755 4
-1.09634 -13.0559 -2.54675 0.000101622 4
-1.40845 -16.7728 -2.66589 6.58677e-05 4
-0.818323 -10.1708 -2.73406 0.000377964 1
-0.885519 -11.006 -2.54914 0.000230649 4
-1.05234 -13.0793 -2.55057 0.000102476 4
-1.34859 -16.7614 -2.66333 5.72816e-05 4
-0.783652 -10.1845 -2.73699 0.000377983 1
-0.846235 -10.9978 -2.54655 0.000233934 4
-1.0057 -13.0702 -2.5481 0.00012027 4
-1.29085 -16.7761 -2.66493 5.69687e-05 4
-0.746966 -10.1717 -2.73284 0.000378001 1
-0.808288 -11.0068 -2.54795 0.000225767 4
-0.961545 -13.0937 -2.55202 9.23264e-05 4
-1.2332 -16.7929 -2.6669 4.04229e-05 4
-0.712618 -10.1909 -2.73731 0.00037802 1
-0.769452 -11.0037 -2.5466 0.000209419 4
-0.915376 -13.0905 -2.55074 9.74155e-05 4
-1.17452 -16.7964 -2.66679 6.81015e-05 4
-0.676061 -10.1786 -2.73335 0.000378038 1
-0.73143 -11.0122 -2.54797 0.000225794 4
-0.868901 -13.0819 -2.54847 0.000124531 4
-1.11764 -16.8268 -2.67098 8.50867e-05 4
-0.640459 -10.1798 -2.73306 0.000378057 1
-0.69302 -11.0152 -2.54809 7.36326e-05 4
-0.824215 -13.1005 -2.55152 0.000126235 4
-1.06207 -16.8811 -2.67899 7.77863e-05 4
-0.604906 -10.1817 -2.733 0.000378076 1
-0.656583 -11.0515 -2.55595 0.000783778 4
-0.777215 -13.082 -2.54737 0.000120313 4
-1.00436 -16.9052 -2.68224 8.83623e-05 4
-0.57021 -10.1989 -2.73706 0.000378095 1
-0.622938 -11.142 -2.57636 0.000837329 4
-0.73218 -13.096 -2.54957 0.000133879 4
-0.948377 -16.9629 -2.69086 7.80669e-05 4
-1.2317 -22.0305 -1.93043 8.78411e-05 6
-0.535005 -10.2085 -2.73911 0.000378113 1
-0.586214 -11.1856 -2.58594 0.000594654 4
-0.687024 -13.1092 -2.55166 0.000121178 4
-0.889919 -16.9806 -2.69316 7.69829e-05 4
-1.1487 -21.9185 -1.92025 8.01267e-05 6
-0.498298 -10.1884 -2.73324 0.000378132 1
-0.551105 -11.2681 -2.60456 0.00094477 4
-0.641226 -13.1108 -2.55153 0.000139831 4
-0.832359 -17.0188 -2.69873 8.37373e-05 4
-1.06733 -21.8232 -1.91156 9.93491e-05 6
-0.462561 -10.1864 -2.73224 0.000378151 1
-0.514116 -11.3217 -2.61652 0.000633887 4
-0.595321 -13.11 -2.55095 9.238e-05 4
-0.774651 -17.0591 -2.70468 7.66316e-05 4
-0.428079 -10.2136 -2.73914 0.000378171 1
-0.476851 -11.3773 -2.62896 0.000796038 4
-0.549641 -13.114 -2.55134 0.000133071 4
-0.717291 -17.114 -2.71297 6.84179e-05 4
-0.392308 -10.212 -2.73833 0.00037819 1
-0.439676 -11.4451 -2.64425 0.000669941 4
-0.503135 -13.0969 -2.54766 0.000132233 4
-0.618185 -16.0918 -2.55056 4.93222e-05 4
-0.356352 -10.2046 -2.73597 0.000378209 1
-0.40249 -11.5258 -2.66255 0.000450704 4
-0.45795 -13.1139 -2.55065 0.000103421 4
-0.562668 -16.1127 -2.55355 4.6014e-05 4
-0.320316 -10.1926 -2.73245 0.000378228 1
-0.364437 -11.5966 -2.6786 0.000776836 4
-0.412274 -13.1187 -2.55128 0.000101733 4
-0.506155 -16.1061 -2.55221 4.38095e-05 4
-0.285353 -10.2158 -2.73837 0.000378247 1
-0.326049 -11.6727 -2.6959 0.000301828 4
-0.366434 -13.1185 -2.55097 0.000112762 4
-0.44961 -16.0962 -2.55038 4.88837e-05 4
-0.249354 -10.2029 -2.73466 0.000378267 1
-0.287025 -11.7443 -2.71219 0.000363769 4
-0.320445 -13.1117 -2.54942 9.3269e-05 4
-0.395702 -16.191 -2.56517 0.000227938 4
-0.213991 -10.2158 -2.73791 0.000378286 1
-0.247513 -11.8161 -2.72855 0.00075146 4
-0.274701 -13.114 -2.54967 0.000130586 4
-0.340477 -16.2541 -2.57496 0.000189931 4
-0.178327 -10.2163 -2.73787 0.000378306 1
-0.206903 -11.8534 -2.73699 0.000218364 1
-0.228955 -13.1168 -2.55003 0.000117028 4
-0.285558 -16.3596 -2.59149 0.000248327 4
-0.14255 -10.2086 -2.73566 0.000378325 1
-0.165491 -11.8515 -2.73641 0.000218378 1
-0.183035 -13.1079 -2.54816 8.56572e-05 4
-0.229675 -16.448 -2.60536 0.000154232 4
-0.106876 -10.2054 -2.73469 0.000378345 1
-0.12426 -11.8654 -2.73948 0.000218391 1
-0.137223 -13.1032 -2.54714 9.49934e-05 4
-0.172968 -16.5165 -2.61609 0.00022002 4
-0.224438 -21.4312 -1.87509 6.29657e-05 6
-0.0712327 -10.203 -2.73396 0.000378364 1
-0.0827842 -11.8576 -2.73761 0.000218405 1
-0.0914809 -13.1033 -2.54708 9.50006e-05 4
-0.115833 -16.5914 -2.62788 0.000158214 4
-0.149608 -21.4291 -1.87485 3.72141e-05 6
-0.0356273 -10.2062 -2.73476 0.000378384 1
-0.0414079 -11.8622 -2.73862 0.000218418 1
-0.0458066 -13.1223 -2.55074 0.000106884 4
-0.0582623 -16.6905 -2.64353 0.000196429 4
-4.46183e-07 -10.2075 -2.73509 0.000378404 1
-5.17852e-07 -11.8471 -2.73511 0.000218432 1
-5.72532e-07 -13.098 -2.546 9.75601e-05 4
-7.33081e-07 -16.7709 -2.65626 0.000235062 4
-9.36755e-07 -21.4305 -1.87492 3.52936e-05 6
0.0356276 -10.2069 -2.73495 0.000378424 1
0.0414199 -11.8663 -2.73958 0.000218446 1
0.0457315 -13.1016 -2.5467 0.000128959 4
0.0587578 -16.8335 -2.66617 3.66821e-05 4
0.0748426 -21.4416 -1.87591 0.000108717 6
0.0712849 -10.2108 -2.73604 0.000378444 1
0.0827329 -11.8506 -2.73599 0.00021846 1
0.091597 -13.1203 -2.55039 0.000120484 4
0.117336 -16.8072 -2.66206 4.2747e-05 4
0.150102 -21.5005 -1.88109 9.27494e-05 6
0.107028 -10.2201 -2.73862 0.000378464 1
0.124029 -11.8435 -2.73445 0.000218473 1
0.137234 -13.1045 -2.5474 0.000100977 4
0.176061 -16.8121 -2.66292 3.66896e-05 4
0.226095 -21.5898 -1.88897 9.84129e-05 6
0.142353 -10.1946 -2.73191 0.000378483 1
0.165567 -11.8571 -2.7377 0.000218487 1
0.182939 -13.1013 -2.54688 9.3347e-05 4
0.302258 -21.6463 -1.89399 5.35437e-05 6
0.178121 -10.2046 -2.73474 0.000378504 1
0.206803 -11.8478 -2.73571 0.000218501 1
0.228691 -13.1018 -2.54712 8.99595e-05 4
0.378912 -21.708 -1.8995 5.36051e-05 6
0.213795 -10.2065 -2.73543 0.000378524 1
0.247991 -11.839 -2.73386 0.000218515 1
0.274517 -13.1054 -2.54798 0.000111185 4
0.352193 -16.8136 -2.6636 8.138e-05 4
0.45719 -21.8261 -1.90996 0.000101985 6
0.249183 -10.196 -2.73282 0.000378544 1
0.289855 -11.8602 -2.73895 0.000218529 1
0.320307 -13.1062 -2.54834 0.000110345 4
0.284676 -10.1916 -2.73189 0.000378564 1
0.331334 -11.862 -2.73962 0.000218543 1
0.366179 -13.1094 -2.54921 0.000104411 4
0.449487 -16.0919 -2.5497 4.05645e-05 4
0.320926 -10.2121 -2.73767 0.000378584 1
0.37186 -11.8328 -2.73318 0.000218557 1
0.411772 -13.1029 -2.54819 7.30088e-05 4
0.50554 -16.0866 -2.54913 4.27815e-05 4
0.700836 -22.3011 -1.95206 0.00010924 6
0.35668 -10.214 -2.73851 0.000378605 1
0.413254 -11.8341 -2.73378 0.000218571 1
0.457794 -13.1095 -2.54979 5.51854e-05 4
0.562161 -16.0982 -2.55127 4.72119e-05 4
0.785851 -22.5039 -1.97004 9.96879e-05 6
0.801335 -22.9473 -1.20335 0.000128021 6
0.392185 -10.2089 -2.73748 0.000378625 1
0.455509 -11.8573 -2.73949 0.000218585 1
0.50654 -13.1856 -2.56492 0.000473302 4
0.61839 -16.0972 -2.55142 5.12745e-05 4
0.869643 -22.6375 -1.98199 9.74958e-05 6
0.427126 -10.1909 -2.73305 0.000378646 1
0.496861 -11.8548 -2.73929 0.0002186 1
0.555824 -13.2616 -2.58005 0.000301828 4
0.674222 -16.0865 -2.55008 4.79595e-05 4
0.954639 -22.777 -1.99448 9.54702e-05 6
0.462638 -10.1881 -2.73271 0.000378666 1
0.537647 -11.8399 -2.73628 0.000218614 1
0.606993 -13.3671 -2.60097 0.000247782 4
0.730167 -16.0796 -2.54938 4.46438e-05 4
1.04195 -22.9457 -2.00955 9.33776e-05 6
0.499242 -10.2078 -2.73843 0.000378687 1
0.578305 -11.8243 -2.73313 0.000218628 1
0.657656 -13.4468 -2.61691 0.000424026 4
0.787174 -16.095 -2.55224 4.53864e-05 4
1.12994 -23.1033 -2.02369 9.12403e-05 6
0.534827 -10.2051 -2.73821 0.000378708 1
0.619616 -11.823 -2.7333 0.000218642 1
0.709362 -13.5354 -2.63464 0.000543243 4
0.843235 -16.0899 -2.55189 4.5022e-05 4
1.21809 -23.2426 -2.03625 8.89754e-05 6
0.569459 -10.1855 -2.73347 0.000378728 1
0.661251 -11.8274 -2.73483 0.000218656 1
0.763372 -13.6539 -2.6582 0.000500777 4
0.898211 -16.0657 -2.54853 4.09669e-05 4
1.3102 -23.4346 -2.05347 8.73707e-05 6
0.605026 -10.1838 -2.73354 0.000378749 1
0.701943 -11.8151 -2.73253 0.000218671 1
0.816749 -13.7475 -2.67695 0.000439269 4
0.954894 -16.0727 -2.55016 5.61047e-05 4
1.40112 -23.5835 -2.06693 8.46462e-05 6
0.641119 -10.1903 -2.73589 0.00037877 1
0.743475 -11.8172 -2.73362 0.000218685 1
0.87035 -13.8338 -2.69434 0.000429999 4
1.01157 -16.0785 -2.55162 4.50361e-05 4
1.49477 -23.7588 -2.08274 7.96337e-05 6
0.675624 -10.172 -2.73159 0.000378791 1
0.784701 -11.8143 -2.73355 0.0002187 1
0.924844 -13.9242 -2.71256 0.000450164 4
1.06697 -16.064 -2.54989 4.3564e-05 4
1.58558 -23.8722 -2.09315 8.13286e-05 6
0.711232 -10.1711 -2.73199 0.000378811 1
0.827339 -11.8315 -2.73819 0.000218714 1
0.981405 -14.0348 -2.73474 0.0003702 4
1.12241 -16.0512 -2.54847 5.35376e-05 4
0.747644 -10.181 -2.73533 0.000378832 1
0.866797 -11.8035 -2.7324 0.000218729 1
1.03165 -14.0485 -2.7381 0.000111954 1
1.18 -16.0685 -2.55186 4.50502e-05 4
1.59645 -21.7395 -2.67646 2.94582e-05 4
1.78508 -24.3082 -2.13242 3.54661e-05 6
1.8177 -24.7524 -1.30071 6.75388e-05 6
0.782097 -10.1643 -2.73156 0.000378853 1
0.908148 -11.8025 -2.73287 0.000218743 1
1.0802 -14.0385 -2.73688 0.000111963 1
1.23525 -16.0536 -2.55015 4.32084e-05 4
0.818193 -10.1692 -2.73363 0.000378874 1
0.95002 -11.8077 -2.73482 0.000218758 1
1.12958 -14.0393 -2.73779 0.000111972 1
1.29028 -16.0367 -2.54818 4.4321e-05 4
1.75812 -21.8513 -2.69168 3.02605e-05 4
1.98385 -24.657 -2.16418 7.21386e-05 6
0.855066 -10.1827 -2.73805 0.000378895 1
0.991685 -11.8097 -2.73607 0.000218772 1
1.17722 -14.0191 -2.73464 0.000111981 1
1.34695 -16.0404 -2.54949 4.06319e-05 4
0.890516 -10.1787 -2.73778 0.000378917 1
1.03364 -11.8145 -2.73802 0.000218787 1
1.22836 -14.0402 -2.73957 0.000111991 1
1.40327 -16.0395 -2.5501 3.84196e-05 4
0.926096 -10.1761 -2.73795 0.000378938 1
1.07391 -11.8003 -2.73557 0.000218802 1
1.27652 -14.0266 -2.73776 0.000112 1
1.45755 -16.0158 -2.54714 4.98769e-05 4
2.00543 -22.036 -2.71686 3.13636e-05 4
0.959174 -10.147 -2.731 0.000378959 1
1.11422 -11.7873 -2.73344 0.000218816 1
1.32512 -14.0184 -2.73704 0.000112009 1
1.51411 -16.0176 -2.54824 3.43633e-05 4
0.995083 -10.1487 -2.73236 0.00037898 1
1.15667 -11.7967 -2.73654 0.000218831 1
1.37341 -14.0072 -2.73578 0.000112019 1
1.57 -16.0121 -2.54824 5.80174e-05 4
1.03119 -10.1519 -2.73419 0.000379002 1
1.19636 -11.7779 -2.73314 0.000218846 1
1.42217 -14.001 -2.73553 0.000112028 1
1.62715 -16.019 -2.55022 4.69363e-05 4
2.10568 -20.7301 -2.55843 0.00011216 4
1.06712 -10.153 -2.73546 0.000379023 1
1.23865 -11.7849 -2.73575 0.000218861 1
1.47225 -14.0075 -2.73778 0.000112038 1
1.68188 -16.002 -2.54843 4.87894e-05 4
2.1921 -20.8564 -2.57495 8.49279e-05 4
1.10168 -10.1411 -2.7333 0.000379045 1
1.28092 -11.7911 -2.73821 0.000218876 1
1.51987 -13.9907 -2.73552 0.000112047 1
1.73723 -15.9915 -2.54771 5.02733e-05 4
2.28201 -21.0062 -2.59442 6.12168e-05 4
2.36169 -21.7397 0.381701 6.11835e-05 5
1.1379 -10.1446 -2.73528 0.000379066 1
1.3209 -11.7761 -2.73578 0.000218891 1
1.56933 -13.9909 -2.73662 0.000112057 1
1.79419 -15.9956 -2.54934 4.91696e-05 4
2.37151 -21.1425 -2.61225 0.000104368 4
2.43803 -21.7356 0.381775 0.000353774 5
1.1725 -10.1337 -2.73342 0.000379088 1
1.36155 -11.7675 -2.73487 0.000218906 1
1.61706 -13.9759 -2.73476 0.000112066 1
1.848 -15.9718 -2.54657 4.73262e-05 4
2.46426 -21.2979 -2.63251 0.000110685 4
1.20756 -10.1269 -2.73272 0.000379109 1
1.40351 -11.7702 -2.73662 0.00021892 1
1.66554 -13.9677 -2.73427 0.000112075 1
1.90367 -15.9646 -2.54646 4.65918e-05 4
2.5561 -21.4361 -2.65067 6.98133e-05 4
1.24318 -10.1249 -2.73334 0.000379131 1
1.44259 -11.749 -2.73283 0.000218936 1
1.7175 -13.988 -2.73941 0.000112085 1
1.96078 -15.9693 -2.54828 5.21441e-05 4
1.27712 -10.1094 -2.73035 0.000379152 1
1.48488 -11.754 -2.7352 0.000218951 1
1.76443 -13.9669 -2.73646 0.000112095 1
2.01651 -15.9623 -2.54827 4.84512e-05 4
1.3132 -10.1111 -2.732 0.000379174 1
1.52615 -11.7507 -2.73564 0.000218966 1
1.8126 -13.9563 -2.73561 0.000112104 1
2.08399 -16.0459 -2.56276 0.00031979 4
2.81996 -21.7125 0.382175 0.000329432 5
1.35118 -10.1266 -2.73747 0.000379196 1
1.56628 -11.7387 -2.73411 0.000218981 1
1.86173 -13.953 -2.73622 0.000112114 1
2.15831 -16.1758 -2.5847 0.000308817 4
2.90202 -21.7497 -1.91971 5.36519e-05 5
2.89092 -21.6664 0.38154 0.000331557 5
1.38349 -10.0998 -2.7315 0.000379218 1
1.60886 -11.745 -2.73687 0.000218996 1
1.91165 -13.9554 -2.73799 0.000112123 1
2.23348 -16.3048 -2.60655 0.000188581 4
2.97675 -21.7309 -1.91896 6.39032e-05 5
2.90009 -21.1712 0.372996 0.000100936 5
1.41814 -10.0906 -2.73035 0.00037924 1
1.6488 -11.7318 -2.73512 0.000219011 1
1.9592 -13.9405 -2.73638 0.000112133 1
2.31286 -16.4569 -2.63213 0.000214698 4
3.0582 -21.7602 0.383558 0.000124269 5
1.45573 -10.1021 -2.7348 0.000379262 1
1.69128 -11.7367 -2.73762 0.000219026 1
2.00653 -13.9243 -2.73458 0.000112143 1
2.39245 -16.6025 -2.65674 0.000273483 4
1.48821 -10.0781 -2.7297 0.000379284 1
1.73225 -11.7308 -2.73763 0.000219041 1
2.05471 -13.9145 -2.73403 0.000112152 1
2.47241 -16.7431 -2.6806 0.000230148 4
1.52531 -10.0856 -2.73317 0.000379306 1
1.77008 -11.7041 -2.73284 0.000219057 1
2.10309 -13.906 -2.7338 0.000112162 1
2.55505 -16.8945 -2.70626 0.000196247 4
1.56129 -10.0853 -2.73454 0.000379328 1
1.81069 -11.6963 -2.73248 0.000219072 1
2.15567 -13.9248 -2.73894 0.000112172 1
2.63807 -17.0409 -2.73116 0.000207732 4
1.59484 -10.0694 -2.73173 0.00037935 1
1.85233 -11.6952 -2.7337 0.000219087 1
2.20273 -13.9075 -2.73704 0.000112182 1
2.70328 -17.0679 -2.73698 4.79312e-05 1
1.62962 -10.0616 -2.73112 0.000379372 1
1.89578 -11.7049 -2.7375 0.000219103 1
2.24871 -13.884 -2.73394 0.000112191 1
2.76481 -17.0704 -2.73893 4.79367e-05 1
3.50608 -21.6472 0.382776 0.000107601 5
1.666 -10.0635 -2.7332 0.000379395 1
1.93605 -11.6947 -2.73669 0.000219118 1
2.30102 -13.8993 -2.73853 0.000112201 1
2.82376 -17.0569 -2.73832 4.79421e-05 1
1.69916 -10.0461 -2.73007 0.000379417 1
1.97676 -11.6873 -2.73655 0.000219134 1
2.34667 -13.8744 -2.73521 0.000112211 1
2.88414 -17.0521 -2.73914 4.79476e-05 1
1.73583 -10.0494 -2.7326 0.000379439 1
2.01418 -11.6609 -2.73199 0.000219149 1
2.397 -13.8772 -2.73739 0.000112221 1
2.94137 -17.0287 -2.73702 4.7953e-05 1
1.76995 -10.0379 -2.73113 0.000379461 1
2.05699 -11.6657 -2.7348 0.000219165 1
2.44199 -13.8492 -2.73354 0.000112231 1
3.00425 -17.038 -2.74018 4.79585e-05 1
1.80836 -10.0504 -2.73625 0.000379484 1
2.09636 -11.6511 -2.73306 0.00021918 1
2.49071 -13.8428 -2.73398 0.00011224 1
3.06179 -17.0167 -2.73847 4.7964e-05 1
1.84212 -10.0369 -2.73431 0.000379506 1
2.13859 -11.6522 -2.73507 0.000219196 1
2.54002 -13.8395 -2.73506 0.00011225 1
3.12081 -17.004 -2.73815 4.79695e-05 1
1.87586 -10.0236 -2.73244 0.000379529 1
2.17603 -11.6275 -2.73103 0.000219211 1
2.58661 -13.8215 -2.73326 0.00011226 1
3.18173 -17.0014 -2.73951 4.7975e-05 1
1.91319 -10.0293 -2.73579 0.000379551 1
2.21899 -11.6323 -2.73396 0.000219227 1
2.63801 -13.8289 -2.73654 0.00011227 1
3.23883 -16.9786 -2.73763 4.79806e-05 1
1.94765 -10.0198 -2.73505 0.000379574 1
2.26041 -11.6288 -2.73497 0.000219243 1
2.68508 -13.8135 -2.73533 0.00011228 1
3.29592 -16.956 -2.73584 4.79861e-05 1
1.98298 -10.0148 -2.73555 0.000379597 1
2.29789 -11.6052 -2.73129 0.000219258 1
2.73575 -13.8166 -2.73781 0.00011229 1
3.35653 -16.9517 -2.73702 4.79917e-05 1
2.01537 -9.99512 -2.73209 0.000379619 1
2.33883 -11.5993 -2.7318 0.000219274 1
2.78379 -13.806 -2.73763 0.0001123 1
3.41475 -16.9353 -2.73626 4.79972e-05 1
2.04828 -9.97847 -2.72947 0.000379642 1
2.3793 -11.591 -2.7318 0.00021929 1
2.82982 -13.7858 -2.73557 0.00011231 1
3.47316 -16.9199 -2.73573 4.80028e-05 1
2.08837 -9.99645 -2.73637 0.000379665 1
2.42357 -11.601 -2.73612 0.000219305 1
2.87803 -13.7764 -2.73567 0.00011232 1
3.53449 -16.9187 -2.7375 4.80084e-05 1
1.96999 -9.4298 1.18283 0.00321586 10
1.97087 -9.43402 1.52646 0.00315672 10
1.97071 -9.43324 1.87322 0.00308401 10
1.97397 -9.44885 2.22853 0.00299847 10
1.97563 -9.4568 2.58865 0.00290102 10
2.11983 -9.97303 -2.73197 0.000379688 1
2.46213 -11.5834 -2.73398 0.000219321 1
2.92565 -13.7641 -2.73524 0.00011233 1
3.59417 -16.9093 -2.738 4.8014e-05 1
2.00211 -9.41922 1.18237 0.00322879 10
2.0027 -9.42195 1.52563 0.00316943 10
2.00324 -9.4245 1.87286 0.00309644 10
2.00492 -9.43243 2.2263 0.00301058 10
2.0055 -9.43514 2.58462 0.00291275 10
2.15427 -9.9639 -2.73151 0.000379711 1
2.50419 -11.5823 -2.73578 0.000219337 1
2.97562 -13.7628 -2.73703 0.00011234 1
3.65023 -16.883 -2.73579 4.80196e-05 1
2.037 -9.42151 1.18354 0.00324162 10
2.0363 -9.41825 1.52617 0.00318203 10
2.03331 -9.40445 1.87028 0.00310876 10
2.0354 -9.4141 2.22364 0.00302258 10
2.03238 -9.40015 2.57696 0.00292439 10
2.14379 -9.75053 -2.67505 0.00338335 10
2.14788 -9.76913 -2.30925 0.0034976 10
2.14573 -9.75936 -1.94234 0.00359786 10
2.14705 -9.76537 -1.58363 0.00368305 10
2.14819 -9.77054 -1.22833 0.00375229 10
2.14644 -9.76259 -0.874516 0.00380484 10
2.14419 -9.75234 -0.523306 0.00384014 10
2.1425 -9.74464 -0.174156 0.00385782 10
2.14775 -9.76855 0.174583 0.00385769 10
2.14802 -9.76974 0.52424 0.00383974 10
2.14427 -9.75271 0.873631 0.00380417 10
2.06788 -9.40527 1.1824 0.00325432 10
2.06816 -9.40654 1.52543 0.00319451 10
2.06408 -9.38799 1.86843 0.00312097 10
2.06648 -9.39888 2.22173 0.00303447 10
2.06405 -9.38784 2.57555 0.00293591 10
2.17508 -9.73074 -2.67169 0.00339662 10
2.17954 -9.7507 -2.30668 0.0035113 10
2.17664 -9.73773 -1.93953 0.00361192 10
2.17999 -9.75272 -1.5828 0.00369743 10
2.17503 -9.73051 -1.22424 0.00376692 10
2.17688 -9.7388 -0.87306 0.00381967 10
2.17493 -9.73007 -0.522515 0.0038551 10
2.17432 -9.72737 -0.173982 0.00387284 10
2.17935 -9.74986 0.174384 0.0038727 10
2.17529 -9.73171 0.522603 0.00385469 10
2.18043 -9.75468 0.874484 0.00381899 10
2.09652 -9.3793 1.18005 0.00326691 10
2.09525 -9.37361 1.52127 0.00320689 10
2.09338 -9.36523 1.86534 0.00313308 10
2.09595 -9.37676 2.21822 0.00304626 10
2.09444 -9.36999 2.57264 0.00294733 10
2.20704 -9.71433 -2.66928 0.00340976 10
2.21007 -9.72765 -2.30304 0.00352486 10
2.20823 -9.71957 -1.93744 0.00362585 10
2.206 -9.70975 -1.57706 0.00371167 10
2.20657 -9.71225 -1.2229 0.00378142 10
2.20817 -9.71931 -0.872 0.00383435 10
2.20651 -9.71198 -0.521954 0.00386991 10
2.2078 -9.71768 -0.173945 0.00388772 10
2.20694 -9.71388 0.173877 0.00388758 10
2.20641 -9.71156 0.521932 0.00386951 10
2.2096 -9.7256 0.872564 0.00383368 10
2.14197 -9.42794 1.18711 0.000926845 10
2.14179 -9.42712 1.53116 0.000909241 10
2.13944 -9.41679 1.87708 0.000887741 10
2.13815 -9.41112 2.2281 0.000862571 10
2.13897 -9.41471 2.58695 0.000833993 10
2.24345 -9.71744 -2.67227 0.00342278 10
2.23997 -9.70236 -2.29889 0.0035383 10
2.24229 -9.71244 -1.93757 0.00363965 10
2.24292 -9.71517 -1.57921 0.00372578 10
2.24325 -9.71658 -1.22443 0.00379577 10
2.24023 -9.70353 -0.871279 0.0038489 10
2.23763 -9.69225 -0.52131 0.00388459 10
2.24011 -9.703 -0.173822 0.00390246 10
2.24049 -9.70465 0.173851 0.00390232 10
2.24263 -9.71389 0.522474 0.00388418 10
2.24225 -9.71226 0.872063 0.00384822 10
2.20083 -9.53284 1.20127 0.000885002 10
2.20007 -9.52958 1.54904 0.000868144 10
2.19767 -9.51917 1.89901 0.000847557 10
2.20133 -9.53502 2.25924 0.000823459 10
2.20065 -9.53208 2.6213 0.000796101 10
2.27279 -9.69008 -2.66691 0.00343568 10
2.27101 -9.6825 -2.29604 0.0035516 10
2.27474 -9.69839 -1.93634 0.00365331 10
2.2717 -9.68547 -1.57566 0.00373975 10
2.27089 -9.68199 -1.22106 0.00380999 10
2.26943 -9.67575 -0.869492 0.00386331 10
2.27361 -9.6936 -0.521807 0.00389912 10
2.2728 -9.69013 -0.173732 0.00391705 10
2.27463 -9.69796 0.173872 0.00391692 10
2.27212 -9.68722 0.521463 0.00389871 10
2.27293 -9.69068 0.870833 0.00386263 10
2.2606 -9.63811 1.21553 0.000844424 10
2.26314 -9.64894 1.56971 0.00082829 10
2.25981 -9.63477 1.92363 0.000808591 10
2.25955 -9.63363 2.28446 0.000785535 10
2.26008 -9.63592 2.65201 0.000759364 10
2.30445 -9.67309 -2.66443 0.00344844 10
2.30178 -9.66188 -2.29305 0.00356477 10
2.30494 -9.67514 -1.93329 0.00366684 10
2.30604 -9.67975 -1.57603 0.00375358 10
2.30191 -9.66242 -1.2196 0.00382407 10
2.30131 -9.65988 -0.868782 0.00387757 10
2.30284 -9.66632 -0.520768 0.00391351 10
2.30455 -9.67349 -0.173577 0.0039315 10
2.30614 -9.68016 0.173696 0.00393137 10
2.30716 -9.68443 0.521744 0.0039131 10
2.30364 -9.66968 0.869663 0.00387689 10
2.30211 -9.66323 1.2197 0.00298094 10
2.30561 -9.67794 1.57573 0.00292578 10
2.30508 -9.67571 1.9334 0.00285796 10
2.30445 -9.67305 2.2957 0.00177355 10
2.30153 -9.66083 2.66106 0.00171555 10
2.33454 -9.64983 -2.66025 0.00346108 10
2.3337 -9.64637 -2.29129 0.00357781 10
2.33713 -9.66054 -1.93199 0.00368024 10
2.33593 -9.6556 -1.57341 0.00376727 10
2.33506 -9.652 -1.2193 0.003838 10
2.33719 -9.66078 -0.869592 0.00389169 10
2.33571 -9.65469 -0.520577 0.00392775 10
2.33524 -9.65272 -0.173349 0.00394581 10
2.33478 -9.65082 0.173315 0.00394567 10
2.3325 -9.64141 0.519861 0.00392734 10
2.33242 -9.64109 0.867818 0.00389101 10
2.33748 -9.66199 1.22057 0.0029918 10
2.3373 -9.66126 1.57434 0.00293645 10
2.33581 -9.65508 1.9309 0.0028684 10
2.35129 -9.71909 2.30856 0.00174524 10
2.35485 -9.73378 2.6834 0.00168808 10
2.36417 -9.62517 -2.65572 0.00347359 10
2.36916 -9.64548 -2.29302 0.00359072 10
2.36972 -9.64777 -1.93108 0.00369349 10
2.36624 -9.63361 -1.57117 0.00378082 10
2.36943 -9.6466 -1.21966 0.0038518 10
2.36763 -9.63929 -0.868395 0.00390566 10
2.36454 -9.62669 -0.519509 0.00394185 10
2.36825 -9.64179 -0.173301 0.00395997 10
2.36768 -9.63946 0.173259 0.00395983 10
2.37052 -9.65102 0.520822 0.00394143 10
2.36664 -9.63523 0.868029 0.00390498 10
2.36959 -9.64726 1.21974 0.00300255 10
2.36535 -9.63 1.57058 0.00294702 10
2.36769 -9.6395 1.92942 0.00287874 10
2.38336 -9.70329 2.30677 0.00175154 10
2.38081 -9.69293 2.67441 0.0016942 10
2.39884 -9.62122 -2.65692 0.00348597 10
2.39471 -9.60466 -2.28529 0.00360349 10
2.39721 -9.61469 -1.92612 0.00370661 10
2.39836 -9.61931 -1.57019 0.00379423 10
2.40176 -9.63292 -1.21898 0.00386544 10
2.40182 -9.63317 -0.868594 0.00391949 10
2.39647 -9.61173 -0.51915 0.0039558 10
2.40112 -9.63036 -0.173245 0.00397398 10
2.39851 -9.61992 0.173057 0.00397384 10
2.40021 -9.62674 0.519961 0.00395538 10
2.39671 -9.61267 0.866745 0.00391881 10
2.39509 -9.60618 1.2156 0.00301319 10
2.40106 -9.63011 1.57195 0.00295747 10
2.3963 -9.61104 1.92539 0.00288896 10
2.42964 -9.60185 -2.6539 0.00349821 10
2.43138 -9.60874 -2.28827 0.00361613 10
2.42766 -9.59402 -1.92367 0.00371958 10
2.42808 -9.59569 -1.56771 0.0038075 10
2.43288 -9.61467 -1.21774 0.00387894 10
2.42828 -9.59648 -0.866045 0.00393317 10
2.43113 -9.60772 -0.519389 0.0039696 10
2.43049 -9.60519 -0.172943 0.00398784 10
2.43304 -9.61529 0.173125 0.0039877 10
2.42792 -9.59506 0.518705 0.00396918 10
2.42721 -9.59224 0.865662 0.00393248 10
2.43044 -9.60502 1.21652 0.00302372 10
2.42923 -9.60023 1.56845 0.00296781 10
2.43236 -9.61261 1.92739 0.00289907 10
2.46202 -9.58895 -2.65269 0.00351033 10
2.46269 -9.59155 -2.28621 0.00362862 10
2.46371 -9.59551 -1.92568 0.00373242 10
2.47791 -9.65082 -1.57812 0.000966585 10
2.4807 -9.66168 -1.22478 0.000984072 10
2.48047 -9.66081 -0.872627 0.000997168 10
2.48175 -9.66578 -0.522993 0.00100574 10
2.4781 -9.65156 -0.173933 0.00100969 10
2.47888 -9.65462 0.173988 0.00100897 10
2.48365 -9.67318 0.523393 0.00100361 10
2.48052 -9.66099 0.872643 0.000993642 10
2.45778 -9.57241 1.21347 0.00303413 10
2.45964 -9.57965 1.56648 0.00297804 10
2.46002 -9.58113 1.92279 0.00290908 10
2.49471 -9.57736 -2.65188 0.0035223 10
2.49222 -9.5678 -2.28261 0.00364098 10
2.48917 -9.55606 -1.91949 0.00374511 10
2.54238 -9.76037 -1.59747 0.000917668 10
2.54852 -9.78392 -1.2414 0.000934308 10
2.54836 -9.78332 -0.884491 0.000946769 10
2.55019 -9.79033 -0.53021 0.000954919 10
2.54588 -9.7738 -0.176295 0.00095867 10
2.55041 -9.79116 0.176608 0.000957982 10
2.54496 -9.77026 0.529123 0.000952862 10
2.5466 -9.77654 0.883877 0.000943366 10
2.49115 -9.56368 1.21346 0.00304442 10
2.49098 -9.56304 1.56518 0.00298815 10
2.49369 -9.57343 1.92298 0.00291897 10
2.51984 -9.53723 -2.64319 0.00353414 10
2.52659 -9.56276 -2.28349 0.0036532 10
2.5253 -9.55789 -1.92162 0.00375765 10
2.61939 -9.91401 -1.62411 0.000870423 10
2.6157 -9.90002 -1.25728 0.000886245 10
2.62043 -9.91795 -0.897484 0.000898091 10
2.62102 -9.92018 -0.537735 0.000905836 10
2.61445 -9.89531 -0.17865 0.000909395 10
2.61901 -9.91255 0.178961 0.000908732 10
2.62166 -9.92259 0.537865 0.000903851 10
2.61766 -9.90745 0.896533 0.000894808 10
2.52378 -9.55213 1.2131 0.0030546 10
2.52349 -9.55102 1.56464 0.00299815 10
2.52168 -9.5442 1.91886 0.00292875 10
2.55243 -9.52581 -2.64247 0.00354585 10
2.55273 -9.52694 -2.27706 0.00366527 10
2.55182 -9.52352 -1.91649 0.00377006 10
2.68577 -10.0234 -1.64356 0.000824826 10
2.68827 -10.0328 -1.27533 0.000839856 10
2.68783 -10.0311 -0.908569 0.000851108 10
2.69307 -10.0507 -0.545315 0.00085846 10
2.68811 -10.0322 -0.181289 0.000861836 10
2.69206 -10.0469 0.181556 0.000861196 10
2.68915 -10.0361 0.544522 0.000856548 10
2.69097 -10.0429 0.909631 0.000847943 10
2.55331 -9.5291 1.2113 0.00306466 10
2.55238 -9.52562 1.56193 0.00300804 10
2.55544 -9.53705 1.91921 0.00293842 10
2.58176 -9.50244 -2.63848 0.00355741 10
2.5864 -9.51954 -2.27743 0.00367721 10
2.58673 -9.52074 -1.91773 0.00378231 10
2.96276 -10.9048 -1.78976 0.000638553 10
2.99714 -11.0313 -1.40358 0.0017074 10
3.00036 -11.0432 -1.00118 0.00173205 10
3.00191 -11.0489 -0.600037 0.00174861 10
3.00099 -11.0455 -0.199789 0.0017569 10
3.00141 -11.047 0.199817 0.00175684 10
2.99924 -11.039 0.599504 0.00174842 10
2.99552 -11.0254 0.999562 0.00173174 10
2.58226 -9.50429 1.20929 0.0030746 10
2.58335 -9.50829 1.56056 0.0030178 10
2.58863 -9.52773 1.91914 0.00294797 10
2.61695 -9.50077 -2.64053 0.00356884 10
2.61846 -9.50625 -2.27643 0.00368899 10
2.61349 -9.48823 -1.91301 0.00379441 10
3.04069 -11.0392 -1.81355 0.000603355 10
3.04018 -11.0373 -1.40568 0.000405951 10
3.04173 -11.0429 -1.00211 0.000411504 10
3.04824 -11.0666 -0.601574 0.00041513 10
3.04645 -11.0601 -0.200244 0.000416789 10
3.04819 -11.0664 0.200358 0.000416463 10
3.04973 -11.072 0.601867 0.000414157 10
3.04927 -11.0703 1.00459 0.000409894 10
2.61501 -9.49373 1.2091 0.00308442 10
2.61844 -9.50619 1.5617 0.00302745 10
2.61819 -9.50528 1.91645 0.00295741 10
2.65026 -9.49217 -2.6407 0.00358012 10
2.6448 -9.47262 -2.27057 0.00370063 10
2.64563 -9.47559 -1.91231 0.00380637 10
3.12455 -11.1909 -1.84025 0.00056948 10
3.14493 -11.2639 -1.43593 0.00160199 10
3.14762 -11.2735 -1.02403 0.00162524 10
3.14477 -11.2633 -0.612861 0.00164086 10
3.14209 -11.2537 -0.203947 0.00164868 10
3.14692 -11.271 0.20426 0.00164862 10
3.14414 -11.261 0.612738 0.00164068 10
3.14746 -11.273 1.02398 0.00162494 10
2.64846 -9.48571 1.20924 0.00309411 10
2.64633 -9.47809 1.5586 0.00303698 10
2.64903 -9.48777 1.91477 0.00296673 10
2.67719 -9.46099 -2.6346 0.00359126 10
2.67505 -9.45343 -2.26819 0.00371213 10
2.67559 -9.45534 -1.9101 0.00381817 10
3.21384 -11.3575 -1.86948 0.000536907 10
3.25551 -11.5047 -1.46807 0.00149981 10
3.25971 -11.5196 -1.0474 0.00152169 10
3.25436 -11.5007 -0.626391 0.0015364 10
3.25792 -11.5132 -0.208855 0.00154377 10
3.25562 -11.5051 0.208708 0.00154371 10
3.2545 -11.5012 0.626419 0.00153623 10
3.26004 -11.5208 1.04751 0.00152142 10
2.67799 -9.46383 1.20764 0.00310369 10
2.67621 -9.45753 1.55674 0.00304638 10
2.67446 -9.45134 1.90929 0.00297593 10
2.71045 -9.45248 -2.63485 0.00360226 10
2.71247 -9.45951 -2.27191 0.00372347 10
2.70983 -9.4503 -1.91098 0.00382983 10
3.30512 -11.5263 -1.89916 0.00050561 10
3.3066 -11.5315 -1.47295 0.000340242 10
3.30618 -11.53 -1.0494 0.000344933 10
3.30966 -11.5421 -0.629275 0.000347992 10
3.30666 -11.5317 -0.209398 0.000349386 10
3.30848 -11.538 0.209513 0.000349097 10
3.3084 -11.5378 0.629036 0.00034713 10
3.29417 -11.4881 1.04559 0.000209908 10
2.70616 -9.43749 1.20548 0.00311314 10
2.71136 -9.45565 1.55798 0.00305567 10
2.70867 -9.44627 1.91017 0.00298501 10
2.73992 -9.43087 -2.63148 0.00361311 10
2.73576 -9.41656 -2.26387 0.00373467 10
2.7421 -9.43836 -1.91049 0.00384133 10
3.39521 -11.6864 -1.92748 0.000475566 10
3.4085 -11.7321 -1.50009 0.00141006 10
3.40487 -11.7197 -1.06773 0.00143074 10
3.40599 -11.7235 -0.639808 0.00144464 10
3.41006 -11.7375 -0.21335 0.0014516 10
3.41095 -11.7406 0.213406 0.00145155 10
3.40891 -11.7335 0.640355 0.00144448 10
3.3355 -11.4809 1.04598 0.000209867 10
2.73847 -9.42588 1.20521 0.00312246 10
2.74019 -9.43179 1.55562 0.00306483 10
2.73824 -9.42509 1.9078 0.00299398 10
2.7687 -9.40725 -2.62757 0.00362382 10
2.77239 -9.41979 -2.26696 0.00374572 10
2.77092 -9.41477 -1.90766 0.00385267 10
3.48696 -11.8477 -1.95607 0.000446751 10
3.37595 -11.4705 1.0461 0.000209827 10
2.77054 -9.41349 1.20485 0.00313166 10
2.76936 -9.40949 1.55352 0.00307387 10
2.77239 -9.41978 1.90868 0.00300282 10
2.791 -9.48301 2.28218 0.00182728 10
2.79357 -9.49174 2.65117 0.00176759 10
2.80363 -9.4046 -2.62955 0.00363438 10
2.8025 -9.40081 -2.26474 0.00375661 10
2.80164 -9.3979 -1.90621 0.00386386 10
3.5854 -12.027 -1.98773 0.000419137 10
3.42243 -11.4803 1.04808 0.000209786 10
2.79803 -9.38581 1.20255 0.00314074 10
2.80104 -9.39589 1.55288 0.00308279 10
2.80484 -9.40866 1.9084 0.00301154 10
2.83403 -9.38677 -2.62731 0.00364479 10
2.82887 -9.36966 -2.2596 0.00376736 10
2.83113 -9.37716 -1.904 0.00387489 10
3.68933 -12.2196 -2.02169 0.000392701 10
3.89674 -12.9066 -1.65539 0.000199045 10
3.45989 -11.4597 1.04729 0.000209744 10
2.83471 -9.389 1.20422 0.00314969 10
2.83431 -9.38768 1.55315 0.00309158 10
2.829 -9.37009 1.90256 0.00302014 10
2.85972 -9.35372 -2.62084 0.00365505 10
2.86392 -9.36746 -2.26146 0.00377795 10
2.86605 -9.37443 -1.90546 0.00388577 10
3.79339 -12.4076 -2.05497 0.000367418 10
3.94079 -12.8897 -1.65498 0.000199074 10
3.50111 -11.4516 1.04766 0.000209703 10
2.86211 -9.36153 1.20197 0.00315851 10
2.8602 -9.3553 1.54944 0.00310025 10
2.86629 -9.37522 1.90562 0.00302862 10
2.88998 -9.33603 -2.61869 0.00366516 10
2.89257 -9.34438 -2.25832 0.00378838 10
2.89608 -9.35573 -1.90371 0.00389648 10
3.9065 -12.6199 -2.09237 0.000343263 10
3.98296 -12.8669 -1.65381 0.000199103 10
8.66568 -27.9943 -2.56384 3.37878e-05 4
3.53965 -11.4348 1.04725 0.000209662 10
2.89463 -9.35103 1.20191 0.0031672 10
2.89322 -9.34649 1.54964 0.00310879 10
2.89207 -9.34277 1.90107 0.00303697 10
2.92639 -9.33814 -2.62213 0.00367513 10
2.92352 -9.32898 -2.25705 0.00379866 10
2.92292 -9.32705 -1.89993 0.00390704 10
4.01904 -12.8248 -2.12865 0.000320209 10
4.03039 -12.861 -1.65486 0.000199132 10
8.9109 -28.4347 -2.60701 2.99902e-05 4
3.58052 -11.4255 1.04753 0.000209621 10
2.92444 -9.3319 1.20076 0.00317576 10
2.92215 -9.32461 1.54769 0.0031172 10
2.92438 -9.3317 1.90088 0.0030452 10
2.95152 -9.30436 -2.61553 0.00368493 10
2.95663 -9.32047 -2.25747 0.00380878 10
2.95799 -9.32476 -1.90156 0.00391743 10
4.13273 -13.028 -2.16477 0.000298231 10
4.13359 -13.0307 -1.67854 0.000303986 10
4.39845 -13.8657 -1.27266 0.00127681 10
4.39851 -13.8659 -0.762365 0.0012898 10
4.39567 -13.8569 -0.253751 0.00129631 10
4.40036 -13.8717 0.254022 0.00129626 10
4.39683 -13.8606 0.762073 0.00128965 10
3.61899 -11.4085 1.04713 0.00020958 10
2.95432 -9.3132 1.19967 0.00318419 10
2.95735 -9.32275 1.54909 0.00312548 10
2.95046 -9.30102 1.89672 0.0030533 10
2.98054 -9.28329 -2.61251 0.00369459 10
2.98466 -9.29612 -2.25408 0.00381874 10
2.98093 -9.28451 -1.89546 0.00392766 10
4.25251 -13.245 -2.20328 0.000277303 10
4.25369 -13.2487 -1.70852 0.000282676 10
4.44621 -13.8483 -1.27249 0.00128047 10
4.43821 -13.8234 -0.760878 0.00129349 10
4.439 -13.8259 -0.253465 0.00130002 10
4.43927 -13.8267 0.25348 0.00129997 10
4.44343 -13.8397 0.761773 0.00129335 10
3.65481 -11.3834 1.04599 0.000209538 10
2.98501 -9.29722 1.19895 0.00319248 10
2.98734 -9.30446 1.54777 0.00313363 10
2.9817 -9.28692 1.89595 0.00306127 10
3.01233 -9.27101 -2.612 0.00370409 10
3.01117 -9.26743 -2.24966 0.00382854 10
3.01353 -9.2747 -1.8956 0.00393772 10
4.37883 -13.4766 -2.24434 0.000257401 10
4.37469 -13.4639 -1.73824 0.000262408 10
4.48724 -13.8103 -1.27042 0.00128407 10
4.48741 -13.8108 -0.761044 0.00129713 10
4.48708 -13.8098 -0.253457 0.00130367 10
4.49168 -13.824 0.253716 0.00130362 10
4.48742 -13.8109 0.761046 0.00129698 10
3.70259 -11.3954 1.04828 0.000209497 10
3.01172 -9.26913 1.19668 0.00320065 10
3.01535 -9.28029 1.5455 0.00314165 10
3.01086 -9.26649 1.89392 0.00306912 10
3.0443 -9.25929 -2.61168 0.00371344 10
3.04819 -9.27112 -2.25313 0.00383818 10
3.04369 -9.25744 -1.89423 0.00394763 10
4.50196 -13.6928 -2.28294 0.000238497 10
4.50287 -13.6956 -1.77016 0.000243156 10
4.53125 -13.7819 -1.26926 0.00128762 10
4.53294 -13.787 -0.760599 0.00130071 10
4.53704 -13.7995 -0.253556 0.00130727 10
4.53369 -13.7893 0.253368 0.00130722 10
4.52986 -13.7777 0.760082 0.00130056 10
3.74308 -11.3847 1.04848 0.000209456 10
3.04422 -9.25905 1.19674 0.00320868 10
3.04232 -9.25328 1.54276 0.00314955 10
3.04385 -9.25791 1.89433 0.00307684 10
3.07548 -9.24523 -2.61072 0.00372263 10
3.07791 -9.25255 -2.25121 0.00384766 10
3.07956 -9.2575 -1.89643 0.00395736 10
4.57697 -13.7589 -2.29661 0.00124591 10
4.58075 -13.7703 -1.78187 0.00127159 10
4.57813 -13.7624 -1.26892 0.0012911 10
4.58109 -13.7713 -0.760607 0.00130423 10
4.57916 -13.7655 -0.253223 0.0013108 10
4.579 -13.765 0.253214 0.00131075 10
4.57443 -13.7513 0.759502 0.00130408 10
3.77599 -11.3511 1.04659 0.000209414 10
3.07453 -9.24239 1.19597 0.00321657 10
3.0789 -9.25552 1.54491 0.0031573 10
3.07452 -9.24235 1.89332 0.00308443 10
3.10778 -9.23457 -2.61076 0.00373166 10
3.10939 -9.23938 -2.25063 0.00385699 10
3.1039 -9.22306 -1.89158 0.00396693 10
4.62071 -13.7302 -2.29449 0.00124922 10
4.62303 -13.7371 -1.77965 0.00127497 10
4.62719 -13.7494 -1.26921 0.00129453 10
4.62568 -13.7449 -0.76004 0.00130768 10
4.61833 -13.7231 -0.252739 0.00131428 10
4.61947 -13.7265 0.252801 0.00131423 10
4.62305 -13.7371 0.759607 0.00130754 10
3.81403 -11.3332 1.04616 0.000209373 10
3.10273 -9.21959 1.19441 0.00322434 10
3.10671 -9.23141 1.54269 0.00316493 10
3.10176 -9.2167 1.89028 0.00309189 10
3.14018 -9.22423 -2.61092 0.00374053 10
3.13235 -9.20123 -2.24399 0.00386614 10
3.13965 -9.22265 -1.89373 0.00397634 10
4.6662 -13.7069 -2.29331 0.00125248 10
4.66575 -13.7056 -1.77767 0.00127829 10
4.66487 -13.703 -1.26642 0.0012979 10
4.66363 -13.6993 -0.758414 0.00131108 10
4.66862 -13.714 -0.252869 0.00131769 10
4.67122 -13.7216 0.25301 0.00131764 10
4.67094 -13.7208 0.759602 0.00131094 10
3.85526 -11.3248 1.04663 0.000209331 10
3.13741 -9.21609 1.19537 0.00323196 10
3.1318 -9.19962 1.53919 0.00317242 10
3.14094 -9.22645 1.89451 0.00309922 10
3.16525 -9.19255 -2.60506 0.00374925 10
3.16991 -9.20609 -2.24786 0.00387513 10
3.16718 -9.19816 -1.89096 0.00398557 10
4.73115 -13.7403 -2.30164 0.000215719 10
4.73197 -13.7426 -1.78461 0.000219923 10
4.73661 -13.7561 -1.27285 0.000223054 10
4.73452 -13.7501 -0.762132 0.000225075 10
4.73166 -13.7417 -0.253684 0.000225964 10
4.74052 -13.7675 0.254159 0.000225709 10
4.73407 -13.7487 0.762059 0.000224313 10
3.90127 -11.3301 1.04837 0.00020929 10
3.16778 -9.19991 1.1947 0.00323945 10
3.16236 -9.18417 1.53845 0.00317978 10
3.16506 -9.19199 1.8897 0.00310641 10
3.18556 -9.25154 2.25896 0.00189051 10
3.18506 -9.25009 2.62137 0.00182888 10
3.1932 -9.16962 -2.60171 0.0037578 10
3.19449 -9.17333 -2.24257 0.00388396 10
3.19411 -9.17225 -1.88792 0.00399463 10
4.87767 -14.0068 -2.34912 0.00019816 10
4.87265 -13.9924 -1.81924 0.000202039 10
4.87587 -14.0016 -1.29713 0.000204927 10
4.88235 -14.0202 -0.778046 0.00020679 10
4.88537 -14.0289 -0.259298 0.000207606 10
4.88503 -14.0279 0.25928 0.000207366 10
4.88265 -14.0211 0.778093 0.000206071 10
3.93272 -11.2932 1.04622 0.000209248 10
3.19536 -9.17584 1.19301 0.0032468 10
3.19595 -9.17751 1.53919 0.003187 10
3.20073 -9.19126 1.89183 0.00311348 10
3.07926 -8.84244 2.16168 0.00336691 10
3.07548 -8.83158 2.5058 0.00325817 10
3.22828 -9.16721 -2.60421 0.0037662 10
3.22737 -9.16462 -2.24318 0.00389262 10
3.22537 -9.15893 -1.88748 0.00400353 10
5.35247 -15.1992 -2.55222 0.00014189 10
5.39466 -15.319 -1.99416 0.000147483 10
5.39277 -15.3136 -1.42041 9.8844e-05 10
5.39579 -15.3222 -0.851338 9.97642e-05 10
5.39514 -15.3203 -0.283515 0.000100166 10
5.39513 -15.3203 0.283514 0.000100044 10
5.39703 -15.3257 0.851534 9.94008e-05 10
3.97798 -11.2961 1.04777 0.000209206 10
3.23064 -9.1739 1.19422 0.00325401 10
3.22392 -9.15481 1.53726 0.00319409 10
3.2291 -9.16952 1.88966 0.00312041 10
3.10823 -8.82629 2.16037 0.00337436 10
3.10384 -8.81382 2.50382 0.00326539 10
3.26129 -9.15876 -2.60502 0.00377443 10
3.25574 -9.1432 -2.24071 0.00390111 10
3.26137 -9.159 -1.88983 0.00401225 10
5.41139 -15.1969 -2.555 0.000141907 10
5.55911 -15.6118 -2.03479 0.000134594 10
5.60965 -15.7537 -1.46305 0.000538337 10
5.61033 -15.7556 -0.876505 0.000544043 10
5.60849 -15.7505 -0.291836 0.000546904 10
5.61266 -15.7622 0.292052 0.000546883 10
5.6089 -15.7516 0.876282 0.00054398 10
4.01892 -11.2864 1.04817 0.000209164 10
3.253 -9.13549 1.19069 0.00326109 10
3.25368 -9.13739 1.53623 0.00320104 10
3.26003 -9.15522 1.88905 0.00312721 10
3.13257 -8.79728 2.15593 0.00338167 10
3.13934 -8.81628 2.50761 0.00327247 10
3.28763 -9.13175 -2.60059 0.0037825 10
3.28231 -9.11697 -2.23707 0.00390944 10
3.29091 -9.14086 -1.88845 0.0040208 10
5.46565 -15.1814 -2.55559 0.000141924 10
5.74096 -15.9461 -2.08097 0.000122506 10
5.75522 -15.9858 -1.48645 0.000511135 10
5.76024 -15.9997 -0.891195 0.000516579 10
5.76011 -15.9993 -0.296817 0.000519308 10
5.75782 -15.993 0.296699 0.000519288 10
5.75344 -15.9808 0.890143 0.000516519 10
4.05917 -11.2748 1.0484 0.000209123 10
3.28212 -9.11643 1.18969 0.00326802 10
3.29027 -9.13907 1.53844 0.00320785 10
3.2905 -9.13973 1.88821 0.00313387 10
3.16618 -8.79441 2.15792 0.000536677 10
3.17107 -8.80798 2.50838 0.000518748 10
3.31317 -9.10287 -2.59564 0.00379041 10
3.32071 -9.12357 -2.24152 0.00391759 10
3.32088 -9.12406 -1.88736 0.00402917 10
