VERSION 0.7
FIELDS x y z intensity label
SIZE 4 4 4 4 4
TYPE F F F F F
COUNT 1 1 1 1 1
WIDTH 1166
HEIGHT 1
VIEWPOINT 18.909 52.4843 2.72737 0.968561 0.000357081 0.000685782 -0.248776
POINTS 1166
DATA ascii
14.6813 -6.2924 2.52986 0.000571156 10
14.6835 -6.29337 3.1053 0.00055638 10
14.6764 -6.29033 3.68642 0.00053902 10
14.6739 -6.28923 4.27777 0.000519281 10
8.67232 -3.68118 -2.52442 0.000377962 4
10.8003 -4.58445 -2.70877 0.000227439 1
12.815 -5.43964 -2.7061 0.000117514 1
14.7292 -6.25217 -2.53434 0.000722686 10
14.7355 -6.25486 -1.96555 0.000738198 10
19.1261 -8.11856 -1.81783 0.000239659 10
28.5311 -12.1108 -1.62438 4.81987e-05 10
28.5259 -12.1085 -0.540922 3.20609e-05 10
28.5177 -12.1051 0.540767 3.20723e-05 10
14.7404 -6.25695 1.40099 0.00058539 10
14.7406 -6.25701 1.96622 0.000576379 10
14.7446 -6.25873 2.537 0.000564495 10
14.7275 -6.25144 3.10995 0.000549879 10
14.7303 -6.25266 3.69446 0.000532708 10
14.7223 -6.24925 4.28551 0.000513186 10
8.66788 -3.64364 -2.51941 0.000383782 4
10.8263 -4.55097 -2.71131 0.000227442 1
12.8351 -5.39536 -2.70635 0.000117517 1
14.8115 -6.22619 -2.54475 0.000714185 10
14.8019 -6.22215 -1.97149 0.000729528 10
19.0701 -8.01632 -1.80983 0.000244646 10
28.4339 -11.9525 -1.61646 4.93779e-05 10
28.5611 -12.006 -0.540791 4.06979e-05 10
28.5479 -12.0004 0.540541 4.07082e-05 10
14.7935 -6.21861 1.40396 0.000578524 10
14.8089 -6.2251 1.97243 0.000569612 10
14.7848 -6.21498 2.54017 0.000557858 10
14.7911 -6.21761 3.11879 0.000543403 10
14.8037 -6.22291 3.70739 0.000526421 10
14.7875 -6.21609 4.29814 0.000507113 10
8.70004 -3.62148 -2.52507 0.000377971 4
10.8325 -4.50913 -2.70889 0.000227446 1
12.8556 -5.35127 -2.70672 0.000117519 1
14.8655 -6.1879 -2.5503 0.000705717 10
14.8648 -6.18762 -1.97698 0.000720892 10
19.0042 -7.91068 -1.80094 0.000249691 10
28.3741 -11.811 -1.61071 5.05747e-05 10
28.3565 -11.8037 -0.536134 4.21343e-05 10
28.3681 -11.8085 0.536354 4.21448e-05 10
14.8737 -6.19131 1.40951 0.000571685 10
14.8555 -6.18374 1.97574 0.000562872 10
14.8389 -6.17684 2.54574 0.000443141 10
14.8285 -6.17251 3.12211 0.000431692 10
14.8345 -6.17501 3.70968 0.000418233 10
14.8559 -6.1839 4.31171 0.000501064 10
8.70566 -3.58821 -2.52305 0.000357623 4
10.8537 -4.47357 -2.71027 0.000227449 1
12.8659 -5.30296 -2.70499 0.000117521 1
14.9323 -6.15464 -2.55806 0.000697283 10
14.9402 -6.15789 -1.98413 0.000712289 10
18.9572 -7.81361 -1.7939 0.000254796 10
28.2815 -11.6568 -1.60313 5.17893e-05 10
28.4892 -11.7424 -0.537866 4.14972e-05 10
28.4907 -11.743 0.537892 4.15076e-05 10
14.9322 -6.15462 1.41302 0.000564873 10
14.9126 -6.14655 1.98048 0.000556158 10
14.7804 -6.09204 2.53204 0.000451506 10
14.7974 -6.09906 3.11107 0.000439856 10
14.7864 -6.09452 3.69231 0.00042616 10
14.9266 -6.15228 4.32597 0.00049504 10
8.71428 -3.55623 -2.52193 0.000433224 4
10.8634 -4.43329 -2.70883 0.000227453 1
12.8834 -5.25761 -2.70478 0.000117523 1
14.99 -6.1173 -2.56427 0.000688883 10
14.9886 -6.11672 -1.98771 0.000703722 10
18.8924 -7.70986 -1.78521 0.000259959 10
28.281 -11.5412 -0.53317 4.29715e-05 10
28.2826 -11.5419 0.533201 4.29823e-05 10
14.9959 -6.11973 1.41702 0.000558089 10
14.9931 -6.11858 1.98832 0.000549471 10
14.7287 -6.01066 2.51957 0.000459958 10
14.7331 -6.01247 3.09311 0.000448104 10
14.7354 -6.01339 3.6743 0.000434168 10
14.9718 -6.10989 4.33288 0.00048904 10
8.74142 -3.53177 -2.52621 0.000366355 4
10.8706 -4.39202 -2.70678 0.000227456 1
12.8924 -5.20886 -2.70283 0.000117525 1
15.0557 -6.0829 -2.57186 0.000680519 10
15.0506 -6.08086 -1.99312 0.00069519 10
18.8474 -7.61483 -1.77843 0.000265181 10
28.1072 -11.3561 -1.58872 3.58478e-05 10
28.1267 -11.3639 -0.529511 3.60978e-05 10
28.1159 -11.3596 0.529306 3.61102e-05 10
28.1013 -11.3537 1.58839 4.23601e-05 10
15.0509 -6.08097 1.4202 0.000551333 10
15.0508 -6.08091 1.99314 0.000542812 10
14.705 -5.94122 2.51196 0.000468493 10
14.6865 -5.93374 3.07897 0.000456434 10
14.6988 -5.9387 3.65999 0.000442257 10
15.061 -6.08505 4.35252 0.000483066 10
8.7487 -3.49923 -2.52476 0.000444864 4
10.8821 -4.35253 -2.70584 0.000227459 1
12.9123 -5.16455 -2.70322 0.000117527 1
15.1345 -6.05337 -2.5817 0.000672189 10
15.1105 -6.04378 -1.99824 0.000686694 10
18.7986 -7.5189 -1.77134 0.000270462 10
28.1939 -11.2768 -1.59139 4.35282e-05 10
28.2037 -11.2807 -0.530215 4.38278e-05 10
28.1876 -11.2742 0.529912 4.38389e-05 10
28.0386 -11.2146 1.58262 4.33495e-05 10
15.1136 -6.045 1.42411 0.000544605 10
15.1202 -6.04763 1.99952 0.000536181 10
14.6754 -5.86976 2.50339 0.000577742 10
14.6884 -5.87494 3.07504 0.000562839 10
14.6684 -5.86694 3.6473 0.000545329 10
15.1145 -6.04538 4.36186 0.000477117 10
8.75408 -3.46598 -2.52281 0.00030821 4
10.9103 -4.31969 -2.70908 0.000227462 1
12.9331 -5.12059 -2.70382 0.000117529 1
15.1796 -6.01002 -2.58579 0.000663896 10
15.1945 -6.01593 -2.00656 0.000678236 10
18.7414 -7.42024 -1.7635 0.000275801 10
27.9887 -11.0815 -1.57761 4.50997e-05 10
27.9853 -11.0802 -0.52538 4.5409e-05 10
28.0038 -11.0875 0.525726 4.54205e-05 10
27.9558 -11.0685 1.57575 4.43529e-05 10
15.173 -6.0074 1.42772 0.000537906 10
15.1809 -6.01054 2.00476 0.000529579 10
14.7381 -5.83525 2.5106 0.00057068 10
14.7511 -5.84038 3.08389 0.000555947 10
14.7403 -5.83609 3.66009 0.000538637 10
15.1684 -6.00561 4.37134 0.000471195 10
8.76503 -3.43498 -2.5225 0.000386721 4
10.9347 -4.28526 -2.71141 0.000227465 1
12.9715 -5.08346 -2.7081 0.000117531 1
15.2585 -5.97972 -2.59566 0.00065564 10
15.2445 -5.97425 -2.01039 0.000669814 10
18.6811 -7.32105 -1.75541 0.000281199 10
27.8786 -10.9255 -1.56925 3.83958e-05 10
27.8795 -10.9259 -0.522675 3.86619e-05 10
27.8621 -10.9191 0.522348 3.86749e-05 10
27.8841 -10.9277 1.56956 4.53701e-05 10
15.2456 -5.97468 1.43258 0.000531237 10
15.2363 -5.97104 2.00931 0.000523007 10
15.2213 -5.96517 3.77434 0.000144427 10
15.2445 -5.97426 4.38723 0.0004653 10
8.78566 -3.40774 -2.52499 0.000296586 4
10.9465 -4.24586 -2.71064 0.000227468 1
12.9633 -5.02815 -2.70273 0.000117533 1
15.3235 -5.9436 -2.60318 0.000647422 10
15.3192 -5.94193 -2.0175 0.000661431 10
18.6254 -7.2243 -1.74779 0.000286654 10
27.9116 -10.8262 -1.56896 4.60135e-05 10
27.9056 -10.8239 -0.522452 4.63284e-05 10
27.905 -10.8237 0.522441 4.63401e-05 10
27.7985 -10.7823 1.56261 4.64014e-05 10
15.3053 -5.93652 1.43624 0.000524598 10
15.3077 -5.93748 2.01599 0.000516464 10
15.2517 -5.91573 3.77672 0.000144425 10
15.313 -5.93954 4.40096 0.000459432 10
8.77987 -3.37028 -2.51993 0.000366375 4
10.9639 -4.20867 -2.71131 0.000227471 1
12.9836 -4.98394 -2.70331 0.000117535 1
15.3962 -5.91004 -2.612 0.000639242 10
15.3939 -5.90918 -2.02461 0.000653087 10
18.566 -7.12683 -1.73988 0.000292169 10
27.7106 -10.6371 -1.55557 4.01536e-05 10
27.7138 -10.6384 -0.518163 4.04306e-05 10
27.7104 -10.637 0.518098 4.04441e-05 10
27.7079 -10.6361 1.55542 4.74465e-05 10
15.3743 -5.90166 1.44078 0.00051799 10
15.3694 -5.89976 2.02138 0.000509951 10
15.458 -5.93378 2.62249 0.000313147 10
15.4705 -5.93856 3.2211 0.000304959 10
15.2807 -5.86571 3.77881 0.000144423 10
15.3632 -5.89739 4.40944 0.000453592 10
8.81289 -3.3477 -2.52604 0.000235529 4
10.9699 -4.16707 -2.70917 0.000227474 1
13.0117 -4.94268 -2.70555 0.000117537 1
15.4409 -5.86544 -2.6161 0.000631101 10
15.4508 -5.86923 -2.02939 0.000644783 10
18.5368 -7.04148 -1.73483 0.000297741 10
27.8313 -10.5721 -1.56027 4.69495e-05 10
27.8257 -10.57 -0.519562 4.727e-05 10
27.8045 -10.562 0.519166 4.7282e-05 10
27.6502 -10.5033 1.55011 4.85057e-05 10
15.4426 -5.8661 1.44525 0.000511413 10
15.4499 -5.86886 2.02926 0.00050347 10
15.2986 -5.81138 3.77819 0.000144421 10
15.4355 -5.8634 4.42428 0.000447779 10
8.81654 -3.31392 -2.52375 0.000409999 4
10.9871 -4.12978 -2.70984 0.000227477 1
13.0193 -4.89362 -2.70356 0.000117539 1
15.5243 -5.8352 -2.62676 0.000623 10
15.5126 -5.8308 -2.03481 0.000636519 10
18.4647 -6.94043 -1.7258 0.00030337 10
18.4751 -6.94434 -1.03438 0.000202692 10
18.476 -6.94466 -0.344529 0.000203883 10
18.4745 -6.94411 0.344501 0.000203941 10
18.4629 -6.93974 1.03369 0.000202864 10
15.5136 -5.83118 1.44998 0.000504868 10
15.508 -5.82908 2.03421 0.00049702 10
15.3194 -5.75817 3.77835 0.000144419 10
15.5115 -5.83041 4.44022 0.000441996 10
8.81366 -3.27777 -2.51964 0.000351847 4
10.9911 -4.08757 -2.7073 0.000227479 1
13.0543 -4.85485 -2.70729 0.00011754 1
15.5895 -5.79767 -2.63435 0.000614939 10
15.5821 -5.79492 -2.04126 0.000628296 10
18.4302 -6.85413 -1.72033 0.000309058 10
18.4635 -6.8665 -1.03238 0.000236901 10
18.473 -6.87006 -0.344024 0.000238277 10
18.4789 -6.87223 0.344133 0.000238328 10
18.476 -6.87117 1.03308 0.000237056 10
15.5698 -5.79035 1.45333 0.000498356 10
15.5558 -5.78517 2.03783 7.88693e-05 10
15.3449 -5.70672 3.77971 0.000144417 10
15.5784 -5.79355 4.45353 0.000436243 10
8.82528 -3.24707 -2.51971 0.000386744 4
11.0156 -4.05295 -2.70982 0.000227482 1
13.0701 -4.80885 -2.70707 0.000117542 1
15.6552 -5.76001 -2.64205 0.000606919 10
15.6445 -5.75607 -2.0468 0.000620115 10
15.8082 -5.81627 -1.47368 0.00035025 10
15.8122 -5.81775 -0.882991 0.000354079 10
15.7953 -5.81153 -0.293777 0.000356053 10
15.7941 -5.81111 0.293755 0.000356147 10
15.8097 -5.81685 0.882855 0.000354362 10
15.636 -5.75292 1.45763 0.000491877 10
15.5899 -5.73599 2.03966 7.88674e-05 10
15.3604 -5.65152 3.77863 0.000144415 10
15.6382 -5.75374 4.46486 0.000430518 10
8.83552 -3.21587 -2.51941 0.000351853 4
11.0342 -4.01611 -2.71093 0.000227485 1
13.071 -4.75747 -2.70381 0.000117544 1
15.7218 -5.72226 -2.64989 0.00059894 10
15.7171 -5.72055 -2.05367 0.000611975 10
15.7599 -5.73612 -1.4673 0.000356393 10
15.7662 -5.73844 -0.879301 0.000360284 10
15.7517 -5.73316 -0.292593 0.000362289 10
15.7508 -5.73284 0.292576 0.000362385 10
15.7538 -5.73392 0.878609 0.00036057 10
15.7209 -5.72194 1.46367 0.00048543 10
15.6115 -5.68211 2.03986 7.88655e-05 10
15.3761 -5.59645 3.77768 0.000144414 10
15.6958 -5.7128 4.47558 0.000424824 10
8.86007 -3.18982 -2.52322 0.000366396 4
11.0298 -3.97098 -2.70644 0.000227487 1
13.1089 -4.71948 -2.70821 0.000117545 1
15.7763 -5.67982 -2.65573 0.000591004 10
15.7724 -5.67841 -2.05829 0.000603879 10
15.7738 -5.67891 -1.46674 0.000405371 10
15.7811 -5.68153 -0.879017 0.000409774 10
15.7904 -5.6849 -0.292941 0.000412032 10
15.7926 -5.68569 0.292982 0.000412118 10
15.7874 -5.68381 0.879369 0.00041003 10
15.7871 -5.68369 1.46797 0.000479018 10
15.6224 -5.62442 2.03872 7.88637e-05 10
15.8625 -5.71087 2.67024 0.000289492 10
15.8564 -5.70866 3.27584 0.000281881 10
15.3974 -5.54341 3.77813 0.000144412 10
15.7762 -5.67979 4.49284 0.000419159 10
8.85761 -3.15405 -2.51937 0.000308241 4
11.052 -3.93543 -2.70848 0.000227489 1
13.1037 -4.66602 -2.70377 0.000117547 1
15.8489 -5.64355 -2.66462 0.00058311 10
15.853 -5.64499 -2.06622 0.000595826 10
16.059 -5.71834 -1.49139 0.000340204 10
16.0442 -5.71309 -0.892559 0.000343936 10
16.066 -5.72083 -0.297681 0.000345859 10
16.0485 -5.71461 0.297357 0.000345951 10
16.0578 -5.71792 0.893314 0.000344208 10
15.8543 -5.64547 1.47239 0.000472639 10
15.6346 -5.56724 2.03776 7.8862e-05 10
15.8774 -5.6537 2.66941 0.000256447 10
15.8723 -5.65188 3.27503 0.000249719 10
15.4027 -5.48464 3.7747 0.00014441 10
15.8363 -5.63904 4.50431 0.000413526 10
8.88934 -3.13043 -2.52527 0.000351863 4
11.0737 -3.89967 -2.71046 0.000227492 1
13.1173 -4.61933 -2.70322 0.000117548 1
15.923 -5.60738 -2.67377 0.00057526 10
15.931 -5.61018 -2.07382 0.000587817 10
16.0009 -5.63482 -1.48417 0.000346068 10
16.0192 -5.64127 -0.890069 0.000349858 10
16.0009 -5.6348 -0.296109 0.000351812 10
16.0093 -5.63778 0.296265 0.000351904 10
16.0129 -5.63904 0.889718 0.000350134 10
15.92 -5.60634 1.47666 0.000466296 10
15.6495 -5.51105 2.03718 7.88603e-05 10
15.8809 -5.59254 2.66669 0.000404976 10
15.879 -5.59187 3.27235 0.000394355 10
15.4495 -5.44063 3.7815 0.000467086 10
15.9268 -5.60871 4.52445 0.000407925 10
8.88259 -3.09325 -2.52027 0.000357681 4
11.0942 -3.86341 -2.71216 0.000227494 1
13.1468 -4.57821 -2.706 0.00011755 1
15.9909 -5.56861 -2.68188 0.000567453 10
15.9796 -5.56467 -2.07761 0.000579853 10
15.9911 -5.56868 -1.48144 0.000389262 10
15.9834 -5.56601 -0.886992 0.000393502 10
15.9789 -5.56444 -0.295341 0.000395678 10
15.9859 -5.5669 0.295471 0.000395761 10
15.9847 -5.56647 0.887065 0.000393752 10
16.0013 -5.57225 1.48239 0.000459988 10
15.6699 -5.45685 2.03735 7.88587e-05 10
15.8468 -5.51844 2.65772 0.000411895 10
15.8442 -5.51755 3.26121 0.000401106 10
15.5147 -5.40279 3.79282 0.000460782 10
15.9945 -5.56986 4.53813 0.000402354 10
8.91432 -3.06945 -2.52622 0.00037804 4
11.1061 -3.82413 -2.71179 0.000227496 1
13.1523 -4.52869 -2.70385 0.000117551 1
16.0549 -5.52816 -2.68937 0.000559691 10
16.0712 -5.53377 -2.087 0.000571934 10
18.0954 -6.23076 -1.67437 0.000350466 10
18.0837 -6.22671 -1.00233 0.000234128 10
18.0794 -6.22522 -0.33376 0.000235486 10
18.087 -6.22786 0.333901 0.00023555 10
18.0883 -6.22829 1.00259 0.000234318 10
16.0508 -5.52675 1.48518 0.000453715 10
15.6913 -5.40296 2.03767 7.88571e-05 10
15.7828 -5.43446 2.64379 0.000418875 10
15.7869 -5.43585 3.24547 0.000407915 10
15.599 -5.37117 3.80883 0.000454514 10
16.0594 -5.5297 4.55106 0.000396817 10
8.90883 -3.03281 -2.52165 0.000474008 4
11.1147 -3.78375 -2.71064 0.000227498 1
13.1648 -4.48168 -2.70321 0.000117552 1
16.1206 -5.48791 -2.69715 0.000551974 10
16.131 -5.49143 -2.09226 0.000564061 10
16.2722 -5.5395 -1.50386 0.000336255 10
16.2679 -5.53805 -0.900614 0.000339951 10
16.2556 -5.53384 -0.299733 0.000341856 10
16.2753 -5.54056 0.300096 0.000341945 10
16.2468 -5.53085 0.899443 0.000340217 10
16.1364 -5.4933 1.49132 0.000447479 10
15.7013 -5.34514 2.03652 7.88555e-05 10
15.7388 -5.35792 2.63326 0.000425914 10
15.7625 -5.36598 3.23659 0.000414783 10
15.6528 -5.32866 3.8174 0.000448281 10
16.1343 -5.49257 4.56682 0.000391311 10
8.93713 -3.00768 -2.52667 0.000418758 4
11.1341 -3.74704 -2.71217 0.0002275 1
13.1783 -4.43497 -2.70276 0.000117554 1
16.1589 -5.43809 -2.70037 5.09438e-05 1
16.1914 -5.44901 -2.09762 0.000556234 10
16.2276 -5.4612 -1.49797 0.000341902 10
16.211 -5.4556 -0.896402 0.000345656 10
16.208 -5.45461 -0.298504 0.00034759 10
16.2276 -5.46121 0.298864 0.00034768 10
16.214 -5.45662 0.89657 0.000345925 10
16.2002 -5.45196 1.49544 0.000441279 10
15.7345 -5.29525 2.03842 0.000478728 10
15.743 -5.29811 2.63086 0.000468755 10
15.7271 -5.29276 3.22551 0.000456492 10
15.73 -5.29372 3.83168 0.000442086 10
16.2051 -5.45362 4.58144 0.000385839 10
8.93393 -2.97192 -2.52282 0.000366416 4
11.1252 -3.70088 -2.70685 0.000227502 1
13.2168 -4.39664 -2.7075 0.000117555 1
16.1751 -5.38075 -2.69992 5.09445e-05 1
16.2814 -5.41611 -2.10682 0.000548454 10
16.2876 -5.41817 -1.50176 0.000368208 10
16.2812 -5.41605 -0.899236 0.000372237 10
16.2748 -5.41389 -0.299383 0.000374304 10
16.2854 -5.41744 0.299578 0.000374384 10
16.2665 -5.41116 0.898424 0.000372477 10
16.2765 -5.41448 1.50073 0.000435117 10
15.8171 -5.26164 2.04673 0.000472095 10
15.8098 -5.25923 2.63894 0.000462251 10
15.8017 -5.25653 3.23703 0.000450146 10
15.7992 -5.2557 3.84406 0.000435927 10
16.2784 -5.41509 4.59678 0.0003804 10
8.95674 -2.94483 -2.52634 0.000372235 4
11.1465 -3.66479 -2.7089 0.000227504 1
13.2223 -4.34726 -2.7055 0.000117556 1
16.1901 -5.32304 -2.6993 5.09452e-05 1
16.3411 -5.37269 -2.1121 0.000540722 10
16.5086 -5.42776 -1.52038 0.000326911 10
16.5142 -5.42959 -0.91105 0.000330517 10
16.503 -5.4259 -0.30323 0.000332375 10
16.5012 -5.42533 0.303198 0.000332461 10
16.5082 -5.42761 0.910717 0.000330774 10
16.3368 -5.37127 1.50455 0.000428992 10
16.3489 -5.37526 2.11311 0.000422249 10
16.3514 -5.37609 2.7262 0.000413356 10
16.3349 -5.37064 3.34239 0.000402423 10
16.3355 -5.37084 3.96996 0.000389584 10
16.3418 -5.3729 4.60936 0.000374995 10
8.94401 -2.90609 -2.51987 0.000386778 4
11.1479 -3.62217 -2.70614 0.000227506 1
13.2343 -4.30008 -2.70487 0.000117557 1
16.2282 -5.27287 -2.70257 5.09459e-05 1
16.4322 -5.33914 -2.12145 0.000533038 10
16.4773 -5.3538 -1.51576 0.000332307 10
16.47 -5.35142 -0.907575 0.000335968 10
16.4601 -5.34822 -0.302099 0.000337854 10
16.4568 -5.34715 0.302038 0.000337941 10
16.4679 -5.35076 0.907463 0.000336228 10
16.4081 -5.33133 1.5094 0.000422905 10
16.4256 -5.33702 2.12061 0.000416251 10
16.418 -5.33453 2.73417 0.000407476 10
16.4085 -5.33143 3.35362 0.000396688 10
16.4049 -5.33026 3.98226 0.000384019 10
16.4087 -5.33152 4.62297 0.000369623 10
8.95826 -2.87618 -2.52104 0.000392597 4
11.1753 -3.58799 -2.70973 0.000227508 1
13.2652 -4.25899 -2.70813 0.000117558 1
16.24 -5.21409 -2.70148 5.09465e-05 1
16.4857 -5.29298 -2.12596 0.000525402 10
16.4952 -5.29604 -1.5157 0.00035275 10
16.4818 -5.29173 -0.907204 0.000356622 10
16.498 -5.29694 -0.302453 0.00035861 10
16.4761 -5.28991 0.302051 0.000358687 10
16.5008 -5.29782 0.908247 0.000356855 10
16.4877 -5.29364 1.51501 0.000416856 10
16.4906 -5.29457 2.1266 0.000410291 10
16.4759 -5.28982 2.74072 0.000401633 10
16.4722 -5.28864 3.36285 0.000390988 10
16.4718 -5.28851 3.994 0.000378489 10
16.4771 -5.29023 4.63701 0.000364287 10
8.98686 -2.8508 -2.52627 0.000311171 4
11.1844 -3.5479 -2.70893 0.000227509 1
13.2542 -4.20449 -2.70288 0.00011756 1
16.2545 -5.15623 -2.70089 5.09471e-05 1
16.5671 -5.25541 -2.13408 0.000517815 10
16.7555 -5.31515 -1.5379 0.000317999 10
16.7725 -5.32054 -0.922175 0.000321519 10
16.7637 -5.31777 -0.306982 0.000323331 10
16.7657 -5.31841 0.307018 0.000323414 10
16.755 -5.315 0.921214 0.000321766 10
16.553 -5.25094 1.51932 0.000410845 10
16.5621 -5.25381 2.13343 0.000404369 10
16.5532 -5.25099 2.75052 0.000395827 10
16.5469 -5.24899 3.37434 0.000385326 10
16.5431 -5.24778 4.00683 0.000372995 10
16.5503 -5.25005 4.6524 0.000358985 10
8.99199 -2.81792 -2.52494 0.000319897 4
11.1832 -3.50462 -2.70567 0.000227511 1
13.2761 -4.16049 -2.70437 0.000117561 1
16.2801 -5.10188 -2.70217 5.09477e-05 1
16.6317 -5.21207 -2.14005 0.000510278 10
16.7291 -5.24257 -1.53379 0.000323157 10
16.7235 -5.24083 -0.91847 0.000326729 10
16.7242 -5.24104 -0.305921 0.000328569 10
16.7188 -5.23935 0.305822 0.000328653 10
16.7 -5.23346 0.917178 0.00032698 10
16.6421 -5.21532 1.52582 0.000404875 10
16.6455 -5.21638 2.14182 0.000398485 10
16.6178 -5.20772 2.75822 0.00039006 10
16.641 -5.21498 3.3898 0.000379701 10
16.6208 -5.20865 4.02123 0.000367538 10
16.617 -5.20746 4.66603 0.000353718 10
8.98102 -2.78009 -2.51912 0.00030245 4
11.2012 -3.46735 -2.70707 0.000227513 1
13.2916 -4.11443 -2.70457 0.000117562 1
16.298 -5.04507 -2.70219 5.09482e-05 1
16.7224 -5.17645 -2.14938 0.000502791 10
16.7236 -5.17682 -1.53162 0.000337588 10
16.7137 -5.17374 -0.916933 0.000341306 10
16.7231 -5.17666 -0.305568 0.000343215 10
16.7037 -5.17066 0.305214 0.00034329 10
16.7089 -5.17227 0.916671 0.000341532 10
16.7008 -5.16975 1.52953 0.000398943 10
16.7103 -5.17271 2.14782 0.000392641 10
16.7038 -5.17068 2.76947 0.000384331 10
16.7135 -5.17369 3.40087 0.000374114 10
16.7035 -5.17059 4.03684 0.000362117 10
16.7118 -5.17316 4.68754 0.000348487 10
9.00191 -2.75216 -2.52227 0.000398422 4
11.2341 -3.43462 -2.71211 0.000227514 1
13.3106 -4.06946 -2.70554 0.000117562 1
16.2974 -4.98261 -2.69919 5.09488e-05 1
16.798 -5.13566 -2.15677 0.000495355 10
17.0072 -5.19962 -1.55592 0.000309483 10
17.0124 -5.20122 -0.93232 0.000312919 10
16.9952 -5.19595 -0.310207 0.000314689 10
16.9884 -5.19388 0.310083 0.000314769 10
17.0091 -5.20021 0.932139 0.000313159 10
16.7732 -5.12809 1.53452 0.000393052 10
16.7861 -5.13202 2.15524 0.000386837 10
16.7779 -5.12953 2.77878 0.000378641 10
16.7819 -5.13075 3.41112 0.000368565 10
16.7884 -5.13274 4.05301 0.000356733 10
16.7893 -5.13301 4.70424 0.000343291 10
9.02516 -2.72486 -2.5261 0.000261738 4
11.234 -3.39175 -2.7092 0.000227515 1
13.3222 -4.02221 -2.70502 0.000117563 1
16.3105 -4.92444 -2.69851 5.09493e-05 1
16.8628 -5.0912 -2.16281 0.000487969 10
16.9515 -5.11797 -1.54919 0.000314415 10
16.9554 -5.11914 -0.928211 0.000317903 10
16.9559 -5.1193 -0.309162 0.000319698 10
16.9465 -5.11644 0.308989 0.000319779 10
16.9636 -5.12161 0.92866 0.000318145 10
16.8697 -5.09326 1.54171 0.000387202 10
16.8444 -5.08564 2.16045 0.000381072 10
16.8485 -5.08687 2.78752 0.00037299 10
16.8628 -5.09117 3.42392 0.000363054 10
16.8527 -5.08812 4.0642 0.000351387 10
16.8585 -5.08987 4.7186 0.000338132 10
9.03445 -2.69329 -2.52605 0.000415875 4
11.2303 -3.34789 -2.70547 0.000227517 1
13.325 -3.97236 -2.70276 0.000117564 1
16.339 -4.87087 -2.70039 5.09497e-05 1
16.9374 -5.04926 -2.17009 0.000480635 10
16.9302 -5.04712 -1.54562 0.00032273 10
16.9275 -5.04632 -0.925716 0.000326297 10
16.9396 -5.04991 -0.308541 0.000328128 10
16.9408 -5.05027 0.308562 0.000328202 10
16.9286 -5.04664 0.925775 0.000326516 10
16.9425 -5.05078 1.54674 0.000381391 10
16.9345 -5.0484 2.16973 0.000375348 10
16.9388 -5.04968 2.79952 0.000367378 10
16.9369 -5.04911 3.43538 0.000357581 10
16.9293 -5.04684 4.07841 0.000346078 10
16.9227 -5.04488 4.73162 0.00033301 10
9.03666 -2.65964 -2.52406 0.000430418 4
11.2442 -3.30935 -2.70602 0.000227518 1
13.3534 -3.93011 -2.70572 0.000117565 1
16.3624 -4.81573 -2.70147 5.09502e-05 1
17.0137 -5.00739 -2.17761 0.000473354 10
17.2358 -5.07278 -1.57189 0.000456199 10
17.2476 -5.07626 -0.942247 0.000461282 10
17.2269 -5.07017 -0.31345 0.000463899 10
17.2358 -5.07277 0.313611 0.000464016 10
17.2309 -5.07134 0.941335 0.000461632 10
17.0159 -5.00805 1.55184 0.000375622 10
16.9941 -5.00163 2.17511 0.000369664 10
16.9963 -5.00228 2.80612 0.000361807 10
17.0145 -5.00764 3.44755 0.000352148 10
17.0148 -5.00774 4.09479 0.000340807 10
17.0108 -5.00655 4.75134 0.000327924 10
9.03579 -2.62514 -2.52124 0.000375163 4
11.2727 -3.27504 -2.71013 0.000227519 1
13.3729 -3.88517 -2.7069 0.000117566 1
16.3737 -4.757 -2.70057 5.09506e-05 1
17.0769 -4.9613 -2.18348 0.000466124 10
17.2101 -4.99999 -1.56794 0.000463344 10
17.188 -4.99357 -0.938029 0.0004685 10
17.2017 -4.99755 -0.312672 0.000471154 10
17.189 -4.99387 0.312441 0.000471273 10
17.2011 -4.99738 0.938745 0.000468854 10
17.0733 -4.96026 1.55548 0.000369894 10
17.0925 -4.96583 2.18547 0.000364021 10
17.0796 -4.9621 2.817 0.000356275 10
17.0696 -4.95917 3.45518 0.000346754 10
17.0948 -4.9665 4.10983 0.000335574 10
17.078 -4.96161 4.76524 0.000322875 10
9.04827 -2.59455 -2.52218 0.000378073 4
11.2648 -3.23012 -2.70548 0.00022752 1
13.3906 -3.83969 -2.70776 0.000117566 1
16.3774 -4.69614 -2.69846 5.0951e-05 1
17.1591 -4.9203 -2.19178 0.000458948 10
17.168 -4.92284 -1.56253 0.000466576 10
17.1522 -4.91833 -0.935136 0.000471751 10
17.1752 -4.92492 -0.311876 0.000474409 10
17.1677 -4.92277 0.31174 0.000474517 10
17.1633 -4.9215 0.93574 0.000472072 10
17.1571 -4.91973 1.56155 0.000364208 10
17.1699 -4.9234 2.19316 0.000358419 10
17.1535 -4.91869 2.82634 0.000350784 10
17.1478 -4.91704 3.46751 0.000341399 10
17.1709 -4.92366 4.12396 0.000330381 10
17.1663 -4.92237 4.78507 0.000317864 10
9.05152 -2.56132 -2.52058 0.000383891 4
11.2806 -3.19208 -2.70659 0.000227521 1
13.3826 -3.7869 -2.70346 0.000117567 1
16.3962 -4.63966 -2.69887 5.09514e-05 1
17.2401 -4.87847 -2.19994 0.000451825 10
17.2365 -4.87743 -1.56721 0.000459344 10
17.2317 -4.87609 -0.938536 0.000464445 10
17.2532 -4.88217 -0.312981 0.000467065 10
17.243 -4.87928 0.312796 0.000467171 10
17.2329 -4.87643 0.938602 0.000464762 10
17.2318 -4.87611 1.56678 0.000358564 10
17.2316 -4.87606 2.19886 0.000352859 10
17.2388 -4.87809 2.83757 0.000345334 10
17.2397 -4.87835 3.48265 0.000336085 10
17.2293 -4.8754 4.13388 0.000325226 10
17.2427 -4.87921 4.80159 0.000312891 10
9.08051 -2.53533 -2.52617 0.000348993 4
11.3107 -3.158 -2.71115 0.000227522 1
13.4006 -3.74153 -2.70445 0.000117568 1
16.4108 -4.58198 -2.69863 5.09517e-05 1
17.3135 -4.83401 -2.20714 0.000444756 10
17.3292 -4.8384 -1.5741 0.000452166 10
17.3315 -4.83904 -0.943044 0.000457193 10
17.3333 -4.83955 -0.314126 0.000459776 10
17.316 -4.83471 0.313812 0.000459881 10
17.3144 -4.83427 0.942116 0.000457507 10
17.3144 -4.83427 1.57275 0.000360822 10
17.3209 -4.83608 2.20808 0.000355082 10
17.3095 -4.83289 2.84641 0.00034751 10
17.3031 -4.8311 3.49201 0.000338201 10
17.3158 -4.83465 4.15056 0.00032727 10
17.2934 -4.8284 4.81097 0.000314853 10
9.06911 -2.49805 -2.52056 0.000360627 4
11.3061 -3.11422 -2.70743 0.000227523 1
13.4065 -3.69275 -2.703 0.000117568 1
16.4363 -4.52731 -2.7002 5.0952e-05 1
17.4061 -4.79444 -2.21679 0.00043774 10
17.4142 -4.79668 -1.58029 0.000445042 10
17.4083 -4.79504 -0.946307 0.000449997 10
17.3866 -4.78907 -0.314787 0.000452542 10
17.4087 -4.79515 0.315186 0.000452646 10
17.4046 -4.79404 0.946109 0.000450307 10
17.2664 -4.75596 1.56687 0.000366315 10
17.2543 -4.75263 2.19746 0.000360494 10
17.2539 -4.75252 2.83452 0.000352815 10
17.2762 -4.75867 3.48322 0.000343373 10
17.2538 -4.75249 4.1317 0.000332287 10
17.2588 -4.75387 4.79671 0.000319693 10
9.08171 -2.46745 -2.52165 0.000418794 4
11.3225 -3.07627 -2.70878 0.000227524 1
13.4443 -3.65275 -2.70805 0.000117569 1
16.4626 -4.47279 -2.70194 5.09523e-05 1
25.7197 -6.98791 -2.33176 0.000105971 10
25.2448 -6.85887 1.37099 6.5166e-05 10
17.2156 -4.67739 1.56077 0.000371845 10
17.2249 -4.6799 2.19162 0.000365942 10
17.2342 -4.68244 2.82859 0.000358155 10
17.2375 -4.68334 3.47211 0.000348581 10
17.2345 -4.68252 4.12314 0.000337339 10
17.2257 -4.68013 4.78294 0.000324566 10
9.08927 -2.43546 -2.52138 0.000378079 4
11.3393 -3.03836 -2.71023 0.000227525 1
13.4564 -3.60563 -2.70793 0.000117569 1
16.4653 -4.41187 -2.69985 5.09526e-05 1
25.6459 -6.87181 -2.32288 0.000107813 10
31.3421 -8.39809 -1.70051 4.5648e-05 10
31.3587 -8.40255 -0.566678 4.59743e-05 10
31.3549 -8.40153 0.566609 4.59886e-05 10
25.1849 -6.74828 1.36645 6.62885e-05 10
17.1768 -4.60252 1.55579 0.000377414 10
17.1945 -4.60725 2.18569 0.000371429 10
17.1773 -4.60264 2.81659 0.000363533 10
17.1905 -4.60619 3.45937 0.000353826 10
17.1724 -4.60134 4.10442 0.000342426 10
17.173 -4.6015 4.76382 0.000329475 10
9.10752 -2.40631 -2.52409 0.000392622 4
11.3512 -2.99912 -2.71056 0.000227525 1
13.4569 -3.55546 -2.70551 0.00011757 1
16.4784 -4.35378 -2.69948 5.09528e-05 1
25.5883 -6.76073 -2.31551 0.000109671 10
31.2694 -8.26173 -1.69499 4.65066e-05 10
31.2871 -8.26641 -0.564858 4.68385e-05 10
31.2784 -8.26413 0.564702 4.6853e-05 10
25.1357 -6.64115 1.36251 6.74209e-05 10
17.1501 -4.53127 1.55193 0.000383021 10
17.1517 -4.53167 2.17823 0.000376953 10
17.1411 -4.52889 2.80805 0.000368948 10
17.1394 -4.52844 3.44589 0.000359106 10
17.1515 -4.53162 4.09561 0.000347548 10
17.1386 -4.52823 4.74987 0.000334417 10
9.10012 -2.37041 -2.51974 0.000305373 4
11.3534 -2.95735 -2.70861 0.000227526 1
13.4676 -3.50804 -2.70518 0.00011757 1
16.5045 -4.29911 -2.70129 5.0953e-05 1
25.5362 -6.6517 -2.30868 0.000111544 10
31.1877 -8.12379 -1.68902 4.73738e-05 10
31.1954 -8.12579 -0.562687 4.77113e-05 10
31.186 -8.12334 0.562517 4.7726e-05 10
25.0401 -6.52245 1.35608 9.52618e-05 10
17.1994 -4.48011 1.55496 0.000359818 10
17.2128 -4.48361 2.18399 0.000354108 10
17.2077 -4.48228 2.81638 0.000346576 10
17.2204 -4.48558 3.459 0.000337317 10
17.1982 -4.47979 4.103 0.000326445 10
17.2041 -4.48134 4.76365 0.000314095 10
9.12146 -2.34199 -2.52336 0.000305374 4
10.5781 -2.716 -2.52136 0.000216537 4
13.4803 -3.46115 -2.70529 0.00011757 1
16.5223 -4.24222 -2.70176 5.09532e-05 1
25.4633 -6.53786 -2.30001 0.000113434 10
31.1295 -7.99271 -1.68435 4.82497e-05 10
31.1142 -7.98878 -0.560717 4.85928e-05 10
31.1344 -7.99395 0.561079 4.86077e-05 10
24.9722 -6.41177 1.35119 9.6861e-05 10
17.291 -4.43957 1.56183 0.000353972 10
17.2819 -4.43725 2.19078 0.000348348 10
17.3007 -4.44206 2.82904 0.00034093 10
17.2878 -4.43876 3.46941 0.000331812 10
17.292 -4.43985 4.12167 0.000321105 10
17.2736 -4.43511 4.77857 0.000308943 10
9.13038 -2.31034 -2.52359 0.000366449 4
10.574 -2.67562 -2.51813 0.000211422 4
13.4897 -3.41343 -2.70479 0.000117571 1
16.5192 -4.17999 -2.69884 5.09534e-05 1
25.4083 -6.42928 -2.293 0.00011534 10
31.1926 -7.89294 -1.68626 4.49269e-05 10
31.2014 -7.89518 -0.561788 4.52459e-05 10
31.1997 -7.89475 0.561758 4.52592e-05 10
25.0443 -6.33718 1.35388 9.00576e-05 10
25.058 -6.34065 2.26139 8.89755e-05 10
25.0517 -6.33905 3.17291 8.73597e-05 10
25.0523 -6.3392 4.09295 8.52337e-05 10
25.0282 -6.3331 5.01831 8.26281e-05 10
25.0359 -6.33505 5.96216 7.95803e-05 10
25.0425 -6.33673 6.92161 7.61337e-05 10
9.14063 -2.27902 -2.5242 0.000372266 4
10.5802 -2.63795 -2.51742 0.000187552 4
13.4968 -3.36512 -2.70382 0.000117571 1
16.5534 -4.12723 -2.70206 5.09535e-05 1
25.3599 -6.32294 -2.28663 0.000117262 10
25.3412 -6.31826 -1.36873 0.00011876 10
25.3308 -6.31569 -0.455687 0.000119531 10
25.3424 -6.31857 0.455895 0.000119564 10
25.1723 -6.27616 1.35961 8.83615e-05 10
25.1584 -6.27271 2.26846 8.72982e-05 10
25.1727 -6.27626 3.18544 8.57106e-05 10
25.1439 -6.26908 4.10432 8.36216e-05 10
25.1522 -6.27115 5.03876 8.10615e-05 10
25.1663 -6.27467 5.98798 7.8067e-05 10
25.1413 -6.26844 6.94283 7.46809e-05 10
9.15224 -2.24801 -2.52523 0.000404258 4
10.5948 -2.60232 -2.5187 0.000199488 4
13.5132 -3.31917 -2.70478 0.000117571 1
16.5627 -4.0682 -2.70125 5.09536e-05 1
25.274 -6.20789 -2.27691 0.000119199 10
25.2931 -6.21259 -1.36496 0.00012072 10
25.2919 -6.21228 -0.454594 0.000121502 10
25.2962 -6.21333 0.45467 0.000121536 10
25.2759 -6.20834 1.36402 8.66832e-05 10
25.2815 -6.20974 2.27759 8.56386e-05 10
25.2747 -6.20807 3.19559 8.40788e-05 10
25.2752 -6.20818 4.12218 8.20266e-05 10
25.2819 -6.20983 5.06037 7.95115e-05 10
25.2692 -6.20672 6.00726 7.65699e-05 10
25.2685 -6.20655 6.97193 7.32437e-05 10
9.16193 -2.21651 -2.52575 0.000349 4
10.6239 -2.57019 -2.52347 0.000252344 4
13.5408 -3.27586 -2.70799 0.000117571 1
16.585 -4.01233 -2.70258 5.09537e-05 1
25.2286 -6.10344 -2.27089 0.000121152 10
25.227 -6.10306 -1.36023 0.000122695 10
25.2206 -6.10152 -0.452927 0.000123489 10
25.2217 -6.10177 0.452946 0.000123523 10
25.2249 -6.10256 1.36012 9.5746e-05 10
25.2109 -6.09916 2.2693 9.45943e-05 10
25.2283 -6.10337 3.18701 9.2874e-05 10
25.2229 -6.10207 4.11016 9.06105e-05 10
25.2171 -6.10067 5.04312 8.78364e-05 10
25.2172 -6.10068 5.98979 8.45914e-05 10
25.2115 -6.09932 6.95029 8.09219e-05 10
9.14998 -2.17983 -2.52034 0.000360633 4
10.6194 -2.5299 -2.5203 0.000247229 4
13.5265 -3.22247 -2.70287 0.000117571 1
16.5808 -3.9501 -2.69963 5.09537e-05 1
25.1576 -5.99339 -2.2626 0.00012312 10
25.1763 -5.99785 -1.35636 0.000124686 10
25.1794 -5.99857 -0.451807 0.000125492 10
25.1615 -5.99432 0.451487 0.000125527 10
25.1682 -5.99591 1.35592 9.72994e-05 10
25.1551 -5.9928 2.26238 9.61304e-05 10
25.1702 -5.9964 3.17701 9.43845e-05 10
25.1732 -5.9971 4.09862 9.2087e-05 10
25.147 -5.99086 5.02487 8.92712e-05 10
25.1493 -5.9914 5.96865 8.59773e-05 10
25.1537 -5.99245 6.92853 8.22524e-05 10
9.17118 -2.15108 -2.5241 0.000363542 4
10.6325 -2.49382 -2.52131 0.000235293 4
13.5411 -3.17603 -2.70355 0.000117571 1
16.5887 -3.89085 -2.6987 5.09537e-05 1
25.1032 -5.88791 -2.25585 0.000125103 10
25.127 -5.89348 -1.35258 0.000113967 10
25.1032 -5.88792 -0.45007 0.000114703 10
25.107 -5.88879 0.450137 0.000114734 10
25.0934 -5.88561 1.35078 9.8865e-05 10
25.092 -5.88528 2.25484 9.76785e-05 10
25.1098 -5.88945 3.16676 9.59066e-05 10
25.0937 -5.88567 4.08231 9.3575e-05 10
25.112 -5.88998 5.01375 9.07173e-05 10
25.0902 -5.88485 5.94972 8.73743e-05 10
25.1078 -5.88898 6.91018 8.35937e-05 10
9.18622 -2.12081 -2.52619 0.000378084 4
10.6489 -2.45848 -2.52315 0.000226768 4
13.5673 -3.13226 -2.70658 0.000117571 1
16.5989 -3.83216 -2.69816 5.09537e-05 1
25.0426 -5.78154 -2.24857 0.000127102 10
25.2413 -5.82742 -1.35764 0.000111746 10
25.2392 -5.82693 -0.45214 0.000112468 10
25.2321 -5.8253 0.452013 0.000112499 10
25.0534 -5.78404 1.34753 0.000100442 10
25.0354 -5.77988 2.24793 9.92384e-05 10
25.0559 -5.78462 3.15741 9.74405e-05 10
25.042 -5.7814 4.07059 9.50745e-05 10
25.0431 -5.78167 4.99594 9.21745e-05 10
25.0459 -5.78231 5.9344 8.8782e-05 10
25.034 -5.77956 6.88428 8.49452e-05 10
9.18641 -2.0871 -2.52422 0.00040135 4
10.6559 -2.42097 -2.52281 0.000187553 4
13.578 -3.08485 -2.70656 0.000117571 1
16.6373 -3.77989 -2.70224 5.09537e-05 1
25.0029 -5.68052 -2.24321 0.000129116 10
25.3498 -5.75934 -1.36238 0.000109549 10
25.3439 -5.75799 -0.453653 0.000110259 10
25.3549 -5.76049 0.453849 0.000110289 10
24.9967 -5.67912 1.34341 0.000102032 10
24.9955 -5.67885 2.24255 0.00010081 10
24.9728 -5.67369 3.14442 9.89859e-05 10
24.9958 -5.6789 4.05983 9.65853e-05 10
24.9751 -5.67421 4.97839 9.36428e-05 10
24.9754 -5.67427 5.91296 9.02005e-05 10
24.9778 -5.67483 6.86335 8.63072e-05 10
9.20091 -2.05665 -2.52622 0.000427525 4
10.6644 -2.38378 -2.52283 0.000219948 4
13.5765 -3.03471 -2.70413 0.000117571 1
16.6529 -3.72236 -2.70265 5.09537e-05 1
24.9508 -5.57718 -2.23678 0.000131144 10
24.931 -5.57275 1.33882 0.000103633 10
24.9315 -5.57285 2.23505 0.000102393 10
24.917 -5.56962 3.13493 0.000100543 10
24.9168 -5.56956 4.04382 9.81074e-05 10
24.9395 -5.57464 4.96738 9.51221e-05 10
24.9212 -5.57055 5.8955 9.16297e-05 10
24.9268 -5.57181 6.84395 8.76796e-05 10
9.18324 -2.01907 -2.51941 0.000302466 4
10.6638 -2.34459 -2.52073 0.000177322 4
13.5833 -2.98647 -2.70338 0.000117571 1
16.6514 -3.66105 -2.70031 5.09536e-05 1
24.8785 -5.46988 -2.22857 0.000133188 10
24.8875 -5.47187 1.33545 0.000105245 10
24.8612 -5.46609 2.22702 0.000103988 10
24.859 -5.46561 3.12521 0.000102111 10
24.8625 -5.46638 4.03189 9.96405e-05 10
24.8717 -5.4684 4.95004 9.66122e-05 10
24.8723 -5.46852 5.87936 9.30694e-05 10
24.8633 -5.46655 6.82122 8.90621e-05 10
9.2098 -1.99123 -2.52478 0.000375174 4
10.6662 -2.30612 -2.51939 0.000225063 4
13.6046 -2.94143 -2.70558 0.000117571 1
16.669 -3.60396 -2.70111 5.09535e-05 1
24.8154 -5.36528 -2.22123 0.000135246 10
24.8159 -5.36538 1.33059 0.000106869 10
24.8274 -5.36788 2.22231 0.000105594 10
24.8277 -5.36793 3.11889 0.00010369 10
24.8249 -5.36732 4.02272 0.000101185 10
24.7991 -5.36175 4.93183 9.81132e-05 10
24.818 -5.36583 5.86206 9.45196e-05 10
24.795 -5.36086 6.7973 9.04547e-05 10
9.20225 -1.956 -2.52082 0.000328641 4
10.6795 -2.27001 -2.52065 0.000231882 4
13.6006 -2.8909 -2.70275 0.000117571 1
16.668 -3.54289 -2.69893 5.09534e-05 1
24.7551 -5.26187 -2.21418 0.000137318 10
24.3095 -5.16715 1.30247 0.000117055 10
24.3049 -5.16617 2.17391 0.000115671 10
24.3025 -5.16567 3.05064 0.000113603 10
24.7651 -5.26397 4.01003 0.00010274 10
24.2769 -5.16021 4.82437 0.000107545 10
24.2841 -5.16174 5.73167 0.00010364 10
24.2851 -5.16195 6.65254 9.92221e-05 10
9.2138 -1.92487 -2.52213 0.000337365 4
10.6969 -2.2347 -2.52289 0.000231882 4
13.6208 -2.84554 -2.70478 0.00011757 1
16.692 -3.48715 -2.70083 5.09532e-05 1
24.7108 -5.16235 -2.20859 0.000139405 10
24.3508 -5.08715 1.30372 0.000100281 10
24.3364 -5.08413 2.17512 9.90956e-05 10
24.3327 -5.08338 3.05219 9.73248e-05 10
24.7066 -5.16149 3.99763 0.000104305 10
24.2434 -5.06472 4.81418 0.000109176 10
24.3418 -5.08528 5.74108 8.87896e-05 10
24.3356 -5.08398 6.66148 8.5004e-05 10
9.23631 -1.89594 -2.52647 0.000351906 4
10.7074 -2.19791 -2.52353 0.000235291 4
13.6427 -2.80046 -2.70717 0.00011757 1
16.7074 -3.42955 -2.70138 5.0953e-05 1
24.6526 -5.06046 -2.2018 0.000141505 10
24.4415 -5.01713 1.30764 9.82589e-05 10
24.4514 -5.01916 2.18382 9.70957e-05 10
24.4401 -5.01684 3.06344 9.53579e-05 10
24.1925 -4.96601 3.91161 0.000114247 10
24.1895 -4.96539 4.8 0.000110817 10
24.4441 -5.01766 5.76104 8.69823e-05 10
24.4524 -5.01935 6.6886 8.32679e-05 10
9.22089 -1.85926 -2.52046 0.000418796 4
10.6967 -2.15684 -2.51924 0.000260866 4
13.6388 -2.75006 -2.70446 0.00011757 1
16.7083 -3.36898 -2.69959 5.09528e-05 1
24.6039 -4.96102 -2.19588 0.00014362 10
24.5583 -4.95182 1.31295 9.62605e-05 10
24.5685 -4.95388 2.19273 9.51191e-05 10
24.5774 -4.95568 3.07846 9.3414e-05 10
24.1327 -4.86601 3.89917 0.000115947 10
24.1384 -4.86715 4.78645 0.00011247 10
24.5698 -4.95414 5.78655 8.51965e-05 10
24.5554 -4.95123 6.71201 8.15524e-05 10
9.23804 -1.82918 -2.52338 0.000366446 4
10.6994 -2.11853 -2.5181 0.00026939 4
13.6663 -2.70599 -2.70803 0.000117569 1
16.7216 -3.31098 -2.69987 5.09526e-05 1
24.5349 -4.85805 -2.1882 0.000145749 10
24.6276 -4.87639 1.31573 7.24877e-05 10
24.6277 -4.87641 2.19647 7.16265e-05 10
24.6172 -4.87433 3.08129 7.03406e-05 10
24.0786 -4.76769 3.88772 0.000117657 10
24.0838 -4.76872 4.7723 0.000114133 10
24.6314 -4.87715 5.797 6.4146e-05 10
24.6141 -4.87373 6.72338 6.13996e-05 10
9.2468 -1.7974 -2.52405 0.000293738 4
10.7055 -2.08094 -2.51782 0.000216534 4
13.67 -2.65718 -2.70691 0.000117569 1
16.7473 -3.25535 -2.70216 5.09523e-05 1
24.4899 -4.76036 -2.18269 0.000147891 10
24.5806 -4.77799 1.31233 7.35533e-05 10
24.0106 -4.66719 3.87408 0.000119378 10
24.0301 -4.67098 4.7584 0.000115806 10
9.23997 -1.76262 -2.52049 0.00030537 4
10.7221 -2.04535 -2.52003 0.000250633 4
13.6713 -2.60794 -2.70535 0.000117568 1
16.752 -3.19562 -2.7011 5.0952e-05 1
24.4454 -4.66321 -2.17726 0.000150047 10
35.6908 -6.80839 -0.63422 2.88093e-05 10
35.68 -6.80633 0.634027 2.88182e-05 10
24.511 -4.67573 1.30773 7.46256e-05 10
23.9739 -4.57327 3.86556 0.00012111 10
23.9973 -4.57774 4.74872 2.92015e-05 10
24.5148 -4.67644 5.76174 6.60562e-05 10
9.26232 -1.7334 -2.52492 0.00101278 4
10.7402 -2.00998 -2.52262 0.000233583 4
13.6705 -2.55837 -2.70341 0.000117568 1
16.75 -3.13468 -2.699 5.09517e-05 1
24.3803 -4.56266 -2.17003 0.000152216 10
35.5973 -6.66185 -1.89796 2.90834e-05 10
35.5969 -6.66177 -0.632133 2.93018e-05 10
35.5826 -6.65911 0.631879 2.93108e-05 10
24.3849 -4.56351 1.30014 7.67722e-05 10
23.903 -4.47333 3.85159 0.000122853 10
24.0271 -4.49655 4.75148 2.92017e-05 10
24.4665 -4.57879 5.74661 6.70204e-05 10
9.31092 -1.70887 -2.53653 0.000575624 4
10.7393 -1.97102 -2.52077 0.000179022 4
13.6779 -2.51037 -2.70313 0.000117567 1
16.7727 -3.07837 -2.70091 5.09514e-05 1
24.3352 -4.46635 -2.16462 0.000154398 10
35.5232 -6.51973 -1.89279 2.95766e-05 10
35.5325 -6.52143 -0.630581 2.97984e-05 10
35.5187 -6.51891 0.630337 2.98075e-05 10
24.3281 -4.46504 1.29628 7.78714e-05 10
24.3985 -4.47797 2.17025 7.58816e-05 10
23.8632 -4.37972 3.8427 0.000124606 10
24.0363 -4.41148 4.75022 2.92019e-05 10
24.4028 -4.47875 5.72792 6.79905e-05 10
9.33331 -1.67933 -2.54101 0.000312617 4
10.7356 -1.93164 -2.51831 0.000225056 4
13.7072 -2.46632 -2.7072 0.000117566 1
16.7783 -3.01889 -2.70009 5.0951e-05 1
24.278 -4.3683 -2.15816 0.000156593 10
35.4529 -6.37899 -1.88785 3.0074e-05 10
35.4347 -6.37572 -0.628448 3.02991e-05 10
35.4413 -6.3769 0.628564 3.03083e-05 10
23.8067 -4.28351 1.26769 0.000133333 10
24.3516 -4.38154 2.1647 7.69616e-05 10
23.8014 -4.28254 3.8303 0.000126369 10
24.0549 -4.32816 4.75088 2.92021e-05 10
24.3488 -4.38105 5.71164 6.89666e-05 10
9.36537 -1.65137 -2.54815 0.000610311 4
10.7491 -1.89536 -2.5199 0.00021312 4
13.7192 -2.41907 -2.70788 0.000117566 1
16.7781 -2.95844 -2.69839 5.09506e-05 1
24.2092 -4.26874 -2.1507 0.000158801 10
35.1499 -6.19788 -1.87055 3.15483e-05 10
35.1346 -6.19518 -0.622737 3.17834e-05 10
35.1312 -6.19458 0.622677 3.1793e-05 10
23.765 -4.19041 1.26468 0.000135196 10
24.2905 -4.28307 2.15792 7.80478e-05 10
23.7671 -4.19078 3.8224 0.000128143 10
24.0675 -4.24376 4.75042 2.92023e-05 10
9.40157 -1.62394 -2.55645 0.000955752 4
10.7547 -1.85766 -2.51969 0.000194365 4
13.7116 -2.36841 -2.70474 0.000117565 1
16.7892 -2.90001 -2.69853 5.09502e-05 1
24.1667 -4.17432 -2.14562 0.000161021 10
35.0567 -6.05534 -1.86445 3.20681e-05 10
35.0634 -6.0565 -0.621097 3.23067e-05 10
35.0632 -6.05647 0.621093 3.23164e-05 10
23.7037 -4.09435 1.26066 0.00013707 10
24.2419 -4.18731 2.1523 7.91402e-05 10
23.6915 -4.09224 3.80793 0.000129926 10
24.0907 -4.1612 4.75211 2.92025e-05 10
9.45724 -1.59957 -2.57005 0.000868291 4
10.762 -1.82026 -2.5199 0.000228462 4
13.7128 -2.31934 -2.70335 0.000117564 1
16.806 -2.84252 -2.69961 5.09497e-05 1
24.1268 -4.08075 -2.14081 0.000163254 10
34.9873 -5.91767 -1.85965 3.25919e-05 10
34.9829 -5.91692 -0.619302 3.2834e-05 10
34.9937 -5.91875 0.619492 3.28439e-05 10
23.6548 -4.00091 1.2573 0.000138954 10
24.1957 -4.09239 2.14691 8.02388e-05 10
23.6396 -3.99834 3.79732 0.000131719 10
24.0984 -4.07594 4.75078 2.92028e-05 10
9.49409 -1.57174 -2.57856 0.000877328 4
10.7576 -1.7809 -2.51738 0.000214822 4
13.7452 -2.27551 -2.70817 0.000117563 1
16.8254 -2.78543 -2.70116 5.09493e-05 1
24.0726 -3.9852 -2.13475 0.000165499 10
23.6175 -3.90985 1.25459 0.000140849 10
24.1414 -3.99659 2.14084 8.13433e-05 10
24.055 -3.98228 4.73945 0.00012019 10
9.5249 -1.5427 -2.58545 0.00111904 4
10.7769 -1.74547 -2.52046 0.00021482 4
13.7346 -2.22451 -2.70452 0.000117562 1
16.8396 -2.72742 -2.70189 5.09488e-05 1
24.0001 -3.88718 -2.1271 0.000167756 10
23.9993 -3.88704 -1.27414 0.00011218 10
24.0095 -3.8887 -0.424549 0.000112886 10
24.0016 -3.88742 0.424409 0.000112915 10
23.5491 -3.81412 1.25024 0.000142753 10
24.101 -3.90352 2.13604 8.24539e-05 10
24.0116 -3.88903 4.7282 0.000121837 10
9.56637 -1.51516 -2.59525 0.000887458 4
10.7817 -1.70765 -2.52017 0.000228458 4
13.7443 -2.17688 -2.70492 0.000117562 1
16.8453 -2.66804 -2.70129 5.09482e-05 1
23.968 -3.79616 -2.12307 0.000170025 10
24.055 -3.80994 -1.27638 8.692e-05 10
24.0512 -3.80934 -0.425049 8.74706e-05 10
24.0445 -3.80828 0.42493 8.7496e-05 10
23.5033 -3.72255 1.24711 0.000144667 10
24.0486 -3.80893 2.13021 8.35702e-05 10
23.9334 -3.79068 4.71018 0.000123494 10
9.61762 -1.48889 -2.60773 0.000733046 4
10.7949 -1.67113 -2.52187 0.000233571 4
13.7668 -2.13121 -2.70786 0.000117561 1
16.8399 -2.60696 -2.69896 5.09477e-05 1
23.8922 -3.69871 -2.1152 0.000172306 10
23.4441 -3.62934 1.24329 0.000146591 10
23.9714 -3.71097 2.12221 8.46923e-05 10
23.9062 -3.70088 4.70225 0.000125159 10
9.63839 -1.45767 -2.61197 0.000787329 4
10.7831 -1.6308 -2.51779 0.000260848 4
13.7633 -2.0815 -2.70573 0.00011756 1
16.8469 -2.54786 -2.69864 5.09471e-05 1
23.8526 -3.60737 -2.11057 0.000174598 10
23.8416 -3.6057 -1.26369 0.00011675 10
23.8617 -3.60874 -0.421244 0.000117483 10
23.8604 -3.60854 0.42122 0.000117512 10
23.4016 -3.53916 1.24037 0.000148524 10
23.9209 -3.6177 2.11661 8.582e-05 10
23.8543 -3.60762 4.68952 0.000126833 10
9.69439 -1.43155 -2.62577 0.000757863 4
10.7929 -1.59376 -2.51877 0.000175602 4
13.7824 -2.03521 -2.70807 0.000117558 1
16.8636 -2.49021 -2.6999 5.09465e-05 1
23.796 -3.51389 -2.10445 0.000176901 10
23.9633 -3.5386 -1.26948 8.73136e-05 10
23.96 -3.5381 -0.422758 8.78659e-05 10
23.9849 -3.54179 0.423198 8.78918e-05 10
23.3486 -3.44782 1.23692 0.000150466 10
23.8854 -3.5271 2.11236 8.69532e-05 10
23.7853 -3.51231 4.67352 0.000128514 10
9.73314 -1.40257 -2.63493 0.000822433 4
10.804 -1.55688 -2.52006 0.000173896 4
13.7823 -1.98606 -2.70668 0.000117557 1
16.8791 -2.43232 -2.701 5.09459e-05 1
23.766 -3.42474 -2.10073 0.000179215 10
23.7591 -3.42374 -1.25802 0.000119835 10
23.7463 -3.4219 -0.418774 0.000120584 10
23.7361 -3.42044 0.418595 0.000120614 10
23.2982 -3.35733 1.23362 0.000152417 10
23.7472 -3.42203 4.66366 0.000130204 10
9.7381 -1.3686 -2.63496 0.000260198 4
10.8108 -1.51936 -2.5204 0.00017219 4
13.7767 -1.93619 -2.70424 0.000117556 1
16.8878 -2.37342 -2.70105 5.09452e-05 1
23.6949 -3.3301 -2.09341 0.00018154 10
23.7694 -3.34057 -1.25794 8.97354e-05 10
23.7673 -3.34028 -0.418937 9.03012e-05 10
23.7644 -3.33988 0.418886 9.03279e-05 10
23.2556 -3.26836 1.23075 0.000154378 10
23.6926 -3.32979 4.65064 0.000131902 10
9.75253 -1.33593 -2.63758 0.000468868 4
10.8149 -1.48146 -2.52013 0.000228448 4
13.8019 -1.89063 -2.70788 0.000117555 1
16.8863 -2.31314 -2.6995 5.09445e-05 1
23.6537 -3.24016 -2.08876 0.000183875 10
28.9234 -3.96202 -1.52997 8.1598e-05 10
28.9181 -3.9613 -0.509482 8.21514e-05 10
28.9184 -3.96133 0.509485 8.21733e-05 10
23.1951 -3.17734 1.22696 0.000156347 10
23.1948 -3.1773 2.04823 0.000154537 10
23.201 -3.17815 2.87533 0.000151835 10
23.2116 -3.1796 3.71069 0.000148277 10
23.6521 -3.23994 4.64043 0.000133608 10
23.1983 -3.17777 5.40576 0.000138804 10
23.1828 -3.17566 6.26983 0.000133018 10
9.75774 -1.30196 -2.63775 0.000342632 4
10.8143 -1.44293 -2.5188 0.000245494 4
13.8055 -1.84204 -2.70729 0.000117554 1
16.9012 -2.25511 -2.70061 5.09438e-05 1
23.6092 -3.15014 -2.08384 0.000186221 10
23.5964 -3.14843 -1.24759 0.000124515 10
23.5954 -3.1483 -0.41551 0.000125291 10
23.5958 -3.14836 0.415516 0.000125322 10
23.2223 -3.09852 1.22782 0.000115553 10
23.218 -3.09794 2.04931 0.000114222 10
23.2159 -3.09767 2.87582 0.00011223 10
23.2042 -3.0961 3.70775 0.000109607 10
23.6008 -3.14902 4.62819 0.000135322 10
23.2206 -3.09829 5.4084 0.000102615 10
23.2068 -3.09645 6.27335 9.8343e-05 10
9.74471 -1.26562 -2.63302 0.00013396 4
10.813 -1.40436 -2.51734 0.000245492 4
13.8129 -1.79399 -2.70751 0.000117552 1
16.909 -2.1961 -2.70062 5.09431e-05 1
23.5501 -3.05862 -2.07767 0.000188577 10
23.6927 -3.07715 -1.25211 9.01508e-05 10
23.6851 -3.07616 -0.416898 9.07186e-05 10
23.706 -3.07888 0.417265 9.07458e-05 10
23.3404 -3.03139 1.23349 0.00011291 10
23.3375 -3.03101 2.05891 0.000111607 10
23.3322 -3.03032 2.88889 0.000109658 10
23.3209 -3.02886 3.72469 0.000107089 10
23.5392 -3.05722 4.61399 0.000137043 10
23.3259 -3.02951 5.43044 0.000100246 10
23.3159 -3.02821 6.29995 9.60657e-05 10
9.76637 -1.23378 -2.63769 0.000340051 4
10.8413 -1.36958 -2.5228 0.000247195 4
13.8068 -1.74421 -2.70511 0.000117551 1
16.9113 -2.1364 -2.69978 5.09423e-05 1
23.5137 -2.97048 -2.07354 0.000190943 10
23.5059 -2.96949 -1.24168 0.000127669 10
23.5092 -2.96991 -0.413617 0.000128463 10
23.4876 -2.96718 0.413236 0.000128494 10
23.4539 -2.96292 1.23894 0.000110304 10
23.4601 -2.9637 2.06881 0.000109028 10
23.466 -2.96444 2.90416 0.000107121 10
23.448 -2.96217 3.74331 0.000104608 10
23.4831 -2.9666 4.60093 0.000138771 10
23.446 -2.96193 5.45597 9.79115e-05 10
23.4446 -2.96174 6.33189 9.38208e-05 10
9.7539 -1.19763 -2.63318 0.000231851 4
10.8273 -1.32942 -2.51845 0.00015343 4
13.8172 -1.69654 -2.70596 0.00011755 1
16.9303 -2.07877 -2.70163 5.09416e-05 1
23.4513 -2.87945 -2.06713 0.000193319 10
23.4868 -2.88382 -1.24013 9.27307e-05 10
23.4885 -2.88402 -0.413072 9.33129e-05 10
23.485 -2.88359 0.41301 9.33409e-05 10
23.4389 -2.87794 1.23761 0.00015269 10
23.4616 -2.88072 2.06803 0.000150916 10
23.4494 -2.87923 2.90085 0.000148268 10
23.4326 -2.87716 3.73923 0.000144782 10
23.4493 -2.87922 4.59232 0.000140507 10
23.4293 -2.87676 5.44971 0.000135501 10
23.4562 -2.88006 6.33227 0.000129834 10
9.75587 -1.16332 -2.6326 0.000368382 4
10.8429 -1.29294 -2.52103 0.000240371 4
13.8286 -1.64896 -2.70704 0.000117548 1
16.9381 -2.01975 -2.70174 5.09407e-05 1
23.4162 -2.79221 -2.06317 0.000195704 10
23.6254 -2.81716 -1.24693 9.0554e-05 10
23.608 -2.81508 -0.414998 9.11236e-05 10
23.6145 -2.81586 0.415112 9.11512e-05 10
23.3977 -2.79 1.23491 0.000154571 10
23.3948 -2.78966 2.06128 0.000152778 10
23.3924 -2.78937 2.89257 0.000150099 10
23.3846 -2.78844 3.72999 0.000146573 10
23.4007 -2.79036 4.58085 0.000142249 10
23.3931 -2.78946 5.43899 0.000137186 10
23.4058 -2.79098 6.31601 0.000131454 10
9.7568 -1.1289 -2.63177 0.000327162 4
10.858 -1.25631 -2.52348 0.000211388 4
13.8225 -1.59932 -2.70475 0.000117547 1
16.9507 -1.96127 -2.70265 5.09399e-05 1
23.3685 -2.70383 -2.05812 0.000198098 10
23.3444 -2.70104 -1.23159 0.000132448 10
23.3473 -2.70138 -0.410248 0.000133269 10
