VERSION 0.7
FIELDS x y z intensity label
SIZE 4 4 4 4 4
TYPE F F F F F
COUNT 1 1 1 1 1
WIDTH 1199
HEIGHT 1
VIEWPOINT 18.9869 52.4088 2.72873 0.967842 -3.26967e-05 0.000972079 -0.251556
POINTS 1199
DATA ascii
12.488 5.14718 -2.62553 3.76962e-05 4
19.7173 8.12688 -1.86582 0.000182519 6
9.05732 3.7702 -2.62876 9.31264e-05 4
10.5071 4.3737 -2.62753 4.68192e-05 4
12.4761 5.19328 -2.62681 4.79049e-05 4
9.05713 3.80726 -2.63255 3.88023e-05 4
10.4959 4.41207 -2.62856 7.70242e-05 4
12.4482 5.23276 -2.62479 5.41867e-05 4
9.05094 3.8419 -2.63463 0.000116406 4
10.4909 4.4531 -2.63117 8.00438e-05 4
9.0295 3.87005 -2.63231 0.000188834 4
10.4809 4.49213 -2.6326 0.00031262 4
12.404 5.31636 -2.62322 4.86879e-05 4
15.1877 6.50943 -2.61712 3.0226e-05 4
9.00979 3.89888 -2.63051 4.39745e-05 4
10.4634 4.52793 -2.63215 3.32248e-05 4
12.4024 5.36701 -2.62683 6.36074e-05 4
9.00963 3.93621 -2.63446 0.000103468 4
10.4408 4.56147 -2.63045 0.000259754 4
12.3859 5.41125 -2.62731 3.53368e-05 4
19.2773 8.42204 -1.84048 2.87316e-05 6
8.97893 3.96018 -2.62951 0.0001552 4
10.4283 4.59944 -2.63134 5.73867e-05 4
19.2264 8.47985 -1.83843 3.16989e-05 6
10.4081 4.63398 -2.6303 9.21194e-05 4
19.1964 8.5468 -1.83841 3.11893e-05 6
8.95408 4.02412 -2.6304 0.00012933 4
10.3971 4.67263 -2.63162 7.09762e-05 4
12.3076 5.53124 -2.62284 3.45497e-05 4
8.93842 4.05465 -2.62994 0.000147435 4
12.292 5.57591 -2.62366 5.41791e-05 4
8.9416 4.09378 -2.63506 0.00019399 4
10.3518 4.73941 -2.62846 0.000119297 4
12.2907 5.62713 -2.62756 3.53335e-05 4
8.92501 4.12393 -2.6344 0.000131912 4
10.3298 4.77303 -2.62709 6.64426e-05 4
8.91377 4.15656 -2.63535 0.000364692 4
10.3267 4.81541 -2.63057 7.24816e-05 4
12.2329 5.7043 -2.62365 3.84727e-05 4
10.3091 4.8511 -2.63039 6.04003e-05 4
8.87875 4.21594 -2.63363 7.50053e-05 4
10.2858 4.88407 -2.62878 4.83194e-05 4
12.2107 5.79807 -2.62751 4.55371e-05 4
8.85005 4.24023 -2.6295 0.000108627 4
10.2697 4.92041 -2.62903 7.24778e-05 4
12.1853 5.83821 -2.62641 8.32212e-05 4
8.84636 4.27649 -2.63282 0.000165524 4
10.2655 4.96255 -2.63239 6.64368e-05 4
12.1633 5.87997 -2.62608 9.57807e-05 4
8.82492 4.3042 -2.63089 0.00017328 4
10.246 4.99729 -2.63182 6.03959e-05 4
12.1275 5.91499 -2.6228 2.90476e-05 4
14.8674 7.25131 -2.61991 3.9829e-05 4
8.80773 4.33394 -2.63026 0.000126725 4
10.2144 5.02608 -2.62819 7.54935e-05 4
8.78684 4.36182 -2.62855 0.000131896 4
10.1963 5.06149 -2.62808 2.8687e-05 4
12.1001 6.00653 -2.62587 5.96625e-05 4
8.77822 4.3958 -2.63055 0.000139652 4
10.1777 5.09661 -2.62785 5.73728e-05 4
8.75679 4.42337 -2.62874 0.000100858 4
10.1743 5.1394 -2.63159 9.20965e-05 4
12.045 6.08436 -2.62306 3.68947e-05 4
8.75379 4.46028 -2.6325 0.000139647 4
10.1452 5.16925 -2.62872 3.77437e-05 4
12.0453 6.13739 -2.62778 4.78834e-05 4
8.72898 4.48609 -2.62973 0.000155161 4
10.1183 5.20009 -2.62643 4.83109e-05 4
12.0079 6.1712 -2.6243 9.9689e-05 4
8.71129 4.5155 -2.62913 0.000178432 4
10.1037 5.23726 -2.62738 4.68002e-05 4
11.9971 6.2187 -2.62667 4.6311e-05 4
11.9648 6.25506 -2.62437 4.55248e-05 4
8.68982 4.58162 -2.63224 0.000232728 4
10.0781 5.31359 -2.63031 6.49136e-05 4
11.9459 6.29837 -2.62503 5.57271e-05 4
8.68682 4.61886 -2.6362 0.000113776 4
10.0687 5.35361 -2.6327 0.000114728 4
8.64892 4.63751 -2.6296 0.000100845 4
10.0378 5.38223 -2.62953 6.79297e-05 4
8.64052 4.67191 -2.63198 0.000142215 4
8.61529 4.69721 -2.62928 0.000134455 4
9.98788 5.44557 -2.62634 0.000107173 4
11.8703 6.47191 -2.62802 3.68856e-05 4
8.61924 4.73847 -2.63551 0.000111182 4
9.99172 5.493 -2.63238 8.15098e-05 4
8.58651 4.75958 -2.63057 0.000103422 4
9.95996 5.5209 -2.62907 5.58479e-05 4
14.4595 8.01504 -2.61846 4.01512e-05 4
8.58157 4.79607 -2.63417 0.000475734 4
9.93569 5.55287 -2.62777 3.47154e-05 4
11.7943 6.5916 -2.62632 0.000149098 4
14.4304 8.06488 -2.61828 6.48571e-05 4
8.56127 4.82403 -2.63309 0.000465382 4
9.93175 5.59625 -2.63187 0.000153951 4
11.7708 6.63248 -2.62623 0.000144385 4
14.4212 8.12594 -2.62174 6.41681e-05 4
8.54248 4.8528 -2.63251 0.000496396 4
9.90787 5.62845 -2.63074 0.000188661 4
11.749 6.67438 -2.62656 0.000164782 4
14.3922 8.17592 -2.62164 5.69597e-05 4
8.52424 4.88188 -2.63212 0.00045502 4
9.87811 5.65724 -2.62806 8.90457e-05 4
11.7159 6.70977 -2.62438 0.000160069 4
8.51454 4.91587 -2.63441 0.000524813 4
9.8675 5.697 -2.63051 9.80985e-05 4
11.6951 6.75216 -2.62497 4.70776e-05 4
14.3277 8.27211 -2.62035 4.49464e-05 4
8.50346 4.94913 -2.63631 0.000403295 4
9.84455 5.72966 -2.62971 8.14951e-05 4
11.6751 6.79507 -2.6258 5.25682e-05 4
8.48059 4.97553 -2.63459 0.000196473 4
9.82854 5.76637 -2.63079 6.79107e-05 4
8.46672 5.00721 -2.63569 0.000276606 4
9.80922 5.80115 -2.63103 0.000158454 4
11.624 6.87439 -2.62503 3.45201e-05 4
8.438 5.03006 -2.6322 6.20411e-05 4
9.77354 5.8262 -2.6269 5.13074e-05 4
8.41184 5.05434 -2.62953 9.04745e-05 4
9.75591 5.86194 -2.62764 8.60129e-05 4
11.5722 6.95329 -2.62424 3.76556e-05 4
8.40578 5.09072 -2.63317 5.68683e-05 4
8.39029 5.12146 -2.63391 9.82246e-05 4
9.73152 5.94014 -2.63218 7.99723e-05 4
11.5349 7.04094 -2.62686 5.80482e-05 4
8.37525 5.15249 -2.63481 0.000261064 4
9.70978 5.9735 -2.63192 0.000117692 4
8.3605 5.18373 -2.63585 0.000144745 4
9.68632 6.00577 -2.63123 7.54411e-05 4
11.4818 7.11903 -2.62602 4.54939e-05 4
8.33811 5.21023 -2.63451 0.00031016 4
9.65144 6.03089 -2.62746 6.18598e-05 4
8.32465 5.24231 -2.63602 0.000261044 4
9.64019 6.07075 -2.63015 0.000101085 4
11.4403 7.20437 -2.62798 3.6863e-05 4
8.28543 5.25809 -2.6294 0.000105966 4
9.62216 6.10641 -2.63103 7.99601e-05 4
11.4081 7.23979 -2.62636 7.45073e-05 4
8.28867 5.30082 -2.63628 0.000118885 4
11.378 7.27651 -2.62525 7.6073e-05 4
8.26696 5.32769 -2.63527 0.000142142 4
9.56742 6.16578 -2.62777 5.12919e-05 4
8.23945 5.35076 -2.63244 0.000100789 4
9.54604 6.19927 -2.62782 0.000137277 4
8.2161 5.37646 -2.63096 8.2696e-05 4
9.54119 6.24358 -2.63247 3.62037e-05 4
8.20153 5.40791 -2.63233 6.46045e-05 4
9.49841 6.26304 -2.62668 7.84387e-05 4
11.2773 7.43602 -2.62573 6.42988e-05 4
8.19194 5.44271 -2.63533 0.000113701 4
9.47739 6.29676 -2.62693 6.03355e-05 4
11.2562 7.47858 -2.62687 8.54668e-05 4
8.16239 5.46424 -2.63194 0.00013437 4
9.47027 6.33979 -2.63108 3.92167e-05 4
11.227 7.51581 -2.62617 3.99873e-05 4
8.14582 5.49443 -2.63277 0.000315243 4
9.45012 6.37419 -2.63165 5.12816e-05 4
11.1904 7.54801 -2.62376 4.07697e-05 4
13.7187 9.25338 -2.62091 3.18772e-05 4
8.1331 5.52725 -2.63488 0.000111107 4
9.42664 6.40633 -2.63132 7.99362e-05 4
11.1748 7.59437 -2.62629 3.528e-05 4
8.11665 5.55759 -2.63582 0.000113688 4
9.39911 6.4357 -2.62989 9.65234e-05 4
11.1411 7.62847 -2.62462 5.17417e-05 4
13.6529 9.34833 -2.62074 4.42118e-05 4
8.09984 5.5877 -2.63668 0.000328134 4
9.37489 6.4673 -2.62941 0.000202089 4
8.06888 5.60802 -2.63296 3.10039e-05 4
9.35562 6.50232 -2.63036 0.000135726 4
11.0835 7.70324 -2.62366 4.93854e-05 4
8.05532 5.6404 -2.63494 6.45894e-05 4
9.32619 6.53027 -2.62847 0.000137229 4
11.0726 7.75311 -2.62747 4.78155e-05 4
13.561 9.49549 -2.62204 3.52948e-05 4
8.02879 5.66368 -2.63271 0.000242849 4
9.31056 6.56788 -2.63052 6.63503e-05 4
11.0509 7.79554 -2.62876 2.90015e-05 4
8.00629 5.68978 -2.63183 0.000183423 4
9.28221 6.59652 -2.629 4.6745e-05 4
11.0241 7.83445 -2.62888 3.21354e-05 4
7.97994 5.71307 -2.62971 0.000144667 4
9.26462 6.63282 -2.63055 6.03139e-05 4
10.9822 7.86245 -2.6254 5.79977e-05 4
7.97992 5.7553 -2.63631 0.000232493 4
9.23928 6.66358 -2.62995 0.000125147 4
7.94207 5.77025 -2.63044 8.52447e-05 4
9.21774 6.69707 -2.63045 5.42784e-05 4
10.928 7.93967 -2.62565 5.01555e-05 4
13.3993 9.73516 -2.62323 3.76822e-05 4
7.9215 5.79766 -2.63031 0.000201481 4
10.9021 7.97916 -2.62611 6.03405e-05 4
7.92043 5.83944 -2.63671 0.000113652 4
9.1715 6.76181 -2.63067 5.57819e-05 4
10.8668 8.01168 -2.62431 3.29114e-05 4
7.89281 5.86171 -2.63431 9.8151e-05 4
9.13747 6.78608 -2.62768 5.27646e-05 4
10.8505 8.05832 -2.62716 3.83948e-05 4
7.87958 5.89467 -2.63675 8.78164e-05 4
9.13069 6.83063 -2.63258 9.94949e-05 4
10.8212 8.09527 -2.62688 6.42493e-05 4
7.85184 5.91678 -2.63436 0.000121389 4
9.10736 6.86289 -2.63274 3.31637e-05 4
10.7826 8.12529 -2.62439 4.70094e-05 4
7.83915 5.95024 -2.63705 0.000131716 4
9.07775 6.89039 -2.63112 3.91918e-05 4
10.7601 8.1674 -2.62584 3.68222e-05 4
7.79912 5.96288 -2.63058 0.000116216 4
7.77969 5.99116 -2.63106 7.23096e-05 4
9.03722 6.95959 -2.63339 0.000129624 4
10.6976 8.23826 -2.62455 5.64028e-05 4
7.76509 6.02322 -2.63322 0.000165273 4
9.00762 6.98702 -2.63185 6.78236e-05 4
10.6831 8.28664 -2.62806 7.75498e-05 4
7.73847 6.04595 -2.63133 0.000108457 4
8.99038 7.02405 -2.63396 3.4664e-05 4
10.6483 8.31933 -2.62663 9.39949e-05 4
7.72852 6.08174 -2.63515 0.000111035 4
8.95868 7.04978 -2.63187 7.68603e-05 4
10.6095 8.34883 -2.62424 3.28965e-05 4
7.69482 6.09884 -2.6309 0.000185913 4
10.6008 8.40205 -2.62932 5.6391e-05 4
7.67185 6.12435 -2.63034 0.000224637 4
8.90852 7.11158 -2.63166 0.000140145 4
7.65753 6.15681 -2.63278 0.000167826 4
8.88874 7.14673 -2.63317 0.000209455 4
12.9008 10.3725 -2.62182 5.47602e-05 4
7.64317 6.18932 -2.63526 0.000108437 4
8.85098 7.16738 -2.62938 3.76701e-05 4
12.8519 10.4073 -2.61925 3.42228e-05 4
7.62433 6.21826 -2.63623 0.000113597 4
8.83772 7.20787 -2.6329 4.82156e-05 4
10.473 8.54156 -2.62695 4.54163e-05 4
12.8198 10.4556 -2.62014 3.31937e-05 4
7.58972 6.23426 -2.63177 0.000144572 4
8.80553 7.23294 -2.63081 6.93069e-05 4
10.4399 8.5754 -2.62614 3.91498e-05 4
7.58345 6.27357 -2.63717 3.09786e-05 4
8.7723 7.25708 -2.62844 0.000132581 4
7.5426 6.28426 -2.63058 5.42106e-05 4
8.75065 7.29076 -2.62956 7.83399e-05 4
7.53958 6.32646 -2.63722 0.000105836 4
8.72687 7.32271 -2.63008 3.46487e-05 4
10.3624 8.69505 -2.6294 6.26293e-05 4
7.51559 6.35117 -2.63656 8.51816e-05 4
8.69627 7.34892 -2.62857 7.98391e-05 4
10.3136 8.71567 -2.62473 6.49742e-05 4
7.49214 6.37631 -2.63613 0.000198749 4
8.67463 7.38269 -2.6298 5.27215e-05 4
10.2909 8.7582 -2.62671 4.30527e-05 4
7.45694 6.39138 -2.63158 0.000113567 4
8.65356 7.417 -2.63125 3.31377e-05 4
10.2699 8.80239 -2.62919 4.53984e-05 4
7.44015 6.42217 -2.63355 8.25906e-05 4
8.61854 7.43932 -2.62848 7.98279e-05 4
10.2213 8.82277 -2.62461 5.08746e-05 4
7.41734 6.4478 -2.63342 0.000170336 4
8.60511 7.48031 -2.63233 0.000146093 4
12.4968 10.8633 -2.6226 3.14619e-05 4
7.38952 6.46903 -2.63155 5.41958e-05 4
8.56861 7.50125 -2.62916 8.58445e-05 4
7.37604 6.50285 -2.63482 0.000190968 4
8.55247 7.54002 -2.63227 8.88523e-05 4
10.1443 8.94339 -2.62874 4.22576e-05 4
7.34381 6.52014 -2.63142 0.000175477 4
8.53151 7.57463 -2.63394 8.43303e-05 4
12.381 10.9924 -2.62231 4.03439e-05 4
7.33006 6.55383 -2.63467 0.000105798 4
8.49158 7.59235 -2.62978 0.000121972 4
10.0742 9.0074 -2.62682 4.30349e-05 4
12.3433 11.0362 -2.62246 3.04265e-05 4
7.31502 6.58648 -2.63751 5.67673e-05 4
8.46214 7.61934 -2.62888 4.06553e-05 4
12.3082 11.0823 -2.62321 3.41844e-05 4
7.27868 6.5999 -2.6327 0.000157394 4
8.44718 7.65943 -2.63252 6.17327e-05 4
10.0148 9.08085 -2.62779 3.2859e-05 4
7.25993 6.62922 -2.63427 0.000110945 4
8.40838 7.6779 -2.62877 0.000173144 4
9.98485 9.11742 -2.62827 3.75508e-05 4
7.24513 6.66224 -2.63732 0.000180601 4
8.38263 7.70822 -2.62911 0.000106892 4
9.95337 9.1526 -2.62838 5.55405e-05 4
12.179 11.1992 -2.62053 3.04168e-05 4
7.22245 6.68805 -2.63755 8.51367e-05 4
8.37233 7.75286 -2.63435 0.00011893 4
15.9388 14.7595 -2.66725 3.14478e-05 4
7.19357 6.70811 -2.63554 0.000139309 4
8.3305 7.76832 -2.62971 0.000168602 4
7.16804 6.73124 -2.63478 0.000126404 4
8.31887 7.81194 -2.63463 0.000100855 4
9.85773 9.25702 -2.62857 2.89382e-05 4
15.4687 14.526 -2.60548 2.88325e-05 4
7.14235 6.75419 -2.63399 0.000149615 4
8.27481 7.8251 -2.62931 0.00010085 4
15.2422 14.4138 -2.57579 4.19386e-05 4
7.12416 6.78424 -2.63599 0.000177982 4
8.24759 7.85407 -2.62936 4.51541e-05 4
12.0016 11.429 -2.62488 7.00324e-05 4
15.0015 14.2858 -2.54353 4.18139e-05 4
7.08591 6.79515 -2.6306 0.000100594 4
8.22515 7.88764 -2.63096 0.00013094 4
9.76508 9.36437 -2.62988 6.0211e-05 4
11.9537 11.4632 -2.62314 5.80707e-05 4
14.7909 14.184 -2.51621 3.27985e-05 4
7.07327 6.83058 -2.63475 8.25353e-05 4
11.9016 11.4933 -2.62051 6.04568e-05 4
7.04704 6.85295 -2.63387 0.000286281 4
8.17964 7.95436 -2.63411 5.26715e-05 4
9.68221 9.41553 -2.6252 4.4566e-05 4
11.8789 11.5517 -2.62437 6.14762e-05 4
7.01462 6.86922 -2.6307 0.000193425 4
6.99218 6.89522 -2.63129 0.000593143 4
8.10838 7.99595 -2.62907 0.000124893 4
9.63706 9.50343 -2.63088 6.56675e-05 4
6.97628 6.92774 -2.63439 0.000193407 4
8.08421 8.02797 -2.63031 4.21304e-05 4
6.96013 6.96013 -2.63745 0.000149561 4
8.05135 8.05134 -2.62874 7.67333e-05 4
9.5589 9.5589 -2.6277 3.67376e-05 4
11.909 11.9089 -2.66748 3.56058e-05 4
6.93308 6.98165 -2.63642 8.25129e-05 4
8.02364 8.07985 -2.62889 6.61976e-05 4
9.52949 9.59625 -2.6288 4.53326e-05 4
6.90688 7.004 -2.63574 0.000116028 4
7.99825 8.11072 -2.62983 7.82292e-05 4
6.87398 7.01948 -2.63252 5.15658e-05 4
7.97847 8.14735 -2.63266 0.000103798 4
9.46774 9.66814 -2.63033 5.39228e-05 4
11.9236 12.176 -2.69917 5.10813e-05 1
26.32 26.8771 -1.97148 2.99159e-05 10
26.3285 26.8858 -0.656839 3.01296e-05 10
26.3221 26.8793 0.656679 3.01238e-05 10
6.8466 7.04051 -2.63143 0.000159846 4
7.94356 8.16855 -2.63053 7.06993e-05 4
11.8901 12.2268 -2.70123 5.10767e-05 1
14.6834 15.0993 -2.58605 3.41372e-05 4
25.9316 26.666 -1.94935 3.16846e-05 10
25.9196 26.6537 -0.648954 3.19097e-05 10
25.9236 26.6578 0.649054 3.19037e-05 10
6.8335 7.07629 -2.63587 0.000146949 4
7.92254 8.20403 -2.63304 8.12244e-05 4
9.38432 9.71775 -2.62593 3.43808e-05 4
11.8462 12.2671 -2.70098 5.1072e-05 1
14.4925 15.0075 -2.56163 4.25449e-05 4
25.5282 26.4352 -1.92595 3.35191e-05 10
25.5326 26.4397 -0.641571 3.37561e-05 10
25.5436 26.4512 0.641848 3.37499e-05 10
6.79807 7.08896 -2.63173 0.000108273 4
7.88773 8.22524 -2.63099 6.01628e-05 4
9.35618 9.75653 -2.62757 3.8285e-05 4
11.7916 12.2962 -2.6983 5.10674e-05 1
14.3034 14.9154 -2.53739 4.12042e-05 4
25.1578 26.2343 -1.9049 3.54203e-05 10
25.1545 26.2309 -0.634368 3.56694e-05 10
25.1471 26.2231 0.63418 3.5663e-05 10
6.78879 7.12893 -2.63776 0.000118579 4
7.85893 8.25269 -2.63098 5.86554e-05 4
9.32773 9.79508 -2.62917 2.8907e-05 4
11.7504 12.3392 -2.69871 5.10627e-05 1
14.1318 14.8399 -2.51613 3.93242e-05 4
24.7772 26.0187 -1.88295 3.73889e-05 10
24.7768 26.0182 -0.62713 3.76506e-05 10
24.7765 26.0179 0.627121 3.7644e-05 10
6.75625 7.14453 -2.63479 9.53741e-05 4
7.82616 8.27593 -2.62967 5.56442e-05 4
9.29679 9.83108 -2.63011 3.12486e-05 4
11.7184 12.3918 -2.70126 5.10579e-05 1
24.4137 25.8168 -1.86216 3.94256e-05 10
24.4105 25.8133 0.620133 3.96934e-05 10
24.4066 25.8092 1.86162 3.0725e-05 10
24.4107 25.8135 4.36225 2.96374e-05 10
24.4253 25.829 5.63042 2.87927e-05 10
6.72696 7.16349 -2.63311 0.000167541 4
9.26461 9.86581 -2.63073 6.71798e-05 4
11.5877 12.3397 -2.68106 9.94123e-05 4
24.0521 25.6129 -1.84139 4.15311e-05 10
24.0523 25.6131 0.613302 4.18119e-05 10
24.0527 25.6135 1.84144 3.23662e-05 10
24.0695 25.6314 4.31725 3.12267e-05 10
24.0684 25.6303 5.56874 3.03415e-05 10
6.70501 7.19024 -2.63432 6.70131e-05 4
7.77253 8.33502 -2.63114 0.000175936 4
9.22488 9.89247 -2.62924 0.00014138 4
11.4327 12.2601 -2.65509 0.000109106 4
23.6967 25.4116 -1.82096 4.37059e-05 10
23.7003 25.4154 0.606584 4.40001e-05 10
23.7162 25.4325 1.82245 3.40615e-05 10
23.7116 25.4276 4.26895 3.28687e-05 10
23.7049 25.4203 5.50512 3.19419e-05 10
23.7046 25.4201 8.02441 2.95043e-05 10
6.6892 7.22368 -2.638 0.000309276 4
7.74105 8.35957 -2.63034 9.17218e-05 4
9.19788 9.9328 -2.63141 0.000139026 4
11.294 12.1964 -2.63274 9.31639e-05 4
23.3624 25.2291 -1.80203 4.59505e-05 10
23.3617 25.2283 0.600169 4.62585e-05 10
23.3568 25.2231 1.8016 3.58112e-05 10
23.369 25.2363 4.22311 3.45637e-05 10
23.3645 25.2313 5.44648 3.35942e-05 10
23.3814 25.2496 7.94479 3.10435e-05 10
23.3738 25.2414 9.21786 2.95042e-05 10
6.65326 7.23536 -2.63377 0.00013659 4
9.14672 9.94699 -2.62669 0.000153855 4
11.1515 12.1271 -2.60937 9.91742e-05 4
23.0232 25.0376 -1.7826 4.82656e-05 10
23.0212 25.0354 0.593663 4.85879e-05 10
23.0326 25.0477 1.78332 3.76159e-05 10
23.0427 25.0588 4.17993 3.63123e-05 10
23.0381 25.0537 5.39075 3.5299e-05 10
23.0338 25.049 7.85634 3.26322e-05 10
23.0302 25.0451 9.11676 3.10223e-05 10
6.63953 7.27121 -2.63836 0.000123698 4
7.69287 8.42477 -2.63389 5.41245e-05 4
9.12827 9.99673 -2.63139 0.000163215 4
10.9993 12.0458 -2.58359 0.000114908 4
22.6994 24.859 -1.76423 5.06516e-05 10
22.7098 24.8704 0.587868 5.09885e-05 10
22.7041 24.8642 1.7646 3.94759e-05 10
22.7022 24.862 4.13386 3.81148e-05 10
22.6995 24.8592 5.33181 3.70565e-05 10
22.7135 24.8745 7.77666 3.42707e-05 10
22.7077 24.8681 9.0234 3.25883e-05 10
6.60887 7.28857 -2.63628 0.000118538 4
7.66223 8.45026 -2.63348 0.000117263 4
10.8647 11.982 -2.56177 0.000102226 4
22.3813 24.6832 -1.7462 5.31092e-05 10
22.3888 24.6914 -0.581786 5.34687e-05 10
22.3878 24.6903 0.581761 5.34609e-05 10
22.3746 24.6757 1.74567 4.13916e-05 10
22.3789 24.6805 2.91475 4.08176e-05 10
22.3877 24.6902 4.09227 3.99715e-05 10
22.3815 24.6834 5.27732 3.88671e-05 10
22.3789 24.6805 6.47593 3.75225e-05 10
22.3973 24.7008 7.69787 3.59593e-05 10
22.396 24.6993 8.93375 3.42027e-05 10
6.57678 7.30425 -2.63363 3.34983e-05 4
7.63092 8.475 -2.63288 4.05885e-05 4
9.05405 10.0555 -2.63017 6.45291e-05 4
10.7223 11.9083 -2.53798 9.85263e-05 4
22.0715 24.5128 -1.72869 5.56382e-05 10
22.0706 24.5119 -0.575738 5.60132e-05 10
22.0691 24.5102 0.575698 5.60052e-05 10
22.0611 24.5014 1.72788 4.33632e-05 10
22.071 24.5123 2.88578 4.27649e-05 10
22.0694 24.5105 4.0497 4.18827e-05 10
22.0787 24.5209 5.22607 4.07311e-05 10
22.0818 24.5243 6.41468 3.93288e-05 10
22.0838 24.5265 7.61951 3.76983e-05 10
22.075 24.5167 8.83978 3.58656e-05 10
6.5473 7.32275 -2.63204 4.63799e-05 4
7.60004 8.50018 -2.63244 8.56817e-05 4
10.5836 11.8371 -2.51491 0.000109334 4
21.0262 23.5165 -1.65324 6.81119e-05 10
21.0215 23.5112 -0.550508 6.85619e-05 10
21.7605 24.3378 0.56986 5.86223e-05 10
21.0257 23.5159 1.6532 5.30861e-05 10
21.0343 23.5255 2.76095 5.23687e-05 10
21.0347 23.5261 3.87489 5.13105e-05 10
21.0356 23.527 4.99857 4.99283e-05 10
21.7667 24.3447 6.34781 4.11876e-05 10
21.7591 24.3362 7.53674 3.94882e-05 10
21.7726 24.3514 8.7527 3.75776e-05 10
6.53135 7.35643 -2.63594 3.8648e-05 4
7.56504 8.52071 -2.6306 0.000118745 4
9.06618 10.2115 -2.65434 3.15745e-05 4
10.5347 11.8655 -2.51314 4.56385e-05 4
21.4499 24.1596 0.563933 6.13125e-05 10
20.7359 23.3554 3.83484 5.36283e-05 10
20.7314 23.3504 8.36685 4.61041e-05 10
6.50766 7.38149 -2.63676 0.000108209 4
7.53306 8.54457 -2.62984 8.41684e-05 4
10.4869 11.8951 -2.51162 5.46822e-05 4
21.1689 24.0114 0.558745 6.40758e-05 10
6.48431 7.40697 -2.63776 0.000126237 4
7.51923 8.58914 -2.63546 8.7169e-05 4
9.08072 10.3728 -2.67973 4.95064e-05 4
10.4441 11.9302 -2.51133 5.15301e-05 4
20.8788 23.8496 0.553281 6.69127e-05 10
20.1642 23.0333 4.84855 5.68963e-05 10
6.45742 7.42841 -2.63735 0.000131383 4
7.47764 8.60204 -2.63139 0.000129243 4
9.08276 10.4485 -2.69108 8.27001e-05 4
10.8669 12.5009 -2.62346 5.21393e-05 4
20.587 23.6826 0.547736 6.98235e-05 10
19.9061 22.8994 4.8057 5.93404e-05 10
6.43148 7.45094 -2.63737 9.78881e-05 4
7.45953 8.64194 -2.63562 4.65846e-05 4
9.0911 10.5321 -2.70443 5.98936e-05 4
10.8304 12.5472 -2.62522 5.58823e-05 4
20.4289 23.6671 -1.63851 7.03231e-05 10
20.3066 23.5254 0.542458 7.28081e-05 10
20.3166 23.537 8.33125 4.68811e-05 10
6.39138 7.45695 -2.63158 0.00011849 4
7.42426 8.66203 -2.63382 7.66344e-05 4
9.06397 10.5751 -2.70733 0.000117602 1
10.7911 12.5902 -2.62633 6.20095e-05 4
19.3492 22.575 -2.60126 8.65872e-05 10
19.3606 22.5883 -1.55913 8.77204e-05 10
19.3541 22.5808 -0.519116 8.82861e-05 10
19.351 22.5772 0.519033 8.82759e-05 10
19.3547 22.5815 1.55866 6.83726e-05 10
20.0419 23.3833 3.7814 3.62686e-05 10
20.0509 23.3938 8.25573 4.88918e-05 10
6.37657 7.49245 -2.63624 8.7575e-05 4
7.39223 8.68584 -2.6332 9.91677e-05 4
9.02239 10.6013 -2.70594 0.000117593 1
10.7368 12.6157 -2.62382 3.84966e-05 4
19.2233 22.5873 -2.59492 3.26279e-05 10
19.2304 22.5956 -1.55499 3.30671e-05 10
19.219 22.5822 -0.517602 3.32929e-05 10
19.2168 22.5797 0.517544 3.33018e-05 10
19.7756 23.2363 8.17575 5.09533e-05 10
6.34111 7.50369 -2.63239 7.98436e-05 4
7.36765 8.71843 -2.63527 6.76101e-05 4
8.98863 10.6366 -2.70693 0.000117584 1
10.6922 12.6525 -2.62368 5.62061e-05 4
19.1842 22.7014 -2.60032 3.27448e-05 10
19.1749 22.6904 -1.5569 3.31859e-05 10
19.1732 22.6884 -0.5185 3.34127e-05 10
19.1694 22.6839 0.518396 3.34216e-05 10
19.5136 23.0913 8.1007 5.30651e-05 10
6.323 7.53546 -2.63577 4.12074e-05 4
7.32872 8.73403 -2.63224 6.91082e-05 4
8.95146 10.6679 -2.70694 0.000117575 1
10.6456 12.687 -2.62311 4.56416e-05 4
19.1193 22.7855 -2.6023 3.28569e-05 10
19.1268 22.7944 -1.55945 3.32997e-05 10
19.1238 22.7909 -0.519313 3.35275e-05 10
19.1152 22.7806 0.519078 3.35365e-05 10
19.2545 22.9466 4.74436 6.23683e-05 10
19.2544 22.9465 8.02631 5.52277e-05 10
6.28759 7.5466 -2.63198 8.75611e-05 4
7.29096 8.75088 -2.62963 3.15474e-05 4
8.91556 10.7008 -2.70736 0.000117565 1
18.99 22.7925 -2.59551 8.71474e-05 10
18.9951 22.7986 -1.55519 8.82872e-05 10
18.9927 22.7958 -0.517911 8.88567e-05 10
18.9815 22.7822 0.517602 8.8847e-05 10
18.9854 22.7869 1.55439 6.8816e-05 10
19.001 22.8057 2.59701 6.79126e-05 10
18.9931 22.7962 3.64321 6.65787e-05 10
18.9893 22.7916 4.69857 6.4835e-05 10
18.9942 22.7976 5.76792 6.27083e-05 10
18.9938 22.7971 6.85048 6.02311e-05 10
18.9948 22.7983 7.9512 5.74409e-05 10
6.27448 7.58454 -2.63756 0.000319323 4
7.27594 8.79509 -2.63527 0.000337986 4
8.87498 10.728 -2.70639 0.000117556 1
18.7458 22.6598 -2.57293 9.05193e-05 10
18.7453 22.6592 -1.54121 9.16987e-05 10
18.7385 22.651 -0.513131 9.2288e-05 10
18.7412 22.6542 0.513204 9.22782e-05 10
18.75 22.6649 1.54159 7.14756e-05 10
18.7341 22.6456 2.57132 7.05411e-05 10
18.7526 22.6679 3.61223 6.91612e-05 10
18.7469 22.6611 4.65815 6.73572e-05 10
18.7388 22.6513 5.71432 6.51565e-05 10
18.7437 22.6572 6.78875 6.25928e-05 10
18.7522 22.6675 7.88274 5.97048e-05 10
6.24063 7.59747 -2.63446 0.000229179 4
7.23215 8.80456 -2.63052 0.000277882 4
8.84145 10.7638 -2.70761 0.000117546 1
10.4589 12.7329 -2.60981 0.000111031 4
18.4988 22.5208 -2.5498 9.39652e-05 10
18.4958 22.5171 -1.52714 9.5185e-05 10
18.504 22.5272 -0.50886 9.57945e-05 10
18.4878 22.5074 0.508413 9.57845e-05 10
18.506 22.5296 1.52799 7.41936e-05 10
18.4967 22.5183 2.54952 7.32274e-05 10
18.5016 22.5243 3.57902 7.18007e-05 10
18.4932 22.514 4.61461 6.99352e-05 10
18.503 22.5259 5.66636 6.76593e-05 10
18.5029 22.5257 6.72997 6.50076e-05 10
18.5072 22.531 7.81274 6.20198e-05 10
6.21604 7.62161 -2.63529 7.46724e-05 4
7.20499 8.83419 -2.63185 0.00026735 4
8.78607 10.7728 -2.70215 3.77399e-05 4
10.337 12.6744 -2.59041 0.000116123 4
18.2514 22.3784 -2.52645 9.74841e-05 10
18.2588 22.3875 -1.51402 9.87447e-05 10
18.246 22.3718 -0.503909 9.93749e-05 10
18.2578 22.3862 0.504234 9.93648e-05 10
18.259 22.3878 1.51403 7.6969e-05 10
18.263 22.3926 2.52806 7.59706e-05 10
18.2533 22.3808 3.54608 7.44962e-05 10
18.2505 22.3773 4.57351 7.25682e-05 10
18.2552 22.3831 5.61439 7.02157e-05 10
18.2521 22.3793 6.66713 6.74745e-05 10
18.264 22.3939 7.74305 6.43854e-05 10
6.19713 7.65282 -2.63859 0.00010814 4
7.16949 8.85359 -2.63015 0.000336419 4
8.6816 10.7209 -2.68151 0.0001899 4
10.2161 12.6158 -2.57114 9.69261e-05 4
18.0855 22.3337 -2.51426 3.99969e-05 10
18.0816 22.3289 -1.50578 4.05279e-05 10
18.0706 22.3154 -0.501214 4.08009e-05 10
18.0653 22.3088 0.501067 4.08118e-05 10
18.0655 22.309 1.50444 3.16254e-05 10
18.0707 22.3154 2.5122 3.12278e-05 10
18.0743 22.3199 3.52641 3.06348e-05 10
18.0703 22.3149 4.54784 2.98553e-05 10
18.0657 22.3093 5.58001 2.89012e-05 10
6.1659 7.66883 -2.63667 0.000133881 4
7.14143 8.88214 -2.63121 0.000265813 4
8.57732 10.668 -2.66079 0.000235854 4
10.1151 12.5806 -2.55675 0.000106303 4
18.0153 22.4065 -2.51536 4.01013e-05 10
18.0261 22.42 -1.50767 4.0634e-05 10
18.0171 22.4087 -0.501895 4.0908e-05 10
18.0206 22.4131 0.501993 4.09189e-05 10
18.021 22.4135 1.50723 3.17083e-05 10
18.0211 22.4137 2.51617 3.13095e-05 10
18.0155 22.4068 3.53019 3.07146e-05 10
18.0153 22.4065 4.55366 2.99326e-05 10
18.0099 22.3998 5.58689 2.89754e-05 10
6.13848 7.68954 -2.63641 0.000296066 4
7.11184 8.90885 -2.63175 8.40937e-05 4
8.48025 10.623 -2.64217 0.000243033 4
10.0052 12.5333 -2.54003 0.000103638 4
17.978 22.5206 -2.52111 4.01998e-05 10
17.963 22.5018 -1.50894 4.07342e-05 10
17.964 22.5031 -0.5026 4.1009e-05 10
17.9588 22.4966 0.502456 4.10201e-05 10
17.9638 22.5029 1.50902 3.17866e-05 10
17.9705 22.5113 2.52006 3.13865e-05 10
17.9583 22.496 3.53434 3.07898e-05 10
17.9622 22.5009 4.56007 3.00055e-05 10
17.9561 22.4933 5.59454 2.90455e-05 10
6.10981 7.70866 -2.63563 0.000108123 4
8.38071 10.5738 -2.62264 0.000202664 4
17.9131 22.6007 -2.52306 4.02925e-05 10
17.914 22.6018 -1.51144 4.08285e-05 10
17.9115 22.5987 -0.503337 4.11042e-05 10
17.9229 22.613 0.503656 4.11152e-05 10
17.9052 22.5907 1.5107 3.18603e-05 10
17.9056 22.5913 2.52201 3.14591e-05 10
17.9112 22.5983 3.54057 3.08606e-05 10
17.9001 22.5843 4.56428 3.0074e-05 10
17.8995 22.5835 5.60141 2.91113e-05 10
6.09078 7.74 -2.63906 7.98004e-05 4
7.08273 9.00055 -2.64417 0.000145169 4
8.28821 10.5324 -2.60518 0.000205193 4
9.82097 12.4802 -2.51531 4.51678e-05 4
17.8628 22.6996 -2.52713 4.03793e-05 10
17.8613 22.6977 -1.51368 4.09169e-05 10
17.8533 22.6875 -0.503924 4.11934e-05 10
17.8677 22.7057 0.504328 4.12045e-05 10
17.8682 22.7064 1.51426 3.19294e-05 10
17.8566 22.6917 2.52625 3.15271e-05 10
17.8649 22.7023 3.54707 3.0927e-05 10
17.8627 22.6995 4.57493 3.01382e-05 10
17.8626 22.6993 5.61464 2.91728e-05 10
6.06017 7.75667 -2.63752 5.92034e-05 4
7.07674 9.05781 -2.65372 0.000140035 4
8.19189 10.4851 -2.58639 0.000269015 4
9.77465 12.511 -2.51462 4.75194e-05 4
17.8095 22.7951 -2.53082 4.04604e-05 10
17.8065 22.7912 -1.51576 4.09994e-05 10
17.8012 22.7845 -0.504696 4.12767e-05 10
17.8132 22.7999 0.505035 4.12879e-05 10
17.8135 22.8002 1.51636 3.19938e-05 10
17.801 22.7842 2.52961 3.15905e-05 10
17.8014 22.7848 3.55023 3.09889e-05 10
17.8103 22.7962 4.58187 3.01981e-05 10
17.7953 22.7769 5.61842 2.92301e-05 10
6.02918 7.77277 -2.63582 8.23654e-05 4
7.07112 9.11602 -2.66353 0.000120339 4
8.10154 10.4444 -2.56936 0.000280575 4
9.72494 12.5373 -2.51307 5.34046e-05 4
17.7615 22.8979 -2.53534 4.05356e-05 10
17.7545 22.8889 -1.51813 4.1076e-05 10
17.761 22.8974 -0.505819 4.1354e-05 10
17.7511 22.8845 0.505535 4.13653e-05 10
17.7613 22.8977 1.51871 3.20537e-05 10
17.7471 22.8794 2.53329 3.16494e-05 10
17.7489 22.8817 3.55566 3.10463e-05 10
17.7475 22.8799 4.58623 3.02535e-05 10
17.7536 22.8878 5.63047 2.92832e-05 10
5.99561 7.78546 -2.63301 0.000118394 4
7.05441 9.16034 -2.66926 0.000143599 4
8.00959 10.4007 -2.5517 0.000246613 4
9.6806 12.5705 -2.51294 4.6724e-05 4
17.7118 22.9992 -2.53969 4.0605e-05 10
17.7067 22.9927 -1.5209 4.11468e-05 10
17.7051 22.9905 -0.506509 4.14254e-05 10
17.7003 22.9843 0.50637 4.14367e-05 10
17.6921 22.9737 1.51965 3.2109e-05 10
17.6921 22.9736 2.53687 3.17038e-05 10
17.6967 22.9796 3.56125 3.10992e-05 10
17.6971 22.9802 4.5939 3.03047e-05 10
17.6897 22.9705 5.63558 2.93321e-05 10
5.97013 7.8086 -2.63377 0.00011324 4
7.05937 9.23327 -2.68332 0.000123409 4
7.90431 10.3384 -2.52964 0.000206463 4
9.64126 12.6102 -2.51414 5.0645e-05 4
17.6582 23.0959 -2.54355 4.06686e-05 10
17.6436 23.0769 -1.52239 4.12116e-05 10
17.6515 23.0872 -0.507278 4.14909e-05 10
17.6435 23.0768 0.507048 4.15023e-05 10
17.6423 23.0751 1.52227 3.21597e-05 10
17.6438 23.0771 2.54147 3.17536e-05 10
17.6472 23.0816 3.56748 3.11477e-05 10
17.6343 23.0646 4.59845 3.03514e-05 10
17.6354 23.0662 5.64392 2.93768e-05 10
5.9452 7.83251 -2.63482 7.20575e-05 4
7.05547 9.29523 -2.69415 6.54517e-05 4
7.83845 10.3268 -2.52008 0.000121992 4
9.59004 12.6344 -2.51226 4.98545e-05 4
17.6014 23.1889 -2.54701 4.07264e-05 10
17.59 23.1739 -1.52473 4.12705e-05 10
17.5888 23.1724 -0.507798 4.15505e-05 10
17.5987 23.1854 0.508083 4.1562e-05 10
17.5951 23.1807 1.52517 3.22058e-05 10
17.5959 23.1818 2.54622 3.17988e-05 10
17.5817 23.163 3.57057 3.11918e-05 10
17.5878 23.171 4.6074 3.03938e-05 10
17.5901 23.1742 5.65528 2.94172e-05 10
5.92651 7.86474 -2.63869 0.000174987 4
7.04339 9.34689 -2.70198 9.94592e-05 4
7.79749 10.3476 -2.51851 0.000124653 4
9.56039 12.6871 -2.51608 5.14192e-05 4
17.5434 23.2809 -2.55036 4.07784e-05 10
17.5451 23.2831 -1.52788 4.13237e-05 10
17.5349 23.2696 -0.508584 4.16042e-05 10
17.5473 23.2861 0.508944 4.16157e-05 10
17.5438 23.2814 1.52777 3.22474e-05 10
17.5284 23.2609 2.54818 3.18396e-05 10
17.5422 23.2793 3.57903 3.12314e-05 10
17.5362 23.2714 4.61515 3.04319e-05 10
17.5313 23.2649 5.66245 2.94535e-05 10
5.89337 7.87783 -2.63616 5.66101e-05 4
7.02713 9.39336 -2.70831 0.000227242 1
7.7545 10.3656 -2.5163 0.000112178 4
9.50392 12.7042 -2.51288 5.33759e-05 4
17.4862 23.3742 -2.55389 4.08247e-05 10
17.4892 23.3783 -1.53011 4.13709e-05 10
17.4879 23.3766 -0.509584 4.1652e-05 10
17.478 23.3633 0.509293 4.16636e-05 10
17.4759 23.3605 1.52894 3.22843e-05 10
17.4868 23.3751 2.55399 3.18759e-05 10
17.4886 23.3775 3.58471 3.12666e-05 10
17.4803 23.3664 4.62186 3.04657e-05 10
17.4757 23.3603 5.67079 2.94855e-05 10
5.85914 7.88934 -2.63315 0.000108068 4
6.9968 9.4212 -2.70928 0.000227226 1
7.72399 10.4004 -2.51816 0.000131754 4
9.45964 12.7374 -2.51291 4.55216e-05 4
17.4262 23.4644 -2.55708 4.08651e-05 10
17.4325 23.4728 -1.5323 4.14123e-05 10
17.4321 23.4723 -0.510341 4.1694e-05 10
17.4338 23.4746 0.510391 4.17055e-05 10
17.421 23.4573 1.53129 3.23168e-05 10
17.4212 23.4577 2.55635 3.19077e-05 10
17.4257 23.4637 3.58858 3.12973e-05 10
17.4316 23.4717 4.63063 3.04952e-05 10
17.4274 23.466 5.68165 2.95134e-05 10
5.83486 7.91422 -2.63464 9.00512e-05 4
6.97382 9.45907 -2.71315 0.000227211 1
8.0361 10.8999 -2.6323 7.94654e-05 4
9.42222 12.78 -2.51481 5.17948e-05 4
17.3721 23.5629 -2.56119 4.08999e-05 10
17.38 23.5736 -1.53491 4.1448e-05 10
17.3838 23.5788 -0.511333 4.173e-05 10
17.3711 23.5615 0.510959 4.17417e-05 10
17.3789 23.5722 1.53482 3.23446e-05 10
17.3812 23.5752 2.56253 3.19349e-05 10
17.3681 23.5575 3.59364 3.13237e-05 10
17.3676 23.5569 4.63545 3.05204e-05 10
17.3668 23.5558 5.68868 2.95371e-05 10
5.81352 7.94317 -2.63751 9.77642e-05 4
6.9313 9.47042 -2.70945 0.000227195 1
7.99307 10.9211 -2.63068 4.90773e-05 4
9.36935 12.8016 -2.5126 5.57125e-05 4
17.3295 23.6778 -2.56709 4.09288e-05 10
17.3229 23.6687 -1.53716 4.14777e-05 10
17.3199 23.6646 -0.511881 4.17602e-05 10
17.3166 23.6601 0.511783 4.1772e-05 10
17.327 23.6744 1.53753 3.2368e-05 10
17.314 23.6565 2.56479 3.19577e-05 10
17.3215 23.6668 3.60107 3.13457e-05 10
17.3206 23.6656 4.64492 3.05412e-05 10
17.3162 23.6596 5.69912 2.95567e-05 10
5.78875 7.96753 -2.63887 0.00055568 4
6.89937 9.49616 -2.70991 0.000227179 1
7.95205 10.9451 -2.62974 0.000119178 4
9.33195 12.8443 -2.51458 5.60986e-05 4
17.2582 23.7538 -2.56878 8.87292e-05 10
17.2468 23.7382 -1.53775 8.98868e-05 10
17.2471 23.7386 -0.512177 9.04666e-05 10
17.2735 23.7749 0.512958 4.17964e-05 10
17.252 23.7454 1.53821 7.00687e-05 10
17.249 23.7411 2.56741 6.9155e-05 10
17.2622 23.7594 3.60597 6.7805e-05 10
17.253 23.7467 4.64899 3.05578e-05 10
17.2636 23.7613 5.70907 6.38849e-05 10
5.75761 7.98313 -2.63737 0.000599379 4
6.87348 9.53031 -2.71279 0.000227163 1
7.91467 10.974 -2.63003 7.39927e-05 4
9.2912 12.8826 -2.51571 5.68769e-05 4
17.0336 23.6176 -2.54761 9.15138e-05 10
17.0409 23.6278 -1.52674 9.27036e-05 10
17.0514 23.6424 -0.508813 9.32997e-05 10
17.2047 23.8549 0.513385 4.18151e-05 10
17.0497 23.64 1.52752 7.22651e-05 10
17.0476 23.6371 2.54971 7.1326e-05 10
17.052 23.6431 3.57926 6.99382e-05 10
17.1996 23.8478 4.657 3.05702e-05 10
17.0528 23.6442 5.6666 6.5908e-05 10
17.0457 23.6344 6.72751 6.33268e-05 10
5.72525 7.99694 -2.63531 0.000429572 4
6.83368 9.54518 -2.71022 0.000227147 1
7.87636 11.0016 -2.63004 6.07466e-05 4
9.23969 12.9058 -2.51394 5.21641e-05 4
16.9292 23.6465 -2.54433 4.34731e-05 10
16.9327 23.6513 -1.52442 4.4054e-05 10
16.9272 23.6437 -0.507565 4.43529e-05 10
17.1583 23.9665 0.514494 4.18279e-05 10
16.9303 23.648 1.52421 3.43785e-05 10
16.9201 23.6338 2.54296 3.39445e-05 10
16.928 23.6448 3.57054 3.32969e-05 10
17.1422 23.944 4.66406 3.05783e-05 10
16.9215 23.6357 5.65036 3.14037e-05 10
16.9223 23.6369 6.71135 3.01868e-05 10
5.69338 8.01136 -2.6335 0.000498995 4
6.79397 9.56004 -2.70769 0.00022713 1
9.19722 12.9417 -2.51466 6.3531e-05 4
17.0971 24.058 -2.58218 4.09878e-05 10
17.093 24.0522 0.51505 4.1835e-05 10
17.0946 24.0544 4.67392 3.05821e-05 10
5.67946 8.05115 -2.64004 0.000460385 4
6.76667 9.59236 -2.71013 0.000227114 1
7.80325 11.0618 -2.63135 7.55306e-05 4
9.14953 12.9703 -2.51399 5.37208e-05 4
17.0529 24.1741 -2.58823 4.09884e-05 10
17.0423 24.159 0.516061 4.18364e-05 10
17.0413 24.1575 4.68237 3.05817e-05 10
5.63964 8.05424 -2.63459 0.000563231 4
6.73217 9.61454 -2.70974 0.000227098 1
7.75939 11.0816 -2.62959 9.26531e-05 4
9.10109 12.9977 -2.51313 5.17544e-05 4
16.9955 24.2721 -2.59236 4.09834e-05 10
16.9829 24.2542 0.516824 4.1832e-05 10
16.9898 24.2639 4.69146 3.05771e-05 10
5.61815 8.08345 -2.63771 3.60035e-05 4
6.67053 9.59763 -2.6984 0.000422278 4
7.72272 11.1115 -2.63029 0.00012145 4
9.05696 13.0313 -2.51349 4.03795e-05 4
16.9319 24.3618 -2.59561 4.09727e-05 10
16.9335 24.3642 0.517906 4.18219e-05 10
16.9346 24.3657 4.69968 3.05684e-05 10
6.5961 9.56159 -2.68178 0.000441552 4
7.69308 11.1518 -2.63344 6.92829e-05 4
9.01391 13.0664 -2.51418 4.70387e-05 4
16.879 24.4675 -2.60058 4.09565e-05 10
16.9232 24.5315 -1.56188 4.10526e-05 10
16.9274 24.5377 -0.520335 4.13344e-05 10
16.8818 24.4716 0.518934 4.18061e-05 10
16.8723 24.4579 4.70608 3.05555e-05 10
5.57426 8.14099 -2.64372 0.000230606 4
6.5149 9.51476 -2.66225 0.000393282 4
7.63514 11.1508 -2.62692 0.000262664 4
8.97563 13.1086 -2.51625 5.80078e-05 4
16.818 24.562 -2.60437 4.09348e-05 10
16.812 24.5533 0.519418 4.17847e-05 10
16.8113 24.5523 4.71294 3.05384e-05 10
5.5568 8.17658 -2.64897 0.000224402 4
6.44701 9.48648 -2.64802 0.000396266 4
7.55157 11.1118 -2.61149 0.00023521 4
8.92692 13.1356 -2.51544 4.93794e-05 4
16.7666 24.6713 -2.60974 4.09075e-05 10
16.7613 24.6634 0.520508 4.17576e-05 10
16.7503 24.6473 4.71991 3.05172e-05 10
5.5531 8.23281 -2.66089 0.000230155 4
6.37202 9.44691 -2.63075 0.000402333 4
7.46816 11.072 -2.596 0.000216378 4
8.87311 13.1549 -2.5132 5.44678e-05 4
16.7182 24.7858 -2.61566 4.08748e-05 10
16.7079 24.7705 0.521532 4.1725e-05 10
16.6973 24.7548 4.72931 3.04919e-05 10
5.53562 8.26901 -2.66633 0.000177216 4
6.30283 9.41505 -2.61574 0.000388458 4
7.39687 11.0493 -2.58461 0.000251841 4
8.82717 13.1859 -2.51321 5.1327e-05 4
16.6517 24.874 -2.61882 4.08366e-05 10
16.6429 24.8608 0.522209 4.16867e-05 10
16.6393 24.8555 4.73742 3.04625e-05 10
5.52248 8.312 -2.67395 0.000229569 4
6.24385 9.39775 -2.60486 0.000407611 4
7.32444 11.0242 -2.57273 0.000242679 4
8.79344 13.2352 -2.51674 5.1321e-05 4
16.5876 24.9663 -2.62242 4.07929e-05 10
16.5976 24.9814 0.523521 4.1643e-05 10
16.5881 24.9671 4.74763 3.04291e-05 10
5.51925 8.37037 -2.68652 0.000210465 4
6.17335 9.36237 -2.58906 0.000496841 4
7.23479 10.9721 -2.55468 0.000247917 4
8.74178 13.2576 -2.51519 5.01399e-05 4
16.5451 25.0919 -2.62953 4.07439e-05 10
16.5606 25.1154 -1.57663 7.90104e-05 10
16.5548 25.1067 -0.524934 7.95266e-05 10
16.5411 25.0859 0.524499 4.15938e-05 10
16.5516 25.1018 1.57577 3.93197e-05 10
16.5661 25.1238 2.63288 3.88021e-05 10
16.5629 25.119 3.69435 3.8037e-05 10
16.5257 25.0626 4.75478 3.03917e-05 10
16.5599 25.1145 5.84748 3.58158e-05 10
16.5663 25.1241 6.9478 3.43939e-05 10
5.50911 8.41881 -2.69587 0.000162777 4
6.10345 9.32704 -2.57339 0.000547184 4
7.16565 10.9503 -2.54375 0.000266321 4
8.69385 13.2856 -2.51473 5.56174e-05 4
16.3926 25.0506 -2.61919 7.94045e-05 10
16.4019 25.0647 -1.56984 8.04509e-05 10
16.3958 25.0554 -0.52266 8.09757e-05 10
16.4722 25.1722 0.525097 4.1539e-05 10
16.4037 25.0675 1.57001 6.27163e-05 10
16.3957 25.0552 2.61967 6.18923e-05 10
16.3947 25.0537 3.67631 6.06744e-05 10
16.3946 25.0535 5.81994 5.71383e-05 10
16.3941 25.0528 6.91222 5.48745e-05 10
5.49125 8.45578 -2.70156 0.000181487 4
6.03488 9.2929 -2.55814 0.000497711 4
7.08622 10.9118 -2.52905 0.000251909 4
8.64584 13.3134 -2.51426 4.817e-05 4
16.1941 24.9367 -2.60136 4.31314e-05 10
16.1937 24.9361 -1.55823 8.26694e-05 10
16.1938 24.9362 -0.518992 8.32071e-05 10
16.4133 25.2743 0.526029 4.14788e-05 10
16.2025 24.9497 1.55908 6.4446e-05 10
16.1958 24.9394 2.60164 6.36019e-05 10
16.195 24.9381 3.65103 6.23541e-05 10
16.4147 25.2764 4.77349 3.03047e-05 10
16.2107 24.9623 5.78556 5.87306e-05 10
16.2079 24.958 6.87041 5.64106e-05 10
5.48565 8.51207 -2.71341 0.000220154 4
5.97433 9.27035 -2.54617 0.000456796 4
7.02534 10.9012 -2.52089 0.000131534 4
8.60135 13.3467 -2.51486 4.54232e-05 4
16.1405 25.0452 -2.60678 4.3065e-05 10
16.1368 25.0394 -1.56116 4.36472e-05 10
16.1436 25.0499 -0.520182 4.39472e-05 10
16.368 25.3982 0.527415 4.14133e-05 10
16.139 25.0429 1.56138 3.40626e-05 10
16.1423 25.048 2.60707 3.36284e-05 10
16.1438 25.0503 3.65919 3.29803e-05 10
16.3521 25.3735 4.78102 3.02553e-05 10
16.1306 25.0298 5.78811 3.10861e-05 10
16.1268 25.0239 6.87301 2.9869e-05 10
5.45722 8.53321 -2.71406 0.000390503 1
5.89693 9.22078 -2.52689 0.000284678 4
6.97769 10.9107 -2.51744 8.79774e-05 4
8.55711 13.3804 -2.51557 4.22855e-05 4
16.312 25.5063 -2.64883 4.04944e-05 10
16.2999 25.4874 -1.58554 4.10458e-05 10
16.2963 25.4817 -0.527965 4.13299e-05 10
16.3048 25.4951 0.528241 4.13423e-05 10
16.2987 25.4856 1.58542 3.20328e-05 10
16.3004 25.4882 2.64694 3.16217e-05 10
16.2997 25.4871 3.71466 3.10082e-05 10
16.3052 25.4957 4.7933 3.02019e-05 10
16.3024 25.4914 5.88166 2.92153e-05 10
5.42255 8.54457 -2.71164 0.000390478 1
5.84762 9.21437 -2.51953 0.000241411 4
6.94015 10.9359 -2.51766 0.000122624 4
8.50465 13.4012 -2.51388 4.69783e-05 4
16.2472 25.6015 -2.65281 4.04189e-05 10
16.2469 25.601 -1.58906 4.09697e-05 10
16.2398 25.5897 -0.529025 4.12536e-05 10
16.2451 25.5981 0.529198 4.1266e-05 10
16.2481 25.6029 1.58918 3.19736e-05 10
16.2466 25.6005 2.65271 3.15629e-05 10
16.2366 25.5848 3.72061 3.09501e-05 10
16.2445 25.5972 4.80168 3.01447e-05 10
16.2305 25.5751 5.88789 2.91592e-05 10
5.39959 8.5744 -2.71511 0.000390453 1
5.81705 9.23732 -2.52023 0.000232893 4
6.90852 10.9705 -2.52006 0.000139494 4
9.09251 14.4387 -2.70253 5.07495e-05 1
16.1948 25.7169 -2.6589 4.03382e-05 10
16.1847 25.7009 -1.59175 4.08884e-05 10
16.1866 25.7039 -0.530214 4.1172e-05 10
16.1846 25.7008 0.530149 4.11844e-05 10
16.1766 25.688 1.59095 3.19102e-05 10
16.1823 25.6971 2.65685 3.15001e-05 10
16.1797 25.6929 3.72809 3.0888e-05 10
16.1807 25.6946 4.80932 3.00835e-05 10
16.1854 25.702 5.90404 2.90992e-05 10
5.36085 8.57915 -2.71067 0.000390428 1
5.7964 9.27617 -2.5253 0.000220977 4
6.87342 10.9998 -2.52125 0.000101279 4
9.0376 14.4632 -2.70119 5.07432e-05 1
16.1274 25.8092 -2.6626 4.02523e-05 10
16.1284 25.8108 -1.59506 4.08019e-05 10
16.1322 25.817 -0.531381 4.10851e-05 10
16.1276 25.8095 0.531227 4.10976e-05 10
16.1296 25.8127 1.59517 3.18428e-05 10
16.1213 25.7994 2.66159 3.14332e-05 10
16.116 25.7909 3.73414 3.08219e-05 10
16.12 25.7974 4.81802 3.00185e-05 10
16.1169 25.7924 5.91184 2.90356e-05 10
5.33823 8.60968 -2.71441 0.000390403 1
5.76338 9.29538 -2.52503 0.000283849 4
6.83126 11.0177 -2.51987 0.000104823 4
8.99146 14.5017 -2.70252 5.0737e-05 1
16.0765 25.9288 -2.66913 4.01613e-05 10
16.0715 25.9206 -1.59837 4.07102e-05 10
16.0696 25.9176 -0.532295 4.09931e-05 10
16.0696 25.9176 0.532294 4.10056e-05 10
16.0616 25.9048 1.59739 3.17714e-05 10
16.0716 25.9209 2.66832 3.13623e-05 10
16.0579 25.8988 3.74161 3.07519e-05 10
16.0611 25.9039 4.8274 2.99497e-05 10
16.0558 25.8954 5.92257 2.89682e-05 10
5.31132 8.63342 -2.71603 0.000390378 1
5.98719 9.73204 -2.63796 0.000182747 4
6.80046 11.054 -2.52273 0.000139455 4
8.9512 14.55 -2.70567 5.07307e-05 1
16.018 26.0368 -2.67448 4.00653e-05 10
16.0115 26.0262 -1.60143 4.06134e-05 10
16.0142 26.0306 -0.533465 4.08959e-05 10
16.0155 26.0328 0.53351 4.09084e-05 10
16.0015 26.0101 1.60043 3.16959e-05 10
15.998 26.0044 2.67115 3.12875e-05 10
15.9967 26.0023 3.74848 3.06781e-05 10
16.0008 26.009 4.83655 2.98772e-05 10
16.0043 26.0147 5.93704 2.88972e-05 10
5.2724 8.63757 -2.71153 0.000390353 1
5.94395 9.73775 -2.63386 0.00010934 4
6.75803 11.0714 -2.52131 0.000148323 4
8.89185 14.5672 -2.70308 5.07243e-05 1
15.9541 26.137 -2.67904 3.99643e-05 10
15.9573 26.1423 -1.60513 4.05114e-05 10
15.9423 26.1177 -0.534105 4.07935e-05 10
15.9515 26.1328 0.534414 4.08061e-05 10
15.9396 26.1133 1.60335 3.16165e-05 10
15.945 26.1221 2.67751 3.12088e-05 10
15.9498 26.13 3.75883 3.06004e-05 10
15.9415 26.1165 4.84616 2.98008e-05 10
15.9385 26.1115 5.94641 2.88225e-05 10
5.2494 8.66779 -2.71525 0.000390328 1
5.90643 9.75267 -2.63231 0.000178226 4
6.71355 11.0854 -2.51914 8.17034e-05 4
8.83671 14.5911 -2.70179 5.0718e-05 1
15.8964 26.248 -2.68471 3.98582e-05 10
15.8844 26.2282 -1.60699 4.04045e-05 10
15.8945 26.245 -0.53557 4.06862e-05 10
15.8878 26.2339 0.535343 4.06987e-05 10
15.8913 26.2397 1.60769 3.15331e-05 10
15.8797 26.2205 2.6819 3.11262e-05 10
15.8868 26.2322 3.76553 3.05189e-05 10
15.8859 26.2308 4.85705 2.97207e-05 10
15.8822 26.2246 5.9595 2.87443e-05 10
5.22155 8.69011 -2.71651 0.000390302 1
5.87378 9.77561 -2.63295 0.000167729 4
6.6765 11.1116 -2.51978 0.000103896 4
8.79126 14.6311 -2.70349 5.07117e-05 1
15.8306 26.3466 -1.61085 4.02925e-05 10
15.8279 26.3421 -0.536422 4.05737e-05 10
15.8262 26.3393 0.536364 4.05863e-05 10
15.8322 26.3491 1.611 3.14459e-05 10
15.8258 26.3386 2.68831 3.10397e-05 10
15.8274 26.3412 3.77323 3.04336e-05 10
15.8216 26.3315 4.86545 2.9637e-05 10
15.8204 26.3295 5.97076 2.86624e-05 10
5.19228 8.71012 -2.71709 0.000390277 1
5.8453 9.80559 -2.63551 0.000167716 4
6.63482 11.13 -2.51869 0.000118092 4
8.73988 14.6613 -2.70341 5.07053e-05 1
15.7692 26.4531 -1.61399 4.01756e-05 10
15.7673 26.4499 -0.537492 4.04562e-05 10
15.768 26.451 0.537516 4.04688e-05 10
15.7698 26.454 1.61404 3.13547e-05 10
15.7647 26.4455 2.69358 3.09494e-05 10
15.7573 26.4331 3.7785 3.03445e-05 10
15.7581 26.4345 4.87429 2.95496e-05 10
5.16026 8.72552 -2.71626 0.000390251 1
5.80422 9.81439 -2.63242 0.000139253 4
6.60633 11.1707 -2.52266 0.000134062 4
8.69656 14.7051 -2.70587 5.06989e-05 1
15.7119 26.5673 -1.6176 4.00538e-05 10
15.7063 26.5579 -0.538571 4.03338e-05 10
15.7097 26.5636 0.538686 4.03464e-05 10
15.7006 26.5482 1.61643 3.12598e-05 10
15.7025 26.5515 2.69879 3.08554e-05 10
15.7034 26.5529 3.78777 3.02518e-05 10
15.7048 26.5553 4.88642 2.94586e-05 10
5.12205 8.73032 -2.71217 0.000684638 4
5.7683 9.83183 -2.63168 0.000137745 4
6.55907 11.1797 -2.5195 0.000122508 4
8.64536 14.7357 -2.70593 5.06925e-05 1
15.656 26.6851 -1.62143 3.99271e-05 10
15.651 26.6764 -0.539863 4.02065e-05 10
15.6526 26.6792 0.539919 4.02192e-05 10
15.6494 26.6737 1.62074 3.1161e-05 10
15.6433 26.6634 2.70459 3.07575e-05 10
15.6455 26.6672 3.79625 3.01554e-05 10
15.6459 26.6677 4.89703 2.9364e-05 10
5.06778 8.70732 -2.69951 0.000626614 4
5.74426 9.86963 -2.63641 0.000187139 4
6.52372 11.2089 -2.52094 0.000131373 4
8.59506 14.7678 -2.7063 5.0686e-05 1
16.5558 28.4458 1.72489 3.98234e-05 10
16.5584 28.4502 2.87995 3.92779e-05 10
16.557 28.4478 4.04148 3.84718e-05 10
16.5533 28.4414 5.21208 3.74184e-05 10
16.5632 28.4583 6.40044 3.61346e-05 10
16.5524 28.4399 8.81715 3.2962e-05 10
5.01308 8.68291 -2.6865 0.000628302 4
5.70073 9.87396 -2.63224 0.000170657 4
6.48452 11.2315 -2.52093 0.00013136 4
8.52936 14.7733 -2.70183 5.06795e-05 1
16.3657 28.3462 1.71538 4.08315e-05 10
16.3519 28.3223 2.86121 4.02737e-05 10
16.3653 28.3455 4.01882 3.94495e-05 10
16.363 28.3416 5.1833 3.83723e-05 10
16.3578 28.3325 6.35926 3.70594e-05 10
16.3561 28.3297 8.76523 3.38143e-05 10
4.94541 8.63517 -2.66637 0.000714392 4
5.66703 9.89519 -2.63261 0.000270935 4
6.43734 11.2402 -2.51782 0.000133123 4
8.47963 14.8063 -2.70244 5.0673e-05 1
4.89576 8.6181 -2.65581 0.000652443 4
5.6405 9.92909 -2.63637 0.000240978 4
6.40422 11.2735 -2.52025 0.000102051 4
8.4397 14.8566 -2.70622 5.06665e-05 1
4.84798 8.60377 -2.64616 0.000736121 4
5.59675 9.93263 -2.63211 0.000176603 4
8.38747 14.8854 -2.70612 5.066e-05 1
4.79092 8.57233 -2.63133 0.000850573 4
5.56985 9.96606 -2.6358 0.000116728 4
6.33114 11.3282 -2.52255 6.74291e-05 4
8.33159 14.9076 -2.70486 5.06534e-05 1
4.7385 8.54848 -2.61892 0.000854907 4
5.53128 9.97868 -2.63401 0.000514509 4
6.29299 11.3529 -2.52312 6.47611e-05 4
8.28026 14.938 -2.70511 5.06468e-05 1
4.67965 8.51224 -2.6028 0.000835769 4
5.46859 9.94732 -2.62068 0.000497158 4
6.24979 11.3683 -2.52169 3.72561e-05 4
8.22059 14.9532 -2.70265 5.06402e-05 1
4.63608 8.50318 -2.59506 0.000715061 4
5.41023 9.92307 -2.6093 0.000509414 4
6.20887 11.3879 -2.52121 4.52351e-05 4
8.17591 14.9957 -2.70516 5.06335e-05 1
4.5842 8.4783 -2.58257 0.000866346 4
5.35208 9.89846 -2.5979 0.0005644 4
6.16513 11.4022 -2.51959 0.000102877 4
8.11827 15.0144 -2.70341 5.06269e-05 1
4.53725 8.46193 -2.57274 0.000851246 4
5.30116 9.88662 -2.58992 0.000593506 4
6.1341 11.44 -2.52322 0.000100207 4
8.06735 15.0455 -2.70393 5.06202e-05 1
4.48697 8.43875 -2.56092 0.00084144 4
5.24185 9.85849 -2.57774 0.00059538 4
6.08609 11.4463 -2.51989 0.000117931 4
8.01377 15.0717 -2.70358 5.06135e-05 1
4.42962 8.40153 -2.54491 0.00097679 4
5.17975 9.82428 -2.56405 0.000584896 4
6.05031 11.4754 -2.52165 0.000110826 4
7.96209 15.1014 -2.70392 5.06067e-05 1
17.0163 32.2744 -1.91212 3.04579e-05 10
17.0071 32.2568 -0.63651 3.06763e-05 10
17.0161 32.274 0.636848 3.06746e-05 10
4.37986 8.3779 -2.53311 0.000703456 4
5.12965 9.81211 -2.55619 0.000400444 4
6.00953 11.4952 -2.52136 0.000117907 4
7.91291 15.136 -2.70514 5.06e-05 1
16.8171 32.1681 -1.90234 3.11945e-05 10
16.8146 32.1633 -0.633503 3.14177e-05 10
16.8142 32.1626 0.633489 3.1416e-05 10
4.33827 8.36936 -2.52593 0.000338827 4
5.07146 9.78383 -2.54419 0.000302068 4
5.96847 11.5143 -2.52098 9.13022e-05 4
7.16888 13.8302 -2.46727 0.000106167 10
16.614 32.0516 -1.89201 3.19394e-05 10
16.6086 32.0412 -0.629952 3.21674e-05 10
16.6092 32.0424 0.629975 3.21657e-05 10
4.30885 8.38412 -2.52583 0.000428572 4
5.02242 9.77258 -2.53669 0.000140682 4
5.92408 11.527 -2.51921 8.15432e-05 4
7.11875 13.8516 -2.46665 0.000106153 10
15.331 29.8308 1.75775 3.53505e-05 10
15.3302 29.8293 2.9342 3.48624e-05 10
4.28177 8.40344 -2.52714 0.000425647 4
4.95823 9.73106 -2.52141 0.000134021 4
5.89348 11.5666 -2.52335 0.000121416 4
7.07872 13.8928 -2.46956 0.000106139 10
15.1462 29.7261 1.74845 3.6138e-05 10
15.1453 29.7243 2.91865 3.56403e-05 10
15.1368 29.7075 4.09383 3.49048e-05 10
15.146 29.7256 5.284 3.39436e-05 10
15.1395 29.7129 6.48212 3.27724e-05 10
15.1475 29.7286 7.70295 3.14099e-05 10
15.1369 29.7077 8.9339 2.98784e-05 10
4.25728 8.42798 -2.53003 0.000454571 4
4.93144 9.76258 -2.5251 0.000252752 4
5.84698 11.5751 -2.52073 9.30466e-05 4
7.02939 13.9158 -2.46929 0.000106126 10
