VERSION 0.7
FIELDS x y z intensity label
SIZE 4 4 4 4 4
TYPE F F F F F
COUNT 1 1 1 1 1
WIDTH 1198
HEIGHT 1
VIEWPOINT 18.9231 52.4701 2.727 0.968519 0.000296507 0.000891861 -0.24894
POINTS 1198
DATA ascii
8.82386 7.248 -2.63629 6.1448e-05 4
7.57328 6.26516 -2.63364 0.000146531 4
8.7854 7.26791 -2.63236 7.64294e-05 4
10.437 8.63423 -2.63298 5.20964e-05 4
7.55932 6.29819 -2.63641 0.000228779 4
8.76331 7.30131 -2.63336 4.4955e-05 4
10.3889 8.6557 -2.62845 3.49868e-05 4
7.54727 6.33291 -2.6399 0.000143941 4
8.74567 7.33849 -2.63574 8.39096e-05 4
7.50994 6.34639 -2.63458 8.48172e-05 4
8.72225 7.37087 -2.63642 4.49481e-05 4
10.3504 8.74678 -2.6341 4.43081e-05 4
7.48564 6.37077 -2.63384 5.1401e-05 4
8.68215 7.38909 -2.63208 0.000112362 4
10.3111 8.77539 -2.63186 3.96403e-05 4
7.46393 6.39736 -2.63405 9.76556e-05 4
10.2689 8.80152 -2.62893 3.3419e-05 4
7.45333 6.43355 -2.63821 0.000105358 4
8.6447 7.4619 -2.63646 0.000136311 4
7.4268 6.45602 -2.63678 0.000151603 4
8.62205 7.49503 -2.63751 9.28638e-05 4
7.39793 6.4764 -2.63454 0.000115622 4
8.58388 7.51461 -2.63384 0.000247118 4
10.1867 8.91776 -2.63165 5.59412e-05 4
12.4711 10.9176 -2.62518 3.86019e-05 4
7.37075 6.49819 -2.63293 0.000192691 4
8.57013 7.55558 -2.6377 0.000131786 4
10.1627 8.95962 -2.63351 3.3406e-05 4
7.35534 6.53038 -2.63555 0.000100192 4
8.5424 7.5843 -2.6373 0.000118298 4
10.1326 8.99618 -2.63385 8.77794e-05 4
7.337 6.56003 -2.63716 0.000174683 4
8.50047 7.6003 -2.63253 4.34226e-05 4
10.0824 9.01466 -2.62894 3.57297e-05 4
12.3668 11.0572 -2.62746 6.26195e-05 4
7.32136 6.59218 -2.6398 0.000321087 4
8.48011 7.63552 -2.63446 4.64135e-05 4
10.0665 9.06389 -2.63303 4.34927e-05 4
12.3293 11.1014 -2.62772 3.55363e-05 4
7.28634 6.60685 -2.63547 0.000128426 4
8.44362 7.6562 -2.63141 0.000140726 4
16.2349 14.7209 -2.69085 2.99841e-05 4
7.26629 6.63503 -2.63658 0.000164375 4
15.9803 14.592 -2.65708 2.97953e-05 4
7.2512 6.66782 -2.63953 8.47499e-05 4
8.40025 7.72443 -2.63464 8.38235e-05 4
9.9641 9.16246 -2.63121 5.51262e-05 4
12.2144 11.2317 -2.62815 3.68758e-05 4
15.735 14.4691 -2.62468 3.50972e-05 4
7.22452 6.68998 -2.63831 0.0001284 4
7.19575 6.71015 -2.63634 0.000190019 4
8.33926 7.77648 -2.63247 0.000112245 4
9.90244 9.23417 -2.63189 3.49321e-05 4
12.1373 11.3182 -2.6285 7.23795e-05 4
15.262 14.232 -2.56229 3.63721e-05 4
7.16579 6.72912 -2.63395 7.4462e-05 4
8.31711 7.81028 -2.63407 7.03348e-05 4
12.1076 11.3698 -2.63065 7.54136e-05 4
15.048 14.131 -2.53462 3.70277e-05 4
7.14478 6.75648 -2.63488 0.000118104 4
8.29429 7.84352 -2.6355 3.14236e-05 4
9.84233 9.30742 -2.63311 5.66562e-05 4
12.0559 11.4007 -2.62805 6.25547e-05 4
7.12433 6.7844 -2.63606 0.000123231 4
8.271 7.87636 -2.63682 4.63834e-05 4
9.79972 9.33214 -2.63041 5.04422e-05 4
12.0175 11.4441 -2.62837 6.62654e-05 4
7.10139 6.80999 -2.63635 0.000156595 4
8.23369 7.89582 -2.6337 4.93718e-05 4
7.07948 6.83658 -2.63706 0.000125781 4
8.20754 7.92593 -2.63417 7.62957e-05 4
9.75023 9.41568 -2.63471 4.42249e-05 4
7.04767 6.85356 -2.63411 4.62019e-05 4
8.19266 7.96701 -2.6383 6.28265e-05 4
9.70615 9.43882 -2.63169 3.56866e-05 4
7.032 6.88625 -2.63722 0.000107797 4
8.16166 7.99249 -2.63728 5.23511e-05 4
9.68211 9.48142 -2.63413 3.10287e-05 4
7.00823 6.91105 -2.63733 0.000218146 4
8.13296 8.02018 -2.63704 5.08511e-05 4
6.99328 6.94462 -2.64081 8.98184e-05 4
8.10129 8.04493 -2.63586 3.58919e-05 4
9.61733 9.55042 -2.63458 4.34312e-05 4
6.95477 6.95477 -2.63542 0.000192454 4
8.06259 8.06259 -2.63241 7.32732e-05 4
9.57018 9.57018 -2.6308 6.35891e-05 4
12.0752 12.0752 -2.70473 5.05423e-05 1
6.93121 6.97977 -2.63571 4.87517e-05 4
8.04237 8.09871 -2.63502 5.83146e-05 4
9.55132 9.61823 -2.63483 2.86897e-05 4
12.0297 12.114 -2.70399 5.05354e-05 1
14.9263 15.0309 -2.60095 2.8762e-05 4
26.5054 26.691 -1.97136 3.00097e-05 10
26.4931 26.6787 -0.656283 3.02125e-05 10
26.5054 26.6911 0.656587 3.01953e-05 10
6.91214 7.00933 -2.63775 0.000192427 4
8.02267 8.13548 -2.63786 5.23292e-05 4
9.519 9.65284 -2.63519 3.56645e-05 4
11.9975 12.1662 -2.70628 5.05285e-05 1
14.7382 14.9454 -2.57724 3.46838e-05 4
26.0818 26.4485 -1.94671 3.17941e-05 10
26.0897 26.4566 -0.648574 3.2008e-05 10
26.0936 26.4605 0.648668 3.199e-05 10
25.2148 25.5693 1.882 2.93277e-05 10
25.2136 25.5681 3.14163 2.88947e-05 10
6.88189 7.02755 -2.63555 0.0001488 4
7.99647 8.16573 -2.6386 4.63448e-05 4
11.9597 12.2128 -2.70733 5.05216e-05 1
14.5449 14.8528 -2.5525 4.01332e-05 4
25.6913 26.2351 -1.92439 3.36453e-05 10
25.6992 26.2431 -0.641138 3.38707e-05 10
25.713 26.2572 0.641482 3.38521e-05 10
6.87069 7.06529 -2.64069 5.64374e-05 4
7.96229 8.1878 -2.63674 5.97947e-05 4
9.44214 9.70956 -2.63261 7.98408e-05 4
11.9065 12.2437 -2.70496 5.05147e-05 1
14.3716 14.7787 -2.53113 3.70872e-05 4
25.321 26.0382 -1.90345 3.55643e-05 10
25.3074 26.0241 -0.633626 3.58014e-05 10
25.3205 26.0377 0.633955 3.57821e-05 10
6.84229 7.0854 -2.63926 0.000123127 4
7.93105 8.21285 -2.63587 0.000177874 4
9.41182 9.74622 -2.63363 3.79785e-05 4
11.8624 12.2839 -2.70468 5.05077e-05 1
24.9275 25.8132 -1.88063 3.75516e-05 10
24.9408 25.8269 -0.626701 3.78009e-05 10
24.9406 25.8267 0.626695 3.7781e-05 10
24.9457 25.832 1.882 2.92331e-05 10
24.9463 25.8326 3.14186 2.88021e-05 10
6.80697 7.09824 -2.63518 5.12994e-05 4
7.90283 8.24099 -2.63603 0.000106117 4
11.7588 12.262 -2.69079 5.23762e-05 4
24.5653 25.6165 -1.86004 3.9608e-05 10
24.5847 25.6366 0.619997 3.98492e-05 10
24.5875 25.6396 1.86172 3.08349e-05 10
24.5854 25.6374 4.36138 2.97228e-05 10
24.5964 25.6489 5.62845 2.88656e-05 10
6.79298 7.13333 -2.63939 6.15549e-05 4
7.86881 8.26306 -2.63429 8.21966e-05 4
9.34724 9.81556 -2.63467 0.000133284 4
11.6076 12.1892 -2.66591 0.000112554 4
24.2021 25.4147 -1.83925 4.17342e-05 10
24.2072 25.42 0.612711 4.19877e-05 10
24.2196 25.4331 1.84057 3.24911e-05 10
24.2196 25.4331 4.31222 3.1326e-05 10
24.2178 25.4312 5.56209 3.04275e-05 10
6.7543 7.14247 -2.63403 9.48904e-05 4
7.85424 8.30562 -2.6391 5.08081e-05 4
9.31368 9.84894 -2.63488 0.000165813 4
11.447 12.1049 -2.63872 9.09247e-05 4
23.8532 25.224 -1.81941 4.39309e-05 10
23.8592 25.2304 0.606129 4.41968e-05 10
23.8699 25.2417 1.82068 3.42023e-05 10
23.8822 25.2547 4.26781 3.29826e-05 10
23.8762 25.2483 5.50383 3.20418e-05 10
23.8778 25.2501 8.02318 2.95763e-05 10
6.73582 7.17291 -2.63657 0.000112834 4
7.80716 8.31378 -2.63302 4.48268e-05 4
9.28181 9.88413 -2.63561 0.000138679 4
11.2954 12.0284 -2.61343 8.20652e-05 4
23.5091 25.0347 -1.79982 4.61985e-05 10
23.5203 25.0466 0.599737 4.64773e-05 10
23.5228 25.0492 1.80086 3.59688e-05 10
23.5212 25.0476 4.21891 3.46931e-05 10
23.5283 25.0551 5.44378 3.37088e-05 10
23.5319 25.0589 7.9363 3.11285e-05 10
23.5381 25.0655 9.21339 2.95747e-05 10
6.72217 7.20864 -2.64106 7.6927e-05 4
7.78299 8.34624 -2.63468 0.00011654 4
9.24701 9.9162 -2.63554 0.000160355 4
11.1496 11.9564 -2.58933 0.000121515 4
23.1712 24.848 -1.78058 4.85378e-05 10
23.1868 24.8648 0.593442 4.88299e-05 10
23.1773 24.8546 1.78104 3.77911e-05 10
23.1853 24.8632 4.17421 3.6458e-05 10
23.2016 24.8806 5.38823 3.5429e-05 10
23.1959 24.8745 7.8522 3.27309e-05 10
23.1995 24.8784 9.11479 3.11055e-05 10
7.75658 8.37635 -2.63562 7.61924e-05 4
9.20545 9.94098 -2.63357 2.86594e-05 4
11.0133 11.8933 -2.56732 9.35569e-05 4
22.8484 24.6741 -1.76238 5.0949e-05 10
22.8574 24.6837 0.587214 5.12548e-05 10
22.8578 24.6841 1.7631 3.96695e-05 10
22.8577 24.6841 4.13071 3.82775e-05 10
22.871 24.6985 5.33146 3.72028e-05 10
22.8701 24.6974 7.77105 3.43838e-05 10
22.8663 24.6933 9.0177 3.26851e-05 10
6.65451 7.23673 -2.63427 0.000110246 4
7.7261 8.40207 -2.63521 0.000158347 4
9.18386 9.98737 -2.63736 6.31799e-05 4
10.8797 11.8316 -2.54578 0.00011052 4
22.5257 24.4965 -1.74407 5.34329e-05 10
22.537 24.5088 -0.581177 5.37775e-05 10
22.5318 24.5032 0.581043 5.37527e-05 10
22.5233 24.4939 1.74389 4.16046e-05 10
22.5286 24.4997 2.91191 4.10149e-05 10
22.5283 24.4993 4.08661 4.01522e-05 10
22.5409 24.5131 5.27443 3.90306e-05 10
22.5485 24.5213 6.4753 3.76685e-05 10
22.5531 24.5263 7.69238 3.60877e-05 10
22.5391 24.5111 8.92237 3.43136e-05 10
6.6353 7.26658 -2.63668 0.000476844 4
7.70794 8.44127 -2.63905 8.2154e-05 4
10.7461 11.7685 -2.52411 0.000107029 4
22.2047 24.3173 -1.72579 5.59897e-05 10
22.2196 24.3336 -0.575179 5.63493e-05 10
22.2071 24.3199 0.574855 5.63238e-05 10
22.214 24.3274 1.7265 4.35965e-05 10
22.2093 24.3222 2.88158 4.29818e-05 10
22.218 24.3318 4.0457 4.20823e-05 10
22.2332 24.3485 5.22228 4.09127e-05 10
22.2203 24.3343 6.4054 3.9492e-05 10
22.2243 24.3387 7.60918 3.78428e-05 10
22.232 24.3471 8.83438 3.59916e-05 10
6.62246 7.30355 -2.6417 6.66507e-05 4
7.66776 8.45636 -2.63538 3.88331e-05 4
9.20591 10.1527 -2.66398 3.95375e-05 4
10.6853 11.7842 -2.51947 4.51462e-05 4
21.1634 23.34 -1.65117 6.86113e-05 10
21.1502 23.3254 -0.549601 6.90437e-05 10
21.8992 24.1514 0.569063 5.89688e-05 10
21.1657 23.3425 1.65135 5.34273e-05 10
21.1665 23.3434 2.75684 5.26898e-05 10
21.176 23.3539 3.87078 5.16099e-05 10
21.1717 23.3491 4.99206 5.0205e-05 10
21.1641 23.3407 6.12439 4.84973e-05 10
21.1719 23.3494 7.27672 4.65135e-05 10
21.1744 23.3521 8.44647 4.42846e-05 10
6.58119 7.30915 -2.6354 8.4589e-05 4
10.6335 11.8097 -2.51696 5.40901e-05 4
21.5942 23.9828 0.56331 6.16877e-05 10
20.8835 23.1934 3.83209 5.3953e-05 10
20.8843 23.1944 8.36299 4.63291e-05 10
6.55645 7.33299 -2.63572 4.86992e-05 4
7.6104 8.51177 -2.63603 4.62928e-05 4
9.21486 10.3062 -2.68732 6.3419e-05 4
10.5963 11.8513 -2.51793 5.09699e-05 4
21.3061 23.8295 0.55796 6.44812e-05 10
20.5772 23.0144 3.79061 5.63588e-05 10
6.52938 7.35421 -2.63514 7.68878e-05 4
9.21159 10.3753 -2.69691 5.64649e-05 4
11.0308 12.4243 -2.63147 5.15584e-05 4
21.0177 23.6728 0.552569 6.73494e-05 10
20.2983 22.8625 4.8423 5.72485e-05 10
6.50955 7.38363 -2.63753 0.000263962 4
7.55611 8.57072 -2.63789 0.000135868 4
9.22024 10.4583 -2.71012 0.000116622 1
10.9898 12.4655 -2.63207 5.52574e-05 4
20.8501 23.6498 -1.65234 6.79114e-05 10
20.7211 23.5035 0.546926 7.02926e-05 10
20.8624 23.6637 2.76 3.32953e-05 10
20.0229 22.7115 4.79549 5.97198e-05 10
20.8691 23.6713 6.13408 3.06465e-05 10
20.8775 23.6808 7.28845 2.93929e-05 10
6.48178 7.40408 -2.63673 7.9439e-05 4
7.52388 8.59446 -2.63709 8.80824e-05 4
9.18909 10.4966 -2.71172 0.000116609 1
10.9496 12.5076 -2.63287 6.13135e-05 4
20.576 23.5038 -1.6371 7.08395e-05 10
20.4393 23.3476 0.541634 7.33112e-05 10
19.7578 22.5692 4.75084 6.2253e-05 10
20.4605 23.3718 8.32315 4.7113e-05 10
6.45844 7.42958 -2.63777 0.000128118 4
7.48992 8.61617 -2.63571 5.37404e-05 4
9.14952 10.5253 -2.71086 0.000116596 1
10.8973 12.5359 -2.63081 6.80416e-05 4
19.4718 22.3998 -2.59666 8.73413e-05 10
19.4791 22.4081 -1.55604 8.84591e-05 10
19.4822 22.4117 -0.518342 8.90047e-05 10
19.4748 22.4032 0.518145 8.89699e-05 10
19.4821 22.4115 1.55628 6.88916e-05 10
19.4923 22.4233 2.59939 6.79674e-05 10
19.4843 22.4142 3.64659 6.66128e-05 10
19.4845 22.4144 5.77297 6.27018e-05 10
19.4974 22.4292 6.86116 6.02053e-05 10
20.1797 23.2141 8.24183 4.91443e-05 10
6.43147 7.45093 -2.63736 9.99246e-05 4
9.11263 10.5571 -2.71084 0.000116583 1
10.8613 12.5829 -2.63269 6.26432e-05 4
19.4236 22.5025 -2.60069 3.22575e-05 10
19.4133 22.4905 -1.55705 3.26884e-05 10
19.4215 22.5001 -0.518815 3.29081e-05 10
19.4064 22.4825 0.518409 3.29132e-05 10
19.911 23.0671 8.16494 5.1227e-05 10
6.40604 7.47405 -2.63761 0.000187024 4
7.43854 8.67868 -2.63889 4.02981e-05 4
9.07501 10.588 -2.71062 0.00011657 1
10.8099 12.6121 -2.63089 4.51236e-05 4
19.3722 22.6019 -2.60435 3.23752e-05 10
19.3587 22.5862 -1.55899 3.2808e-05 10
19.3574 22.5847 -0.519205 3.30287e-05 10
19.362 22.5901 0.519328 3.30339e-05 10
19.655 22.9319 8.09274 5.33607e-05 10
6.38804 7.50593 -2.64098 0.000125528 4
7.39627 8.69059 -2.63464 7.61119e-05 4
9.04542 10.6283 -2.71285 0.000116557 1
19.3214 22.7025 -2.60816 3.24881e-05 10
19.3159 22.6961 -1.56191 3.29227e-05 10
19.3165 22.6968 -0.520229 3.31444e-05 10
19.3087 22.6876 0.520017 3.31496e-05 10
19.3746 22.7651 4.73468 6.27773e-05 10
19.3883 22.7811 8.0156 5.55464e-05 10
6.36451 7.53137 -2.6421 0.000163942 4
7.36475 8.715 -2.63423 0.000267114 4
9.01156 10.6637 -2.71384 0.000116544 1
10.7286 12.6955 -2.63261 3.40013e-05 4
19.1181 22.6232 -2.59136 8.78959e-05 10
19.1082 22.6115 -1.55148 8.90208e-05 10
19.1243 22.6306 -0.517178 8.95709e-05 10
19.1126 22.6167 0.51686 8.95374e-05 10
19.1145 22.619 1.552 6.93327e-05 10
19.1146 22.6191 2.59089 6.84049e-05 10
19.1308 22.6382 3.63923 6.70442e-05 10
19.1338 22.6418 4.69511 6.52718e-05 10
19.1235 22.6296 5.75906 6.31146e-05 10
19.1209 22.6265 6.83918 6.06058e-05 10
19.1406 22.6498 7.94584 5.77833e-05 10
6.33674 7.55184 -2.6415 4.61052e-05 4
7.33231 8.7383 -2.63352 0.000317822 4
8.96607 10.6854 -2.71136 0.000116531 1
10.6036 12.6368 -2.61275 0.000117337 4
18.8657 22.4833 -2.56778 9.13106e-05 10
18.8688 22.487 -1.53841 9.24749e-05 10
18.8722 22.491 -0.51248 9.30445e-05 10
18.876 22.4955 0.512581 9.30103e-05 10
18.8686 22.4867 1.53839 7.20243e-05 10
18.8671 22.485 2.56797 7.10645e-05 10
18.8746 22.4938 3.6054 6.96569e-05 10
18.8745 22.4938 4.65073 6.78229e-05 10
18.8793 22.4994 5.70913 6.55907e-05 10
18.8832 22.5042 6.78224 6.2994e-05 10
18.8765 22.4962 7.86878 6.00721e-05 10
6.29432 7.55467 -2.63479 0.000115254 4
7.31839 8.7838 -2.63952 0.000279002 4
8.898 10.6797 -2.70203 0.000116193 4
10.4953 12.5968 -2.59688 0.000125223 4
18.6242 22.3534 -2.54551 9.47995e-05 10
18.6203 22.3488 -1.5245 9.60042e-05 10
18.61 22.3364 -0.507474 9.65935e-05 10
18.6296 22.3599 0.508008 9.65585e-05 10
18.6166 22.3443 1.5242 7.47743e-05 10
18.63 22.3605 2.54631 7.37821e-05 10
18.6317 22.3625 3.5739 7.23267e-05 10
18.6328 22.3638 4.61037 7.043e-05 10
18.6227 22.3517 5.6551 6.81213e-05 10
18.6393 22.3716 6.72263 6.54352e-05 10
18.6258 22.3554 7.79674 6.24123e-05 10
6.26989 7.57899 -2.63563 0.000135734 4
7.28054 8.80066 -2.63693 0.000326716 4
8.80031 10.6377 -2.68362 0.000179783 4
10.3808 12.5482 -2.57938 9.51867e-05 4
18.3664 22.2011 -2.52085 9.83632e-05 10
18.3731 22.2093 -1.5106 9.96086e-05 10
18.3705 22.2061 -0.503054 0.000100218 10
18.3777 22.2148 0.50325 0.000100183 10
18.3857 22.2244 1.51163 7.7583e-05 10
18.3833 22.2216 2.52317 7.65579e-05 10
18.3932 22.2335 3.54301 7.50538e-05 10
18.3896 22.2292 4.56937 7.30936e-05 10
18.3941 22.2347 5.60922 7.0707e-05 10
18.3974 22.2386 6.66332 6.79299e-05 10
18.3962 22.2372 7.73308 6.4804e-05 10
6.25272 7.61218 -2.63956 0.000112676 4
7.24834 8.82427 -2.63641 0.000261051 4
8.69509 10.5856 -2.66279 0.000229755 4
10.2658 12.4978 -2.56163 0.000104434 4
18.2684 22.2403 -2.51804 3.95501e-05 10
18.2556 22.2247 -1.50731 4.00714e-05 10
18.2535 22.2221 -0.50197 4.03371e-05 10
18.2664 22.2379 0.502326 4.03436e-05 10
18.2584 22.2282 1.50754 3.12591e-05 10
18.2514 22.2197 2.5157 3.08625e-05 10
18.2631 22.2338 3.53287 3.02726e-05 10
18.2475 22.2149 4.55331 2.94985e-05 10
6.22927 7.63783 -2.6409 6.9137e-05 4
7.21471 8.8461 -2.63539 5.3697e-05 4
8.60064 10.5454 -2.64512 0.000178037 4
10.1541 12.4501 -2.54458 0.000101853 4
18.2042 22.3205 -2.51991 3.96558e-05 10
18.215 22.3338 -1.51038 4.01787e-05 10
18.2018 22.3176 -0.502688 4.04454e-05 10
18.2126 22.3308 0.502985 4.04519e-05 10
18.2095 22.327 1.50993 3.13429e-05 10
18.212 22.3301 2.52099 3.09451e-05 10
18.2033 22.3194 3.53635 3.03533e-05 10
18.2039 22.3202 4.56183 2.95767e-05 10
6.1947 7.64982 -2.63755 8.19338e-05 4
7.18808 8.87654 -2.63697 0.000145266 4
8.50023 10.4969 -2.6255 0.000213765 4
18.164 22.4307 -2.52518 3.97556e-05 10
18.1506 22.4141 -1.51152 4.02802e-05 10
18.158 22.4232 -0.503636 4.05478e-05 10
18.1596 22.4253 0.503682 4.05544e-05 10
18.1536 22.4178 1.51177 3.14223e-05 10
18.158 22.4233 2.52434 3.10232e-05 10
18.1474 22.4102 3.54068 3.04296e-05 10
18.1457 22.408 4.56681 2.96507e-05 10
18.1426 22.4042 5.60376 2.86981e-05 10
6.17474 7.67983 -2.64045 0.000112651 4
7.19519 8.94901 -2.65102 0.000124096 4
8.40221 10.4502 -2.60647 0.00020114 4
9.96078 12.3887 -2.51775 4.23199e-05 4
18.1065 22.52 -2.5281 3.98496e-05 10
18.1091 22.5231 -1.5146 4.03759e-05 10
18.1077 22.5214 -0.504418 4.06443e-05 10
18.1078 22.5216 0.504423 4.0651e-05 10
18.1039 22.5167 1.51417 3.1497e-05 10
18.0935 22.5038 2.52628 3.10968e-05 10
18.0978 22.5091 3.54631 3.05015e-05 10
18.094 22.5043 4.57354 2.97202e-05 10
18.0988 22.5103 5.61446 2.87649e-05 10
6.1472 7.70046 -2.64015 0.000102402 4
7.19075 9.0077 -2.66095 9.16857e-05 4
8.29396 10.3897 -2.58412 0.000267859 4
9.92157 12.4285 -2.51879 4.69722e-05 4
18.0602 22.6236 -2.53264 3.99379e-05 10
18.0602 22.6236 -1.51711 4.04657e-05 10
18.0509 22.612 -0.505033 4.0735e-05 10
18.047 22.6071 0.504925 4.07416e-05 10
18.0574 22.6201 1.51687 3.15672e-05 10
18.055 22.6171 2.53192 3.11658e-05 10
18.046 22.6059 3.5516 3.05689e-05 10
18.0533 22.6149 4.58318 2.97855e-05 10
18.0485 22.609 5.62333 2.88274e-05 10
6.11189 7.71128 -2.63653 6.39962e-05 4
7.19047 9.07211 -2.67255 0.000124306 4
8.2089 10.3571 -2.56887 0.000235322 4
9.88618 12.4733 -2.52084 4.07551e-05 4
17.9974 22.7071 -2.53494 4.00203e-05 10
18.0055 22.7173 -1.51917 4.05496e-05 10
17.9919 22.7001 -0.505597 4.08197e-05 10
17.9969 22.7064 0.505735 4.08265e-05 10
17.9956 22.7048 1.51834 3.16328e-05 10
17.9884 22.6957 2.53366 3.12304e-05 10
17.9998 22.7101 3.55809 3.06319e-05 10
17.9945 22.7034 4.58837 2.98464e-05 10
17.9993 22.7095 5.63266 2.88858e-05 10
6.0908 7.74002 -2.63907 0.000174056 4
7.18617 9.13199 -2.68279 0.000141574 4
8.10568 10.3005 -2.54781 0.000227061 4
9.84584 12.5118 -2.52168 4.50181e-05 4
17.9478 22.8076 -2.53915 4.00971e-05 10
17.9412 22.7992 -1.52045 4.06277e-05 10
17.9364 22.7931 -0.506269 4.08986e-05 10
17.9461 22.8054 0.506542 4.09054e-05 10
17.9343 22.7905 1.51987 3.16939e-05 10
17.9356 22.7921 2.53742 3.12905e-05 10
17.946 22.8053 3.56317 3.06905e-05 10
17.932 22.7875 4.59267 2.9903e-05 10
17.9464 22.8058 5.64098 2.89401e-05 10
6.06997 7.7692 -2.64178 0.000240589 4
7.17535 9.18403 -2.6907 0.000114006 4
8.0176 10.2621 -2.53137 0.00024336 4
9.79588 12.5381 -2.52008 4.26834e-05 4
17.9006 22.9117 -2.54376 4.0168e-05 10
17.8974 22.9076 -1.5235 4.07e-05 10
17.8854 22.8922 -0.507081 4.09715e-05 10
17.8852 22.8921 0.507077 4.09785e-05 10
17.8878 22.8953 1.52269 3.17504e-05 10
17.8948 22.9043 2.54294 3.13461e-05 10
17.8922 22.901 3.56833 3.07446e-05 10
17.8921 22.9009 4.60291 2.99553e-05 10
17.8876 22.8951 5.64757 2.89901e-05 10
6.0355 7.78091 -2.63858 8.9574e-05 4
7.17083 9.24457 -2.70109 0.000123422 4
7.95796 10.2593 -2.52382 0.000132409 4
9.75468 12.5756 -2.52075 5.54802e-05 4
17.8359 22.9939 -2.54596 4.02332e-05 10
17.8377 22.9963 -1.52525 4.07665e-05 10
17.8455 23.0063 -0.508225 4.10387e-05 10
17.8298 22.986 0.507777 4.10456e-05 10
17.8339 22.9913 1.52492 3.18024e-05 10
17.8436 23.0038 2.54706 3.13971e-05 10
17.8434 23.0035 3.57459 3.07944e-05 10
17.8345 22.9921 4.60871 3.00033e-05 10
17.836 22.994 5.6566 2.90359e-05 10
6.01185 7.80655 -2.64014 0.000125394 4
7.15838 9.29534 -2.7086 0.000138918 4
7.91311 10.2754 -2.52096 0.000115624 4
9.71338 12.6131 -2.52145 4.77138e-05 4
17.7955 23.1079 -2.55169 4.02926e-05 10
17.7907 23.1017 -1.52812 4.08271e-05 10
17.791 23.1021 -0.508966 4.10999e-05 10
17.7888 23.0992 0.508902 4.1107e-05 10
17.7876 23.0976 1.52784 3.18498e-05 10
17.7795 23.0872 2.5494 3.14437e-05 10
17.7826 23.0912 3.57855 3.08397e-05 10
17.788 23.0982 4.61751 3.0047e-05 10
17.7831 23.0918 5.66535 2.90776e-05 10
5.97524 7.81529 -2.63603 0.000110031 4
7.1353 9.33258 -2.71218 0.000225643 1
7.88736 10.3162 -2.52421 0.000120906 4
9.66744 12.6445 -2.52096 4.22767e-05 4
17.7278 23.187 -2.55357 4.03463e-05 10
17.7416 23.2051 -1.53085 4.08819e-05 10
17.7264 23.1852 -0.50943 4.11554e-05 10
17.7271 23.1861 0.50945 4.11625e-05 10
17.7274 23.1865 1.52962 3.18927e-05 10
17.7286 23.188 2.55369 3.14859e-05 10
17.7246 23.1828 3.58314 3.08807e-05 10
17.7244 23.1826 4.62197 3.00864e-05 10
17.7271 23.186 5.67325 2.91152e-05 10
5.95887 7.85052 -2.64088 0.000181665 4
7.10328 9.35822 -2.71241 0.000225622 1
7.8522 10.3449 -2.5245 0.000105891 4
9.61951 12.6732 -2.51999 4.49851e-05 4
17.6884 23.3036 -2.55961 4.03943e-05 10
17.6878 23.3028 -1.53321 4.09309e-05 10
17.684 23.2978 -0.510546 4.12049e-05 10
17.6828 23.2962 0.51051 4.12121e-05 10
17.6846 23.2986 1.53293 3.1931e-05 10
17.6696 23.2788 2.55688 3.15235e-05 10
17.6776 23.2894 3.59005 3.09172e-05 10
17.6674 23.276 4.62827 3.01215e-05 10
17.6648 23.2725 5.67928 2.91485e-05 10
5.92078 7.85714 -2.63614 9.72215e-05 4
7.07523 9.38915 -2.7142 0.000225601 1
8.16472 10.8349 -2.63712 8.95613e-05 4
9.58464 12.7192 -2.52247 4.2652e-05 4
17.6259 23.3904 -2.56237 4.04366e-05 10
17.6202 23.3828 -1.53442 4.09742e-05 10
17.6269 23.3917 -0.511252 4.12487e-05 10
17.6214 23.3843 0.51109 4.12559e-05 10
17.6283 23.3935 1.53512 3.19649e-05 10
17.6272 23.3921 2.56255 3.15567e-05 10
17.6231 23.3867 3.59554 3.09494e-05 10
17.6214 23.3843 4.63756 3.01524e-05 10
17.612 23.3719 5.6885 2.91778e-05 10
5.89972 7.88632 -2.639 0.000457929 4
7.03836 9.40837 -2.71264 0.000225579 1
8.11648 10.8495 -2.63376 6.87072e-05 4
9.53703 12.7484 -2.52163 5.58271e-05 4
17.5774 23.4963 -2.56722 4.04731e-05 10
17.5798 23.4995 -1.53804 4.10117e-05 10
17.5619 23.4755 -0.511741 4.12867e-05 10
17.5653 23.48 0.511837 4.1294e-05 10
17.5697 23.4859 1.53715 3.19943e-05 10
17.5696 23.4858 2.56608 3.15854e-05 10
17.5693 23.4853 3.60125 3.09772e-05 10
17.5603 23.4733 4.64302 3.0179e-05 10
17.5721 23.4891 5.70207 2.92029e-05 10
5.86507 7.89732 -2.63582 0.000475799 4
7.01096 9.44026 -2.71476 0.000225558 1
8.08433 10.8856 -2.63564 0.000115013 4
9.4823 12.7679 -2.51893 4.88415e-05 4
17.5246 23.5969 -2.57153 4.0504e-05 10
17.5136 23.5821 -1.53944 4.10434e-05 10
17.5151 23.5841 -0.512772 4.13188e-05 10
17.5124 23.5805 0.512693 4.13262e-05 10
17.5066 23.5727 1.53882 3.20191e-05 10
17.5039 23.569 2.56848 3.16097e-05 10
17.5043 23.5696 3.60479 3.10006e-05 10
17.5127 23.5809 4.65217 3.02013e-05 10
17.5131 23.5815 5.7096 2.92238e-05 10
5.85146 7.93673 -2.64214 0.000526919 4
6.97419 9.45957 -2.71329 0.000225537 1
8.04422 10.9109 -2.63497 6.79194e-05 4
9.44617 12.8125 -2.5212 5.73608e-05 4
17.3932 23.5915 -2.5643 8.94541e-05 10
17.3977 23.5976 -1.53647 9.05997e-05 10
17.4003 23.6011 -0.511818 9.11625e-05 10
17.4597 23.6817 0.513565 4.13527e-05 10
17.4031 23.6049 1.53695 7.05763e-05 10
17.395 23.594 2.56457 6.96408e-05 10
17.3952 23.5943 3.59925 6.82664e-05 10
17.4635 23.6869 4.66102 3.02193e-05 10
17.4014 23.6027 5.70002 6.42918e-05 10
17.4063 23.6093 6.77187 6.17522e-05 10
5.81803 7.94933 -2.63956 0.000424571 4
6.94707 9.49197 -2.71562 0.000225515 1
8.00717 10.9404 -2.63532 5.63357e-05 4
9.39788 12.8406 -2.52026 4.72769e-05 4
17.171 23.4612 -2.54361 9.22707e-05 10
17.175 23.4666 -1.52403 9.34488e-05 10
17.1866 23.4825 -0.507942 9.4028e-05 10
17.4036 23.7789 0.514354 4.13733e-05 10
17.1851 23.4804 1.52493 7.2797e-05 10
17.1855 23.481 2.54576 7.18353e-05 10
17.1934 23.4918 3.57444 7.04225e-05 10
17.4005 23.7747 4.66634 3.02332e-05 10
17.1801 23.4736 5.65431 6.6336e-05 10
17.1912 23.4889 6.72007 6.37244e-05 10
5.79685 7.97867 -2.64256 0.000470572 4
6.90655 9.50605 -2.71273 0.000225494 1
7.97351 10.9746 -2.63684 5.94157e-05 4
9.3539 12.8745 -2.5205 4.572e-05 4
17.1215 23.5657 -2.54845 4.30249e-05 10
17.1125 23.5534 -1.52578 4.35957e-05 10
17.1143 23.5558 -0.508232 4.38873e-05 10
17.3557 23.8881 0.5154 4.13882e-05 10
17.1193 23.5627 1.52638 3.40105e-05 10
17.1208 23.5648 2.54834 3.35774e-05 10
17.1081 23.5472 3.57377 3.29329e-05 10
17.354 23.8857 4.6762 3.02429e-05 10
17.1099 23.5497 5.65823 3.10525e-05 10
17.1071 23.5458 6.71925 2.98451e-05 10
5.77101 8.00171 -2.64351 0.000473092 4
6.88079 9.54045 -2.71568 0.000225473 1
7.93811 11.0065 -2.63782 0.000109559 4
9.30734 12.9049 -2.52008 5.81099e-05 4
17.3043 23.993 -2.5881 4.05709e-05 10
17.2872 23.9693 0.515849 4.13975e-05 10
17.2954 23.9807 4.68295 3.02483e-05 10
5.73329 8.00817 -2.63901 0.00017388 4
6.83686 9.54961 -2.71148 0.000358482 4
7.88919 11.0195 -2.63433 3.62582e-05 4
9.26986 12.948 -2.52215 5.26784e-05 4
17.2454 24.0882 -2.59186 4.05736e-05 10
17.2424 24.084 0.517017 4.1401e-05 10
17.2348 24.0732 4.68924 3.02496e-05 10
5.69906 8.01935 -2.63613 7.41487e-05 4
6.76069 9.51322 -2.69442 0.000332059 4
7.85492 11.053 -2.63575 5.47666e-05 4
9.22141 12.9758 -2.52128 4.60867e-05 4
17.1899 24.1885 -2.59619 4.05708e-05 10
17.1805 24.1753 0.517686 4.13988e-05 10
17.1838 24.1799 4.69831 3.02466e-05 10
5.68066 8.05284 -2.6406 0.000233024 4
6.68479 9.47629 -2.67734 0.0003492 4
9.16921 12.9982 -2.51939 4.53053e-05 4
17.1246 24.2756 -2.5991 4.05623e-05 10
17.1348 24.2901 0.518861 4.1391e-05 10
17.1296 24.2827 4.70663 3.02396e-05 10
5.67869 8.11 -2.65283 9.27721e-05 4
6.60954 9.4394 -2.66038 0.000308319 4
7.74476 11.0607 -2.62464 0.000184269 4
9.12844 13.0368 -2.52068 4.80086e-05 4
17.0816 24.3951 -2.6055 4.05484e-05 10
17.0759 24.387 0.519654 4.13775e-05 10
17.0662 24.373 4.71257 3.02284e-05 10
5.66989 8.1579 -2.66201 0.000242703 4
6.53396 9.40113 -2.64315 0.000249411 4
7.67037 11.0362 -2.61246 0.0001962 4
9.08335 13.0692 -2.52081 5.53564e-05 4
17.0258 24.4969 -2.61 4.05289e-05 10
17.0226 24.4922 0.520628 4.13584e-05 10
17.0097 24.4737 4.72053 3.02131e-05 10
5.65456 8.19675 -2.66822 0.000233054 4
6.46121 9.36606 -2.62694 0.000513902 4
7.58197 10.9907 -2.59541 0.000291951 4
9.04731 13.1148 -2.5235 4.91552e-05 4
16.9592 24.5837 -2.61293 4.0504e-05 10
16.9685 24.5972 0.521597 4.13338e-05 10
16.9572 24.5808 4.72973 3.01937e-05 10
5.65036 8.25214 -2.67982 0.000210348 4
6.38721 9.32828 -2.61007 0.000420135 4
7.51794 10.9797 -2.58659 0.000255797 4
8.99309 13.1341 -2.52115 4.68258e-05 4
16.9021 24.6848 -2.61739 4.04736e-05 10
16.8992 24.6806 0.522113 4.13035e-05 10
16.9051 24.6892 4.73921 3.01702e-05 10
5.63985 8.29877 -2.68855 0.000217605 4
6.32487 9.30676 -2.59785 0.000490866 4
7.43087 10.9342 -2.56975 0.000190881 4
8.94306 13.1593 -2.51998 4.95272e-05 4
16.8525 24.7977 -2.62311 4.04378e-05 10
16.8572 24.8046 0.523487 4.12678e-05 10
5.62102 8.3335 -2.69343 0.000177778 4
6.26221 9.28411 -2.58542 0.000474502 4
7.35913 10.9104 -2.5581 0.000248046 4
8.90195 13.1977 -2.52137 5.22278e-05 4
16.7974 24.9032 -2.62805 4.03966e-05 10
16.8307 24.9525 -1.57738 4.04884e-05 10
16.8342 24.9578 -0.525476 7.93851e-05 10
16.7949 24.8995 0.524249 4.12265e-05 10
16.8411 24.9679 1.57835 3.92329e-05 10
16.8462 24.9755 2.63567 3.87078e-05 10
5.61372 8.38567 -2.70394 0.000231479 4
6.19321 9.2513 -2.57024 0.000439311 4
7.27269 10.8638 -2.54122 0.000303226 4
8.8528 13.2241 -2.5205 4.83516e-05 4
16.7307 24.992 -2.63123 4.035e-05 10
16.7419 25.0087 -1.57723 4.08938e-05 10
16.7343 24.9975 -0.525079 4.11718e-05 10
16.7347 24.998 0.52509 4.11798e-05 10
5.59611 8.42282 -2.70961 0.00023022 4
6.12732 9.22236 -2.55624 0.000478267 4
7.20114 10.8386 -2.52942 0.000119467 4
8.81169 13.2627 -2.52197 5.3372e-05 4
16.5419 24.8976 -2.6152 8.00051e-05 10
16.5429 24.899 -1.56666 8.10417e-05 10
16.5528 24.914 -0.522108 8.15529e-05 10
16.6722 25.0936 0.525873 4.11277e-05 10
16.5521 24.913 1.56754 6.31372e-05 10
16.5492 24.9085 2.61635 6.22951e-05 10
16.5527 24.9138 3.67265 6.10571e-05 10
16.5478 24.9064 5.81245 5.74757e-05 10
16.5599 24.9247 6.90859 5.51875e-05 10
5.5872 8.47343 -2.7196 0.00038817 1
6.05983 9.19022 -2.54146 0.000422338 4
7.14399 10.8344 -2.52261 0.000121506 4
8.76858 13.2982 -2.5229 4.94969e-05 4
16.4053 24.8799 -2.60731 4.27147e-05 10
16.406 24.881 -1.56191 4.32877e-05 10
16.3963 24.8663 -0.519907 4.35808e-05 10
16.6193 25.2045 0.526977 4.10702e-05 10
16.3966 24.8668 1.56102 3.37719e-05 10
16.4001 24.8721 2.60649 3.3338e-05 10
16.4012 24.8737 3.65828 3.26923e-05 10
16.3936 24.8622 5.78874 3.08084e-05 10
16.3911 24.8584 6.87432 2.95992e-05 10
5.55502 8.48896 -2.71834 0.000388138 1
5.98741 9.14972 -2.52446 0.00023461 4
7.11503 10.8729 -2.52578 0.000101243 4
8.72146 13.3278 -2.52271 3.24774e-05 4
16.5687 25.3197 -2.64732 4.01785e-05 10
16.5688 25.3198 -1.58582 4.07214e-05 10
16.5576 25.3026 -0.527818 4.09991e-05 10
16.5575 25.3026 0.527816 4.10072e-05 10
16.5635 25.3117 1.58531 3.177e-05 10
16.555 25.2987 2.64513 3.13591e-05 10
16.5607 25.3075 3.71355 3.07477e-05 10
16.5541 25.2974 4.78834 2.99452e-05 10
16.5657 25.315 5.88068 2.89641e-05 10
5.52418 8.50649 -2.71776 0.000388107 1
5.96592 9.1867 -2.5289 0.000217711 4
7.07733 10.8981 -2.52588 0.000139083 4
8.67186 13.3535 -2.52183 5.25743e-05 4
16.5095 25.4225 -2.65203 4.01109e-05 10
16.5002 25.408 -1.58773 4.06533e-05 10
16.5108 25.4244 -0.529153 4.09308e-05 10
16.4985 25.4055 0.528758 4.0939e-05 10
16.5057 25.4165 1.58826 3.1717e-05 10
16.5012 25.4097 2.65069 3.13065e-05 10
16.5013 25.4097 3.72008 3.06956e-05 10
16.508 25.4201 4.80062 2.98938e-05 10
16.5066 25.4179 5.89115 2.89137e-05 10
5.49256 8.52279 -2.71683 0.000388075 1
5.92624 9.19573 -2.52568 0.00023794 4
7.04179 10.9267 -2.5268 0.000116182 4
9.2687 14.3822 -2.70998 5.00897e-05 1
16.4481 25.5225 -2.65646 4.0038e-05 10
16.4476 25.5218 -1.59123 4.05799e-05 10
16.4563 25.5352 -0.53026 4.08572e-05 10
16.441 25.5115 0.529766 4.08655e-05 10
16.4523 25.5289 1.59168 3.16599e-05 10
16.4513 25.5275 2.65697 3.12499e-05 10
16.4485 25.523 3.72824 3.06396e-05 10
16.4357 25.5032 4.80546 2.98386e-05 10
16.445 25.5177 5.90095 2.88595e-05 10
5.4583 8.5349 -2.7146 0.000388043 1
5.89852 9.22326 -2.52757 0.000187296 4
6.99732 10.9414 -2.52453 0.000124088 4
9.22537 14.4253 -2.71202 5.00818e-05 1
16.3915 25.6307 -2.66174 3.996e-05 10
16.3872 25.6239 -1.59403 4.05014e-05 10
16.3891 25.6269 -0.530973 4.07784e-05 10
16.3919 25.6312 0.531062 4.07867e-05 10
16.3854 25.6212 1.59386 3.15987e-05 10
16.3945 25.6353 2.66223 3.11892e-05 10
16.3943 25.635 3.73622 3.05796e-05 10
16.3842 25.6192 4.81652 2.97796e-05 10
16.3861 25.6222 5.91185 2.88016e-05 10
5.42795 8.55307 -2.71433 0.000388011 1
5.864 9.24019 -2.52658 0.000237894 4
6.95879 10.9653 -2.52442 0.000138153 4
9.16686 14.4447 -2.70962 5.00739e-05 1
16.3303 25.7324 -2.66637 3.98768e-05 10
16.3363 25.7419 -1.59781 4.04176e-05 10
16.3255 25.7249 -0.531819 4.06943e-05 10
16.3257 25.7252 0.531826 4.07027e-05 10
16.3343 25.7387 1.59761 3.15335e-05 10
16.3333 25.7371 2.66686 3.11245e-05 10
16.3266 25.7266 3.74124 3.05157e-05 10
16.3197 25.7157 4.82392 2.97167e-05 10
16.3252 25.7244 5.92225 2.874e-05 10
5.40942 8.59001 -2.72005 0.000387979 1
6.09342 9.67619 -2.63997 0.000230431 4
6.91814 10.9858 -2.52357 0.000126698 4
9.12761 14.4944 -2.71296 5.00659e-05 1
16.2834 25.8576 -2.67344 3.97886e-05 10
16.2752 25.8446 -1.60065 4.03287e-05 10
16.2777 25.8486 -0.533198 4.06051e-05 10
16.272 25.8395 0.533011 4.06135e-05 10
16.2795 25.8513 1.60107 3.14643e-05 10
16.2658 25.8296 2.67055 3.10558e-05 10
16.2664 25.8306 3.74808 3.04479e-05 10
16.2734 25.8418 4.83688 2.96501e-05 10
16.2637 25.8263 5.9326 2.86747e-05 10
5.37648 8.60416 -2.71857 0.000387947 1
6.05273 9.68639 -2.63697 0.000144191 4
6.88136 11.0125 -2.52416 0.000117006 4
9.07323 14.5202 -2.71184 5.00579e-05 1
16.2108 25.9428 -2.67638 3.96954e-05 10
16.2193 25.9563 -1.60405 4.02347e-05 10
16.2126 25.9456 -0.534028 4.05108e-05 10
16.2094 25.9405 0.533923 4.05192e-05 10
16.2054 25.9341 1.60268 3.13911e-05 10
16.2138 25.9474 2.67686 3.09833e-05 10
16.2041 25.932 3.75456 3.03763e-05 10
16.2076 25.9376 4.8442 2.95797e-05 10
5.34277 8.61701 -2.71672 0.000387915 1
6.02183 9.71222 -2.63827 0.000215522 4
6.84864 11.0457 -2.52629 0.000138103 4
9.02497 14.5558 -2.71259 5.005e-05 1
16.1531 26.0522 -2.68184 3.95971e-05 10
16.1634 26.0689 -1.60751 4.01356e-05 10
16.151 26.0489 -0.534993 4.04113e-05 10
16.1619 26.0665 0.535352 4.04198e-05 10
16.1516 26.0499 1.60634 3.13139e-05 10
16.1473 26.0429 2.68087 3.09068e-05 10
16.158 26.0602 3.76493 3.03008e-05 10
16.1508 26.0486 4.85437 2.95055e-05 10
5.31756 8.64356 -2.71922 0.000387883 1
5.98771 9.73288 -2.63818 0.000160511 4
6.80938 11.0685 -2.52604 9.58689e-05 4
8.976 14.5903 -2.71316 5.0042e-05 1
16.0907 26.155 -2.68662 3.9494e-05 10
16.0974 26.1659 -1.61002 4.00316e-05 10
16.098 26.1668 -0.536256 4.03069e-05 10
16.1014 26.1724 0.536369 4.03153e-05 10
16.0973 26.1657 1.61001 3.12329e-05 10
16.0987 26.168 2.68795 3.08264e-05 10
16.0918 26.1568 3.77075 3.02215e-05 10
16.0956 26.1631 4.86521 2.94277e-05 10
5.28958 8.66573 -2.72037 0.000387851 1
5.95104 9.74937 -2.63701 0.000215479 4
6.76499 11.0828 -2.52391 0.000120481 4
8.91723 14.6088 -2.7108 5.0034e-05 1
16.038 26.2744 -2.69312 3.93859e-05 10
16.032 26.2646 -1.61264 3.99226e-05 10
16.0336 26.2673 -0.537166 4.01973e-05 10
16.0395 26.2769 0.53736 4.02058e-05 10
16.0367 26.2723 1.61311 3.11479e-05 10
16.0353 26.27 2.69267 3.07423e-05 10
16.0365 26.2721 3.77928 3.01385e-05 10
16.0245 26.2523 4.87137 2.93462e-05 10
5.24687 8.6636 -2.71394 0.000730761 4
5.92869 9.78943 -2.64223 0.000141162 4
6.7339 11.119 -2.52677 0.00010288 4
8.87567 14.6555 -2.7137 5.00259e-05 1
15.9804 26.3867 -2.6989 3.92729e-05 10
15.9725 26.3737 -1.6159 3.98086e-05 10
15.9734 26.3752 -0.538229 4.00829e-05 10
15.9761 26.3798 0.53832 4.00914e-05 10
15.969 26.3679 1.61555 3.10591e-05 10
15.9742 26.3765 2.69785 3.06543e-05 10
15.9662 26.3633 3.78435 3.00518e-05 10
15.9747 26.3773 4.88419 2.9261e-05 10
5.19287 8.64238 -2.7016 0.000615175 4
5.89532 9.81145 -2.6426 0.000123319 4
6.69528 11.1428 -2.52686 9.31965e-05 4
8.81261 14.6666 -2.71005 5.00179e-05 1
15.917 26.4904 -1.61964 3.96898e-05 10
15.9107 26.4798 -0.539226 3.99635e-05 10
15.9148 26.4867 0.539367 3.99721e-05 10
15.9212 26.4972 1.62006 3.09665e-05 10
15.9094 26.4777 2.70251 3.05626e-05 10
15.9131 26.4838 3.79367 2.99613e-05 10
15.9127 26.4831 4.89347 2.91723e-05 10
5.13392 8.61223 -2.68655 0.000617042 4
5.85878 9.82818 -2.64158 0.000170847 4
6.65171 11.1584 -2.52511 0.000143294 4
8.7634 14.7007 -2.71068 5.00098e-05 1
16.9417 28.42 1.73399 3.90283e-05 10
16.929 28.3987 2.89253 3.84844e-05 10
16.9325 28.4045 4.06029 3.7685e-05 10
16.9423 28.421 5.24058 3.6643e-05 10
16.9403 28.4176 6.43083 3.53754e-05 10
16.9475 28.4296 8.86851 3.2248e-05 10
5.07519 8.58168 -2.67148 0.000701826 4
5.81641 9.835 -2.63794 0.000227278 4
6.61286 11.1817 -2.52516 9.93268e-05 4
8.71827 14.7418 -2.71262 5.00018e-05 1
16.7341 28.2959 1.72284 4.00328e-05 10
16.738 28.3024 2.87675 3.94766e-05 10
16.7424 28.3098 4.03839 3.86589e-05 10
16.7408 28.3072 5.20878 3.7593e-05 10
16.7366 28.3001 6.39097 3.62961e-05 10
16.7444 28.3132 8.8139 3.30962e-05 10
5.02736 8.56892 -2.66203 0.000641181 4
5.78428 9.85906 -2.63897 0.000188637 4
6.57365 11.2045 -2.52511 0.000113377 4
8.66447 14.7682 -2.71191 4.99937e-05 1
16.5446 28.1996 1.71346 4.105e-05 10
16.5383 28.1889 2.85933 4.04812e-05 10
16.5483 28.2059 4.01529 3.96451e-05 10
16.5378 28.1881 5.17621 3.85551e-05 10
16.542 28.1951 6.35418 3.72287e-05 10
16.5437 28.198 7.54774 3.56873e-05 10
16.5461 28.2021 8.76129 3.39554e-05 10
4.9674 8.53484 -2.64604 0.000766857 4
5.75735 9.89212 -2.64242 7.72293e-05 4
6.54287 11.2418 -2.52834 0.000109848 4
8.61833 14.8078 -2.71363 4.99856e-05 1
4.91567 8.5142 -2.6343 0.000836442 4
5.71607 9.90052 -2.63932 0.000155928 4
6.50326 11.264 -2.52821 0.000116864 4
8.5651 14.8352 -2.71316 4.99775e-05 1
4.85878 8.48391 -2.61967 0.000745663 4
5.68227 9.9218 -2.63969 0.0004503 4
6.4592 11.2784 -2.52637 5.18355e-05 4
8.50766 14.8552 -2.71137 4.99694e-05 1
4.81381 8.47383 -2.61135 0.00082241 4
5.62487 9.90157 -2.62906 0.000513126 4
6.42001 11.3013 -2.52646 6.32492e-05 4
8.46095 14.894 -2.71304 4.99613e-05 1
4.7622 8.45153 -2.59934 0.000785289 4
5.56871 9.88287 -2.61892 0.000413871 4
8.40744 14.9208 -2.71256 4.99532e-05 1
4.71292 8.43278 -2.5885 0.000811564 4
5.50022 9.84148 -2.60285 0.000466484 4
6.34455 11.3522 -2.52789 6.05988e-05 4
8.36 14.9585 -2.71409 4.9945e-05 1
4.65968 8.40627 -2.57535 0.000717784 4
5.44923 9.83066 -2.59494 0.000636431 4
6.30769 11.3794 -2.52902 0.000108889 4
8.30354 14.98 -2.71272 4.99368e-05 1
4.60054 8.36834 -2.5588 0.000872001 4
5.39706 9.8172 -2.5864 0.00061581 4
6.26407 11.3943 -2.52746 9.3071e-05 4
8.25601 15.0176 -2.7143 4.99287e-05 1
4.55832 8.36055 -2.55153 0.000787628 4
5.3388 9.79206 -2.57485 0.000558344 4
6.21856 11.4056 -2.52514 0.000112374 4
8.20366 15.0466 -2.71434 4.99205e-05 1
4.50518 8.33214 -2.53805 0.000636225 4
5.27292 9.75205 -2.55947 0.000474386 4
6.18665 11.442 -2.52839 0.000131672 4
8.14425 15.0625 -2.71206 4.99123e-05 1
4.45713 8.3125 -2.52731 0.00031946 4
5.22455 9.74374 -2.55249 0.000239053 4
6.15014 11.47 -2.52982 6.40722e-05 4
8.09634 15.0996 -2.71364 4.99041e-05 1
17.2188 32.113 -1.90964 3.05973e-05 10
17.2319 32.1374 -0.636513 3.08105e-05 10
17.2271 32.1285 0.636335 3.08027e-05 10
4.43649 8.34382 -2.53211 0.000411521 4
5.15874 9.70218 -2.53687 0.00010473 4
6.09892 11.4704 -2.5252 0.000115842 4
7.32985 13.7854 -2.47285 0.000104763 10
17.0222 32.0142 -1.90022 3.134e-05 10
17.0241 32.0176 -0.632958 3.15578e-05 10
17.0193 32.0086 0.63278 3.15499e-05 10
4.39706 8.33977 -2.52621 0.000362569 4
5.11287 9.69742 -2.53095 0.000187326 4
6.06168 11.497 -2.52638 9.47681e-05 4
7.28695 13.8209 -2.47464 0.000104746 10
4.37314 8.36505 -2.52922 0.00037117 4
5.0702 9.69839 -2.52656 0.000208715 4
6.02835 11.5312 -2.52925 0.000121955 4
7.24633 13.8609 -2.47726 0.000104729 10
15.5238 29.6943 1.75605 3.55324e-05 10
15.5149 29.6773 2.92983 3.50354e-05 10
15.5263 29.6991 4.11484 3.43043e-05 10
15.5153 29.678 5.30412 3.33512e-05 10
15.5254 29.6974 6.51383 3.21917e-05 10
15.5231 29.693 7.73543 3.08444e-05 10
15.5282 29.7026 8.98078 2.93312e-05 10
4.34415 8.3807 -2.52936 0.000350999 4
5.04238 9.72773 -2.52961 0.000207011 4
5.98047 11.5375 -2.52605 8.59718e-05 4
7.19066 13.8722 -2.47477 0.000104712 10
15.328 29.5707 1.74556 3.63269e-05 10
15.3284 29.5715 2.91408 3.58201e-05 10
15.3409 29.5955 4.09305 3.50746e-05 10
15.3327 29.5797 5.27696 3.41025e-05 10
15.3338 29.5819 6.47674 3.29198e-05 10
15.3425 29.5986 7.69685 3.15455e-05 10
15.3403 29.5944 8.93182 3.00017e-05 10
4.31526 8.39658 -2.52959 0.00027905 4
5.01312 9.75448 -2.532 0.000227184 4
5.94847 11.5745 -2.52958 9.29783e-05 4
7.14822 13.9089 -2.47686 0.000104696 10
15.1457 29.4704 1.73651 3.71291e-05 10
15.1517 29.4819 2.90003 3.66124e-05 10
15.1481 29.4749 4.06904 3.58523e-05 10
15.148 29.4748 5.24878 3.48612e-05 10
15.1565 29.4914 6.44529 3.36551e-05 10
15.1527 29.4839 7.65322 3.22536e-05 10
15.154 29.4866 8.88324 3.0679e-05 10
4.48277 8.79792 -2.64577 0.000412774 4
4.97163 9.75736 -2.52822 0.000210334 4
5.90638 11.5919 -2.52887 0.000112262 4
7.09715 13.9289 -2.47599 0.000104679 10
14.9652 29.3708 1.72755 3.79386e-05 10
14.9735 29.3872 2.88555 3.7412e-05 10
14.9797 29.3993 4.05135 3.66372e-05 10
14.9732 29.3865 5.22371 3.56269e-05 10
14.9754 29.3908 6.41184 3.43974e-05 10
14.9734 29.3869 7.61443 3.29684e-05 10
14.9794 29.3987 8.84097 3.13629e-05 10
4.44155 8.79278 -2.63954 0.000287898 4
4.93314 9.76596 -2.52598 0.00016825 4
5.86377 11.6083 -2.52796 0.000106986 4
7.04558 13.9479 -2.47497 0.000104662 10
14.7862 29.2717 1.71868 3.87556e-05 10
14.8 29.299 2.8718 3.8219e-05 10
14.8005 29.2999 4.03051 3.74295e-05 10
14.7984 29.2958 5.19837 3.63998e-05 10
14.7996 29.2982 6.38032 3.51466e-05 10
14.8006 29.3003 7.57855 3.36901e-05 10
14.7974 29.2938 8.79384 3.20533e-05 10
4.41431 8.81517 -2.64162 0.000369395 4
4.90859 9.80223 -2.53091 0.000254032 4
5.82796 11.6382 -2.53002 0.00011311 4
7.00204 13.9827 -2.47681 0.000104645 10
14.6136 29.1827 1.71045 3.95797e-05 10
14.6114 29.1782 2.85494 3.9033e-05 10
14.6176 29.1907 4.00845 3.82286e-05 10
14.6184 29.1923 5.17093 3.71795e-05 10
14.6148 29.1851 6.34455 3.59025e-05 10
14.6219 29.1993 7.53919 3.44183e-05 10
14.6182 29.1918 8.74784 3.27502e-05 10
4.38131 8.82609 -2.64029 0.000254733 4
4.87548 9.82159 -2.5315 0.000248959 4
5.77747 11.6386 -2.52573 0.000107836 4
6.95131 14.0033 -2.47614 0.000104628 10
14.4378 29.0848 1.70174 4.04109e-05 10
14.4358 29.0807 2.84046 3.98542e-05 10
14.4442 29.0977 3.98872 3.90348e-05 10
14.4422 29.0936 5.14448 3.79661e-05 10
14.4473 29.104 6.31591 3.66652e-05 10
14.4425 29.0942 7.49897 3.5153e-05 10
14.4497 29.1088 8.70779 3.34533e-05 10
4.35196 8.84435 -2.6412 0.000320936 4
4.84234 9.84094 -2.53211 0.00024557 4
5.74419 11.6737 -2.52897 9.73028e-05 4
6.89724 14.017 -2.47429 0.000104611 10
14.2703 29.001 1.69392 4.12489e-05 10
14.272 29.0045 2.82813 4.0682e-05 10
14.2654 28.9911 3.96727 3.98476e-05 10
14.2733 29.0072 5.12037 3.87593e-05 10
14.2666 28.9936 6.28113 3.74344e-05 10
14.2689 28.9982 7.46134 3.5894e-05 10
14.2685 28.9973 8.6595 3.41625e-05 10
4.32447 8.86647 -2.64328 0.000453347 4
4.80733 9.85648 -2.53178 0.000203499 4
5.69508 11.6766 -2.52528 0.000109561 4
6.85295 14.0506 -2.47599 0.000104594 10
14.1009 28.9112 1.68579 4.20939e-05 10
14.0964 28.9018 2.8133 4.15168e-05 10
14.0925 28.8939 3.94721 4.06673e-05 10
14.0967 28.9024 5.09315 3.95591e-05 10
14.0999 28.9091 6.25212 3.821e-05 10
14.1035 28.9164 7.42761 3.66413e-05 10
14.1005 28.9104 8.61879 3.48779e-05 10
4.28617 8.86636 -2.63877 0.000117147 4
4.77277 9.87295 -2.53172 0.00021525 4
5.91516 12.2361 -2.64179 0.000883135 10
6.79861 14.0636 -2.47407 0.000104577 10
13.9642 28.8864 1.68148 3.0041e-05 10
13.9744 28.9075 2.80909 2.96433e-05 10
13.9723 28.903 3.94176 2.90509e-05 10
4.25787 8.88686 -2.64043 0.000216448 4
4.73889 9.89082 -2.53204 0.000184962 4
5.83438 12.1773 -2.62468 0.000899702 10
6.75552 14.0999 -2.47629 0.00010456 10
13.7989 28.8005 1.67367 4.31652e-05 10
13.7996 28.8019 2.79413 4.25753e-05 10
13.9024 29.0165 3.9506 2.88631e-05 10
13.8038 28.8106 5.05987 4.05737e-05 10
13.8072 28.8178 6.21137 3.91942e-05 10
13.8017 28.8063 7.37438 3.75902e-05 10
13.811 28.8257 8.56459 3.57866e-05 10
4.23146 8.91144 -2.64333 0.000117127 4
4.70554 9.90985 -2.53269 0.000193349 4
5.76141 12.1335 -2.6109 0.000916367 10
6.71205 14.1355 -2.47843 0.000104543 10
13.6408 28.7275 1.66665 3.15825e-05 10
13.6484 28.7434 2.78382 3.11661e-05 10
13.8318 29.1298 3.95943 2.86727e-05 10
13.6436 28.7334 5.03791 2.97316e-05 10
13.6433 28.7327 6.18272 2.87365e-05 10
4.20405 8.93406 -2.64567 0.000239325 4
4.67033 9.92495 -2.53237 0.000220227 4
5.68152 12.0738 -2.59377 0.000933124 10
6.65102 14.1341 -2.47409 0.000104525 10
4.16556 8.93307 -2.64106 0.000216392 4
4.63156 9.93242 -2.53013 0.000181543 4
5.59657 12.0019 -2.5741 0.000949974 10
6.60727 14.1693 -2.4762 0.000104508 10
4.1428 8.96585 -2.64645 0.000229101 4
4.59764 9.9502 -2.53056 0.000198332 4
5.52369 11.9544 -2.55976 0.00086642 10
6.55569 14.1878 -2.47542 0.000104491 10
4.10037 8.95599 -2.6393 0.000351258 4
4.56405 9.96875 -2.53121 0.000191589 4
5.4664 11.9397 -2.55251 0.000875974 10
6.41528 14.0122 -2.44085 0.000658449 10
6.42126 14.0252 2.44313 0.000764888 10
4.06939 8.97092 -2.6395 0.00031305 4
4.53109 9.98874 -2.53225 0.000226858 4
5.40318 11.9112 -2.54239 0.00088551 10
6.29558 13.8785 -2.41373 0.000681861 10
6.30522 13.8998 2.41742 0.000792148 10
4.04252 8.99501 -2.64242 0.000231586 4
4.4973 10.0069 -2.53287 0.000206672 4
5.33821 11.878 -2.53131 0.000895026 10
6.18051 13.7522 -2.388 0.000705684 10
14.3438 31.9163 -1.83382 3.55793e-05 10
14.3406 31.9092 -0.61064 3.58235e-05 10
14.3462 31.9216 0.610878 3.58159e-05 10
6.18084 13.753 2.38813 0.000819887 10
4.01268 9.01261 -2.64346 0.000879605 4
4.46046 10.0184 -2.53181 0.000184809 4
5.27332 11.8441 -2.52013 0.000904522 10
6.06117 13.6136 -2.36024 0.000729917 10
14.1641 31.813 -1.82503 3.62784e-05 10
14.1689 31.8238 -0.608055 3.6527e-05 10
14.1639 31.8126 0.607842 3.65193e-05 10
6.89825 15.4937 2.08243 7.29215e-05 10
6.07122 13.6362 2.36415 0.000848105 10
3.96065 8.97999 -2.62982 0.0006969 4
4.42634 10.0358 -2.53231 0.000159591 4
5.20857 11.8094 -2.50887 0.000913994 10
5.94622 13.4819 -2.33378 0.000754551 10
6.85247 15.5366 2.08496 7.29375e-05 10
5.95928 13.5115 2.33891 0.000876791 10
3.91773 8.96733 -2.62209 0.000763549 4
4.3821 10.0302 -2.52701 0.000235163 4
5.14123 11.7678 -2.49621 0.000923444 10
5.84385 13.3761 -2.31192 0.000709504 10
6.79952 15.5635 2.08537 7.29536e-05 10
5.84867 13.3871 2.31383 0.000905949 10
3.87289 8.94971 -2.61297 0.000934956 4
4.35392 10.0613 -2.531 0.000159558 4
5.08327 11.7467 -2.48796 0.000932865 10
5.75645 13.3024 -2.2957 0.000721666 10
13.0602 30.1804 1.72343 3.67207e-05 10
13.0646 30.1905 2.87803 3.62127e-05 10
6.73839 15.5715 2.08328 7.29697e-05 10
5.77001 13.3337 2.30111 0.000840718 10
3.82801 8.93141 -2.60371 0.000953904 4
4.31584 10.0696 -2.52928 0.000206564 4
5.0193 11.7109 -2.47664 0.00023697 10
5.67727 13.2461 -2.28255 0.000733884 10
12.9009 30.1001 1.71626 2.91395e-05 10
12.9023 30.1033 2.86541 2.87506e-05 10
6.68832 15.605 2.08463 7.29859e-05 10
5.68207 13.2573 2.28448 0.00085497 10
3.78778 8.92343 -2.59752 0.000695072 4
4.28427 10.0931 -2.53141 0.000228372 4
4.97895 11.7297 -2.47692 0.000236939 10
5.59927 13.191 -2.26968 0.000746153 10
6.62479 15.607 2.08179 7.3002e-05 10
5.60636 13.2078 2.27256 0.000869282 10
3.73702 8.89001 -2.58398 0.000824888 4
4.24471 10.0978 -2.52885 0.000218274 4
4.94744 11.7695 -2.48167 0.000236909 10
5.52593 13.1457 -2.25855 0.000758475 10
6.57641 15.6447 2.08374 7.30182e-05 10
5.5247 13.1428 2.25804 0.000883654 10
3.69637 8.87995 -2.57729 0.000815232 4
4.21644 10.1293 -2.53306 0.000189711 4
4.90344 11.7797 -2.48021 0.000236878 10
5.44426 13.079 -2.24381 0.000770843 10
6.52377 15.6723 2.08438 7.30344e-05 10
5.44501 13.0808 2.24412 0.000898081 10
3.65205 8.86054 -2.56794 0.00083264 4
4.17188 10.1217 -2.5275 0.000172904 4
4.86202 11.7961 -2.48007 0.000236848 10
5.38061 13.0543 -2.23634 0.000144283 10
6.46069 15.6748 2.08169 7.30506e-05 10
5.37229 13.0341 2.23289 0.000912562 10
3.60557 8.83519 -2.55693 0.000968771 4
4.13681 10.1369 -2.52767 0.000221563 4
4.81695 11.8036 -2.47808 0.000236817 10
5.34419 13.0955 -2.24019 0.00014426 10
6.88227 16.8645 -2.23649 4.96084e-05 10
6.40765 15.7015 2.08225 7.30669e-05 10
5.29467 12.9742 2.21944 0.000927098 10
3.56565 8.82529 -2.55044 0.000374091 4
4.1013 10.1511 -2.52761 0.000231609 4
4.77436 11.8169 -2.47737 0.000236787 10
5.30053 13.1193 -2.24107 0.000144236 10
6.81756 16.874 -2.23458 4.95972e-05 10
6.35701 15.7341 2.08363 7.30831e-05 10
5.21737 12.9134 2.20591 0.000941681 10
3.52781 8.82016 -2.54539 0.000207281 4
4.07546 10.1894 -2.53359 0.000223194 4
4.73456 11.8372 -2.47815 0.000236756 10
5.24833 13.1217 -2.23836 0.000144213 10
5.87603 14.6911 -1.94278 0.000658353 10
5.876 14.691 -1.3843 0.000668576 10
5.87508 14.6887 -0.829097 0.000675404 10
5.87197 14.681 -0.275995 0.000678757 10
5.86853 14.6724 0.275833 0.000678594 10
5.87314 14.6839 0.828823 0.000674915 10
5.87181 14.6806 1.38331 0.000667767 10
5.87378 14.6855 1.94203 0.000657234 10
5.14972 12.8752 2.1963 0.000956312 10
3.47923 8.78752 -2.53245 0.000180934 4
4.03766 10.198 -2.53221 0.000251696 4
4.69661 11.8623 -2.47994 0.000236725 10
5.19961 13.1327 -2.23711 0.000144189 10
5.78942 14.6224 -1.93101 0.00049901 10
5.78457 14.6102 -1.37476 0.000506861 10
5.79103 14.6265 -0.824436 0.000512145 10
5.78189 14.6034 -0.274155 0.000514799 10
5.78327 14.6069 0.27422 0.000514791 10
5.7927 14.6307 0.824672 0.000512121 10
5.79053 14.6252 1.37618 0.000506821 10
5.78685 14.6159 1.93015 0.000498955 10
5.0699 12.8051 2.18131 0.000970987 10
3.44276 8.78489 -2.52821 0.000396003 4
3.99681 10.1986 -2.5289 0.000204692 4
