VERSION 0.7
FIELDS x y z intensity label
SIZE 4 4 4 4 4
TYPE F F F F F
COUNT 1 1 1 1 1
WIDTH 1156
HEIGHT 1
VIEWPOINT 11.2914 0 2.73005 0.999911 -0.000209974 0.00032473 -0.0133203
POINTS 1156
DATA ascii
-11.8025 -21.2923 -0.424938 0.000109891 10
-11.7993 -21.2865 0.424822 0.000109866 10
-11.8056 -21.2978 1.27618 8.51309e-05 10
-11.8006 -21.2889 2.12954 8.40911e-05 10
-11.7934 -21.2759 2.98685 8.25592e-05 10
-11.8052 -21.2972 3.8567 8.0557e-05 10
-11.7973 -21.2829 4.73002 7.81126e-05 10
-11.796 -21.2806 5.61731 7.52601e-05 10
-11.7997 -21.2873 6.52159 7.2039e-05 10
-4.78615 -8.70596 -2.66203 0.000102044 4
-5.55376 -10.1023 -2.6615 3.02902e-05 4
-6.59295 -11.9925 -2.66015 6.38173e-05 4
-8.33799 -15.1667 -2.74125 4.77492e-05 1
-11.7956 -21.456 -2.14213 0.000104839 10
-11.7943 -21.4538 -1.28305 0.000106091 10
-11.7882 -21.4426 -0.427114 0.000106709 10
-11.7941 -21.4534 0.427329 0.000106685 10
-11.7883 -21.4428 1.28239 8.26645e-05 10
-11.7928 -21.4511 2.14163 8.16523e-05 10
-11.7998 -21.4638 3.00742 0.000137063 10
-11.7927 -21.4507 3.87703 7.82127e-05 10
-11.7982 -21.4609 4.7604 0.000129702 10
-11.7942 -21.4536 5.65209 0.000124973 10
-11.7972 -21.4591 6.56157 0.00011963 10
-4.7489 -8.7101 -2.65821 9.20906e-05 4
-5.51975 -10.1239 -2.66212 7.93332e-05 4
-6.56043 -12.0327 -2.66396 4.08145e-05 4
-8.28189 -15.1901 -2.74022 4.77509e-05 1
-11.7011 -21.4614 -2.13857 0.000180919 10
-11.6996 -21.4586 -1.28089 0.000183103 10
-11.7029 -21.4647 -0.426737 0.000184195 10
-11.7924 -21.6287 0.429998 0.000103564 10
-11.6955 -21.451 1.28043 0.000142733 10
-11.6984 -21.4563 2.13807 0.000141006 10
-11.6983 -21.4562 3.00062 0.000138453 10
-11.7927 -21.6294 3.90185 7.59131e-05 10
-11.6932 -21.4468 4.74819 0.000131023 10
-11.6927 -21.4459 5.63926 0.00012625 10
-11.6994 -21.4582 6.54876 0.000120857 10
-4.71384 -8.71806 -2.6556 0.000109515 4
-5.48669 -10.1474 -2.66324 0.000128378 4
-8.23844 -15.2367 -2.74343 4.77526e-05 1
-11.5956 -21.4456 -2.13295 0.000182735 10
-11.6021 -21.4577 -1.27841 0.00018494 10
-11.5944 -21.4434 -0.425506 0.000186042 10
-11.7923 -21.8093 0.432767 0.000100503 10
-11.6006 -21.4549 1.27824 0.000144165 10
-11.5972 -21.4485 2.13324 0.000142423 10
-11.5924 -21.4398 2.99264 0.000139845 10
-11.7935 -21.8116 3.92728 7.36581e-05 10
-11.6036 -21.4604 4.74221 0.000132346 10
-11.5953 -21.4451 5.62838 0.000127529 10
-11.6014 -21.4563 6.53578 0.000122085 10
-4.6888 -8.74457 -2.65868 0.00010205 4
-5.45149 -10.167 -2.66337 0.000111071 4
-6.46955 -12.0657 -2.6612 7.49543e-05 4
-8.18131 -15.2581 -2.74212 4.77542e-05 1
-11.4991 -21.4457 -2.12895 0.000184553 10
-11.505 -21.4567 -1.27595 0.000186778 10
-11.5059 -21.4585 -0.425006 0.00018789 10
-11.7778 -21.9655 0.435047 9.75019e-05 10
-11.4956 -21.4392 1.27491 0.000145598 10
-11.5067 -21.46 2.13037 0.00014384 10
-11.4943 -21.4368 2.98661 0.00014124 10
-11.7772 -21.9644 3.94736 7.14474e-05 10
-11.5029 -21.4528 4.73163 0.000133671 10
-11.508 -21.4623 5.6223 0.000128809 10
-11.5033 -21.4536 6.52269 0.000123315 10
-4.65996 -8.7641 -2.65965 5.47596e-05 4
-5.4162 -10.1864 -2.66348 0.000111074 4
-6.42442 -12.0826 -2.65997 3.26542e-05 4
-8.12342 -15.2779 -2.74058 4.7756e-05 1
-11.4272 -21.4915 -2.12953 0.000104493 10
-11.4321 -21.5006 -1.27618 0.000105737 10
-11.4274 -21.4918 -0.424873 0.000106351 10
-11.774 -22.1436 0.437759 9.45601e-05 10
-11.4312 -21.499 1.27608 8.23877e-05 10
-11.4368 -21.5095 2.13131 8.13805e-05 10
-11.4338 -21.5039 2.99037 7.98971e-05 10
-11.7836 -22.1617 3.9754 6.92807e-05 10
-11.44 -21.5155 4.73663 7.55917e-05 10
-11.4297 -21.496 5.62067 7.283e-05 10
-11.4349 -21.5059 6.52643 6.97116e-05 10
-4.63166 -8.78472 -2.66099 0.000204108 4
-5.37446 -10.1936 -2.66044 0.00016445 4
-6.38773 -12.1154 -2.66228 5.93729e-05 4
-8.07019 -15.3065 -2.74063 4.77577e-05 1
-11.8361 -22.4491 -2.22031 8.81224e-05 10
-11.8276 -22.4331 -1.32907 8.91891e-05 10
-11.8357 -22.4485 -0.442966 8.97158e-05 10
-11.769 -22.3219 0.440469 9.16767e-05 10
-11.8378 -22.4524 1.33021 4.43593e-05 10
-11.8423 -22.461 2.22148 4.38081e-05 10
-11.8417 -22.4598 3.11753 4.29964e-05 10
-11.771 -22.3257 3.99741 6.71574e-05 10
-11.4358 -21.69 4.76622 7.32961e-05 10
-11.8452 -22.4664 5.86355 3.91357e-05 10
-11.8339 -22.445 6.79883 3.74324e-05 10
-4.60015 -8.79927 -2.66051 0.000191666 4
-5.33599 -10.2068 -2.65901 4.03922e-05 4
-11.7649 -22.5041 0.443251 8.88521e-05 10
-11.7692 -22.5124 4.02347 6.50776e-05 10
-11.4272 -21.8582 4.79439 7.1047e-05 10
-5.2996 -10.224 -2.65865 3.17375e-05 4
-6.30506 -12.1637 -2.66315 2.89459e-05 4
-11.7576 -22.6827 0.445957 8.6085e-05 10
-11.7579 -22.6833 4.04666 6.30405e-05 10
-4.54172 -8.83722 -2.66234 0.000121974 4
-5.26146 -10.2377 -2.65742 8.36734e-05 4
-6.25296 -12.1669 -2.65906 4.52756e-05 4
-11.761 -22.8844 0.449112 8.33759e-05 10
-11.7582 -22.8791 4.07423 6.10463e-05 10
-4.50089 -8.83349 -2.65646 6.72112e-05 4
-5.22591 -10.2564 -2.65754 7.21338e-05 4
-6.21809 -12.2037 -2.66233 3.11742e-05 4
-11.7578 -23.076 0.452065 8.07237e-05 10
-11.7484 -23.0575 4.09869 5.90944e-05 10
-4.46964 -8.84839 -2.65624 3.73402e-05 4
-5.18968 -10.2738 -2.65733 0.00010099 4
-6.17093 -12.2164 -2.66038 4.52782e-05 4
-7.57824 -15.0024 -2.66209 6.09963e-05 4
-11.7866 -23.3335 -2.28708 0.000140059 10
-11.7917 -23.3437 -1.37061 0.000141797 10
-11.7869 -23.334 -0.456311 0.000142667 10
-11.7478 -23.2568 0.4548 7.8128e-05 10
-11.7861 -23.3324 1.36995 7.05625e-05 10
-11.7892 -23.3386 2.28758 6.96858e-05 10
-11.7971 -23.3543 3.21263 6.83895e-05 10
-11.7463 -23.2537 4.12625 5.71843e-05 10
-11.7966 -23.3533 5.0857 6.462e-05 10
-11.7897 -23.3397 6.03683 6.22012e-05 10
-11.799 -23.3581 7.01198 5.94708e-05 10
-4.44191 -8.87029 -2.65814 9.95759e-05 4
-5.16081 -10.3059 -2.66095 7.06943e-05 4
-6.13451 -12.2503 -2.6631 6.82903e-05 4
-7.53074 -15.0385 -2.66382 6.03598e-05 4
-11.7059 -23.3761 -2.28724 0.000140626 10
-11.7062 -23.3767 -1.37015 0.000142371 10
-11.7046 -23.3736 -0.456284 0.000143244 10
-11.7018 -23.368 0.456173 0.000143232 10
-11.7007 -23.3657 1.3695 0.000110981 10
-11.7115 -23.3874 2.28834 0.000109602 10
-11.7047 -23.3738 3.20967 0.000107564 10
-11.7463 -23.4569 4.15499 5.53157e-05 10
-11.6993 -23.3629 5.07886 0.000101636 10
-11.7111 -23.3866 6.03836 9.78329e-05 10
-11.7108 -23.3859 7.00802 9.35394e-05 10
-4.41532 -8.8946 -2.66079 8.21517e-05 4
-5.1299 -10.3341 -2.6636 0.000113979 4
-7.48382 -15.076 -2.66583 6.35558e-05 4
-9.29171 -18.718 -2.56588 8.23596e-05 4
-11.6009 -23.3699 -2.28266 0.000141961 10
-11.598 -23.3641 -1.36702 0.000143722 10
-11.6015 -23.3711 -0.455442 0.000144602 10
-11.6066 -23.3812 0.455639 0.000144591 10
-11.6032 -23.3745 1.36764 0.000112034 10
-11.6075 -23.3832 2.28396 0.000110643 10
-11.5993 -23.3665 3.2031 0.000108587 10
-11.7434 -23.657 4.18316 5.34885e-05 10
-11.5988 -23.3657 5.07063 0.000102608 10
-11.6046 -23.3773 6.02545 9.87708e-05 10
-11.5979 -23.3639 6.98923 9.44395e-05 10
-4.37847 -8.89823 -2.65729 0.000375913 4
-5.08827 -10.3407 -2.66071 3.0299e-05 4
-7.42692 -15.0935 -2.66431 5.90868e-05 4
-9.27445 -18.8482 -2.57926 8.61437e-05 4
-11.494 -23.3588 -2.27764 0.000143297 10
-11.4915 -23.3538 -1.36407 0.000145073 10
-11.5004 -23.3719 -0.454671 0.000145961 10
-11.498 -23.367 0.454577 0.000145949 10
-11.4971 -23.3652 1.36473 0.000113087 10
-11.4942 -23.3594 2.27769 0.000111684 10
-11.5034 -23.378 3.19914 0.000109611 10
-11.7385 -23.8558 4.21104 5.17022e-05 10
-11.4954 -23.3618 5.06105 0.000103579 10
-11.5032 -23.3776 6.01514 9.97089e-05 10
-11.5032 -23.3775 6.98125 9.53398e-05 10
-4.35023 -8.91929 -2.65903 8.71339e-05 4
-5.05139 -10.3569 -2.66031 0.000122642 4
-6.0012 -12.3043 -2.66102 5.64186e-05 4
-11.4006 -23.3748 -2.2753 0.000144633 10
-11.402 -23.3776 -1.36312 0.000146424 10
-11.3956 -23.3645 -0.453752 0.00014732 10
-11.3948 -23.3629 0.45372 0.000147308 10
-11.3934 -23.3598 1.36209 0.000114141 10
-11.401 -23.3756 2.27538 0.000112726 10
-11.3922 -23.3575 3.19088 0.000110634 10
-11.722 -24.0337 4.23519 4.99562e-05 10
-11.3936 -23.3604 5.05211 0.000104551 10
-11.4014 -23.3764 6.00456 0.000100647 10
-11.3951 -23.3633 6.96509 9.62403e-05 10
-4.31323 -8.92233 -2.65543 4.48126e-05 4
-5.02075 -10.3859 -2.66325 5.48293e-05 4
-5.95871 -12.3262 -2.66124 5.64202e-05 4
-9.24182 -19.1176 -2.60724 9.60719e-05 4
-11.721 -24.246 -2.35611 6.48002e-05 10
-11.7237 -24.2516 -1.41169 6.56029e-05 10
-11.7233 -24.2508 -0.470166 6.59988e-05 10
-11.714 -24.2316 0.469793 6.59819e-05 10
-11.7197 -24.2434 1.41121 5.11121e-05 10
-11.7226 -24.2494 2.35644 5.04605e-05 10
-11.7163 -24.2363 3.30532 4.95019e-05 10
-11.7217 -24.2474 4.26561 4.82504e-05 10
-11.7287 -24.2619 5.23819 4.67243e-05 10
-11.7289 -24.2624 6.2216 4.49459e-05 10
-11.7294 -24.2634 7.22119 4.29411e-05 10
-4.28426 -8.94195 -2.6568 3.73446e-05 4
-4.98197 -10.3982 -2.66192 6.63739e-05 4
-5.91523 -12.346 -2.66105 3.41501e-05 4
-9.23721 -19.2796 -2.62491 9.34779e-05 4
-11.7191 -24.4596 -2.37287 6.25713e-05 10
-11.7157 -24.4525 -1.421 6.33486e-05 10
-11.7096 -24.4398 -0.473035 6.37318e-05 10
-11.7164 -24.454 0.473309 6.37154e-05 10
-11.7145 -24.4501 1.42086 4.93553e-05 10
-11.7168 -24.4548 2.37242 4.87243e-05 10
-11.7199 -24.4614 3.33041 4.7796e-05 10
-11.7187 -24.4588 4.29558 4.65841e-05 10
-11.7158 -24.4527 5.27052 4.51065e-05 10
-11.7131 -24.447 6.25842 4.33847e-05 10
-11.7212 -24.4641 7.26868 4.1444e-05 10
-4.26006 -8.97167 -2.6612 0.000129464 4
-4.93815 -10.3997 -2.65789 7.35902e-05 4
-5.86866 -12.3594 -2.6595 3.11814e-05 4
-9.21467 -19.406 -2.63774 7.68302e-05 4
-4.21949 -8.96688 -2.65539 0.00018922 4
-4.90726 -10.4285 -2.66084 7.0706e-05 4
-9.20659 -19.565 -2.65496 9.94728e-05 4
-4.19401 -8.99407 -2.65909 0.000122 4
-4.87265 -10.4494 -2.66184 9.81249e-05 4
-5.78879 -12.4141 -2.66251 4.75174e-05 4
-4.16455 -9.0129 -2.66034 0.000206656 4
-4.83862 -10.4717 -2.66319 0.000102456 4
-5.73916 -12.4207 -2.65961 4.67763e-05 4
-4.13643 -9.03475 -2.66251 6.47371e-05 4
-4.79776 -10.4792 -2.66082 0.000124105 4
-4.10535 -9.0502 -2.66283 9.71076e-05 4
-4.75966 -10.4926 -2.65999 4.61798e-05 4
-5.65271 -12.4613 -2.6598 6.53423e-05 4
-4.07204 -9.06071 -2.66172 0.000258959 4
-4.71721 -10.4963 -2.65673 5.48398e-05 4
-5.61258 -12.4886 -2.66142 5.56911e-05 4
-4.03066 -9.053 -2.65531 9.21315e-05 4
-4.69162 -10.5375 -2.66301 8.65914e-05 4
-5.56323 -12.4952 -2.65868 5.198e-05 4
-4.00406 -9.07841 -2.65865 0.000114544 4
-4.64809 -10.5386 -2.65917 5.33993e-05 4
-3.9698 -9.0865 -2.65694 0.000249014 4
-4.61747 -10.569 -2.66274 6.20603e-05 4
-5.47831 -12.5393 -2.65987 4.23292e-05 4
-8.38111 -19.1836 -2.57043 0.000123425 4
-3.94232 -9.11017 -2.65982 0.000141941 4
-4.57556 -10.5735 -2.65984 5.77319e-05 4
-5.43611 -12.5621 -2.66065 5.79259e-05 4
-8.36827 -19.3379 -2.58718 0.000111278 4
-3.91404 -9.13215 -2.66223 0.000119532 4
-4.53503 -10.581 -2.65774 7.794e-05 4
-5.39603 -12.5899 -2.66253 3.41625e-05 4
-8.36075 -19.5071 -2.6059 0.000112769 4
-3.87524 -9.12948 -2.6575 0.000169341 4
-4.49962 -10.6004 -2.65866 0.0001198 4
-5.34767 -12.5983 -2.66035 6.38711e-05 4
-8.34988 -19.6711 -2.62389 7.63293e-05 4
-3.84214 -9.14009 -2.65666 0.000194248 4
-8.33507 -19.8283 -2.64097 0.000100355 4
-3.81623 -9.16791 -2.66086 0.000174329 4
-5.26023 -12.6369 -2.66068 3.49085e-05 4
-6.45809 -15.5146 -2.66165 7.25525e-05 4
-8.32576 -20.0013 -2.66013 0.000102483 4
-3.77829 -9.16683 -2.6567 0.000169351 4
-4.38558 -10.6402 -2.65696 8.66089e-05 4
-8.31586 -20.1758 -2.67945 9.84461e-05 4
-3.74481 -9.17638 -2.65567 0.000196751 4
-4.35517 -10.672 -2.66109 7.36195e-05 4
-8.30436 -20.3492 -2.69862 7.92467e-05 4
-3.72199 -9.21224 -2.66227 0.000214189 4
-4.31574 -10.6818 -2.65977 6.06294e-05 4
-5.13086 -12.6993 -2.66236 3.19406e-05 4
-8.28778 -20.513 -2.71648 8.78533e-05 4
-3.68391 -9.21043 -2.65801 5.72843e-05 4
-4.28014 -10.7011 -2.66083 0.000131367 4
-5.08225 -12.7065 -2.66014 6.38833e-05 4
-8.27873 -20.6983 -2.73718 5.03836e-05 4
-3.65494 -9.23132 -2.66034 8.96644e-05 4
-4.23826 -10.7046 -2.65801 7.50688e-05 4
-3.62258 -9.24372 -2.66026 0.000495656 4
-4.19919 -10.7151 -2.65695 7.50708e-05 4
-4.99012 -12.7333 -2.65838 4.90299e-05 4
-3.58755 -9.24926 -2.65823 0.000545483 4
-4.1704 -10.7519 -2.66247 7.9404e-05 4
-3.55923 -9.27211 -2.66121 0.00050066 4
-4.90114 -12.7679 -2.6584 8.02361e-05 4
-3.52303 -9.27444 -2.65833 0.000515616 4
-4.09394 -10.7774 -2.66162 3.32071e-05 4
-3.49508 -9.2985 -2.66172 0.000386098 4
-4.05042 -10.776 -2.65776 0.000145826 4
-4.81889 -12.8204 -2.66227 2.89761e-05 4
-3.46297 -9.31163 -2.662 0.000495711 4
-4.01842 -10.8052 -2.6615 8.80757e-05 4
-3.42802 -9.31708 -2.66012 0.000149464 4
-3.97465 -10.8028 -2.65747 4.62049e-05 4
-3.39146 -9.31796 -2.65698 0.000156941 4
-3.93555 -10.8128 -2.65655 4.33183e-05 4
-3.36393 -9.34369 -2.66095 8.96825e-05 4
-3.90014 -10.8331 -2.65816 4.47634e-05 4
-3.33262 -9.35909 -2.662 9.96495e-05 4
-3.86379 -10.8508 -2.65918 0.000131406 4
-3.29585 -9.35906 -2.65871 0.000156952 4
-3.83134 -10.8797 -2.66297 7.65353e-05 4
-4.54587 -12.9087 -2.66023 5.94502e-05 4
-3.2637 -9.37208 -2.65915 0.000480831 4
-3.78407 -10.8664 -2.65646 0.00014441 4
-4.50464 -12.9356 -2.66252 3.4185e-05 4
-3.23156 -9.38514 -2.65964 8.71994e-05 4
-3.74687 -10.8817 -2.65699 7.50954e-05 4
-4.45994 -12.9526 -2.66281 4.31044e-05 4
-5.46899 -15.8831 -2.66059 3.13467e-05 4
-3.19493 -9.38503 -2.65643 5.23209e-05 4
-3.71289 -10.9066 -2.65988 0.000170414 4
-3.16483 -9.4041 -2.65869 0.000119593 4
-3.12951 -9.40765 -2.65659 9.21887e-05 4
-3.63227 -10.919 -2.65667 6.49919e-05 4
-4.32422 -12.9991 -2.66291 4.16224e-05 4
-3.09467 -9.41249 -2.65489 8.4716e-05 4
-3.60237 -10.9567 -2.66276 0.000171872 4
-4.27642 -13.0068 -2.66141 0.000128588 4
-3.06752 -9.44084 -2.65985 0.000169436 4
-3.55887 -10.9531 -2.65885 7.0773e-05 4
-3.03591 -9.45575 -2.66105 0.000356323 4
-4.18046 -13.0206 -2.6582 3.34501e-05 4
-2.99858 -9.45273 -2.65723 0.000234232 4
-3.484 -10.983 -2.66014 3.89996e-05 4
-2.96443 -9.45951 -2.65622 0.000156989 4
-2.92986 -9.46485 -2.65483 6.97746e-05 4
-3.40767 -11.0084 -2.66047 3.61129e-05 4
-4.04711 -13.0741 -2.66032 4.90654e-05 4
-2.90298 -9.49523 -2.66049 3.98721e-05 4
-3.36494 -11.0062 -2.65709 9.96744e-05 4
-4.00501 -13.0998 -2.66269 3.56853e-05 4
-2.87131 -9.51022 -2.66187 4.73493e-05 4
-3.32614 -11.0167 -2.6568 3.90042e-05 4
-3.95764 -13.1083 -2.6616 3.34562e-05 4
-2.83586 -9.5127 -2.65977 0.000147036 4
-3.29471 -11.0519 -2.6625 3.90053e-05 4
-2.79731 -9.50443 -2.65471 7.47658e-05 4
-3.2497 -11.0415 -2.65726 5.20086e-05 4
-3.86704 -13.1391 -2.6623 5.50208e-05 4
-4.74997 -16.139 -2.66458 3.29659e-05 4
-2.76772 -9.52654 -2.65818 9.22134e-05 4
-3.21079 -11.0516 -2.65696 9.10178e-05 4
-3.81982 -13.1479 -2.66137 4.53566e-05 4
-2.737 -9.54505 -2.66066 0.00010717 4
-3.17842 -11.0845 -2.66218 3.90088e-05 4
-3.77037 -13.1489 -2.65888 8.25373e-05 4
-2.7017 -9.54761 -2.65873 0.000196898 4
-3.13476 -11.078 -2.65798 7.80199e-05 4
-3.72742 -13.1724 -2.661 3.27187e-05 4
-8.11248 -28.6689 -2.60669 2.9466e-05 4
-2.66944 -9.56085 -2.6598 4.98488e-05 4
-3.09777 -11.095 -2.65945 7.65774e-05 4
-3.68333 -13.1922 -2.66238 3.42072e-05 4
-4.51807 -16.1819 -2.66098 2.88107e-05 4
-2.63472 -9.56529 -2.65846 0.00010967 4
-3.0611 -11.1132 -2.66124 8.23594e-05 4
-3.63362 -13.1918 -2.65971 4.83381e-05 4
-2.59985 -9.56902 -2.65696 0.000129613 4
-3.02091 -11.1188 -2.66003 4.33484e-05 4
-2.56408 -9.56928 -2.65453 0.000144573 4
-2.98253 -11.131 -2.66044 0.000160394 4
-3.54414 -13.2269 -2.66175 0.000127176 4
-2.53785 -9.60539 -2.66207 0.00025924 4
-2.94437 -11.144 -2.66108 0.000140168 4
-3.49791 -13.239 -2.66172 0.000152468 4
-2.49873 -9.59275 -2.65614 0.000167015 4
-2.90565 -11.155 -2.66126 4.04622e-05 4
-3.45369 -13.2589 -2.66327 0.00015173 4
-2.46846 -9.614 -2.65962 7.22918e-05 4
-2.86464 -11.157 -2.65935 0.0001185 4
-3.40247 -13.2517 -2.65943 0.000148017 4
-4.17972 -16.2789 -2.66196 5.15544e-05 4
-2.43273 -9.61404 -2.65727 0.000162038 4
-2.82431 -11.1616 -2.65806 6.21422e-05 4
-3.35809 -13.271 -2.66093 0.000144303 4
-2.403 -9.6379 -2.66153 0.000271732 4
-2.78794 -11.1818 -2.66055 0.000167645 4
-3.31302 -13.2878 -2.66195 4.09123e-05 4
-2.36595 -9.63243 -2.65772 6.48184e-05 4
-2.74828 -11.189 -2.65997 0.000102613 4
-2.32955 -9.62922 -2.65457 0.000109696 4
-2.7089 -11.1973 -2.65966 0.000104062 4
-2.30096 -9.6584 -2.66039 7.23012e-05 4
-2.66853 -11.2013 -2.6584 9.10569e-05 4
-2.26491 -9.65647 -2.65766 0.000124661 4
-2.62853 -11.2068 -2.6575 0.000104068 4
-3.12213 -13.3113 -2.65767 4.24066e-05 4
-2.23453 -9.67882 -2.66165 0.000119677 4
-2.59273 -11.2303 -2.66093 5.20358e-05 4
-3.08018 -13.3417 -2.66158 7.29126e-05 4
-2.5519 -11.2322 -2.65924 7.95016e-05 4
-3.03332 -13.3512 -2.66135 6.02668e-05 4
-2.16327 -9.6779 -2.65718 5.4855e-05 4
-2.51377 -11.2459 -2.6604 9.2514e-05 4
-3.66784 -16.409 -2.66306 3.71617e-05 4
-2.12831 -9.68011 -2.65573 0.000162076 4
-2.47537 -11.2586 -2.66134 0.000117092 4
-2.93619 -13.3546 -2.65787 3.86929e-05 4
-2.09877 -9.70721 -2.66114 8.7274e-05 4
-2.43608 -11.2673 -2.66137 0.00019805 4
-2.89093 -13.3711 -2.65913 7.44123e-05 4
-2.06447 -9.71256 -2.66061 9.22636e-05 4
-2.39496 -11.2674 -2.6594 0.000137339 4
-2.84602 -13.3895 -2.66079 2.97661e-05 4
-2.02639 -9.69979 -2.65516 0.000124684 4
-2.35334 -11.2648 -2.65683 7.95144e-05 4
-2.79729 -13.3899 -2.65892 8.5581e-05 4
-3.43576 -16.446 -2.66103 6.0881e-05 4
-1.99198 -9.70418 -2.65444 0.000104737 4
-2.31674 -11.2863 -2.65997 0.000135902 4
-2.74908 -13.3925 -2.65751 7.14445e-05 4
-3.38016 -16.4669 -2.66247 6.7293e-05 4
-1.959 -9.71554 -2.65566 0.000124691 4
-2.27748 -11.295 -2.66015 7.08447e-05 4
-2.70203 -13.4006 -2.65723 3.72121e-05 4
-3.32443 -16.4874 -2.6639 6.56943e-05 4
-1.92753 -9.73473 -2.65905 0.000102249 4
-2.23621 -11.2937 -2.65797 7.80763e-05 4
-3.26206 -16.4746 -2.65998 6.08906e-05 4
-1.89419 -9.74476 -2.65997 0.000229443 4
-2.19926 -11.3142 -2.66097 8.96461e-05 4
-2.61143 -13.4346 -2.66031 3.05164e-05 4
-1.85659 -9.7326 -2.65487 7.98086e-05 4
-2.15934 -11.3197 -2.66047 0.000169177 4
-1.82723 -9.76371 -2.6616 9.47753e-05 4
-2.12108 -11.3339 -2.66206 0.000120018 4
-2.51457 -13.4365 -2.65713 3.57295e-05 4
-1.78958 -9.75064 -2.65631 3.74123e-05 4
-2.08022 -11.3342 -2.66042 0.000160511 4
-2.46874 -13.4511 -2.6583 4.46637e-05 4
-1.75575 -9.75804 -2.65664 9.72748e-05 4
-2.04015 -11.3386 -2.65977 5.49517e-05 4
-2.42552 -13.4805 -2.66242 3.34991e-05 4
-1.72234 -9.76787 -2.65767 0.000127209 4
-2.00093 -11.3478 -2.66027 8.9661e-05 4
-2.37406 -13.4639 -2.6575 4.31785e-05 4
-1.68745 -9.76927 -2.65643 9.72802e-05 4
-1.95796 -11.3354 -2.65574 5.35091e-05 4
-2.32906 -13.4838 -2.6598 5.28586e-05 4
-1.65432 -9.78094 -2.65802 0.000169621 4
-1.92271 -11.3678 -2.66173 8.67745e-05 4
-1.6218 -9.79652 -2.6607 4.49011e-05 4
-1.87893 -11.3497 -2.65595 0.000121488 4
-2.2372 -13.5139 -2.66258 3.57383e-05 4
-1.58676 -9.79692 -2.65929 0.000104772 4
-1.84129 -11.3685 -2.65882 0.000101244 4
-2.18618 -13.4979 -2.65791 8.19038e-05 4
-1.55046 -9.78919 -2.6557 0.000117248 4
-1.79984 -11.3637 -2.65623 8.67833e-05 4
-1.51902 -9.81228 -2.66051 0.000104778 4
-1.48235 -9.80158 -2.65619 9.48019e-05 4
-1.7198 -11.3716 -2.6552 0.000137416 4
-1.44937 -9.81511 -2.65847 8.23304e-05 4
-1.68388 -11.4032 -2.66118 3.32704e-05 4
-1.99949 -13.5405 -2.66055 4.46824e-05 4
-1.41651 -9.82988 -2.66111 4.24138e-05 4
-1.9527 -13.5508 -2.66121 6.2558e-05 4
-1.3808 -9.82488 -2.65844 4.99e-05 4
-1.60106 -11.3922 -2.65593 0.000108498 4
-1.90371 -13.5456 -2.65887 6.40502e-05 4
-1.34646 -9.82936 -2.65837 5.48916e-05 4
-1.85796 -13.5634 -2.66108 3.57505e-05 4
-1.30989 -9.81713 -2.6538 9.48155e-05 4
-1.52483 -11.4281 -2.66176 8.53574e-05 4
-1.80997 -13.5651 -2.66015 7.37385e-05 4
-1.27901 -9.84785 -2.66089 0.000102304 4
-1.48238 -11.4137 -2.65719 0.000144679 4
-1.7627 -13.572 -2.66029 3.27741e-05 4
-2.16566 -16.6747 -2.66319 4.07427e-05 4
-1.24324 -9.84124 -2.65791 0.000149717 4
-1.71517 -13.577 -2.66007 3.35204e-05 4
-1.20795 -9.83798 -2.65587 0.000142236 4
-1.40365 -11.4318 -2.65905 5.78755e-05 4
-1.17498 -9.85366 -2.65899 9.23312e-05 4
-1.36229 -11.4245 -2.65623 8.39224e-05 4
-1.6215 -13.5983 -2.66197 4.24629e-05 4
-1.14115 -9.86262 -2.66031 0.000189659 4
-1.32208 -11.4264 -2.65559 3.18338e-05 4
-1.57243 -13.5901 -2.65928 3.05448e-05 4
-1.10689 -9.86811 -2.66073 0.000182178 4
-1.5251 -13.5965 -2.65947 2.90561e-05 4
-1.07161 -9.86437 -2.6587 9.98263e-05 4
-1.24317 -11.4436 -2.6575 8.97197e-05 4
-1.03743 -9.87053 -2.65937 3.99317e-05 4
-1.20225 -11.4387 -2.65537 9.117e-05 4
-1.00103 -9.85493 -2.65421 0.000134773 4
-1.16294 -11.4489 -2.65679 5.49934e-05 4
-1.38325 -13.6178 -2.66065 5.36491e-05 4
-0.966954 -9.86175 -2.65512 4.24299e-05 4
-1.12343 -11.4576 -2.65788 0.000101307 4
-1.33379 -13.6031 -2.65685 9.98513e-05 4
-0.933405 -9.87438 -2.65763 5.99029e-05 4
-1.08266 -11.4533 -2.656 3.18406e-05 4
-1.28711 -13.6162 -2.65852 3.57692e-05 4
-0.899665 -9.88565 -2.6598 9.48491e-05 4
-1.04287 -11.4592 -2.65649 6.65781e-05 4
-1.24035 -13.6292 -2.66019 4.91849e-05 4
-0.864706 -9.88361 -2.65842 0.000279564 4
-1.00242 -11.4576 -2.65531 0.000241716 4
-1.19197 -13.6243 -2.65841 6.03659e-05 4
-0.830952 -9.89553 -2.66083 0.000124809 4
-0.962876 -11.4666 -2.65658 8.53998e-05 4
-0.796431 -9.89869 -2.66092 0.000109835 4
-0.924091 -11.4854 -2.66017 0.000107116 4
-1.09728 -13.6379 -2.6595 7.75138e-05 4
-0.761703 -9.89921 -2.66033 0.000104846 4
-0.883624 -11.4837 -2.65906 3.90841e-05 4
-1.05012 -13.6475 -2.66065 4.91937e-05 4
-0.726886 -9.89828 -2.65938 5.99138e-05 4
-0.843329 -11.4839 -2.65841 9.40948e-05 4
-0.69238 -9.90148 -2.65957 0.000157278 4
-0.803541 -11.4911 -2.65942 7.09356e-05 4
-0.953571 -13.6367 -2.65717 3.05625e-05 4
-0.656377 -9.88222 -2.65377 6.2414e-05 4
-0.763748 -11.4988 -2.66055 6.6595e-05 4
-0.90713 -13.6575 -2.66059 4.17457e-05 4
-0.622245 -9.8903 -2.65534 0.000169771 4
-0.7233 -11.4965 -2.65943 6.08064e-05 4
-0.858275 -13.6419 -2.65695 4.24931e-05 4
-1.05512 -16.7707 -2.66146 3.37219e-05 4
-0.58876 -9.90996 -2.66005 6.24178e-05 4
-0.682934 -11.4951 -2.65853 7.96304e-05 4
-0.553887 -9.90698 -2.65871 4.99358e-05 4
-0.643318 -11.5066 -2.66065 0.000101351 4
-0.519262 -9.90809 -2.65851 4.74404e-05 4
-0.602369 -11.4939 -2.65721 5.50214e-05 4
-0.716421 -13.6701 -2.66085 3.1315e-05 4
-0.878436 -16.7615 -2.65841 2.89096e-05 4
-0.485125 -9.91908 -2.66099 9.48838e-05 4
-0.56302 -11.5118 -2.66087 5.79194e-05 4
-0.449399 -9.89653 -2.6545 9.73838e-05 4
-0.522083 -11.4971 -2.65706 7.09539e-05 4
-0.762083 -16.7824 -2.6608 4.40122e-05 4
-0.415518 -9.91392 -2.65876 0.000209756 4
-0.481762 -11.4944 -2.65603 4.77871e-05 4
-0.572356 -13.656 -2.65678 7.75527e-05 4
-0.380801 -9.91251 -2.65801 0.000109876 4
-0.442158 -11.5097 -2.65918 7.24074e-05 4
-0.52459 -13.6554 -2.65631 3.43037e-05 4
-0.346364 -9.91854 -2.65929 0.000107382 4
-0.402176 -11.5168 -2.66048 6.80655e-05 4
-0.477733 -13.6804 -2.66083 4.1763e-05 4
-0.311512 -9.91244 -2.65734 3.24653e-05 4
-0.361558 -11.505 -2.65744 3.04134e-05 4
-0.276867 -9.91194 -2.65693 0.000204788 4
-0.321411 -11.5066 -2.65755 5.06909e-05 4
-0.382084 -13.6787 -2.65992 5.74295e-05 4
-0.242004 -9.90212 -2.65406 0.000257241 4
-0.281033 -11.4991 -2.65556 0.000112972 4
-0.334074 -13.6694 -2.65786 4.47523e-05 4
-0.207552 -9.90838 -2.65553 0.000139864 4
-0.286563 -13.6803 -2.65977 3.13281e-05 4
-0.173111 -9.91748 -2.65779 6.99341e-05 4
-0.20073 -11.4998 -2.65534 8.11146e-05 4
-0.238533 -13.6655 -2.65671 4.32647e-05 4
-0.138264 -9.90171 -2.65341 0.00013238 4
-0.160845 -11.5188 -2.65958 0.000289706 4
-0.191008 -13.6789 -2.65917 2.98391e-05 4
-0.103957 -9.92671 -2.66 0.000252278 4
-0.120664 -11.522 -2.66021 6.22892e-05 4
-0.175797 -16.7865 -2.65887 3.08594e-05 4
-0.0692864 -9.92424 -2.65926 4.2464e-05 4
-0.0803808 -11.5133 -2.65813 7.38807e-05 4
-0.0954068 -13.6656 -2.65639 3.28261e-05 4
-0.0401721 -11.5082 -2.65689 9.41652e-05 4
-4.3348e-07 -9.91686 -2.65722 0.00034473 4
-5.02596e-07 -11.4981 -2.65454 7.09888e-05 4
-5.98222e-07 -13.6857 -2.66024 5.74512e-05 4
0.0346022 -9.91315 -2.65624 0.000107419 4
0.0401371 -11.4988 -2.65473 6.37475e-05 4
0.0477626 -13.6834 -2.65981 9.99847e-05 4
0.069149 -9.90486 -2.65406 6.99498e-05 4
0.0802788 -11.4991 -2.65484 3.04261e-05 4
0.0955287 -13.6835 -2.65986 3.95481e-05 4
0.103905 -9.92194 -2.65872 7.74469e-05 4
0.120455 -11.5023 -2.65566 7.53438e-05 4
0.143094 -13.664 -2.65617 3.955e-05 4
0.138615 -9.92695 -2.66018 0.000609602 4
0.160765 -11.5132 -2.65829 5.65101e-05 4
0.173182 -9.92168 -2.65891 9.99379e-05 4
0.207433 -9.9028 -2.65403 0.000124926 4
0.240873 -11.4992 -2.65539 6.66581e-05 4
0.242159 -9.90854 -2.65578 0.000174903 4
0.281056 -11.5001 -2.65581 7.24572e-05 4
0.334301 -13.6788 -2.65968 4.77677e-05 4
0.276908 -9.91349 -2.65735 9.7449e-05 4
0.321396 -11.5062 -2.65744 0.000162311 4
0.38143 -13.6554 -2.65538 6.26981e-05 4
0.311805 -9.92185 -2.65986 0.000309848 4
0.36141 -11.5003 -2.65637 7.53614e-05 4
0.345843 -9.90368 -2.6553 0.000219899 4
0.401332 -11.4927 -2.65491 6.95671e-05 4
0.477223 -13.6659 -2.658 3.13521e-05 4
0.380836 -9.91347 -2.65826 0.000127446 4
0.441729 -11.4986 -2.65661 0.000120298 4
0.525432 -13.6774 -2.66058 4.47909e-05 4
0.415414 -9.91149 -2.65811 9.49628e-05 4
0.481642 -11.4916 -2.65538 7.68197e-05 4
0.703385 -16.7823 -2.66038 5.46982e-05 4
0.449494 -9.89867 -2.65507 0.000114959 4
0.521756 -11.49 -2.65541 6.81259e-05 4
0.620112 -13.656 -2.65719 0.000158277 4
0.761834 -16.7769 -2.65995 6.30678e-05 4
0.48383 -9.89265 -2.6539 0.000257416 4
0.562397 -11.4991 -2.65794 0.000275413 4
0.667864 -13.6555 -2.65753 0.000139619 4
0.820244 -16.7711 -2.65946 5.72795e-05 4
0.519244 -9.90778 -2.65842 0.000514849 4
0.601699 -11.4811 -2.65426 0.000263827 4
0.715163 -13.6462 -2.65618 0.000128426 4
1.13986 -21.7498 -2.67421 3.67887e-05 4
0.554086 -9.91057 -2.65968 0.000494871 4
0.641743 -11.4784 -2.65414 0.000268187 4
0.763227 -13.6513 -2.65769 0.000132166 4
0.937509 -16.7686 -2.66003 5.73288e-05 4
1.22332 -21.8807 -2.6908 3.35596e-05 4
0.587199 -9.8837 -2.653 0.000432402 4
0.682007 -11.4795 -2.65492 0.000279795 4
0.811233 -13.6546 -2.65887 6.12323e-05 4
0.622632 -9.89647 -2.657 0.000394924 4
0.722586 -11.4852 -2.65681 0.000291405 4
0.858451 -13.6447 -2.65751 0.000188619 4
1.06426 -16.916 -2.68452 8.99142e-05 4
1.39079 -22.106 -2.71965 3.5006e-05 4
0.656723 -9.88746 -2.65517 0.000537414 4
0.7636 -11.4966 -2.66004 8.55401e-05 4
0.909466 -13.6927 -2.66745 0.000132452 4
1.12739 -16.9738 -2.6943 8.72874e-05 4
1.47678 -22.234 -2.73601 3.40316e-05 4
0.692255 -9.89972 -2.6591 0.00039495 4
0.803539 -11.4911 -2.65942 0.000350465 4
0.960656 -13.738 -2.67693 0.00021412 4
1.19252 -17.0539 -2.70767 9.12261e-05 4
2.08347 -29.795 -2.61309 3.30389e-05 4
0.72707 -9.90082 -2.66006 0.000174984 4
0.846162 -11.5225 -2.66735 0.000270792 4
1.01195 -13.7801 -2.6858 0.000149077 4
1.25632 -17.1078 -2.71691 7.19087e-05 4
0.761742 -9.89973 -2.66047 0.000479162 4
0.889714 -11.5629 -2.67739 0.000270969 4
1.06405 -13.8286 -2.69595 0.000191528 4
1.32241 -17.1862 -2.73008 8.03339e-05 4
2.25477 -29.3034 -2.57129 3.2419e-05 4
0.796737 -9.90252 -2.66195 0.000388857 4
0.930839 -11.5693 -2.6796 0.000363995 4
1.11727 -13.8864 -2.70797 0.000153978 4
1.38494 -17.2132 -2.73511 4.81633e-05 1
0.834294 -9.93535 -2.67154 0.000550343 4
0.976197 -11.6252 -2.69334 0.000323478 4
1.16888 -13.9198 -2.71526 0.000177867 4
1.4444 -17.2009 -2.73395 4.81664e-05 1
1.84266 -21.9437 -2.70383 0.000100249 4
0.871729 -9.96391 -2.68002 0.000525985 4
1.01798 -11.6356 -2.69656 0.000328027 4
1.22196 -13.9671 -2.7253 0.000147896 4
1.50609 -17.2147 -2.73696 4.81696e-05 1
1.85406 -21.192 -2.61199 0.000112591 4
0.909123 -9.98959 -2.68776 0.000364309 4
1.06321 -11.6827 -2.70831 0.000312903 4
1.27625 -14.0237 -2.73719 0.000112545 1
1.56563 -17.2034 -2.73602 4.81727e-05 1
0.946615 -10.0142 -2.69525 0.00049025 4
1.10547 -11.6947 -2.71196 0.000331929 4
1.32276 -13.9934 -2.73216 0.000112551 1
1.62582 -17.1994 -2.73626 4.81759e-05 1
0.982073 -10.016 -2.69664 0.000542521 4
1.14963 -11.7248 -2.71987 0.000283344 4
1.3742 -14.0152 -2.73734 0.000112556 1
1.68668 -17.2021 -2.73761 4.81791e-05 1
1.02189 -10.0604 -2.70954 0.00043559 4
1.19611 -11.7755 -2.73258 0.000321261 4
1.42161 -13.9955 -2.73444 0.000112562 1
1.71385 -16.8726 -2.6861 0.000236565 4
1.05901 -10.0758 -2.71469 0.000487419 4
1.23668 -11.7663 -2.73142 0.000219585 1
1.46962 -13.9825 -2.7329 0.000112568 1
1.72378 -16.4007 -2.61193 0.000218325 4
1.09705 -10.0986 -2.72182 0.000593074 4
1.27877 -11.7713 -2.73361 0.000219594 1
1.51889 -13.9817 -2.73375 0.000112574 1
1.73694 -15.9888 -2.54728 0.000164377 4
1.13449 -10.1142 -2.72709 0.00042602 4
1.31936 -11.7623 -2.73258 0.000219603 1
1.56833 -13.982 -2.73487 0.000112579 1
1.79264 -15.9818 -2.54714 4.65117e-05 4
1.17181 -10.1277 -2.73181 0.000379945 1
1.36119 -11.7644 -2.73415 0.000219612 1
1.61668 -13.9725 -2.7341 0.000112585 1
1.84761 -15.9685 -2.54603 4.80032e-05 4
1.20942 -10.1425 -2.73692 0.000379958 1
1.40058 -11.7456 -2.7309 0.000219621 1
1.63255 -13.691 -2.68011 0.000355669 4
1.98786 -16.6707 -2.65909 5.63875e-05 4
1.2441 -10.1324 -2.73536 0.000379971 1
1.44324 -11.7543 -2.73407 0.00021963 1
1.64299 -13.3811 -2.62055 0.000394878 4
2.04395 -16.6466 -2.65637 3.89905e-05 4
1.27965 -10.1295 -2.73577 0.000379985 1
1.48402 -11.7472 -2.73361 0.000219639 1
1.65117 -13.0703 -2.56081 0.000182384 4
2.10179 -16.6374 -2.65605 5.76841e-05 4
2.71177 -21.4659 -2.65663 8.85815e-05 4
1.31503 -10.1252 -2.73581 0.000379998 1
1.52436 -11.737 -2.73245 0.000219648 1
1.68605 -12.9819 -2.54462 7.77518e-05 4
2.16184 -16.6453 -2.65849 5.15646e-05 4
2.7325 -21.0391 -2.60497 0.000101301 4
1.3482 -10.1043 -2.73143 0.000380011 1
1.5631 -11.7149 -2.72857 0.000675013 4
1.73183 -12.9794 -2.54531 9.05726e-05 4
2.7525 -20.629 -2.55538 0.000100318 4
1.38513 -10.1117 -2.73473 0.000380024 1
1.57191 -11.4752 -2.67401 0.000724109 4
1.77551 -12.9615 -2.54299 9.31408e-05 4
1.42004 -10.1041 -2.734 0.000380037 1
1.58224 -11.2583 -2.62472 0.000803832 4
1.90221 -13.5349 -2.65678 0.000125597 4
1.45636 -10.1064 -2.73598 0.000380051 1
1.59247 -11.051 -2.57767 0.000805452 4
1.94996 -13.5318 -2.65749 7.62594e-05 4
2.39582 -16.6259 -2.66048 4.86772e-05 4
1.49019 -10.0915 -2.73334 0.000380064 1
1.60865 -10.8938 -2.5423 0.00023387 4
2.45349 -16.615 -2.66009 3.22387e-05 4
1.52007 -10.051 -2.72379 0.00121846 4
1.64958 -10.9073 -2.54679 0.000166351 4
2.04459 -13.5192 -2.65775 0.00012113 4
2.51128 -16.6051 -2.65989 4.93285e-05 4
1.52916 -9.87776 -2.67827 0.000923004 4
1.6847 -10.8825 -2.54235 0.000200947 4
2.09062 -13.5046 -2.65629 6.13161e-05 4
1.53999 -9.72311 -2.63777 0.000997599 4
1.72213 -10.8731 -2.54155 0.000225663 4
2.13799 -13.4987 -2.6566 0.000123386 4
2.59185 -16.3643 -2.62416 0.000224024 4
4.72394 -29.8258 -2.64194 2.96873e-05 4
1.54664 -9.54925 -2.59206 0.00108459 4
1.84002 -11.3606 -2.65698 0.000195944 4
2.18391 -13.4839 -2.65516 7.40357e-05 4
2.61458 -16.1429 -2.59011 0.000157798 4
4.82979 -29.82 -2.64291 2.87288e-05 4
1.55932 -9.4191 -2.55819 0.000695077 4
1.88145 -11.3649 -2.65951 0.000281591 4
2.23297 -13.4883 -2.65755 0.000103954 4
2.62938 -15.8828 -2.54983 7.75313e-05 4
1.58297 -9.35909 -2.54338 0.00025706 4
1.92109 -11.3582 -2.65949 3.77406e-05 4
2.28178 -13.4907 -2.65957 6.65642e-05 4
2.68132 -15.8529 -2.54652 5.32658e-05 4
5.04394 -29.8216 -2.64611 3.20964e-05 4
1.61765 -9.3652 -2.54656 0.000197745 4
1.95593 -11.3236 -2.65298 0.000301938 4
2.32743 -13.4744 -2.65794 4.33812e-05 4
2.73421 -15.8294 -2.54426 3.42712e-05 4
5.14972 -29.8137 -2.64699 3.00361e-05 4
1.64741 -9.34293 -2.54205 0.000262728 4
1.99652 -11.3228 -2.65441 0.000153879 4
2.37272 -13.4564 -2.656 0.000162314 4
2.79245 -15.8368 -2.547 5.06651e-05 4
5.25739 -29.8162 -2.64882 3.34507e-05 4
1.68158 -9.34583 -2.54442 0.000135606 4
2.03541 -11.3123 -2.6536 0.000133561 4
2.42207 -13.4613 -2.65863 6.35826e-05 4
2.84695 -15.8227 -2.54631 4.58252e-05 4
1.74012 -9.48119 -2.58291 0.00113437 4
2.07801 -11.3222 -2.65759 2.90362e-05 4
2.46487 -13.43 -2.65413 8.67761e-05 4
2.90321 -15.8183 -2.54723 5.02994e-05 4
1.82423 -9.74768 -2.65723 0.000255258 4
2.49893 -13.3529 -2.64061 0.000394397 4
2.9582 -15.807 -2.54705 4.39683e-05 4
5.57704 -29.8007 -2.65248 3.27254e-05 4
1.85926 -9.74658 -2.65868 0.000488011 4
2.1552 -11.298 -2.65538 0.000370243 4
2.5178 -13.1988 -2.61185 0.000365479 4
3.00872 -15.7723 -2.54313 4.17355e-05 4
1.89044 -9.72548 -2.65471 0.000215233 4
2.19746 -11.305 -2.65881 0.000294755 4
2.53623 -13.0478 -2.5837 9.01818e-05 4
3.06743 -15.7806 -2.54617 6.14895e-05 4
1.92298 -9.71176 -2.65278 0.000127643 4
2.23471 -11.2861 -2.6562 0.000258466 4
2.54877 -12.8722 -2.55069 0.000426541 4
3.12245 -15.7695 -2.54614 4.69588e-05 4
1.96015 -9.72126 -2.65723 0.000222757 4
2.2736 -11.2758 -2.65562 0.000239599 4
2.5891 -12.8405 -2.54617 0.000113754 4
3.17788 -15.7605 -2.54646 4.09985e-05 4
1.99163 -9.70248 -2.65398 0.000230274 4
2.31598 -11.2826 -2.6591 0.000132148 4
2.63212 -12.8227 -2.54445 0.000110339 4
3.23322 -15.751 -2.54674 4.24923e-05 4
6.11468 -29.7884 -2.66049 2.98605e-05 4
2.02721 -9.70373 -2.65624 0.000237791 4
2.34968 -11.2473 -2.6527 0.000165556 4
2.67375 -12.7985 -2.54149 0.000116332 4
3.28622 -15.7303 -2.54521 5.2187e-05 4
6.22596 -29.802 -2.66363 2.86962e-05 4
2.05753 -9.67991 -2.65167 0.000260328 4
2.39016 -11.2448 -2.65407 0.00015104 4
2.72231 -12.8075 -2.54514 0.000104363 4
3.34216 -15.7236 -2.54602 5.48001e-05 4
2.09688 -9.69848 -2.65874 0.000312906 4
2.43078 -11.2428 -2.65558 7.40706e-05 4
2.76761 -12.8007 -2.5457 0.000118911 4
3.39208 -15.689 -2.54231 4.2501e-05 4
2.44634 -11.1266 -2.63014 0.000494701 4
2.80976 -12.7795 -2.54342 0.00012405 4
3.45301 -15.7052 -2.54687 4.9215e-05 4
2.16369 -9.67981 -2.6577 0.000170233 4
2.46201 -11.0144 -2.60562 0.000430993 4
2.85727 -12.7827 -2.54602 0.000130902 4
3.50221 -15.668 -2.54281 3.95238e-05 4
6.65648 -29.7794 -2.66965 3.10128e-05 4
2.19498 -9.66126 -2.6547 0.000468157 4
2.47402 -10.8894 -2.57809 0.000721402 4
2.90172 -12.772 -2.54589 0.000100106 4
3.56188 -15.6777 -2.54638 5.55609e-05 4
6.76655 -29.7831 -2.67209 3.06879e-05 4
2.2299 -9.65877 -2.65614 0.000408088 4
2.49008 -10.7857 -2.55558 0.000688244 4
2.94192 -12.7429 -2.54212 0.00010439 4
3.61613 -15.6632 -2.54606 3.65459e-05 4
6.87384 -29.7739 -2.6734 2.9323e-05 4
2.2608 -9.63897 -2.65284 0.000112666 4
2.51234 -10.7114 -2.54004 0.000194539 4
2.98716 -12.7358 -2.54278 0.000123221 4
3.66795 -15.6384 -2.5441 4.69908e-05 4
6.98313 -29.7727 -2.67547 3.06593e-05 4
2.29807 -9.64628 -2.65705 0.000307966 4
2.55562 -10.7274 -2.54592 0.000166519 4
3.03566 -12.7424 -2.54619 0.000104401 4
3.72581 -15.6393 -2.54635 4.62481e-05 4
2.32771 -9.6216 -2.65247 0.000137713 4
2.59211 -10.7145 -2.545 0.000186312 4
3.07986 -12.7306 -2.54597 0.000120667 4
3.78001 -15.6247 -2.5461 6.22901e-05 4
2.3607 -9.61104 -2.65182 0.000440698 4
2.6281 -10.6997 -2.54365 0.000181373 4
3.12103 -12.7066 -2.54332 0.000131799 4
3.82875 -15.5879 -2.54226 4.88656e-05 4
2.39182 -9.59309 -2.64915 0.000635923 4
2.66294 -10.6805 -2.54127 0.000201168 4
3.16395 -12.6899 -2.54219 0.000112977 4
3.88968 -15.6007 -2.54654 4.14081e-05 4
2.40386 -9.49998 -2.62574 0.000848701 4
2.69867 -10.665 -2.53982 0.000202826 4
3.21334 -12.699 -2.54623 0.000100144 4
3.94306 -15.5828 -2.54587 4.81262e-05 4
2.41834 -9.41883 -2.60563 0.000927172 4
2.73846 -10.6656 -2.54222 0.000209431 4
3.25336 -12.671 -2.54289 9.15892e-05 4
3.99578 -15.5625 -2.54481 4.77565e-05 4
2.43348 -9.34229 -2.58679 0.000748049 4
2.77601 -10.6573 -2.54253 0.000201194 4
3.29751 -12.6593 -2.54284 0.000106146 4
4.04716 -15.5373 -2.54298 5.4476e-05 4
2.4465 -9.25965 -2.56625 0.000607879 4
2.81101 -10.6393 -2.54055 0.000217695 4
3.33878 -12.6368 -2.54063 9.75915e-05 4
4.1021 -15.5258 -2.54343 3.80612e-05 4
2.4531 -9.15508 -2.53963 0.000421304 4
2.84792 -10.6286 -2.54036 0.000229249 4
3.38982 -12.651 -2.54585 7.10573e-05 4
4.4705 -16.6841 -2.73572 4.83351e-05 1
2.4902 -9.16545 -2.5449 0.000350628 4
2.8895 -10.6351 -2.54432 0.000250701 4
3.42698 -12.6134 -2.54068 7.27734e-05 4
4.52709 -16.6625 -2.73475 4.83386e-05 1
2.51925 -9.14608 -2.54195 0.000398712 4
2.9223 -10.6093 -2.54058 0.00022597 4
3.47144 -12.603 -2.54101 0.000114731 4
4.58174 -16.6339 -2.73267 4.8342e-05 1
2.54807 -9.12615 -2.53887 0.000395899 4
2.96245 -10.6103 -2.54327 0.00019299 4
3.52142 -12.6123 -2.54535 8.90499e-05 4
4.64379 -16.6322 -2.73503 4.83454e-05 1
6.41739 -22.9845 1.25064 3.19048e-05 10
6.4146 -22.9745 2.08688 3.15397e-05 10
6.38469 -22.8674 3.76036 3.9852e-05 10
6.3843 -22.866 4.61469 3.86814e-05 10
2.58627 -9.13968 -2.54513 0.000421365 4
2.99585 -10.5871 -2.5402 0.0001897 4
3.56412 -12.5953 -2.54442 0.000100186 4
4.69712 -16.5993 -2.7323 4.83489e-05 1
6.40793 -22.6452 1.23338 3.41348e-05 10
6.40433 -22.6324 2.05783 3.37461e-05 10
6.37622 -22.5331 4.55197 4.13982e-05 10
6.4021 -22.6246 5.42839 3.03308e-05 10
2.61321 -9.11336 -2.54032 0.000313914 4
3.03271 -10.5763 -2.54014 0.000227649 4
3.60808 -12.5829 -2.54443 9.84792e-05 4
4.75847 -16.5948 -2.73427 4.83524e-05 1
6.37213 -22.2223 1.21155 4.80096e-05 10
6.40001 -22.3195 2.03139 3.60588e-05 10
6.36988 -22.2144 4.49206 4.42464e-05 10
6.39444 -22.3001 5.35585 3.24268e-05 10
2.64996 -9.12123 -2.54508 0.000384629 4
3.07029 -10.568 -2.5407 0.000229309 4
3.64779 -12.5558 -2.54151 0.000119038 4
4.81904 -16.5873 -2.73579 4.83558e-05 1
6.36155 -21.8966 1.195 5.12264e-05 10
6.38725 -21.9851 2.00297 3.84805e-05 10
6.64644 -22.8772 3.77321 0.000156432 10
6.35832 -21.8855 4.43001 4.72295e-05 10
6.38421 -21.9746 5.28301 3.46225e-05 10
2.68263 -9.1148 -2.54588 0.000364846 4
3.10572 -10.5523 -2.53952 0.000176526 4
3.69719 -12.562 -2.54537 0.000129321 4
4.86903 -16.5436 -2.73137 4.83593e-05 1
6.3537 -21.588 1.17936 5.45909e-05 10
6.37942 -21.6754 1.97678 4.10138e-05 10
6.73438 -22.8815 3.77777 0.000155725 10
6.35212 -21.5826 4.37317 5.03508e-05 10
6.37803 -21.6707 5.21526 3.69205e-05 10
2.71079 -9.09318 -2.54247 0.000325262 4
3.1473 -10.5574 -2.54337 0.000188083 4
3.73515 -12.5293 -2.54137 0.00010449 4
4.93426 -16.5517 -2.73553 4.83627e-05 1
6.34755 -21.2925 -2.72808 7.70091e-05 10
6.34602 -21.2873 1.16414 5.81069e-05 10
6.37496 -21.3844 1.95226 4.36614e-05 10
6.8237 -22.8897 3.78303 0.00015501 10
6.34405 -21.2807 4.31645 5.36136e-05 10
6.37207 -21.3747 5.14934 3.93234e-05 10
2.73885 -9.07151 -2.53907 0.000381843 4
3.18387 -10.5455 -2.54316 0.00021614 4
3.78276 -12.5291 -2.54399 0.000133618 4
4.98824 -16.5218 -2.73347 4.83662e-05 1
6.34211 -21.0061 -2.69422 8.18886e-05 10
6.341 -21.0024 1.14976 6.5868e-05 10
6.33486 -20.9821 1.91753 6.51355e-05 10
6.34083 -21.0018 2.69367 6.40354e-05 10
6.34056 -21.001 3.47452 6.25826e-05 10
6.33416 -20.9798 4.25986 6.07966e-05 10
6.33652 -20.9876 5.06139 5.87012e-05 10
6.33626 -20.9867 5.87408 5.63245e-05 10
2.77709 -9.08346 -2.54512 0.000305486 4
3.22265 -10.5408 -2.54473 0.000199649 4
3.82131 -12.499 -2.54056 0.000126773 4
5.04921 -16.5152 -2.73527 4.83697e-05 1
6.33623 -20.7249 -2.66097 8.69796e-05 10
6.33339 -20.7156 -1.89519 8.85401e-05 10
6.33551 -20.7225 -1.13564 8.96047e-05 10
6.33703 -20.7275 -0.378331 9.0159e-05 10
6.33171 -20.7101 0.378013 9.01956e-05 10
5.93862 -19.4243 1.0645 8.85895e-05 10
5.93708 -19.4193 1.7766 8.76308e-05 10
5.93463 -19.4113 2.49231 8.61904e-05 10
5.933 -19.406 3.21404 8.42876e-05 10
5.93528 -19.4134 3.94601 8.1947e-05 10
5.93351 -19.4076 4.68533 7.91991e-05 10
5.93593 -19.4156 5.44009 7.60793e-05 10
2.80581 -9.06411 -2.54242 0.000339441 4
3.25603 -10.5185 -2.54208 0.000202958 4
3.87272 -12.5108 -2.54569 9.16581e-05 4
5.10094 -16.4785 -2.73212 4.83731e-05 1
6.33057 -20.4508 -2.6286 9.22863e-05 10
6.32529 -20.4337 -1.87141 9.39339e-05 10
6.32581 -20.4354 -1.12111 9.50578e-05 10
6.32353 -20.428 -0.373266 9.56426e-05 10
6.32919 -20.4463 0.3736 9.56807e-05 10
5.97797 -19.3117 1.05947 0.000325557 10
5.97302 -19.2957 1.76719 0.00032189 10
5.9754 -19.3034 2.48112 0.000316459 10
5.9713 -19.2902 3.19829 0.000309338 10
5.97824 -19.3126 3.92973 0.000300617 10
5.97367 -19.2978 4.66383 0.000290411 10
5.97801 -19.3118 5.41684 0.00027885 10
2.83896 -9.05913 -2.54379 0.00025459 4
3.29108 -10.5019 -2.54081 0.000196366 4
3.91258 -12.485 -2.54323 0.000131926 4
5.16286 -16.4747 -2.73447 4.83766e-05 1
6.31608 -20.1546 -2.59335 9.78139e-05 10
6.31993 -20.1669 -1.84899 9.95518e-05 10
6.32935 -20.197 -1.10924 0.000352473 10
6.3235 -20.1783 -0.369104 0.000354468 10
6.33175 -20.2046 0.369585 0.000354443 10
6.05068 -19.3077 1.0604 0.00032408 10
6.04518 -19.2902 1.7686 0.000320428 10
6.05267 -19.3141 2.4852 0.00031502 10
6.05054 -19.3073 3.20462 0.000307929 10
5.92385 -18.903 3.85058 9.19394e-05 10
6.05285 -19.3147 4.67298 0.000289082 10
6.04768 -19.2982 5.4189 0.00027757 10
2.86986 -9.04695 -2.54317 0.000367754 4
3.33327 -10.5078 -2.54505 0.000221128 4
3.95309 -12.4617 -2.54127 0.000117369 4
5.21428 -16.4375 -2.73129 4.83801e-05 1
6.31077 -19.8941 -2.56264 0.000103567 10
6.31066 -19.8937 -1.82595 0.000105398 10
6.40666 -20.1964 -1.11043 0.000350826 10
6.40018 -20.1759 -0.369467 0.000352812 10
6.40598 -20.1942 0.369801 0.000352787 10
6.11729 -19.2842 1.06027 0.00032259 10
6.1223 -19.2999 1.77145 0.000318953 10
6.12027 -19.2936 2.48529 0.000313568 10
6.11881 -19.289 3.2051 0.000306507 10
5.91811 -18.6563 3.80449 9.72375e-05 10
6.12305 -19.3023 4.67513 0.00028774 10
6.12155 -19.2976 5.42469 0.000276278 10
2.90123 -9.03626 -2.54299 0.000248951 4
3.3674 -10.4882 -2.54314 0.000201334 4
3.99653 -12.4477 -2.54125 0.000115662 4
5.27509 -16.43 -2.73309 4.83836e-05 1
6.30422 -19.6354 -2.53213 0.000109549 10
6.30383 -19.6341 -1.80413 0.000111478 10
6.48268 -20.1912 -1.11138 0.000349164 10
6.47991 -20.1826 -0.37 0.000351141 10
6.48347 -20.1936 0.370203 0.000351117 10
6.19063 -19.2816 1.06131 0.000321086 10
6.19599 -19.2983 1.77327 0.000317465 10
6.19661 -19.3002 2.48891 0.000312103 10
6.1972 -19.302 3.21084 0.000305073 10
5.90419 -18.3894 3.75426 0.000102742 10
6.19707 -19.3016 4.68017 0.000286387 10
6.19532 -19.2962 5.43034 0.000274975 10
2.93032 -9.01861 -2.54089 0.000302712 4
3.39871 -10.4602 -2.5392 0.000196392 4
4.04468 -12.4483 -2.54422 5.56923e-05 4
5.32955 -16.4027 -2.73163 4.83871e-05 1
6.30027 -19.3902 -2.50335 0.000115766 10
6.30113 -19.3929 -1.78397 0.000117795 10
6.56299 -20.1988 -1.11305 0.000347488 10
6.5579 -20.1832 -0.370428 0.000349457 10
6.55998 -20.1896 0.370545 0.000349432 10
6.26832 -19.2919 1.06308 0.000319569 10
6.27309 -19.3066 1.77603 0.000315964 10
5.89918 -18.1558 2.34398 0.000113958 10
5.90562 -18.1756 3.02689 0.000111492 10
5.89914 -18.1557 3.71073 0.000108457 10
6.27245 -19.3046 4.68618 0.000285023 10
6.27237 -19.3044 5.43879 0.000273661 10
2.96676 -9.02345 -2.54515 0.000438525 4
3.43738 -10.4549 -2.54081 0.000262418 4
4.38977 -13.3516 -2.73195 0.000112936 1
5.3932 -16.4035 -2.73488 4.83906e-05 1
6.29399 -19.1433 -2.47428 0.000122223 10
6.28743 -19.1233 -1.76118 0.000124355 10
6.63983 -20.1952 -1.11412 0.000345798 10
6.63314 -20.1748 -0.370698 0.000347758 10
6.633 -20.1744 0.37069 0.000347734 10
6.28989 -19.1308 1.0554 9.82026e-05 10
6.28818 -19.1256 1.76139 9.714e-05 10
5.95246 -18.1045 2.34002 0.000388238 10
5.95052 -18.0986 3.0175 0.000379673 10
5.95075 -18.0993 3.70342 0.000369182 10
6.28818 -19.1256 4.64803 8.78095e-05 10
6.2877 -19.1242 5.39417 8.43582e-05 10
2.99678 -9.00864 -2.54391 0.000345174 4
3.47818 -10.4558 -2.54397 0.000240973 4
4.44042 -13.3484 -2.73446 0.000112942 1
5.45102 -16.3864 -2.73518 4.8394e-05 1
6.28531 -18.8944 -2.44493 0.000128922 10
6.28452 -18.892 -1.74188 0.000131162 10
6.83545 -20.5481 -1.1349 6.43297e-05 10
6.83547 -20.5482 -0.377994 6.47255e-05 10
6.8369 -20.5525 0.378074 6.47496e-05 10
6.28561 -18.8953 1.74219 0.000102454 10
6.01835 -18.0918 2.34108 0.000386392 10
6.02313 -18.1062 3.02225 0.000377865 10
6.02375 -18.1081 3.70949 0.00036742 10
6.28305 -18.8876 4.59547 9.26497e-05 10
6.2757 -18.8655 5.32734 8.90223e-05 10
3.02848 -8.99895 -2.54415 0.000480998 4
3.51431 -10.4426 -2.54372 0.000245935 4
4.4837 -13.323 -2.73246 0.000112948 1
5.50526 -16.3585 -2.73373 4.83976e-05 1
6.27658 -18.6505 -2.41619 0.00013587 10
6.27559 -18.6476 -1.72136 0.000138221 10
6.91499 -20.5475 -1.13619 0.000211897 10
6.90854 -20.5283 -0.37807 0.000213107 10
6.91026 -20.5334 0.378164 0.000213091 10
6.27842 -18.6559 1.72213 0.000107965 10
6.09129 -18.0999 2.34486 0.000384531 10
6.09269 -18.1041 3.02542 0.000376042 10
6.08653 -18.0858 3.70926 0.000365643 10
6.27358 -18.6416 4.54093 9.76703e-05 10
6.27483 -18.6453 5.27132 9.38609e-05 10
3.05852 -8.98434 -2.54302 0.000387642 4
3.54549 -10.4148 -2.53996 0.000244295 4
4.52722 -13.2986 -2.73068 0.000112954 1
5.56362 -16.343 -2.73436 4.84011e-05 1
6.27327 -18.4276 -2.39014 0.00014307 10
6.27304 -18.427 -1.70301 0.000145535 10
6.28969 -18.4758 -1.02285 0.000309332 10
6.28741 -18.4691 -0.340549 0.000311033 10
6.2916 -18.4815 0.340775 0.000311012 10
6.28838 -18.472 1.02264 0.000309268 10
6.26707 -18.4094 1.70139 0.000113675 10
6.16209 -18.101 2.34778 0.000382655 10
6.16119 -18.0984 3.02805 0.000374205 10
6.15617 -18.0836 3.71321 0.000363853 10
6.26526 -18.4041 4.48838 0.000102875 10
6.26991 -18.4178 5.21315 9.88771e-05 10
3.08509 -8.95975 -2.53909 0.000427271 4
3.58413 -10.4091 -2.54159 0.000211292 4
4.57445 -13.2852 -2.73118 0.000112961 1
5.62141 -16.3258 -2.73474 4.84046e-05 1
6.26551 -18.1964 -2.36297 0.000150527 10
6.26835 -18.2046 -1.68447 0.00015311 10
6.26702 -18.2008 -1.00882 0.000324142 10
6.26747 -18.2021 -0.336025 0.000325917 10
6.27256 -18.2168 0.336298 0.000325894 10
6.27221 -18.2158 1.00966 0.000324076 10
6.26144 -18.1845 1.68261 0.000119589 10
6.23495 -18.1076 2.35144 0.000380765 10
6.23529 -18.1086 3.03339 0.000372353 10
6.22873 -18.0896 3.71886 0.000362049 10
6.26221 -18.1868 4.44069 0.000108266 10
6.26418 -18.1925 5.15555 0.000104074 10
3.11642 -8.94914 -2.53915 0.000348055 4
3.62597 -10.4124 -2.54547 0.000227809 4
4.6202 -13.2674 -2.73082 0.000112967 1
5.67102 -16.285 -2.73121 4.84081e-05 1
6.26445 -17.9891 -2.33888 0.000158246 10
6.26242 -17.9832 -1.666 0.00016095 10
6.25855 -17.9721 -0.997356 0.000107528 10
6.26205 -17.9822 -0.332368 0.000108159 10
6.25995 -17.9761 0.332255 0.000108196 10
6.26014 -17.9767 0.997608 0.000107638 10
6.26076 -17.9784 1.66555 0.00012571 10
6.25612 -17.9651 2.33577 0.000123683 10
6.26091 -17.9789 3.0153 0.000121006 10
6.26027 -17.977 3.7002 0.000117714 10
6.26021 -17.9769 4.39474 0.000113847 10
6.25457 -17.9607 5.09601 0.000109456 10
3.14768 -8.93832 -2.53918 0.00031411 4
3.6621 -10.3991 -2.54534 0.000234423 4
4.67026 -13.2619 -2.73303 0.000112973 1
5.72665 -16.2617 -2.73064 4.84116e-05 1
6.25637 -17.7659 -2.31269 0.00016623 10
6.25326 -17.7571 -1.64706 0.000111669 10
6.25744 -17.769 -0.987287 0.000112941 10
6.25185 -17.7531 -0.328535 0.0001136 10
6.25604 -17.765 0.328755 0.000113639 10
6.25417 -17.7597 0.986771 0.000113055 10
6.25383 -17.7587 1.64721 0.00013204 10
6.25624 -17.7656 2.31264 0.000129919 10
6.24899 -17.745 2.97971 0.000127117 10
6.24798 -17.7421 3.65631 0.00012367 10
6.25096 -17.7506 4.34472 0.000119622 10
6.25316 -17.7568 5.04433 0.000115024 10
3.18296 -8.93879 -2.54246 0.00035091 4
3.69091 -10.3653 -2.5402 0.000241037 4
4.71132 -13.2309 -2.73001 0.00011298 1
5.78718 -16.2523 -2.73244 4.84151e-05 1
6.246 -17.5408 -2.28621 0.000174485 10
