VERSION 0.7
FIELDS x y z intensity label
SIZE 4 4 4 4 4
TYPE F F F F F
COUNT 1 1 1 1 1
WIDTH 1164
HEIGHT 1
VIEWPOINT 5.58022 20.8907 2.72902 0.879332 -0.000101375 0.000605012 0.476208
POINTS 1164
DATA ascii
12.406 -6.82027 2.75187 0.000917846 10
12.3934 -6.81332 3.26511 0.000890145 10
12.4048 -6.81958 3.79302 0.000858625 10
8.28387 -4.51652 -2.52813 0.000338058 4
10.3144 -5.62359 -2.7122 0.000225818 1
12.2573 -6.68291 -2.7137 0.000116517 1
12.4414 -6.7833 -2.24438 0.00119634 10
12.455 -6.79069 -1.74181 0.00122109 10
12.4519 -6.78901 -1.2408 0.000819026 10
12.459 -6.79287 -0.743691 0.000827462 10
12.4538 -6.79005 -0.247593 0.00083177 10
12.4494 -6.78763 0.247505 0.000831901 10
12.4417 -6.78341 0.742656 0.000827855 10
12.4633 -6.79521 1.24193 0.000967581 10
12.4451 -6.78531 1.74043 0.000953163 10
12.4562 -6.79134 2.24705 0.000934147 10
12.4616 -6.79431 2.75893 0.000910754 10
12.4364 -6.78053 3.27018 0.000883254 10
12.436 -6.78035 3.79532 0.000851962 10
8.29676 -4.48604 -2.52727 0.000338061 4
10.349 -5.59569 -2.71615 0.000225821 1
12.2686 -6.63361 -2.71105 0.000116519 1
12.5098 -6.76402 -2.25244 0.00118703 10
12.5126 -6.76556 -1.74656 0.0012116 10
16.8202 -9.09465 -1.67291 0.000249506 10
16.8197 -9.09441 -1.00209 0.000252341 10
16.7972 -9.08219 -0.33331 0.0002538 10
16.7947 -9.08084 0.33326 0.000253863 10
16.8031 -9.0854 1.0011 0.000252531 10
12.489 -6.75278 1.24214 0.000960068 10
12.4902 -6.7534 1.74342 0.000945755 10
12.5009 -6.75921 2.25084 0.000926877 10
12.5018 -6.75968 2.76258 0.000903655 10
12.4915 -6.75414 3.27846 0.000876355 10
12.4972 -6.75723 3.80677 0.000845291 10
8.32015 -4.46123 -2.52964 0.000407411 4
10.3543 -5.55192 -2.71243 0.000225824 1
12.2855 -6.58743 -2.70969 0.00011652 1
12.5506 -6.72956 -2.25554 0.0011777 10
12.5559 -6.73243 -1.74931 0.00120209 10
16.835 -9.02687 -1.67125 0.000460404 10
16.8354 -9.02705 -1.00114 0.000465598 10
16.813 -9.01507 -0.332999 0.000468253 10
16.82 -9.01882 0.333136 0.000468335 10
16.8126 -9.01483 0.999781 0.000465841 10
12.5511 -6.72982 1.24597 0.000952547 10
12.5491 -6.72879 1.74836 0.000938339 10
12.5439 -6.72599 2.25434 0.000919601 10
12.5462 -6.72721 2.76719 0.000896549 10
12.5544 -6.73162 3.28878 0.000869449 10
12.5511 -6.72984 3.816 0.000838615 10
8.31896 -4.42327 -2.52456 0.000340957 4
10.3827 -5.5206 -2.71482 0.000225826 1
12.3221 -6.55178 -2.7127 0.000116522 1
12.6054 -6.70243 -2.26118 0.00116837 10
12.5946 -6.69668 -1.75144 0.00119258 10
12.7053 -6.75555 -1.25893 0.000428927 10
12.6941 -6.74958 -0.753465 0.000433392 10
12.6964 -6.7508 -0.250996 0.000435687 10
12.6948 -6.74994 0.250964 0.000435785 10
12.704 -6.75484 0.754052 0.000433686 10
12.5841 -6.69107 1.24692 0.00094502 10
12.5891 -6.69373 1.75066 0.000930917 10
12.5855 -6.6918 2.2576 0.000912317 10
12.5835 -6.69076 2.77024 0.000889436 10
12.5927 -6.69568 3.29268 0.000862538 10
12.5795 -6.68863 3.81751 0.000831932 10
8.35455 -4.40486 -2.53069 0.000378524 4
10.4043 -5.48557 -2.71544 0.000225829 1
12.3374 -6.50479 -2.71106 0.000116524 1
12.6329 -6.66058 -2.26193 0.00115903 10
12.6447 -6.66678 -1.75515 0.00118306 10
12.6564 -6.67295 -1.25177 0.000440288 10
12.6375 -6.66302 -0.748722 0.000444862 10
12.6622 -6.676 -0.249857 0.000447213 10
12.6432 -6.66603 0.249484 0.000447314 10
12.6356 -6.66197 0.748605 0.000445162 10
12.6285 -6.65824 1.24901 0.000937487 10
12.6427 -6.66574 1.75487 0.000923489 10
12.6505 -6.66986 2.26508 0.000905028 10
12.6319 -6.66004 2.77577 0.000882318 10
12.642 -6.6654 3.29947 0.000855621 10
12.6315 -6.65983 3.82621 0.000825245 10
8.34821 -4.36434 -2.52413 0.000450765 4
10.4108 -5.44265 -2.71216 0.000225831 1
12.3498 -6.45634 -2.70882 0.000116525 1
12.6994 -6.63909 -2.26967 0.00114969 10
12.6893 -6.63382 -1.75812 0.00117354 10
12.7015 -6.64016 -1.25393 0.000787163 10
12.6834 -6.63073 -0.750065 0.000795292 10
12.6805 -6.6292 -0.249761 0.000799446 10
12.6769 -6.62731 0.249689 0.000799574 10
12.6976 -6.63814 0.750903 0.000795675 10
12.6817 -6.62982 1.25197 0.000929948 10
12.697 -6.63784 1.75919 0.000916055 10
12.699 -6.63889 2.2696 0.000897733 10
12.677 -6.6274 2.78059 0.000875194 10
12.6817 -6.62985 3.30377 0.000848699 10
12.6865 -6.63236 3.83585 0.000818553 10
8.37652 -4.34197 -2.52809 0.000424764 4
10.4458 -5.41458 -2.71633 0.000225834 1
12.3827 -6.41858 -2.7111 0.000116527 1
12.75 -6.60898 -2.27458 0.00114033 10
12.7493 -6.6086 -1.76322 0.001164 10
17.086 -8.85657 -1.68372 0.000444484 10
17.0711 -8.84882 -1.00771 0.000449512 10
17.0728 -8.84969 -0.335663 0.000452083 10
17.0934 -8.86036 0.336067 0.000452163 10
17.0691 -8.84777 1.00759 0.00044975 10
12.7278 -6.59749 1.25425 0.000922404 10
12.7445 -6.60612 1.76256 0.000908617 10
12.7465 -6.60713 2.27394 0.000890434 10
12.7328 -6.60006 2.78775 0.000868067 10
12.7269 -6.59702 3.30952 0.000841774 10
12.7318 -6.59956 3.84256 0.000811858 10
8.40039 -4.31722 -2.53074 0.000364086 4
10.4568 -5.37408 -2.71431 0.000225836 1
12.3991 -6.37227 -2.7098 0.000116528 1
12.7788 -6.56742 -2.27561 0.00113098 10
12.7974 -6.57697 -1.76669 0.00115447 10
12.9604 -6.66077 -1.27487 0.000421783 10
12.983 -6.67236 -0.765007 0.000426188 10
12.9754 -6.66846 -0.254647 0.00042845 10
12.9599 -6.66047 0.254341 0.000428545 10
12.9724 -6.66694 0.764386 0.000426471 10
12.7939 -6.57518 1.25849 0.000914857 10
12.7855 -6.57086 1.76505 0.000901176 10
12.7917 -6.57405 2.27791 0.000883133 10
12.7762 -6.56608 2.79221 0.000860937 10
12.7862 -6.5712 3.31894 0.000834846 10
12.7757 -6.56581 3.84885 0.00080516 10
8.41118 -4.28571 -2.52946 0.000468115 4
10.4662 -5.33279 -2.71189 0.000225839 1
12.4217 -6.3292 -2.70991 0.00011653 1
12.8393 -6.54195 -2.2823 0.00112162 10
12.844 -6.54435 -1.76996 0.00114493 10
12.9209 -6.58354 -1.26872 0.000432632 10
12.9076 -6.57678 -0.75921 0.000437141 10
12.9087 -6.57731 -0.252885 0.000439458 10
12.919 -6.58256 0.253087 0.000439554 10
12.9154 -6.58071 0.759664 0.00043743 10
12.8435 -6.54408 1.26111 0.000907306 10
12.8244 -6.53435 1.76726 0.000893731 10
12.9087 -6.57732 2.29464 0.000549652 10
12.9133 -6.57967 2.81715 0.00053581 10
12.8929 -6.56927 3.34067 0.000519539 10
12.7354 -6.48899 3.82986 0.000468314 10
8.4195 -4.253 -2.52749 0.000372761 4
10.4987 -5.3033 -2.71551 0.000225841 1
12.4592 -6.29361 -2.71327 0.000116531 1
12.8787 -6.50549 -2.28525 0.00111226 10
12.8898 -6.51109 -1.77312 0.00113538 10
12.894 -6.51322 -1.26383 0.000761598 10
12.8893 -6.51087 -0.756791 0.000769482 10
12.88 -6.50616 -0.251876 0.000773511 10
12.889 -6.51069 0.252052 0.000773636 10
12.8747 -6.5035 0.755935 0.000769857 10
12.8723 -6.50228 1.26171 0.000899754 10
12.8831 -6.50775 1.77221 0.000886283 10
12.684 -6.40716 3.80767 0.000480296 10
8.42782 -4.22034 -2.52555 0.000286075 4
10.5056 -5.26079 -2.7125 0.000225843 1
12.4691 -6.24406 -2.71066 0.000116533 1
12.929 -6.47436 -2.29015 0.00110289 10
12.9313 -6.4755 -1.77571 0.00112584 10
12.9274 -6.47357 -1.26488 0.000755202 10
12.9305 -6.47511 -0.757877 0.000763025 10
12.9402 -6.47995 -0.252609 0.000767022 10
12.9394 -6.47959 0.252595 0.000767146 10
12.9252 -6.47245 0.757565 0.000763397 10
12.9237 -6.47169 1.26452 0.000892199 10
12.9239 -6.47182 1.7747 0.000878835 10
12.6354 -6.32732 3.78641 0.000492462 10
8.43949 -4.1894 -2.52465 0.000372767 4
10.5395 -5.23188 -2.71655 0.000225845 1
12.4917 -6.20095 -2.71086 0.000116534 1
12.9933 -6.44992 -2.29754 0.00109353 10
12.972 -6.43935 -1.77821 0.00111629 10
12.9707 -6.43869 1.26691 0.000884643 10
12.9834 -6.44503 1.77977 0.000871386 10
12.5978 -6.2536 3.76859 0.000854135 10
8.47548 -4.17045 -2.53104 0.000427674 4
9.82875 -4.83635 -2.52898 0.000225094 4
12.5129 -6.15713 -2.71078 0.000116535 1
13.0249 -6.40904 -2.29916 0.00108416 10
13.0405 -6.4167 -1.78451 0.00110674 10
13.1719 -6.4814 -1.28435 0.000425515 10
13.1669 -6.47892 -0.769063 0.000429964 10
13.1808 -6.48575 -0.256416 0.000432248 10
13.1629 -6.47696 0.256068 0.000432341 10
13.1733 -6.48207 0.769437 0.000430242 10
13.0164 -6.40487 1.26919 0.000877088 10
13.0254 -6.40929 1.78245 0.000863936 10
12.6539 -6.22647 3.77884 0.000846839 10
8.47527 -4.13367 -2.52665 0.000335207 4
9.84436 -4.80141 -2.52867 0.000191247 4
12.5263 -6.10951 -2.70905 0.000116537 1
13.0743 -6.37678 -2.30395 0.0010748 10
13.0765 -6.37783 -1.78638 0.0010972 10
13.1122 -6.39525 -1.27634 0.000436045 10
13.1048 -6.39162 -0.764125 0.000440596 10
13.1276 -6.40274 -0.254944 0.000442932 10
13.106 -6.39221 0.254525 0.000443027 10
13.1126 -6.39545 0.764583 0.000440878 10
13.0687 -6.37405 1.27211 0.000869533 10
13.0682 -6.3738 1.78525 0.000856486 10
12.6993 -6.19388 3.78593 0.000839543 10
8.48791 -4.10322 -2.52614 0.000390114 4
9.84907 -4.76123 -2.52559 0.000242023 4
12.5492 -6.06654 -2.7094 0.000116538 1
13.1265 -6.3456 -2.30922 0.00106543 10
13.1427 -6.35342 -1.79238 0.00108765 10
13.1348 -6.34962 -1.27638 0.000729616 10
13.1222 -6.34354 -0.763849 0.000737193 10
13.1321 -6.34832 -0.254601 0.000741064 10
13.1334 -6.34896 0.254626 0.000741186 10
13.1257 -6.34521 0.764051 0.000737556 10
13.1229 -6.34384 1.27522 0.000861979 10
13.137 -6.35066 1.79161 0.000849039 10
12.7427 -6.16005 3.79242 0.000832249 10
8.50394 -4.07441 -2.52666 0.000323652 4
9.87257 -4.73014 -2.52737 0.000184481 4
12.5735 -6.0242 -2.71008 0.000116539 1
13.1851 -6.31723 -2.31563 0.00105608 10
13.1792 -6.31442 -1.79435 0.00107811 10
13.1692 -6.30961 1.27757 0.000854428 10
13.1825 -6.31601 1.7948 0.000841594 10
12.7849 -6.12548 3.79859 0.000824956 10
8.5115 -4.04156 -2.5247 0.000421907 4
9.87229 -4.68771 -2.52309 0.000233565 4
12.5949 -5.9805 -2.71018 0.00011654 1
13.2369 -6.28537 -2.32087 0.00104672 10
13.2411 -6.28736 -1.79978 0.00106858 10
13.2318 -6.28291 1.28151 0.000846879 10
13.2147 -6.2748 1.79619 0.000834152 10
13.2929 -6.31196 2.33069 0.000512911 10
13.3095 -6.31982 2.86395 0.000499935 10
13.3091 -6.31963 3.40145 0.000484685 10
12.8545 -6.10375 3.81292 0.000817667 10
8.54457 -4.02077 -2.53033 0.000427689 4
9.90085 -4.65899 -2.52622 0.000208179 4
12.6204 -5.9387 -2.71118 0.000116542 1
13.2807 -6.24941 -2.3247 0.00103737 10
13.278 -6.24814 -1.80181 0.00105904 10
13.3718 -6.29227 -1.29293 0.000428931 10
13.3786 -6.29548 -0.77489 0.000433421 10
13.379 -6.29567 -0.258094 0.000435725 10
13.3606 -6.28704 0.25774 0.000435817 10
13.3649 -6.28904 0.774097 0.000433694 10
13.2733 -6.24596 1.28341 0.000839334 10
13.2675 -6.24323 1.8004 0.000826713 10
12.8863 -6.06383 3.81606 0.000810381 10
8.53952 -3.98205 -2.5247 0.000349667 4
9.90698 -4.6197 -2.52365 0.000233568 4
12.6405 -5.89434 -2.71106 0.000116543 1
13.3356 -6.21848 -2.3305 0.00102802 10
13.3399 -6.22052 -1.80727 0.00104952 10
13.3393 -6.2202 -1.28768 0.000704059 10
13.3282 -6.21503 -0.77071 0.000711389 10
13.3321 -6.21688 -0.256771 0.000715135 10
13.3399 -6.22048 0.256919 0.000715254 10
13.3302 -6.21596 0.770825 0.000711744 10
13.3259 -6.21397 1.28639 0.000831793 10
13.3205 -6.21144 1.80463 0.000819278 10
12.9392 -6.03367 3.82548 0.000803099 10
8.5638 -3.95703 -2.52778 0.000341 4
9.92102 -4.58416 -2.52314 0.000223415 4
12.6632 -5.85121 -2.71154 0.000116544 1
13.3866 -6.18546 -2.33562 0.00101868 10
13.3931 -6.18847 -1.81153 0.00104 10
13.3836 -6.18408 -1.28986 0.000697679 10
13.3779 -6.18147 -0.772333 0.000704947 10
13.3863 -6.18536 -0.257397 0.000708662 10
13.3759 -6.18054 0.257196 0.00070878 10
13.3898 -6.18695 0.773018 0.000705299 10
13.3814 -6.18307 1.28965 0.000824258 10
13.3719 -6.17867 1.80866 0.000811848 10
12.9911 -6.00273 3.83459 0.000795822 10
8.56925 -3.92331 -2.52533 0.000288985 4
9.94056 -4.55115 -2.52405 0.000221724 4
12.6715 -5.80146 -2.70896 0.000116545 1
13.4224 -6.14525 -2.33811 0.00100935 10
13.426 -6.1469 -1.81307 0.00103048 10
28.1532 -12.8896 -1.62273 6.62977e-05 10
13.4367 -6.15182 1.29291 0.000816728 10
13.443 -6.15469 1.81536 0.000804424 10
13.0464 -5.9731 3.84473 0.00078855 10
8.60121 -3.90168 -2.53072 0.000303436 4
9.97443 -4.5246 -2.52863 0.000208185 4
12.693 -5.7578 -2.70925 0.000116546 1
13.4986 -6.12326 -2.34766 0.00100003 10
13.4869 -6.11794 -1.8184 0.00102098 10
13.6068 -6.17233 -1.3072 0.000422238 10
13.6263 -6.18116 -0.784162 0.000426672 10
13.6077 -6.17273 -0.260819 0.000428946 10
13.608 -6.17285 0.260824 0.000429034 10
13.6271 -6.18151 0.784206 0.000426935 10
13.4681 -6.10939 1.29387 0.000809204 10
13.4705 -6.11051 1.81619 0.000797007 10
13.0913 -5.93846 3.85182 0.000781285 10
8.60281 -3.86626 -2.52721 0.000404583 4
9.9775 -4.48407 -2.52542 0.000192953 4
12.7276 -5.71999 -2.71235 0.000116547 1
13.543 -6.08648 -2.35167 0.000990713 10
13.5395 -6.08489 -1.82261 0.00101148 10
13.5677 -6.09756 -1.30138 0.000432022 10
13.5767 -6.10161 -0.780078 0.00043655 10
13.5554 -6.09204 -0.259407 0.000438872 10
13.5633 -6.09558 0.259558 0.000438962 10
13.5687 -6.09801 0.779617 0.000436817 10
13.5316 -6.08134 1.29792 0.000801688 10
13.5454 -6.08755 1.82341 0.000789597 10
13.1405 -5.90558 3.86022 0.000774026 10
8.61797 -3.83697 -2.52771 0.000381466 4
9.99673 -4.45083 -2.52634 0.000226806 4
12.7487 -5.6761 -2.71262 0.000116548 1
13.5818 -6.04702 -2.35473 0.000981408 10
13.6007 -6.05541 -1.82799 0.00100199 10
13.5775 -6.04509 -1.30029 0.000672214 10
13.5834 -6.04771 -0.779244 0.000679235 10
13.583 -6.04753 -0.259529 0.000682824 10
13.5819 -6.04704 0.259508 0.000682939 10
13.5853 -6.04857 0.779354 0.000679578 10
13.5852 -6.04852 1.30103 0.00079418 10
13.5909 -6.05107 1.82668 0.000782194 10
13.6698 -6.08617 2.36997 0.000310476 10
13.6712 -6.08679 2.90889 0.000302598 10
13.6595 -6.08162 3.45199 0.000293338 10
13.1807 -5.86843 3.86599 0.000766776 10
8.65395 -3.81685 -2.53434 0.00028994 4
10.004 -4.41231 -2.52428 0.000231885 4
12.7723 -5.63327 -2.71344 0.000116549 1
13.6365 -6.01442 -2.36055 0.000972115 10
13.6422 -6.01693 -1.83074 0.00099252 10
23.1152 -10.195 -2.21028 9.97965e-05 10
23.1264 -10.2 -1.32465 0.000101051 10
23.1098 -10.1926 -0.440874 0.000101695 10
23.1094 -10.1925 0.440868 0.00010172 10
13.6494 -6.02009 1.30516 0.00078668 10
13.6241 -6.00895 1.82831 0.000774801 10
13.7185 -6.0506 2.37475 0.000476315 10
13.7171 -6.04997 2.91416 0.000464206 10
13.7142 -6.0487 3.46046 0.000449976 10
13.2363 -5.83791 3.8763 0.000759534 10
8.66463 -3.78548 -2.53358 0.000900953 4
10.0289 -4.38153 -2.52668 0.00024035 4
12.7748 -5.58117 -2.70981 0.00011655 1
13.6996 -5.9852 -2.36784 0.000962833 10
13.6906 -5.98129 -1.83443 0.000983057 10
13.8709 -6.06006 -1.32431 0.000415904 10
13.8542 -6.05276 -0.792337 0.000420284 10
13.8674 -6.05852 -0.264149 0.00042253 10
13.8571 -6.05402 0.263953 0.000422615 10
13.8712 -6.06018 0.793309 0.000420538 10
13.6878 -5.98003 1.30682 0.00077919 10
13.6892 -5.98066 1.83423 0.000767416 10
13.6996 -5.98519 2.36784 0.000479992 10
13.6786 -5.97604 2.90153 0.000467801 10
13.6973 -5.98419 3.45088 0.000453474 10
13.2891 -5.80588 3.88581 0.000752301 10
8.69913 -3.76445 -2.53981 0.00092552 4
10.0406 -4.34496 -2.52579 0.000250507 4
12.8133 -5.54481 -2.71385 0.000116551 1
13.7477 -5.94917 -2.37256 0.000953564 10
13.7557 -5.95261 -1.84034 0.000973607 10
13.7972 -5.9706 -1.31528 0.000425279 10
13.8209 -5.98084 -0.789233 0.000429749 10
13.8217 -5.98119 -0.262879 0.000432041 10
13.8061 -5.97442 0.262582 0.000432128 10
13.8047 -5.97382 0.788307 0.000430008 10
13.7358 -5.94401 1.30942 0.00077171 10
13.747 -5.94884 1.83918 0.000760042 10
13.7306 -5.94175 2.3696 0.000744655 10
13.7512 -5.95067 2.9125 0.000725731 10
13.7358 -5.944 3.45534 0.000703489 10
13.7429 -5.94709 4.0124 0.00067819 10
8.72828 -3.74095 -2.5445 0.00080875 4
10.0603 -4.31186 -2.52695 0.000198037 4
12.8087 -5.48983 -2.70881 0.000116551 1
13.8104 -5.91916 -2.3798 0.000944308 10
13.7985 -5.91403 -1.8433 0.00096417 10
13.8083 -5.91823 -1.31435 0.000646865 10
13.797 -5.91341 -0.786687 0.000653641 10
13.7935 -5.91192 -0.26195 0.000657106 10
13.8038 -5.91633 0.262145 0.000657217 10
13.792 -5.91127 0.786401 0.000653975 10
13.7892 -5.91005 1.31253 0.00076424 10
13.8001 -5.91473 1.84351 0.000752678 10
13.7856 -5.90851 2.37552 0.000737431 10
13.8026 -5.91582 2.91901 0.000718677 10
13.7998 -5.91462 3.46624 0.000696638 10
13.7891 -5.91001 4.01984 0.000671569 10
8.77703 -3.72563 -2.5549 0.000749932 4
10.0741 -4.2762 -2.52665 0.00019973 4
12.851 -5.45491 -2.7137 0.000116552 1
13.8638 -5.88482 -2.38543 0.000935067 10
13.8433 -5.87615 -1.84654 0.000954749 10
13.8461 -5.87732 -1.31599 0.000640552 10
13.8378 -5.87382 -0.78784 0.000647265 10
13.8572 -5.88203 -0.262767 0.000650698 10
13.8362 -5.87311 0.262368 0.000650809 10
13.8433 -5.87615 0.788154 0.000647597 10
13.8591 -5.88284 1.31723 0.000756782 10
13.8528 -5.88015 1.8478 0.000745326 10
13.8363 -5.87318 2.38072 0.000730218 10
13.8343 -5.87233 2.92136 0.000711636 10
13.8512 -5.87949 3.47397 0.000689798 10
13.8429 -5.87598 4.02953 0.000664959 10
8.79228 -3.69593 -2.55557 0.000102405 4
10.089 -4.24103 -2.52666 0.000159108 4
12.8726 -5.41113 -2.71426 0.000116553 1
13.8944 -5.84068 -2.38719 0.000925841 10
13.9021 -5.8439 -1.85164 0.000945342 10
14.1094 -5.93105 -1.33904 0.000409879 10
14.1122 -5.93224 -0.802279 0.000414206 10
14.1096 -5.93112 -0.267158 0.000416425 10
14.0923 -5.92387 0.266832 0.000416508 10
14.0866 -5.92146 0.800821 0.000414453 10
13.8931 -5.8401 1.31851 0.000749336 10
13.9057 -5.84541 1.85212 0.000737985 10
13.9031 -5.84432 2.38867 0.000723016 10
13.9074 -5.84615 2.93247 0.000704605 10
13.9096 -5.84707 3.48348 0.000682969 10
13.8963 -5.84147 4.03911 0.00065836 10
8.82148 -3.67203 -2.56031 0.000811592 4
10.0916 -4.20072 -2.52361 0.000186191 4
12.8694 -5.35702 -2.70963 0.000116554 1
13.9525 -5.80788 -2.39367 0.000916631 10
13.9441 -5.80438 -1.85453 0.000935952 10
14.044 -5.84596 -1.33089 0.000418868 10
14.0501 -5.84848 -0.797578 0.000423284 10
14.0387 -5.84373 -0.265428 0.000425547 10
14.0547 -5.85042 0.265732 0.000425631 10
14.0373 -5.84318 0.796856 0.000423534 10
13.9483 -5.8061 1.32182 0.000741903 10
13.9462 -5.80525 1.85481 0.000730658 10
13.9456 -5.80501 2.39249 0.000715828 10
13.9571 -5.80977 2.93864 0.000697588 10
13.949 -5.8064 3.48824 0.000676152 10
13.9623 -5.81196 4.05237 0.000651773 10
8.8656 -3.65414 -2.5694 0.000606127 4
10.1234 -4.17257 -2.52791 0.000206504 4
12.9023 -5.31794 -2.71263 0.000116554 1
14.003 -5.77164 -2.39887 0.000907438 10
13.9981 -5.7696 -1.85902 0.000926579 10
14.0219 -5.7794 -1.32687 0.000621673 10
14.0094 -5.77424 -0.794118 0.000628203 10
14.0103 -5.77463 -0.264509 0.000631543 10
14.0162 -5.77708 0.264621 0.000631652 10
14.0199 -5.77861 0.794719 0.000628528 10
14.0144 -5.77632 1.32617 0.000734484 10
14.0181 -5.77783 1.86167 0.000723343 10
13.9994 -5.77012 2.39824 0.000708652 10
13.9932 -5.76756 2.94198 0.000690583 10
13.9931 -5.76752 3.4942 0.000669349 10
13.9906 -5.76652 4.05472 0.000645198 10
8.89299 -3.62916 -2.57365 0.000891756 4
10.1171 -4.1287 -2.52272 0.00020989 4
12.9145 -5.27029 -2.7113 0.000116555 1
14.0704 -5.74202 -2.40696 0.000898264 10
14.057 -5.73657 -1.86418 0.000917224 10
14.0642 -5.73948 -1.32897 0.000615404 10
14.0752 -5.74397 -0.796708 0.000621873 10
14.0626 -5.73885 -0.265117 0.000625181 10
14.0528 -5.73485 0.264932 0.000625289 10
14.0552 -5.73584 0.79558 0.000622195 10
14.0703 -5.742 1.32955 0.000727079 10
14.0551 -5.7358 1.86393 0.000716043 10
14.0703 -5.74198 2.40694 0.00070149 10
14.0696 -5.74168 2.95381 0.000683592 10
14.0511 -5.73416 3.50369 0.000662559 10
14.0685 -5.74127 4.07147 0.000638637 10
8.92874 -3.60745 -2.58034 0.000693095 4
10.1421 -4.09768 -2.52538 0.000255593 4
12.9231 -5.22126 -2.70927 0.000116555 1
14.1106 -5.70106 -2.41042 0.000889108 10
14.1209 -5.70522 -1.86999 0.000907889 10
29.5891 -11.9548 -1.67248 5.61633e-05 10
29.5742 -11.9488 -0.556761 3.73573e-05 10
29.5717 -11.9478 0.556714 3.73659e-05 10
14.1156 -5.70307 1.33194 0.000719689 10
14.1037 -5.69825 1.86771 0.000708758 10
14.1044 -5.69854 2.40935 0.000694344 10
14.1141 -5.70245 2.95896 0.000676616 10
14.108 -5.69999 3.51287 0.000655783 10
14.1138 -5.70236 4.07879 0.000632089 10
8.95834 -3.58308 -2.58526 0.000983826 4
10.1686 -4.06715 -2.52842 0.000209892 4
12.9388 -5.17514 -2.70876 0.000116556 1
14.1755 -5.66982 -2.41812 0.000879971 10
14.1619 -5.66434 -1.87279 0.000898574 10
14.2776 -5.71064 -1.34534 0.000412741 10
14.2753 -5.70973 -0.805762 0.000417104 10
14.2683 -5.70693 -0.268238 0.000419339 10
14.2783 -5.71091 0.268424 0.000419421 10
14.2763 -5.71011 0.805816 0.000417346 10
14.1772 -5.67048 1.33588 0.000712314 10
14.1632 -5.66488 1.87297 0.000701489 10
14.1782 -5.67086 2.41856 0.000687212 10
14.1753 -5.66971 2.96762 0.000669654 10
14.178 -5.67079 3.52536 0.000649021 10
14.1619 -5.66435 4.08694 0.000625556 10
8.96428 -3.54921 -2.58339 0.000918641 4
10.1674 -4.02554 -2.52461 0.000201429 4
12.9675 -5.13418 -2.71099 0.000116556 1
14.2187 -5.62957 -2.4221 0.000870855 10
14.2242 -5.63174 -1.87842 0.000889278 10
14.2459 -5.64035 -1.34049 0.000421472 10
14.2257 -5.63235 -0.801845 0.000425921 10
14.2432 -5.63928 -0.267393 0.0004282 10
14.2264 -5.63262 0.267077 0.000428283 10
14.2285 -5.63346 0.802004 0.000426167 10
14.2322 -5.63492 1.3392 0.000704956 10
14.2197 -5.62997 1.87782 0.000694235 10
14.2104 -5.62631 2.4207 0.000680096 10
14.2124 -5.6271 2.97127 0.000662708 10
14.2108 -5.62644 3.5286 0.000642275 10
14.2324 -5.63502 4.1016 0.000619037 10
9.00603 -3.52943 -2.59185 0.000834669 4
10.1926 -3.99444 -2.5274 0.000206508 4
12.9819 -5.08754 -2.71028 0.000116557 1
14.2935 -5.60155 -2.4315 0.00086176 10
14.2878 -5.59934 -1.88423 0.000880005 10
14.2936 -5.60159 -1.34313 0.000590458 10
14.2746 -5.59417 -0.803499 0.000596684 10
14.2894 -5.59994 -0.267891 0.000599869 10
14.2932 -5.60144 0.267963 0.000599974 10
14.2873 -5.59913 0.804211 0.000596998 10
14.268 -5.59157 1.34072 0.000697614 10
14.2747 -5.59419 1.8825 0.000686998 10
14.2891 -5.59983 2.43075 0.000672997 10
14.2756 -5.59455 2.98037 0.000655778 10
14.2707 -5.59262 3.53861 0.000635545 10
14.2754 -5.59446 4.10832 0.000612534 10
9.03932 -3.50612 -2.5979 0.000826695 4
10.2129 -3.96133 -2.52899 0.000209894 4
12.9917 -5.03916 -2.70865 0.000116557 1
14.3512 -5.56647 -2.438 0.000852687 10
14.3238 -5.55583 -1.8864 0.000870753 10
14.5698 -5.65124 -1.36722 0.000603419 10
14.558 -5.64667 -0.818333 0.000609825 10
14.56 -5.64746 -0.272594 0.000613106 10
14.5547 -5.64538 0.272494 0.000613224 10
14.5586 -5.64689 0.818366 0.000610176 10
14.3194 -5.55415 1.34373 0.000690291 10
14.3446 -5.56389 1.88914 0.000679778 10
14.3273 -5.55718 2.43393 0.000665915 10
14.3246 -5.55614 2.98653 0.000648865 10
14.3176 -5.55343 3.54542 0.000628831 10
14.343 -5.56327 4.12216 0.000606047 10
9.07811 -3.48476 -2.60553 0.00088797 4
10.2131 -3.92045 -2.52564 0.000187889 4
13.0135 -4.99543 -2.70954 0.000116558 1
14.3992 -5.52734 -2.44287 0.000843637 10
14.3921 -5.52463 -1.89286 0.000861525 10
14.5024 -5.56696 -1.35907 0.000615959 10
14.4989 -5.56561 -0.813916 0.000622488 10
14.5178 -5.57284 -0.271437 0.000625833 10
14.518 -5.57296 0.271442 0.000625952 10
14.5022 -5.56686 0.814099 0.000622844 10
14.3928 -5.52489 1.3488 0.000682985 10
14.401 -5.52802 1.89402 0.000672576 10
14.4006 -5.52787 2.4431 0.00065885 10
14.3976 -5.52672 2.99772 0.00064197 10
14.3964 -5.52626 3.56013 0.000622134 10
14.3895 -5.5236 4.12996 0.000599577 10
9.10005 -3.45678 -2.60835 0.000647281 4
10.2283 -3.88536 -2.52601 0.000230207 4
13.0437 -4.95485 -2.71221 0.000116558 1
14.4511 -5.48946 -2.4484 0.000834611 10
14.4405 -5.48541 -1.89668 0.000852321 10
14.4615 -5.4934 -1.35342 0.000628647 10
14.4493 -5.48877 -0.81005 0.0006353 10
14.4661 -5.49516 -0.270111 0.000638708 10
14.4735 -5.49796 0.270249 0.000638829 10
14.4563 -5.49143 0.810443 0.000635661 10
14.4463 -5.48762 1.352 0.000675699 10
14.4319 -5.48217 1.89556 0.000665394 10
14.4468 -5.48783 2.44768 0.000651805 10
14.4525 -5.48997 3.00513 0.000635092 10
14.4284 -5.48084 3.56329 0.000615455 10
14.4419 -5.48595 4.13947 0.000593124 10
9.13651 -3.43419 -2.61535 0.000727379 4
10.2483 -3.85208 -2.52762 0.000194661 4
13.0546 -4.9069 -2.71089 0.000116558 1
14.5186 -5.45719 -2.4566 0.000825609 10
14.4957 -5.44856 -1.90142 0.000843142 10
14.5065 -5.45264 -1.35585 0.000856517 10
14.4932 -5.44764 -0.811441 0.000865576 10
14.5058 -5.45238 -0.270496 0.000870211 10
14.4992 -5.44988 0.270371 0.000870366 10
14.5126 -5.45491 0.812524 0.000866038 10
14.5063 -5.45257 1.35583 0.000668432 10
14.4902 -5.44653 1.90071 0.00065823 10
14.491 -5.4468 2.45192 0.000644778 10
14.492 -5.44717 3.00937 0.000628234 10
14.5008 -5.45049 3.57645 0.000608795 10
14.49 -5.44642 4.14779 0.000586689 10
9.14971 -3.40275 -2.61571 0.000763275 4
10.2451 -3.81011 -2.52353 0.000236979 4
13.0874 -4.86716 -2.71416 0.000116559 1
14.5576 -5.41393 -2.45999 0.000816633 10
14.5672 -5.41751 -1.90832 0.000833989 10
14.5586 -5.41429 -1.35894 0.00084723 10
14.5565 -5.41351 -0.81392 0.000856198 10
14.5512 -5.41153 -0.270987 0.000860786 10
14.5686 -5.41801 0.271311 0.000860939 10
14.5615 -5.41538 0.814202 0.000856655 10
14.5482 -5.41041 1.35797 0.000661185 10
14.5539 -5.41256 1.90657 0.000651088 10
14.5635 -5.41612 2.46098 0.000637771 10
14.5633 -5.41604 3.02024 0.000621395 10
14.5409 -5.4077 3.58166 0.000602153 10
14.551 -5.41147 4.15983 0.000580272 10
9.19243 -3.38216 -2.62453 0.000842645 4
10.2538 -3.77266 -2.52242 0.000231901 4
13.0997 -4.81975 -2.7132 0.000116559 1
14.6049 -5.37355 -2.46479 0.000807683 10
14.6106 -5.37566 -1.91153 0.000824862 10
14.6267 -5.38157 -1.36353 0.000837968 10
14.6259 -5.38129 -0.816747 0.000846846 10
14.6118 -5.37612 -0.271766 0.000851387 10
14.6128 -5.37647 0.271784 0.000851539 10
14.6049 -5.37358 0.815577 0.0008473 10
14.6144 -5.37707 1.36239 0.00065396 10
14.6038 -5.37315 1.91064 0.000643965 10
14.6133 -5.37666 2.46621 0.000630785 10
14.6088 -5.375 3.02577 0.000614576 10
14.599 -5.37138 3.59133 0.000595531 10
14.6101 -5.37547 4.17132 0.000573875 10
9.22704 -3.35837 -2.63105 0.000846857 4
10.2816 -3.74221 -2.52604 0.000221745 4
13.1052 -4.76989 -2.71087 0.000116559 1
14.6782 -5.34243 -2.474 0.000798759 10
14.6786 -5.34256 -1.91797 0.000815762 10
14.6641 -5.3373 -1.36528 0.000828734 10
14.6863 -5.34539 -0.819074 0.000837521 10
14.6774 -5.34216 -0.272638 0.000842017 10
14.6775 -5.34216 0.272638 0.000842167 10
14.6721 -5.34021 0.81828 0.000837972 10
14.6826 -5.34402 1.367 0.000646756 10
14.6618 -5.33646 1.91578 0.000636863 10
14.6562 -5.33442 2.47029 0.000623819 10
14.6785 -5.34253 3.03632 0.000607778 10
14.6762 -5.34169 3.60571 0.000588929 10
14.6655 -5.33779 4.18179 0.000567497 10
9.26964 -3.33728 -2.63986 0.000944162 4
10.3034 -3.70946 -2.5282 0.000204819 4
13.1287 -4.72662 -2.71231 0.000116559 1
14.7343 -5.30467 -2.48032 0.000789863 10
14.7316 -5.30371 -1.92247 0.00080669 10
14.7304 -5.30328 -1.36972 0.000819529 10
14.7167 -5.29835 -0.819733 0.000828225 10
14.7258 -5.30163 -0.273191 0.000832675 10
14.732 -5.30384 0.273305 0.000832825 10
14.7311 -5.30353 0.820535 0.000828672 10
14.7242 -5.30106 1.36915 0.000639573 10
14.7222 -5.3003 1.92124 0.000629784 10
14.7321 -5.30387 2.47994 0.000616875 10
14.7157 -5.29797 3.04017 0.000601 10
14.7333 -5.30431 3.61517 0.000582348 10
14.7227 -5.30048 4.1928 0.000561139 10
9.26664 -3.2997 -2.63571 0.000266272 4
10.312 -3.67194 -2.52714 0.000247137 4
13.1386 -4.67846 -2.71097 0.00011656 1
14.778 -5.2622 -2.48456 0.000780996 10
14.7802 -5.26301 -1.92641 0.000797648 10
14.7777 -5.2621 -1.3724 0.000810353 10
14.7963 -5.26873 -0.823137 0.000818959 10
14.7964 -5.26876 -0.274158 0.000823362 10
14.788 -5.26576 0.274001 0.000823511 10
14.7724 -5.26022 0.821807 0.000819402 10
14.777 -5.26185 1.37234 0.000632414 10
14.7747 -5.26105 1.92569 0.000622727 10
14.7746 -5.26099 2.48399 0.000609953 10
14.7784 -5.26236 3.04932 0.000594245 10
14.7692 -5.25909 3.61946 0.000575788 10
14.7733 -5.26055 4.20197 0.000554802 10
9.29001 -3.27153 -2.63909 0.000238109 4
10.3171 -3.63322 -2.52526 0.000247137 4
13.1588 -4.63395 -2.71178 0.00011656 1
14.8537 -5.23082 -2.49421 0.000772158 10
14.8343 -5.22399 -1.93107 0.000788635 10
14.8391 -5.22568 -1.3764 0.000801207 10
14.8453 -5.22787 -0.824843 0.000809723 10
14.8471 -5.22849 -0.274757 0.00081408 10
14.8394 -5.22577 0.274614 0.000814228 10
14.835 -5.22421 0.824267 0.000810163 10
14.8364 -5.22474 1.37615 0.000625278 10
14.8396 -5.22585 1.93176 0.000615693 10
14.7745 -5.20293 2.48091 0.000469692 10
14.7742 -5.20281 3.04468 0.000457605 10
14.7746 -5.20297 3.61632 0.000443403 10
14.8302 -5.22253 4.21293 0.000548486 10
9.3036 -3.23986 -2.63972 0.000156179 4
10.3381 -3.60012 -2.52733 0.000206512 4
13.1694 -4.58608 -2.71066 0.00011656 1
14.9135 -5.19344 -2.5012 0.00076335 10
14.9074 -5.1913 -1.93821 0.000779652 10
14.9086 -5.19171 -1.38115 0.000792091 10
14.9135 -5.19342 -0.827617 0.000800517 10
14.8971 -5.18771 -0.275345 0.00080483 10
14.8998 -5.18865 0.275395 0.000804976 10
14.9114 -5.1927 0.827502 0.000800954 10
14.8871 -5.18425 1.37917 0.000618167 10
14.9006 -5.18894 1.93732 0.000608684 10
14.7322 -5.1303 2.47079 0.000478855 10
14.7334 -5.13072 3.03257 0.000466548 10
14.7314 -5.13003 3.60134 0.000452088 10
14.8962 -5.1874 4.22651 0.000542192 10
9.32697 -3.21153 -2.64316 0.000343082 4
10.3323 -3.55768 -2.52284 9.98705e-05 4
13.1968 -4.54403 -2.71301 0.00011656 1
14.9611 -5.15152 -2.50614 0.000754573 10
14.9511 -5.14806 -1.94154 0.000770701 10
29.2013 -10.0548 -0.539081 4.16362e-05 10
29.1897 -10.0508 0.538866 4.16459e-05 10
14.954 -5.14909 1.38369 0.000611079 10
14.9644 -5.15265 1.94327 0.000601698 10
14.6812 -5.05513 2.45925 0.000488116 10
14.6783 -5.05414 3.01757 0.000475587 10
14.6738 -5.05259 3.58291 0.000460866 10
14.9652 -5.15293 4.24096 0.00053592 10
9.32411 -3.17419 -2.63919 0.000284195 4
10.3437 -3.52128 -2.52261 0.000214975 4
13.207 -4.49604 -2.71187 0.00011656 1
15.0272 -5.11569 -2.51422 0.000745827 10
15.0173 -5.11231 -1.94781 0.000761782 10
15.0135 -5.11102 1.38754 0.000604018 10
15.0075 -5.10898 1.94654 0.000594737 10
14.6377 -4.98309 2.44905 0.000497476 10
14.6115 -4.97416 3.00026 0.000484723 10
14.6162 -4.97575 3.56458 0.000469737 10
15.0124 -5.11065 4.24927 0.000529671 10
9.34268 -3.14416 -2.64132 0.000343082 4
10.3699 -3.48987 -2.52603 0.000179428 4
13.2079 -4.44495 -2.70884 0.00011656 1
15.0866 -5.07719 -2.52116 0.000737114 10
15.0897 -5.07825 -1.95489 0.000752896 10
15.0721 -5.07233 1.39131 0.000596982 10
15.071 -5.07196 1.95247 0.000587802 10
14.6324 -4.92437 2.44527 0.00063336 10
14.6294 -4.92336 3.00039 0.000617125 10
14.6452 -4.92866 3.56744 0.000598047 10
15.0682 -5.07102 4.26003 0.000523446 10
9.34936 -3.11012 -2.64013 0.000391728 4
10.3909 -3.4566 -2.52818 0.000204819 4
13.2366 -4.40322 -2.71155 0.00011656 1
15.1452 -5.03813 -2.528 0.000728433 10
15.1283 -5.03254 -1.95761 0.000744043 10
15.1281 -5.03244 1.39484 0.000589972 10
15.1219 -5.03039 1.95677 0.000580893 10
14.7103 -4.89347 2.45541 0.000625969 10
14.704 -4.89138 3.01217 0.00060991 10
14.6927 -4.88761 3.57483 0.000591041 10
15.1356 -5.03493 4.27407 0.000517245 10
9.35003 -3.07414 -2.63727 0.00024579 4
10.3872 -3.41515 -2.52437 0.000213282 4
13.2505 -4.35654 -2.71128 0.000116559 1
15.2089 -5.00045 -2.53572 0.000719786 10
15.2133 -5.00187 -1.96632 0.000735224 10
15.2066 -4.99968 1.40047 0.00058299 10
15.2034 -4.99863 1.96505 0.000574011 10
15.2662 -5.01927 3.71008 0.000332676 10
15.1978 -4.99678 4.28668 0.000511068 10
9.37142 -3.04496 -2.64029 0.000120334 4
10.4141 -3.38375 -2.52802 0.000238673 4
13.2751 -4.31334 -2.71321 0.000116559 1
15.273 -4.96249 -2.54349 0.000711174 10
15.2584 -4.95777 -1.96991 0.00072644 10
20.8954 -6.78932 -1.92219 0.000197573 10
20.9056 -6.79264 -1.152 0.000199919 10
20.909 -6.79377 -0.383751 0.000201121 10
20.8964 -6.78966 0.383519 0.000201161 10
15.2514 -4.95549 1.403 0.000576035 10
15.2551 -4.95668 1.96948 0.000567156 10
15.3449 -4.98587 3.72497 0.000328675 10
15.2443 -4.95319 4.29492 0.000504916 10
9.37328 -3.00943 -2.63784 5.12061e-05 4
10.4274 -3.34788 -2.5284 0.00018112 4
13.29 -4.26695 -2.7132 0.000116559 1
15.3222 -4.91941 -2.5488 0.000702596 10
15.3124 -4.91629 -1.97466 0.000717693 10
20.8178 -6.68386 -1.91289 0.000201666 10
20.841 -6.69133 -1.14715 0.000204057 10
20.8226 -6.68541 -0.381734 0.000205281 10
20.8167 -6.68351 0.381625 0.000205322 10
15.3127 -4.91638 1.40705 0.000569108 10
15.3151 -4.91715 1.97501 0.000560329 10
15.4074 -4.94678 3.73592 0.000324691 10
15.3245 -4.92017 4.31264 0.000498789 10
9.39168 -2.97922 -2.64007 4.09648e-05 4
10.4196 -3.30529 -2.52368 0.000242058 4
13.3029 -4.21994 -2.71281 0.000116559 1
15.3695 -4.8755 -2.55384 0.000694055 10
15.3758 -4.87748 -1.98062 0.000708981 10
20.7703 -6.58873 -1.9064 0.000205808 10
20.7654 -6.58716 -1.14171 0.000208244 10
20.759 -6.58515 -0.380144 0.000209491 10
20.7701 -6.58868 0.380348 0.000209532 10
15.3816 -4.87932 1.4118 0.00056221 10
15.3734 -4.87675 1.98032 0.00055353 10
15.4819 -4.91116 2.57252 0.000277096 10
15.486 -4.91244 3.15799 0.000269886 10
15.4467 -4.89999 3.74129 9.53833e-05 10
15.3783 -4.87829 4.32296 0.000492689 10
9.39229 -2.94337 -2.63734 0.000227866 4
10.4529 -3.27573 -2.52896 0.000221745 4
13.3142 -4.17243 -2.71213 0.000116559 1
15.4318 -4.83605 -2.56137 0.00068555 10
15.4516 -4.84223 -1.9882 0.000700307 10
20.7063 -6.48896 -1.89844 0.000254518 10
20.7116 -6.49061 -1.1375 0.000257529 10
20.7186 -6.49281 -0.378986 0.000259072 10
20.7059 -6.48884 0.378755 0.000259125 10
15.4409 -4.83888 1.41568 0.000555341 10
15.4482 -4.84117 1.98776 0.000546761 10
15.5177 -4.86296 2.57563 0.000276837 10
15.502 -4.85802 3.15777 0.00026963 10
15.473 -4.84894 3.74352 9.53834e-05 10
15.4457 -4.84038 4.33712 0.000486615 10
9.40388 -2.91099 -2.63773 5.63265e-05 4
10.4571 -3.237 -2.52722 0.000181119 4
13.3329 -4.12722 -2.71298 0.000116558 1
15.4918 -4.79552 -2.56853 0.000677083 10
15.5011 -4.7984 -1.9924 0.000691671 10
20.8021 -6.43932 -1.90515 0.000251063 10
20.7818 -6.43304 -1.14012 0.000254036 10
20.779 -6.43218 -0.379679 0.00025556 10
20.7952 -6.4372 0.379975 0.000255613 10
15.5134 -4.8022 1.42079 0.000548503 10
15.4886 -4.79454 1.9908 0.000540021 10
15.4949 -4.79646 2.56904 0.000337599 10
15.5117 -4.80167 3.15633 0.00032882 10
15.4984 -4.79756 3.7456 0.000318508 10
15.4835 -4.79295 4.34303 0.000480568 10
9.40687 -2.87597 -2.63573 0.00062471 4
10.4658 -3.19973 -2.52663 0.000242056 4
13.3304 -4.0755 -2.70955 0.000116558 1
15.5783 -4.76276 -2.5801 0.000668655 10
15.5672 -4.75938 -1.99875 0.000683074 10
20.8825 -6.38443 -1.91046 0.000247627 10
20.881 -6.38397 -1.14433 0.000250563 10
20.8595 -6.3774 -0.380741 0.000252067 10
20.8578 -6.37689 0.38071 0.00025212 10
15.4793 -4.7325 1.41614 0.000461928 10
15.4742 -4.73096 1.98681 0.000454787 10
15.46 -4.72661 2.56051 0.000445372 10
15.4519 -4.72413 3.14079 0.000433796 10
15.4521 -4.72418 3.7304 0.0004202 10
15.4755 -4.73135 4.33613 0.000404745 10
9.42282 -2.84492 -2.6374 0.000156177 4
10.4791 -3.16384 -2.52716 0.000243748 4
13.354 -4.03183 -2.71149 0.000116558 1
15.6324 -4.71971 -2.58632 0.000660263 10
15.6207 -4.71619 -2.0035 0.000674515 10
20.9654 -6.32983 -1.91601 0.00024421 10
20.9622 -6.32885 -1.14756 0.000247109 10
20.9449 -6.32364 -0.381894 0.000248594 10
20.9535 -6.32624 0.382051 0.000248646 10
15.4034 -4.65057 1.40771 0.000470252 10
15.4171 -4.6547 1.97738 0.00046299 10
15.4071 -4.65167 2.54903 0.000453417 10
15.4049 -4.651 3.1279 0.000441648 10
15.4078 -4.6519 3.71577 0.000427822 10
15.4262 -4.65744 4.31771 0.000412106 10
9.4353 -2.81279 -2.63813 0.000514615 4
10.4753 -3.12282 -2.52359 0.000272523 4
13.3641 -3.98402 -2.7107 0.000116557 1
15.7012 -4.68074 -2.59498 0.000651912 10
15.6988 -4.68001 -2.0114 0.000665996 10
21.034 -6.27052 -1.92027 0.000240813 10
21.0426 -6.27309 -1.15076 0.000243674 10
21.0344 -6.27064 -0.383125 0.000245141 10
21.0454 -6.2739 0.383324 0.000245192 10
15.3729 -4.58286 1.40345 0.000478655 10
15.3808 -4.58522 1.97066 0.000471273 10
15.3562 -4.57789 2.53796 0.000461539 10
15.3639 -4.58019 3.11633 0.000449573 10
15.3759 -4.58375 3.70418 0.000435517 10
15.3609 -4.57928 4.29494 0.000419537 10
9.46082 -2.78447 -2.64253 0.000491572 4
10.4819 -3.085 -2.52257 0.000199737 4
13.392 -3.94149 -2.71355 0.000116557 1
15.7651 -4.63993 -2.60285 0.000643601 10
15.7576 -4.63773 -2.01685 0.000657519 10
21.1126 -6.21378 -1.92545 0.000237435 10
21.1122 -6.21365 -1.15337 0.00024026 10
21.1166 -6.21495 -0.384224 0.000241708 10
21.1216 -6.21644 0.384315 0.000241759 10
15.3306 -4.51204 1.39814 0.000487136 10
15.3188 -4.50856 1.96068 0.000479632 10
15.3297 -4.51178 2.53096 0.000469739 10
15.3221 -4.50953 3.10462 0.000457574 10
15.3197 -4.50885 3.68684 0.000443285 10
15.3293 -4.51165 4.28167 0.00042704 10
9.06924 -2.63486 -2.53058 0.000378595 4
10.5016 -3.05098 -2.52472 0.000165883 4
13.3863 -3.88907 -2.70962 0.000116556 1
15.8234 -4.59712 -2.6098 0.00063533 10
15.807 -4.59235 -2.0211 0.000649082 10
15.353 -4.46045 1.39875 0.000566889 10
15.3538 -4.4607 1.96316 0.000558162 10
15.3668 -4.46448 2.5345 0.000546654 10
15.3568 -4.46156 3.10849 0.000532502 10
15.3574 -4.46173 3.69212 0.000515875 10
15.3482 -4.45908 4.2826 0.000496973 10
9.06462 -2.59924 -2.52674 0.000395934 4
10.5049 -3.01223 -2.52298 0.000198043 4
13.4125 -3.84597 -2.71219 0.000116556 1
15.8808 -4.55373 -2.61663 0.0006271 10
15.887 -4.55553 -2.02929 0.000640687 10
16.0354 -4.59809 -1.45946 0.000361044 10
16.0369 -4.59851 -0.874329 0.000364946 10
16.0195 -4.59351 -0.29089 0.00036694 10
16.0146 -4.59212 0.290801 0.000367004 10
16.0206 -4.59384 0.87344 0.000365136 10
15.4322 -4.4251 1.40455 0.000559632 10
15.4088 -4.4184 1.96821 0.000551009 10
15.41 -4.41874 2.53906 0.000539639 10
15.4268 -4.42356 3.11951 0.000525656 10
15.4224 -4.42231 3.70404 0.00050923 10
15.4254 -4.42317 4.29979 0.000490554 10
9.08334 -2.57033 -2.52944 0.000436393 4
10.5202 -2.97693 -2.52416 0.000130335 4
13.4114 -3.79504 -2.70927 0.000116555 1
15.9413 -4.51095 -2.624 0.000618912 10
15.9508 -4.51363 -2.03542 0.000632335 10
15.9741 -4.52022 -1.45243 0.000367383 10
15.9792 -4.52165 -0.870315 0.000371347 10
15.9773 -4.52112 -0.289836 0.000373374 10
15.9847 -4.52321 0.289969 0.000373439 10
15.969 -4.51876 0.869759 0.000371541 10
15.5192 -4.3915 1.41107 0.000397099 10
15.5199 -4.39168 1.98042 0.000390972 10
18.3224 -5.18472 3.70136 0.000186042 10
18.2209 -5.15599 4.3718 0.000286572 10
15.4782 -4.3799 4.31023 0.000484167 10
9.07811 -2.53465 -2.5255 0.000341021 4
10.5309 -2.94027 -2.52423 4.57018e-05 4
13.4274 -3.74901 -2.70985 0.000116555 1
16.0197 -4.47278 -2.63431 0.000610767 10
16.0137 -4.47111 -2.04144 0.000624026 10
16.0091 -4.46982 -1.45418 0.00041887 10
16.003 -4.46811 -0.870756 0.000423401 10
16.0162 -4.47181 -0.290257 0.000425722 10
16.0072 -4.46928 0.290092 0.000425804 10
15.9947 -4.46581 0.870309 0.000423648 10
15.5756 -4.34878 1.4148 0.000391931 10
15.5629 -4.34525 1.98397 0.000385879 10
18.4068 -5.13926 3.71475 0.000183478 10
15.7203 -4.38918 3.76812 0.000145477 10
15.5492 -4.34142 4.32575 0.000477813 10
9.08199 -2.5016 -2.52414 0.00042772 4
10.5444 -2.9044 -2.52502 0.000116793 4
13.449 -3.70447 -2.71158 0.000116554 1
16.0644 -4.42487 -2.63911 0.000602665 10
16.079 -4.4289 -2.04778 0.000615762 10
16.288 -4.48645 -1.47808 0.000350478 10
16.2854 -4.48576 -0.885269 0.000354279 10
16.2791 -4.484 -0.294734 0.000356223 10
16.271 -4.48177 0.294588 0.000356284 10
16.2685 -4.48109 0.884349 0.000354463 10
15.6403 -4.30806 1.41931 0.000386791 10
15.6271 -4.30443 1.99023 0.000380812 10
18.4675 -5.0868 3.72341 0.000180929 10
15.7499 -4.33825 3.77157 0.000145478 10
15.6075 -4.29903 4.33777 0.000471493 10
9.09451 -2.47093 -2.52521 0.000346798 4
10.5479 -2.8658 -2.52345 0.000228507 4
13.4704 -3.65982 -2.71329 0.000116553 1
16.1542 -4.389 -2.65133 0.000594608 10
16.1291 -4.38219 -2.0522 0.000607541 10
16.2234 -4.40781 -1.47082 0.000356525 10
16.2161 -4.40583 -0.88066 0.000360386 10
16.2192 -4.40665 -0.29337 0.00036236 10
16.2228 -4.40765 0.293436 0.000362423 10
16.2339 -4.41065 0.881624 0.000360572 10
15.706 -4.26722 1.42391 0.000381677 10
15.6909 -4.26312 1.99644 0.000375773 10
18.5326 -5.03521 3.73298 0.000178395 10
15.7633 -4.28281 3.77118 0.000145479 10
15.6609 -4.25499 4.34846 0.000465207 10
9.12369 -2.44469 -2.53093 0.000401707 4
10.5707 -2.8324 -2.52652 0.00024374 4
13.4676 -3.60864 -2.71019 0.000116553 1
16.2045 -4.34198 -2.65707 0.000586594 10
16.2162 -4.34512 -2.06134 0.000599366 10
16.2154 -4.3449 -1.46871 0.000402337 10
16.1914 -4.33848 -0.87849 0.000406702 10
16.2042 -4.34191 -0.292823 0.000408938 10
16.2 -4.34079 0.292748 0.000409018 10
16.1891 -4.33786 0.878364 0.000406942 10
15.7523 -4.22082 1.42676 0.000376592 10
15.7677 -4.22496 2.00433 0.00037076 10
18.6186 -4.98884 3.74675 4.57246e-05 10
15.7666 -4.22464 3.7684 0.00014548 10
15.7161 -4.21112 4.35967 0.000458955 10
9.13972 -2.41482 -2.53302 0.00106002 4
10.5637 -2.79104 -2.5225 0.00022512 4
13.486 -3.56315 -2.71136 0.000116552 1
16.2786 -4.301 -2.66676 0.000578625 10
16.2849 -4.30267 -2.06815 0.000591236 10
27.1554 -7.17476 -2.45731 7.90201e-05 10
15.8168 -4.17897 1.43127 0.000371534 10
15.828 -4.18194 2.01012 0.000365775 10
18.6236 -4.92057 3.74428 4.57249e-05 10
15.8086 -4.17681 3.77494 0.000470073 10
15.7962 -4.17354 4.37782 0.000452738 10
9.18725 -2.3931 -2.54386 0.000994134 4
10.5967 -2.76024 -2.52808 0.000240352 4
13.4901 -3.51391 -2.70971 0.000116551 1
16.3356 -4.25512 -2.67364 0.000570702 10
16.3475 -4.2582 -2.0742 0.000583153 10
16.481 -4.29297 -1.49001 0.000346219 10
16.4771 -4.29196 -0.892343 0.000349982 10
16.4779 -4.29218 -0.297221 0.000351906 10
16.4599 -4.28748 0.296895 0.000351966 10
16.4811 -4.293 0.892559 0.000350161 10
15.8984 -4.14122 1.43734 0.000366504 10
15.8812 -4.13675 2.01504 0.000360819 10
18.7721 -4.88977 3.07242 0.000175721 10
18.6951 -4.8697 3.75521 0.000173785 10
15.8629 -4.13197 3.78444 0.000463671 10
15.8559 -4.13015 4.39033 0.000446556 10
9.20348 -2.36305 -2.54605 0.000921129 4
10.5911 -2.71934 -2.52446 0.000243736 4
13.5132 -3.46961 -2.71191 0.00011655 1
16.397 -4.21003 -2.68126 0.000562825 10
16.3989 -4.21053 -2.07885 0.000575117 10
16.4162 -4.21496 -1.48281 0.00035204 10
16.4342 -4.2196 -0.889218 0.000355862 10
16.4088 -4.21307 -0.295707 0.000357816 10
16.4122 -4.21393 0.295768 0.000357877 10
16.4153 -4.21473 0.888192 0.000356044 10
15.9507 -4.09546 1.44077 0.000361503 10
15.9537 -4.09621 2.0224 0.00035589 10
18.7686 -4.81895 3.76658 0.000171276 10
15.9365 -4.09181 3.79858 0.000457306 10
15.9146 -4.08617 4.40261 0.000440411 10
9.25258 -2.34126 -2.55736 0.0010154 4
10.6008 -2.68241 -2.52452 0.000238657 4
13.5273 -3.42294 -2.71232 0.000116549 1
16.4698 -4.16749 -2.69077 0.000554994 10
16.4776 -4.16949 -2.08697 0.000567128 10
16.4644 -4.16613 -1.48585 0.000380722 10
16.4629 -4.16575 -0.889976 0.000384869 10
16.4793 -4.1699 -0.296713 0.000386995 10
16.467 -4.16679 0.296491 0.000387072 10
16.4736 -4.16847 0.890558 0.000385101 10
16.0145 -4.05229 1.44524 0.000356531 10
16.0322 -4.05677 2.03055 0.00035099 10
18.8309 -4.76496 3.77573 0.000264392 10
15.9874 -4.04543 3.8073 0.000450979 10
16.0017 -4.04906 4.42279 0.000434301 10
9.28244 -2.31437 -2.56337 0.000844722 4
10.6265 -2.6495 -2.52844 0.000169259 4
13.5234 -3.37176 -2.70916 0.000116549 1
16.5463 -4.12544 -2.7009 0.000547211 10
16.5428 -4.1246 -2.09339 0.000559188 10
16.7062 -4.16532 -1.50635 0.000336418 10
16.7262 -4.17031 -0.903419 0.000340088 10
16.7186 -4.16841 -0.300758 0.000341963 10
16.7073 -4.1656 0.300555 0.000342021 10
16.7202 -4.16883 0.903097 0.000340261 10
16.082 -4.0097 1.45007 0.000351588 10
16.0905 -4.01182 2.03615 0.000346119 10
18.9098 -4.71473 3.78821 0.000260512 10
16.0541 -4.00274 3.81984 0.000444689 10
16.041 -3.99948 4.42977 0.000428228 10
9.30923 -2.28657 -2.56854 0.00119349 4
10.6162 -2.60759 -2.52379 0.000213265 4
13.5552 -3.32948 -2.71319 0.000116548 1
16.5879 -4.07437 -2.70535 5.03996e-05 1
16.6054 -4.07868 -2.09949 0.000551296 10
16.6759 -4.09598 -1.50231 0.000341977 10
16.6512 -4.08994 -0.898593 0.000345703 10
16.6606 -4.09223 -0.299456 0.000347607 10
16.6584 -4.0917 0.299416 0.000347665 10
16.6637 -4.093 0.899265 0.000345878 10
16.1636 -3.97015 1.45616 0.000346674 10
16.1596 -3.96917 2.04312 0.000341277 10
18.9807 -4.6621 3.79913 0.000256658 10
16.1307 -3.96208 3.83476 0.000438438 10
16.1244 -3.96053 4.44894 0.000422192 10
9.35911 -2.26421 -2.58011 0.00065735 4
10.6362 -2.57316 -2.52639 0.000201416 4
13.5722 -3.28346 -2.71427 0.000116547 1
16.6133 -4.01919 -2.7072 5.03991e-05 1
16.679 -4.03507 -2.107 0.000543453 10
16.6704 -4.033 -1.50055 0.000364847 10
16.672 -4.03338 -0.898947 0.000368835 10
16.6811 -4.0356 -0.29957 0.000370879 10
16.6594 -4.03034 0.29918 0.000370954 10
16.6707 -4.03306 0.898876 0.000369059 10
16.2317 -3.92688 1.46106 0.000341792 10
16.2205 -3.92415 2.04908 0.000336465 10
19.0588 -4.61081 3.81152 0.00025283 10
16.1821 -3.91486 3.8437 0.000432225 10
16.1857 -3.91574 4.46206 0.000416194 10
9.3807 -2.2348 -2.58389 0.000929136 4
10.6512 -2.53748 -2.52784 0.000247113 4
12.6331 -3.00963 -2.52435 4.94917e-05 4
16.6189 -3.9592 -2.70585 5.03985e-05 1
16.7441 -3.989 -2.11345 0.00053566 10
16.9547 -4.03918 -1.52486 0.000327078 10
16.9615 -4.0408 -0.913791 0.000330659 10
16.9598 -4.04039 -0.304319 0.000332489 10
16.9572 -4.03978 0.304272 0.000332545 10
16.9543 -4.03909 0.913404 0.000330826 10
16.2786 -3.87811 1.46405 0.000336939 10
16.281 -3.87868 2.055 0.000331683 10
19.1541 -4.56316 3.82739 0.000249029 10
16.2621 -3.87418 3.85947 0.000426052 10
16.2676 -3.87549 4.48088 0.000410234 10
9.41874 -2.20915 -2.59223 0.00102063 4
10.6582 -2.49986 -2.52742 0.000419285 4
12.6477 -2.9665 -2.52519 0.00011489 4
16.6534 -3.90602 -2.70922 5.03979e-05 1
16.8154 -3.94402 -2.1207 0.000527916 10
16.89 -3.96151 -1.51778 0.00033239 10
16.889 -3.96128 -0.909136 0.000336024 10
16.9092 -3.96602 -0.303161 0.000337881 10
16.8958 -3.96288 0.302921 0.000337937 10
16.9113 -3.96651 0.910334 0.000336193 10
16.3567 -3.83643 1.46986 0.000332117 10
16.3494 -3.83472 2.06193 0.000326931 10
19.313 -4.52984 3.1419 0.000158317 10
19.2391 -4.5125 3.84119 0.000245254 10
16.326 -3.82923 3.87144 0.000419917 10
16.3215 -3.82818 4.49202 0.000404311 10
9.44644 -2.18088 -2.59775 0.00110373 4
10.6858 -2.46701 -2.5319 0.000783508 4
12.6589 -2.92255 -2.52537 0.000114006 4
16.6439 -3.84255 -2.70548 5.03973e-05 1
16.8749 -3.89588 -2.12648 0.000520224 10
16.8746 -3.89582 -1.51517 0.000349271 10
16.8777 -3.89652 -0.907789 0.000353101 10
16.8729 -3.89542 -0.302265 0.000355065 10
16.8823 -3.8976 0.302433 0.000355138 10
16.8782 -3.89664 0.907816 0.000353319 10
16.4187 -3.79056 1.47424 0.000327326 10
16.4366 -3.79469 2.07124 0.000322209 10
19.3333 -4.46344 3.14263 0.000151663 10
19.3181 -4.45993 3.85382 0.000241507 10
16.3853 -3.78285 3.88235 0.000413823 10
16.3982 -3.78583 4.50946 0.000398428 10
9.48878 -2.1558 -2.6073 0.000768613 4
10.749 -2.44212 -2.54485 0.000531503 4
12.6461 -2.87312 -2.52079 0.00011047 4
16.6766 -3.78883 -2.70862 5.03967e-05 1
16.9474 -3.85035 -2.1339 0.000512583 10
17.1982 -3.90734 -1.54299 0.000318164 10
17.1848 -3.9043 -0.923569 0.000321659 10
17.1876 -3.90494 -0.307657 0.000323445 10
17.1929 -3.90614 0.307751 0.000323499 10
17.1792 -3.90301 0.923265 0.00032182 10
16.4931 -3.74715 1.47973 0.000322566 10
16.4923 -3.74696 2.0766 0.000317519 10
19.3173 -4.3888 3.13754 0.000239674 10
19.3302 -4.39171 3.85316 0.000233021 10
16.4512 -3.73762 3.89484 0.000407769 10
16.4596 -3.73954 4.52274 0.000392584 10
9.5312 -2.13048 -2.6169 0.000932049 4
