VERSION 0.7
FIELDS x y z intensity label
SIZE 4 4 4 4 4
TYPE F F F F F
COUNT 1 1 1 1 1
WIDTH 1166
HEIGHT 1
VIEWPOINT 4.60606 17.9232 2.72852 0.880468 0.00051141 0.000968254 0.474104
POINTS 1166
DATA ascii
7.5567 -5.65313 -2.5287 0.00085316 4
8.731 -6.53162 -2.51734 0.00023532 4
11.1165 -8.31619 -2.69857 0.000118708 1
11.4668 -8.57826 -2.26813 0.00124142 10
14.5133 -10.8573 -2.22547 0.000210126 10
14.6508 -10.9602 -1.60076 0.000378239 10
14.6626 -10.969 -0.959665 0.00038252 10
14.6589 -10.9662 -0.319548 0.000384744 10
14.6545 -10.9629 0.319451 0.000384883 10
14.6479 -10.958 0.958701 0.000382937 10
11.4503 -8.56589 1.25107 0.000942966 10
11.4805 -8.58852 1.76043 0.000712652 10
14.5046 -10.8508 4.18198 0.000150867 10
11.4402 -8.55834 3.82823 0.000830795 10
7.59203 -5.63834 -2.53392 0.000606157 4
8.75306 -6.5006 -2.51714 0.000207828 4
11.1491 -8.28008 -2.69946 0.000118701 1
11.5178 -8.55385 -2.27229 0.00123492 10
14.3954 -10.6909 -2.20165 0.00021933 10
14.4798 -10.7536 -1.57796 0.000397214 10
14.4716 -10.7476 -0.944703 0.000401688 10
14.4756 -10.7506 -0.314733 0.000404012 10
14.4873 -10.7592 0.314987 0.000404158 10
14.4816 -10.755 0.945357 0.000402123 10
11.5062 -8.54528 1.25391 0.000938041 10
11.5195 -8.55515 1.76182 0.000708924 10
14.4069 -10.6995 4.14303 0.000157516 10
11.5049 -8.54426 3.83987 0.000826422 10
7.63043 -5.62564 -2.54017 0.000687061 4
8.77185 -6.46716 -2.51603 0.000291977 4
11.1842 -8.24571 -2.70096 0.000118695 1
11.5537 -8.51811 -2.2735 0.00122838 10
14.2923 -10.5372 -2.18025 0.0002288 10
14.3094 -10.5498 -1.55537 0.000153602 10
14.293 -10.5377 -0.930638 0.000155269 10
14.2969 -10.5406 -0.310045 0.000156108 10
14.3143 -10.5534 0.310422 0.000156109 10
14.2993 -10.5424 0.931049 0.000155273 10
11.556 -8.51985 1.25609 0.000933087 10
11.562 -8.52426 1.76376 0.000705175 10
14.3043 -10.5461 4.10292 0.00016436 10
11.5472 -8.51334 3.84407 0.000822021 10
7.64603 -5.59605 -2.53885 0.000628714 4
8.78732 -6.43135 -2.51402 0.000237007 4
11.2127 -8.20648 -2.70092 0.000118688 1
11.5888 -8.48173 -2.27457 0.0012218 10
14.2008 -10.3934 -2.16075 0.000238542 10
14.3655 -10.514 -1.55748 0.000414973 10
14.3601 -10.51 -0.932609 0.000419627 10
14.3628 -10.512 -0.310677 0.000422045 10
14.3668 -10.5149 0.310763 0.000422197 10
14.3593 -10.5094 0.932559 0.000420081 10
11.5896 -8.48233 1.25652 0.000928105 10
11.6094 -8.4968 1.76645 0.000701404 10
14.1966 -10.3904 2.78642 0.000182019 10
14.2031 -10.3951 3.42123 0.000177131 10
14.2041 -10.3959 4.06375 0.0001714 10
11.5856 -8.47939 3.84698 0.000817596 10
7.67819 -5.57853 -2.54304 0.000644688 4
8.80861 -6.39983 -2.5137 0.000219823 4
11.2318 -8.1604 -2.69864 0.000118682 1
11.6494 -8.46382 -2.28066 0.00121518 10
14.1105 -10.2519 -2.14155 0.000248557 10
14.1799 -10.3023 -1.53344 0.000436221 10
14.1806 -10.3028 -0.918616 0.000441089 10
14.1868 -10.3073 -0.30609 0.00044362 10
14.1772 -10.3003 0.305882 0.000443779 10
14.1795 -10.302 0.91854 0.000441565 10
11.6333 -8.45208 1.25805 0.000923093 10
11.6506 -8.46466 1.76821 0.000697612 10
14.113 -10.2537 2.76296 0.000189673 10
14.1033 -10.2466 3.38856 0.000184595 10
14.1086 -10.2505 4.02615 0.00017864 10
11.6264 -8.44706 3.8507 0.000813146 10
7.71682 -5.56555 -2.54939 0.000599788 4
8.83873 -6.37469 -2.51593 0.000211227 4
11.2689 -8.12736 -2.70071 0.000118675 1
11.6857 -8.428 -2.28199 0.00120853 10
14.013 -10.1065 -2.12138 0.000258849 10
14.0167 -10.1092 -1.51197 0.00017375 10
14.0228 -10.1135 -0.906096 0.000175619 10
14.0188 -10.1107 -0.301702 0.00017656 10
14.011 -10.1051 0.301534 0.000176561 10
14.007 -10.1021 0.905075 0.000175623 10
11.6907 -8.43157 1.26106 0.000918054 10
11.6969 -8.43604 1.77075 0.000693799 10
14.0176 -10.1098 2.73735 0.000197539 10
14.0189 -10.1108 3.35979 0.000192266 10
14.0167 -10.1091 3.98983 0.000186082 10
11.6676 -8.41497 3.85461 0.000808671 10
7.72891 -5.53336 -2.54699 0.000545166 4
8.86264 -6.34503 -2.51642 0.000188893 4
11.2907 -8.08332 -2.69915 0.000118669 1
11.735 -8.40144 -2.28587 0.00120184 10
13.9292 -9.97235 -2.10342 0.000269421 10
14.0512 -10.0597 -1.5119 0.000456132 10
14.0436 -10.0543 -0.905173 0.000461201 10
14.0493 -10.0583 -0.301601 0.000463835 10
14.0435 -10.0542 0.301476 0.000464001 10
14.0557 -10.0629 0.905949 0.000461698 10
11.7403 -8.40525 1.26325 0.000700327 10
11.7414 -8.40604 1.77305 0.000689965 10
13.924 -9.96861 2.71227 0.00020562 10
13.9112 -9.95946 3.32562 0.000200146 10
13.9311 -9.97366 3.95552 0.000193727 10
11.7134 -8.38594 3.86002 0.000804173 10
7.76852 -5.5208 -2.55367 0.000589155 4
8.88657 -6.31536 -2.51694 0.000159694 4
11.3302 -8.05197 -2.70187 0.000118662 1
11.776 -8.36876 -2.28815 0.00119511 10
13.829 -9.82777 -2.0831 0.000280278 10
13.879 -9.86328 -1.48965 0.000479998 10
13.8824 -9.8657 -0.892554 0.000485306 10
13.8644 -9.8529 -0.29689 0.000488065 10
13.8601 -9.84985 0.296798 0.000488239 10
13.8755 -9.86082 0.892112 0.000485827 10
11.7922 -8.38029 1.26567 0.000696419 10
11.7911 -8.37952 1.77612 0.000686111 10
13.8293 -9.828 2.68713 0.000213918 10
13.837 -9.83341 3.29964 0.00020824 10
13.8426 -9.83746 3.92064 0.00020158 10
11.7741 -8.3674 3.87038 0.000799651 10
7.78502 -5.49173 -2.55278 0.000671157 4
8.89777 -6.27669 -2.51389 0.000194027 4
11.3516 -8.00766 -2.70028 0.000118655 1
11.8333 -8.34749 -2.29361 0.00118835 10
13.7447 -9.69584 -2.06529 0.000291421 10
13.7534 -9.70193 -1.47252 0.000195587 10
13.7478 -9.698 -0.881718 0.000197673 10
13.7436 -9.69507 -0.293578 0.000198723 10
13.7497 -9.69934 0.293708 0.000198724 10
13.7302 -9.68561 0.880592 0.000197677 10
11.8435 -8.3547 1.26804 0.000692491 10
11.8362 -8.3495 1.77851 0.000682237 10
13.7396 -9.69224 2.66311 0.000222437 10
13.7371 -9.69048 3.26775 0.000216548 10
13.7387 -9.69162 3.88161 0.000209642 10
11.8054 -8.32776 3.87108 0.000795106 10
7.81255 -5.47041 -2.55553 0.000597157 4
8.92786 -6.25136 -2.51621 0.000218056 4
11.3764 -7.96585 -2.69956 0.000118648 1
11.8553 -8.30119 -2.29225 0.00118156 10
13.6527 -9.55974 -2.04644 0.000302855 10
13.7306 -9.6143 -1.46649 0.000502397 10
13.7404 -9.62114 -0.879085 0.000507928 10
13.7473 -9.62595 -0.292937 0.000510803 10
13.7482 -9.62658 0.292956 0.000510986 10
13.7279 -9.61241 0.878288 0.000508473 10
11.8846 -8.32171 1.26933 0.000688543 10
11.8776 -8.31679 1.78036 0.000678345 10
13.6584 -9.56374 2.64088 0.000231177 10
13.6581 -9.56348 3.24098 0.000225073 10
13.6575 -9.56309 3.8492 0.000217915 10
11.864 -8.30724 3.88077 0.000790538 10
7.85434 -5.45891 -2.56295 0.000555972 4
8.93918 -6.21289 -2.51327 0.000228348 4
11.4047 -7.92649 -2.6997 0.000118641 1
11.9199 -8.28453 -2.29912 0.00117473 10
13.5709 -9.43205 -2.02923 0.000314581 10
13.5686 -9.43043 -1.44566 0.000211112 10
13.5755 -9.4352 -0.866421 0.000213351 10
13.5619 -9.4258 -0.288285 0.000214479 10
13.5742 -9.43434 0.288546 0.00021448 10
13.5707 -9.43185 0.866113 0.000213356 10
11.9281 -8.29027 1.27087 0.000684576 10
11.9237 -8.28722 1.78293 0.000674433 10
13.5558 -9.42155 2.61467 0.000240142 10
13.5725 -9.43313 3.21285 0.000233819 10
13.5631 -9.42659 3.8133 0.000226401 10
11.891 -8.26446 3.88015 0.000785948 10
7.8639 -5.42494 -2.55987 0.000666977 4
8.97844 -6.19381 -2.51822 0.000180266 4
11.4279 -7.88361 -2.69866 0.000118634 1
11.9463 -8.24122 -2.29866 0.00116788 10
13.4713 -9.29322 -2.00947 0.000326604 10
13.5995 -9.3817 -1.44545 0.00052609 10
13.6101 -9.38898 -0.866533 0.000531857 10
13.5987 -9.38114 -0.288369 0.000534854 10
13.6037 -9.3846 0.288475 0.000535045 10
13.604 -9.38479 0.866146 0.000532426 10
11.976 -8.26172 1.2729 0.000680591 10
11.9714 -8.25853 1.78574 0.000670503 10
13.4943 -9.30906 2.59651 0.000249334 10
13.4793 -9.29873 3.18308 0.000242785 10
13.4774 -9.29746 3.78007 0.000235104 10
11.9442 -8.23973 3.88809 0.000781338 10
7.89415 -5.40524 -2.56356 0.000568346 4
8.98442 -6.15176 -2.51386 0.000202575 4
11.4615 -7.84785 -2.7001 0.000118627 1
12.0022 -8.21809 -2.30388 0.00116099 10
13.3965 -9.17276 -1.99352 0.000338926 10
13.4308 -9.19626 -1.4241 0.000554579 10
13.4189 -9.18813 -0.852314 0.000560629 10
13.4201 -9.18896 -0.2839 0.000563773 10
13.4179 -9.18745 0.283853 0.000563973 10
13.4095 -9.18167 0.851716 0.000561226 10
12.028 -8.23574 1.27536 0.000676587 10
12.0263 -8.23456 1.78962 0.000666555 10
13.3987 -9.17427 2.57194 0.000258755 10
13.3917 -9.16949 3.15482 0.000251977 10
13.3895 -9.16798 3.7464 0.000244025 10
11.9876 -8.2081 3.89289 0.000776705 10
7.93954 -5.39571 -2.57217 0.000564935 4
9.01337 -6.12548 -2.51596 0.000223165 4
11.4838 -7.80439 -2.69893 0.00011862 1
12.0555 -8.19293 -2.30861 0.00115407 10
13.3244 -9.05523 -1.97807 0.000351551 10
13.4647 -9.15061 -1.4243 0.000551174 10
13.4795 -9.16064 -0.854124 0.000557189 10
13.4648 -9.15068 -0.284167 0.000560316 10
13.4713 -9.15512 0.284305 0.000560515 10
13.4619 -9.14868 0.853009 0.000557784 10
12.0695 -8.20241 1.27671 0.000672564 10
12.0696 -8.20249 1.7918 0.000662588 10
13.3155 -9.0492 2.54989 0.000268407 10
13.3246 -9.05541 3.13155 0.000261394 10
13.3203 -9.05244 3.71817 0.000253167 10
12.0307 -8.17609 3.8976 0.000772053 10
7.96693 -5.37376 -2.57495 0.000518272 4
9.03011 -6.09089 -2.51468 0.000216288 4
11.5153 -7.76714 -2.69992 0.000118613 1
12.1003 -8.16177 -2.31172 0.00114712 10
13.244 -8.9332 -1.9615 0.000364479 10
13.2878 -8.96271 -1.40226 0.00058138 10
13.2888 -8.96343 -0.840056 0.000587694 10
13.2773 -8.95564 -0.279548 0.000590974 10
13.2637 -8.94649 0.279262 0.000591184 10
13.2811 -8.9582 0.839566 0.000588318 10
12.1198 -8.17494 1.27901 0.000668526 10
12.0977 -8.16 1.79173 0.000658606 10
13.2373 -8.92865 2.52893 0.000278293 10
13.2396 -8.93025 3.10423 0.00027104 10
13.234 -8.92643 3.68536 0.00026253 10
12.0721 -8.14275 3.90177 0.000767381 10
7.97737 -5.34038 -2.57229 0.00067336 4
9.04855 -6.05748 -2.51391 0.0001665 4
11.5371 -7.72344 -2.69872 0.000118606 1
12.1523 -8.13523 -2.3162 0.00114014 10
13.1522 -8.8046 -1.94334 0.000377717 10
13.1659 -8.81378 -1.38614 0.000253431 10
13.1555 -8.80684 -0.829679 0.000256084 10
13.1508 -8.80368 -0.276236 0.00025742 10
13.1652 -8.81336 0.276539 0.000257422 10
13.1587 -8.80898 0.829881 0.00025609 10
12.1663 -8.14465 1.28091 0.000664469 10
12.1566 -8.13811 1.79623 0.000654606 10
13.2395 -8.86305 2.52342 0.00042925 10
13.2314 -8.85769 3.09504 0.00041822 10
13.2446 -8.86648 3.67968 0.000405246 10
12.124 -8.11631 3.90936 0.000762689 10
8.00837 -5.32075 -2.57628 0.000727862 4
9.07288 -6.02801 -2.51481 0.000235148 4
11.5709 -7.68771 -2.70033 0.000118599 1
12.1815 -8.09334 -2.31637 0.00113313 10
13.0827 -8.69212 -1.92858 0.000391265 10
13.1414 -8.73113 -1.38035 0.00060981 10
13.1345 -8.72656 -0.82643 0.000616402 10
13.1334 -8.72578 -0.275229 0.000619828 10
13.1234 -8.71914 0.275019 0.000620047 10
13.1401 -8.73027 0.826781 0.000617057 10
12.1919 -8.10031 1.28062 0.000660397 10
12.1924 -8.10064 1.79734 0.00065059 10
12.3169 -8.18332 2.34212 0.000363169 10
12.3209 -8.18602 2.87536 0.000353912 10
12.3106 -8.17914 3.41224 0.000343046 10
12.1797 -8.09215 3.91818 0.000757978 10
8.04367 -5.30382 -2.58166 0.000623136 4
9.09025 -5.99392 -2.51381 0.000188796 4
11.5928 -7.64406 -2.69919 0.000118591 1
12.2247 -8.06067 -2.31922 0.0011261 10
12.9942 -8.56812 -1.91112 0.000405128 10
13.0021 -8.5733 -1.36257 0.000271802 10
13.0166 -8.58284 -0.817117 0.000274634 10
13.012 -8.57985 -0.272057 0.000276059 10
12.9952 -8.56873 0.271704 0.000276061 10
13.0148 -8.58168 0.817007 0.000274639 10
12.233 -8.06617 1.28197 0.000389528 10
12.2527 -8.07915 1.80205 0.00038361 10
12.2362 -8.06827 2.32141 0.000375827 10
12.2302 -8.06434 2.8476 0.00036627 10
12.2506 -8.0778 3.38778 0.00035505 10
12.2288 -8.06339 3.92489 0.000753249 10
8.06413 -5.27702 -2.5823 0.000600211 4
9.10883 -5.96065 -2.51318 0.000238557 4
11.6211 -7.60461 -2.69957 0.000118584 1
12.276 -8.03316 -2.32362 0.00111904 10
12.9339 -8.46369 -1.89788 0.000419307 10
12.9893 -8.49994 -1.3581 0.000639997 10
12.9883 -8.49929 -0.813475 0.000646884 10
12.9987 -8.50609 -0.271155 0.000650464 10
12.9788 -8.49309 0.27074 0.000650693 10
12.9857 -8.49761 0.813314 0.00064757 10
12.2793 -8.03535 1.28387 0.000906574 10
12.2667 -8.02713 1.79999 0.000893107 10
12.2701 -8.02933 2.32251 0.000875291 10
12.2635 -8.02503 2.84882 0.000853333 10
12.2686 -8.02837 3.38499 0.000827488 10
12.2684 -8.02824 3.9286 0.000798057 10
8.09959 -5.25993 -2.58776 0.000683845 4
9.13145 -5.93004 -2.5137 0.000212803 4
11.653 -7.56753 -2.70083 0.000118576 1
12.3177 -7.99922 -2.32622 0.00111195 10
12.8641 -8.35403 -1.88335 0.000433805 10
12.8542 -8.34762 -1.34093 0.00029102 10
12.8628 -8.35323 -0.803787 0.000294037 10
12.8659 -8.35524 -0.267776 0.000295557 10
12.8649 -8.35459 0.267755 0.000295558 10
12.8615 -8.35236 0.803704 0.000294043 10
12.3159 -7.99803 1.28477 0.00090085 10
12.3122 -7.99565 1.80256 0.000887464 10
12.3099 -7.99416 2.32475 0.000869753 10
12.3245 -8.00361 2.85647 0.000847925 10
12.3247 -8.00377 3.39274 0.000822234 10
12.3177 -7.99922 3.93542 0.000792977 10
8.13013 -5.23951 -2.59166 0.000578243 4
9.15271 -5.89852 -2.51386 0.000229953 4
11.6737 -7.5232 -2.69954 0.000118569 1
12.3697 -7.97174 -2.33077 0.00110484 10
12.7692 -8.22917 -1.86524 0.000448624 10
12.8403 -8.275 -1.33646 0.000672085 10
12.8411 -8.2755 -0.800617 0.000679285 10
12.8431 -8.27681 -0.266698 0.000683026 10
12.8292 -8.26782 0.266408 0.000683267 10
12.8451 -8.27813 0.800871 0.000680004 10
12.3698 -7.97179 1.28748 0.000895106 10
12.3561 -7.96297 1.8049 0.0008818 10
12.3688 -7.97117 2.33061 0.000864195 10
12.3682 -7.97076 2.86014 0.000842498 10
12.3606 -7.96589 3.39495 0.00081696 10
12.3679 -7.97059 3.94255 0.00078788 10
8.15722 -5.21676 -2.59448 0.000535488 4
9.19494 -5.88041 -2.51981 0.00019219 4
11.7077 -7.48739 -2.70134 0.000118561 1
12.4201 -7.943 -2.33503 0.0010977 10
12.7177 -8.13328 -1.85355 0.000463768 10
12.6991 -8.12142 -1.3188 0.000470987 10
12.704 -8.12454 -0.790297 0.000475848 10
12.7018 -8.12313 -0.263173 0.000478296 10
12.7021 -8.12335 0.26318 0.000478299 10
12.7131 -8.13034 0.790861 0.000475857 10
12.4096 -7.9363 1.28874 0.000889342 10
12.4193 -7.94245 1.81007 0.000876116 10
12.4001 -7.93022 2.33128 0.000858618 10
12.4137 -7.9389 2.86423 0.000837052 10
12.4166 -7.94077 3.40269 0.000811669 10
12.401 -7.93078 3.94425 0.000782764 10
8.18831 -5.19646 -2.59858 0.000507168 4
9.20913 -5.84429 -2.51809 0.000238509 4
11.7181 -7.4365 -2.69772 0.000118554 1
12.4661 -7.91121 -2.33847 0.00109054 10
12.6491 -8.02738 -1.83947 0.000479239 10
12.6513 -8.02876 -1.31092 0.000486682 10
12.65 -8.02793 -0.78519 0.000491694 10
12.6281 -8.01404 -0.261065 0.000494217 10
12.6426 -8.02322 0.261364 0.00049422 10
12.6513 -8.02879 0.785274 0.000491704 10
12.4708 -7.91421 1.29221 0.000883559 10
12.4638 -7.90978 1.81252 0.000870414 10
12.4705 -7.91405 2.3393 0.000853022 10
12.4488 -7.90024 2.86595 0.000831588 10
12.4599 -7.90726 3.40695 0.00080636 10
12.4569 -7.90536 3.95321 0.000777632 10
8.23002 -5.18272 -2.60606 0.000742494 4
9.22052 -5.80647 -2.51565 0.000104664 4
11.7551 -7.40261 -2.70029 0.000118546 1
12.5133 -7.88004 -2.34215 0.00108336 10
12.5681 -7.91459 -1.82367 0.000495038 10
12.5581 -7.90829 -1.2984 0.00050271 10
12.5719 -7.91693 -0.778621 0.000507876 10
12.5628 -7.91125 -0.259143 0.000510476 10
12.5813 -7.92285 0.259523 0.000510479 10
12.5616 -7.91047 0.777985 0.000507885 10
12.5128 -7.87971 1.29371 0.000877757 10
12.5169 -7.88232 1.81623 0.000864694 10
12.4937 -7.86769 2.33848 0.000847409 10
12.4957 -7.86894 2.87039 0.000826106 10
12.4931 -7.86735 3.40852 0.000801034 10
12.5145 -7.88077 3.96273 0.000772484 10
8.24573 -5.15251 -2.60532 0.000665407 4
9.24364 -5.77607 -2.51644 0.000101227 4
11.7917 -7.36826 -2.70276 0.000118538 1
12.5534 -7.84424 -2.34452 0.00107615 10
12.5578 -7.84697 -1.81818 0.0010989 10
12.5673 -7.8529 -1.2965 0.00111631 10
12.5523 -7.84352 -0.775706 0.00112817 10
12.5461 -7.8397 -0.258233 0.00113433 10
12.5458 -7.83948 0.258225 0.00113473 10
12.5535 -7.84429 0.775782 0.00112936 10
12.5478 -7.84073 1.29449 0.000871938 10
12.561 -7.849 1.81865 0.000858955 10
12.5552 -7.84537 2.34486 0.000841778 10
12.5469 -7.84015 2.87586 0.000820608 10
12.5498 -7.84196 3.41648 0.000795692 10
12.5543 -7.84478 3.96665 0.000767319 10
8.2822 -5.13518 -2.61116 0.000686032 4
9.25373 -5.73756 -2.51372 0.000121809 4
11.8126 -7.32413 -2.70168 0.00011853 1
12.6068 -7.81657 -2.34939 0.00106892 10
12.6092 -7.81803 -1.82166 0.00109154 10
12.6073 -7.81684 -1.2978 0.00110883 10
12.6042 -7.81494 -0.777226 0.00112061 10
12.5964 -7.81011 -0.258705 0.00112674 10
12.6091 -7.81795 0.258964 0.00112714 10
12.6078 -7.81715 0.777446 0.0011218 10
12.6135 -7.82072 1.29845 0.0008661 10
12.6058 -7.81594 1.82117 0.000853199 10
12.6059 -7.816 2.34922 0.00083613 10
12.5882 -7.80504 2.87908 0.000815093 10
12.6106 -7.81889 3.42559 0.000790333 10
12.6006 -7.81269 3.97264 0.00076214 10
8.30425 -5.10881 -2.61248 0.000731206 4
9.29239 -5.71672 -2.51879 0.000159544 4
11.8316 -7.27885 -2.7002 0.000118523 1
12.6699 -7.79456 -2.35605 0.00106168 10
12.6477 -7.78092 -1.82329 0.00108415 10
12.6463 -7.78006 -1.29902 0.00110134 10
12.6531 -7.78425 -0.778561 0.00111304 10
12.6651 -7.7916 -0.259554 0.00111913 10
12.6453 -7.77947 0.25915 0.00111952 10
12.653 -7.7842 0.778557 0.00111422 10
12.6504 -7.7826 1.29944 0.000860246 10
12.6422 -7.77756 1.8225 0.000847427 10
12.6563 -7.7862 2.35352 0.000830466 10
12.6517 -7.78336 2.88735 0.000809562 10
12.6532 -7.7843 3.42976 0.00078496 10
12.6362 -7.77383 3.97528 0.000756946 10
8.33768 -5.08934 -2.61739 0.000525827 4
9.31283 -5.68458 -2.51893 0.000229869 4
11.8454 -7.23046 -2.69757 0.000118515 1
12.7161 -7.76196 -2.3596 0.00105441 10
12.6928 -7.74772 -1.82588 0.00107673 10
12.6975 -7.7506 -1.30149 0.00109382 10
12.7155 -7.76159 -0.78073 0.00110545 10
12.714 -7.76064 -0.26 0.0011115 10
12.6892 -7.74549 0.259492 0.00111189 10
12.6955 -7.74934 0.779498 0.00110662 10
12.7078 -7.75687 1.30254 0.000854376 10
12.6921 -7.74727 1.82577 0.000841638 10
12.6858 -7.74344 2.35397 0.000824786 10
12.6834 -7.74195 2.8884 0.000804016 10
12.6892 -7.74553 3.43218 0.000779572 10
12.6991 -7.75157 3.98654 0.000751737 10
8.35206 -5.05819 -2.61634 0.000649543 4
9.33256 -5.652 -2.51892 0.000197265 4
11.8947 -7.20372 -2.70306 0.000118507 1
12.7454 -7.71887 -2.36001 0.00104712 10
12.7505 -7.722 -1.83029 0.0010693 10
12.7542 -7.72421 -1.30453 0.00108628 10
12.7575 -7.72622 -0.781647 0.00109783 10
12.7477 -7.72031 -0.260138 0.00110385 10
12.7467 -7.71969 0.260117 0.00110424 10
12.7564 -7.72553 0.781577 0.001099 10
12.7568 -7.7258 1.3048 0.00084849 10
12.7563 -7.72547 1.83112 0.000835835 10
12.7496 -7.72146 2.3608 0.000819092 10
12.7312 -7.71028 2.89314 0.000798456 10
12.7384 -7.71468 3.43819 0.00077417 10
12.7493 -7.72123 3.9938 0.000746516 10
8.39948 -5.04692 -2.62566 0.000748897 4
9.35251 -5.61955 -2.51899 0.000159519 4
11.918 -7.16104 -2.70265 0.000118499 1
12.8079 -7.69574 -2.36659 0.00103982 10
12.8112 -7.69775 -1.83514 0.00106186 10
12.7983 -7.68998 -1.30628 0.00107872 10
12.7998 -7.6909 -0.782588 0.0010902 10
12.8089 -7.69638 -0.260837 0.00109617 10
12.8092 -7.69654 0.260842 0.00109656 10
12.7861 -7.68264 0.781749 0.00109137 10
12.7945 -7.68771 1.3059 0.000842589 10
12.8013 -7.69182 1.83372 0.000830017 10
12.7979 -7.68974 2.36475 0.000813383 10
12.7839 -7.68137 2.89902 0.000792881 10
12.7976 -7.68959 3.44689 0.000768754 10
12.8009 -7.69158 4.00155 0.000741281 10
8.42406 -5.02175 -2.62785 0.000665926 4
9.36265 -5.58126 -2.51646 0.000205819 4
11.9428 -7.11933 -2.70262 0.00011849 1
12.8577 -7.66475 -2.37085 0.00103249 10
12.837 -7.6524 -1.835 0.00105439 10
12.8445 -7.65688 -1.30827 0.00107114 10
12.8379 -7.65291 -0.783278 0.00108255 10
12.8487 -7.65937 -0.261101 0.00108848 10
12.8329 -7.64996 0.26078 0.00108887 10
12.8377 -7.65281 0.783268 0.00108371 10
12.8441 -7.65663 1.30823 0.000836674 10
12.8431 -7.65605 1.83587 0.000824184 10
12.8319 -7.64937 2.36609 0.00080766 10
12.8513 -7.6609 2.90821 0.000787294 10
12.83 -7.64822 3.4484 0.000763325 10
12.847 -7.65832 4.00756 0.000736033 10
8.45609 -5.00092 -2.63238 0.000464197 4
9.39616 -5.55688 -2.52024 0.0002504 4
11.9618 -7.07418 -2.70131 0.000118482 1
12.8898 -7.62301 -2.37184 0.00102515 10
12.8918 -7.62419 -1.83901 0.0010469 10
12.8846 -7.61992 -1.30963 0.00106355 10
12.8991 -7.62849 -0.785382 0.00107488 10
12.8898 -7.623 -0.261393 0.00108078 10
12.8974 -7.62748 0.261547 0.00108116 10
12.903 -7.63081 0.785621 0.00107603 10
12.8847 -7.62 1.30964 0.000830746 10
12.8995 -7.62873 1.84011 0.000818339 10
12.8834 -7.61925 2.37067 0.000801924 10
12.8971 -7.62735 2.91254 0.000781694 10
12.8945 -7.62577 3.45855 0.000757885 10
12.8931 -7.62494 4.01361 0.000730775 10
8.47208 -4.97054 -2.63194 0.000289949 4
9.39791 -5.51372 -2.51553 0.000229807 4
11.9943 -7.03704 -2.70311 0.000118474 1
12.9402 -7.59196 -2.37622 0.0010178 10
12.945 -7.59481 -1.84281 0.0010394 10
12.945 -7.59479 -1.31307 0.00105594 10
12.9467 -7.59577 -0.786662 0.0010672 10
12.9327 -7.5876 -0.261726 0.00107305 10
12.9445 -7.59451 0.261964 0.00107344 10
12.9491 -7.59719 0.786808 0.00106834 10
12.931 -7.5866 1.31165 0.000824804 10
12.9478 -7.59645 1.84321 0.000812481 10
12.9353 -7.58912 2.37533 0.000796176 10
12.9284 -7.58504 2.9136 0.000776081 10
12.9398 -7.59173 3.46358 0.000752432 10
12.9306 -7.58637 4.01705 0.000725505 10
8.48724 -4.93969 -2.63128 0.000375363 4
9.41341 -5.47874 -2.51455 0.000231509 4
12.0203 -6.99598 -2.70343 0.000118466 1
13.006 -7.56967 -2.38344 0.00101043 10
12.9846 -7.55724 -1.84468 0.00103189 10
21.4984 -12.5124 -2.17624 0.000174169 10
21.5148 -12.5219 -1.30461 0.000176377 10
21.4967 -12.5114 -0.434151 0.000177528 10
21.4941 -12.5099 0.434099 0.000177603 10
12.9799 -7.55447 1.31392 0.000818849 10
12.9801 -7.55459 1.84404 0.00080661 10
12.9955 -7.56358 2.38152 0.000790415 10
12.9779 -7.55334 2.91881 0.000770457 10
12.9817 -7.55551 3.46771 0.000746968 10
12.9904 -7.56061 4.02739 0.000720224 10
8.51147 -4.9141 -2.63346 0.000352048 4
9.45386 -5.45819 -2.52025 0.000200629 4
12.0366 -6.94933 -2.70163 0.000118457 1
13.0457 -7.53196 -2.38589 0.00100304 10
13.0319 -7.524 -1.84766 0.00102436 10
21.5958 -12.4683 -2.18168 0.000172662 10
21.5794 -12.4589 -1.30588 0.000174853 10
21.5779 -12.458 -0.434911 0.000175994 10
21.5731 -12.4552 0.434813 0.000176069 10
13.0482 -7.53341 1.31818 0.000812883 10
13.0432 -7.53049 1.84925 0.000800727 10
13.0356 -7.52608 2.38403 0.000784643 10
13.0366 -7.52671 2.92609 0.000764821 10
13.0344 -7.52542 3.47476 0.000741493 10
13.0446 -7.53129 4.03601 0.000714932 10
8.5259 -4.88283 -2.63263 0.000170839 4
9.45233 -5.4134 -2.51478 0.0002452 4
12.0497 -6.90093 -2.69915 0.000118449 1
13.0907 -7.4971 -2.38931 0.00099564 10
13.098 -7.50128 -1.8533 0.00101681 10
21.6742 -12.413 -2.18521 0.000171155 10
21.6693 -12.4101 -1.3087 0.000173328 10
21.6587 -12.404 -0.435664 0.00017446 10
21.6744 -12.413 0.435979 0.000174535 10
13.0922 -7.49797 1.31996 0.000806906 10
13.0954 -7.49983 1.85294 0.000794834 10
13.0822 -7.49226 2.38777 0.000778861 10
13.0789 -7.49036 2.92969 0.000759175 10
13.0933 -7.4986 3.48346 0.000736008 10
13.0903 -7.4969 4.04204 0.000709631 10
8.54094 -4.85193 -2.63203 0.000398604 4
9.47544 -5.3828 -2.51592 0.000238328 4
12.0883 -6.8671 -2.7024 0.00011844 1
13.132 -7.46004 -2.39209 0.000988227 10
13.1553 -7.47325 -1.85771 0.00100925 10
21.7477 -12.3544 -2.18825 0.000169646 10
21.7373 -12.3485 -1.31019 0.000171802 10
21.7349 -12.3471 -0.436327 0.000172925 10
21.75 -12.3557 0.436631 0.000172999 10
13.1438 -7.46673 1.32253 0.000800918 10
13.1465 -7.46827 1.85647 0.00078893 10
13.145 -7.4674 2.39445 0.000773068 10
13.1233 -7.45509 2.93379 0.00075352 10
13.1301 -7.45895 3.48631 0.000730515 10
13.1387 -7.4638 4.04889 0.000704321 10
8.56559 -4.82646 -2.63442 0.000380468 4
9.49105 -5.34793 -2.51509 0.000224598 4
12.1102 -6.82375 -2.70196 0.000118432 1
13.1838 -7.42868 -2.39678 0.000980803 10
13.1939 -7.4344 -1.85949 0.00100168 10
21.8309 -12.3011 -2.1923 0.000168137 10
21.8263 -12.2985 -1.31296 0.000170275 10
21.8354 -12.3036 -0.437479 0.000171389 10
21.8364 -12.3042 0.437499 0.000171463 10
13.1753 -7.42392 1.32309 0.00079492 10
13.1837 -7.42861 1.85804 0.000783016 10
13.1853 -7.42952 2.39705 0.000767266 10
13.1704 -7.42114 2.93851 0.000747855 10
13.1685 -7.42005 3.48959 0.000725011 10
13.1834 -7.42849 4.05468 0.000699002 10
8.57869 -4.79447 -2.63328 0.000209635 4
9.52556 -5.32366 -2.5193 0.000234871 4
12.1352 -6.78214 -2.70224 0.000118423 1
13.2545 -7.40768 -2.40492 0.000973368 10
13.2417 -7.40053 -1.86257 0.000994099 10
21.9081 -12.244 -2.19574 0.000166627 10
21.909 -12.2445 -1.31535 0.000168748 10
21.906 -12.2429 -0.438036 0.000169853 10
21.8994 -12.2391 0.437903 0.000169926 10
13.2341 -7.39629 1.32639 0.000788913 10
13.2463 -7.40309 1.86321 0.000777093 10
13.2324 -7.39533 2.40091 0.000761455 10
13.2372 -7.39804 2.94764 0.000742181 10
13.2345 -7.39653 3.50023 0.0007195 10
13.2227 -7.38991 4.05879 0.000693676 10
8.59748 -4.76566 -2.63393 0.000385606 4
9.54589 -5.29137 -2.51977 0.000248572 4
12.156 -6.73815 -2.70161 0.000118415 1
13.287 -7.3651 -2.40613 0.000965921 10
13.2853 -7.36418 -1.86508 0.000986506 10
21.9999 -12.1947 -2.20066 0.000165117 10
22.0037 -12.1969 -1.31848 0.00016722 10
22.0037 -12.1969 -0.439135 0.000168316 10
21.9831 -12.1854 0.438723 0.000168389 10
13.2899 -7.36673 1.3294 0.000782898 10
13.2856 -7.36432 1.86511 0.000771162 10
13.2889 -7.36618 2.40649 0.000755635 10
13.285 -7.364 2.95253 0.0007365 10
13.2908 -7.36719 3.50828 0.000713981 10
13.2703 -7.35587 4.06551 0.000688342 10
8.59715 -4.72633 -2.62876 0.000108689 4
9.56645 -5.2592 -2.52034 0.000245129 4
12.1677 -6.68927 -2.69902 0.000118406 1
13.3439 -7.33586 -2.41179 0.000958465 10
13.3337 -7.33027 -1.86826 0.000978903 10
22.0683 -12.1321 -2.20325 0.000163607 10
22.0887 -12.1434 -1.32102 0.000165693 10
22.0639 -12.1297 -0.439489 0.00016678 10
22.0793 -12.1382 0.439794 0.000166852 10
13.3441 -7.33597 1.33224 0.000776874 10
13.3302 -7.32833 1.86777 0.000765224 10
13.3443 -7.33612 2.41187 0.000749809 10
13.3397 -7.33356 2.95898 0.000730811 10
13.3391 -7.33323 3.51426 0.000708455 10
13.3335 -7.33016 4.077 0.000683001 10
8.63138 -4.70598 -2.63419 0.000351928 4
9.58314 -5.2249 -2.51991 0.00018855 4
12.2057 -6.65478 -2.70228 0.000118397 1
13.405 -7.30865 -2.41821 0.000951 10
13.4 -7.30592 -1.87397 0.00097129 10
22.152 -12.0777 -2.20739 0.000162097 10
22.1638 -12.0841 -1.32298 0.000164165 10
22.1513 -12.0773 -0.440387 0.000165243 10
22.1712 -12.0881 0.440782 0.000165314 10
13.3797 -7.29483 1.33325 0.000770843 10
13.3732 -7.29133 1.87023 0.000759278 10
13.3873 -7.29897 2.415 0.000743975 10
13.3872 -7.29892 2.96384 0.000725115 10
13.3932 -7.3022 3.52178 0.000702922 10
13.3683 -7.28866 4.07985 0.000677654 10
8.63106 -4.6668 -2.6291 0.000253582 4
9.58015 -5.17997 -2.51436 0.000222818 4
12.2284 -6.61188 -2.70217 0.000118388 1
13.4349 -7.26421 -2.419 0.000943527 10
13.456 -7.27564 -1.87824 0.000963669 10
22.2404 -12.0253 -2.212 0.000160587 10
22.2339 -12.0218 -1.32465 0.000162638 10
22.2343 -12.0221 -0.441201 0.000163706 10
22.2462 -12.0285 0.441436 0.000163777 10
13.4238 -7.25824 1.33512 0.000764805 10
13.4414 -7.26776 1.8762 0.000753325 10
13.4275 -7.26022 2.41768 0.000738134 10
13.4222 -7.25736 2.96597 0.000719413 10
13.4296 -7.26136 3.52467 0.000697383 10
13.4252 -7.259 4.08945 0.000672301 10
8.65848 -4.64264 -2.6325 0.000540776 4
9.61732 -5.15676 -2.51937 0.00020738 4
12.245 -6.56574 -2.70077 0.000118379 1
13.4889 -7.23271 -2.42418 0.000936045 10
13.4904 -7.23349 -1.8795 0.00095604 10
22.3248 -11.9704 -2.21622 0.000159077 10
22.3287 -11.9725 -1.3278 0.00016111 10
22.333 -11.9748 -0.442326 0.00016217 10
22.3196 -11.9677 0.442061 0.000162241 10
13.4805 -7.2282 1.33824 0.00075876 10
13.4836 -7.22983 1.87855 0.000747365 10
13.4857 -7.23095 2.42359 0.000732288 10
13.482 -7.22899 2.97359 0.000713705 10
13.4791 -7.22742 3.53101 0.000691838 10
13.4795 -7.22767 4.09829 0.000666943 10
8.67983 -4.61515 -2.63408 0.000369986 4
9.63992 -5.12564 -2.52059 0.000205654 4
12.2625 -6.52008 -2.69958 0.000118371 1
13.5572 -7.20851 -2.43192 0.000928558 10
13.5571 -7.20843 -1.88528 0.000948404 10
22.2863 -11.8498 -2.20828 8.81474e-05 10
22.2723 -11.8424 -1.32198 8.92334e-05 10
22.2689 -11.8406 -0.440236 8.97807e-05 10
22.2637 -11.8378 0.440132 8.97813e-05 10
13.5481 -7.20367 1.34244 0.000752711 10
13.5286 -7.1933 1.88132 0.000741401 10
13.5269 -7.1924 2.42648 0.000726436 10
13.5387 -7.19866 2.98054 0.000707993 10
13.5233 -7.19046 3.53599 0.000686289 10
13.5349 -7.19665 4.10746 0.000661581 10
8.67969 -4.57628 -2.62917 0.000206975 4
9.64724 -5.08641 -2.51785 0.000128526 4
12.2926 -6.48117 -2.70122 0.000118362 1
13.5903 -7.16536 -2.43335 0.000921064 10
13.5987 -7.1698 -1.88758 0.000940762 10
22.3197 -11.7678 -2.20751 0.000161238 10
22.3092 -11.7623 -1.32173 0.000163296 10
22.3066 -11.761 -0.440167 0.000164368 10
22.3045 -11.7598 0.440125 0.00016444 10
13.5846 -7.16237 1.34358 0.000411173 10
13.5918 -7.16614 1.88661 0.000404843 10
13.5809 -7.16038 2.43166 0.000396521 10
13.5686 -7.1539 2.9816 0.000386305 10
13.5769 -7.15827 3.54345 0.000374315 10
13.5721 -7.15577 4.11114 0.000360691 10
8.71182 -4.55443 -2.63407 0.000364774 4
9.67594 -5.05846 -2.52072 0.000236473 4
12.3106 -6.43581 -2.70021 0.000118352 1
13.6473 -7.13464 -2.43908 0.000913565 10
13.6353 -7.12838 -1.88919 0.000933114 10
22.4073 -11.7143 -2.21212 0.000159686 10
22.3997 -11.7103 -1.32466 0.000161725 10
22.3854 -11.7028 -0.440913 0.000162789 10
22.3899 -11.7052 0.441002 0.00016286 10
13.5302 -7.07342 1.33574 0.0004223 10
13.5304 -7.07353 1.87465 0.000415811 10
13.5185 -7.06733 2.41607 0.000407279 10
13.5228 -7.06953 2.96609 0.000396804 10
13.5113 -7.06355 3.51989 0.000384511 10
13.508 -7.06179 4.08422 0.000370542 10
8.71913 -4.51957 -2.6315 8.01943e-05 4
9.67042 -5.01267 -2.5147 0.000265588 4
12.346 -6.39954 -2.70305 0.000118343 1
13.6957 -7.0992 -2.44329 0.000906062 10
13.7087 -7.1059 -1.8959 0.000925462 10
22.4882 -11.6568 -2.21607 0.000158135 10
22.4967 -11.6612 -1.32798 0.000160156 10
22.4715 -11.6481 -0.441805 0.00016121 10
22.4917 -11.6586 0.442202 0.000161281 10
13.4725 -6.98347 1.32763 0.000433613 10
13.4723 -6.98338 1.86322 0.000426962 10
13.4666 -6.9804 2.40241 0.000418217 10
13.4627 -6.97841 2.94756 0.00040748 10
13.4472 -6.97037 3.49682 0.000394878 10
13.4718 -6.9831 4.06588 0.000380559 10
8.73079 -4.48702 -2.63028 0.000165554 4
9.6866 -4.97824 -2.51438 0.000270711 4
12.3698 -6.35722 -2.7034 0.000118334 1
13.7462 -7.06458 -2.44788 0.000898556 10
13.7585 -7.07092 -1.89937 0.000917807 10
22.5712 -11.6 -2.22025 0.000156585 10
22.5641 -11.5964 -1.32956 0.000158589 10
22.5712 -11.6 -0.442967 0.000159633 10
22.5746 -11.6018 0.443033 0.000159703 10
13.4076 -6.89057 1.31886 0.00044511 10
13.3987 -6.886 1.8497 0.000438296 10
13.4001 -6.88673 2.38625 0.000429334 10
13.3886 -6.88081 2.92605 0.000418332 10
13.3988 -6.88608 3.47797 0.000405417 10
13.4067 -6.89012 4.03896 0.000390741 10
8.74375 -4.45517 -2.62948 0.000144852 4
9.70419 -4.94453 -2.51445 0.000190172 4
12.3866 -6.3113 -2.70224 0.000118325 1
13.7966 -7.02973 -2.45247 0.000891045 10
13.8006 -7.03174 -1.90178 0.000910147 10
22.6689 -11.5504 -2.22587 0.000155037 10
22.6578 -11.5447 -1.3327 0.000157022 10
22.6411 -11.5362 -0.443546 0.000158057 10
22.6437 -11.5375 0.443596 0.000158127 10
13.4381 -6.84704 1.31949 0.000788293 10
13.4346 -6.84526 1.85134 0.000776509 10
13.4178 -6.83669 2.38513 0.000760916 10
13.4334 -6.84465 2.9306 0.000741697 10
13.4099 -6.83268 3.47463 0.000719076 10
13.4257 -6.84073 4.03746 0.000693319 10
8.76361 -4.42682 -2.63079 0.000346592 4
9.74085 -4.92046 -2.51948 0.000174741 4
12.3982 -6.2628 -2.69999 0.000118316 1
13.8615 -7.00196 -2.45965 0.000883534 10
13.8637 -7.00307 -1.9071 0.000902487 10
27.9281 -14.1075 -1.63979 6.48725e-05 10
27.9197 -14.1033 -0.545988 4.31588e-05 10
27.9072 -14.0969 0.545742 4.31797e-05 10
13.48 -6.80926 1.32127 0.000781721 10
13.4734 -6.80592 1.85341 0.00077003 10
13.4625 -6.80041 2.38885 0.000754558 10
13.478 -6.80821 2.93512 0.000735489 10
13.4596 -6.79895 3.48135 0.000713046 10
13.4725 -6.80545 4.04437 0.000687491 10
8.40115 -4.20698 -2.51755 0.000429137 4
9.75291 -4.8839 -2.51818 0.000176443 4
12.4201 -6.21955 -2.70002 0.000118306 1
13.9196 -6.97039 -2.46562 0.00087602 10
13.9048 -6.963 -1.9094 0.000894824 10
28.04 -14.0414 -1.64347 6.41605e-05 10
13.5192 -6.7699 1.32279 0.000775147 10
13.537 -6.77883 1.85889 0.000763548 10
13.5145 -6.76754 2.39386 0.000748198 10
13.5253 -6.77296 2.94026 0.000729279 10
13.5121 -6.76638 3.4888 0.000707014 10
13.5123 -6.76646 4.0492 0.000681661 10
8.41876 -4.17911 -2.51844 0.000440791 4
9.77066 -4.8502 -2.51837 0.000190136 4
12.4377 -6.17412 -2.69913 0.000118297 1
13.9578 -6.92872 -2.46809 0.000868507 10
13.964 -6.93179 -1.91419 0.000887161 10
28.1268 -13.9623 -1.64569 6.345e-05 10
13.956 -6.9278 1.36315 0.000704187 10
13.9415 -6.92062 1.91111 0.000693562 10
13.9448 -6.92226 4.17154 0.00061858 10
8.45223 -4.15902 -2.5241 0.000443687 4
9.77993 -4.81232 -2.51641 0.000250073 4
12.4671 -6.13459 -2.70085 0.000118287 1
14.0081 -6.89286 -2.47272 0.000860993 10
14.001 -6.88936 -1.91596 0.000879498 10
28.2538 -13.9026 -1.65027 6.27411e-05 10
14.0015 -6.88959 1.36524 0.000698116 10
13.9949 -6.88633 1.91512 0.000687576 10
13.9848 -6.8814 4.17631 0.0006132 10
8.46045 -4.12644 -2.52223 0.00045242 4
9.80627 -4.78284 -2.51888 0.000171272 4
12.4864 -6.09001 -2.7004 0.000118278 1
14.0631 -6.85904 -2.47818 0.00085348 10
14.0601 -6.85758 -1.92076 0.000871835 10
28.3516 -13.828 -1.65316 6.20339e-05 10
14.0447 -6.85006 1.36711 0.000692044 10
14.0573 -6.85622 1.92038 0.000681591 10
14.0569 -6.856 4.19065 0.000607821 10
8.46908 -4.09412 -2.52053 0.000356079 4
9.81364 -4.7441 -2.51651 0.000241477 4
12.5044 -6.04485 -2.69972 0.000118268 1
14.1289 -6.83018 -2.48556 0.000845969 10
14.1266 -6.82904 -1.92657 0.000864175 10
28.4535 -13.755 -1.65629 6.13284e-05 10
14.1193 -6.82555 1.37205 0.000685974 10
14.1172 -6.82452 1.92529 0.000675606 10
14.1109 -6.82148 4.19963 0.000602444 10
8.4774 -4.06169 -2.51878 0.000449452 4
9.835 -4.71214 -2.51775 0.000239749 4
12.5453 -6.0107 -2.70401 0.000118259 1
14.1804 -6.7941 -2.49043 0.00083846 10
14.1807 -6.79423 -1.9307 0.000856517 10
28.5747 -13.6907 -1.66055 6.06247e-05 10
14.1712 -6.78968 1.37477 0.000679906 10
14.1528 -6.78087 1.9269 0.000669624 10
14.2441 -6.82465 2.50163 0.000411996 10
14.2328 -6.8192 3.06772 0.000401451 10
14.2349 -6.82023 3.64412 0.000389044 10
14.1498 -6.77946 4.20414 0.000597069 10
8.49727 -4.0348 -2.52048 0.000353122 4
9.85538 -4.67968 -2.51877 0.000121579 4
12.5563 -5.96218 -2.70188 0.000118249 1
14.219 -6.75168 -2.49306 0.000830955 10
14.2285 -6.7562 -1.93399 0.000848862 10
28.6738 -13.6153 -1.66353 5.99231e-05 10
14.2079 -6.74642 1.37605 0.00067384 10
14.2071 -6.74604 1.93108 0.000663644 10
14.1986 -6.74197 4.2116 0.000591697 10
8.52102 -4.00969 -2.52336 0.000321002 4
9.87549 -4.64705 -2.51975 0.000198623 4
12.5713 -5.9156 -2.70064 0.000118239 1
14.2746 -6.71714 -2.49869 0.000823454 10
14.2826 -6.72087 -1.93814 0.000841211 10
14.4078 -6.77978 -1.3931 0.000334565 10
14.3991 -6.77569 -0.833997 0.000338073 10
14.3972 -6.77479 -0.277736 0.000339839 10
14.4003 -6.77627 0.277797 0.00033984 10
14.3989 -6.77561 0.833987 0.000338078 10
14.2834 -6.72124 1.38107 0.000667777 10
14.2585 -6.70955 1.93487 0.000657668 10
14.2724 -6.71608 4.22653 0.000586327 10
8.52719 -3.97629 -2.52106 0.000323902 4
9.88438 -4.60916 -2.5179 0.000282506 4
12.5948 -5.87303 -2.70126 0.000118229 1
14.3328 -6.6835 -2.50477 0.000815957 10
14.3389 -6.68634 -1.9426 0.000833564 10
14.3477 -6.69045 -1.38503 0.0003428 10
14.3362 -6.68506 -0.828997 0.000346388 10
14.3429 -6.68822 -0.276238 0.000348194 10
14.3393 -6.68654 0.276168 0.000348196 10
14.3382 -6.68599 0.829112 0.000346393 10
14.3362 -6.68507 1.38392 0.000661718 10
14.3251 -6.67991 1.94073 0.000651694 10
14.3226 -6.67873 4.23446 0.000580961 10
8.55474 -3.95284 -2.52511 0.000663838 4
9.90665 -4.57752 -2.51948 0.000239686 4
12.6278 -5.83486 -2.70396 0.00011822 1
14.3853 -6.64694 -2.50987 0.000808465 10
14.384 -6.64635 -1.94556 0.000825923 10
14.3915 -6.64981 -1.38701 0.000554371 10
14.3772 -6.64321 -0.830025 0.000560388 10
14.3839 -6.64631 -0.276579 0.000563525 10
14.3782 -6.64366 0.276469 0.000563741 10
14.3824 -6.64559 0.830323 0.000561034 10
14.3703 -6.64003 1.38497 0.000655663 10
14.37 -6.63989 1.94367 0.000645725 10
14.3802 -6.64459 4.24462 0.000575599 10
8.56356 -3.9207 -2.52366 0.00082766 4
9.92725 -4.54505 -2.52067 0.000261925 4
12.6388 -5.78648 -2.70197 0.00011821 1
14.4512 -6.61626 -2.51732 0.00080098 10
14.4381 -6.61028 -1.94974 0.000818288 10
28.9091 -13.2356 -1.6663 5.88906e-05 10
28.9028 -13.2327 -0.554862 5.93189e-05 10
28.9036 -13.2331 0.554877 5.93484e-05 10
14.4411 -6.61164 1.38955 0.000649613 10
14.4226 -6.60319 1.94765 0.000639761 10
14.4327 -6.60779 4.25326 0.000570241 10
8.59693 -3.89974 -2.52946 0.00077022 4
9.94086 -4.50937 -2.52012 0.000246501 4
12.6526 -5.73946 -2.70062 0.0001182 1
14.496 -6.57568 -2.52112 0.000793501 10
14.4848 -6.57058 -1.95293 0.00081066 10
14.6373 -6.63975 -1.40619 0.000331684 10
14.6347 -6.63861 -0.842196 0.000335172 10
14.6412 -6.64157 -0.280629 0.000336928 10
14.6343 -6.63842 0.280495 0.000336929 10
14.6522 -6.64653 0.843201 0.000335177 10
14.4981 -6.57664 1.39282 0.000643568 10
14.4765 -6.56682 1.95182 0.000633802 10
14.552 -6.6011 3.6891 9.94211e-05 10
14.4755 -6.56639 4.25911 0.000564889 10
8.64006 -3.883 -2.53815 0.000586649 4
9.9437 -4.46888 -2.51687 0.000237926 4
12.688 -5.70223 -2.70393 0.00011819 1
14.5537 -6.5407 -2.52717 0.00078603 10
14.5553 -6.54142 -1.95936 0.000803039 10
14.5926 -6.55818 -1.39969 0.000339618 10
14.591 -6.55744 -0.838354 0.000343184 10
14.5893 -6.55668 -0.279192 0.000344978 10
14.574 -6.54983 0.2789 0.00034498 10
14.5773 -6.55131 0.837571 0.000343189 10
14.5358 -6.53265 1.39424 0.000637529 10
14.5467 -6.53756 1.9582 0.000627849 10
14.6054 -6.56392 2.53614 0.000386223 10
14.6058 -6.56409 3.11261 0.000376295 10
14.6125 -6.56713 3.6986 0.000364615 10
14.5313 -6.53061 4.26878 0.000559543 10
8.65435 -3.85316 -2.53838 0.000957955 4
9.95246 -4.43112 -2.51515 0.000138638 4
12.7106 -5.65911 -2.7045 0.00011818 1
14.5978 -6.49937 -2.53087 0.000778568 10
14.6009 -6.50073 -1.96242 0.000795428 10
14.6129 -6.50608 -1.39945 0.000533926 10
14.5946 -6.49794 -0.837256 0.000539739 10
14.5982 -6.49955 -0.278928 0.00054277 10
14.6007 -6.50064 0.278974 0.00054298 10
14.5864 -6.4943 0.836787 0.000540368 10
14.6054 -6.50276 1.39874 0.000631496 10
14.6067 -6.50333 1.96321 0.000621902 10
14.6367 -6.51667 2.53761 0.000246839 10
14.6165 -6.50768 3.11004 0.0002404 10
14.619 -6.5088 3.69447 0.000232846 10
14.591 -6.49633 4.27964 0.000554202 10
8.69134 -3.83334 -2.54529 0.000824795 4
9.98151 -4.40237 -2.5186 0.000203665 4
12.7189 -5.60972 -2.7021 0.000118169 1
14.654 -6.46319 -2.53669 0.000771114 10
14.659 -6.46541 -1.96719 0.000787825 10
29.5516 -13.0338 -1.69268 5.43877e-05 10
14.6421 -6.45792 1.40008 0.000625472 10
14.6468 -6.46 1.96555 0.000615964 10
14.6143 -6.44569 2.52982 0.000391293 10
14.6277 -6.45157 3.1076 0.000381092 10
14.6093 -6.44345 3.6863 0.000369123 10
14.6518 -6.46222 4.29084 0.000548869 10
8.73805 -3.81756 -2.55505 0.000874236 4
9.99102 -4.36497 -2.51714 0.000213919 4
12.7445 -5.56796 -2.70339 0.000118159 1
14.7045 -6.42424 -2.54153 0.000763671 10
14.7077 -6.42565 -1.97071 0.000780232 10
14.8608 -6.49255 -1.41882 0.000328897 10
14.8746 -6.49857 -0.850697 0.000332365 10
14.8723 -6.49756 -0.283291 0.000334111 10
14.8603 -6.4923 0.283062 0.000334113 10
14.8646 -6.49421 0.850125 0.00033237 10
14.7037 -6.42391 1.40382 0.000619455 10
14.7113 -6.42723 1.97119 0.000610032 10
14.574 -6.36723 2.51898 0.000400444 10
14.5563 -6.35948 3.0877 0.000390021 10
14.5687 -6.36492 3.67044 0.000377792 10
14.6884 -6.41719 4.29495 0.000543543 10
8.74741 -3.78535 -2.55391 0.000879524 4
10.0099 -4.33165 -2.51806 0.000215615 4
12.7516 -5.51809 -2.70078 0.000118149 1
14.7696 -6.39138 -2.54891 0.000756238 10
14.767 -6.39025 -1.97565 0.00077265 10
14.8236 -6.41476 -1.41312 0.000336545 10
14.8048 -6.40661 -0.845419 0.000340088 10
14.8184 -6.4125 -0.281836 0.000341871 10
14.8233 -6.41461 0.281929 0.000341873 10
14.8181 -6.41236 0.846177 0.000340093 10
14.7505 -6.38311 1.40615 0.000613446 10
14.7704 -6.39172 1.9761 0.000604109 10
14.4963 -6.2731 2.50174 0.000409722 10
14.52 -6.28337 3.07533 0.000399074 10
14.5197 -6.28325 3.65255 0.000386581 10
14.7618 -6.38801 4.30988 0.000538224 10
8.78226 -3.76408 -2.56023 0.000796885 4
10.0353 -4.30112 -2.52066 0.000210467 4
12.7891 -5.4814 -2.70465 0.000118139 1
14.8282 -6.35539 -2.55518 0.000748816 10
14.8418 -6.36121 -1.98267 0.000765079 10
14.8139 -6.34925 -1.41007 0.00051358 10
14.8278 -6.35523 -0.845463 0.000519188 10
14.8305 -6.35634 -0.281641 0.000522113 10
14.8221 -6.35276 0.281482 0.000522318 10
14.8332 -6.35751 0.845766 0.000519801 10
14.8298 -6.35606 1.41159 0.000607445 10
14.8208 -6.3522 1.97987 0.000598194 10
14.4453 -6.19126 2.4892 0.000419126 10
14.4587 -6.19702 3.05775 0.000408252 10
14.4621 -6.19848 3.6326 0.000395491 10
14.8098 -6.34749 4.3174 0.000532913 10
8.81166 -3.74033 -2.56498 0.000751989 4
10.0413 -4.26228 -2.51842 0.000237828 4
12.808 -5.43665 -2.70462 0.000118128 1
14.8864 -6.31891 -2.5614 0.000741406 10
14.8902 -6.32052 -1.98618 0.00075752 10
29.9993 -12.7339 -1.70797 5.16803e-05 10
14.8661 -6.31028 1.41294 0.000601455 10
14.8737 -6.31352 1.98398 0.000592289 10
14.4874 -6.14956 2.49275 0.000634182 10
14.4718 -6.14293 3.05597 0.000617974 10
14.4774 -6.14529 3.63102 0.0005989 10
14.8792 -6.31584 4.33117 0.000527612 10
8.84187 -3.71678 -2.56998 0.000826055 4
10.0669 -4.23175 -2.52113 0.000248077 4
12.8193 -5.38874 -2.70303 0.000118118 1
14.9541 -6.28614 -2.56926 0.000734009 10
14.9407 -6.28047 -1.98997 0.000749975 10
15.0878 -6.34233 -1.4319 0.000326182 10
15.1042 -6.34921 -0.85867 0.000329631 10
15.0785 -6.33841 -0.285504 0.000331367 10
15.0959 -6.34575 0.285835 0.000331369 10
15.1033 -6.34885 0.858621 0.000329636 10
14.9338 -6.2776 1.41728 0.000595475 10
14.9254 -6.27406 1.98794 0.000586394 10
14.5318 -6.10862 2.4967 0.000627912 10
14.5299 -6.1078 3.06371 0.000611854 10
14.5213 -6.10419 3.63666 0.000592957 10
14.931 -6.27641 4.33985 0.00052232 10
8.88904 -3.70015 -2.57992 0.000837358 4
10.0736 -4.19322 -2.51911 0.00029596 4
12.8245 -5.33831 -2.70017 0.000118108 1
14.9865 -6.23828 -2.57106 0.000726625 10
14.9869 -6.23844 -1.99322 0.000742442 10
15.0419 -6.26134 -1.42546 0.000333558 10
15.0279 -6.25549 -0.853085 0.00033708 10
15.0389 -6.26009 -0.284339 0.000338852 10
15.0272 -6.25523 0.284118 0.000338854 10
15.0303 -6.25652 0.853224 0.000337084 10
14.9836 -6.23707 1.41993 0.000589505 10
14.9912 -6.24023 1.99379 0.000580509 10
14.9741 -6.23314 2.56894 0.000568605 10
14.9878 -6.23884 3.15566 0.000553936 10
14.9904 -6.23991 3.74867 0.000536678 10
14.9852 -6.23774 4.34925 0.000517037 10
8.93112 -3.68114 -2.58839 0.000935913 4
10.079 -4.15427 -2.51683 0.000193302 4
12.8666 -5.30322 -2.70512 0.000118097 1
15.0481 -6.2024 -2.57791 0.000719255 10
15.049 -6.20276 -1.99859 0.000734924 10
15.0473 -6.20203 -1.4239 0.000493361 10
15.0532 -6.20447 -0.853288 0.000498767 10
15.0587 -6.20677 -0.284303 0.000501586 10
15.0375 -6.19802 0.283902 0.000501785 10
15.0625 -6.2083 0.853815 0.000499362 10
15.0362 -6.19749 1.42286 0.000583546 10
15.0474 -6.2021 1.99837 0.000574636 10
15.0369 -6.19775 2.57597 0.000562844 10
15.0548 -6.20512 3.16517 0.000548314 10
15.0323 -6.19587 3.75371 0.00053122 10
15.0408 -6.19936 4.35908 0.000511765 10
8.9537 -3.65394 -2.59122 0.000853432 4
10.1122 -4.12672 -2.52151 0.000236051 4
12.8675 -5.25112 -2.70144 0.000118086 1
15.1162 -6.1688 -2.58586 0.0007119 10
15.1208 -6.17066 -2.00524 0.00072742 10
19.8995 -8.12085 -1.88037 0.000282351 10
19.9 -8.12104 -1.12642 0.000285746 10
19.8891 -8.11659 -0.374961 0.000287517 10
19.8817 -8.11358 0.374822 0.000287643 10
15.0997 -6.16208 1.42682 0.0005776 10
15.1172 -6.1692 2.00477 0.000568774 10
15.0918 -6.15884 2.58168 0.000557095 10
15.0903 -6.15824 3.16811 0.000542703 10
15.0904 -6.15828 3.76283 0.000525772 10
15.0937 -6.15963 4.36816 0.000506504 10
8.96946 -3.6239 -2.59211 0.000820905 4
10.1221 -4.0896 -2.5204 0.000194984 4
12.8906 -5.20814 -2.70246 0.000118076 1
15.1692 -6.12876 -2.59125 0.000704561 10
15.1753 -6.13124 -2.00963 0.000719934 10
15.3074 -6.18459 -1.4444 0.00032352 10
15.3157 -6.18793 -0.865697 0.000326949 10
15.3136 -6.1871 -0.288292 0.000328676 10
15.3115 -6.18627 0.288253 0.000328677 10
15.3143 -6.18736 0.865617 0.000326954 10
15.1615 -6.12563 1.43063 0.000571665 10
15.1651 -6.1271 2.00828 0.000562925 10
15.1602 -6.12514 2.58972 0.000551358 10
15.1713 -6.1296 3.18059 0.000537104 10
15.1474 -6.11995 3.77169 0.000520337 10
15.1536 -6.12247 4.37929 0.000501254 10
9.02246 -3.60873 -2.60377 0.000956041 4
10.1251 -4.04975 -2.51761 0.000225755 4
12.9081 -5.16289 -2.70234 0.000118065 1
15.2354 -6.09372 -2.59891 0.000697237 10
15.2276 -6.09061 -2.01373 0.000712462 10
15.2604 -6.10372 -1.43794 0.000330636 10
15.2658 -6.10588 -0.861667 0.000334136 10
15.2521 -6.10041 -0.286732 0.000335898 10
15.2476 -6.09861 0.286647 0.000335899 10
15.2509 -6.09992 0.860826 0.000334141 10
15.2149 -6.08554 1.43366 0.000565743 10
15.2186 -6.08702 2.01254 0.000557088 10
15.2044 -6.08132 2.59362 0.000545633 10
15.2029 -6.08073 3.18276 0.000531518 10
15.2021 -6.08042 3.78001 0.000514912 10
15.2183 -6.08688 4.3918 0.000496016 10
9.0563 -3.58565 -2.60991 0.000861338 4
10.1379 -4.01386 -2.51728 0.000194956 4
12.9374 -5.12229 -2.70472 0.000118054 1
15.2853 -6.05188 -2.6038 0.00068993 10
15.2889 -6.05329 -2.01902 0.000705008 10
15.2866 -6.05239 -1.43841 0.000473303 10
15.2975 -6.05671 -0.862259 0.000478505 10
15.2699 -6.04579 -0.286668 0.00048122 10
15.2736 -6.04727 0.286738 0.000481413 10
15.2906 -6.05397 0.861869 0.000479083 10
15.266 -6.04425 1.43648 0.000559835 10
15.2644 -6.04362 2.01579 0.000551264 10
15.2723 -6.04674 2.60159 0.000539921 10
15.262 -6.04264 3.19068 0.000525944 10
15.2838 -6.05127 3.79503 0.000509501 10
15.2783 -6.04912 4.40301 0.00049079 10
9.08658 -3.56099 -2.61503 0.000785475 4
10.1618 -3.98235 -2.51975 0.000191522 4
12.948 -5.07427 -2.70321 0.000118044 1
15.3614 -6.02006 -2.61317 0.000682641 10
15.345 -6.01364 -2.02365 0.000697571 10
20.1931 -7.91361 -1.89749 0.000269692 10
20.203 -7.91747 -1.1372 0.000272946 10
20.2023 -7.9172 -0.378745 0.000274646 10
20.1981 -7.91553 0.378665 0.000274767 10
15.3299 -6.00774 1.44051 0.000553941 10
15.3434 -6.01302 2.02344 0.000545454 10
15.3442 -6.01332 2.61024 0.000534224 10
15.3412 -6.01216 3.20285 0.000520384 10
15.3268 -6.00653 3.8005 0.000504103 10
15.3275 -6.00678 4.41111 0.000485577 10
9.10079 -3.52996 -2.61556 0.000839467 4
10.1811 -3.949 -2.52112 0.000170381 4
12.96 -5.02684 -2.70203 0.000118033 1
15.4062 -5.97568 -2.61723 0.00067537 10
15.4149 -5.97905 -2.0301 0.000690153 10
15.512 -6.01671 -1.45564 0.000320894 10
15.5291 -6.02335 -0.872923 0.000324305 10
15.5231 -6.02103 -0.290626 0.000326021 10
15.5309 -6.02403 0.29077 0.000326023 10
15.5305 -6.02387 0.872998 0.000324309 10
15.3954 -5.97147 1.44469 0.000548061 10
15.3898 -5.9693 2.02679 0.000539659 10
