VERSION 0.7
FIELDS x y z intensity label
SIZE 4 4 4 4 4
TYPE F F F F F
COUNT 1 1 1 1 1
WIDTH 1183
HEIGHT 1
VIEWPOINT 31.0683 7.48822 2.72819 0.999989 -8.91909e-05 -1.10884e-05 -0.00475407
POINTS 1183
DATA ascii
19.5347 -12.3971 -1.21252 9.38805e-05 10
19.5431 -12.4024 -0.40402 9.44313e-05 10
19.5503 -12.407 0.404169 9.44261e-05 10
19.5318 -12.3953 1.21235 0.000110802 10
19.551 -12.4075 2.02586 0.000109492 10
19.1691 -12.1651 2.78763 0.000178484 10
19.1716 -12.1666 3.59632 0.000174306 10
19.5347 -12.3971 4.49725 0.000101904 10
19.5492 -12.4063 5.34542 9.82711e-05 10
19.1756 -12.1692 6.0854 0.000156445 10
8.01115 -5.04489 -2.53675 0.000346315 4
9.34893 -5.88734 -2.55068 0.000527661 4
11.0594 -6.96448 -2.54047 6.71131e-05 4
14.5876 -9.18629 -2.7304 4.86262e-05 1
19.681 -12.3938 -2.03484 0.000136826 10
19.8179 -12.48 -1.22739 0.000138954 10
19.8017 -12.4698 -0.408465 0.00013978 10
19.819 -12.4807 0.408822 0.00013978 10
19.6927 -12.4012 1.21964 0.000107934 10
19.7009 -12.4064 2.0369 0.000106655 10
19.1896 -12.0844 2.78446 0.000180433 10
19.1757 -12.0756 3.58916 0.000176213 10
19.6911 -12.4002 4.52327 9.9249e-05 10
19.6857 -12.3967 5.37088 9.57032e-05 10
19.1881 -12.0834 6.07597 0.000158171 10
8.02769 -5.01626 -2.53643 0.000283867 4
9.40372 -5.8761 -2.56002 0.000470718 4
11.0854 -6.92695 -2.54088 0.000101531 4
14.6254 -9.13899 -2.7315 4.86269e-05 1
19.8396 -12.3972 -2.04675 0.000133247 10
19.8401 -12.3975 -1.22608 8.90602e-05 10
19.8493 -12.4032 -0.408551 8.95848e-05 10
19.845 -12.4005 0.408462 8.95799e-05 10
19.8558 -12.4073 1.22705 0.000105113 10
19.8553 -12.407 2.04836 0.000103865 10
19.2827 -12.0492 2.79185 0.000114076 10
19.267 -12.0394 3.59838 0.0001114 10
19.8537 -12.406 4.55065 9.66377e-05 10
19.8505 -12.404 5.404 9.3178e-05 10
19.2721 -12.0425 6.0892 9.99647e-05 10
8.07515 -5.00681 -2.54589 0.000765763 4
9.48283 -5.87961 -2.57595 0.00059746 4
11.095 -6.8792 -2.53756 0.000119601 4
14.6499 -9.08332 -2.73013 4.86275e-05 1
19.9935 -12.3965 -2.05814 0.000129727 10
20.0773 -12.4484 -1.23805 0.000134705 10
20.0704 -12.4442 -0.412206 0.000135509 10
20.0914 -12.4572 0.412636 0.000135508 10
20.0008 -12.401 1.23333 0.000102339 10
19.9856 -12.3916 2.05733 0.000101121 10
20.008 -12.4055 2.89056 9.93195e-05 10
20.0072 -12.405 3.72851 9.69584e-05 10
19.9919 -12.3955 4.57239 9.40704e-05 10
19.9909 -12.3949 5.43041 9.06953e-05 10
20.0016 -12.4015 6.306 8.68797e-05 10
8.14453 -5.01055 -2.56223 0.000886677 4
9.53727 -5.86737 -2.58516 0.000556378 4
11.12 -6.84109 -2.5378 0.000122184 4
14.676 -9.02874 -2.7291 4.86282e-05 1
20.1451 -12.3934 -2.06929 0.000126267 10
20.1586 -12.4016 -1.24038 8.43993e-05 10
20.1484 -12.3954 -0.412915 8.48984e-05 10
20.1463 -12.3941 0.412872 8.48936e-05 10
20.1592 -12.402 1.24042 9.96112e-05 10
20.1475 -12.3948 2.06953 9.84239e-05 10
20.1645 -12.4053 2.9069 9.66664e-05 10
20.1571 -12.4008 3.74836 9.43634e-05 10
20.1505 -12.3967 4.59873 9.15468e-05 10
20.1521 -12.3977 5.46241 8.82553e-05 10
20.1506 -12.3968 6.3393 8.45344e-05 10
8.1978 -5.00396 -2.57348 0.000684617 4
9.59433 -5.8564 -2.59507 0.0004361 4
11.1432 -6.80187 -2.53767 0.000110999 4
14.7049 -8.97588 -2.72863 4.86288e-05 1
20.3023 -12.3926 -2.08098 0.000122866 10
20.3468 -12.4198 -1.24929 0.000130615 10
20.3474 -12.4201 -0.416103 0.000131397 10
20.3628 -12.4295 0.416417 0.000131397 10
20.3192 -12.4029 1.24759 9.69306e-05 10
20.2977 -12.3898 2.08051 9.57727e-05 10
20.3137 -12.3995 2.92216 9.40589e-05 10
20.2971 -12.3894 3.76633 9.18132e-05 10
20.319 -12.4028 4.62727 8.90667e-05 10
20.3137 -12.3996 5.49446 8.58576e-05 10
20.3099 -12.3972 6.37576 8.22299e-05 10
8.24368 -4.99255 -2.58239 0.000642766 4
9.65862 -5.84947 -2.60692 0.000421203 4
11.172 -6.76599 -2.53882 0.000112721 4
14.7481 -8.93179 -2.73085 4.86295e-05 1
20.4747 -12.3999 -2.0942 0.000119525 10
20.6115 -12.4828 -1.26286 0.000189762 10
20.6088 -12.4812 -0.420556 0.000190903 10
20.6318 -12.4951 0.421024 0.000190902 10
20.4665 -12.395 1.25397 9.42964e-05 10
20.457 -12.3892 2.09239 9.31675e-05 10
20.4737 -12.3993 2.93893 9.14967e-05 10
20.462 -12.3923 3.78888 8.93075e-05 10
20.4692 -12.3966 4.6516 8.66301e-05 10
20.4742 -12.3996 5.52612 8.35019e-05 10
20.4559 -12.3885 6.40795 7.9966e-05 10
8.31081 -4.99364 -2.59795 0.000619484 4
9.73145 -5.84724 -2.62105 0.000499048 4
11.201 -6.73026 -2.54007 0.000105839 4
14.7606 -8.86904 -2.72741 4.86302e-05 1
20.6243 -12.3923 -2.10507 0.000116241 10
20.6331 -12.3976 -1.26152 0.000117639 10
20.6214 -12.3906 -0.419928 0.000118339 10
20.6296 -12.3955 0.420093 0.000118333 10
20.621 -12.3903 1.26078 9.17086e-05 10
20.626 -12.3933 2.10523 9.06082e-05 10
20.6357 -12.3992 2.95595 8.89796e-05 10
20.624 -12.3922 3.81083 8.68459e-05 10
20.6177 -12.3884 4.6755 8.42366e-05 10
20.6242 -12.3923 5.55489 8.11881e-05 10
20.6164 -12.3876 6.44465 7.77426e-05 10
8.35496 -4.98056 -2.6063 0.000522865 4
9.79511 -5.83906 -2.63269 0.000512279 4
11.2265 -6.69232 -2.54052 0.000122189 4
14.7993 -8.82215 -2.72886 4.86308e-05 1
20.7861 -12.391 -2.11715 0.000113016 10
20.7808 -12.3878 -1.2679 0.000114379 10
20.7791 -12.3868 -0.422255 0.000115061 10
20.7852 -12.3904 0.422378 0.000115054 10
20.7967 -12.3973 1.26887 8.91665e-05 10
20.7861 -12.391 2.11715 8.80942e-05 10
20.7861 -12.391 2.97129 8.65073e-05 10
20.777 -12.3856 3.83108 8.44282e-05 10
20.7866 -12.3913 4.70394 8.18859e-05 10
20.7967 -12.3973 5.58967 7.8916e-05 10
20.7937 -12.3955 6.48651 7.55594e-05 10
8.41088 -4.97418 -2.61831 0.000418363 4
9.85082 -5.82576 -2.64219 0.000589105 4
11.2405 -6.64764 -2.53844 0.000105841 4
14.8456 -8.77967 -2.73173 4.86315e-05 1
20.9385 -12.383 -2.12826 0.00010985 10
20.9445 -12.3865 -1.27524 0.000111177 10
20.9582 -12.3947 -0.425014 0.000111842 10
20.9373 -12.3823 0.424589 0.000111835 10
20.7885 -12.2943 1.26575 0.000147548 10
20.805 -12.3041 2.11469 0.000145783 10
20.8028 -12.3028 2.96752 0.000143166 10
20.799 -12.3005 3.82722 0.000139735 10
20.81 -12.307 4.6995 0.000135538 10
20.8107 -12.3074 5.58185 0.000130632 10
20.8099 -12.3069 6.47812 0.000125086 10
8.4803 -4.97536 -2.6345 0.00077733 4
9.89849 -5.80741 -2.64952 0.000248144 4
11.2574 -6.60469 -2.53703 6.97008e-05 4
14.8771 -8.72837 -2.73191 4.86322e-05 1
20.7867 -12.1955 1.26304 0.000149083 10
20.7892 -12.197 2.10874 0.000147301 10
20.805 -12.2062 2.96173 0.000144659 10
20.8078 -12.2079 3.82096 0.000141195 10
20.7934 -12.1994 4.6861 0.000136957 10
20.8042 -12.2058 5.56865 0.000132004 10
20.7898 -12.1973 6.45857 0.000126405 10
8.5455 -4.9736 -2.64934 0.000725119 4
9.91909 -5.77305 -2.64962 0.000211654 4
11.2903 -6.57111 -2.53925 0.000118751 4
14.9003 -8.67219 -2.73059 4.86328e-05 1
20.7911 -12.1007 1.26073 0.00015062 10
20.7945 -12.1027 2.10498 0.000148821 10
20.7916 -12.101 2.95379 0.000146154 10
20.79 -12.1001 3.80992 0.000142657 10
20.7905 -12.1004 4.6759 0.000138379 10
20.8052 -12.1089 5.55757 0.000133378 10
20.793 -12.1018 6.4464 0.000127725 10
8.60199 -4.96636 -2.66146 0.00077461 4
9.94159 -5.73978 -2.65027 0.00014597 4
11.3095 -6.52956 -2.53843 0.000113589 4
14.9174 -8.61258 -2.7282 4.86335e-05 1
20.846 -12.0355 1.2615 8.90929e-05 10
20.8266 -12.0242 2.10397 8.80237e-05 10
20.8413 -12.0328 2.95487 8.64415e-05 10
20.8272 -12.0246 3.80901 8.43685e-05 10
20.8497 -12.0376 4.67975 8.18335e-05 10
20.8473 -12.0362 5.55754 7.88719e-05 10
20.8442 -12.0344 6.44922 7.55246e-05 10
8.65119 -4.95459 -2.67132 0.000666774 4
9.97034 -5.71007 -2.6526 0.00019998 4
11.3258 -6.48634 -2.53699 0.000117032 4
14.967 -8.57168 -2.73177 4.86342e-05 1
8.72311 -4.95542 -2.68817 0.000664069 4
9.99101 -5.67568 -2.65281 0.000195603 4
11.3706 -6.45942 -2.54197 0.000112731 4
14.9774 -8.50835 -2.72824 4.86348e-05 1
8.79714 -4.95694 -2.70564 0.000720765 4
10.007 -5.63865 -2.65181 8.02854e-05 4
11.3777 -6.41103 -2.53854 0.00012478 4
15.0255 -8.46644 -2.7316 4.86355e-05 1
8.85167 -4.94703 -2.71708 0.000774883 4
10.0148 -5.59707 -2.64868 6.71483e-05 4
11.4149 -6.37955 -2.54183 9.38008e-05 4
15.0556 -8.41432 -2.73172 4.86362e-05 1
8.89928 -4.93295 -2.72639 0.000382024 1
10.045 -5.56801 -2.65151 6.86086e-05 4
11.428 -6.33467 -2.53983 9.29412e-05 4
15.0789 -8.35838 -2.73063 4.86369e-05 1
8.92983 -4.90922 -2.73048 0.000382027 1
10.057 -5.52886 -2.64957 0.000223345 4
11.46 -6.30018 -2.54203 9.98268e-05 4
15.0928 -8.29732 -2.72788 4.86376e-05 1
8.94497 -4.87696 -2.72989 0.00038203 1
10.0756 -5.49337 -2.6494 0.000208749 4
11.4792 -6.25868 -2.54144 0.00011704 4
15.1316 -8.25003 -2.72968 4.86383e-05 1
8.96802 -4.84899 -2.73174 0.000382033 1
10.1127 -5.4679 -2.65412 0.000113864 4
11.4902 -6.21274 -2.53905 8.26171e-05 4
15.1576 -8.1957 -2.7292 4.86389e-05 1
8.9744 -4.81203 -2.72855 0.000382035 1
10.1271 -5.43012 -2.65293 0.000272984 4
11.5013 -6.16695 -2.53673 9.81088e-05 4
15.192 -8.14587 -2.73024 4.86396e-05 1
8.98737 -4.77867 -2.72741 0.000382038 1
10.1444 -5.39386 -2.65249 0.00016642 4
11.5249 -6.12788 -2.53719 0.000121346 4
15.2239 -8.09468 -2.73088 4.86403e-05 1
9.00418 -4.74736 -2.72746 0.000382041 1
9.73202 -5.13111 -2.53998 0.00022367 4
11.5537 -6.09158 -2.53885 0.000130815 4
15.2548 -8.04293 -2.73137 4.8641e-05 1
9.03434 -4.72304 -2.73159 0.000382044 1
9.75641 -5.10053 -2.54168 0.000198819 4
11.5676 -6.0474 -2.53724 8.95056e-05 4
15.2718 -7.98393 -2.72942 4.86417e-05 1
9.04522 -4.6886 -2.72991 0.000382047 1
9.76938 -5.06396 -2.54044 0.00022036 4
11.6007 -6.01321 -2.53988 0.000128235 4
15.3049 -7.93328 -2.73035 4.86424e-05 1
9.06662 -4.65961 -2.73145 0.00038205 1
9.77397 -5.02314 -2.53706 0.00023196 4
11.6218 -5.97281 -2.53993 0.000110163 4
9.06531 -4.61901 -2.72618 0.000382052 1
9.79263 -4.98959 -2.53736 0.000558074 4
11.6347 -5.92819 -2.53821 0.000114468 4
14.2824 -7.27726 -2.53883 5.03254e-05 4
9.0809 -4.58709 -2.72603 0.000382055 1
9.88735 -4.99446 -2.55737 0.000516954 4
11.6589 -5.88936 -2.53899 0.000112748 4
14.3128 -7.22993 -2.53973 4.6946e-05 4
9.08773 -4.5508 -2.7233 0.000211077 4
9.95417 -4.98468 -2.57014 0.000361477 4
11.7154 -5.86666 -2.54682 0.000307579 4
14.3493 -7.18561 -2.54174 5.70872e-05 4
9.06505 -4.49993 -2.71178 0.000167778 4
10.0395 -4.98367 -2.58768 0.000404753 4
11.7988 -5.85696 -2.56048 0.000242468 4
14.364 -7.13036 -2.53992 4.39427e-05 4
9.04444 -4.45042 -2.70095 0.000243548 4
10.091 -4.96539 -2.59645 0.000388814 4
11.9032 -5.8571 -2.57869 0.000241325 4
14.4 -7.08568 -2.5419 4.46945e-05 4
9.03993 -4.40907 -2.69499 0.00022221 4
10.1859 -4.96799 -2.61639 0.000402784 4
11.9798 -5.84292 -2.59084 0.000208063 4
14.4157 -7.03102 -2.54032 4.2066e-05 4
9.02484 -4.36278 -2.68594 0.00024956 4
10.2486 -4.95436 -2.62804 0.00018232 4
12.0718 -5.83573 -2.60632 0.000256326 4
14.4364 -6.97885 -2.53966 5.52124e-05 4
9.00132 -4.31271 -2.67444 0.000192783 4
10.3339 -4.95117 -2.64547 0.000368585 4
12.1598 -5.82602 -2.62092 0.000158809 4
14.4555 -6.92592 -2.53875 4.73256e-05 4
8.99458 -4.27094 -2.66799 0.000243918 4
10.419 -4.94729 -2.66281 0.000445258 4
12.2349 -5.80956 -2.63271 0.000237571 4
14.4884 -6.87963 -2.5403 5.07068e-05 4
8.99677 -4.23356 -2.66424 0.000291158 4
10.489 -4.93574 -2.67628 0.000425696 4
12.3275 -5.80089 -2.64827 0.000276103 4
14.4976 -6.82207 -2.53772 4.99563e-05 4
8.97981 -4.18735 -2.65487 0.00017406 4
10.5891 -4.9378 -2.69742 0.000371861 4
12.362 -5.76449 -2.65133 9.56348e-05 4
14.5222 -6.77182 -2.53787 4.92057e-05 4
8.97053 -4.14497 -2.64784 6.79025e-05 4
10.6597 -4.92546 -2.711 0.000439349 4
12.3835 -5.72198 -2.65165 5.57248e-05 4
14.5616 -6.7284 -2.54063 4.65771e-05 4
9.01008 -4.12514 -2.65525 0.000455202 4
10.7552 -4.92409 -2.73089 0.000221031 1
12.4011 -5.67768 -2.65116 8.73534e-05 4
14.5707 -6.67098 -2.53814 5.18365e-05 4
9.01856 -4.091 -2.65352 0.000490414 4
10.7672 -4.88423 -2.72961 0.000221033 1
12.4165 -5.63238 -2.65024 0.000186005 4
9.03418 -4.06012 -2.65393 0.000392335 4
10.7704 -4.84039 -2.7261 0.000221035 1
12.4466 -5.59371 -2.65247 0.000109194 4
14.6266 -6.57345 -2.53982 5.33406e-05 4
9.03922 -4.02452 -2.65127 0.000440122 4
10.7948 -4.80616 -2.72803 0.000221037 1
12.4527 -5.54428 -2.64962 0.000148355 4
14.6353 -6.51607 -2.53738 4.13208e-05 4
9.05453 -3.99353 -2.65165 0.000465275 4
10.8255 -4.7746 -2.73155 0.000221039 1
12.4814 -5.50496 -2.65164 8.88635e-05 4
14.6609 -6.46621 -2.53787 5.18396e-05 4
9.06239 -3.95926 -2.64989 0.000432584 4
10.826 -4.72977 -2.7275 0.000221041 1
12.4935 -5.45827 -2.65014 0.000183754 4
14.6916 -6.41859 -2.5393 5.2216e-05 4
9.08351 -3.93079 -2.65204 0.000535704 4
10.8438 -4.69252 -2.72784 0.000221043 1
12.5281 -5.4214 -2.65346 6.25072e-05 4
14.7167 -6.36851 -2.53979 5.14654e-05 4
9.1039 -3.90194 -2.654 0.000120723 4
10.8712 -4.6594 -2.73063 0.000221045 1
12.5365 -5.37316 -2.65125 9.941e-05 4
14.7476 -6.32083 -2.54129 5.48471e-05 4
9.11954 -3.87102 -2.6546 0.00015342 4
10.8781 -4.61748 -2.72829 0.000221047 1
12.0148 -5.09996 -2.53712 0.000108467 4
14.7653 -6.2675 -2.54055 4.69588e-05 4
9.11685 -3.83237 -2.64991 0.000311872 4
10.8832 -4.57489 -2.72556 0.000221049 1
12.0392 -5.06081 -2.53854 9.89988e-05 4
14.7829 -6.21418 -2.53984 4.58325e-05 4
9.13413 -3.80217 -2.65106 0.000264088 4
10.8838 -4.53051 -2.72173 0.000139388 4
12.0653 -5.0223 -2.54033 9.03913e-05 4
14.8149 -6.16684 -2.54162 4.58332e-05 4
9.15534 -3.77356 -2.65337 8.29996e-05 4
10.8588 -4.47568 -2.71155 0.000125897 4
12.0862 -4.98157 -2.54105 6.80094e-05 4
14.8162 -6.10678 -2.53816 5.37233e-05 4
9.16375 -3.73966 -2.65201 8.80305e-05 4
10.8365 -4.42231 -2.70212 0.000120352 4
12.1687 -4.96595 -2.55473 0.000135896 4
14.8435 -6.05754 -2.53922 4.50832e-05 4
9.17728 -3.70787 -2.65217 0.000158456 4
10.8128 -4.36867 -2.69239 0.00012881 4
12.2628 -4.9545 -2.57085 0.000251328 4
14.8604 -6.00401 -2.53851 5.07193e-05 4
9.19238 -3.67669 -2.65281 0.000249005 4
10.7813 -4.3122 -2.68076 0.000146143 4
12.3707 -4.94792 -2.58983 0.000259834 4
14.9009 -5.95996 -2.54186 5.37257e-05 4
9.20158 -3.64316 -2.65177 9.05479e-05 4
10.757 -4.25901 -2.67102 0.000132733 4
12.4982 -4.94837 -2.61288 0.00022665 4
14.9091 -5.90292 -2.53971 4.09524e-05 4
9.20172 -3.60612 -2.64817 0.000213795 4
10.7166 -4.19979 -2.65733 0.000114916 4
12.5906 -4.93422 -2.6286 0.000241428 4
14.9259 -5.84939 -2.53908 4.6213e-05 4
9.2141 -3.57391 -2.64813 5.28204e-05 4
10.7202 -4.15809 -2.65461 0.000138726 4
12.7073 -4.92883 -2.64934 0.000222967 4
15.0418 -5.83435 -2.55533 0.000101316 4
9.24431 -3.54856 -2.65323 9.055e-05 4
10.7236 -4.11639 -2.65187 0.000268693 4
12.814 -4.91882 -2.66799 0.00018666 4
15.1568 -5.81816 -2.57139 9.74822e-05 4
9.23772 -3.50908 -2.64781 0.000266621 4
10.7363 -4.07835 -2.65149 0.000302282 4
12.9468 -4.91803 -2.69206 0.000197534 4
15.2857 -5.80649 -2.5898 0.000111988 4
9.25442 -3.47851 -2.6491 5.03063e-05 4
10.7645 -4.0461 -2.65493 0.000312507 4
13.0435 -4.90275 -2.7086 0.000185577 4
15.4043 -5.79011 -2.60646 0.000124678 4
9.28179 -3.45187 -2.65347 5.2822e-05 4
10.7639 -4.00305 -2.65132 0.000293526 4
13.1483 -4.88981 -2.72679 0.000113474 1
15.5578 -5.78591 -2.62901 0.000102969 4
9.29025 -3.41815 -2.65246 5.78532e-05 4
10.7782 -3.9656 -2.65142 0.000270163 4
13.1634 -4.84319 -2.7264 0.000113475 1
15.6787 -5.76862 -2.646 0.000106197 4
9.28763 -3.38042 -2.64833 0.000193684 4
10.784 -3.92507 -2.64948 0.000278928 4
13.1974 -4.80347 -2.72996 0.000113476 1
15.7225 -5.72251 -2.65001 4.71762e-05 4
9.31455 -3.35345 -2.65265 5.53387e-05 4
10.8021 -3.88898 -2.65055 3.65092e-05 4
13.2137 -4.75722 -2.72987 0.000113478 1
15.7557 -5.6724 -2.65226 6.57224e-05 4
9.3262 -3.32091 -2.65265 9.81012e-05 4
10.8334 -3.85759 -2.65492 7.30192e-05 4
13.2146 -4.7055 -2.72664 0.000113479 1
15.7711 -5.61582 -2.65153 4.13211e-05 4
9.32885 -3.28521 -2.65013 9.8102e-05 4
10.8288 -3.81343 -2.65052 9.20051e-05 4
13.2455 -4.66448 -2.72965 0.00011348 1
15.8026 -5.56498 -2.65355 7.28825e-05 4
9.33775 -3.25175 -2.64941 0.000203752 4
10.8346 -3.77301 -2.64869 0.000113912 4
13.264 -4.61902 -2.73012 0.000113482 1
15.8191 -5.50879 -2.65307 4.68538e-05 4
9.35832 -3.22233 -2.65204 9.05571e-05 4
10.8679 -3.74213 -2.65364 7.30213e-05 4
13.2715 -4.56973 -2.72835 0.000113483 1
15.8328 -5.45166 -2.65216 4.03469e-05 4
9.37508 -3.19154 -2.65362 0.000125775 4
10.8744 -3.70196 -2.65205 5.54967e-05 4
13.2496 -4.51053 -2.7206 5.84663e-05 4
15.8434 -5.39352 -2.65076 2.92845e-05 4
9.3716 -3.15389 -2.6495 5.28258e-05 4
10.8847 -3.66312 -2.65143 7.30227e-05 4
13.2201 -4.44906 -2.71135 5.62938e-05 4
15.88 -5.34422 -2.65376 4.78321e-05 4
9.37977 -3.12023 -2.64871 0.00016351 4
10.8894 -3.62242 -2.64946 0.000106614 4
13.1564 -4.37656 -2.69514 5.30453e-05 4
15.2272 -5.06541 -2.54169 4.24654e-05 4
9.39112 -3.08765 -2.64886 9.30756e-05 4
10.9046 -3.58526 -2.65011 5.54983e-05 4
13.1096 -4.31022 -2.68244 6.43912e-05 4
15.2338 -5.00864 -2.53987 4.54726e-05 4
9.40855 -3.05702 -2.65075 7.54673e-05 4
10.9306 -3.55155 -2.65338 0.000194246 4
13.0659 -4.24538 -2.67046 7.31425e-05 4
15.2507 -4.95526 -2.53978 5.37412e-05 4
9.4266 -3.02655 -2.65284 0.000249044 4
10.9427 -3.51332 -2.65334 0.000109538 4
13.0198 -4.18019 -2.65803 6.89246e-05 4
15.3832 -4.93899 -2.55895 0.000107565 4
9.43363 -2.99252 -2.65187 0.000161 4
10.944 -3.47164 -2.6507 0.00011246 4
15.5429 -4.93051 -2.58265 8.94475e-05 4
9.43528 -2.95684 -2.64941 0.00031697 4
10.9687 -3.43737 -2.65375 6.42637e-05 4
13.023 -4.08115 -2.6528 0.000155946 4
15.6931 -4.91793 -2.60474 0.000102428 4
9.4481 -2.92468 -2.65013 0.000113205 4
10.9833 -3.39991 -2.65441 6.57248e-05 4
13.0449 -4.03808 -2.65438 0.000140881 4
15.846 -4.90517 -2.62726 3.30413e-05 4
9.45603 -2.891 -2.64951 0.000158488 4
10.973 -3.35478 -2.64907 8.90946e-05 4
13.0356 -3.9854 -2.64965 0.000155197 4
16.0256 -4.89952 -2.65418 8.89729e-05 4
9.46285 -2.857 -2.64861 0.000155973 4
10.9824 -3.31578 -2.64852 8.17925e-05 4
13.0724 -3.9468 -2.65431 0.000128076 4
16.1943 -4.88935 -2.67928 9.46528e-05 4
9.48807 -2.82852 -2.65289 0.000322012 4
10.9963 -3.27814 -2.6491 2.92119e-05 4
13.0839 -3.90048 -2.65386 0.000131092 4
16.3507 -4.87436 -2.70232 7.93585e-05 4
9.49383 -2.79419 -2.65175 0.000228932 4
11.0159 -3.24215 -2.65107 8.32547e-05 4
13.0942 -3.85382 -2.6532 6.70534e-05 4
11.1873 -3.2926 -1.84704 0.000157286 6
9.50581 -2.7617 -2.65239 0.000125788 4
11.0174 -3.20085 -2.64873 0.000122692 4
13.1074 -3.80806 -2.65318 4.67119e-05 4
11.1715 -3.24563 -1.84256 0.000176192 6
19.9294 -5.79003 -2.5482 4.23384e-05 4
9.5101 -2.72698 -2.65092 0.000221389 4
11.0304 -3.16291 -2.64918 8.17957e-05 4
13.1152 -3.76072 -2.65207 2.93837e-05 4
11.1468 -3.19629 -1.83663 0.000171366 6
20.1328 -5.77299 -2.57162 4.52504e-05 4
9.52131 -2.69426 -2.6514 0.000133338 4
11.0522 -3.12745 -2.65179 5.40441e-05 4
13.1402 -3.71829 -2.65448 3.08909e-05 4
11.1489 -3.15481 -1.83514 0.000214089 6
11.3736 -3.2184 -1.45134 4.57813e-05 6
9.51728 -2.65727 -2.64768 0.000181139 4
11.1467 -3.1122 -1.83298 0.00021496 6
11.4703 -3.20256 -1.46224 7.6092e-05 6
9.55066 -2.63069 -2.6544 0.000125792 4
11.0662 -3.04814 -2.64998 5.84272e-05 4
13.165 -3.62624 -2.65432 6.10298e-05 4
11.1337 -3.06674 -1.82908 0.000215822 6
11.5946 -3.1937 -1.47666 7.22346e-05 6
9.54823 -2.5942 -2.65119 0.000133341 4
11.0756 -3.00917 -2.64969 9.64059e-05 4
12.0774 -3.28136 -2.43272 0.00034217 6
11.131 -3.02423 -1.82689 0.000205844 6
11.8772 -3.22697 -1.5112 6.78278e-05 6
9.5698 -2.56422 -2.65468 3.77383e-05 4
11.089 -2.97129 -2.65041 8.61819e-05 4
12.1002 -3.24224 -2.43501 0.000343618 6
11.1443 -2.98612 -1.82736 0.000206648 6
12.0357 -3.22495 -1.52993 6.68212e-05 6
9.56882 -2.52819 -2.65194 0.000168566 4
12.0765 -3.19075 -2.42799 0.000337385 6
11.1294 -2.94052 -1.82321 0.00020744 6
12.1881 -3.22022 -1.54786 6.09174e-05 6
9.56891 -2.49252 -2.64954 6.28982e-05 4
11.1278 -2.89858 -2.65478 4.82044e-05 4
12.0802 -3.14665 -2.4265 0.000338775 6
11.1344 -2.90031 -1.82237 0.000208229 6
12.3411 -3.21463 -1.56586 5.82465e-05 6
9.57703 -2.45896 -2.64939 0.000155989 4
11.1159 -2.85409 -2.64956 4.96656e-05 4
12.094 -3.1052 -2.42708 0.000353569 6
11.1229 -2.85588 -1.81884 0.000208922 6
12.5207 -3.21478 -1.58722 5.55786e-05 6
9.60017 -2.42922 -2.65343 9.30909e-05 4
11.1369 -2.81806 -2.65218 6.42738e-05 4
12.1571 -3.07621 -2.43758 9.63083e-05 6
11.13 -2.81631 -1.81837 0.000220803 6
12.6947 -3.21225 -1.60784 5.27531e-05 6
9.61437 -2.39713 -2.65503 9.81236e-05 4
12.6025 -3.14216 -2.52468 0.000640293 6
11.1363 -2.7766 -1.81782 0.000221609 6
12.8151 -3.19516 -1.62167 0.000190325 6
9.59682 -2.3572 -2.64789 9.30924e-05 4
11.1446 -2.73738 -2.64941 6.71967e-05 4
11.8591 -2.91288 -2.3737 0.000187191 6
11.1192 -2.73113 -1.81345 0.000222406 6
12.8172 -3.1482 -1.62053 0.000191041 6
9.61044 -2.32501 -2.6494 0.000118253 4
11.1611 -2.70015 -2.65107 7.15798e-05 4
11.8608 -2.86944 -2.37202 0.000161033 6
11.1244 -2.69127 -1.81276 0.000223195 6
12.8175 -3.10088 -1.61919 0.000191749 6
12.8489 -3.10849 -1.15657 8.44687e-05 6
9.62739 -2.29357 -2.65185 0.000163543 4
11.1669 -2.66032 -2.65022 6.57372e-05 4
11.8754 -2.82912 -2.37295 0.000188545 6
11.1309 -2.65176 -1.8123 0.000223878 6
12.8252 -3.05541 -1.61881 0.000192449 6
12.846 -3.06035 -1.15533 0.000144592 6
9.64113 -2.26131 -2.65344 0.000100643 4
11.1751 -2.6211 -2.65 0.000115406 4
11.8707 -2.78424 -2.37004 4.73486e-05 6
11.1338 -2.61142 -1.81128 0.000225298 6
12.819 -3.00667 -1.61669 0.000193142 6
12.8373 -3.01097 -1.1536 0.000382434 6
9.64805 -2.22743 -2.65319 0.000140901 4
11.1908 -2.58361 -2.65156 0.000108103 4
12.1929 -2.81495 -2.4324 4.33705e-05 6
11.1139 -2.56585 -1.80657 0.000225755 6
12.8128 -2.95808 -1.6146 0.000193827 6
12.8457 -2.96566 -1.15341 0.000120861 6
9.6584 -2.19434 -2.65391 8.55479e-05 4
11.212 -2.5473 -2.65446 6.42783e-05 4
12.3674 -2.80981 -2.46525 4.68132e-05 6
11.1329 -2.52933 -1.80821 0.000226519 6
12.8348 -2.916 -1.61608 0.000194504 6
12.8301 -2.91493 -1.15109 0.000121288 6
9.64874 -2.15675 -2.64917 0.000130839 4
11.219 -2.50774 -2.65402 8.47313e-05 4
11.1248 -2.48669 -1.80548 0.000227263 6
12.8119 -2.86381 -1.61193 0.000195145 6
12.8302 -2.86789 -1.1502 0.000122134 6
9.66187 -2.1243 -2.65073 0.000108195 4
11.2039 -2.46335 -2.64842 0.000127098 4
13.3172 -2.92798 -2.65043 0.000113039 4
11.1233 -2.44561 -1.80383 0.000227998 6
12.8294 -2.82072 -1.61287 0.000195808 6
12.8493 -2.82511 -1.15102 0.000122543 6
9.67306 -2.09139 -2.65178 0.000113228 4
11.2378 -2.42969 -2.65439 7.88894e-05 4
13.341 -2.88442 -2.65314 6.63171e-05 4
11.1129 -2.40269 -1.80078 0.000228724 6
12.8158 -2.77087 -1.60994 0.000196463 6
12.8467 -2.77755 -1.14991 0.000122993 6
9.68348 -2.05829 -2.65265 0.000118261 4
11.2313 -2.38728 -2.65087 4.23669e-05 4
13.3363 -2.83473 -2.65024 4.74776e-05 4
11.1164 -2.36286 -1.8 0.00022944 6
12.811 -2.72306 -1.60814 0.00019711 6
12.8337 -2.72789 -1.14789 0.000123387 6
9.69136 -2.02463 -2.65285 8.05191e-05 4
11.2375 -2.34764 -2.65039 5.55159e-05 4
13.341 -2.78709 -2.64922 3.61739e-05 4
11.1181 -2.3227 -1.79896 0.000230147 6
12.8093 -2.67601 -1.60674 0.000197748 6
12.8358 -2.68154 -1.14723 0.000123776 6
9.6987 -1.99086 -2.65294 7.2971e-05 4
11.2433 -2.30793 -2.64985 3.36021e-05 4
13.3504 -2.74045 -2.64917 3.6928e-05 4
11.1096 -2.28047 -1.79627 0.000230845 6
12.8094 -2.6294 -1.60559 0.000198413 6
12.8317 -2.63398 -1.14604 0.00012416 6
9.71093 -1.95807 -2.6544 5.78741e-05 4
11.2704 -2.27251 -2.65434 5.4056e-05 4
12.4202 -2.50435 -2.46283 0.000187097 6
11.1192 -2.24203 -1.79656 0.000231781 6
12.8081 -2.58256 -1.60429 0.000199036 6
12.8354 -2.58806 -1.14555 0.000124727 6
9.70687 -1.92201 -2.65144 8.30374e-05 4
11.256 -2.22874 -2.6491 6.57445e-05 4
12.381 -2.4515 -2.45334 5.10122e-05 6
11.1095 -2.19974 -1.79374 0.000231338 6
12.8062 -2.53569 -1.60293 0.000199648 6
12.8331 -2.54103 -1.14455 0.000125125 6
9.713 -1.88802 -2.6513 9.31033e-05 4
11.2725 -2.19115 -2.65117 7.01282e-05 4
12.3597 -2.40248 -2.44744 0.00014236 6
11.1278 -2.16303 -1.79546 0.000232636 6
12.8126 -2.49053 -1.60264 0.000200251 6
12.8243 -2.4928 -1.14298 0.000125476 6
9.72283 -1.85473 -2.6522 0.000221437 4
11.2802 -2.15182 -2.65121 4.38306e-05 4
12.3642 -2.35859 -2.44669 0.000135031 6
11.1068 -2.11875 -1.79087 0.000233293 6
12.8029 -2.44229 -1.60035 0.000200846 6
12.8293 -2.44732 -1.14266 0.000125821 6
9.7376 -1.82234 -2.65448 0.000216406 4
11.2824 -2.11144 -2.64997 5.99024e-05 4
12.3695 -2.31488 -2.44612 8.28555e-05 6
11.1312 -2.08314 -1.79361 0.00022224 6
12.8185 -2.39891 -1.60123 0.000201432 6
12.851 -2.40501 -1.14384 0.000126162 6
9.72955 -1.78571 -2.65057 0.0001384 4
11.3007 -2.07407 -2.65256 7.74356e-05 4
12.3969 -2.27526 -2.44997 8.2509e-05 6
11.1157 -2.04011 -1.78995 0.000222848 6
12.8129 -2.35161 -1.59951 0.000202049 6
12.8427 -2.35707 -1.14236 0.000125937 6
9.74494 -1.75339 -2.65308 0.000173631 4
11.3104 -2.03506 -2.65314 8.62027e-05 4
12.4268 -2.23593 -2.45432 0.000178563 6
11.1265 -2.00198 -1.79056 0.000223447 6
12.8088 -2.30467 -1.59798 0.000202615 6
12.8416 -2.31057 -1.14154 0.000126306 6
9.75602 -1.72025 -2.65444 9.31073e-05 4
11.3034 -1.99309 -2.64985 8.32814e-05 4
13.4299 -2.36805 -2.65078 3.31631e-05 4
11.1161 -1.96006 -1.78777 0.000224036 6
12.8233 -2.2611 -1.5988 0.000203171 6
12.825 -2.2614 -1.13935 0.00012667 6
11.32 -1.95531 -2.65213 6.2827e-05 4
13.4419 -2.32182 -2.65154 5.35139e-05 4
11.1164 -1.92013 -1.78673 0.000224662 6
12.8054 -2.21188 -1.59559 0.000203719 6
12.8215 -2.21466 -1.13835 0.000127029 6
9.76325 -1.65133 -2.65321 9.81418e-05 4
11.3132 -1.91348 -2.64895 6.13665e-05 4
13.4376 -2.27281 -2.64911 8.14025e-05 4
11.1302 -1.88253 -1.78788 0.000225206 6
12.8026 -2.16539 -1.59428 0.000204257 6
12.8188 -2.16814 -1.13743 0.000127454 6
9.76962 -1.61735 -2.65339 5.7879e-05 4
11.3381 -1.87701 -2.65323 5.26004e-05 4
11.8481 -1.96144 -2.33438 0.000190793 6
11.127 -1.84206 -1.78633 0.000225767 6
12.8132 -2.12122 -1.59468 0.000204759 6
12.8462 -2.12667 -1.13919 0.000127968 6
9.76144 -1.58101 -2.64966 0.000186221 4
11.3312 -1.83526 -2.65011 4.52953e-05 4
11.8611 -1.92108 -2.33561 0.000229524 6
11.1143 -1.80013 -1.78327 0.000238229 6
12.8051 -2.07397 -1.59276 0.000205281 6
12.8397 -2.07957 -1.13796 0.000128293 6
9.76014 -1.54586 -2.64782 0.000234037 4
11.3519 -1.79797 -2.65346 9.78972e-05 4
11.8617 -1.87871 -2.33442 0.000191738 6
11.1063 -1.75907 -1.78099 0.000238798 6
12.8187 -2.03028 -1.59356 0.000205807 6
12.8262 -2.03147 -1.13613 0.000128613 6
9.7799 -1.51401 -2.65173 0.000161059 4
11.3557 -1.75796 -2.6529 9.05924e-05 4
11.8544 -1.83516 -2.33171 0.000201808 6
11.1052 -1.71918 -1.77985 0.000239357 6
12.8039 -1.98214 -1.59084 0.000206308 6
12.8168 -1.98414 -1.13468 0.000128927 6
9.7958 -1.48148 -2.65463 0.000103179 4
11.3672 -1.71912 -2.65416 2.92237e-05 4
12.2775 -1.8568 -2.41365 3.7684e-05 6
11.1176 -1.68138 -1.78088 0.000239906 6
12.8021 -1.93613 -1.58977 0.000206799 6
12.838 -1.94156 -1.13595 0.000129235 6
9.77407 -1.44331 -2.64735 5.28483e-05 4
11.121 -1.64221 -1.7805 0.000228422 6
12.8019 -1.89043 -1.58893 0.00020726 6
12.8139 -1.89219 -1.13323 0.000129603 6
9.78337 -1.40981 -2.64852 0.00014093 4
11.3654 -1.63779 -2.65102 0.000143199 4
13.5077 -1.94649 -2.65275 5.72884e-05 4
11.1144 -1.60161 -1.77852 0.000212212 6
12.8123 -1.84629 -1.58941 0.000207733 6
12.8358 -1.84966 -1.13458 0.000130155 6
9.78564 -1.37528 -2.64782 9.5632e-05 4
11.3599 -1.59653 -2.64842 6.13716e-05 4
13.5123 -1.89903 -2.65233 4.29668e-05 4
11.1233 -1.56327 -1.77907 0.00108292 6
12.8184 -1.8015 -1.58936 0.000208181 6
12.8276 -1.8028 -1.1333 0.000130407 6
9.79306 -1.34148 -2.64855 0.000163582 4
11.3751 -1.55819 -2.65066 4.67598e-05 4
12.049 -1.65051 -2.36397 0.000323314 6
11.1281 -1.52436 -1.77897 0.000854861 6
12.7988 -1.75322 -1.58617 0.000208637 6
12.8228 -1.7565 -1.13232 0.000417491 6
9.80653 -1.30847 -2.65094 0.000151 4
11.378 -1.51815 -2.65009 4.5299e-05 4
11.7972 -1.57408 -2.31346 0.000111585 6
11.1823 -1.49204 -1.7868 0.000846854 6
11.5695 -1.54371 -1.43315 3.65676e-05 6
12.8347 -1.71251 -1.13284 0.000418321 6
9.81736 -1.27505 -2.65265 0.000158552 4
11.8286 -1.53627 -2.31857 0.000164496 6
11.2691 -1.46361 -1.79985 0.000122675 6
11.6862 -1.51778 -1.44694 4.50501e-05 6
12.8368 -1.66721 -1.13251 0.000154308 6
9.80306 -1.23841 -2.6476 0.000266772 4
11.4012 -1.44031 -2.6531 0.000103751 4
12.0567 -1.52312 -2.36222 0.000443793 6
11.3993 -1.44007 -1.81982 5.6109e-05 6
11.8632 -1.49867 -1.4682 3.79863e-05 6
12.8584 -1.6244 -1.13391 0.000140979 6
9.82915 -1.20687 -2.65349 0.000156038 4
11.3868 -1.39812 -2.64859 0.000147592 4
12.0542 -1.48007 -2.3607 0.000453929 6
11.657 -1.43129 -1.86015 3.01185e-05 6
12.0238 -1.47633 -1.48742 3.75034e-05 6
9.81707 -1.17062 -2.64911 0.000163589 4
11.3982 -1.35915 -2.65012 3.36103e-05 4
12.0868 -1.44126 -2.36608 0.000291547 6
11.898 -1.41875 -1.8978 0.000340149 6
11.4041 -1.3195 -2.65041 8.768e-05 4
12.4964 -1.44589 -2.44526 0.000581384 6
12.371 -1.43138 -1.97245 0.000155576 6
11.4125 -1.28012 -2.65131 0.000118369 4
12.7059 -1.4252 -2.48526 0.000264015 6
13.0023 -1.45844 -2.07227 0.000102309 6
13.9048 -1.55967 -1.22414 7.79759e-05 6
9.84596 -1.06962 -2.65374 0.000183728 4
11.4108 -1.23961 -2.64989 4.8225e-05 4
13.5721 -1.47441 -2.65368 3.99562e-05 4
12.9238 -1.40397 -2.05897 0.000150181 6
13.2244 -1.43664 -1.63331 7.67598e-05 6
9.85308 -1.0356 -2.65467 0.000133393 4
11.4133 -1.19959 -2.64949 0.000184134 4
14.8308 -1.55878 -1.30468 3.08729e-05 6
9.83291 -0.998792 -2.64828 0.000181215 4
11.4178 -1.15978 -2.64957 6.86855e-05 4
9.83542 -0.964372 -2.64803 0.000176182 4
11.4349 -1.1212 -2.65261 4.38423e-05 4
13.5599 -1.32956 -2.64842 5.42822e-05 4
14.8918 -1.46015 -1.30911 3.68064e-05 6
9.84952 -0.931054 -2.65094 3.0203e-05 4
11.4414 -1.08153 -2.65324 8.33012e-05 4
15.388 -1.45459 -2.44808 0.000182006 6
14.8753 -1.40613 -1.30722 6.23403e-05 6
9.86353 -0.897651 -2.65385 8.55758e-05 4
11.4216 -1.03945 -2.64778 0.000137375 4
13.5788 -1.23577 -2.65037 5.88073e-05 4
15.4039 -1.40186 -2.44982 0.000167016 6
15.2387 -1.38683 -1.87881 0.000427433 6
14.8209 -1.3488 -1.30202 6.89103e-05 6
11.4303 -1.00002 -2.64897 4.09208e-05 4
15.8447 -1.38623 -2.51913 0.000568566 6
15.7708 -1.37977 -1.94381 3.48888e-05 6
9.8606 -0.82802 -2.65144 5.78905e-05 4
11.4456 -0.96112 -2.65174 7.4535e-05 4
16.1783 -1.35854 -1.99344 8.5832e-05 6
9.87547 -0.794563 -2.65467 0.000208911 4
11.4331 -0.919886 -2.64807 0.000146149 4
13.5827 -1.09284 -2.64874 2.94048e-05 4
9.86097 -0.758762 -2.65005 0.000259253 4
11.4594 -0.881757 -2.65344 4.3845e-05 4
9.86412 -0.724377 -2.6502 0.000213949 4
11.4469 -0.840611 -2.64985 4.96916e-05 4
13.5974 -0.998529 -2.65018 4.97632e-05 4
16.7019 -1.22651 -2.65245 2.93193e-05 4
9.85713 -0.689279 -2.64766 8.05462e-05 4
11.4475 -0.800486 -2.64931 7.45381e-05 4
13.6073 -0.951519 -2.65146 6.71058e-05 4
9.87282 -0.655752 -2.65124 0.000110752 4
11.4435 -0.76008 -2.64777 0.000178309 4
11.4466 -0.720159 -2.64788 7.74628e-05 4
13.601 -0.855701 -2.64899 4.2225e-05 4
9.8651 -0.586095 -2.64801 0.000115788 4
11.4695 -0.681413 -2.65261 8.47715e-05 4
16.7091 -0.992703 -2.65113 3.4534e-05 4
9.87687 -0.552205 -2.65063 4.53088e-05 4
11.4717 -0.641373 -2.6526 0.000105235 4
13.6032 -0.760541 -2.64833 5.12745e-05 4
9.86624 -0.51707 -2.64728 0.00023158 4
11.4629 -0.600746 -2.65005 0.00018124 4
13.6288 -0.714256 -2.6528 3.61943e-05 4
9.88101 -0.483264 -2.65077 0.00042289 4
13.6264 -0.666443 -2.65187 3.54407e-05 4
16.7318 -0.818325 -2.65323 6.09262e-05 4
9.8712 -0.44825 -2.64771 5.28617e-05 4
11.4627 -0.520519 -2.6491 0.00016078 4
13.6234 -0.618637 -2.65085 3.77033e-05 4
9.89759 -0.414833 -2.65438 0.000191311 4
11.4755 -0.480968 -2.65166 7.89294e-05 4
9.88019 -0.379559 -2.64934 5.03453e-05 4
11.4706 -0.440658 -2.65016 9.20853e-05 4
9.87715 -0.344918 -2.64819 0.000198866 4
11.4735 -0.400664 -2.65048 2.92337e-05 4
13.6304 -0.475984 -2.6511 6.33441e-05 4
11.4804 -0.360787 -2.65178 6.43149e-05 4
13.637 -0.42856 -2.65207 0.000131214 4
9.89639 -0.276433 -2.65277 6.7968e-05 4
11.4856 -0.320826 -2.6527 6.43156e-05 4
13.6224 -0.380511 -2.64896 2.86564e-05 4
9.90434 -0.242059 -2.65465 5.78992e-05 4
11.4746 -0.280435 -2.64991 6.28545e-05 4
13.6285 -0.333075 -2.6499 3.16733e-05 4
9.87821 -0.206921 -2.64744 0.000196355 4
11.4817 -0.240508 -2.65133 7.01639e-05 4
13.6394 -0.285706 -2.65181 3.84609e-05 4
9.9053 -0.172899 -2.65452 0.000120835 4
11.4793 -0.200374 -2.65062 6.43176e-05 4
13.6287 -0.237892 -2.64956 2.94117e-05 4
9.89244 -0.138135 -2.65093 5.28658e-05 4
13.6293 -0.190314 -2.64952 4.07244e-05 4
9.88734 -0.103545 -2.64945 0.000156081 4
11.4926 -0.120355 -2.65341 9.64784e-05 4
13.6404 -0.142848 -2.65157 3.09208e-05 4
9.89832 -0.069105 -2.65231 0.000118321 4
11.4718 -0.08009 -2.64853 0.000112559 4
16.7377 -0.116854 -2.65106 3.1284e-05 4
9.89059 -0.0345251 -2.65019 9.81821e-05 4
11.486 -0.0400941 -2.65176 5.11639e-05 4
16.7386 -0.0584295 -2.65115 3.48692e-05 4
9.89393 0 -2.65107 0.000138463 4
11.4917 0 -2.65306 9.94052e-05 4
13.6425 0 -2.65183 3.69556e-05 4
9.89674 0.0345442 -2.65184 7.0491e-05 4
11.4768 0.0400595 -2.64965 0.000289448 4
13.6325 0.0475838 -2.64991 2.9414e-05 4
9.90169 0.0691262 -2.65322 0.000198887 4
11.4873 0.0801955 -2.65211 0.00025729 4
9.90445 0.103721 -2.65404 0.000130914 4
11.4681 0.120096 -2.64775 0.000280682 4
13.6285 0.14272 -2.64925 4.82704e-05 4
9.88576 0.138039 -2.64914 0.000100704 4
11.4793 0.16029 -2.65046 0.000304076 4
9.90461 0.172885 -2.65434 6.29406e-05 4
11.483 0.200436 -2.65147 0.000264607 4
16.7454 0.29229 -2.65261 3.94356e-05 4
9.88063 0.206969 -2.64809 6.54588e-05 4
11.4705 0.240272 -2.64876 2.92387e-05 4
9.89059 0.24172 -2.65097 0.000206449 4
11.4692 0.280301 -2.64867 0.000163738 4
13.6212 0.332895 -2.64849 4.07303e-05 4
11.4914 0.320984 -2.65404 5.40927e-05 4
13.6202 0.380446 -2.64853 4.60108e-05 4
9.89767 0.311045 -2.65338 0.00020897 4
11.4849 0.360925 -2.65281 8.33329e-05 4
9.89364 0.345492 -2.65261 6.04257e-05 4
11.4644 0.400344 -2.64838 9.50298e-05 4
13.6334 0.476085 -2.65168 3.46976e-05 4
9.87724 0.379444 -2.64855 0.000105746 4
11.4701 0.440635 -2.65004 0.000100879 4
9.89631 0.414777 -2.65404 0.000128407 4
11.4731 0.480863 -2.6511 3.36266e-05 4
13.6175 0.570741 -2.6493 6.56253e-05 4
9.88417 0.448836 -2.65118 9.81943e-05 4
11.476 0.521121 -2.65218 0.000127198 4
9.88501 0.483457 -2.65185 0.000105749 4
11.4753 0.561234 -2.65245 5.11721e-05 4
9.87081 0.517307 -2.6485 0.000191356 4
11.4609 0.600637 -2.64958 0.000209077 4
13.6254 0.714078 -2.65215 3.09281e-05 4
9.86961 0.551797 -2.64868 0.000171215 4
11.4765 0.641636 -2.6537 0.000103808 4
13.6184 0.761386 -2.65128 4.07351e-05 4
9.8776 0.586838 -2.65136 0.000103234 4
11.454 0.680494 -2.64903 3.21663e-05 4
13.623 0.809357 -2.65272 4.90337e-05 4
9.87118 0.62104 -2.65021 9.06449e-05 4
11.4653 0.721335 -2.65221 3.21667e-05 4
13.6058 0.856 -2.64992 7.39287e-05 4
9.8654 0.655257 -2.64925 7.05022e-05 4
11.4617 0.761286 -2.65198 8.33418e-05 4
13.6182 0.904515 -2.65294 3.69648e-05 4
16.6862 1.1083 -2.64866 3.91191e-05 4
9.86532 0.689849 -2.64986 0.000156113 4
11.4524 0.800828 -2.65045 5.40996e-05 4
13.5959 0.950718 -2.64924 7.24219e-05 4
9.86645 0.724546 -2.65083 0.000193885 4
11.4412 0.840189 -2.64853 2.92434e-05 4
9.86689 0.759215 -2.65164 7.55401e-05 4
11.4626 0.881996 -2.65417 9.65041e-05 4
13.5914 1.0458 -2.6497 4.52649e-05 4
9.8577 0.793131 -2.6499 0.000113311 4
11.4381 0.920289 -2.64923 5.70258e-05 4
9.85022 0.827146 -2.64865 4.7843e-05 4
11.438 0.960472 -2.64995 5.55642e-05 4
13.5801 1.14036 -2.649 3.77217e-05 4
9.85438 0.862146 -2.65056 0.000198928 4
11.4354 1.00047 -2.65016 5.84892e-05 4
13.5791 1.18802 -2.6496 4.67756e-05 4
9.86067 0.897389 -2.65308 0.000100724 4
11.4337 1.04055 -2.65059 5.70276e-05 4
9.83861 0.93002 -2.648 0.000181304 4
11.4312 1.08057 -2.65087 0.000103821 4
13.5639 1.28217 -2.64831 8.52545e-05 4
9.8318 0.964015 -2.64706 0.000105762 4
11.427 1.12043 -2.65079 8.33498e-05 4
13.5812 1.33164 -2.65257 5.35677e-05 4
9.84391 0.999907 -2.65124 0.000173753 4
11.43 1.16101 -2.6524 5.84917e-05 4
9.84724 1.03499 -2.6531 0.000113318 4
11.4235 1.20066 -2.65185 3.802e-05 4
13.5497 1.42413 -2.6483 4.30062e-05 4
9.82776 1.06764 -2.64883 6.0437e-05 4
11.4083 1.23934 -2.64932 6.87292e-05 4
9.82922 1.10252 -2.65025 0.000110802 4
11.42 1.28095 -2.65304 3.36338e-05 4
13.5379 1.51852 -2.648 4.82889e-05 4
9.8186 1.13605 -2.64844 9.06571e-05 4
11.3983 1.31883 -2.64906 7.75049e-05 4
13.5336 1.56589 -2.64822 5.20622e-05 4
9.83448 1.17269 -2.65381 0.000269455 4
11.3884 1.35798 -2.64784 8.77423e-05 4
13.5398 1.61452 -2.65051 5.58355e-05 4
16.6175 1.98151 -2.65059 2.99991e-05 4
9.80576 1.20399 -2.64718 0.000156134 4
11.3963 1.39928 -2.6508 0.000112604 4
13.532 1.66152 -2.65011 4.60272e-05 4
9.81373 1.23976 -2.65048 6.79946e-05 4
11.3765 1.43719 -2.64736 9.21313e-05 4
13.5378 1.71021 -2.65239 3.24458e-05 4
9.80311 1.2732 -2.6488 8.05869e-05 4
9.81659 1.30981 -2.65366 0.000130955 4
11.3912 1.51991 -2.65318 4.82603e-05 4
13.5119 1.80287 -2.64972 5.96114e-05 4
9.80558 1.3432 -2.65193 0.000128438 4
11.383 1.55928 -2.65252 0.000109684 4
13.5112 1.8508 -2.65084 5.65938e-05 4
9.80997 1.3787 -2.65441 0.000297172 4
11.3739 1.59849 -2.65167 0.00011846 4
13.5083 1.89847 -2.65156 2.94292e-05 4
9.79187 1.41103 -2.65083 0.000193919 4
11.3714 1.63864 -2.65241 9.79863e-05 4
13.5032 1.94584 -2.65186 3.2448e-05 4
9.79518 1.44643 -2.65307 0.000173773 4
11.3488 1.67584 -2.64848 0.0001404 4
9.77702 1.47863 -2.64953 0.000324883 4
11.3664 1.719 -2.65397 8.62882e-05 4
13.4805 2.03873 -2.65014 4.82959e-05 4
9.77887 1.51385 -2.65145 0.000367701 4
11.3527 1.75749 -2.6522 9.65269e-05 4
9.77287 1.54787 -2.65127 7.30371e-05 4
11.3373 1.79565 -2.65005 4.53389e-05 4
9.75268 1.57959 -2.64728 0.000108297 4
11.3357 1.83599 -2.65116 6.58152e-05 4
13.4749 2.18246 -2.65339 6.79189e-05 4
16.5064 2.67345 -2.64842 3.78327e-05 4
9.76151 1.61601 -2.65119 6.04456e-05 4
11.3158 1.87331 -2.64801 9.50674e-05 4
13.4591 2.22813 -2.65178 5.20719e-05 4
9.75392 1.64975 -2.65068 4.78532e-05 4
11.3209 1.91479 -2.65076 3.2177e-05 4
13.434 2.27219 -2.64839 5.50912e-05 4
9.7376 1.68198 -2.64782 8.56328e-05 4
11.311 1.95374 -2.65001 0.000119934 4
16.4775 2.84616 -2.64843 3.26161e-05 4
9.74002 1.71743 -2.65009 0.000130969 4
11.3002 1.99254 -2.64911 7.45937e-05 4
13.439 2.36966 -2.65258 5.05645e-05 4
9.72624 1.75003 -2.64799 0.000120895 4
11.3083 2.03469 -2.65265 4.68044e-05 4
9.72965 1.78572 -2.6506 4.78549e-05 4
11.2917 2.07241 -2.65043 3.51037e-05 4
13.4067 2.46059 -2.64953 6.41507e-05 4
9.7148 1.81807 -2.64826 0.000357655 4
11.2799 2.11098 -2.64939 3.36414e-05 4
9.70654 1.85162 -2.64776 7.3043e-05 4
11.2648 2.14888 -2.64759 8.62984e-05 4
9.71926 1.88923 -2.65301 6.54874e-05 4
13.3757 2.59998 -2.64864 3.39635e-05 4
9.70149 1.92095 -2.64998 8.31194e-05 4
11.2591 2.22935 -2.64983 3.80306e-05 4
13.3792 2.64916 -2.65115 3.6983e-05 4
9.68966 1.95378 -2.64859 0.000138534 4
11.2551 2.26942 -2.65074 7.89875e-05 4
13.3608 2.69401 -2.64935 4.60406e-05 4
9.68436 1.98791 -2.64902 0.000156166 4
11.248 2.30887 -2.65094 7.31373e-05 4
9.68988 2.02432 -2.65245 0.0001738 4
11.245 2.34921 -2.65216 8.19147e-05 4
13.3352 2.78587 -2.64806 3.8494e-05 4
9.67307 2.05607 -2.64979 0.000201509 4
11.2254 2.38604 -2.64949 7.02133e-05 4
13.3291 2.83318 -2.64879 3.01918e-05 4
9.66127 2.08884 -2.64854 0.000118387 4
11.2215 2.42618 -2.65056 9.80072e-05 4
13.3378 2.88373 -2.65251 5.81199e-05 4
11.217 2.46621 -2.6515 0.000136041 4
13.315 2.92749 -2.64999 2.94378e-05 4
9.66571 2.16054 -2.65383 9.57192e-05 4
11.2179 2.50751 -2.65378 4.24219e-05 4
13.3129 2.97578 -2.65162 4.90636e-05 4
16.3254 3.64916 -2.6495 4.04537e-05 4
9.64813 2.192 -2.65109 5.28979e-05 4
13.3018 3.02209 -2.6515 5.28384e-05 4
9.63725 2.22493 -2.65022 6.29743e-05 4
11.1859 2.58247 -2.6504 5.41257e-05 4
13.2908 3.06843 -2.65143 8.30328e-05 4
9.62872 2.25839 -2.65002 3.77849e-05 4
11.1769 2.62151 -2.65041 4.68119e-05 4
13.2847 3.11589 -2.65235 6.64272e-05 4
9.63364 2.29506 -2.65357 0.000201521 4
11.1641 2.65965 -2.64956 7.16815e-05 4
9.61768 2.32676 -2.65139 0.000118395 4
11.1708 2.7025 -2.65338 0.000175548 4
9.59379 2.35646 -2.64706 7.55718e-05 4
11.1493 2.73853 -2.65053 4.82763e-05 4
9.59698 2.39279 -2.65023 8.31297e-05 4
11.1285 2.77463 -2.64786 4.3888e-05 4
13.2267 3.29779 -2.64972 3.24604e-05 4
9.58892 2.42637 -2.65032 0.000259468 4
11.1279 2.81579 -2.65005 5.99809e-05 4
13.2126 3.34329 -2.64921 3.85001e-05 4
9.5906 2.46245 -2.65315 0.000204049 4
11.1208 2.85533 -2.65071 4.0963e-05 4
20.5814 5.2844 -2.60905 3.16571e-05 4
9.56649 2.49188 -2.64887 0.000151149 4
11.1184 2.89613 -2.65254 9.21677e-05 4
13.2042 3.43942 -2.65227 5.73742e-05 4
16.2067 4.22152 -2.65254 7.01535e-05 4
20.3151 5.29168 -2.57761 3.6817e-05 4
9.55449 2.52441 -2.64797 8.31327e-05 4
11.105 2.93406 -2.65176 3.65749e-05 4
13.1938 3.48595 -2.65262 3.62368e-05 4
16.1894 4.27743 -2.65214 7.4723e-05 4
20.0659 5.30165 -2.54833 3.7564e-05 4
9.56174 2.56206 -2.65244 9.82486e-05 4
13.1714 3.52926 -2.65057 4.30318e-05 4
16.1698 4.33269 -2.65139 6.26509e-05 4
9.5399 2.59193 -2.64888 0.000108326 4
11.0921 3.01365 -2.65364 9.21707e-05 4
13.1581 3.57497 -2.65039 2.86882e-05 4
9.54061 2.62792 -2.6516 6.04617e-05 4
11.0807 3.05214 -2.65346 9.21717e-05 4
13.1457 3.62093 -2.65043 3.54833e-05 4
9.51486 2.65659 -2.64701 0.000128482 4
11.0617 3.08847 -2.65146 5.99854e-05 4
13.1204 3.66328 -2.64789 4.83183e-05 4
16.2104 4.52602 -2.66567 2.98221e-05 4
9.51923 2.69367 -2.65082 0.000161234 4
11.0435 3.12498 -2.6497 5.9986e-05 4
16.3011 4.61274 -2.68322 3.07794e-05 4
9.49667 2.72313 -2.64717 0.000118407 4
11.0287 3.16243 -2.64879 0.000155087 4
13.0995 3.75623 -2.6489 3.09547e-05 4
9.50564 2.76164 -2.65234 8.06184e-05 4
11.0149 3.20012 -2.64814 0.000102417 4
9.48285 2.79096 -2.64869 0.000284686 4
11.0041 3.23869 -2.64825 5.41355e-05 4
16.5181 4.86153 -2.72716 4.8819e-05 1
9.46966 2.82303 -2.64774 0.000128488 4
10.999 3.27894 -2.64975 5.26729e-05 4
13.0735 3.89738 -2.65175 4.83214e-05 4
16.5083 4.92135 -2.72837 4.88198e-05 1
20.6096 6.14398 -2.64059 3.55683e-05 4
9.46453 2.85751 -2.64908 0.000274614 4
10.9898 3.31801 -2.65031 6.58418e-05 4
13.0547 3.94146 -2.65072 8.45636e-05 4
16.4812 4.97597 -2.72675 4.88206e-05 1
20.3948 6.15755 -2.61581 3.60801e-05 4
9.46421 2.8935 -2.6518 8.81796e-05 4
10.9696 3.35375 -2.64825 5.41371e-05 4
16.4735 5.03646 -2.72837 4.88215e-05 1
20.1642 6.16481 -2.58898 4.391e-05 4
9.44208 2.92281 -2.64844 0.00022675 4
13.0277 4.03276 -2.65089 4.83233e-05 4
16.4369 5.08805 -2.72522 4.88223e-05 1
19.9662 6.18058 -2.56631 3.0453e-05 4
9.44437 2.95969 -2.65197 8.31422e-05 4
10.9546 3.43297 -2.65035 9.80342e-05 4
13.0229 4.08112 -2.65278 5.43644e-05 4
16.4285 5.14839 -2.7268 4.88231e-05 1
19.776 6.19742 -2.54463 4.00914e-05 4
9.42665 2.99031 -2.6499 0.000294779 4
10.9532 3.47457 -2.65294 6.29181e-05 4
12.9939 4.12189 -2.64978 3.77536e-05 4
16.3972 5.20151 -2.7246 6.26911e-05 4
9.41344 3.02232 -2.64914 0.000231794 4
10.9391 3.51217 -2.65248 8.48672e-05 4
12.9872 4.16974 -2.65139 0.000151771 4
16.2307 5.2111 -2.69994 9.67908e-05 4
9.41229 3.05824 -2.6518 0.000131015 4
10.9188 3.54774 -2.65054 3.80443e-05 4
12.9638 4.21219 -2.64958 0.000155549 4
16.0597 5.21809 -2.6745 8.08438e-05 4
9.3999 3.09053 -2.65134 0.000158732 4
10.9121 3.5877 -2.65192 4.38977e-05 4
12.9572 4.26011 -2.65126 0.000139694 4
15.8878 5.22364 -2.6489 9.32673e-05 4
9.3807 3.12054 -2.64898 8.31459e-05 4
10.8814 3.61975 -2.64751 0.000108282 4
12.9371 4.3036 -2.65021 0.000161594 4
15.7415 5.2365 -2.62754 0.000121748 4
9.38769 3.15931 -2.65405 9.07054e-05 4
10.8921 3.6656 -2.65323 7.46278e-05 4
12.919 4.34774 -2.6496 0.00012233 4
15.5565 5.23533 -2.59969 0.000101808 4
9.37572 3.19175 -2.6538 0.000141098 4
10.8594 3.69683 -2.64838 0.000134624 4
12.8944 4.38962 -2.64768 4.00219e-05 4
15.4199 5.24938 -2.57992 0.00010589 4
10.8618 3.74 -2.65213 0.000169745 4
12.9343 4.45362 -2.65903 7.0509e-05 4
15.2596 5.2543 -2.55615 9.21408e-05 4
9.35392 3.25738 -2.654 0.000176376 4
10.8539 3.77972 -2.65341 4.68267e-05 4
12.9787 4.51967 -2.6714 6.76839e-05 4
15.1306 5.26905 -2.53761 3.88283e-05 4
9.33571 3.28762 -2.65207 4.28346e-05 4
10.8338 3.81518 -2.65174 4.53639e-05 4
13.0095 4.58136 -2.68101 6.39503e-05 4
15.1033 5.31872 -2.53613 4.25988e-05 4
9.32388 3.32008 -2.65199 6.8032e-05 4
10.8132 3.8504 -2.64997 6.73148e-05 4
13.0699 4.65399 -2.6968 6.32236e-05 4
15.0865 5.37205 -2.53643 5.01392e-05 4
9.31958 3.35525 -2.65408 0.00027213 4
10.7911 3.88502 -2.64785 0.000124387 4
13.1155 4.72186 -2.70958 6.01287e-05 4
15.7363 5.66542 -2.649 4.70073e-05 4
9.29615 3.38352 -2.65076 9.32307e-05 4
10.7748 3.92169 -2.6472 7.90234e-05 4
13.1641 4.79133 -2.72306 6.08387e-05 4
15.7306 5.72546 -2.65138 3.55825e-05 4
9.285 3.41622 -2.65096 4.78756e-05 4
13.1541 4.83976 -2.72447 0.000113773 1
15.6898 5.77273 -2.64789 4.89676e-05 4
9.27981 3.45113 -2.6529 0.000153707 4
10.7595 4.00141 -2.65024 0.00015366 4
13.1479 4.88966 -2.7267 0.000113774 1
10.7448 4.03871 -2.65009 8.34162e-05 4
13.1284 4.93462 -2.72621 0.000113776 1
15.6634 5.88749 -2.6503 4.40723e-05 4
9.23915 3.50962 -2.64822 8.56744e-05 4
10.7243 4.07377 -2.64851 4.68307e-05 4
13.1138 4.98147 -2.72678 0.000113777 1
15.6315 5.93786 -2.6484 3.85231e-05 4
9.23506 3.54501 -2.65058 7.0556e-05 4
10.7294 4.11863 -2.65331 7.61006e-05 4
13.1027 5.02967 -2.72812 0.000113779 1
9.23395 3.58161 -2.65383 0.000151193 4
10.7054 4.15236 -2.65095 0.00024733 4
13.0879 5.07647 -2.7287 0.00011378 1
15.5914 6.04751 -2.64869 5.8113e-05 4
9.19897 3.60504 -2.64738 0.000183953 4
10.7003 4.19341 -2.65329 0.000294164 4
13.0683 5.1214 -2.72832 0.000113782 1
15.5491 6.09364 -2.64511 0.00011813 4
9.18874 3.63808 -2.64807 0.000128516 4
10.6703 4.22468 -2.64949 0.000317584 4
13.0525 5.16786 -2.72878 0.000113783 1
15.4007 6.09758 -2.62346 0.000102044 4
9.19418 3.67741 -2.65332 0.000188996 4
10.6567 4.26237 -2.64979 0.000295634 4
12.9483 5.17894 -2.71075 0.000223193 4
15.2917 6.11625 -2.60852 9.16047e-05 4
9.16948 3.70471 -2.64991 6.55191e-05 4
10.6379 4.29801 -2.64884 0.00029271 4
12.839 5.18729 -2.69164 0.000151503 4
15.1423 6.11787 -2.58665 0.000104874 4
9.14795 3.73321 -2.64744 0.000166319 4
10.6179 4.33308 -2.6476 5.7079e-05 4
12.7028 5.18392 -2.66687 0.00020158 4
15.0313 6.13416 -2.57134 0.000123329 4
9.15452 3.77322 -2.65313 9.82804e-05 4
10.6114 4.3737 -2.64977 5.85432e-05 4
12.5947 5.19115 -2.64795 0.000182065 4
14.8914 6.1378 -2.55106 7.97204e-05 4
9.11789 3.79541 -2.64634 0.000110881 4
10.6092 4.4162 -2.65306 0.000148954 4
12.4984 5.20258 -2.63152 0.000224197 4
14.777 6.15106 -2.53511 4.67579e-05 4
9.11993 3.83366 -2.6508 0.000151203 4
10.6358 4.47089 -2.6636 0.000126206 4
12.3904 5.20845 -2.6126 0.000232725 4
14.7719 6.20952 -2.53794 5.20379e-05 4
9.11574 3.8694 -2.65349 6.5522e-05 4
10.6762 4.53176 -2.67765 0.000103129 4
12.2883 5.21605 -2.59487 0.000223861 4
14.7565 6.26377 -2.53905 4.60052e-05 4
9.09977 3.90017 -2.65279 8.82034e-05 4
10.6839 4.57914 -2.68359 0.000125331 4
12.1725 5.21715 -2.57427 0.000228707 4
14.737 6.31626 -2.53946 4.52518e-05 4
9.07248 3.92601 -2.64882 0.000143647 4
10.7275 4.64221 -2.69859 0.000138424 4
12.0583 5.2181 -2.55395 7.84799e-05 4
14.7053 6.36356 -2.53782 4.56296e-05 4
9.0677 3.96158 -2.65144 9.0725e-05 4
10.7502 4.69664 -2.7084 0.000102262 4
11.9537 5.22243 -2.53563 4.14428e-05 4
14.6918 6.41871 -2.53934 5.4681e-05 4
9.04185 3.98793 -2.64794 3.02419e-05 4
10.7828 4.75577 -2.72077 0.000118874 4
