VERSION 0.7
FIELDS x y z intensity label
SIZE 4 4 4 4 4
TYPE F F F F F
COUNT 1 1 1 1 1
WIDTH 1277
HEIGHT 1
VIEWPOINT 31.0354 7.49221 2.72624 0.999997 0.000242956 0.00128004 -0.00226687
POINTS 1277
DATA ascii
22.0444 55.6778 -1.04526 0.331364 10
22.0448 55.6788 1.04528 0.331443 10
7.47267 18.8738 1.06384 0.0465523 10
6.9509 17.556 1.65195 0.25761 10
6.94922 17.5517 2.31785 0.256728 10
6.94752 17.5474 2.98915 0.255534 10
6.9458 17.5431 3.66758 0.254029 10
6.94406 17.5387 4.35495 0.252214 10
6.9423 17.5342 5.05313 0.250092 10
3.70502 9.45409 -2.7208 0.0985298 1
4.29885 10.9694 -2.72001 0.0856616 1
5.10378 13.0233 -2.71893 0.072689 1
6.26015 15.974 -2.71739 0.0596279 1
6.9602 17.7603 -2.34217 0.32584 10
6.95849 17.756 -1.66848 0.327118 10
12.6522 32.2846 -1.81725 0.826234 10
21.8195 55.6768 -1.04381 0.328478 10
21.8199 55.6778 1.04382 0.328558 10
7.40546 18.8965 1.06366 0.0465603 10
6.95006 17.7345 1.66646 0.255368 10
6.94836 17.7301 2.33819 0.254495 10
6.94664 17.7257 3.01537 0.253312 10
6.94491 17.7213 3.69975 0.25182 10
6.94316 17.7169 4.39314 0.250021 10
6.94138 17.7123 5.09744 0.247918 10
3.67212 9.46728 -2.72089 0.0985266 1
4.2607 10.9847 -2.72011 0.0856583 1
5.05852 13.0416 -2.71906 0.0726857 1
6.20471 15.9967 -2.71754 0.0596245 1
6.95942 17.9425 -2.36297 0.322972 10
6.95771 17.938 -1.68329 0.324239 10
12.5221 32.284 -1.81475 0.827374 10
21.5952 55.6758 -1.04237 0.325589 10
21.5956 55.6768 1.04239 0.325668 10
7.3382 18.919 1.06347 0.0465684 10
6.92752 17.8602 1.67599 0.643494 10
6.92765 17.8605 2.35219 0.641125 10
6.92778 17.8609 3.03423 0.637975 10
6.92791 17.8612 3.72389 0.634048 10
6.92804 17.8616 4.423 0.629348 10
6.92818 17.8619 5.1335 0.623882 10
3.63917 9.48036 -2.72098 0.0985233 1
4.22249 11 -2.72022 0.085655 1
5.0132 13.0598 -2.71918 0.0726824 1
6.14917 16.0191 -2.71769 0.0596212 1
6.95864 18.1279 -2.38418 0.3201 10
6.9569 18.1234 -1.6984 0.321356 10
12.3924 32.2834 -1.81227 0.828505 10
21.3715 55.6747 -1.04095 0.322695 10
21.3719 55.6758 1.04096 0.322775 10
7.27086 18.9412 1.06329 0.0465764 10
6.85576 17.8599 1.6737 0.644373 10
6.85589 17.8602 2.34898 0.642001 10
6.85602 17.8605 3.03009 0.638847 10
6.85615 17.8609 3.71881 0.634914 10
6.85628 17.8612 4.41696 0.630208 10
6.85642 17.8616 5.1265 0.624734 10
3.60617 9.49332 -2.72107 0.09852 1
4.18423 11.0151 -2.72032 0.0856517 1
4.96781 13.0778 -2.7193 0.072679 1
6.09356 16.0414 -2.71784 0.0596178 1
6.95784 18.3166 -2.4058 0.317223 10
6.95609 18.312 -1.71379 0.31847 10
7.12617 18.7598 -1.0517 0.547988 10
7.1263 18.7601 -0.350289 0.548647 10
7.12643 18.7605 0.350295 0.548637 10
7.12656 18.7608 1.05176 0.547958 10
6.78421 17.8596 1.67144 0.645244 10
6.78434 17.8599 2.3458 0.642869 10
6.78446 17.8602 3.026 0.63971 10
6.78459 17.8606 3.71378 0.635773 10
6.78472 17.8609 4.411 0.63106 10
6.78485 17.8613 5.11957 0.625579 10
3.57314 9.50617 -2.72116 0.0985167 1
4.14592 11.03 -2.72043 0.0856484 1
4.92236 13.0957 -2.71943 0.0726757 1
6.03788 16.0635 -2.718 0.0596144 1
6.95702 18.5088 -2.42784 0.314343 10
6.95526 18.5041 -1.72949 0.315579 10
7.05122 18.7594 -1.0503 0.548721 10
7.05134 18.7598 -0.349821 0.549381 10
7.05147 18.7601 0.349827 0.549371 10
7.0516 18.7605 1.05035 0.548691 10
6.71285 17.8592 1.66921 0.646107 10
6.71297 17.8596 2.34267 0.643729 10
6.7131 17.8599 3.02195 0.640566 10
6.71323 17.8602 3.70882 0.636623 10
6.71336 17.8606 4.4051 0.631905 10
6.71349 17.8609 5.11273 0.626416 10
3.54005 9.5189 -2.72125 0.0985134 1
4.10755 11.0449 -2.72053 0.085645 1
4.87684 13.1134 -2.71955 0.0726723 1
5.9821 16.0854 -2.71815 0.0596111 1
6.95619 18.7046 -2.45032 0.311459 10
6.95441 18.6998 -1.7455 0.312684 10
6.97645 18.7591 -1.04891 0.549448 10
6.97657 18.7594 -0.349358 0.550108 10
6.9767 18.7598 0.349364 0.550098 10
6.97683 18.7601 1.04897 0.549418 10
6.64167 17.8589 1.667 0.646963 10
6.64179 17.8592 2.33957 0.644581 10
6.64192 17.8596 3.01796 0.641415 10
6.64204 17.8599 3.70392 0.637466 10
6.64217 17.8603 4.39928 0.632741 10
6.6423 17.8606 5.10597 0.627246 10
3.50692 9.53152 -2.72134 0.0985101 1
4.06913 11.0596 -2.72064 0.0856417 1
4.83126 13.131 -2.71968 0.072669 1
5.92625 16.1071 -2.7183 0.0596077 1
6.95535 18.9041 -2.47325 0.308572 10
6.95355 18.8992 -1.76183 0.309786 10
7.00139 19.0292 -1.06264 0.550168 10
7.00152 19.0296 -0.353931 0.550829 10
7.00165 19.0299 0.353938 0.550819 10
7.00086 19.0278 1.06256 0.0360256 10
6.58925 17.909 1.66953 0.241854 10
6.58755 17.9044 2.34247 0.24103 10
6.58584 17.8998 3.02085 0.239913 10
6.5841 17.8951 3.70642 0.238503 10
6.58235 17.8903 4.40099 0.236803 10
6.58056 17.8854 5.10647 0.234815 10
3.47374 9.54402 -2.72143 0.0985068 1
4.03065 11.0741 -2.72074 0.0856384 1
4.78561 13.1484 -2.71981 0.0726656 1
5.87032 16.1286 -2.71846 0.0596043 1
6.95448 19.1073 -2.49665 0.30568 10
6.95267 19.1023 -1.77849 0.306884 10
6.95087 19.0973 -1.06508 0.203253 10
6.94907 19.0924 -0.354647 0.203553 10
6.94728 19.0875 0.354555 0.203606 10
6.94548 19.0826 1.06426 0.240114 10
6.94368 19.0776 1.77619 0.239591 10
6.94845 19.0907 2.49448 0.412562 10
6.94858 19.0911 3.21778 0.410535 10
6.61938 18.1866 3.76199 0.132151 10
6.93634 19.0574 4.68212 0.23459 10
6.93444 19.0522 5.43266 0.23262 10
3.44052 9.55641 -2.72153 0.0985035 1
3.99213 11.0886 -2.72085 0.0856351 1
4.7399 13.1656 -2.71993 0.0726623 1
5.81432 16.1499 -2.71861 0.059601 1
6.95361 19.3144 -2.52052 0.302785 10
6.95177 19.3093 -1.79549 0.303978 10
6.94995 19.3042 -1.07526 0.201329 10
6.94818 19.2993 -0.358038 0.55225 10
6.94831 19.2997 0.358044 0.55224 10
6.94452 19.2891 1.07442 0.237843 10
6.9427 19.2841 1.79315 0.237325 10
6.88378 19.1204 2.49521 0.647091 10
6.88391 19.1208 3.21872 0.643912 10
6.58216 18.2827 3.77709 0.234041 10
6.93529 19.2635 4.72677 0.232374 10
6.93338 19.2582 5.48445 0.230424 10
3.40725 9.56868 -2.72162 0.0985002 1
3.95355 11.1029 -2.72095 0.0856318 1
4.69413 13.1827 -2.72006 0.0726589 1
5.75823 16.171 -2.71877 0.0595976 1
6.95271 19.5255 -2.54489 0.299886 10
6.95086 19.5203 -1.81285 0.301068 10
6.96822 19.569 -1.08865 0.552287 10
6.96835 19.5694 -0.362595 0.552951 10
6.96848 19.5698 0.362601 0.552941 10
6.94354 19.4997 1.08479 0.235568 10
6.94171 19.4946 1.81046 0.235056 10
6.80835 19.1201 2.49205 0.647912 10
6.80848 19.1204 3.21464 0.644729 10
6.58117 18.4821 3.81351 0.231805 10
6.93422 19.4736 4.77235 0.230155 10
6.93229 19.4681 5.53732 0.228224 10
3.37395 9.58083 -2.72171 0.0984969 1
3.91492 11.117 -2.72106 0.0856284 1
4.6483 13.1996 -2.72018 0.0726556 1
5.70207 16.1919 -2.71892 0.0595942 1
6.9518 19.7407 -2.56976 0.296983 10
6.94993 19.7354 -1.83056 0.298155 10
6.98646 19.8391 -1.10231 0.55298 10
6.98659 19.8395 -0.367145 0.553644 10
6.98672 19.8399 0.367152 0.553634 10
6.94254 19.7144 1.09538 0.233292 10
6.94069 19.7091 1.82812 0.232785 10
6.73313 19.1197 2.48892 0.648725 10
6.73325 19.1201 3.21062 0.645538 10
6.58015 18.6853 3.85069 0.229567 10
6.93313 19.6877 4.81886 0.227933 10
6.93118 19.6821 5.59127 0.226021 10
3.34059 9.59288 -2.7218 0.0984936 1
3.87624 11.131 -2.72117 0.0856251 1
4.60241 13.2163 -2.72031 0.0726522 1
5.64583 16.2126 -2.71907 0.0595909 1
6.95087 19.9602 -2.59516 0.294077 10
6.94898 19.9548 -1.84864 0.295238 10
7.00276 20.1092 -1.11595 0.553666 10
7.00289 20.1096 -0.371688 0.554332 10
7.00301 20.1099 0.371695 0.554322 10
6.94152 19.9333 1.10619 0.231011 10
6.93965 19.928 1.84616 0.23051 10
6.65807 19.1194 2.48584 0.64953 10
6.6582 19.1197 3.20664 0.646339 10
6.93396 19.9116 4.0984 0.227326 10
6.93202 19.9061 4.86636 0.225708 10
6.93005 19.9004 5.64637 0.223816 10
3.3072 9.6048 -2.72189 0.0984903 1
3.83751 11.1449 -2.72127 0.0856218 1
4.55646 13.2329 -2.72043 0.0726489 1
5.58953 16.2332 -2.71923 0.0595875 1
6.94992 20.184 -2.62109 0.291167 10
6.94802 20.1785 -1.86711 0.292318 10
6.94613 20.173 -1.11814 0.193608 10
6.94424 20.1675 -0.37231 0.193897 10
6.94236 20.1621 0.372209 0.193949 10
6.94048 20.1566 1.11723 0.228729 10
6.93859 20.1511 1.86458 0.228233 10
6.58322 19.1191 2.48279 0.650328 10
6.58334 19.1194 3.20271 0.647133 10
6.93285 20.1344 4.13925 0.225082 10
6.93089 20.1287 4.91486 0.223481 10
6.9289 20.123 5.70262 0.221608 10
3.27376 9.6166 -2.72198 0.098487 1
3.79874 11.1587 -2.72138 0.0856184 1
4.51045 13.2494 -2.72056 0.0726455 1
5.53314 16.2535 -2.71938 0.0595841 1
6.94895 20.4124 -2.64758 0.288254 10
6.94703 20.4067 -1.88598 0.289394 10
6.94512 20.4011 -1.12943 0.191672 10
6.94322 20.3955 -0.376069 0.191958 10
6.94132 20.39 0.375966 0.192011 10
6.93942 20.3844 1.12851 0.226443 10
6.93751 20.3788 1.88339 0.225953 10
6.93559 20.3731 2.64249 0.225188 10
6.93366 20.3675 3.4077 0.224148 10
6.93171 20.3617 4.18098 0.222836 10
6.92973 20.3559 4.96439 0.221251 10
6.92772 20.35 5.76008 0.219398 10
3.24028 9.6283 -2.72207 0.0984837 1
3.75991 11.1723 -2.72148 0.0856151 1
4.46438 13.2656 -2.72068 0.0726422 1
5.47668 16.2736 -2.71954 0.0595807 1
6.94797 20.6455 -2.67464 0.285337 10
6.94602 20.6397 -1.90525 0.286466 10
6.94914 20.6489 -1.1418 0.555684 10
6.94927 20.6493 -0.380299 0.556352 10
6.94939 20.6497 0.380306 0.556342 10
6.93833 20.6168 1.14003 0.224155 10
6.93641 20.6111 1.90261 0.223671 10
6.93055 20.5937 4.22362 0.220586 10
6.92855 20.5878 5.015 0.219019 10
6.92652 20.5817 5.81878 0.138646 10
3.20676 9.63987 -2.72216 0.0984804 1
3.72103 11.1858 -2.72159 0.0856118 1
4.41825 13.2818 -2.72081 0.0726388 1
5.42016 16.2936 -2.71969 0.0595773 1
6.94696 20.8833 -2.7023 0.282417 10
6.945 20.8774 -1.92495 0.283535 10
6.95883 20.919 -1.15539 0.556344 10
6.95895 20.9194 -0.384823 0.557012 10
6.95908 20.9197 0.384829 0.557002 10
6.93723 20.8541 1.1518 0.221864 10
6.93528 20.8482 1.92225 0.221385 10
7.01042 21.0741 2.72699 0.416653 10
7.01055 21.0745 3.51771 0.414606 10
6.92936 20.8304 4.26718 0.218334 10
6.92734 20.8243 5.06671 0.216783 10
3.1732 9.65133 -2.72226 0.0984771 1
3.6821 11.1992 -2.7217 0.0856084 1
4.37207 13.2977 -2.72094 0.0726354 1
5.36355 16.3133 -2.71984 0.059574 1
6.9143 21.03 -2.71814 0.0464399 1
6.94395 21.1201 -1.94508 0.2806 10
6.9666 21.189 -1.16895 0.556996 10
6.96672 21.1894 -0.38934 0.557665 10
6.96685 21.1898 0.389347 0.557655 10
6.9361 21.0963 1.16383 0.21957 10
6.93413 21.0903 1.94233 0.219097 10
6.92815 21.0721 4.31171 0.21608 10
6.92611 21.0659 5.11957 0.214545 10
3.1396 9.66268 -2.72235 0.0984738 1
3.64313 11.2124 -2.7218 0.0856051 1
4.32582 13.3135 -2.72106 0.0726321 1
5.30688 16.3329 -2.72 0.0595706 1
6.84135 21.0555 -2.71834 0.0464365 1
6.94287 21.368 -1.96566 0.277662 10
6.97247 21.459 -1.1825 0.557642 10
6.97259 21.4594 -0.393852 0.558312 10
6.97272 21.4598 0.393859 0.558302 10
6.93495 21.3436 1.17613 0.217274 10
6.93296 21.3374 1.96285 0.216806 10
7.00239 21.5511 2.78232 0.417625 10
7.00252 21.5515 3.58909 0.415573 10
6.92692 21.3188 4.35722 0.213822 10
6.92486 21.3125 5.17359 0.212305 10
7.00292 21.5527 6.07224 0.406394 10
3.10595 9.6739 -2.72244 0.0984705 1
3.60411 11.2255 -2.72191 0.0856017 1
4.27952 13.3291 -2.72119 0.0726287 1
5.25012 16.3522 -2.72015 0.0595672 1
6.76831 21.0808 -2.71854 0.0464331 1
6.94178 21.6211 -1.98671 0.274721 10
6.97643 21.7291 -1.19603 0.558281 10
6.97656 21.7294 -0.398359 0.558951 10
6.97669 21.7298 0.398365 0.558941 10
6.93377 21.5962 1.18871 0.214975 10
6.93176 21.5899 1.98384 0.214513 10
6.93848 21.6108 2.78689 0.418104 10
6.93861 21.6112 3.59498 0.41605 10
6.92566 21.5709 4.40377 0.211562 10
6.92357 21.5644 5.22884 0.210061 10
6.939 21.6125 6.0822 0.406859 10
3.07227 9.68501 -2.72253 0.0984672 1
3.56504 11.2384 -2.72201 0.0855984 1
4.23316 13.3446 -2.72131 0.0726253 1
5.19331 16.3714 -2.72031 0.0595638 1
6.69517 21.1059 -2.71874 0.0464297 1
6.94066 21.8797 -2.00823 0.271776 10
6.97852 21.9991 -1.20954 0.558912 10
6.97864 21.9995 -0.40286 0.559584 10
6.97877 21.9999 0.402867 0.559574 10
6.93256 21.8542 1.20158 0.212673 10
6.93054 21.8478 2.0053 0.212217 10
6.9285 21.8414 2.81348 0.211502 10
6.92644 21.8349 3.62814 0.210529 10
6.92437 21.8284 4.45137 0.2093 10
6.92226 21.8217 5.28535 0.207816 10
6.92012 21.815 6.13236 0.206078 10
3.03855 9.696 -2.72262 0.0984639 1
3.52593 11.2513 -2.72212 0.0855951 1
4.18675 13.3599 -2.72144 0.072622 1
5.13643 16.3903 -2.72046 0.0595604 1
6.62195 21.1306 -2.71893 0.0464263 1
6.93952 22.144 -2.03025 0.268828 10
6.97871 22.2691 -1.22304 0.559538 10
6.97883 22.2695 -0.407355 0.56021 10
6.97896 22.2699 0.407362 0.5602 10
6.93134 22.1179 1.21474 0.210369 10
6.92929 22.1114 2.02726 0.209918 10
6.92723 22.1048 2.84428 0.209212 10
6.92515 22.0981 3.66784 0.20825 10
6.92305 22.0914 4.50006 0.207035 10
6.92092 22.0847 5.34315 0.205568 10
6.91876 22.0778 6.1994 0.20385 10
3.00478 9.70688 -2.72271 0.0984605 1
3.48677 11.2639 -2.72223 0.0855917 1
4.14028 13.3751 -2.72157 0.0726186 1
5.07947 16.4091 -2.72062 0.059557 1
6.54862 21.1552 -2.71913 0.0464229 1
6.93835 22.4142 -2.05279 0.265877 10
6.977 22.539 -1.23652 0.848046 10
6.97713 22.5394 -0.411846 0.849065 10
6.97725 22.5399 0.411853 0.84905 10
6.93008 22.3875 1.2282 0.208062 10
6.92801 22.3808 2.04973 0.207617 10
6.92592 22.374 2.8758 0.206919 10
6.92382 22.3673 3.70847 0.205969 10
6.9217 22.3604 4.5499 0.204767 10
6.91955 22.3534 5.4023 0.203317 10
6.91737 22.3464 6.26802 0.201618 10
2.97098 9.71763 -2.72281 0.0984572 1
3.44757 11.2765 -2.72233 0.0855884 1
4.09376 13.3901 -2.72169 0.0726152 1
5.02245 16.4277 -2.72077 0.0595536 1
6.47522 21.1795 -2.71933 0.0464195 1
6.93716 22.6904 -2.07586 0.262923 10
6.93506 22.6835 -1.24311 0.263645 10
6.93297 22.6767 -0.413909 0.264046 10
6.93088 22.6699 0.413784 0.264126 10
6.92879 22.663 1.24199 0.205753 10
6.9267 22.6562 2.07273 0.205314 10
6.92459 22.6493 2.90805 0.204624 10
6.92247 22.6424 3.75006 0.203685 10
6.92032 22.6353 4.6009 0.202498 10
6.91815 22.6282 5.46284 0.201064 10
6.91594 22.621 6.33823 0.199385 10
2.93714 9.72827 -2.7229 0.0984539 1
3.40832 11.2889 -2.72244 0.085585 1
4.04718 13.4049 -2.72182 0.0726119 1
4.96535 16.446 -2.72093 0.0595502 1
6.40171 21.2035 -2.71953 0.046416 1
6.93594 22.9729 -2.09948 0.259964 10
6.93382 22.9659 -1.25725 0.26068 10
6.9317 22.9589 -0.418616 0.261077 10
6.92959 22.9519 0.418488 0.261157 10
6.92748 22.9449 1.2561 0.203441 10
6.92536 22.9379 2.09628 0.203007 10
6.92323 22.9308 2.94108 0.202326 10
6.92108 22.9237 3.79263 0.201398 10
6.91891 22.9165 4.65312 0.200225 10
6.91672 22.9093 5.52482 0.198808 10
6.91449 22.9019 6.41013 0.197149 10
2.90326 9.73879 -2.72299 0.0984506 1
3.36902 11.3012 -2.72255 0.0855817 1
4.00055 13.4196 -2.72195 0.0726085 1
4.9082 16.4642 -2.72108 0.0595468 1
6.32813 21.2273 -2.71973 0.0464126 1
6.93469 23.2619 -2.12367 0.257004 10
9.62037 32.2709 -1.7648 0.850793 10
16.5912 55.6541 1.01369 0.258185 10
6.92614 23.2332 1.27056 0.201127 10
6.84471 22.9601 2.09611 0.661708 10
6.84483 22.9605 2.9418 0.659273 10
6.84495 22.9609 3.79481 0.656034 10
6.91747 23.2042 4.70659 0.19795 10
6.91525 23.1967 5.58829 0.19655 10
6.84534 22.9622 6.42029 0.641543 10
2.86934 9.7492 -2.72308 0.0984473 1
3.32968 11.3133 -2.72265 0.0855783 1
3.95387 13.4341 -2.72207 0.0726051 1
4.85097 16.4822 -2.72124 0.0595434 1
6.25445 21.2508 -2.71993 0.0464092 1
6.93341 23.5577 -2.14845 0.25404 10
9.49767 32.2703 -1.76294 0.851688 10
9.49784 32.2709 -0.587181 0.563237 10
9.49801 32.2715 0.587191 0.563227 10
6.92476 23.5283 1.28536 0.19881 10
6.7574 22.9597 2.0939 0.662404 10
6.75753 22.9601 2.93871 0.659966 10
6.75765 22.9605 3.79082 0.656724 10
6.916 23.4986 4.76138 0.195673 10
6.87322 23.3532 5.62017 0.15596 10
6.75803 22.9618 6.41354 0.642218 10
2.83539 9.75948 -2.72317 0.0984439 1
3.2903 11.3253 -2.72276 0.085575 1
3.90713 13.4484 -2.7222 0.0726017 1
4.79368 16.5 -2.72139 0.05954 1
6.18069 21.2741 -2.72013 0.0464058 1
6.93211 23.8605 -2.17383 0.251073 10
7.07127 24.3394 -1.32832 0.563145 10
7.07139 24.3399 -0.442421 0.563822 10
7.07152 24.3403 0.442429 0.563812 10
6.91455 23.8 1.29888 0.664725 10
6.6703 22.9593 2.09173 0.663092 10
6.67042 22.9597 2.93566 0.660652 10
6.67054 22.9601 3.78689 0.657406 10
6.91449 23.7998 4.8175 0.193393 10
6.79139 23.3761 5.61995 0.155967 10
6.67091 22.9614 6.40689 0.642885 10
2.8014 9.76965 -2.72326 0.0984406 1
3.25087 11.3371 -2.72287 0.0855716 1
3.86034 13.4626 -2.72233 0.0725984 1
4.73633 16.5175 -2.72155 0.0595366 1
6.10684 21.2971 -2.72033 0.0464024 1
6.93077 24.1705 -2.19986 0.248102 10
6.9791 24.339 -1.32696 0.563723 10
6.97923 24.3395 -0.441968 0.5644 10
6.97935 24.3399 0.441976 0.56439 10
6.82443 23.7996 1.29755 0.665407 10
6.58336 22.9589 2.08959 0.663772 10
6.58348 22.9593 2.93266 0.661329 10
6.58359 22.9597 3.78301 0.65808 10
6.82492 23.8013 4.81296 0.65403 10
6.70948 23.3988 5.61973 0.155973 10
6.58396 22.961 6.40032 0.643544 10
2.76738 9.7797 -2.72336 0.0984373 1
3.21141 11.3489 -2.72297 0.0855683 1
3.8135 13.4766 -2.72245 0.072595 1
4.67891 16.5349 -2.7217 0.0595332 1
6.03291 21.3198 -2.72053 0.046399 1
6.9294 24.488 -2.22654 0.245129 10
6.96363 24.609 -1.34034 0.564293 10
6.96376 24.6094 -0.446425 0.564972 10
6.96388 24.6098 0.446433 0.564961 10
6.7345 23.7992 1.29624 0.66608 10
6.56415 23.1972 2.10918 0.19144 10
6.73474 23.8001 3.03702 0.661999 10
6.55985 23.182 3.81584 0.189929 10
6.73499 23.8009 4.80809 0.654692 10
6.62751 23.4211 5.61951 0.155979 10
6.73524 23.8018 6.6281 0.644196 10
2.73332 9.78963 -2.72345 0.098434 1
3.1719 11.3605 -2.72308 0.0855649 1
3.76662 13.4905 -2.72258 0.0725916 1
4.62143 16.5521 -2.72186 0.0595298 1
5.95889 21.3423 -2.72073 0.0463956 1
6.92799 24.8132 -2.25391 0.242153 10
6.94631 24.8789 -1.35371 0.564857 10
6.94644 24.8793 -0.45088 0.565536 10
6.94656 24.8798 0.450887 0.565526 10
6.64475 23.7988 1.29494 0.666745 10
6.56269 23.5049 2.13506 0.189119 10
6.64499 23.7997 3.03399 0.66266 10
6.55834 23.4893 3.86263 0.187629 10
6.64523 23.8005 4.80329 0.655346 10
6.55389 23.4734 5.62652 0.185224 10
6.64548 23.8014 6.62149 0.644839 10
2.69922 9.79945 -2.72354 0.0984306 1
3.13235 11.3719 -2.72319 0.0855616 1
3.71967 13.5042 -2.72271 0.0725882 1
4.56388 16.5691 -2.72202 0.0595264 1
5.88479 21.3646 -2.72093 0.0463921 1
6.92655 25.1467 -2.28198 0.239174 10
6.92713 25.1488 -1.36708 0.565414 10
6.92725 25.1492 -0.45533 0.566093 10
6.92738 25.1497 0.455338 0.566083 10
6.56337 23.8282 1.29529 0.187191 10
6.56119 23.8202 2.16161 0.186796 10
6.559 23.8123 3.03267 0.186174 10
6.55678 23.8042 3.91063 0.185326 10
6.55565 23.8001 4.79856 0.655992 10
6.55229 23.7879 5.6964 0.182952 10
6.55589 23.801 6.61497 0.645475 10
2.66509 9.80914 -2.72363 0.0984273 1
3.09276 11.3832 -2.72329 0.0855582 1
3.67269 13.5177 -2.72283 0.0725848 1
4.50628 16.5858 -2.72217 0.059523 1
5.81061 21.3866 -2.72114 0.0463887 1
6.92508 25.4885 -2.31079 0.236192 10
6.92274 25.4799 -1.38375 0.156445 10
6.92042 25.4713 -0.460722 0.156688 10
6.9181 25.4628 0.460567 0.156741 10
6.58398 24.233 1.31604 0.133698 10
7.39628 27.2228 2.46803 0.666411 10
7.39642 27.2233 3.46378 0.663958 10
6.5552 24.1271 3.95989 0.18302 10
6.57502 24.2001 4.87455 0.1316 10
6.55064 24.1103 5.7681 0.169459 10
7.39696 27.2253 7.55946 0.646103 10
2.63092 9.81871 -2.72373 0.098424 1
3.05312 11.3944 -2.7234 0.0855548 1
3.62564 13.5311 -2.72296 0.0725815 1
4.44861 16.6024 -2.72233 0.0595196 1
5.73634 21.4083 -2.72134 0.0463853 1
6.92356 25.8391 -2.34037 0.233206 10
6.95567 25.9589 -1.40844 0.566506 10
6.95579 25.9594 -0.469107 0.567187 10
6.95591 25.9598 0.469115 0.567177 10
6.58243 24.5659 1.33286 0.13201 10
7.29421 27.2224 2.46566 0.66705 10
7.29434 27.2228 3.46046 0.664595 10
6.55356 24.4582 4.01046 0.180713 10
6.57336 24.5321 4.93677 0.129942 10
7.29474 27.2243 6.50695 0.652389 10
7.29488 27.2249 7.55221 0.646722 10
2.59672 9.82817 -2.72382 0.0984207 1
3.01345 11.4054 -2.72351 0.0855515 1
3.57856 13.5443 -2.72309 0.0725781 1
4.39088 16.6188 -2.72248 0.0595162 1
5.66199 21.4298 -2.72154 0.0463819 1
6.92201 26.1987 -2.37074 0.230219 10
7.19183 27.2199 -1.47549 0.858471 10
7.19196 27.2204 -0.491439 0.859503 10
7.19208 27.2209 0.491447 0.859488 10
6.58084 24.9074 1.35014 0.130321 10
7.19234 27.2219 2.46333 0.667681 10
7.19247 27.2224 3.45719 0.665224 10
6.55189 24.7979 4.06238 0.178403 10
6.57165 24.8727 5.00066 0.128282 10
7.19286 27.2239 6.5008 0.653006 10
7.193 27.2244 7.54507 0.647335 10
2.56248 9.83751 -2.72391 0.0984173 1
2.97373 11.4163 -2.72361 0.0855481 1
3.53142 13.5573 -2.72321 0.0725747 1
4.33309 16.635 -2.72264 0.0595128 1
5.58756 21.451 -2.72174 0.0463785 1
6.92041 26.5679 -2.40195 0.227228 10
7.09014 27.2195 -1.47411 0.859272 10
7.09027 27.22 -0.490981 0.860305 10
7.0904 27.2205 0.490989 0.86029 10
6.5792 25.2579 1.36788 0.128631 10
7.09065 27.2214 2.46103 0.668304 10
7.09078 27.2219 3.45396 0.665845 10
6.55017 25.1465 4.11572 0.176091 10
6.5699 25.2222 5.0663 0.12662 10
7.09117 27.2234 6.49474 0.653615 10
7.0913 27.2239 7.53804 0.647939 10
2.52821 9.84673 -2.724 0.098414 1
2.93398 11.4271 -2.72372 0.0855448 1
3.48424 13.5702 -2.72334 0.0725713 1
4.27524 16.651 -2.72279 0.0595094 1
5.51306 21.4719 -2.72194 0.046375 1
6.91878 26.9468 -2.43401 0.224235 10
6.98866 27.219 -1.47276 0.860063 10
6.98879 27.2195 -0.490529 0.861097 10
6.98891 27.22 0.490538 0.861081 10
6.56874 25.5835 1.38426 0.628927 10
6.98916 27.221 2.45877 0.668919 10
6.98929 27.2215 3.45079 0.666457 10
6.54841 25.5044 4.17052 0.173777 10
6.5681 25.581 5.13374 0.124956 10
6.98967 27.2229 6.48877 0.654217 10
6.9898 27.2235 7.53111 0.648535 10
2.49391 9.85582 -2.72409 0.0984107 1
2.89418 11.4377 -2.72383 0.0855414 1
3.43701 13.5829 -2.72347 0.0725679 1
4.21733 16.6667 -2.72295 0.059506 1
5.43847 21.4926 -2.72214 0.0463716 1
6.9171 27.3361 -2.46698 0.221238 10
6.91461 27.3263 -1.47725 0.221859 10
6.91213 27.3165 -0.491839 0.222209 10
6.90966 27.3067 0.491663 0.222289 10
6.5758 25.9873 1.40486 0.125245 10
6.88784 27.2205 2.45654 0.669526 10
6.88797 27.221 3.44766 0.667062 10
6.5466 25.8719 4.22686 0.171461 10
6.56625 25.9496 5.20306 0.123291 10
6.88835 27.2225 6.48289 0.65481 10
6.88848 27.223 7.52428 0.649123 10
2.45957 9.8648 -2.72419 0.0984073 1
2.85436 11.4482 -2.72394 0.085538 1
3.38973 13.5955 -2.7236 0.0725645 1
4.15937 16.6823 -2.72311 0.0595026 1
5.36382 21.5131 -2.72234 0.0463682 1
6.91537 27.736 -2.50087 0.21824 10
6.91285 27.7259 -1.49754 0.218853 10
6.91034 27.7158 -0.498592 0.219199 10
6.90783 27.7058 0.498411 0.219279 10
6.57403 26.367 1.42414 0.12355 10
6.78672 27.22 2.45435 0.670124 10
6.78685 27.2205 3.44458 0.667658 10
6.54474 26.2495 4.28479 0.169143 10
6.56435 26.3282 5.27435 0.121625 10
6.78722 27.222 6.4771 0.655396 10
6.64329 26.6448 7.35801 0.179543 10
2.42521 9.87366 -2.72428 0.098404 1
2.81449 11.4585 -2.72404 0.0855347 1
3.34242 13.6079 -2.72372 0.0725611 1
4.10135 16.6977 -2.72326 0.0594992 1
5.28909 21.5333 -2.72254 0.0463648 1
6.9136 28.1471 -2.53575 0.215238 10
7.92461 32.2632 -1.7411 0.862372 10
14.0796 57.3217 -1.0303 0.216201 10
14.3375 58.3716 1.04916 0.863393 10
6.57221 26.7572 1.44397 0.121853 10
6.68578 27.2196 2.45219 0.670715 10
6.6859 27.2201 3.44155 0.668246 10
6.54283 26.6376 4.34438 0.166822 10
6.5624 26.7173 5.34767 0.119957 10
6.68627 27.2216 6.4714 0.655973 10
6.55002 26.6669 7.35776 0.179549 10
2.39081 9.8824 -2.72437 0.0984007 1
2.77458 11.4687 -2.72415 0.0855313 1
3.29504 13.6201 -2.72385 0.0725578 1
4.04327 16.7129 -2.72342 0.0594958 1
5.21427 21.5532 -2.72274 0.0463613 1
6.91177 28.5698 -2.57164 0.212234 10
7.80516 32.2627 -1.73959 0.863121 10
14.2452 58.8825 -1.05745 0.213172 10
6.57033 27.1585 1.46438 0.120155 10
6.585 27.2191 2.45006 0.671297 10
6.58512 27.2196 3.43856 0.668827 10
6.54086 27.0367 4.40572 0.1645 10
6.56039 27.1174 5.42315 0.118288 10
6.58548 27.2211 6.46578 0.656543 10
6.53323 27.0051 7.44474 0.161063 10
2.35638 9.89102 -2.72446 0.0983973 1
2.73464 11.4788 -2.72426 0.085528 1
3.24764 13.6321 -2.72398 0.0725544 1
3.98513 16.7278 -2.72357 0.0594924 1
5.13939 21.5729 -2.72294 0.0463579 1
6.90989 29.0047 -2.6086 0.209227 10
7.68593 32.2621 -1.7381 0.863859 10
14.0276 58.8815 -1.05654 0.210154 10
6.84205 28.7199 1.54727 0.673525 10
6.84217 28.7204 2.58303 0.671871 10
6.84229 28.7209 3.62517 0.669399 10
6.89151 28.9275 4.70989 0.162176 10
6.84254 28.7219 5.73922 0.662011 10
6.84266 28.7225 6.81668 0.657104 10
6.88336 28.8933 7.95859 0.15879 10
2.32191 9.89952 -2.72456 0.098394 1
2.69466 11.4887 -2.72436 0.0855246 1
3.20018 13.644 -2.7241 0.072551 1
3.92694 16.7426 -2.72373 0.059489 1
5.06442 21.5923 -2.72315 0.0463545 1
6.90796 29.4522 -2.64667 0.206218 10
7.0386 30.0092 -1.6154 0.571081 10
7.03872 30.0097 -0.538038 0.571768 10
7.03884 30.0103 0.538047 0.571758 10
6.73607 28.7194 1.54597 0.674093 10
6.73619 28.7199 2.58085 0.672437 10
6.73631 28.7204 3.62212 0.669962 10
6.80113 28.9968 4.71727 0.1085 10
6.73655 28.7214 5.73439 0.662568 10
6.73668 28.722 6.81094 0.657658 10
6.88104 29.3375 8.07429 0.156515 10
2.28742 9.90791 -2.72465 0.0983907 1
2.65465 11.4985 -2.72447 0.0855212 1
3.15268 13.6558 -2.72423 0.0725476 1
3.8687 16.7572 -2.72389 0.0594856 1
4.98939 21.6114 -2.72335 0.0463511 1
6.90597 29.913 -2.68589 0.203206 10
6.92806 30.0087 -1.61406 0.571555 10
6.92819 30.0092 -0.537592 0.572242 10
6.92831 30.0098 0.537601 0.572232 10
6.63029 28.7189 1.54468 0.674652 10
6.63041 28.7194 2.57871 0.672995 10
6.63052 28.7199 3.61912 0.670518 10
6.69949 29.0187 4.717 0.108507 10
6.63076 28.721 5.72964 0.663118 10
6.63089 28.7215 6.8053 0.658203 10
6.87867 29.7948 8.19348 0.154238 10
2.2529 9.91617 -2.72474 0.0983873 1
2.61459 11.5082 -2.72458 0.0855179 1
3.10514 13.6673 -2.72436 0.0725442 1
3.8104 16.7715 -2.72404 0.0594821 1
4.91428 21.6303 -2.72355 0.0463476 1
6.89462 30.3468 -2.72266 0.0331566 1
6.94051 30.5488 -1.64179 0.572022 10
6.89845 30.3636 -0.543506 0.132822 10
6.89572 30.3516 0.543291 0.132875 10
6.54024 28.787 1.54711 0.156722 10
6.53764 28.7756 2.58169 0.156402 10
6.53504 28.7641 3.62179 0.155891 10
6.59777 29.0402 4.71673 0.108513 10
6.52975 28.7408 5.72901 0.154301 10
6.52706 28.729 6.80162 0.153223 10
6.87622 30.2658 8.31636 0.151959 10
2.21835 9.92431 -2.72483 0.098384 1
2.57451 11.5177 -2.72469 0.0855145 1
3.05756 13.6787 -2.72449 0.0725408 1
3.75205 16.7857 -2.7242 0.0594787 1
4.83911 21.6489 -2.72375 0.0463442 1
6.78936 30.3738 -2.72294 0.0331532 1
6.89903 30.8645 -1.65745 0.197736 10
6.89626 30.852 -0.551814 0.130822 10
6.89349 30.8397 0.551592 0.130875 10
6.92269 30.9703 1.66314 0.431383 10
6.92281 30.9709 2.77646 0.430323 10
6.67398 29.8577 3.75653 0.0845271 10
6.53013 29.2141 4.74124 0.152859 10
6.92319 30.9725 6.16902 0.424008 10
6.92282 30.9709 7.32664 0.0996365 10
6.77072 30.2904 8.31658 0.179585 10
2.18376 9.93233 -2.72493 0.0983807 1
2.53439 11.5271 -2.72479 0.0855111 1
3.00993 13.6899 -2.72461 0.0725374 1
3.69364 16.7996 -2.72436 0.0594753 1
4.76386 21.6673 -2.72395 0.0463408 1
6.68398 30.4005 -2.72323 0.0331498 1
6.89681 31.3685 -1.68322 0.19471 10
6.89474 31.3591 -0.560449 0.573623 10
6.89486 31.3596 0.560458 0.573613 10
6.81575 30.9998 1.66344 0.67628 10
6.81587 31.0004 2.77696 0.674619 10
6.56923 29.8786 3.75625 0.0845334 10
6.52778 29.6901 4.81476 0.150525 10
6.81624 31.002 6.17012 0.664718 10
6.81636 31.0026 7.32847 0.659792 10
6.66471 30.3128 8.3163 0.179591 10
2.14915 9.94023 -2.72502 0.0983773 1
2.49423 11.5363 -2.7249 0.0855078 1
2.96226 13.701 -2.72474 0.072534 1
3.63519 16.8134 -2.72451 0.0594719 1
4.68855 21.6854 -2.72415 0.0463373 1
6.57851 30.4268 -2.72351 0.0331463 1
6.89452 31.8884 -1.70981 0.191681 10
6.89683 31.8991 -0.569667 0.869109 10
6.89696 31.8997 0.569676 0.869094 10
6.70229 30.9993 1.66214 0.676806 10
6.70241 30.9999 2.7748 0.675144 10
6.52811 30.1937 3.79298 0.148855 10
6.70265 31.001 5.02352 0.669355 10
6.70277 31.0015 6.16532 0.665235 10
6.70289 31.0021 7.32278 0.660305 10
6.55864 30.3349 8.31602 0.179597 10
2.11452 9.948 -2.72511 0.098374 1
2.45405 11.5454 -2.72501 0.0855044 1
2.91456 13.7119 -2.72487 0.0725306 1
3.57668 16.8269 -2.72467 0.0594685 1
4.61317 21.7032 -2.72435 0.0463339 1
6.47294 30.4527 -2.72379 0.0331429 1
6.89216 32.425 -1.73729 0.188651 10
6.88925 32.4113 -0.578381 0.18896 10
6.88636 32.3977 0.578137 0.18904 10
6.58901 30.9988 1.66087 0.677324 10
6.58912 30.9993 2.77268 0.67566 10
6.52566 30.7008 3.85379 0.146506 10
6.58936 31.0005 5.01968 0.669867 10
6.58948 31.001 6.16061 0.665744 10
6.5896 31.0016 7.31718 0.66081 10
6.51428 30.6472 8.39536 0.142826 10
2.07985 9.95566 -2.7252 0.0983706 1
2.41382 11.5543 -2.72511 0.085501 1
2.86681 13.7226 -2.725 0.0725272 1
3.51812 16.8403 -2.72482 0.0594651 1
4.53771 21.7208 -2.72456 0.0463305 1
6.36725 30.4783 -2.72407 0.0331394 1
10.4674 50.1045 -2.68256 0.313249 4
13.4108 64.194 1.1447 0.678672 10
13.6172 65.1819 3.48979 0.144914 10
13.6175 65.1831 5.8259 0.144623 10
13.7454 65.7954 8.25307 0.67368 10
13.6179 65.1854 10.5472 0.143512 10
13.6182 65.1866 12.9445 0.142694 10
13.7272 65.7085 15.4975 0.661307 10
13.6187 65.189 17.8444 0.140538 10
2.04515 9.9632 -2.72529 0.0983673 1
2.37357 11.5631 -2.72522 0.0854977 1
2.81902 13.7332 -2.72512 0.0725238 1
3.45952 16.8534 -2.72498 0.0594617 1
4.4622 21.7381 -2.72476 0.0463271 1
6.26148 30.5035 -2.72436 0.033136 1
10.285 50.1045 -2.68062 0.333068 4
13.3999 65.2791 3.49247 0.678335 10
13.3941 65.2506 5.82772 0.676669 10
13.3822 65.1932 10.5409 0.670867 10
13.3807 65.1855 12.935 0.140368 10
13.3812 65.1879 17.8313 0.138249 10
2.01043 9.97062 -2.72539 0.098364 1
2.33329 11.5718 -2.72533 0.0854943 1
2.77119 13.7436 -2.72525 0.0725204 1
3.40086 16.8664 -2.72514 0.0594583 1
4.38661 21.7552 -2.72496 0.0463236 1
6.1556 30.5284 -2.72464 0.0331325 1
10.1028 50.1045 -2.67871 0.315877 4
1.97568 9.97791 -2.72548 0.0983606 1
2.29297 11.5803 -2.72544 0.0854909 1
2.72333 13.7538 -2.72538 0.0725171 1
3.34216 16.8791 -2.72529 0.0594548 1
4.31097 21.772 -2.72516 0.0463202 1
6.04963 30.5528 -2.72492 0.0331291 1
9.92096 50.1044 -2.67684 0.189659 4
1.9409 9.98509 -2.72557 0.0983573 1
2.25262 11.5887 -2.72554 0.0854876 1
2.67543 13.7639 -2.72551 0.0725137 1
3.2834 16.8917 -2.72545 0.0594514 1
4.23525 21.7885 -2.72536 0.0463168 1
5.94356 30.577 -2.72521 0.0331257 1
9.7393 50.1044 -2.67501 0.316314 4
1.9061 9.99214 -2.72567 0.0983539 1
2.21224 11.597 -2.72565 0.0854842 1
2.62749 13.7738 -2.72563 0.0725103 1
3.22461 16.904 -2.72561 0.059448 1
4.15948 21.8048 -2.72556 0.0463133 1
5.8374 30.6007 -2.72549 0.0331222 1
9.55792 50.1043 -2.67321 0.213929 4
1.87127 9.99907 -2.72576 0.0983506 1
2.17183 11.6051 -2.72576 0.0854808 1
2.57952 13.7835 -2.72576 0.0725069 1
3.16576 16.9161 -2.72576 0.0594446 1
4.08364 21.8208 -2.72577 0.0463099 1
5.73114 30.6241 -2.72577 0.0331188 1
9.37675 50.1042 -2.67144 0.283971 4
1.83642 10.0059 -2.72585 0.0983473 1
2.13139 11.6131 -2.72587 0.0854775 1
2.53151 13.7931 -2.72589 0.0725035 1
3.10688 16.928 -2.72592 0.0594412 1
4.00775 21.8365 -2.72597 0.0463065 1
5.62479 30.6471 -2.72606 0.0331153 1
9.19584 50.1042 -2.66971 0.308199 4
1.80155 10.0126 -2.72594 0.0983439 1
2.09093 11.6209 -2.72597 0.0854741 1
2.48346 13.8025 -2.72602 0.0725001 1
3.04795 16.9397 -2.72608 0.0594378 1
3.9318 21.852 -2.72617 0.046303 1
5.51836 30.6697 -2.72634 0.0331119 1
9.01516 50.1041 -2.66801 0.284336 4
1.76665 10.0191 -2.72604 0.0983406 1
2.05043 11.6286 -2.72608 0.0854707 1
2.43538 13.8117 -2.72614 0.0724967 1
2.98896 16.9513 -2.72623 0.0594344 1
3.85578 21.8672 -2.72637 0.0462996 1
5.41183 30.692 -2.72662 0.0331084 1
8.83468 50.104 -2.66635 0.304211 4
1.73172 10.0256 -2.72613 0.0983373 1
2.00991 11.6361 -2.72619 0.0854674 1
2.38727 13.8208 -2.72627 0.0724933 1
2.92995 16.9626 -2.72639 0.0594309 1
3.77971 21.8821 -2.72657 0.0462962 1
5.30522 30.7139 -2.72691 0.033105 1
8.65445 50.1038 -2.66472 0.264978 4
1.69677 10.0319 -2.72622 0.0983339 1
1.96935 11.6435 -2.7263 0.085464 1
2.33912 13.8297 -2.7264 0.0724899 1
2.87088 16.9737 -2.72655 0.0594275 1
3.70357 21.8968 -2.72678 0.0462927 1
5.1985 30.7354 -2.72719 0.0331016 1
8.47441 50.1037 -2.66312 0.26952 4
1.6618 10.0381 -2.72631 0.0983306 1
1.92878 11.6508 -2.7264 0.0854606 1
2.29094 13.8384 -2.72653 0.0724865 1
2.81178 16.9846 -2.7267 0.0594241 1
3.62739 21.9112 -2.72698 0.0462893 1
5.09172 30.7566 -2.72747 0.0330981 1
8.2946 50.1036 -2.66156 0.337646 4
1.6268 10.0442 -2.72641 0.0983272 1
1.88817 11.6579 -2.72651 0.0854573 1
2.24272 13.847 -2.72665 0.0724831 1
2.75263 16.9952 -2.72686 0.0594207 1
3.55114 21.9254 -2.72718 0.0462859 1
4.98484 30.7774 -2.72776 0.0330947 1
8.11498 50.1034 -2.66003 0.153564 4
1.59179 10.0502 -2.7265 0.0983239 1
1.84754 11.6649 -2.72662 0.0854539 1
2.19448 13.8554 -2.72678 0.0724797 1
2.69344 17.0057 -2.72702 0.0594173 1
3.47484 21.9393 -2.72738 0.0462825 1
4.87789 30.7978 -2.72804 0.0330912 1
7.93558 50.1032 -2.65853 0.28535 4
1.55675 10.056 -2.72659 0.0983206 1
1.80688 11.6717 -2.72673 0.0854505 1
2.1462 13.8636 -2.72691 0.0724764 1
2.63422 17.016 -2.72717 0.0594139 1
3.3985 21.9529 -2.72759 0.046279 1
4.77086 30.8178 -2.72833 0.0330878 1
7.75639 50.1031 -2.65707 0.206443 4
1.52169 10.0617 -2.72668 0.0983172 1
1.76619 11.6784 -2.72683 0.0854471 1
2.09789 13.8716 -2.72704 0.072473 1
2.57495 17.0261 -2.72733 0.0594105 1
3.32209 21.9663 -2.72779 0.0462756 1
4.66373 30.8375 -2.72861 0.0330844 1
7.57736 50.1029 -2.65564 0.397727 4
1.48661 10.0673 -2.72678 0.0983139 1
1.72549 11.685 -2.72694 0.0854438 1
2.04955 13.8795 -2.72716 0.0724696 1
2.51565 17.0359 -2.72749 0.0594071 1
3.24563 21.9793 -2.72799 0.0462722 1
4.55654 30.8568 -2.72889 0.0330809 1
7.39854 50.1027 -2.65425 0.329781 4
1.45151 10.0728 -2.72687 0.0983106 1
1.68475 11.6914 -2.72705 0.0854404 1
2.00118 13.8872 -2.72729 0.0724662 1
2.45631 17.0456 -2.72764 0.0594037 1
3.16912 21.9922 -2.72819 0.0462687 1
4.44926 30.8757 -2.72918 0.0330775 1
7.21988 50.1025 -2.65288 0.263961 4
1.41639 10.0781 -2.72696 0.0983072 1
1.644 11.6976 -2.72715 0.0854371 1
1.95279 13.8948 -2.72742 0.0724628 1
2.39693 17.055 -2.7278 0.0594002 1
3.09257 22.0047 -2.72839 0.0462653 1
4.34191 30.8943 -2.72946 0.033074 1
7.04143 50.1023 -2.65155 0.22888 4
1.38125 10.0833 -2.72705 0.0983039 1
1.60322 11.7038 -2.72726 0.0854337 1
1.90436 13.9022 -2.72755 0.0724594 1
2.33751 17.0643 -2.72796 0.0593968 1
3.01596 22.017 -2.7286 0.0462619 1
4.23448 30.9125 -2.72975 0.0330706 1
6.86313 50.1021 -2.65026 0.325874 4
1.34609 10.0884 -2.72715 0.0983006 1
1.56242 11.7098 -2.72737 0.0854303 1
1.85591 13.9094 -2.72767 0.072456 1
2.27807 17.0733 -2.72811 0.0593934 1
2.93931 22.029 -2.7288 0.0462585 1
4.12698 30.9303 -2.73003 0.0330672 1
6.68502 50.1018 -2.649 0.279768 4
1.31091 10.0934 -2.72724 0.0982972 1
1.52159 11.7156 -2.72748 0.085427 1
1.80743 13.9164 -2.7278 0.0724526 1
2.21858 17.0821 -2.72827 0.05939 1
2.8626 22.0408 -2.729 0.046255 1
4.0194 30.9477 -2.73031 0.0330637 1
6.50706 50.1016 -2.64777 0.321773 4
1.27571 10.0983 -2.72733 0.0982939 1
1.48075 11.7213 -2.72758 0.0854236 1
1.75893 13.9233 -2.72793 0.0724492 1
2.15907 17.0908 -2.72843 0.0593866 1
2.78586 22.0523 -2.7292 0.0462516 1
3.91176 30.9648 -2.7306 0.0330603 1
1.2405 10.103 -2.72742 0.0982906 1
1.43988 11.7269 -2.72769 0.0854202 1
1.7104 13.93 -2.72806 0.0724458 1
2.09952 17.0992 -2.72858 0.0593832 1
2.70907 22.0635 -2.7294 0.0462482 1
3.80405 30.9814 -2.73088 0.0330568 1
6.15166 50.1011 -2.6454 0.249266 4
1.20526 10.1076 -2.72752 0.0982872 1
1.39899 11.7323 -2.7278 0.0854169 1
1.66183 13.9366 -2.72818 0.0724425 1
2.03993 17.1074 -2.72874 0.0593798 1
2.63222 22.0745 -2.72961 0.0462448 1
3.69626 30.9978 -2.73116 0.0330534 1
5.97416 50.1008 -2.64427 0.302336 4
1.17001 10.1121 -2.72761 0.0982839 1
1.35808 11.7376 -2.72791 0.0854135 1
1.61326 13.9429 -2.72831 0.0724391 1
1.98032 17.1154 -2.72889 0.0593764 1
2.55535 22.0852 -2.72981 0.0462413 1
3.58842 31.0137 -2.73145 0.03305 1
5.79684 50.1005 -2.64317 0.298047 4
1.13474 10.1165 -2.7277 0.0982806 1
1.31715 11.7427 -2.72801 0.0854102 1
1.56465 13.9491 -2.72844 0.0724357 1
1.92067 17.1232 -2.72905 0.059373 1
2.47842 22.0956 -2.73001 0.0462379 1
3.48049 31.0293 -2.73173 0.0330465 1
5.61964 50.1002 -2.64211 0.315836 4
1.09946 10.1207 -2.72779 0.0982772 1
1.27621 11.7477 -2.72812 0.0854068 1
1.51602 13.9552 -2.72857 0.0724323 1
1.861 17.1308 -2.72921 0.0593696 1
2.40146 22.1057 -2.73021 0.0462345 1
3.37251 31.0444 -2.73202 0.0330431 1
5.4426 50.0999 -2.64107 0.251884 4
1.06416 10.1248 -2.72789 0.0982739 1
1.23524 11.7525 -2.72823 0.0854034 1
1.46736 13.961 -2.72869 0.0724289 1
1.80129 17.1381 -2.72936 0.0593662 1
2.32444 22.1156 -2.73041 0.0462311 1
3.26446 31.0593 -2.7323 0.0330397 1
5.26568 50.0996 -2.64007 0.289555 4
1.02885 10.1288 -2.72798 0.0982706 1
1.19426 11.7572 -2.72834 0.0854001 1
1.41869 13.9667 -2.72882 0.0724256 1
1.74156 17.1453 -2.72952 0.0593628 1
2.2474 22.1252 -2.73062 0.0462277 1
3.15636 31.0737 -2.73258 0.0330362 1
5.08891 50.0993 -2.6391 0.289662 4
0.993519 10.1327 -2.72807 0.0982672 1
1.15325 11.7618 -2.72844 0.0853967 1
1.36999 13.9722 -2.72895 0.0724222 1
1.68179 17.1522 -2.72968 0.0593594 1
2.17031 22.1346 -2.73082 0.0462242 1
3.04818 31.0877 -2.73287 0.0330328 1
4.91224 50.0989 -2.63816 0.267645 4
0.958178 10.1365 -2.72816 0.0982639 1
1.11223 11.7662 -2.72855 0.0853934 1
1.32127 13.9776 -2.72908 0.0724188 1
1.622 17.159 -2.72983 0.059356 1
2.09319 22.1437 -2.73102 0.0462208 1
2.93995 31.1014 -2.73315 0.0330294 1
4.73572 50.0986 -2.63726 0.289864 4
1.19236 12.6139 1.10849 0.882451 10
0.922823 10.1401 -2.72825 0.0982606 1
1.0712 11.7705 -2.72866 0.08539 1
1.27253 13.9827 -2.7292 0.0724154 1
1.56219 17.1655 -2.72999 0.0593526 1
2.01604 22.1525 -2.73122 0.0462174 1
2.83167 31.1147 -2.73344 0.0330259 1
4.55931 50.0982 -2.63639 0.327588 4
1.14794 12.6137 1.10811 0.882751 10
0.887449 10.1436 -2.72835 0.0982573 1
1.03014 11.7746 -2.72876 0.0853867 1
1.22377 13.9878 -2.72933 0.072412 1
1.50234 17.1719 -2.73015 0.0593492 1
1.93884 22.161 -2.73142 0.046214 1
2.72332 31.1276 -2.73372 0.0330225 1
4.383 50.0979 -2.63555 0.232485 4
1.10354 12.6135 1.10775 0.88304 10
0.852067 10.147 -2.72844 0.098254 1
0.989078 11.7786 -2.72887 0.0853833 1
1.17499 13.9926 -2.72946 0.0724087 1
1.44248 17.178 -2.7303 0.0593458 1
1.86161 22.1693 -2.73163 0.0462106 1
2.61492 31.1402 -2.734 0.0330191 1
4.20682 50.0975 -2.63474 0.225912 4
1.05917 12.6133 1.1074 0.883319 10
0.816667 10.1502 -2.72853 0.0982506 1
0.947992 11.7824 -2.72898 0.08538 1
1.12619 13.9973 -2.72959 0.0724053 1
1.14991 14.292 -2.27095 0.876148 10
1.14993 14.2923 -1.76054 0.880442 10
1.14995 14.2925 -1.25448 0.883663 10
1.14997 14.2928 -0.751474 0.885807 10
1.14999 14.293 -0.250292 0.886872 10
1.15001 14.2933 0.250296 0.886857 10
1.15003 14.2935 0.751513 0.885761 10
1.01482 12.6131 1.10707 0.883586 10
1.15007 14.294 1.76076 0.686408 10
1.15009 14.2943 2.27131 0.683037 10
1.15011 14.2945 2.78755 0.678833 10
1.15013 14.2948 3.31088 0.673802 10
1.15015 14.295 3.84272 0.667951 10
0.78126 10.1533 -2.72862 0.0982473 1
0.906896 11.7861 -2.72909 0.0853766 1
1.07738 14.0018 -2.72971 0.0724019 1
1.0997 14.2918 -2.27029 0.876403 10
1.09972 14.2921 -1.76003 0.880697 10
1.09974 14.2923 -1.25411 0.883919 10
1.09976 14.2926 -0.751255 0.886065 10
1.09977 14.2928 -0.250219 0.88713 10
1.09979 14.293 0.250223 0.887115 10
1.09981 14.2933 0.751294 0.886019 10
0.97051 12.6129 1.10674 0.883843 10
1.09985 14.2938 1.76024 0.686608 10
1.09987 14.294 2.27065 0.683235 10
1.09989 14.2943 2.78674 0.67903 10
1.09991 14.2946 3.30991 0.673998 10
1.09993 14.2948 3.84161 0.668145 10
0.745836 10.1564 -2.72872 0.098244 1
0.865779 11.7897 -2.72919 0.0853733 1
1.02854 14.0061 -2.72984 0.0723985 1
1.04951 14.2916 -2.26966 0.876647 10
1.04953 14.2918 -1.75954 0.880943 10
1.04954 14.2921 -1.25376 0.884166 10
1.04956 14.2923 -0.751046 0.886311 10
1.04958 14.2926 -0.25015 0.887377 10
1.0496 14.2928 0.250154 0.887362 10
1.04962 14.2931 0.751085 0.886265 10
0.926215 12.6127 1.10644 0.884089 10
1.04965 14.2936 1.75975 0.686799 10
1.04967 14.2938 2.27001 0.683425 10
1.04969 14.2941 2.78597 0.679219 10
1.04971 14.2943 3.30899 0.674186 10
1.04973 14.2946 3.84054 0.668331 10
0.710405 10.1592 -2.72881 0.0982407 1
0.824655 11.7931 -2.7293 0.0853699 1
0.979694 14.0102 -2.72997 0.0723952 1
0.999351 14.2914 -2.26906 0.87688 10
0.999368 14.2916 -1.75907 0.881177 10
0.999386 14.2919 -1.25343 0.884401 10
0.999403 14.2921 -0.750846 0.886547 10
0.999421 14.2923 -0.250083 0.887613 10
0.999438 14.2926 0.250087 0.887598 10
0.999455 14.2928 0.750885 0.886501 10
0.881951 12.6125 1.10614 0.884325 10
0.99949 14.2933 1.75929 0.686982 10
0.999507 14.2936 2.26941 0.683607 10
0.999525 14.2938 2.78523 0.6794 10
0.999543 14.2941 3.30811 0.674365 10
0.999561 14.2944 3.83951 0.668509 10
0.674958 10.162 -2.7289 0.0982374 1
0.783512 11.7964 -2.72941 0.0853666 1
0.930823 14.0142 -2.73009 0.0723918 1
0.949214 14.2911 -2.26848 0.877103 10
0.949231 14.2914 -1.75863 0.881401 10
0.949247 14.2916 -1.25311 0.884625 10
0.949264 14.2919 -0.750656 0.886772 10
0.94928 14.2921 -0.25002 0.887839 10
0.949296 14.2924 0.250024 0.887823 10
0.949313 14.2926 0.750694 0.886726 10
0.837704 12.6123 1.10586 0.884549 10
0.949346 14.2931 1.75884 0.687156 10
0.949362 14.2934 2.26883 0.683781 10
0.949379 14.2936 2.78452 0.679573 10
0.949396 14.2939 3.30727 0.674536 10
0.949413 14.2941 3.83854 0.668678 10
0.639506 10.1646 -2.72899 0.098234 1
0.742362 11.7995 -2.72951 0.0853632 1
0.827356 13.1504 -2.56124 0.871946 10
0.82737 13.1507 -2.08698 0.877314 10
0.827385 13.1509 -1.61792 0.881614 10
0.827399 13.1511 -1.15285 0.884839 10
0.827413 13.1513 -0.690595 0.886986 10
0.827428 13.1516 -0.230015 0.888053 10
0.827442 13.1518 0.230019 0.888038 10
0.827456 13.152 0.690631 0.886941 10
0.793485 12.6121 1.10559 0.884763 10
0.827485 13.1525 1.61811 0.687322 10
0.827499 13.1527 2.0873 0.683946 10
0.827514 13.1529 2.56173 0.679737 10
0.899281 14.2936 3.30647 0.674699 10
0.899298 14.2939 3.83761 0.66884 10
0.604043 10.1672 -2.72908 0.0982307 1
0.7012 11.8025 -2.72962 0.0853599 1
0.781271 13.1502 -2.56065 0.872146 10
0.781285 13.1504 -2.0865 0.877516 10
0.781298 13.1507 -1.61755 0.881816 10
0.781312 13.1509 -1.15258 0.885042 10
0.781325 13.1511 -0.690437 0.88719 10
0.781339 13.1514 -0.229963 0.888257 10
0.781352 13.1516 0.229966 0.888242 10
0.781366 13.1518 0.690473 0.887144 10
0.749287 12.6119 1.10534 0.884966 10
0.781393 13.1523 1.61774 0.68748 10
0.781406 13.1525 2.08682 0.684103 10
0.78142 13.1527 2.56114 0.679893 10
0.781434 13.153 3.04196 0.674854 10
0.781449 13.1532 3.53061 0.668993 10
0.568566 10.1695 -2.72918 0.0982274 1
0.66002 11.8053 -2.72973 0.0853566 1
0.7352 13.15 -2.56009 0.872335 10
0.735213 13.1502 -2.08605 0.877706 10
0.735226 13.1505 -1.6172 0.882007 10
0.735238 13.1507 -1.15233 0.885234 10
0.735251 13.1509 -0.690287 0.887383 10
0.735264 13.1511 -0.229913 0.88845 10
0.735277 13.1514 0.229916 0.888434 10
0.735289 13.1516 0.690323 0.887337 10
0.705102 12.6117 1.1051 0.885158 10
0.735315 13.1521 1.61739 0.687629 10
0.735328 13.1523 2.08637 0.684252 10
0.735341 13.1525 2.56058 0.68004 10
0.735354 13.1528 3.0413 0.675001 10
0.735367 13.153 3.52984 0.669139 10
0.533084 10.1718 -2.72927 0.0982241 1
0.618834 11.808 -2.72983 0.0853532 1
0.689155 13.1498 -2.55957 0.872514 10
0.689167 13.15 -2.08562 0.877886 10
0.689179 13.1503 -1.61686 0.882188 10
0.689191 13.1505 -1.1521 0.885416 10
0.689203 13.1507 -0.690145 0.887564 10
0.689215 13.1509 -0.229866 0.888632 10
0.689227 13.1512 0.229869 0.888617 10
0.689239 13.1514 0.690181 0.887519 10
0.660942 12.6115 1.10487 0.885339 10
0.689263 13.1518 1.61706 0.68777 10
0.689275 13.1521 2.08594 0.684392 10
0.689287 13.1523 2.56006 0.68018 10
0.689299 13.1525 3.04067 0.675139 10
0.689312 13.1528 3.52912 0.669276 10
0.497589 10.1739 -2.72936 0.0982208 1
0.577632 11.8106 -2.72994 0.0853499 1
0.643122 13.1496 -2.55908 0.872682 10
0.643133 13.1498 -2.08522 0.878055 10
0.643145 13.1501 -1.61655 0.882358 10
0.643156 13.1503 -1.15188 0.885586 10
0.643167 13.1505 -0.690013 0.887735 10
0.643178 13.1507 -0.229821 0.888803 10
0.643189 13.151 0.229825 0.888788 10
0.6432 13.1512 0.690048 0.88769 10
0.616793 12.6113 1.10466 0.88551 10
0.643222 13.1516 1.61675 0.687903 10
0.643234 13.1519 2.08554 0.684524 10
0.643245 13.1521 2.55957 0.680311 10
0.643256 13.1523 3.04009 0.675269 10
0.643268 13.1526 3.52844 0.669405 10
0.46209 10.176 -2.72945 0.0982175 1
0.536426 11.813 -2.73005 0.0853465 1
0.597112 13.1494 -2.55861 0.87284 10
0.597123 13.1496 -2.08484 0.878214 10
0.597133 13.1498 -1.61626 0.882518 10
0.597144 13.1501 -1.15167 0.885746 10
0.597154 13.1503 -0.689888 0.887896 10
0.597164 13.1505 -0.22978 0.888964 10
0.597175 13.1507 0.229784 0.888948 10
0.597185 13.151 0.689924 0.88785 10
0.572667 12.6111 1.10446 0.88567 10
0.597206 13.1514 1.61646 0.688027 10
0.597216 13.1517 2.08517 0.684647 10
0.597227 13.1519 2.5591 0.680434 10
0.597237 13.1521 3.03954 0.675391 10
0.597248 13.1524 3.5278 0.669526 10
0.426578 10.1779 -2.72954 0.0982142 1
0.495204 11.8152 -2.73015 0.0853432 1
0.551113 13.1492 -2.55818 0.872987 10
0.551122 13.1494 -2.08449 0.878361 10
0.551132 13.1496 -1.61599 0.882666 10
0.551142 13.1499 -1.15147 0.885895 10
0.551151 13.1501 -0.689772 0.888045 10
0.551161 13.1503 -0.229741 0.889113 10
0.55117 13.1505 0.229745 0.889098 10
0.55118 13.1508 0.689808 0.887999 10
0.528551 12.6109 1.10428 0.885819 10
0.551199 13.1512 1.61618 0.688143 10
0.551208 13.1515 2.08481 0.684762 10
0.551218 13.1517 2.55867 0.680548 10
0.551228 13.1519 3.03903 0.675505 10
0.551238 13.1522 3.5272 0.669639 10
0.391063 10.1796 -2.72964 0.0982109 1
0.453978 11.8173 -2.73026 0.0853399 1
0.505134 13.149 -2.55778 0.873123 10
0.505143 13.1492 -2.08416 0.878498 10
0.505152 13.1494 -1.61574 0.882804 10
0.505161 13.1497 -1.15129 0.886034 10
0.505169 13.1499 -0.689664 0.888184 10
0.505178 13.1501 -0.229705 0.889252 10
0.505187 13.1503 0.229709 0.889237 10
0.505195 13.1506 0.6897 0.888138 10
0.484454 12.6107 1.1041 0.885957 10
0.505213 13.151 1.61593 0.68825 10
0.505222 13.1512 2.08449 0.684869 10
0.505231 13.1515 2.55827 0.680654 10
0.50524 13.1517 3.03855 0.67561 10
0.505249 13.152 3.52665 0.669743 10
0.355541 10.1813 -2.72973 0.0982076 1
0.412744 11.8193 -2.73037 0.0853366 1
0.459169 13.1487 -2.55742 0.873248 10
0.459177 13.149 -2.08386 0.878625 10
0.459185 13.1492 -1.6155 0.882931 10
0.459193 13.1494 -1.15113 0.886161 10
0.459201 13.1497 -0.689565 0.888312 10
0.459209 13.1499 -0.229672 0.88938 10
0.459217 13.1501 0.229676 0.889365 10
0.459225 13.1504 0.689601 0.888266 10
0.440371 12.6105 1.10394 0.886085 10
0.459241 13.1508 1.6157 0.688349 10
0.459249 13.151 2.08419 0.684968 10
0.459257 13.1513 2.55791 0.680752 10
0.459265 13.1515 3.03811 0.675708 10
0.459274 13.1517 3.52615 0.669839 10
0.320008 10.1828 -2.72982 0.0982043 1
0.371495 11.8211 -2.73047 0.0853332 1
0.413211 13.1485 -2.55708 0.873363 10
0.413218 13.1488 -2.08359 0.878741 10
0.413225 13.149 -1.61529 0.883047 10
0.413233 13.1492 -1.15098 0.886278 10
0.41324 13.1495 -0.689474 0.888428 10
0.413247 13.1497 -0.229642 0.889497 10
0.413254 13.1499 0.229646 0.889482 10
0.413261 13.1501 0.68951 0.888383 10
0.396295 12.6103 1.1038 0.886201 10
0.413275 13.1506 1.61549 0.68844 10
0.413283 13.1508 2.08391 0.685058 10
0.41329 13.1511 2.55757 0.680842 10
0.413297 13.1513 3.03771 0.675796 10
0.413305 13.1515 3.52568 0.669928 10
0.284473 10.1842 -2.72991 0.098201 1
