VERSION 0.7
FIELDS x y z intensity label
SIZE 4 4 4 4 4
TYPE F F F F F
COUNT 1 1 1 1 1
WIDTH 1249
HEIGHT 1
VIEWPOINT 31.0223 7.49393 2.72649 0.999999 0.000360492 0.000868131 -0.00135384
POINTS 1249
DATA ascii
-7.23238 12.2293 3.80698 0.577876 10
-5.23876 8.78811 -2.74142 0.097798 1
-6.08571 10.2089 -2.74391 0.0849233 1
-7.23701 12.1402 -2.7473 0.0719452 1
-8.31169 13.943 -2.57096 0.137933 10
-9.85846 16.5377 -2.364 0.760246 10
-9.85876 16.5382 -1.68449 0.763018 10
-9.96589 16.7179 -1.02001 0.299354 10
-12.9125 21.6609 -0.440174 0.505812 10
-12.9129 21.6615 0.440187 0.505797 10
-10.0055 16.7843 1.02406 0.0483489 10
-7.54339 12.6542 1.28888 0.37974 10
-7.29003 12.2291 3.81483 0.576686 10
-5.26948 8.76989 -2.74146 0.0977965 1
-6.12142 10.1878 -2.74395 0.0849219 1
-7.27949 12.1151 -2.74735 0.0719438 1
-8.36051 13.9142 -2.57102 0.137929 10
-9.93674 16.5375 -2.36891 0.75867 10
-9.93703 16.538 -1.68799 0.761436 10
-9.96554 16.5855 -1.01405 0.301116 10
-9.96672 16.5874 -0.337781 0.301448 10
-9.9679 16.5894 0.33782 0.301412 10
-9.96908 16.5913 1.01441 0.301009 10
-7.60329 12.654 1.29156 0.378952 10
-7.34791 12.229 3.82276 0.57549 10
-5.30014 8.75157 -2.7415 0.0977951 1
-6.15705 10.1665 -2.744 0.0849204 1
-7.32189 12.0899 -2.74741 0.0719423 1
-8.36535 13.8128 -2.55767 0.453673 10
-10.0153 16.5373 -2.37387 0.757084 10
-10.0156 16.5378 -1.69152 0.759844 10
-10.0159 16.5383 -1.01329 0.503109 10
-10.0162 16.5388 -0.3375 0.503708 10
-10.0165 16.5393 0.33751 0.503693 10
-10.0168 16.5397 1.01338 0.503064 10
-7.66344 12.6538 1.29426 0.37816 10
-7.40605 12.2288 3.83077 0.574286 10
-5.33073 8.73315 -2.74153 0.0977937 1
-6.1926 10.1451 -2.74405 0.084919 1
-7.36419 12.0645 -2.74746 0.0719409 1
-8.36508 13.7042 -2.54295 0.4563 10
-10.0943 16.5371 -2.37888 0.755489 10
-10.0946 16.5376 -1.6951 0.758243 10
-12.8919 21.1203 -1.29678 0.502049 10
-12.8923 21.1209 -0.431922 0.502646 10
-12.8926 21.1216 0.431934 0.502631 10
-10.1785 16.675 1.02384 0.0373789 10
-7.72383 12.6537 1.297 0.377363 10
-7.46442 12.2287 3.83886 0.573076 10
-5.36127 8.71461 -2.74158 0.0977923 1
-6.22808 10.1236 -2.74409 0.0849176 1
-7.40641 12.0389 -2.74752 0.0719394 1
-8.36481 13.5968 -2.52842 0.458921 10
-10.1735 16.5369 -2.38395 0.753884 10
-10.1739 16.5374 -1.6987 0.756633 10
-10.2357 16.6378 -1.02375 0.306379 10
-10.2369 16.6398 -0.341011 0.306717 10
-10.238 16.6417 0.341051 0.306681 10
-10.2359 16.6382 1.02377 0.0373816 10
-7.78449 12.6535 1.29976 0.376561 10
-7.52304 12.2285 3.84704 0.571858 10
-5.39173 8.69597 -2.74161 0.0977909 1
-6.26349 10.102 -2.74414 0.0849162 1
-7.44853 12.0133 -2.74757 0.071938 1
-8.36455 13.4906 -2.51409 0.461537 10
-10.2532 16.5366 -2.38906 0.752271 10
-10.2535 16.5371 -1.70235 0.755013 10
-10.2538 16.5376 -1.01978 0.49991 10
-10.2541 16.5381 -0.33966 0.500505 10
-10.2544 16.5386 0.339669 0.50049 10
-10.2547 16.5391 1.01987 0.499865 10
-7.8048 12.5879 3.96863 0.570634 10
-5.42213 8.67722 -2.74165 0.0977895 1
-6.29882 10.0802 -2.74418 0.0849147 1
-7.49057 11.9874 -2.74763 0.0719366 1
-8.36429 13.3857 -2.49995 0.464147 10
-10.3331 16.5364 -2.39423 0.750648 10
-10.3334 16.5369 -1.70603 0.753385 10
-12.8601 20.5804 -1.27183 0.498831 10
-12.8605 20.581 -0.423612 0.499425 10
-12.8608 20.5816 0.423624 0.49941 10
-10.3503 16.564 1.02362 0.0373869 10
-7.86567 12.5877 3.97721 0.569403 10
-5.45246 8.65837 -2.74169 0.0977881 1
-6.33407 10.0583 -2.74423 0.0849133 1
-7.53252 11.9614 -2.74768 0.0719351 1
-8.36403 13.2819 -2.48601 0.466751 10
-10.4004 16.5155 -2.39644 0.0707639 10
-10.4137 16.5367 -1.70974 0.751747 10
-10.5058 16.6829 -1.03323 0.311608 10
-10.507 16.6848 -0.34417 0.311952 10
-10.5082 16.6867 0.344209 0.311917 10
-10.4074 16.5266 1.02355 0.0350678 10
-7.96803 12.653 1.30821 0.374129 10
-7.96827 12.6534 1.83604 0.372747 10
-7.96851 12.6538 2.36845 0.370912 10
-7.96876 12.6542 2.90681 0.368624 10
-7.96901 12.6546 3.45257 0.365888 10
-7.9268 12.5875 3.98588 0.568165 10
-5.48273 8.6394 -2.74173 0.0977867 1
-6.36924 10.0363 -2.74428 0.0849119 1
-7.57437 11.9353 -2.74773 0.0719337 1
-8.36378 13.1792 -2.47224 0.469349 10
-10.4583 16.4796 -2.39651 0.0707617 10
-10.4944 16.5365 -1.7135 0.7501 10
-10.5054 16.5539 -1.02751 0.313343 10
-10.5066 16.5558 -0.342264 0.31369 10
-10.5078 16.5577 0.342302 0.313654 10
-10.4642 16.489 1.02348 0.0350703 10
-7.98819 12.5874 3.99463 0.566919 10
-5.51293 8.62033 -2.74177 0.0977853 1
-6.40435 10.0142 -2.74432 0.0849105 1
-7.61614 11.909 -2.74779 0.0719323 1
-8.39163 13.1216 -2.46692 0.742098 10
-10.5161 16.4435 -2.39659 0.0707595 10
-10.5754 16.5363 -1.71729 0.748444 10
-10.5757 16.5368 -1.02873 0.49556 10
-10.576 16.5373 -0.342641 0.49615 10
-10.5763 16.5377 0.342651 0.496135 10
-10.521 16.4512 1.02341 0.0350727 10
-8.04986 12.5872 4.00347 0.565667 10
-5.54307 8.60116 -2.74181 0.0977839 1
-6.43937 9.99195 -2.74437 0.0849091 1
-7.65781 11.8826 -2.74784 0.0719309 1
-8.45619 13.1214 -2.47242 0.740447 10
-10.5737 16.4072 -2.39666 0.0707573 10
-10.6567 16.536 -1.72112 0.746778 10
-12.9151 20.0403 -1.24947 0.494457 10
-12.9155 20.0409 -0.416166 0.495046 10
-12.9158 20.0415 0.416178 0.495031 10
-10.5776 16.4133 1.02334 0.0350752 10
-8.1118 12.5871 4.0124 0.564408 10
-5.57314 8.58188 -2.74185 0.0977825 1
-6.47431 9.96957 -2.74441 0.0849078 1
-7.69939 11.856 -2.74789 0.0719295 1
-8.52105 13.1213 -2.47797 0.738787 10
-10.6313 16.3707 -2.39673 0.0707551 10
-10.7385 16.5358 -1.72499 0.745104 10
-10.7755 16.5929 -1.03687 0.318527 10
-10.7767 16.5947 -0.345382 0.31888 10
-10.7779 16.5966 0.34542 0.318844 10
-10.6341 16.3751 1.02327 0.0350776 10
-8.17403 12.5869 4.02142 0.563142 10
-5.60314 8.56249 -2.74189 0.0977812 1
-6.50918 9.94707 -2.74445 0.0849064 1
-7.74088 11.8293 -2.74795 0.0719282 1
-8.58619 13.1211 -2.48358 0.737118 10
-10.6887 16.334 -2.39681 0.0707529 10
-10.8206 16.5356 -1.72889 0.743421 10
-10.8209 16.5361 -1.03568 0.492234 10
-10.8212 16.5366 -0.344956 0.49282 10
-10.8216 16.5371 0.344967 0.492805 10
-10.6905 16.3368 1.0232 0.03508 10
-8.23652 12.5867 4.03053 0.56187 10
-5.63307 8.543 -2.74192 0.0977798 1
-6.54397 9.92445 -2.7445 0.084905 1
-7.78227 11.8024 -2.748 0.0719268 1
-8.65164 13.1209 -2.48925 0.73544 10
-10.7459 16.2971 -2.39688 0.0707508 10
-10.9031 16.5354 -1.73284 0.741728 10
-12.8582 19.5004 -1.22415 0.491113 10
-12.8586 19.501 -0.407729 0.491697 10
-12.859 19.5016 0.407741 0.491682 10
-10.7467 16.2982 1.02313 0.0350824 10
-8.29932 12.5866 4.03973 0.56059 10
-5.66293 8.5234 -2.74196 0.0977785 1
-6.57867 9.9017 -2.74454 0.0849037 1
-7.82357 11.7754 -2.74805 0.0719254 1
-8.71738 13.1207 -2.49498 0.733753 10
-10.8031 16.26 -2.39695 0.0707486 10
-10.9859 16.5351 -1.73682 0.740026 10
-11.0456 16.625 -1.04605 0.323675 10
-11.0468 16.6268 -0.348439 0.324035 10
-11.048 16.6286 0.348477 0.323999 10
-10.8028 16.2595 1.02306 0.0350848 10
-8.36239 12.5864 4.04902 0.559304 10
-5.69273 8.5037 -2.742 0.0977771 1
-6.6133 9.87884 -2.74459 0.0849023 1
-7.86477 11.7483 -2.7481 0.071924 1
-8.78343 13.1205 -2.50076 0.732057 10
-9.56742 14.2917 -2.11171 0.48972 10
-9.56848 14.2932 -1.50484 0.491466 10
-9.56953 14.2948 -0.901532 0.492613 10
-9.57058 14.2964 -0.300299 0.49316 10
-9.57163 14.2979 0.300332 0.493106 10
-9.57267 14.2995 0.901828 0.492451 10
-8.42575 12.5862 4.05841 0.55801 10
-5.72245 8.48389 -2.74204 0.0977758 1
-6.64785 9.85585 -2.74463 0.084901 1
-7.90589 11.721 -2.74816 0.0719227 1
-8.84979 13.1204 -2.50659 0.730352 10
-9.56715 14.1839 -2.1007 0.492285 10
-9.5682 14.1854 -1.497 0.49404 10
-9.56925 14.187 -0.896834 0.495193 10
-9.57029 14.1885 -0.298734 0.495744 10
-9.57133 14.1901 0.298767 0.49569 10
-9.57238 14.1916 0.897127 0.495032 10
-8.48942 12.5861 4.06788 0.55671 10
-5.75211 8.46398 -2.74207 0.0977745 1
-6.68232 9.83274 -2.74467 0.0848996 1
-7.9469 11.6935 -2.74821 0.0719213 1
-8.91645 13.1202 -2.51249 0.728638 10
-9.56688 14.0772 -2.08984 0.494843 10
-9.56793 14.0788 -1.48926 0.496608 10
-9.56897 14.0803 -0.892196 0.497768 10
-9.57 14.0818 -0.297189 0.498321 10
-9.57104 14.0834 0.297221 0.498267 10
-9.57208 14.0849 0.892486 0.497606 10
-8.59784 12.6513 1.33826 0.365727 10
-8.5981 12.6517 1.87822 0.364376 10
-8.59837 12.6521 2.42286 0.362582 10
-8.59864 12.6525 2.97359 0.360345 10
-8.59891 12.6529 3.53189 0.35767 10
-8.55337 12.5859 4.07746 0.555404 10
-5.7817 8.44396 -2.74211 0.0977732 1
-6.71671 9.8095 -2.74472 0.0848983 1
-7.98782 11.6659 -2.74826 0.07192 1
-8.98344 13.12 -2.51844 0.726916 10
-9.59875 14.0186 -2.0861 0.730468 10
-9.59905 14.0191 -1.48647 0.733131 10
-9.59935 14.0195 -0.89046 0.7349 10
-9.59964 14.0199 -0.296588 0.735774 10
-9.59993 14.0203 0.296597 0.735751 10
-9.60023 14.0208 0.890541 0.734833 10
-8.63887 12.6168 1.33778 0.24833 10
-8.63981 12.6181 1.87769 0.247393 10
-8.64076 12.6195 2.42237 0.246155 10
-8.64172 12.6209 2.97323 0.244618 10
-8.64269 12.6223 3.53175 0.242782 10
-8.61764 12.5857 4.08712 0.55409 10
-5.81122 8.42384 -2.74215 0.0977718 1
-6.75101 9.78615 -2.74476 0.084897 1
-8.02864 11.6382 -2.74831 0.0719187 1
-9.05074 13.1198 -2.52446 0.725184 10
-9.67066 14.0184 -2.09108 0.728728 10
-9.67096 14.0189 -1.49002 0.731384 10
-9.67126 14.0193 -0.892586 0.733149 10
-9.67155 14.0197 -0.297296 0.734021 10
-9.67185 14.0202 0.297305 0.733999 10
-9.67215 14.0206 0.892668 0.733082 10
-8.66872 12.566 1.3356 0.390992 10
-8.66966 12.5674 1.87464 0.389518 10
-8.6706 12.5688 2.41843 0.387569 10
-8.67156 12.5701 2.96839 0.385148 10
-8.67253 12.5716 3.52599 0.382258 10
-8.6822 12.5856 4.09688 0.55277 10
-5.84067 8.40362 -2.74218 0.0977705 1
-6.78524 9.76268 -2.7448 0.0848957 1
-8.06937 11.6103 -2.74836 0.0719173 1
-9.11837 13.1196 -2.53053 0.723444 10
-9.74292 14.0182 -2.09611 0.726979 10
-9.74323 14.0187 -1.49361 0.729629 10
-9.74353 14.0191 -0.894734 0.731389 10
-9.74383 14.0195 -0.298011 0.732259 10
-9.74412 14.02 0.29802 0.732237 10
-9.74442 14.0204 0.894816 0.731322 10
-8.66845 12.4723 1.32885 0.39298 10
-8.66939 12.4736 1.86515 0.391499 10
-8.67033 12.475 2.40619 0.38954 10
-8.67128 12.4763 2.95337 0.387107 10
-8.67225 12.4777 3.50815 0.384202 10
-8.74709 12.5854 4.10674 0.551443 10
-5.87004 8.38329 -2.74222 0.0977692 1
-6.81938 9.73909 -2.74484 0.0848943 1
-8.10999 11.5823 -2.74841 0.071916 1
-9.18631 13.1194 -2.53666 0.721695 10
-9.81553 14.018 -2.10119 0.725221 10
-9.81583 14.0185 -1.49723 0.727865 10
-9.81614 14.0189 -0.896902 0.729621 10
-9.81644 14.0193 -0.298734 0.730489 10
-9.81674 14.0198 0.298743 0.730466 10
-9.81704 14.0202 0.896985 0.729554 10
-8.66819 12.3795 1.32217 0.394963 10
-8.66912 12.3808 1.85578 0.393475 10
-8.67006 12.3821 2.39411 0.391506 10
-8.67101 12.3835 2.93853 0.389061 10
-8.67197 12.3849 3.49052 0.386142 10
-8.81228 12.5852 4.1167 0.550109 10
-5.89935 8.36286 -2.74226 0.0977679 1
-6.85344 9.71537 -2.74489 0.084893 1
-8.15053 11.5541 -2.74846 0.0719147 1
-9.2546 13.1192 -2.54286 0.719936 10
-9.88849 14.0178 -2.10633 0.723455 10
-9.8888 14.0183 -1.50088 0.726091 10
-9.88911 14.0187 -0.899093 0.727843 10
-9.88941 14.0191 -0.299463 0.728709 10
-9.88972 14.0196 0.299472 0.728686 10
-9.89002 14.02 0.899176 0.727776 10
-8.66793 12.2876 1.31558 0.396942 10
-8.66885 12.2889 1.84653 0.395446 10
-8.66979 12.2902 2.38217 0.393468 10
-8.67073 12.2915 2.92388 0.391011 10
-8.67169 12.2929 3.47312 0.388077 10
-8.87779 12.5851 4.12676 0.548768 10
-5.92858 8.34233 -2.74229 0.0977667 1
-6.88741 9.69154 -2.74493 0.0848918 1
-8.19095 11.5258 -2.74851 0.0719134 1
-9.32321 13.119 -2.54911 0.71817 10
-9.96181 14.0176 -2.11151 0.721679 10
-9.96212 14.0181 -1.50458 0.72431 10
-9.96243 14.0185 -0.901305 0.726057 10
-9.96273 14.0189 -0.3002 0.72692 10
-9.96304 14.0194 0.300209 0.726898 10
-9.96335 14.0198 0.901388 0.72599 10
-8.68682 12.2235 1.31197 0.564666 10
-8.68709 12.2239 1.84132 0.56258 10
-8.68737 12.2243 2.37526 0.559809 10
-8.68764 12.2247 2.91518 0.556356 10
-8.68792 12.2251 3.46251 0.552225 10
-8.94362 12.5849 4.13691 0.547421 10
-5.95774 8.32169 -2.74233 0.0977654 1
-6.9213 9.66758 -2.74497 0.0848905 1
-8.23128 11.4973 -2.74856 0.0719121 1
-9.39217 13.1188 -2.55543 0.716395 10
-10.0355 14.0174 -2.11674 0.719895 10
-10.0358 14.0179 -1.5083 0.722519 10
-10.0361 14.0183 -0.903538 0.724262 10
-10.0364 14.0187 -0.300944 0.725123 10
-10.0367 14.0192 0.300953 0.725101 10
-10.037 14.0196 0.903623 0.724195 10
-8.75107 12.2234 1.31522 0.563269 10
-8.75135 12.2238 1.84588 0.561189 10
-8.75162 12.2241 2.38115 0.558425 10
-8.7519 12.2245 2.9224 0.55498 10
-8.75219 12.2249 3.47109 0.550859 10
-9.00977 12.5847 4.14717 0.546067 10
-5.98683 8.30095 -2.74236 0.0977641 1
-6.95512 9.64351 -2.74501 0.0848892 1
-8.27152 11.4687 -2.74861 0.0719108 1
-9.46147 13.1187 -2.56181 0.71461 10
-10.1095 14.0172 -2.12203 0.718102 10
-10.1099 14.0177 -1.51207 0.720719 10
-10.1102 14.0181 -0.905795 0.722458 10
-10.1105 14.0185 -0.301696 0.723317 10
-10.1108 14.019 0.301705 0.723294 10
-10.1111 14.0194 0.905879 0.722391 10
-9.07481 12.5825 1.35726 0.561866 10
-9.07509 12.5829 1.90489 0.559791 10
-9.07538 12.5833 2.45727 0.557033 10
-9.07567 12.5837 3.01583 0.553597 10
-9.07596 12.5841 3.58206 0.549487 10
-9.07626 12.5846 4.15753 0.544707 10
-6.01585 8.28011 -2.7424 0.0977629 1
-6.98884 9.61932 -2.74505 0.0848879 1
-8.31165 11.44 -2.74866 0.0719095 1
-9.53112 13.1185 -2.56825 0.712817 10
-10.184 14.017 -2.12736 0.7163 10
-10.1843 14.0175 -1.51587 0.718911 10
-10.1846 14.0179 -0.908073 0.720645 10
-10.1849 14.0183 -0.302455 0.721502 10
-10.1852 14.0188 0.302464 0.72148 10
-10.1855 14.0192 0.908158 0.720578 10
-9.14161 12.5824 1.36068 0.560456 10
-9.1419 12.5827 1.90968 0.558386 10
-9.14219 12.5831 2.46345 0.555636 10
-9.14248 12.5836 3.02342 0.552208 10
-9.14278 12.584 3.59107 0.548108 10
-9.14308 12.5844 4.16799 0.54334 10
-6.04479 8.25916 -2.74244 0.0977616 1
-7.02248 9.59501 -2.74509 0.0848866 1
-8.35168 11.4111 -2.74871 0.0719083 1
-9.60112 13.1183 -2.57476 0.711016 10
-10.2588 14.0168 -2.13275 0.71449 10
-10.2591 14.0173 -1.51972 0.717094 10
-10.2594 14.0177 -0.910374 0.718824 10
-10.2597 14.0181 -0.303221 0.719678 10
-10.26 14.0186 0.30323 0.719656 10
-10.2604 14.019 0.91046 0.718756 10
-9.20876 12.5822 1.36413 0.559039 10
-9.20905 12.5826 1.91452 0.556974 10
-9.20934 12.583 2.4697 0.554231 10
-9.20964 12.5834 3.03108 0.550812 10
-9.20994 12.5838 3.60017 0.546722 10
-9.21025 12.5842 4.17855 0.541966 10
-6.07366 8.23812 -2.74247 0.0977603 1
-7.05604 9.57058 -2.74513 0.0848854 1
-8.39161 11.3821 -2.74876 0.071907 1
-9.67147 13.1181 -2.58133 0.709205 10
-11.5892 15.7192 -2.39793 0.0707198 10
-12.1883 16.5318 -1.79694 0.715268 10
-12.1887 16.5324 -1.07645 0.473593 10
-12.1891 16.5329 -0.358535 0.474156 10
-12.1895 16.5334 0.358546 0.474141 10
-11.5736 15.698 1.02212 0.0351169 10
-9.27624 12.582 1.36761 0.557616 10
-9.27654 12.5824 1.91941 0.555556 10
-9.27683 12.5828 2.476 0.552819 10
-9.27713 12.5832 3.03882 0.549409 10
-9.27744 12.5836 3.60936 0.545329 10
-9.27774 12.584 4.18922 0.540585 10
-6.10246 8.21697 -2.74251 0.0977591 1
-7.08951 9.54603 -2.74517 0.0848841 1
-8.43144 11.3529 -2.7488 0.0719057 1
-9.7422 13.1179 -2.58797 0.707386 10
-11.6443 15.6791 -2.398 0.0707178 10
-12.2774 16.5316 -1.80156 0.713433 10
-12.3957 16.6908 -1.08957 0.348875 10
-12.397 16.6925 -0.362934 0.349265 10
-12.3982 16.6942 0.36297 0.349229 10
-11.6276 15.6566 1.02206 0.0351191 10
-9.34408 12.5818 1.37113 0.556185 10
-9.34438 12.5822 1.92435 0.554131 10
-9.34468 12.5826 2.48237 0.551401 10
-9.34498 12.583 3.04663 0.547999 10
-9.34528 12.5834 3.61865 0.54393 10
-9.3456 12.5839 4.2 0.539198 10
-6.13118 8.19573 -2.74254 0.0977579 1
-7.12289 9.52136 -2.74521 0.0848829 1
-8.47116 11.3236 -2.74885 0.0719045 1
-9.81328 13.1177 -2.59467 0.705559 10
-11.6993 15.6388 -2.39806 0.0707159 10
-12.367 16.5313 -1.80623 0.71159 10
-12.3954 16.5693 -1.08446 0.350521 10
-12.3966 16.5709 -0.361229 0.350913 10
-12.3979 16.5726 0.361265 0.350878 10
-11.6814 15.6149 1.02199 0.0351213 10
-9.41226 12.5816 1.37468 0.554748 10
-9.41256 12.582 1.92933 0.552699 10
-9.41286 12.5824 2.4888 0.549976 10
-9.41317 12.5828 3.05453 0.546583 10
-9.41348 12.5833 3.62803 0.542525 10
-9.41379 12.5837 4.21088 0.537805 10
-6.15983 8.17437 -2.74257 0.0977566 1
-7.15619 9.49658 -2.74525 0.0848816 1
-8.51079 11.2942 -2.7489 0.0719032 1
-9.88473 13.1175 -2.60144 0.703723 10
-11.7542 15.5983 -2.39813 0.0707139 10
-12.4571 16.5311 -1.81094 0.709738 10
-12.4575 16.5316 -1.08483 0.469931 10
-12.4579 16.5321 -0.361329 0.470489 10
-12.4583 16.5327 0.36134 0.470475 10
-11.7351 15.5731 1.02193 0.0351234 10
-9.4808 12.5814 1.37827 0.553304 10
-9.4811 12.5818 1.93437 0.55126 10
-9.48141 12.5823 2.4953 0.548544 10
-9.48172 12.5827 3.0625 0.54516 10
-9.48203 12.5831 3.63749 0.541112 10
-9.48235 12.5835 4.22188 0.536405 10
-6.18841 8.15293 -2.74261 0.0977554 1
-7.18939 9.47168 -2.74529 0.0848804 1
-8.5503 11.2646 -2.74895 0.071902 1
-9.95656 13.1173 -2.60828 0.701878 10
-11.8089 15.5576 -2.3982 0.070712 10
-12.5476 16.5308 -1.8157 0.707877 10
-12.6356 16.6468 -1.09528 0.535637 10
-12.6369 16.6484 -0.364832 0.536236 10
-12.6381 16.6501 0.364869 0.536182 10
-11.7887 15.5311 1.02187 0.0351256 10
-9.5497 12.5813 1.38189 0.551853 10
-9.55 12.5817 1.93946 0.549815 10
-9.55031 12.5821 2.50186 0.547106 10
-9.55062 12.5825 3.07055 0.543731 10
-9.55094 12.5829 3.64706 0.539693 10
-9.55126 12.5833 4.23297 0.534998 10
-6.2169 8.13138 -2.74264 0.0977542 1
-7.22252 9.44666 -2.74533 0.0848792 1
-8.58972 11.2349 -2.74899 0.0719007 1
-10.0288 13.1171 -2.61519 0.700025 10
-11.8634 15.5167 -2.39826 0.0707101 10
-12.6386 16.5306 -1.82051 0.706008 10
-12.639 16.5311 -1.09056 0.707711 10
-12.6394 16.5317 -0.363237 0.708552 10
-12.6398 16.5322 0.363249 0.70853 10
-11.8421 15.4889 1.0218 0.0351278 10
-9.61895 12.5811 1.38555 0.550396 10
-9.61926 12.5815 1.94459 0.548363 10
-9.61958 12.5819 2.50848 0.545661 10
-9.61989 12.5823 3.07868 0.542295 10
-9.62021 12.5827 3.65672 0.538268 10
-9.62053 12.5831 4.24418 0.533585 10
-6.24533 8.10972 -2.74268 0.097753 1
-7.25555 9.42153 -2.74537 0.084878 1
-8.62903 11.205 -2.74904 0.0718995 1
-10.1014 13.1169 -2.62216 0.698163 10
-11.9178 15.4756 -2.39833 0.0707081 10
-12.7301 16.5303 -1.82537 0.704131 10
-12.7305 16.5309 -1.09347 0.705829 10
-12.7309 16.5314 -0.364206 0.706668 10
-12.7313 16.5319 0.364217 0.706645 10
-11.8954 15.4465 1.02174 0.0351299 10
-9.68859 12.5809 1.38925 0.548932 10
-9.6889 12.5813 1.94978 0.546904 10
-9.68922 12.5817 2.51517 0.544209 10
-9.68953 12.5821 3.0869 0.540852 10
-9.68986 12.5825 3.66647 0.536836 10
-9.69018 12.583 4.25551 0.532165 10
-6.27367 8.08798 -2.74271 0.0977518 1
-7.2885 9.39628 -2.74541 0.0848768 1
-8.66824 11.175 -2.74909 0.0718983 1
-10.1743 13.1167 -2.6292 0.696293 10
-11.9721 15.4344 -2.39839 0.0707062 10
-12.8221 16.5301 -1.83027 0.702244 10
-12.8225 16.5306 -1.09641 0.703938 10
-12.8229 16.5312 -0.365185 0.704774 10
-12.8233 16.5317 0.365196 0.704752 10
-11.9485 15.4039 1.02168 0.035132 10
-9.75859 12.5807 1.39298 0.547461 10
-9.75891 12.5811 1.95502 0.545438 10
-9.75922 12.5815 2.52193 0.542751 10
-9.75954 12.5819 3.09519 0.539403 10
-9.75987 12.5824 3.67632 0.535397 10
-9.7602 12.5828 4.26694 0.530739 10
-6.30195 8.06612 -2.74274 0.0977506 1
-7.32136 9.37091 -2.74545 0.0848756 1
-8.70734 11.1449 -2.74913 0.0718971 1
-10.2477 13.1165 -2.63632 0.694414 10
-12.0262 15.3929 -2.39845 0.0707043 10
-12.9145 16.5298 -1.83522 0.700349 10
-12.9149 16.5304 -1.09938 0.702038 10
-12.9154 16.5309 -0.366173 0.702872 10
-12.9158 16.5314 0.366184 0.70285 10
-12.0015 15.3612 1.02162 0.0351341 10
-9.82898 12.5805 1.39675 0.545983 10
-9.8293 12.5809 1.96031 0.543966 10
-9.82962 12.5813 2.52876 0.541286 10
-9.82994 12.5818 3.10357 0.537947 10
-9.83027 12.5822 3.68627 0.533952 10
-9.8306 12.5826 4.27849 0.529307 10
-5.8901 7.48499 -2.55211 0.0213608 4
-7.35413 9.34543 -2.74549 0.0848744 1
-8.74634 11.1146 -2.74918 0.0718959 1
-10.3215 13.1163 -2.6435 0.692527 10
-12.0802 15.3512 -2.39852 0.0707025 10
-18.3261 23.2884 -2.59267 0.188516 4
-31.2038 39.653 -2.64441 0.19207 4
-46.1925 58.7002 -1.30382 0.422907 10
-46.194 58.7021 1.30386 0.422865 10
-12.0543 15.3183 1.02156 0.0351362 10
-9.89974 12.5803 1.40056 0.544499 10
-9.90006 12.5807 1.96565 0.542488 10
-9.90038 12.5812 2.53565 0.539815 10
-9.90071 12.5816 3.11203 0.536484 10
-9.90104 12.582 3.69632 0.5325 10
-9.90138 12.5824 4.29015 0.527867 10
-5.91627 7.46447 -2.55215 0.0759487 4
-7.38681 9.31983 -2.74553 0.0848732 1
-8.78523 11.0842 -2.74923 0.0718947 1
-10.3957 13.1161 -2.65076 0.690631 10
-12.134 15.3094 -2.39858 0.0707006 10
-31.4246 39.648 -2.65137 0.171153 4
-46.5245 58.6993 -1.3074 0.424791 10
-46.526 58.7012 1.30744 0.424749 10
-12.107 15.2752 1.0215 0.0351383 10
-9.9709 12.5801 1.4044 0.543008 10
-9.97122 12.5805 1.97105 0.541002 10
-9.97155 12.581 2.54261 0.538337 10
-9.97188 12.5814 3.12057 0.535015 10
-9.97221 12.5818 3.70647 0.531042 10
-9.97255 12.5822 4.30194 0.526422 10
-5.94236 7.44386 -2.55218 0.0866279 4
-7.4194 9.29412 -2.74557 0.084872 1
-8.82401 11.0537 -2.74927 0.0718935 1
-10.4702 13.1159 -2.65808 0.688727 10
-12.1877 15.2673 -2.39864 0.0706987 10
-18.4344 23.0924 -2.58512 0.0278134 4
-31.6466 39.643 -2.65841 0.220813 4
-46.8583 58.6984 -1.31102 0.426669 10
-46.8598 58.7003 1.31106 0.426628 10
-12.1595 15.232 1.02144 0.0351404 10
-10.0424 12.5799 1.40828 0.541511 10
-10.0428 12.5804 1.9765 0.53951 10
-10.0431 12.5808 2.54964 0.536852 10
-10.0434 12.5812 3.1292 0.53354 10
-10.0438 12.5816 3.71672 0.529578 10
-10.0441 12.582 4.31383 0.52497 10
-5.96838 7.42316 -2.55221 0.0836602 4
-7.4519 9.26829 -2.7456 0.0848708 1
-8.86269 11.023 -2.74932 0.0718923 1
-10.5453 13.1156 -2.66549 0.686815 10
-12.2413 15.2251 -2.39871 0.0706969 10
-31.8697 39.6379 -2.66551 0.234282 4
-47.194 58.6975 -1.31467 0.428543 10
-47.1956 58.6994 1.31471 0.428501 10
-12.2119 15.1886 1.02138 0.0351424 10
-10.1144 12.5798 1.41221 0.540007 10
-10.1147 12.5802 1.982 0.538012 10
-10.1151 12.5806 2.55675 0.535361 10
-10.1154 12.581 3.13792 0.532058 10
-10.1157 12.5814 3.72708 0.528106 10
-10.1161 12.5819 4.32585 0.523512 10
-5.99432 7.40237 -2.55224 0.0848459 4
-7.48431 9.24235 -2.74564 0.0848697 1
-8.90125 10.9921 -2.74936 0.0718912 1
-10.6207 13.1154 -2.67296 0.684894 10
-12.2947 15.1826 -2.39877 0.0706951 10
-19.4214 23.9834 -2.69998 0.0408294 4
-47.5316 58.6966 -1.31835 0.430411 10
-17.7635 21.9361 0.492695 0.88325 5
-12.2641 15.145 1.02132 0.0351445 10
-10.1867 12.5796 1.41617 0.538497 10
-10.1871 12.58 1.98756 0.536507 10
-10.1874 12.5804 2.56392 0.533863 10
-10.1877 12.5808 3.14672 0.530569 10
-10.1881 12.5812 3.73753 0.526629 10
-10.1884 12.5817 4.33799 0.522047 10
-6.02019 7.38149 -2.55227 0.0854382 4
-7.51662 9.2163 -2.74568 0.0848685 1
-8.93971 10.9612 -2.74941 0.07189 1
-10.6965 13.1152 -2.68051 0.682965 10
-12.3479 15.14 -2.39883 0.0706932 10
-19.5057 23.9163 -2.70007 0.0398417 4
-47.871 58.6957 -1.32208 0.432274 10
-17.8118 21.8395 0.491919 0.884645 5
-12.3162 15.1012 1.02126 0.0351465 10
-10.2595 12.5794 1.42017 0.536979 10
-10.2598 12.5798 1.99318 0.534995 10
-10.2602 12.5802 2.57116 0.532359 10
-10.2605 12.5806 3.15561 0.529074 10
-10.2608 12.581 3.74809 0.525145 10
-10.2612 12.5815 4.35024 0.520576 10
-6.046 7.36052 -2.5523 0.0700111 4
-7.54885 9.19012 -2.74572 0.0848674 1
-8.97807 10.9301 -2.74945 0.0718888 1
-10.7728 13.115 -2.68814 0.681027 10
-12.401 15.0972 -2.39889 0.0706914 10
-48.2124 58.6948 -1.32584 0.434132 10
-17.4823 21.2833 0.480763 0.221127 5
-12.3682 15.0572 1.0212 0.0351485 10
-11.6789 14.2182 1.60978 0.387262 10
-48.2187 58.7024 9.32761 0.430796 10
-48.2203 58.7044 12.0324 0.428645 10
-12.8215 15.6091 3.92646 0.404063 10
-11.6621 14.1976 4.2418 0.491138 10
-11.6809 14.2206 4.93105 0.375432 10
-6.07172 7.33945 -2.55233 0.0652638 4
-7.58099 9.16384 -2.74575 0.0848662 1
-9.01631 10.8989 -2.74949 0.0718877 1
-10.8495 13.1148 -2.69584 0.679082 10
-12.4539 15.0542 -2.39895 0.0706896 10
-48.5557 58.6938 -1.32964 0.435984 10
-17.5314 21.1919 0.480076 0.870822 5
-12.4199 15.0131 1.02114 0.0351505 10
-11.7621 14.2179 1.61439 0.386155 10
-48.5621 58.7015 9.35434 0.432634 10
-48.5637 58.7035 12.0669 0.430475 10
-12.8212 15.4981 3.90977 0.405788 10
-11.7451 14.1974 4.25395 0.489734 10
-11.7641 14.2204 4.94519 0.374359 10
-6.09737 7.3183 -2.55235 0.0688228 4
-7.61303 9.13745 -2.74579 0.0848651 1
-9.05444 10.8675 -2.74954 0.0718865 1
-10.9267 13.1146 -2.70362 0.677127 10
-12.5067 15.011 -2.39901 0.0706878 10
-48.9011 58.6929 -1.33348 0.437831 10
-17.6494 21.1834 0.481278 0.422862 5
-12.4716 14.9688 1.02109 0.0351525 10
-11.8458 14.2177 1.61905 0.385044 10
-48.9075 58.7006 9.38134 0.434468 10
-48.9092 58.7026 12.1018 0.4323 10
-12.8208 15.388 3.89327 0.407508 10
-11.8286 14.1972 4.26624 0.488325 10
-11.8478 14.2201 4.95946 0.373281 10
-6.12295 7.29705 -2.55238 0.0640757 4
-7.64498 9.11094 -2.74583 0.084864 1
-9.09247 10.836 -2.74958 0.0718854 1
-11.0043 13.1144 -2.71148 0.675165 10
-12.5594 14.9677 -2.39908 0.0706861 10
-17.994 21.4444 -2.44913 0.26073 5
-49.2484 58.6919 -1.33735 0.439673 10
-17.9439 21.3847 0.487271 0.618355 5
-12.523 14.9244 1.02103 0.0351545 10
-11.9299 14.2175 1.62376 0.383928 10
-49.2549 58.6997 9.40861 0.436296 10
-49.2565 58.7017 12.1369 0.434119 10
-12.8205 15.2789 3.87695 0.409223 10
-11.9127 14.197 4.27864 0.486909 10
-11.9319 14.2199 4.97388 0.372199 10
-6.14846 7.27572 -2.55241 0.0741609 4
-7.67684 9.08431 -2.74586 0.0848628 1
-9.13038 10.8043 -2.74962 0.0718843 1
-11.0823 13.1142 -2.71942 0.673194 10
-12.6118 14.9241 -2.39914 0.0706843 10
-18.0638 21.3756 -2.44845 0.418769 5
-18.0983 21.4165 -0.489431 0.181216 5
-18.0159 21.319 0.487203 0.737009 5
-12.5743 14.8797 1.02097 0.0351565 10
-12.0145 14.2173 1.62851 0.382807 10
-49.606 58.7008 12.1725 0.435933 10
-12.8202 15.1706 3.86081 0.410933 10
-11.9972 14.1968 4.29117 0.485487 10
-12.0166 14.2197 4.98845 0.371112 10
-6.17389 7.25429 -2.55244 0.0848391 4
-7.7086 9.05758 -2.7459 0.0848617 1
-9.16818 10.7726 -2.74967 0.0718832 1
-11.1608 13.1139 -2.72743 0.671216 10
-12.6642 14.8804 -2.39919 0.0706825 10
-49.9491 58.69 -1.34522 0.44334 10
-18.1431 21.3181 0.488628 0.73486 5
-12.6255 14.8349 1.02091 0.0351584 10
-12.0997 14.2171 1.63331 0.381681 10
-49.9575 58.6998 12.2084 0.437742 10
-12.8199 15.0633 3.84486 0.412638 10
-12.0822 14.1965 4.30382 0.48406 10
-12.1017 14.2195 5.00316 0.370021 10
-6.19924 7.23278 -2.55247 0.0878045 4
-7.74028 9.03073 -2.74593 0.0848606 1
-9.20587 10.7407 -2.74971 0.071882 1
-11.2398 13.1137 -2.73553 0.669229 10
-12.7164 14.8364 -2.39925 0.0706808 10
-50.3026 58.6891 -1.34922 0.445166 10
-18.5127 21.5991 0.496547 0.885894 5
-12.6765 14.7899 1.02086 0.0351604 10
-12.1853 14.2168 1.63816 0.380551 10
-50.3111 58.6989 12.2446 0.439545 10
-12.8196 14.9568 3.82908 0.414339 10
-12.1677 14.1963 4.31661 0.482626 10
-12.1874 14.2193 5.01802 0.368925 10
-6.22452 7.21118 -2.5525 0.0860237 4
-7.77185 9.00378 -2.74597 0.0848595 1
-9.24345 10.7086 -2.74975 0.0718809 1
-11.3193 13.1135 -2.74371 0.667234 10
-12.7684 14.7923 -2.39931 0.0706791 10
-50.6582 58.6881 -1.35325 0.446986 10
-18.6797 21.6406 0.498997 0.393724 5
-12.7274 14.7448 1.0208 0.0351623 10
-12.2714 14.2166 1.64306 0.379417 10
-50.665 58.696 9.52048 0.443556 10
-50.6667 58.698 12.2812 0.441343 10
-12.8192 14.8512 3.81348 0.416034 10
-12.2537 14.1961 4.32952 0.481187 10
-12.2735 14.219 5.03303 0.367825 10
-6.24972 7.18949 -2.55253 0.0688182 4
-7.80333 8.97671 -2.74601 0.0848584 1
-9.28091 10.6765 -2.74979 0.0718798 1
-11.3992 13.1133 -2.75197 0.665231 10
-12.8081 14.7341 -2.39711 0.57805 10
-51.0159 58.6872 -1.35733 0.4488 10
-18.2164 20.9556 0.484664 0.873097 5
-12.7781 14.6995 1.02075 0.0351642 10
-12.3581 14.2164 1.64801 0.378277 10
-51.0228 58.695 9.54916 0.445357 10
-51.0245 58.697 12.3182 0.443136 10
-12.8189 14.7465 3.79805 0.417723 10
-12.3403 14.1959 4.34256 0.479742 10
-12.3602 14.2188 5.04819 0.36672 10
-6.27485 7.1677 -2.55255 0.084242 4
-7.83472 8.94953 -2.74604 0.0848574 1
-9.31827 10.6442 -2.74984 0.0718788 1
-11.4588 13.0893 -2.75531 0.0588126 1
-12.8079 14.6303 -2.38748 0.580379 10
-51.3759 58.6862 -1.36144 0.45061 10
-18.2536 20.8509 0.483714 0.167033 5
-12.8286 14.654 1.02069 0.0351661 10
-12.4453 14.2161 1.65301 0.377133 10
-51.3828 58.6941 9.57813 0.447153 10
-51.3845 58.6961 12.3556 0.444923 10
-12.8186 14.6426 3.78279 0.419409 10
-12.4273 14.1956 4.35573 0.478291 10
-12.4474 14.2186 5.06351 0.365611 10
-6.2999 7.14583 -2.55258 0.0747492 4
-7.86601 8.92224 -2.74608 0.0848563 1
-9.3555 10.6117 -2.74988 0.0718777 1
-11.5046 13.0494 -2.75536 0.0588115 1
-12.8076 14.5274 -2.37797 0.582702 10
-51.7379 58.6852 -1.3656 0.452413 10
-51.7397 58.6872 1.36565 0.452372 10
-12.879 14.6083 1.02064 0.035168 10
-12.533 14.2159 1.65806 0.375985 10
-51.7449 58.6931 9.60739 0.448944 10
-51.7467 58.6951 12.3934 0.446705 10
-12.6601 14.3601 3.7212 0.125295 10
-12.5149 14.1954 4.36904 0.476834 10
-12.5352 14.2184 5.07898 0.364497 10
-6.32487 7.12388 -2.55261 0.0818673 4
-7.89721 8.89484 -2.74611 0.0848552 1
-9.39263 10.5792 -2.74992 0.0718766 1
-11.5503 13.0094 -2.75541 0.0588104 1
-12.8074 14.4253 -2.36855 0.585018 10
-33.218 37.4144 -2.62211 0.189946 4
-52.1023 58.6842 -1.3698 0.454212 10
-52.104 58.6862 1.36985 0.45417 10
-12.9292 14.5625 1.02058 0.0351698 10
-12.6213 14.2157 1.66316 0.374831 10
-52.1111 58.6942 12.4315 0.448481 10
-12.71 14.3156 3.72114 0.125297 10
-12.6031 14.1952 4.38249 0.475371 10
-12.6235 14.2181 5.09461 0.363379 10
-6.34977 7.10183 -2.55264 0.0789002 4
-7.92831 8.86733 -2.74614 0.0848542 1
-9.42964 10.5465 -2.74996 0.0718755 1
-11.5959 12.9693 -2.75546 0.0588093 1
-12.8071 14.324 -2.35925 0.587326 10
-33.4517 37.4138 -2.63023 0.223788 4
-52.4688 58.6832 -1.37405 0.456004 10
-52.4706 58.6852 1.37409 0.455963 10
-12.9793 14.5165 1.02053 0.0351717 10
-12.71 14.2154 1.66831 0.373674 10
-52.4778 58.6932 12.47 0.450252 10
-12.7597 14.2709 3.72109 0.125299 10
-12.6917 14.1949 4.39606 0.473903 10
-12.7123 14.2179 5.11039 0.362257 10
-6.37459 7.0797 -2.55266 0.062289 4
-7.95931 8.83971 -2.74618 0.0848531 1
-9.46654 10.5137 -2.75 0.0718745 1
-11.6413 12.929 -2.75551 0.0588083 1
-12.8068 14.2234 -2.35004 0.589627 10
-20.3027 22.5485 -2.65458 0.0803623 6
-33.6869 37.4131 -2.63843 0.241969 4
-52.8377 58.6822 -1.37833 0.457792 10
-52.8395 58.6842 1.37838 0.45775 10
-12.7994 14.2152 1.67352 0.372511 10
-52.8467 58.6922 12.5089 0.452018 10
-12.8092 14.2261 3.72104 0.125301 10
-12.781 14.1947 4.40978 0.472429 10
-12.8017 14.2177 5.12634 0.36113 10
-6.39933 7.05748 -2.55269 0.0723731 4
-7.99022 8.81198 -2.74621 0.0848521 1
-9.50332 10.4807 -2.75004 0.0718734 1
-11.6866 12.8885 -2.75556 0.0588072 1
-12.8066 14.1237 -2.34093 0.591921 10
-20.2981 22.3857 -2.64374 0.0712877 6
-33.9235 37.4125 -2.64672 0.184757 4
-53.2088 58.6812 -1.38266 0.459573 10
-53.2106 58.6832 1.38271 0.459532 10
-12.8893 14.2149 1.67878 0.371345 10
-53.218 58.6912 12.5482 0.453777 10
-12.8703 14.194 3.72437 0.474474 10
-12.8708 14.1945 4.42364 0.470949 10
-12.8916 14.2174 5.14245 0.359998 10
-6.42399 7.03517 -2.55272 0.0771181 4
-8.02102 8.78415 -2.74625 0.084851 1
-9.53998 10.4476 -2.75008 0.0718724 1
-11.7317 12.8478 -2.75561 0.0588062 1
-12.8063 14.0247 -2.33192 0.594208 10
-34.1617 37.4118 -2.6551 0.230218 4
-53.5823 58.6802 -1.38704 0.461349 10
-53.5842 58.6822 1.38708 0.461307 10
-53.5878 58.6862 6.95286 0.459539 10
-53.5915 58.6903 12.5879 0.455532 10
-12.9607 14.1937 3.73615 0.472977 10
-12.9611 14.1942 4.43764 0.469464 10
-6.44858 7.01278 -2.55275 0.0818629 4
-8.05174 8.7562 -2.74628 0.08485 1
-9.57653 10.4144 -2.75012 0.0718713 1
-11.7767 12.807 -2.75566 0.0588051 1
-12.8061 13.9265 -2.32301 0.596487 10
-20.4743 22.2656 -2.64638 0.05913 6
-34.4013 37.4112 -2.66356 0.161491 4
-53.9582 58.6792 -1.39146 0.46312 10
-53.9601 58.6812 1.39151 0.463078 10
-53.9638 58.6852 6.97501 0.461303 10
-53.9676 58.6893 12.628 0.457281 10
-53.9694 58.6913 15.4986 0.454432 10
-6.47308 6.9903 -2.55277 0.0854213 4
-8.08235 8.72815 -2.74631 0.084849 1
-9.61296 10.3811 -2.75016 0.0718703 1
-11.8215 12.7661 -2.75571 0.0588041 1
-12.2699 13.2503 -2.21734 0.106979 10
-20.4389 22.072 -1.57653 0.265357 6
-54.3365 58.6781 -1.39592 0.464884 10
-54.3384 58.6801 1.39597 0.464843 10
-54.3421 58.6842 6.9974 0.463061 10
-54.3459 58.6883 12.6686 0.459024 10
-54.3478 58.6904 15.5483 0.456165 10
-6.49751 6.96773 -2.5528 0.0830476 4
-8.11286 8.69998 -2.74634 0.084848 1
-9.64928 10.3476 -2.7502 0.0718693 1
-11.8662 12.7249 -2.75576 0.0588031 1
-12.3163 13.2076 -2.21739 0.106977 10
-20.1753 21.6354 -1.55036 0.189506 6
-54.7173 58.6771 -1.40043 0.466643 10
-54.7192 58.6791 1.40048 0.466602 10
-54.721 58.6811 4.20501 0.465992 10
-54.7229 58.6832 7.02001 0.464814 10
-54.7248 58.6852 9.85247 0.46307 10
-54.7268 58.6873 12.7095 0.460762 10
-54.7287 58.6894 15.5985 0.457892 10
-6.52186 6.94508 -2.55282 0.0694034 4
-8.14328 8.67172 -2.74638 0.084847 1
-9.68548 10.314 -2.75024 0.0718683 1
-11.9108 12.6837 -2.75581 0.058802 1
-12.3626 13.1649 -2.21744 0.106974 10
-55.1005 58.676 -1.40499 0.468397 10
-55.1024 58.6781 1.40504 0.468355 10
-55.1043 58.6801 4.21869 0.467743 10
-55.1062 58.6821 7.04285 0.466561 10
-55.1081 58.6842 9.88453 0.46481 10
-55.1101 58.6863 12.7509 0.462494 10
-55.112 58.6884 15.6493 0.459613 10
-6.54613 6.92234 -2.55285 0.0783005 4
-8.1736 8.64334 -2.74641 0.084846 1
-9.72156 10.2803 -2.75028 0.0718673 1
-11.9552 12.6422 -2.75585 0.058801 1
-12.4088 13.1219 -2.21749 0.106972 10
-20.4279 21.6019 -1.55814 0.0515956 6
-55.4862 58.675 -1.4096 0.470144 10
-55.4881 58.677 1.40964 0.470103 10
-55.4901 58.6791 4.23252 0.469488 10
-55.1786 58.3498 7.02604 0.517513 10
-55.4939 58.6832 9.91693 0.466545 10
-55.4979 58.6874 15.7006 0.461329 10
-6.57032 6.89952 -2.55288 0.0901633 4
-8.20381 8.61485 -2.74644 0.084845 1
-9.75752 10.2464 -2.75031 0.0718663 1
-11.9994 12.6006 -2.7559 0.0588 1
-12.4852 13.1107 -2.22294 0.641578 10
-20.424 21.4473 -1.55213 0.0513465 6
-55.8744 58.6739 -1.41425 0.471886 10
-55.8764 58.676 1.41429 0.471845 10
-55.8783 58.678 4.24649 0.471228 10
-55.1592 57.9229 6.99778 0.51595 10
-55.8822 58.6822 9.94966 0.468274 10
-55.8862 58.6863 15.7524 0.463039 10
-6.59443 6.87661 -2.5529 0.0634696 4
-8.23393 8.58626 -2.74647 0.084844 1
-9.79336 10.2124 -2.75035 0.0718653 1
-12.0435 12.5589 -2.75595 0.058799 1
-12.5725 13.1105 -2.23033 0.639453 10
-20.4211 21.2949 -1.54625 0.0510874 6
-56.2673 58.6749 1.419 0.473581 10
-55.1855 57.5469 6.97558 0.431207 10
-56.2772 58.6853 15.8048 0.464744 10
-6.61846 6.85362 -2.55293 0.0195745 4
-8.26395 8.55757 -2.7465 0.084843 1
-9.82908 10.1783 -2.75039 0.0718643 1
-12.0875 12.517 -2.75599 0.058798 1
-12.6604 13.1102 -2.23779 0.637321 10
-20.4202 21.1458 -1.54058 0.0502298 6
-56.6607 58.6739 1.42374 0.475311 10
-55.2296 57.192 6.95589 0.429353 10
-56.6707 58.6843 15.8577 0.466443 10
-6.64241 6.83054 -2.55295 0.0154222 4
-8.29386 8.52877 -2.74654 0.0848421 1
-9.86468 10.1441 -2.75043 0.0718633 1
-12.1313 12.4749 -2.75604 0.0587971 1
-12.7489 13.11 -2.24533 0.635181 10
-20.421 20.9994 -1.5351 0.0495146 6
-57.0568 58.6728 1.42854 0.477036 10
-55.2968 56.863 6.93931 0.325188 10
-57.0669 58.6833 15.9111 0.468136 10
-6.66628 6.80738 -2.55298 0.0551635 4
-8.32368 8.49986 -2.74657 0.0848411 1
-9.90017 10.1097 -2.75046 0.0718624 1
-12.175 12.4327 -2.75608 0.0587961 1
-12.838 13.1097 -2.25295 0.633032 10
-57.4556 58.6717 1.43339 0.478755 10
-55.3907 56.5632 6.92627 0.323086 10
-57.4659 58.6822 15.9652 0.469823 10
-6.69006 6.78413 -2.553 0.100836 4
-8.35339 8.47085 -2.7466 0.0848401 1
-9.93553 10.0752 -2.7505 0.0718614 1
-12.2185 12.3903 -2.75613 0.0587951 1
-12.9277 13.1095 -2.26065 0.630877 10
-20.425 20.7122 -1.52449 0.048943 6
-57.8571 58.6707 1.43829 0.480468 10
-32.1851 32.6376 2.40225 0.485294 10
-32.1879 32.6405 4.01063 0.484069 10
-32.1907 32.6433 5.62914 0.482254 10
-32.1935 32.6462 7.26188 0.479851 10
-32.1964 32.6491 8.91308 0.476864 10
-32.1993 32.6521 10.5871 0.473296 10
-32.2023 32.6551 12.2887 0.469151 10
-6.71377 6.7608 -2.55302 0.0581282 4
-8.383 8.44173 -2.74663 0.0848392 1
-9.97077 10.0406 -2.75054 0.0718605 1
-12.2619 12.3478 -2.75617 0.0587942 1
-15.868 15.9792 -2.76505 0.0456562 1
-20.4268 20.5699 -1.51926 0.0489792 6
-58.2614 58.6696 1.44324 0.482175 10
-32.1844 32.4099 2.39375 0.487019 10
-32.1872 32.4127 3.99642 0.485789 10
-32.19 32.4155 5.60921 0.483968 10
-32.1929 32.4184 7.23616 0.481557 10
-32.1957 32.4213 8.88151 0.478559 10
-32.1986 32.4242 10.5496 0.474978 10
-32.2016 32.4272 12.2452 0.470819 10
-6.73739 6.73739 -2.55305 0.0717698 4
-8.41251 8.41251 -2.74666 0.0848383 1
-10.0059 10.0059 -2.75057 0.0718595 1
-12.3051 12.3051 -2.75622 0.0587932 1
-15.924 15.924 -2.76511 0.0456553 1
-20.4287 20.4287 -1.51409 0.0487716 6
-32.1783 32.1783 -0.794327 0.62769 10
-32.181 32.181 0.794395 0.627636 10
-32.1838 32.1838 2.38533 0.488737 10
-32.1866 32.1866 3.98237 0.487503 10
-32.1894 32.1894 5.58948 0.485676 10
-32.1922 32.1922 7.21071 0.483256 10
-32.1951 32.1951 8.85027 0.480248 10
-32.1979 32.198 10.5125 0.476655 10
-32.2009 32.2009 12.2021 0.472481 10
-6.76093 6.71389 -2.55307 0.0753279 4
-8.44192 8.38318 -2.74669 0.0848373 1
-10.0409 9.97103 -2.75061 0.0718586 1
-12.3482 12.2623 -2.75626 0.0587923 1
-15.9798 15.8687 -2.76516 0.0456543 1
-20.4316 20.2894 -1.50904 0.0480509 6
-32.1777 31.9538 -0.791554 0.629889 10
-32.1804 31.9565 0.791621 0.629835 10
-32.1832 31.9593 2.377 0.49045 10
-32.1859 31.962 3.96846 0.489212 10
-32.1887 31.9648 5.56996 0.487378 10
-32.1915 31.9676 7.18553 0.48495 10
-32.1944 31.9704 8.81935 0.481932 10
-32.1973 31.9733 10.4758 0.478326 10
-32.2002 31.9762 12.1595 0.474137 10
-6.78439 6.69032 -2.5531 0.0776998 4
-8.47122 8.35376 -2.74672 0.0848364 1
-10.0758 9.93605 -2.75064 0.0718577 1
-12.3911 12.2193 -2.75631 0.0587914 1
-16.0355 15.8131 -2.76522 0.0456534 1
-20.306 20.0245 -2.49506 0.475872 6
-20.4355 20.1521 -1.50413 0.0475534 6
-32.2252 31.7784 -0.78999 0.626686 10
-32.2264 31.7795 0.790017 0.626664 10
-32.1826 31.7363 2.36876 0.492156 10
-32.1853 31.739 3.9547 0.490914 10
-32.1881 31.7418 5.55064 0.489074 10
-32.1909 31.7445 7.16061 0.486638 10
-32.1937 31.7473 8.78876 0.483609 10
-32.1966 31.7502 10.4395 0.479991 10
-32.1995 31.7531 12.1173 0.475788 10
-6.80776 6.66665 -2.55312 0.0937133 4
-8.50042 8.32422 -2.74675 0.0848355 1
-10.1105 9.90094 -2.75068 0.0718567 1
-12.4339 12.1762 -2.75635 0.0587904 1
-16.0605 15.7276 -2.76004 0.197598 4
-20.3069 19.886 -2.48663 0.0917756 6
-20.4289 20.0055 -1.4985 0.053261 6
-32.1765 31.5095 -0.786094 0.418948 10
-32.1792 31.5122 0.78616 0.418912 10
-32.1819 31.5149 2.3606 0.493857 10
-32.1847 31.5176 3.94108 0.492611 10
-32.1875 31.5203 5.53152 0.490764 10
-32.1903 31.523 7.13594 0.48832 10
-32.1931 31.5258 8.75849 0.485281 10
-32.1959 31.5286 10.4035 0.48165 10
-32.1989 31.5314 12.0756 0.477433 10
-6.83105 6.64291 -2.55314 0.0824433 4
-8.52951 8.29459 -2.74678 0.0848346 1
-10.1451 9.86572 -2.75071 0.0718558 1
-12.4765 12.1329 -2.75639 0.0587895 1
-16.0602 15.6178 -2.75061 0.232113 4
-20.3057 19.7465 -2.47803 0.4748 6
-20.4442 19.8812 -1.49452 0.0473241 6
-32.1759 31.2897 -0.783406 0.420385 10
-32.1786 31.2923 0.783472 0.420349 10
-31.8203 30.9439 2.32614 0.495551 10
-32.1841 31.2977 3.9276 0.494301 10
-31.8258 30.9492 5.45077 0.492448 10
-31.8285 30.9519 7.03176 0.489996 10
-31.8313 30.9546 8.63062 0.486946 10
-31.8341 30.9573 10.2516 0.483304 10
-31.837 30.9601 11.8992 0.479072 10
-6.85426 6.61909 -2.55317 0.084815 4
-8.5585 8.26486 -2.74681 0.0848337 1
-10.1796 9.83037 -2.75075 0.0718549 1
-12.519 12.0895 -2.75643 0.0587886 1
-16.0599 15.5089 -2.74128 0.154721 4
-20.3015 19.605 -2.46914 0.0988381 6
-20.4488 19.7472 -1.48981 0.0467343 6
-32.3479 31.2381 -0.784936 0.409548 10
-32.3491 31.2392 0.784964 0.409533 10
-31.9785 30.8813 2.32981 0.482823 10
-32.1835 31.0792 3.91427 0.495985 10
-31.9808 30.8836 5.45883 0.479847 10
-31.982 30.8847 7.04181 0.477481 10
-31.9832 30.8859 8.64252 0.474533 10
-31.9844 30.887 10.2652 0.471007 10
-31.8363 30.744 11.8588 0.480705 10
-6.87739 6.59518 -2.55319 0.0883728 4
-8.58739 8.23501 -2.74683 0.0848328 1
-10.214 9.79489 -2.75078 0.071854 1
-12.5613 12.0459 -2.75648 0.0587877 1
-16.0596 15.4006 -2.73203 0.246344 4
-20.3364 19.5019 -2.46509 0.0572155 6
-20.4375 19.5989 -1.48399 0.319546 6
-32.2933 30.9682 -0.780983 0.408073 10
-32.2945 30.9693 0.781011 0.408058 10
-32.1801 30.8596 2.33663 0.318502 10
-32.1829 30.8623 3.90107 0.497664 10
-32.1856 30.8649 5.47536 0.316508 10
-32.1884 30.8675 7.06348 0.314932 10
-32.1912 30.8702 8.66954 0.312972 10
-32.194 30.8729 10.2978 0.310631 10
-31.8824 30.5742 11.8362 0.18082 10
-6.90043 6.57119 -2.55321 0.0753238 4
-8.61617 8.20508 -2.74686 0.0848319 1
-10.2483 9.7593 -2.75082 0.0718532 1
-12.6035 12.0021 -2.75652 0.0587868 1
-16.0593 15.2931 -2.72289 0.207445 4
-20.4375 19.4624 -1.47905 0.215243 6
-32.2364 30.6984 -0.777011 0.406593 10
-32.2376 30.6995 0.777039 0.406578 10
-32.1823 30.6468 3.888 0.499336 10
-31.9887 30.4624 11.8361 0.180822 10
-6.92339 6.54712 -2.55324 0.0593096 4
-8.64485 8.17503 -2.74689 0.0848311 1
-10.2824 9.72359 -2.75085 0.0718523 1
-12.6455 11.9582 -2.75656 0.0587859 1
-16.0591 15.1863 -2.71384 0.201954 4
-22.45 21.2299 -2.70326 0.0388098 4
-20.4499 19.3385 -1.47505 0.199849 6
-32.1773 30.4285 -0.773019 0.405108 10
-32.1784 30.4296 0.773047 0.405093 10
-32.1816 30.4327 3.87507 0.501002 10
-32.0945 30.3503 11.836 0.180823 10
-6.94626 6.52297 -2.55326 0.0753225 4
-8.67342 8.14489 -2.74692 0.0848302 1
-10.3164 9.68775 -2.75088 0.0718514 1
-12.6873 11.9142 -2.7566 0.0587851 1
-16.0588 15.0802 -2.70488 0.190208 4
-20.4663 19.2191 -1.47138 0.241513 6
-32.173 30.2125 -0.770379 0.427494 10
-32.1757 30.215 0.770442 0.427458 10
-32.181 30.22 3.86227 0.502662 10
-32.1949 30.233 11.834 0.487179 10
-6.96905 6.49874 -2.55328 0.0723564 4
-8.70189 8.11464 -2.74695 0.0848294 1
-10.3503 9.6518 -2.75092 0.0718505 1
-12.729 11.87 -2.75664 0.0587842 1
-16.0585 14.9748 -2.69601 0.126858 4
-20.5173 19.1327 -1.47024 0.101774 6
-32.3406 30.1581 -0.771866 0.402124 10
-32.3418 30.1592 0.771894 0.402109 10
-32.1805 30.0088 3.84961 0.504316 10
-32.1943 30.0216 11.7952 0.488783 10
-6.99175 6.47443 -2.5533 0.0747281 4
-8.73025 8.0843 -2.74697 0.0848285 1
-10.384 9.61573 -2.75095 0.0718497 1
-12.7706 11.8257 -2.75668 0.0587833 1
-16.0583 14.8701 -2.68724 0.179435 4
-20.6281 19.1019 -1.4734 0.0288264 6
-32.2764 29.8883 -0.767839 0.400624 10
-32.2776 29.8894 0.767867 0.400609 10
-31.8189 29.4646 3.79403 0.505964 10
-32.1936 29.8116 11.7567 0.49038 10
-7.01437 6.45004 -2.55332 0.0735413 4
-8.7585 8.05386 -2.747 0.0848277 1
-10.4177 9.57953 -2.75098 0.0718488 1
-12.812 11.7812 -2.75672 0.0587825 1
-16.058 14.7661 -2.67855 0.195861 4
-20.7425 19.0737 -1.4768 0.0309666 6
-31.8183 29.2584 3.78176 0.507606 10
-32.193 29.603 11.7187 0.491972 10
-7.0369 6.42557 -2.55335 0.084216 4
-8.17585 7.46558 -2.55607 0.0731178 4
-10.4512 9.54322 -2.75101 0.071848 1
-12.8532 11.7366 -2.75676 0.0587816 1
-16.0577 14.6627 -2.66995 0.171891 4
-21.8711 19.9711 -2.59118 0.0618187 6
-20.8622 19.0498 -1.48058 0.0329126 6
-31.8151 29.0512 2.2579 0.510528 10
-31.8177 29.0536 3.76961 0.509241 10
-31.8204 29.056 5.29084 0.507334 10
-31.823 29.0584 6.82543 0.504808 10
-31.8257 29.0609 8.37735 0.501668 10
-31.8285 29.0634 9.95075 0.497916 10
-32.1924 29.3957 11.681 0.493558 10
-7.05934 6.40102 -2.55337 0.0670164 4
-8.20194 7.43707 -2.5561 0.0550952 4
-10.4845 9.50679 -2.75104 0.0718472 1
-12.8943 11.6918 -2.7568 0.0587808 1
-16.0575 14.56 -2.66144 0.177408 4
-21.8967 19.8547 -2.58599 0.0868349 6
-20.9882 19.0309 -1.4848 0.0350735 6
-31.9399 28.9613 2.25957 0.466964 10
-31.9411 28.9624 3.77223 0.465808 10
-31.9423 28.9635 5.29428 0.464085 10
-31.9435 28.9646 6.82955 0.461796 10
-31.9448 28.9658 8.38202 0.458944 10
-31.946 28.9669 9.95583 0.455533 10
-32.1918 29.1897 11.6438 0.495138 10
-7.0817 6.37639 -2.55339 0.0598991 4
-8.22793 7.40846 -2.55612 0.0617885 4
-10.5178 9.47024 -2.75108 0.0718464 1
-12.9352 11.6469 -2.75684 0.05878 1
-16.0572 14.458 -2.65302 0.196705 4
-21.8786 19.6995 -2.57571 0.0841251 6
-21.0627 18.965 -1.48538 0.036544 6
-32.1642 28.9607 2.26827 0.465173 10
-32.1654 28.9618 3.78675 0.464022 10
-32.1666 28.9629 5.31466 0.462305 10
-32.1678 28.9641 6.85584 0.460024 10
-32.1691 28.9652 8.41429 0.457184 10
-32.1704 28.9663 9.99416 0.453786 10
-32.1911 28.985 11.6069 0.496711 10
-7.10397 6.35169 -2.55341 0.064643 4
-8.25382 7.37977 -2.55614 0.0607581 4
-10.5509 9.43358 -2.75111 0.0718455 1
-12.9759 11.6018 -2.75688 0.0587792 1
-16.0569 14.3566 -2.64468 0.218908 4
-21.2651 19.0132 -1.49496 0.0403133 6
-61.9001 55.3451 -1.44937 0.605628 10
-61.9065 55.3508 1.44952 0.605597 10
-32.1743 28.7672 2.26189 0.515409 10
-32.177 28.7695 3.77627 0.51411 10
-32.1796 28.7719 5.30019 0.512185 10
-32.1823 28.7743 6.83748 0.509636 10
-32.185 28.7767 8.39213 0.506466 10
-32.1877 28.7792 9.9683 0.502679 10
-32.1905 28.7817 11.5704 0.498279 10
-7.12616 6.3269 -2.55343 0.0919228 4
-8.27961 7.35098 -2.55617 0.0576681 4
-10.5839 9.3968 -2.75114 0.0718447 1
-13.0165 11.5566 -2.75692 0.0587783 1
-16.0567 14.2558 -2.63642 0.247029 4
-21.4219 19.0193 -1.50131 0.0431813 6
-32.1738 28.5652 2.25483 0.517023 10
-31.8155 28.2471 3.72225 0.515721 10
-32.179 28.5699 5.28363 0.51379 10
-32.1817 28.5723 6.81612 0.511233 10
-32.1844 28.5747 8.36591 0.508053 10
-32.1871 28.5771 9.93716 0.504254 10
-32.1899 28.5795 11.5342 0.499841 10
-7.14826 6.30204 -2.55345 0.077689 4
-8.30529 7.3221 -2.55619 0.0818674 4
-10.6167 9.3599 -2.75117 0.0718439 1
-13.057 11.5113 -2.75695 0.0587775 1
-16.0564 14.1557 -2.62825 0.224798 4
-21.5945 19.0381 -1.50874 0.0462113 6
-62.1869 54.8252 -1.44709 0.426665 10
-62.1897 54.8276 1.44715 0.426627 10
-32.1732 28.3645 2.24784 0.518631 10
-31.8149 28.0486 3.71071 0.517325 10
-32.1785 28.3692 5.26725 0.515388 10
-32.1811 28.3715 6.79498 0.512823 10
-32.1838 28.3739 8.33997 0.509633 10
-32.1865 28.3763 9.90633 0.505823 10
-32.1893 28.3787 11.4984 0.501396 10
-7.17027 6.2771 -2.55347 0.0830258 4
-8.33088 7.29313 -2.55622 0.0695094 4
-10.6494 9.32288 -2.7512 0.0718431 1
-13.0973 11.4658 -2.75699 0.0587767 1
-16.0562 14.0561 -2.62016 0.223911 4
-21.7641 19.053 -1.51593 0.253799 6
-31.8143 27.8514 3.69928 0.518923 10
-32.1779 28.1696 5.25102 0.51698 10
-32.1832 28.1743 8.31428 0.511208 10
-32.1887 28.1791 11.463 0.502946 10
-7.1922 6.25208 -2.55349 0.0569315 4
-8.35636 7.26408 -2.55624 0.0571516 4
-10.682 9.28576 -2.75123 0.0718424 1
-13.1374 11.4201 -2.75703 0.058776 1
-16.0559 13.9572 -2.61216 0.180829 4
-32.1643 27.9601 -2.23352 0.669419 10
-37.0382 32.1969 -0.856628 0.670182 10
-37.0412 32.1995 0.856696 0.670128 10
-31.8138 27.6553 3.68797 0.520514 10
-32.1773 27.9713 5.23497 0.518566 10
-32.1826 27.976 8.28885 0.512776 10
-32.1881 27.9807 11.4279 0.504489 10
-7.21403 6.22699 -2.55351 0.0664196 4
-8.38174 7.23493 -2.55626 0.0499429 4
-10.7145 9.24852 -2.75126 0.0718416 1
-13.1773 11.3744 -2.75706 0.0587752 1
-16.0557 13.8589 -2.60423 0.178605 4
-32.1638 27.7631 -2.22675 0.671457 10
-37.0376 31.97 -0.854027 0.672223 10
