VERSION 0.7
FIELDS x y z intensity label
SIZE 4 4 4 4 4
TYPE F F F F F
COUNT 1 1 1 1 1
WIDTH 1252
HEIGHT 1
VIEWPOINT 5.06709 3.97403 2.72869 0.730694 0.000451367 0.000600973 -0.682704
POINTS 1252
DATA ascii
-14.9603 17.8291 6.2363 0.464534 10
-6.50319 7.69548 -2.69967 0.0297567 4
-7.65534 9.05887 -2.73817 0.0851696 1
-8.79672 10.4095 -2.64914 0.223844 4
-11.1775 13.2268 -2.74276 0.0591291 1
-14.4406 17.0882 -2.74702 0.0459928 1
-18.9859 22.4668 -2.57345 0.0768395 10
-19.6114 23.207 -1.59235 0.638503 10
-19.6112 23.2067 -0.530344 0.63929 10
-19.6109 23.2064 0.530337 0.639298 10
-14.9614 17.7044 1.21478 0.482224 10
-14.9625 17.7057 2.02809 0.481012 10
-14.9636 17.707 2.84651 0.479215 10
-14.9647 17.7084 3.6721 0.476833 10
-14.9659 17.7097 4.50699 0.473871 10
-14.9671 17.7111 5.35344 0.470331 10
-14.9682 17.7125 6.21377 0.466218 10
-6.53012 7.67286 -2.69972 0.0374928 4
-7.68706 9.03226 -2.73822 0.085168 1
-8.80632 10.3474 -2.64114 0.165273 4
-11.2239 13.188 -2.74284 0.0591275 1
-14.5007 17.0383 -2.74712 0.0459912 1
-19.0652 22.4015 -2.57358 0.0768356 10
-19.7593 23.217 -1.59776 0.63634 10
-19.759 23.2167 -0.532147 0.637125 10
-19.7587 23.2164 0.532139 0.637133 10
-14.9692 17.5888 1.21043 0.483959 10
-14.9703 17.5901 2.02082 0.482743 10
-14.9715 17.5914 2.8363 0.480939 10
-14.9726 17.5927 3.65893 0.478549 10
-14.9737 17.5941 4.49083 0.475576 10
-14.9749 17.5954 5.33424 0.472024 10
-14.9761 17.5968 6.19149 0.467896 10
-6.55697 7.65014 -2.69976 0.0476091 4
-7.71869 9.00554 -2.73827 0.0851664 1
-8.81584 10.2856 -2.63321 0.197048 4
-11.2702 13.1491 -2.74292 0.0591259 1
-14.5606 16.9881 -2.74722 0.0459896 1
-19.1442 22.3359 -2.57371 0.0768318 10
-19.9081 23.2272 -1.60323 0.63417 10
-19.9078 23.2269 -0.533968 0.634951 10
-19.9076 23.2266 0.533961 0.634959 10
-14.977 17.474 1.20612 0.485688 10
-14.9781 17.4753 2.01363 0.484468 10
-14.9792 17.4766 2.8262 0.482658 10
-14.9804 17.4779 3.6459 0.480259 10
-14.9815 17.4792 4.47484 0.477276 10
-14.9827 17.4806 5.31524 0.473711 10
-14.9838 17.4819 6.16943 0.469568 10
-6.58374 7.62733 -2.6998 0.0130923 4
-7.75022 8.97871 -2.73833 0.0851648 1
-8.82529 10.2242 -2.62536 0.232146 4
-11.3163 13.1101 -2.74299 0.0591242 1
-14.6203 16.9378 -2.74731 0.0459879 1
-19.223 22.2701 -2.57384 0.076828 10
-20.0579 23.2374 -1.60875 0.631991 10
-20.0577 23.2371 -0.535808 0.63277 10
-20.0574 23.2368 0.535801 0.632778 10
-14.9848 17.36 1.20186 0.487411 10
-14.9859 17.3613 2.00651 0.486187 10
-14.987 17.3626 2.81621 0.48437 10
-14.9881 17.3639 3.63301 0.481963 10
-14.9892 17.3652 4.45902 0.478969 10
-14.9904 17.3665 5.29644 0.475392 10
-14.9916 17.3679 6.14762 0.471235 10
-6.61043 7.60443 -2.69985 0.0410615 4
-7.78165 8.95178 -2.73838 0.0851632 1
-8.83467 10.1631 -2.61758 0.195079 4
-11.3623 13.0708 -2.74307 0.0591226 1
-14.6799 16.8873 -2.74741 0.0459863 1
-19.3016 22.204 -2.57396 0.0768242 10
-20.2088 23.2476 -1.61434 0.629805 10
-20.2086 23.2473 -0.537668 0.630582 10
-20.2083 23.247 0.537661 0.63059 10
-14.9925 17.2469 1.19764 0.489128 10
-14.9936 17.2481 1.99946 0.4879 10
-14.9947 17.2494 2.80632 0.486077 10
-14.9958 17.2507 3.62025 0.483662 10
-14.9969 17.252 4.44336 0.480657 10
-14.9981 17.2533 5.27784 0.477067 10
-14.9992 17.2547 6.12602 0.472896 10
-6.63704 7.58143 -2.69989 0.0374904 4
-7.813 8.92472 -2.73843 0.0851616 1
-8.84398 10.1024 -2.60987 0.209856 4
-11.4082 13.0315 -2.74314 0.059121 1
-14.7393 16.8365 -2.74751 0.0459847 1
-19.38 22.1376 -2.57409 0.0768203 10
-20.3608 23.2579 -1.61998 0.627611 10
-20.3605 23.2576 -0.539548 0.628385 10
-20.3603 23.2573 0.53954 0.628393 10
-15.0001 17.1345 1.19346 0.490839 10
-15.0012 17.1357 1.99249 0.489607 10
-15.0023 17.137 2.79654 0.487778 10
-15.0034 17.1383 3.60763 0.485354 10
-15.0045 17.1395 4.42786 0.482339 10
-15.0057 17.1409 5.25944 0.478737 10
-15.0068 17.1422 6.10466 0.474551 10
-6.66357 7.55834 -2.69993 0.0220178 4
-7.84425 8.89756 -2.73848 0.0851601 1
-8.85321 10.042 -2.60224 0.202559 4
-11.4539 12.9919 -2.74322 0.0591194 1
-14.7985 16.7856 -2.7476 0.0459831 1
-19.4581 22.0709 -2.57422 0.0768165 10
-20.5138 23.2683 -1.62568 0.62541 10
-20.5135 23.268 -0.541447 0.626181 10
-20.5133 23.2677 0.541439 0.626189 10
-15.0077 17.0229 1.18933 0.492544 10
-15.0088 17.0241 1.98559 0.491308 10
-15.0099 17.0254 2.78685 0.489472 10
-15.011 17.0266 3.59514 0.48704 10
-15.0121 17.0279 4.41253 0.484015 10
-15.0132 17.0292 5.24122 0.480401 10
-15.0144 17.0305 6.08351 0.4762 10
-6.69002 7.53515 -2.69998 0.0279681 4
-7.87541 8.87029 -2.73853 0.0851585 1
-8.86238 9.98194 -2.59467 0.0920521 4
-11.4995 12.9522 -2.74329 0.0591178 1
-14.8575 16.7344 -2.7477 0.0459814 1
-19.536 22.0039 -2.57435 0.0768127 10
-20.6679 23.2788 -1.63145 0.623201 10
-20.6676 23.2785 -0.543366 0.623969 10
-20.6674 23.2782 0.543359 0.623977 10
-15.0152 16.912 1.18524 0.494244 10
-15.0163 16.9133 1.97877 0.493003 10
-15.0174 16.9145 2.77727 0.491161 10
-15.0185 16.9157 3.58277 0.488721 10
-15.0196 16.917 4.39735 0.485686 10
-15.0208 16.9183 5.2232 0.482059 10
-15.0219 16.9196 6.06259 0.477844 10
-6.71639 7.51187 -2.70002 0.0279676 4
-7.90647 8.84291 -2.73858 0.0851569 1
-8.8824 9.93443 -2.59037 0.0359282 4
-11.545 12.9123 -2.74336 0.0591162 1
-14.9163 16.683 -2.7478 0.0459798 1
-19.6136 21.9367 -2.57447 0.076809 10
-20.8231 23.2894 -1.63727 0.620984 10
-20.8228 23.2891 -0.545306 0.62175 10
-20.8226 23.2888 0.545298 0.621758 10
-15.0227 16.802 1.1812 0.495937 10
-15.0238 16.8032 1.97201 0.494692 10
-15.0249 16.8044 2.76779 0.492844 10
-15.026 16.8056 3.57054 0.490396 10
-15.0271 16.8069 4.38234 0.48735 10
-15.0282 16.8082 5.20536 0.483711 10
-15.0294 16.8094 6.04188 0.479482 10
-6.74268 7.4885 -2.70006 0.0285622 4
-7.93744 8.81542 -2.73863 0.0851553 1
-8.91723 9.90358 -2.59043 0.0556436 4
-11.5903 12.8723 -2.74344 0.0591146 1
-14.975 16.6314 -2.74789 0.0459782 1
-16.9097 18.7801 -2.21094 0.0768052 10
-20.9794 23.3 -1.64315 0.61876 10
-20.9791 23.2997 -0.547266 0.619523 10
-20.9789 23.2994 0.547258 0.619531 10
-15.0954 16.7651 1.1823 0.482474 10
-15.0952 16.7649 1.97369 0.481304 10
-15.095 16.7647 2.76991 0.479547 10
-15.0948 16.7644 3.57296 0.477207 10
-15.0946 16.7642 4.38492 0.474284 10
-15.0944 16.764 5.20796 0.470785 10
-15.0942 16.7638 6.04436 0.466711 10
-6.76888 7.46504 -2.70011 0.016661 4
-7.96831 8.78782 -2.73868 0.0851537 1
-8.95194 9.87261 -2.59048 0.0490705 4
-11.6354 12.8321 -2.74351 0.059113 1
-15.0335 16.5796 -2.74799 0.0459766 1
-16.976 18.7219 -2.21105 0.0768014 10
-21.1369 23.3107 -1.6491 0.616528 10
-21.1366 23.3104 -0.549247 0.617288 10
-21.1363 23.3101 0.549239 0.617296 10
-15.2087 16.7728 1.18658 0.480733 10
-15.2085 16.7726 1.98083 0.479568 10
-15.2083 16.7724 2.77993 0.477818 10
-15.208 16.7721 3.58589 0.475486 10
-15.2078 16.7719 4.4008 0.472574 10
-15.2076 16.7717 5.22681 0.469087 10
-15.2074 16.7715 6.06624 0.465028 10
-6.79501 7.44149 -2.70015 0.0249912 4
-7.99659 8.75739 -2.73788 0.206356 4
-8.98654 9.84152 -2.59054 0.0718516 4
-11.6805 12.7918 -2.74359 0.0591114 1
-15.0918 16.5276 -2.74808 0.045975 1
-17.0421 18.6635 -2.21116 0.0767976 10
-21.2954 23.3215 -1.65511 0.614289 10
-21.2952 23.3212 -0.551249 0.615046 10
-21.2949 23.3209 0.551241 0.615054 10
-15.3228 16.7806 1.19091 0.478988 10
-15.3226 16.7803 1.98805 0.477826 10
-15.3223 16.7801 2.79007 0.476082 10
-15.3221 16.7799 3.59896 0.473759 10
-15.3219 16.7797 4.41684 0.470858 10
-15.3217 16.7794 5.24586 0.467383 10
-15.3215 16.7792 6.08835 0.463339 10
-6.82105 7.41784 -2.70019 0.031536 4
-8.00303 8.70324 -2.72967 0.218951 4
-9.02104 9.81031 -2.5906 0.0617735 4
-11.7254 12.7513 -2.74366 0.0591098 1
-15.1499 16.4754 -2.74818 0.0459734 1
-17.1492 18.6497 -2.2166 0.610541 10
-21.4552 23.3324 -1.66119 0.612042 10
-21.4549 23.332 -0.553273 0.612796 10
-21.4546 23.3317 0.553265 0.612805 10
-15.4377 16.7884 1.19528 0.477236 10
-15.4375 16.7882 1.99535 0.476078 10
-15.4373 16.7879 2.80031 0.474341 10
-15.4371 16.7877 3.61217 0.472026 10
-15.4369 16.7875 4.43305 0.469136 10
-15.4367 16.7872 5.26512 0.465674 10
-15.4364 16.787 6.1107 0.461645 10
-6.84701 7.3941 -2.70023 0.0309405 4
-8.00943 8.6494 -2.72153 0.144116 4
-9.05542 9.77897 -2.59065 0.0477529 4
-11.7701 12.7106 -2.74373 0.0591082 1
-15.2079 16.423 -2.74827 0.0459718 1
-17.2779 18.6584 -2.2248 0.608292 10
-21.6161 23.3433 -1.66733 0.609788 10
-21.6158 23.343 -0.555318 0.61054 10
-21.6155 23.3427 0.55531 0.610548 10
-15.5535 16.7963 1.1997 0.475478 10
-15.5533 16.796 2.00273 0.474325 10
-15.5531 16.7958 2.81066 0.472594 10
-15.5529 16.7956 3.62553 0.470288 10
-15.5527 16.7953 4.44944 0.467408 10
-15.5524 16.7951 5.28458 0.463959 10
-15.5522 16.7949 6.13328 0.459945 10
-6.87289 7.37027 -2.70028 0.00833 4
-8.01578 8.59587 -2.71348 0.216816 4
-9.0897 9.74751 -2.59071 0.062647 4
-11.8147 12.6698 -2.74381 0.0591067 1
-15.2656 16.3704 -2.74837 0.0459703 1
-17.4075 18.6672 -2.23308 0.606036 10
-21.7783 23.3543 -1.67354 0.607526 10
-21.778 23.354 -0.557386 0.608275 10
-21.7777 23.3537 0.557378 0.608283 10
-15.6702 16.8042 1.20416 0.473714 10
-15.6699 16.804 2.01018 0.472566 10
-15.6697 16.8037 2.82112 0.470841 10
-15.6695 16.8035 3.63902 0.468543 10
-15.6693 16.8033 4.466 0.465674 10
-15.6691 16.803 5.30426 0.462238 10
-15.6689 16.8028 6.15611 0.458239 10
-6.89868 7.34635 -2.70032 0.0142798 4
-8.02208 8.54265 -2.7055 0.174309 4
-9.12387 9.71594 -2.59077 0.0521317 4
-11.8592 12.6288 -2.74388 0.0591051 1
-15.3232 16.3176 -2.74846 0.0459687 1
-16.415 17.4802 -2.09793 0.64963 10
-16.4162 17.4815 -1.2568 0.651171 10
-16.4173 17.4827 -0.418621 0.651919 10
-16.4185 17.4839 0.41865 0.651874 10
-15.7877 16.8122 1.20868 0.471945 10
-15.7875 16.8119 2.01772 0.470801 10
-15.7872 16.8117 2.8317 0.469083 10
-15.787 16.8115 3.65266 0.466794 10
-15.7868 16.8113 4.48274 0.463935 10
-15.7866 16.811 5.32414 0.460512 10
-15.7864 16.8108 6.17919 0.456528 10
-6.92439 7.32234 -2.70036 0.0243942 4
-8.02833 8.48973 -2.6976 0.289059 4
-9.15793 9.68424 -2.59082 0.0551971 4
-11.9035 12.5876 -2.74395 0.0591035 1
-15.3806 16.2645 -2.74856 0.0459671 1
-16.4228 17.3666 -2.09115 0.651733 10
-16.4239 17.3678 -1.25274 0.65328 10
-16.4251 17.369 -0.41727 0.654031 10
-16.4262 17.3702 0.417299 0.653985 10
-15.9061 16.8202 1.21324 0.47017 10
-15.9059 16.82 2.02534 0.46903 10
-15.9057 16.8198 2.84239 0.467319 10
-15.9054 16.8195 3.66645 0.465038 10
-15.9052 16.8193 4.49966 0.462191 10
-15.905 16.8191 5.34424 0.45878 10
-15.9048 16.8188 6.20252 0.454811 10
-6.95002 7.29824 -2.7004 0.0481927 4
-8.03454 8.43711 -2.68977 0.243029 4
-9.19187 9.65242 -2.59088 0.0543197 4
-11.9477 12.5463 -2.74403 0.0591019 1
-15.4378 16.2113 -2.74865 0.0459655 1
-16.4304 17.2537 -2.08445 0.653829 10
-7.3393 7.70702 -0.557752 0.414466 8
-16.4328 17.2561 -0.415932 0.656134 10
-16.4339 17.2573 0.415961 0.656088 10
-16.0254 16.8283 1.21785 0.46839 10
-16.0252 16.8281 2.03304 0.467254 10
-16.025 16.8279 2.85319 0.465549 10
-16.0247 16.8276 3.68039 0.463277 10
-16.0245 16.8274 4.51677 0.46044 10
-16.0243 16.8272 5.36455 0.457043 10
-16.0241 16.8269 6.22609 0.453088 10
-6.97556 7.27404 -2.70045 0.047597 4
-8.04071 8.38477 -2.68202 0.215877 4
-9.22571 9.62048 -2.59093 0.0490619 4
-11.9918 12.5049 -2.7441 0.0591004 1
-15.4948 16.1579 -2.74875 0.045964 1
-16.4381 17.1415 -2.07782 0.655917 10
-7.38573 7.70176 -0.559233 0.466312 8
-16.4404 17.1439 -0.414608 0.65823 10
-16.4415 17.1451 0.414636 0.658184 10
-16.1456 16.8365 1.22252 0.466603 10
-16.1454 16.8363 2.04082 0.465472 10
-16.1452 16.836 2.86412 0.463773 10
-16.145 16.8358 3.69448 0.46151 10
-16.1447 16.8356 4.53406 0.458684 10
-16.1445 16.8353 5.38509 0.4553 10
-16.1443 16.8351 6.24993 0.45136 10
-7.00102 7.24977 -2.70049 0.0178486 4
-8.04683 8.33274 -2.67435 0.195545 4
-9.25943 9.58843 -2.59099 0.0534413 4
-12.0357 12.4633 -2.74417 0.0590988 1
-15.5517 16.1042 -2.74884 0.0459624 1
-16.4457 17.03 -2.07125 0.657997 10
-7.44114 7.70553 -0.561389 0.47796 8
-16.448 17.0324 -0.413297 0.660317 10
-16.4491 17.0336 0.413326 0.660271 10
-16.2668 16.8447 1.22723 0.464811 10
-16.2666 16.8445 2.04869 0.463684 10
-16.2663 16.8443 2.87516 0.461992 10
-16.2661 16.844 3.70873 0.459738 10
-16.2659 16.8438 4.55154 0.456923 10
-16.2656 16.8436 5.40585 0.453551 10
-16.2654 16.8433 6.27402 0.449627 10
-7.02639 7.2254 -2.70053 0.0255826 4
-8.05291 8.28099 -2.66674 0.227619 4
-9.29304 9.55625 -2.59104 0.0551923 4
-12.0794 12.4215 -2.74424 0.0590973 1
-15.6083 16.0504 -2.74893 0.0459608 1
-7.51089 7.72362 -0.942557 0.358346 8
-7.49699 7.70933 -0.563569 0.487116 8
-16.4555 16.9216 -0.412 0.662396 10
-16.4566 16.9227 0.412028 0.662351 10
-16.3889 16.853 1.23199 0.463013 10
-16.3886 16.8528 2.05664 0.461891 10
-16.3884 16.8526 2.88632 0.460206 10
-16.3882 16.8523 3.72312 0.45796 10
-16.3879 16.8521 4.56921 0.455156 10
-16.3877 16.8519 5.42684 0.451797 10
-16.3875 16.8516 6.29838 0.447888 10
-7.05167 7.20093 -2.70057 0.00535441 4
-8.05894 8.22952 -2.65921 0.258114 4
-9.32654 9.52396 -2.5911 0.0538771 4
-12.123 12.3796 -2.74431 0.0590957 1
-15.6162 15.9468 -2.74051 0.659753 10
-7.55338 7.71326 -0.944505 0.454302 8
-7.55328 7.71316 -0.565773 0.50143 8
-7.55318 7.71305 -0.188435 0.519936 8
-16.5121 16.8616 0.411941 0.592226 10
-16.5119 16.8614 1.23681 0.46121 10
-16.5117 16.8612 2.06468 0.460092 10
-16.5114 16.8609 2.89761 0.458413 10
-16.5112 16.8607 3.73768 0.456176 10
-16.511 16.8605 4.58708 0.453383 10
-16.5107 16.8602 5.44806 0.450037 10
-16.5105 16.86 6.32301 0.446144 10
-7.07688 7.17639 -2.70061 0.0446194 4
-8.06493 8.17833 -2.65175 0.253558 4
-9.35993 9.49154 -2.59115 0.0600081 4
-12.1665 12.3375 -2.74439 0.0590942 1
-15.6233 15.843 -2.73203 0.661801 10
-7.61011 7.71712 -0.948224 0.465953 8
-7.61 7.71701 -0.568001 0.515819 8
-7.6099 7.7169 -0.189177 0.511274 8
-16.6361 16.8701 0.413563 0.589903 10
-16.6359 16.8698 1.24168 0.459401 10
-16.6357 16.8696 2.07281 0.458287 10
-16.6354 16.8694 2.90902 0.456615 10
-16.6352 16.8691 3.7524 0.454387 10
-16.635 16.8689 4.60514 0.451605 10
-16.6347 16.8686 5.46951 0.448272 10
-16.6345 16.8684 6.3479 0.444394 10
-7.10199 7.15175 -2.70065 0.014278 4
-8.07087 8.12742 -2.64436 0.254266 4
-9.39321 9.45901 -2.59121 0.0591309 4
-12.2098 12.2953 -2.74446 0.0590926 1
-15.6303 15.7398 -2.72363 0.663841 10
-7.66729 7.72101 -0.951985 0.48023 8
-7.66718 7.7209 -0.570254 0.527706 8
-7.66708 7.72079 -0.189927 0.499965 8
-16.7611 16.8786 0.415204 0.587573 10
-16.6701 16.7869 1.23985 0.376517 10
-16.6712 16.788 2.06993 0.375573 10
-16.7604 16.8779 2.92056 0.454811 10
-16.6524 16.7691 3.74306 0.482822 10
-16.6536 16.7703 4.59407 0.479825 10
-16.6759 16.7928 5.46375 0.367241 10
-16.7595 16.8769 6.37308 0.442639 10
-7.12702 7.12703 -2.7007 0.0737685 4
-8.08371 8.08372 -2.63931 0.212874 4
-9.42636 9.42637 -2.59126 0.0779635 4
-12.2529 12.2529 -2.74453 0.0590911 1
-15.6373 15.6373 -2.71532 0.665873 10
-7.72492 7.72493 -0.955787 0.492004 8
-7.72481 7.72482 -0.572531 0.53965 8
-7.72471 7.72471 -0.190686 0.48857 8
-18.8514 18.8514 0.465351 0.670587 10
-16.6775 16.6775 1.23607 0.37767 10
-16.6787 16.6787 2.06361 0.376723 10
-16.6599 16.6599 3.73163 0.4843 10
-16.661 16.661 4.58004 0.481294 10
-16.6834 16.6834 5.44707 0.368366 10
-7.15197 7.10221 -2.70074 0.0202265 4
-7.7458 7.69192 -2.5202 0.412043 8
-7.74569 7.6918 -2.12186 0.415082 8
-7.74558 7.69169 -1.7289 0.417616 8
-7.74547 7.69158 -1.34028 0.419641 8
-7.74568 7.69179 -0.955027 0.364878 8
-7.74621 7.69232 -0.572123 0.365775 8
-7.78281 7.72866 -0.191453 0.479684 8
-18.8598 18.7286 0.46394 0.672626 10
-16.6849 16.5688 1.23232 0.378818 10
-16.686 16.57 2.05735 0.377869 10
-16.7062 16.59 3.72902 0.102448 10
-16.6684 16.5524 4.56615 0.482758 10
-16.6907 16.5746 5.43055 0.369486 10
-7.17682 7.07731 -2.70078 0.0386678 4
-8.19891 8.08522 -2.65842 0.231545 4
-9.49234 9.36073 -2.59137 0.0630689 4
-12.3388 12.1677 -2.74467 0.059088 1
-15.6512 15.4341 -2.69895 0.669913 10
-7.84159 7.73286 -0.963519 0.515722 8
-7.84148 7.73275 -0.577162 0.519544 8
-7.84137 7.73264 -0.192228 0.470729 8
-18.8681 18.6065 0.462544 0.674656 10
-16.6922 16.4608 1.22861 0.379962 10
-16.6934 16.4619 2.05116 0.379009 10
-18.787 18.5265 3.2397 0.543307 10
-16.7636 16.5311 3.72892 0.10245 10
-16.6757 16.4445 4.5524 0.484216 10
-16.698 16.4665 5.4142 0.370602 10
-18.7859 18.5254 7.0695 0.528766 10
-7.2016 7.05232 -2.70082 0.0178464 4
-8.25712 8.08597 -2.66813 0.233799 4
-9.52516 9.32773 -2.59143 0.0595638 4
-12.3815 12.1249 -2.74474 0.0590865 1
-15.658 15.3335 -2.69088 0.671921 10
-7.90064 7.73688 -0.96745 0.530264 8
-7.90053 7.73677 -0.579517 0.505468 8
-7.90042 7.73666 -0.193013 0.461706 8
-18.987 18.5935 0.463866 0.578181 10
-16.6995 16.3534 1.22494 0.381101 10
-16.7007 16.3545 2.04503 0.380146 10
-18.8543 18.4634 3.24017 0.541099 10
-16.8208 16.4721 3.72883 0.102453 10
-16.683 16.3372 4.53879 0.485668 10
-16.7053 16.3591 5.39801 0.371714 10
-18.8573 18.4665 7.07208 0.615969 10
-7.22628 7.02725 -2.70086 0.0220102 4
-8.31575 8.08671 -2.67794 0.188206 4
-9.55786 9.29462 -2.59148 0.0643802 4
-12.4241 12.0819 -2.74481 0.059085 1
-15.6648 15.2334 -2.6829 0.67392 10
-7.96016 7.74092 -0.971424 0.54227 8
-7.96005 7.74082 -0.581898 0.499133 8
-7.95994 7.74071 -0.193806 0.449999 8
-18.8845 18.3644 0.459793 0.448294 10
-16.7068 16.2466 1.2213 0.382235 10
-16.7079 16.2477 2.03896 0.381277 10
-18.9519 18.4299 3.24587 0.635008 10
-18.8897 18.3694 4.17323 0.522607 10
-16.6902 16.2305 4.52532 0.487114 10
-16.7126 16.2523 5.38198 0.372821 10
-18.9572 18.4351 7.08537 0.617803 10
-7.25087 7.00209 -2.7009 0.0267688 4
-8.37479 8.08745 -2.68784 0.213641 4
-9.59045 9.26139 -2.59154 0.0700722 4
-12.4665 12.0388 -2.74488 0.0590835 1
-15.6716 15.1339 -2.675 0.675911 10
-18.8888 18.2408 -2.29733 0.67835 10
-8.02007 7.74489 -0.584305 0.487503 8
-8.01995 7.74478 -0.194607 0.438209 8
-19.0064 18.3542 0.461197 0.378774 10
-16.714 16.1405 1.2177 0.383365 10
-16.7151 16.1416 2.03295 0.382404 10
-18.9721 18.3211 3.23835 0.536665 10
-18.8978 18.2494 4.16093 0.524152 10
-16.6974 16.1245 4.51198 0.488554 10
-16.7198 16.1461 5.36612 0.373923 10
-18.9709 18.32 7.06655 0.522303 10
-7.27538 6.97684 -2.70094 0.00594853 4
-8.43427 8.08818 -2.69786 0.214379 4
-9.62292 9.22805 -2.59159 0.0599981 4
-12.5088 11.9955 -2.74495 0.059082 1
-15.6783 15.035 -2.66717 0.677894 10
-18.897 18.1215 -2.29061 0.68034 10
-8.08059 7.74901 -0.58674 0.47579 8
-18.8995 18.124 -0.457066 0.450969 10
-18.9008 18.1252 0.457097 0.450938 10
-16.7212 16.035 1.21414 0.38449 10
-16.7223 16.0361 2.027 0.383527 10
-18.9059 18.1301 4.14875 0.52569 10
-16.7046 16.0191 4.49878 0.489988 10
-16.7269 16.0405 5.35041 0.375021 10
-7.2998 6.95151 -2.70098 0.0172505 4
-8.49418 8.0889 -2.70797 0.212053 4
-9.65527 9.1946 -2.59164 0.0560554 4
-12.5509 11.9521 -2.74502 0.0590805 1
-15.685 14.9367 -2.65943 0.679869 10
-18.905 18.003 -2.28395 0.682322 10
-8.14161 7.75316 -0.589203 0.463994 8
-18.9887 18.0827 -0.457693 0.37562 10
-18.9884 18.0824 0.457686 0.375626 10
-16.7283 15.9301 1.21061 0.38561 10
-16.7294 15.9312 2.02111 0.384644 10
-18.914 18.0115 4.1367 0.527222 10
-16.7117 15.9143 4.4857 0.491416 10
-16.734 15.9356 5.33486 0.376114 10
-7.32413 6.92609 -2.70102 0.0231986 4
-8.55454 8.08963 -2.71819 0.231013 4
-9.68751 9.16102 -2.5917 0.0683161 4
-12.5929 11.9085 -2.74509 0.059079 1
-15.6917 14.8389 -2.65176 0.681835 10
-18.913 17.8852 -2.27737 0.684296 10
-8.20316 7.75734 -0.591694 0.457405 8
-18.9156 17.8876 -0.454424 0.453591 10
-18.9169 17.8888 0.454454 0.453561 10
-16.7142 15.8058 1.20559 0.501511 10
-16.7365 15.8269 2.01528 0.385757 10
-18.922 17.8936 4.12476 0.528748 10
-16.7187 15.8101 4.47276 0.492839 10
-16.7411 15.8313 5.31946 0.377202 10
-7.34837 6.90058 -2.70106 0.0874395 4
-8.61533 8.09034 -2.72852 0.227111 4
-9.71963 9.12734 -2.59175 0.0538635 4
-12.6347 11.8648 -2.74516 0.0590775 1
-15.6983 14.7417 -2.64416 0.683793 10
-18.921 17.768 -2.27085 0.686261 10
-18.9665 17.8108 -1.36356 0.371994 10
-18.9663 17.8105 -0.454145 0.372454 10
-18.966 17.8103 0.454138 0.372459 10
-16.7212 15.7023 1.20214 0.502952 10
-16.7435 15.7232 2.00951 0.386866 10
-18.9299 17.7764 4.11294 0.530267 10
-16.7257 15.7065 4.45994 0.494255 10
-16.7481 15.7275 5.30422 0.378286 10
-7.37252 6.87499 -2.7011 0.013086 4
-8.67659 8.09105 -2.73896 0.182504 4
-9.77302 9.11349 -2.59749 0.207535 4
-12.6763 11.8209 -2.74523 0.059076 1
-15.7049 14.6451 -2.63664 0.685743 10
-18.9289 17.6515 -2.26439 0.688218 10
-30.936 28.8483 -2.21683 0.560775 10
-55.6993 51.9404 -1.32936 0.561468 10
-55.703 51.9439 1.32945 0.437789 10
-16.7282 15.5993 1.19872 0.504386 10
-16.7505 15.6201 2.00379 0.387969 10
-18.9378 17.6598 4.10124 0.53178 10
-16.7327 15.6035 4.44725 0.495665 10
-16.7551 15.6244 5.28913 0.379366 10
-7.39659 6.84932 -2.70114 0.0172495 4
-8.70778 8.0635 -2.7399 0.0851158 1
-9.83993 9.11188 -2.6068 0.185401 4
-12.7178 11.7769 -2.7453 0.0590745 1
-15.7114 14.549 -2.6292 0.687684 10
-18.9368 17.5357 -2.25799 0.690166 10
-18.9396 17.5383 -1.35279 0.368814 10
-18.9394 17.5381 -0.450558 0.369269 10
-18.9406 17.5392 0.450587 0.457453 10
-16.7352 15.4969 1.19533 0.505815 10
-16.7575 15.5176 1.99813 0.389068 10
-18.9457 17.5439 4.08966 0.533286 10
-16.7397 15.5011 4.43469 0.497069 10
-16.7621 15.5218 5.27419 0.38044 10
-7.42056 6.82355 -2.70118 0.077324 4
-8.73603 8.03319 -2.73995 0.0851143 1
-9.90732 9.11025 -2.61621 0.144945 4
-12.7592 11.7327 -2.74537 0.059073 1
-15.7179 14.4534 -2.62183 0.689618 10
-18.9447 17.4205 -2.25166 0.692107 10
-19.0834 17.5481 -1.35868 0.367216 10
-19.0831 17.5478 -0.452518 0.36767 10
-19.0828 17.5476 0.452511 0.367675 10
-16.7421 15.3951 1.19198 0.507237 10
-16.7644 15.4157 1.99253 0.390162 10
-19.016 17.4861 3.17195 0.649806 10
-18.9535 17.4286 4.07819 0.534786 10
-16.7466 15.3993 4.42225 0.498467 10
-16.769 15.4199 5.25939 0.381511 10
-19.0212 17.4909 6.92397 0.632204 10
-7.44444 6.79771 -2.70122 0.0118958 4
-8.76416 8.00278 -2.74 0.0851128 1
-9.97516 9.10858 -2.62572 0.124598 4
-12.8004 11.6884 -2.74544 0.0590715 1
-15.7244 14.3584 -2.61453 0.691542 10
-18.9525 17.306 -2.2454 0.694038 10
-18.9537 17.3071 -1.34514 0.45952 10
-18.955 17.3083 -0.448044 0.46005 10
-18.9562 17.3094 0.448073 0.46002 10
-16.749 15.2939 1.18866 0.508653 10
-16.7713 15.3143 1.98698 0.391251 10
-18.96 17.3129 3.15252 0.538954 10
-18.9613 17.314 4.06683 0.53628 10
-16.7535 15.298 4.40994 0.499859 10
-16.7759 15.3185 5.24475 0.382576 10
-18.9652 17.3176 6.88155 0.524355 10
-7.46824 6.77179 -2.70126 0.0118957 4
-8.79219 7.97228 -2.74005 0.0851114 1
-10.0435 9.10688 -2.63532 0.176341 4
-12.8414 11.6439 -2.74551 0.0590701 1
-15.7309 14.2639 -2.60731 0.693458 10
-18.9602 17.1921 -2.23919 0.695961 10
-19.052 17.2753 -1.34782 0.364009 10
-19.0517 17.2751 -0.448903 0.364458 10
-19.0515 17.2748 0.448896 0.364464 10
-16.7558 15.1932 1.18538 0.510063 10
-16.7781 15.2135 1.98149 0.392336 10
-18.9677 17.1989 3.14381 0.540448 10
-18.969 17.2001 4.05559 0.537766 10
-16.7603 15.1973 4.39774 0.501245 10
-16.7827 15.2176 5.23024 0.383637 10
-18.9729 17.2036 6.86252 0.525809 10
-7.49194 6.74577 -2.7013 0.0190328 4
-8.82012 7.94167 -2.74009 0.0851099 1
-10.1123 9.10515 -2.64502 0.150395 4
-12.8823 11.5993 -2.74557 0.0590686 1
-15.7373 14.1699 -2.60016 0.695366 10
-18.9679 17.0788 -2.23305 0.697876 10
-18.9692 17.0799 -1.33774 0.462061 10
-18.9704 17.0811 -0.44558 0.462594 10
-18.9717 17.0822 0.445608 0.462564 10
-16.7626 15.0931 1.18213 0.511467 10
-16.785 15.1132 1.97605 0.393416 10
-18.9754 17.0856 3.13518 0.541935 10
-18.9767 17.0867 4.04445 0.539247 10
-16.7671 15.0971 4.38567 0.502625 10
-16.7895 15.1173 5.21589 0.384693 10
-18.9806 17.0902 6.84368 0.527256 10
-7.51555 6.71968 -2.70134 0.0130848 4
-8.84794 7.91097 -2.74014 0.0851085 1
-10.1816 9.10338 -2.65481 0.193251 4
-12.0254 10.752 -2.55493 0.0423086 4
-15.7769 14.1062 -2.59856 0.542863 10
-18.9756 16.9662 -2.22697 0.699782 10
-19.016 17.0023 -1.33684 0.360783 10
-19.0157 17.002 -0.445246 0.361229 10
-19.0154 17.0017 0.445239 0.361234 10
-16.7694 14.9935 1.1789 0.512864 10
-16.7917 15.0135 1.97067 0.394491 10
-18.9831 16.9728 3.12663 0.543416 10
-18.9844 16.974 4.03343 0.54072 10
-16.7738 14.9975 4.37372 0.503999 10
-16.7962 15.0176 5.20167 0.385744 10
-18.9883 16.9775 6.82502 0.528697 10
-7.53907 6.6935 -2.70138 0.0333064 4
-8.87565 7.88017 -2.74019 0.0851071 1
-10.2514 9.10159 -2.66471 0.2023 4
-12.0632 10.7102 -2.555 0.0480442 4
-15.8974 14.1144 -2.61028 0.540426 10
-18.9832 16.8541 -2.22094 0.70168 10
-32.6217 28.9629 -2.28622 0.543754 10
-32.682 29.0164 -0.762862 0.465116 10
-32.6841 29.0183 0.762911 0.465086 10
-16.7761 14.8945 1.17571 0.514256 10
-16.7985 14.9144 1.96534 0.395561 10
-18.9907 16.8607 3.11817 0.54489 10
-18.992 16.8619 4.02252 0.542187 10
-16.7805 14.8985 4.36188 0.505366 10
-16.803 14.9184 5.18759 0.386791 10
-18.9959 16.8653 6.80655 0.530132 10
-7.5625 6.66724 -2.70142 0.0142739 4
-8.90325 7.84927 -2.74023 0.0851056 1
-10.3216 9.09976 -2.6747 0.183474 4
-12.1008 10.6683 -2.55506 0.0448163 4
-16.019 14.1227 -2.62213 0.537983 10
-18.9908 16.7427 -2.21498 0.703569 10
-18.9921 16.7438 -1.32691 0.465831 10
-18.9933 16.7448 -0.441974 0.466369 10
-18.9945 16.7459 0.442002 0.466338 10
-16.7828 14.796 1.17256 0.51564 10
-16.8052 14.8157 1.96006 0.396626 10
-18.9983 16.7492 3.1098 0.546358 10
-18.9995 16.7503 4.01171 0.543648 10
-16.7872 14.7999 4.35016 0.506727 10
-16.8097 14.8197 5.17365 0.387833 10
-19.0034 16.7538 6.78826 0.53156 10
-7.58584 6.6409 -2.70146 0.0469844 4
-8.93075 7.81828 -2.74028 0.0851042 1
-10.3924 9.0979 -2.6848 0.217402 4
-12.1383 10.6263 -2.55512 0.0354936 4
-16.1417 14.131 -2.63413 0.535533 10
-18.9984 16.6318 -2.20907 0.70545 10
-19.1205 16.7387 -1.3318 0.355912 10
-19.1202 16.7385 -0.443565 0.356352 10
-19.1199 16.7382 0.443558 0.356357 10
-16.7894 14.698 1.16943 0.517019 10
-16.8118 14.7176 1.95483 0.397687 10
-19.0058 16.6383 3.1015 0.547819 10
-19.0071 16.6394 4.00101 0.545102 10
-16.7939 14.7019 4.33856 0.508083 10
-16.8163 14.7216 5.15985 0.38887 10
-19.0109 16.6428 6.77015 0.532982 10
-7.60908 6.61447 -2.7015 0.0231945 4
-8.95813 7.78719 -2.74032 0.0851028 1
-10.4312 9.06772 -2.68663 0.0901598 4
-12.1756 10.5841 -2.55519 0.015416 4
-16.2656 14.1394 -2.64626 0.533077 10
-19.0059 16.5215 -2.20323 0.707322 10
-19.0071 16.5226 -1.31987 0.468316 10
-19.0083 16.5237 -0.439628 0.468856 10
-19.0096 16.5248 0.439657 0.468826 10
-16.7961 14.6006 1.16633 0.518391 10
-16.8184 14.6201 1.94965 0.398742 10
-19.0133 16.528 3.09329 0.549273 10
-19.0145 16.5291 3.99042 0.546549 10
-16.8005 14.6044 4.32707 0.509432 10
-16.8229 14.6239 5.14619 0.389903 10
-19.0184 16.5325 6.75222 0.534397 10
-7.63223 6.58797 -2.70154 0.0713667 4
-8.98541 7.756 -2.74037 0.0851013 1
-10.4353 9.00753 -2.67957 0.0883835 4
-12.2128 10.5418 -2.55525 0.0211517 4
-16.3905 14.1479 -2.65855 0.530614 10
-19.0133 16.4119 -2.19744 0.709185 10
-19.0749 16.465 -1.32058 0.352643 10
-19.0746 16.4648 -0.439829 0.353079 10
-19.0743 16.4645 0.439822 0.353084 10
-16.8026 14.5037 1.16327 0.519757 10
-16.825 14.523 1.94453 0.399793 10
-19.0207 16.4183 3.08516 0.550721 10
-19.022 16.4193 3.97993 0.547989 10
-16.8071 14.5075 4.3157 0.510774 10
-16.8295 14.5268 5.13266 0.390931 10
-19.0258 16.4227 6.73447 0.535806 10
-7.65529 6.56138 -2.70158 0.0660132 4
-9.01258 7.72472 -2.74041 0.0850999 1
-10.4394 8.94765 -2.67258 0.0514299 4
-12.2498 10.4993 -2.55531 0.0462459 4
-16.5167 14.1565 -2.67098 0.528144 10
-19.0208 16.3028 -2.19171 0.71104 10
-33.6638 28.8533 -2.3236 0.531398 10
-33.6633 28.8529 -0.773893 0.532054 10
-33.6627 28.8525 0.77388 0.532062 10
-16.8092 14.4072 1.16023 0.521117 10
-16.8316 14.4264 1.93946 0.400839 10
-19.0281 16.3091 3.07711 0.552162 10
-19.0294 16.3102 3.96954 0.549423 10
-16.8136 14.411 4.30443 0.512111 10
-16.8361 14.4302 5.11926 0.391954 10
-19.0332 16.3135 6.71689 0.537209 10
-7.67826 6.53471 -2.70161 0.00951528 4
-9.03964 7.69334 -2.74046 0.0850985 1
-10.4435 8.88809 -2.66566 0.0377181 4
-12.2866 10.4568 -2.55537 0.0476787 4
-16.644 14.1652 -2.68356 0.525669 10
-19.0281 16.1942 -2.18603 0.712886 10
-19.0294 16.1953 -1.30957 0.472 10
-19.0306 16.1963 -0.436197 0.472545 10
-19.0318 16.1974 0.436224 0.472515 10
-16.8157 14.3113 1.15723 0.52247 10
-16.8381 14.3304 1.93443 0.40188 10
-19.0355 16.2005 3.06914 0.553596 10
-19.0368 16.2016 3.95926 0.55085 10
-16.8201 14.315 4.29328 0.513441 10
-16.8426 14.3342 5.106 0.392972 10
-19.0406 16.2048 6.69949 0.538604 10
-7.70113 6.50796 -2.70165 0.0297348 4
-9.06659 7.66186 -2.74051 0.0850971 1
-10.4735 8.85077 -2.66542 0.0801142 4
-12.3234 10.4141 -2.55543 0.040508 4
-16.7726 14.1739 -2.69629 0.523187 10
-19.0355 16.0862 -2.18041 0.714724 10
-19.1712 16.2009 -1.31543 0.347707 10
-19.1709 16.2007 -0.438114 0.348137 10
-19.1706 16.2004 0.438107 0.348142 10
-16.8222 14.2159 1.15425 0.523818 10
-16.8446 14.2348 1.92946 0.402916 10
-19.0428 16.0925 3.06125 0.555023 10
-19.0441 16.0935 3.94908 0.552271 10
-16.8266 14.2196 4.28224 0.514765 10
-16.849 14.2385 5.09286 0.393985 10
-19.0479 16.0967 6.68225 0.539993 10
-7.72391 6.48113 -2.70169 0.0220035 4
-9.09343 7.6303 -2.74055 0.0850957 1
-10.5045 8.81433 -2.66547 0.0836149 4
-12.3599 10.3712 -2.5555 0.0437332 4
-16.9023 14.1828 -2.70917 0.520698 10
-19.0428 15.9788 -2.17485 0.716552 10
-19.044 15.9798 -1.30287 0.474427 10
-19.0452 15.9809 -0.433965 0.474976 10
-19.0465 15.9819 0.433992 0.474945 10
-16.901 14.1816 1.15626 0.383148 10
-16.93 14.206 1.93355 0.294737 10
-19.0501 15.985 3.05343 0.556444 10
-19.0514 15.986 3.93899 0.553684 10
-16.9 14.1808 4.28829 0.376649 10
-16.9289 14.2051 5.10199 0.288299 10
-19.0552 15.9892 6.66519 0.541376 10
-7.7466 6.45422 -2.70173 0.0243819 4
-9.12016 7.59863 -2.7406 0.0850943 1
-10.5354 8.77778 -2.66552 0.0210127 4
-12.3964 10.3283 -2.55556 0.045166 4
-17.0334 14.1917 -2.72222 0.518203 10
-19.0501 15.8719 -2.16934 0.718373 10
-19.1156 15.9265 -1.30395 0.344395 10
-19.1153 15.9263 -0.434292 0.344821 10
-19.115 15.926 0.434284 0.344826 10
-17.032 14.1906 1.16182 0.381313 10
-17.0612 14.2149 1.94286 0.293325 10
-19.0574 15.878 3.04569 0.557858 10
-19.0586 15.8791 3.92901 0.555091 10
-17.031 14.1897 4.30893 0.374844 10
-17.0601 14.214 5.12655 0.286918 10
-19.0625 15.8822 6.64829 0.542752 10
-7.76919 6.42724 -2.70177 0.0285442 4
-9.14677 7.56687 -2.74064 0.0850929 1
-10.5662 8.74112 -2.66558 0.0267032 4
-12.4326 10.2852 -2.55562 0.0448065 4
-17.1656 14.2007 -2.73542 0.515702 10
-19.0573 15.7656 -2.16388 0.720184 10
-33.9175 28.059 -2.30696 0.721897 10
-33.9197 28.0608 -0.76841 0.477383 10
-33.9218 28.0626 0.768458 0.477353 10
-17.1643 14.1995 1.16746 0.379472 10
-17.1937 14.2239 1.95228 0.29191 10
-19.0646 15.7716 3.03803 0.559265 10
-19.0659 15.7727 3.91912 0.556492 10
-17.1632 14.1986 4.32983 0.373035 10
-17.1926 14.223 5.15141 0.285534 10
-19.0697 15.7758 6.63156 0.544121 10
-7.79169 6.40016 -2.70181 0.0410317 4
-9.16094 7.52488 -2.737 0.0341901 4
-10.5969 8.70435 -2.66563 0.0647868 4
-12.4688 10.242 -2.55568 0.0562756 4
-17.2992 14.2097 -2.74879 0.513194 10
-19.0645 15.6598 -2.15848 0.721986 10
-19.0657 15.6608 -1.29306 0.478025 10
-19.0669 15.6618 -0.430698 0.478578 10
-19.0682 15.6628 0.430725 0.478548 10
-17.2979 14.2086 1.17316 0.377627 10
-17.3275 14.233 1.96182 0.29049 10
-19.0718 15.6658 3.03044 0.560665 10
-19.073 15.6668 3.90933 0.557885 10
-17.2968 14.2077 4.35098 0.371222 10
-17.3264 14.2321 5.17658 0.284145 10
-19.0768 15.6699 6.61499 0.545484 10
-7.81409 6.37302 -2.70184 0.0261648 4
-9.14708 7.46018 -2.72506 0.0399738 4
-10.6274 8.66748 -2.66568 0.0385211 4
-12.5047 10.1986 -2.55574 0.0519731 4
-17.3682 14.1651 -2.75187 0.0459118 1
-19.0717 15.5545 -2.15313 0.72378 10
-19.2033 15.6619 -1.29868 0.339396 10
-19.203 15.6616 -0.432535 0.339816 10
-19.2027 15.6614 0.432527 0.339821 10
-17.4327 14.2178 1.17894 0.375778 10
-17.4626 14.2422 1.97147 0.289068 10
-19.0812 15.5622 3.02328 0.254221 10
-19.0802 15.5614 3.89964 0.559272 10
-17.4316 14.2169 4.37239 0.369404 10
-17.4615 14.2412 5.20205 0.282754 10
-19.084 15.5645 6.59859 0.349092 10
-7.8364 6.34579 -2.70188 0.0267591 4
-9.13313 7.39587 -2.7132 0.0428431 4
-10.3663 8.3945 -2.59283 0.058656 4
-12.5406 10.1552 -2.5558 0.0562729 4
-17.418 14.1049 -2.75195 0.0459104 1
-19.0788 15.4497 -2.14783 0.725565 10
-19.08 15.4507 -1.28668 0.480395 10
-19.0812 15.4517 -0.428574 0.48095 10
-19.0824 15.4527 0.4286 0.48092 10
-17.5689 14.227 1.18478 0.373924 10
-17.599 14.2514 1.98125 0.287642 10
-19.1502 15.5076 3.02563 0.359692 10
-19.0873 15.4566 3.89005 0.560651 10
-17.5678 14.2261 4.39407 0.367581 10
-17.5979 14.2505 5.22784 0.281359 10
-19.1553 15.5116 6.60448 0.349953 10
-7.85861 6.31849 -2.70192 0.0255694 4
-9.12667 7.33803 -2.70365 0.0361547 4
-10.3958 8.35842 -2.59288 0.0621567 4
-12.5762 10.1116 -2.55586 0.0372755 4
-17.4677 14.0444 -2.75203 0.045909 1
-19.0859 15.3455 -2.14259 0.727341 10
-19.1372 15.3867 -1.28691 0.336043 10
-19.1369 15.3865 -0.428616 0.336458 10
-19.1366 15.3863 0.428609 0.336463 10
-17.7065 14.2364 1.1907 0.372065 10
-17.7369 14.2608 1.99114 0.286212 10
-19.0944 15.3523 3.88054 0.562024 10
-17.7054 14.2355 4.41602 0.365754 10
-17.7357 14.2599 5.25396 0.27996 10
-7.88073 6.2911 -2.70196 0.0344885 4
-9.15237 7.30625 -2.70369 0.040286 4
-10.4251 8.32224 -2.59293 0.0630309 4
-12.6117 10.0678 -2.55592 0.0419339 4
-17.5172 13.9838 -2.75212 0.0459076 1
-19.093 15.2417 -2.1374 0.729108 10
-33.9809 27.1266 -2.27872 0.730843 10
-29.7041 23.7125 -0.663434 0.506828 10
-29.7036 23.7121 0.663423 0.506836 10
-17.8454 14.2458 1.19669 0.370202 10
-17.876 14.2703 2.00116 0.284779 10
-19.1014 15.2485 3.87113 0.56339 10
-17.8443 14.2449 4.43824 0.363923 10
-17.8749 14.2693 5.2804 0.278559 10
-7.90275 6.26364 -2.70199 0.0279472 4
-9.17797 7.27437 -2.70374 0.0909002 4
-10.4543 8.28595 -2.59298 0.0604035 4
-12.6471 10.024 -2.55598 0.0487425 4
-17.5664 13.923 -2.7522 0.0459062 1
-19.1 15.1385 -2.13225 0.730866 10
-19.1012 15.1394 -1.27735 0.483905 10
-19.1024 15.1404 -0.425465 0.484465 10
-19.1036 15.1413 0.425491 0.484435 10
-17.9858 14.2554 1.20276 0.368334 10
-18.0166 14.2798 2.01131 0.283342 10
-19.1084 15.1452 3.86181 0.56475 10
-17.9846 14.2545 4.46075 0.362087 10
-18.0155 14.2789 5.30717 0.277153 10
-7.92467 6.2361 -2.70203 0.0118923 4
-9.20345 7.24241 -2.70378 0.104327 4
-10.4868 8.2523 -2.59389 0.0765731 4
-12.6823 9.98001 -2.55604 0.058418 4
-17.6154 13.862 -2.75228 0.0459049 1
-19.107 15.0357 -2.12716 0.732615 10
-19.216 15.1215 -1.28149 0.330982 10
-19.2156 15.1212 -0.426808 0.331391 10
-19.2153 15.121 0.426801 0.331396 10
-18.159 14.2897 1.211 0.282586 10
-18.1587 14.2895 2.02159 0.281902 10
-19.1154 15.0424 3.85259 0.566102 10
-18.1264 14.2641 4.48354 0.360247 10
-18.1575 14.2885 5.33428 0.275745 10
-7.9465 6.20849 -2.70207 0.0505414 4
-9.22883 7.21035 -2.70382 0.0867657 4
-10.5613 8.25142 -2.60519 0.232024 4
-12.7174 9.9359 -2.5561 0.0516073 4
-17.6642 13.8008 -2.75237 0.0459035 1
-19.114 14.9335 -2.12212 0.734356 10
-34.0182 26.578 -2.26243 0.736104 10
-57.0123 44.5429 -1.26287 0.736956 10
-57.0114 44.5422 1.26285 0.574578 10
-18.3025 14.2995 1.21723 0.281139 10
-18.3022 14.2992 2.03199 0.280458 10
-19.1224 14.94 3.84345 0.567447 10
-18.2697 14.2738 4.50661 0.358402 10
-18.301 14.2983 5.36174 0.274333 10
-7.96823 6.1808 -2.70211 0.117136 4
-9.25408 7.17821 -2.70387 0.0945111 4
-10.6393 8.25272 -2.61731 0.249826 4
-12.7523 9.89168 -2.55616 0.0412132 4
-17.7128 13.7395 -2.75245 0.0459021 1
-19.1209 14.8317 -2.11713 0.736087 10
-19.1388 14.8456 -1.2694 0.327588 10
-19.1385 14.8454 -0.422783 0.327993 10
-19.1382 14.8451 0.422776 0.327998 10
-18.4475 14.3093 1.22355 0.279688 10
-18.4471 14.3091 2.04253 0.279011 10
-18.5877 14.4181 3.72586 0.102535 10
-18.4144 14.2836 4.52998 0.356553 10
-18.4459 14.3081 5.38954 0.272917 10
-7.98987 6.15303 -2.70214 0.112377 4
-9.27923 7.14597 -2.70391 0.0872793 4
-10.7181 8.25401 -2.62957 0.300442 4
-12.787 9.84733 -2.55622 0.0415707 4
-17.7612 13.678 -2.75253 0.0459007 1
-19.1278 14.7304 -2.11219 0.73781 10
-19.2908 14.8559 -1.27604 0.325885 10
-19.2905 14.8557 -0.424993 0.326287 10
-19.2902 14.8554 0.424985 0.326293 10
-18.594 14.3193 1.22994 0.278234 10
-18.5937 14.319 2.05321 0.27756 10
-18.792 14.4718 2.91227 0.572958 10
-18.6375 14.3528 3.72577 0.102537 10
-18.5606 14.2936 4.55366 0.354699 10
-18.5924 14.3181 5.41771 0.271499 10
-18.7968 14.4755 6.35701 0.557447 10
-8.01141 6.12519 -2.70218 0.105835 4
-9.30426 7.11365 -2.70395 0.0180753 4
-10.7975 8.25531 -2.64197 0.274068 4
-12.8216 9.80287 -2.55628 0.0462284 4
-17.8094 13.6163 -2.75261 0.0458994 1
-19.1346 14.6295 -2.10729 0.739523 10
-19.1358 14.6304 -1.2624 0.741284 10
-19.137 14.6314 -0.420483 0.742143 10
-19.1382 14.6323 0.420509 0.742097 10
-18.742 14.3293 1.23642 0.276777 10
-18.7417 14.3291 2.06402 0.276107 10
-18.7987 14.3727 2.90552 0.574289 10
-18.7087 14.3039 3.73 0.355014 10
-18.7084 14.3036 4.57763 0.352842 10
-18.7404 14.3281 5.44623 0.270077 10
-18.8035 14.3764 6.34228 0.558742 10
-8.03285 6.09727 -2.70222 0.11178 4
-9.32918 7.08124 -2.70399 0.0139436 4
-10.8777 8.25661 -2.65452 0.27272 4
-12.856 9.75828 -2.55634 0.0498108 4
-17.8573 13.5545 -2.7527 0.045898 1
-19.1415 14.5292 -2.10245 0.741228 10
-19.1427 14.5301 -1.25949 0.742993 10
-19.1438 14.531 -0.419516 0.743853 10
-19.145 14.5319 0.419542 0.743807 10
-18.859 14.3147 1.24083 0.380672 10
-18.8586 14.3145 2.07138 0.379751 10
-18.8583 14.3143 2.907 0.378366 10
-18.858 14.314 3.74978 0.376521 10
-18.8577 14.3138 4.60191 0.374217 10
-18.8573 14.3135 5.46566 0.371456 10
-18.857 14.3133 6.34342 0.368244 10
-8.05419 6.06927 -2.70225 0.103454 4
-9.35399 7.04874 -2.70404 0.0371823 4
-10.9586 8.25792 -2.66722 0.195767 4
-12.8903 9.71356 -2.55639 0.0444345 4
-17.9051 13.4924 -2.75278 0.0458966 1
-19.1483 14.4293 -2.09765 0.742923 10
-19.1495 14.4301 -1.25662 0.744693 10
-19.1506 14.431 -0.418559 0.745555 10
-19.1518 14.4319 0.418584 0.745509 10
-19.0099 14.325 1.24746 0.378648 10
-19.0096 14.3248 2.08246 0.377731 10
-19.0093 14.3245 2.92254 0.376354 10
-19.0089 14.3243 3.76983 0.374518 10
-19.0086 14.324 4.62652 0.372227 10
-19.0083 14.3238 5.49488 0.369481 10
-19.0079 14.3235 6.37733 0.366286 10
-8.07544 6.0412 -2.70229 0.105831 4
-9.37869 7.01616 -2.70408 0.0253043 4
-11.0403 8.25922 -2.68008 0.219488 4
-12.9244 9.66873 -2.55645 0.0447919 4
-17.9526 13.4302 -2.75286 0.0458953 1
-19.1638 14.3363 -2.09385 0.481813 10
-19.1634 14.3361 -1.25425 0.482999 10
-19.1631 14.3358 -0.417735 0.483596 10
-19.1628 14.3356 0.417728 0.483604 10
-19.1625 14.3354 1.25418 0.376619 10
-19.1621 14.3351 2.09367 0.375707 10
-19.1618 14.3349 2.93828 0.374338 10
-19.1615 14.3346 3.79014 0.372512 10
-19.1612 14.3344 4.65144 0.370232 10
-19.1608 14.3341 5.52448 0.367502 10
-19.1605 14.3339 6.41168 0.364323 10
-8.09658 6.01305 -2.70232 0.124855 4
-9.40327 6.98348 -2.70412 0.0433781 4
-11.1228 8.26053 -2.69308 0.247197 4
-12.9584 9.62377 -2.55651 0.0523157 4
-17.9999 13.3679 -2.75294 0.0458939 1
-19.318 14.3468 -2.10522 0.479211 10
-19.3177 14.3466 -1.26105 0.48039 10
-19.3174 14.3463 -0.420003 0.480985 10
-19.317 14.3461 0.419996 0.480993 10
-19.3167 14.3458 1.26099 0.374585 10
-19.3164 14.3456 2.10504 0.373678 10
-19.316 14.3454 2.95424 0.372316 10
-19.3157 14.3451 3.81071 0.3705 10
-19.3154 14.3449 4.67669 0.368233 10
-19.315 14.3446 5.55447 0.365517 10
-19.3147 14.3444 6.44649 0.362356 10
-8.11763 5.98484 -2.70236 0.132583 4
-9.42773 6.95073 -2.70416 0.0196231 4
-11.2061 8.26184 -2.70625 0.175542 4
-12.9922 9.5787 -2.55657 0.0458648 4
-18.047 13.3054 -2.75302 0.0458926 1
-19.4739 14.3574 -2.11674 0.476604 10
-19.4736 14.3572 -1.26795 0.477777 10
-19.4733 14.3569 -0.422301 0.478368 10
-19.4729 14.3567 0.422293 0.478376 10
-19.4726 14.3565 1.26789 0.372547 10
-19.4723 14.3562 2.11656 0.371645 10
-19.4719 14.356 2.9704 0.370291 10
-19.4716 14.3557 3.83156 0.368485 10
-19.4713 14.3555 4.70227 0.36623 10
-19.4709 14.3552 5.58485 0.363529 10
-19.4706 14.3549 6.48175 0.360385 10
-8.13858 5.95654 -2.7024 0.118312 4
-9.45208 6.91788 -2.7042 0.0227211 4
-11.2902 8.26315 -2.71957 0.240402 4
-13.0259 9.5335 -2.55663 0.0487303 4
-18.0938 13.2427 -2.7531 0.0458913 1
-19.6316 14.3681 -2.12841 0.47399 10
-19.6313 14.3679 -1.27495 0.475157 10
-19.6309 14.3677 -0.424629 0.475744 10
-19.6306 14.3674 0.424622 0.475753 10
-19.6302 14.3672 1.27488 0.370505 10
-19.6299 14.3669 2.12823 0.369608 10
-19.6296 14.3667 2.98677 0.36826 10
-19.6292 14.3664 3.85268 0.366464 10
-19.6289 14.3662 4.7282 0.364222 10
-19.6285 14.3659 5.61564 0.361536 10
-19.6282 14.3656 6.51749 0.358409 10
-8.15943 5.92818 -2.70243 0.115932 4
-9.47632 6.88495 -2.70425 0.032532 4
-11.375 8.26446 -2.73305 0.209558 4
-13.0594 9.48819 -2.55668 0.0333221 4
-18.1405 13.1798 -2.75318 0.0458899 1
-19.791 14.379 -2.14023 0.471371 10
-34.139 24.8034 -2.21151 0.753054 10
-67.0443 48.7106 -1.44653 0.312505 10
-63.6681 46.2576 1.37368 0.58781 10
-19.7896 14.378 1.28196 0.368458 10
-19.7893 14.3777 2.14005 0.367566 10
-19.7889 14.3775 3.00337 0.366226 10
-19.7886 14.3772 3.87409 0.36444 10
-19.7882 14.377 4.75446 0.36221 10
-19.7879 14.3767 5.64684 0.359538 10
-19.7875 14.3765 6.55369 0.356429 10
-8.18018 5.89973 -2.70247 0.103446 4
-9.50044 6.85193 -2.70429 0.00929473 4
-11.4494 8.25756 -2.74397 0.0720903 1
-13.0927 9.44275 -2.55674 0.0480115 4
-18.1869 13.1168 -2.75326 0.0458886 1
-19.9522 14.3899 -2.15222 0.468746 10
-34.1507 24.6303 -2.20669 0.754699 10
-67.5834 48.7427 -1.45448 0.310765 10
-64.0331 46.1821 1.37807 0.366846 10
-19.9508 14.389 1.28914 0.366406 10
-19.9504 14.3887 2.15203 0.365519 10
-19.9501 14.3884 3.02018 0.364186 10
-19.9497 14.3882 3.89578 0.36241 10
-19.9494 14.3879 4.78108 0.360193 10
-19.949 14.3877 5.67846 0.357536 10
-19.9486 14.3874 6.59039 0.354444 10
-8.20083 5.87122 -2.7025 0.0552894 4
-9.52445 6.81883 -2.70433 0.0227201 4
-11.4783 8.21769 -2.74402 0.072089 1
-13.1259 9.3972 -2.5568 0.0426361 4
-18.2331 13.0536 -2.75334 0.0458873 1
-20.1151 14.401 -2.16437 0.466116 10
-33.8184 24.2116 -2.17974 0.756335 10
-33.8205 24.2131 -0.726034 0.757212 10
-33.8225 24.2146 0.726077 0.757166 10
-20.1137 14.4 1.29642 0.36435 10
-20.1134 14.3998 2.16418 0.363468 10
-20.113 14.3995 3.03723 0.362143 10
-20.1127 14.3993 3.91776 0.360377 10
-20.1123 14.399 4.80806 0.358172 10
-20.112 14.3987 5.7105 0.35553 10
-20.1116 14.3985 6.62757 0.352456 10
-8.22139 5.84264 -2.70254 0.0225911 4
-9.54833 6.78565 -2.70437 0.0242688 4
-11.5072 8.17773 -2.74407 0.0720877 1
-13.1589 9.35154 -2.55685 0.04371 4
-18.2791 12.9903 -2.75342 0.045886 1
-20.28 14.4122 -2.17668 0.463479 10
-33.83 24.0417 -2.17506 0.757961 10
-33.832 24.0432 -0.724476 0.75884 10
-33.8341 24.0446 0.724519 0.758794 10
-20.2786 14.4112 1.30379 0.362289 10
-20.2782 14.411 2.17648 0.361412 10
-20.2778 14.4107 3.0545 0.360095 10
-20.2775 14.4105 3.94004 0.358339 10
-20.2771 14.4102 4.83541 0.356146 10
-20.2767 14.4099 5.74297 0.35352 10
-20.2764 14.4097 6.66526 0.350463 10
-8.24184 5.81398 -2.70257 0.0172403 4
-9.57211 6.75238 -2.70441 0.0371772 4
-11.5359 8.13765 -2.74412 0.0720864 1
-13.2491 9.34621 -2.56803 0.223704 4
-18.3248 12.9267 -2.7535 0.0458847 1
-20.4467 14.4236 -2.18916 0.460837 10
-34.0323 24.0071 -2.18267 0.461972 10
-34.0317 24.0067 -0.726953 0.462544 10
-34.0311 24.0063 0.726939 0.462552 10
-20.418 14.4033 1.30951 0.592145 10
-20.4192 14.4042 2.18621 0.590666 10
-20.4205 14.4051 3.06839 0.588467 10
-20.4217 14.406 3.95828 0.58555 10
-20.423 14.4069 4.85817 0.581921 10
-20.4243 14.4078 5.77049 0.577582 10
-20.4256 14.4087 6.69775 0.57254 10
-8.26219 5.78525 -2.70261 0.0178346 4
-9.59576 6.71903 -2.70445 0.036144 4
-11.5644 8.09748 -2.74417 0.0720851 1
-13.3455 9.34461 -2.58037 0.231414 4
-18.3703 12.8631 -2.75357 0.0458834 1
-20.6154 14.4351 -2.2018 0.45819 10
-34.1973 23.9453 -2.18788 0.761187 10
-34.3124 24.0258 -0.731153 0.459886 10
-34.3118 24.0254 0.731139 0.459895 10
-20.4249 14.3017 1.30675 0.593399 10
-20.4261 14.3025 2.18159 0.591917 10
-20.4274 14.3034 3.06191 0.589713 10
-20.4286 14.3043 3.94991 0.58679 10
-20.4299 14.3052 4.84791 0.583153 10
-20.4312 14.3061 5.75829 0.578805 10
-20.4325 14.307 6.68359 0.573752 10
-8.28244 5.75645 -2.70264 0.0237792 4
-11.5928 8.0572 -2.74422 0.0720838 1
-13.4428 9.34298 -2.59287 0.240974 4
-18.4157 12.7992 -2.75365 0.0458821 1
-20.786 14.4467 -2.21463 0.455537 10
-34.2089 23.7758 -2.1833 0.762786 10
-66.5499 46.2534 -1.41464 0.457223 10
-64.142 44.5799 1.36346 0.356509 10
-20.4318 14.2005 1.30401 0.594646 10
-20.433 14.2013 2.17702 0.59316 10
-20.4343 14.2022 3.05549 0.590952 10
-20.4355 14.2031 3.94163 0.588023 10
-20.4368 14.2039 4.83774 0.584378 10
-20.4381 14.2048 5.74621 0.580022 10
-20.4394 14.2057 6.66957 0.574958 10
-8.30259 5.72758 -2.70268 0.0546913 4
-9.64272 6.65207 -2.70453 0.0139408 4
-11.6211 8.01683 -2.74427 0.0720825 1
-13.541 9.34132 -2.6055 0.239592 4
-18.4607 12.7352 -2.75373 0.0458808 1
-20.9586 14.4584 -2.22763 0.452878 10
-34.2203 23.607 -2.17876 0.764375 10
-34.2224 23.6085 -0.725706 0.505475 10
-34.2245 23.6099 0.725748 0.505444 10
-20.4386 14.0997 1.30129 0.595885 10
-20.4399 14.1005 2.17249 0.594396 10
-20.4411 14.1014 3.04913 0.592183 10
-20.4424 14.1022 3.93343 0.589249 10
-20.4436 14.1031 4.82768 0.585597 10
-20.4449 14.104 5.73426 0.581231 10
-20.4462 14.1049 6.6557 0.576157 10
-8.32264 5.69863 -2.70271 0.0208062 4
-9.66603 6.61847 -2.70457 0.0185875 4
-11.6492 7.97636 -2.74431 0.0720813 1
-13.6402 9.33961 -2.61829 0.258356 4
-18.5056 12.6711 -2.75381 0.0458795 1
-21.1333 14.4703 -2.24081 0.450214 10
-21.3036 14.5869 -1.35312 0.505933 10
-21.3049 14.5878 -0.4507 0.50652 10
-21.3062 14.5887 0.450727 0.506489 10
-20.5467 14.0686 1.30504 0.351921 10
-20.5464 14.0684 2.17858 0.351069 10
-20.546 14.0681 3.05743 0.34979 10
-20.5456 14.0679 3.94383 0.348084 10
-20.5452 14.0676 4.84004 0.345954 10
-20.5448 14.0673 5.74848 0.343403 10
-20.5444 14.0671 6.67165 0.340434 10
-8.34259 5.66962 -2.70275 0.0219949 4
-9.68922 6.58479 -2.70461 0.0309787 4
-11.6772 7.93579 -2.74436 0.07208 1
-13.7403 9.33787 -2.63124 0.255156 4
-18.5502 12.6067 -2.75388 0.0458782 1
-21.31 14.4823 -2.25418 0.447544 10
-21.3107 14.4828 -1.35035 0.506971 10
-21.312 14.4836 -0.449778 0.507559 10
-21.3133 14.4845 0.449804 0.507528 10
-21.3085 14.4812 1.35021 0.349834 10
-21.3073 14.4804 4.08031 0.34602 10
-21.3069 14.4802 5.00755 0.343903 10
-8.36243 5.64054 -2.70278 0.0160501 4
-9.71229 6.55102 -2.70465 0.0335598 4
-11.6484 7.85696 -2.73115 0.00923847 4
-13.8413 9.3361 -2.64433 0.27033 4
-18.5947 12.5423 -2.75396 0.0458769 1
-21.4889 14.4945 -2.26773 0.444869 10
-21.5765 14.5536 -1.36396 0.508002 10
-21.5778 14.5544 -0.454313 0.508591 10
-21.5791 14.5553 0.454339 0.508561 10
-21.4873 14.4934 1.35833 0.347743 10
-21.5985 14.5684 2.2793 0.221455 10
-21.5981 14.5681 3.19879 0.220648 10
-21.4861 14.4926 4.10485 0.343952 10
-21.4857 14.4923 5.03765 0.341848 10
-21.5969 14.5673 6.01425 0.21662 10
-21.5965 14.567 6.9801 0.214747 10
-8.38218 5.61138 -2.70282 0.0208054 4
-9.73524 6.51717 -2.70469 0.0294289 4
-11.6098 7.7721 -2.71572 0.00818493 4
-13.9434 9.33428 -2.65759 0.239497 4
