VERSION 0.7
FIELDS x y z intensity label
SIZE 4 4 4 4 4
TYPE F F F F F
COUNT 1 1 1 1 1
WIDTH 1251
HEIGHT 1
VIEWPOINT 5.06619 3.97035 2.72856 0.73051 0.000613781 0.000533703 -0.682901
POINTS 1251
DATA ascii
-13.9509 36.7261 4.82379 0.626099 10
-13.951 36.7262 6.2224 0.623033 10
-13.951 36.7263 7.63657 0.619209 10
-13.951 36.7264 9.07009 0.614629 10
-13.9511 36.7265 10.5269 0.609301 10
-3.60908 9.40198 -2.69849 0.0523923 4
-4.12832 10.7546 -2.65955 0.0331028 4
-4.90621 12.7811 -2.66115 0.0228002 4
-6.02645 15.6994 -2.66345 0.0247823 4
-7.45396 19.4182 -2.55389 0.0402372 4
-11.2695 29.358 -2.75123 0.0328403 1
-16.5187 43.0328 -2.4157 0.806619 10
-16.5188 43.0329 -0.804581 0.807601 10
-16.5188 43.033 0.804583 0.807599 10
-14.1017 36.7361 2.06223 0.628926 10
-14.1017 36.7362 3.44266 0.627391 10
-14.1017 36.7363 4.83156 0.625092 10
-14.1018 36.7364 6.23242 0.622031 10
-14.1018 36.7365 7.64888 0.618213 10
-14.1018 36.7365 9.0847 0.613641 10
-14.1019 36.7366 10.5439 0.608321 10
-3.64195 9.3895 -2.69854 0.00893034 4
-4.16593 10.7404 -2.65961 0.00724107 4
-4.95093 12.7643 -2.66122 0.0131536 4
-7.85536 20.2523 -2.66718 0.0667799 4
-11.3725 29.3202 -2.75139 0.0328384 1
-16.6959 43.0447 -2.41963 0.805309 10
-16.696 43.0448 -0.80589 0.80629 10
-16.696 43.0449 0.805891 0.806288 10
-14.253 36.7463 2.06558 0.627905 10
-14.253 36.7464 3.44826 0.626373 10
-14.253 36.7465 4.83941 0.624077 10
-14.2531 36.7466 6.24256 0.621021 10
-14.2531 36.7467 7.66131 0.617209 10
-14.2531 36.7467 9.09947 0.612644 10
-14.2532 36.7468 10.561 0.607334 10
-3.67477 9.37691 -2.69859 0.0220278 4
-4.20348 10.726 -2.65967 0.0165507 4
-4.99558 12.7472 -2.66129 0.0605049 4
-6.1363 15.658 -2.66362 0.0100559 4
-7.92633 20.2256 -2.66729 0.0251462 4
-11.4755 29.282 -2.75155 0.0328365 1
-16.8737 43.0567 -2.4236 0.80399 10
-16.8738 43.0568 -0.807212 0.804969 10
-16.8738 43.0569 0.807213 0.804967 10
-14.4047 36.7566 2.06897 0.626877 10
-14.4048 36.7566 3.45392 0.625347 10
-14.4048 36.7567 4.84735 0.623055 10
-14.4048 36.7568 6.2528 0.620004 10
-14.4049 36.7569 7.67388 0.616198 10
-14.4049 36.757 9.1144 0.611641 10
-14.4049 36.7571 10.5783 0.606339 10
-3.70755 9.3642 -2.69864 0.0315527 4
-4.241 10.7115 -2.65973 0.0144815 4
-5.04018 12.73 -2.66136 0.0184141 4
-7.99721 20.1987 -2.6674 0.017881 4
-11.5783 29.2435 -2.75171 0.0328346 1
-17.0521 43.0687 -2.42761 0.802661 10
-17.0522 43.0688 -0.808549 0.803638 10
-17.0522 43.0689 0.80855 0.803636 10
-14.557 36.7668 2.0724 0.62584 10
-14.5571 36.7669 3.45964 0.624313 10
-14.5571 36.767 4.85538 0.622025 10
-14.5571 36.7671 6.26315 0.618979 10
-14.5572 36.7672 7.68659 0.615179 10
-14.5572 36.7673 9.1295 0.61063 10
-14.5572 36.7673 10.5959 0.605336 10
-3.74028 9.35138 -2.69869 0.0196456 4
-4.27845 10.6969 -2.65979 0.00568904 4
-5.08472 12.7127 -2.66143 0.0254283 4
-6.24586 15.6158 -2.66379 0.0254974 4
-8.068 20.1714 -2.66751 0.0357605 4
-11.681 29.2046 -2.75187 0.0328327 1
-17.2266 43.0695 -2.43103 0.385008 10
-17.2288 43.0752 -0.809792 0.385427 10
-17.2311 43.0808 0.809897 0.385376 10
-14.7098 36.7771 2.07586 0.624796 10
-14.7098 36.7772 3.46541 0.623272 10
-14.7099 36.7773 4.86349 0.620987 10
-14.7099 36.7774 6.27362 0.617947 10
-14.7099 36.7775 7.69943 0.614153 10
-14.71 36.7776 9.14475 0.609611 10
-14.71 36.7776 10.6136 0.604327 10
-3.77297 9.33844 -2.69874 0.0434577 4
-4.31586 10.6821 -2.65984 0.0196526 4
-5.12919 12.6952 -2.6615 0.0284965 4
-6.30053 15.5944 -2.66388 0.0150825 4
-8.12014 20.0981 -2.66153 0.138066 4
-11.7835 29.1653 -2.75203 0.0328308 1
-15.0876 37.3431 -2.11077 0.387802 10
-15.0895 37.348 -0.703109 0.388225 10
-15.0915 37.3528 0.7032 0.388174 10
-14.8631 36.7875 2.07936 0.623745 10
-14.8631 36.7876 3.47126 0.622223 10
-14.8632 36.7876 4.87169 0.619942 10
-14.8632 36.7877 6.28419 0.616907 10
-14.8632 36.7878 7.71241 0.61312 10
-14.8633 36.7879 9.16016 0.608585 10
-14.8633 36.788 10.6315 0.60331 10
-3.80562 9.32539 -2.69879 0.0291697 4
-4.35322 10.6672 -2.6599 0.00724028 4
-5.17361 12.6775 -2.66157 0.018851 4
-6.35513 15.5728 -2.66396 0.0168775 4
-8.14094 19.9488 -2.64551 0.0535767 4
-11.886 29.1257 -2.75218 0.0328289 1
-15.1091 37.0238 -2.09569 0.390593 10
-15.1111 37.0286 -0.698086 0.391019 10
-15.113 37.0334 0.698175 0.390968 10
-15.0169 36.7978 2.0829 0.622686 10
-15.017 36.7979 3.47716 0.621166 10
-15.017 36.798 4.87998 0.61889 10
-15.017 36.7981 6.29488 0.615859 10
-15.0171 36.7982 7.72553 0.612079 10
-15.0171 36.7983 9.17574 0.607552 10
-15.0171 36.7984 10.6495 0.602285 10
-3.83822 9.31222 -2.69884 0.0261927 4
-4.39052 10.6522 -2.65996 0.0289605 4
-5.21796 12.6597 -2.66163 0.0223576 4
-8.16148 19.8013 -2.62971 0.147722 4
-11.9882 29.0857 -2.75234 0.032827 1
-15.1712 36.808 -2.08646 0.797247 10
-15.1712 36.8081 -0.694922 0.798218 10
-15.1712 36.8082 0.694923 0.798216 10
-15.1713 36.8083 2.08647 0.621619 10
-15.1713 36.8083 3.48313 0.620102 10
-15.1713 36.8084 4.88835 0.61783 10
-15.1714 36.8085 6.30568 0.614804 10
-15.1714 36.8086 7.73879 0.61103 10
-15.1714 36.8087 9.19149 0.606511 10
-15.1715 36.8088 10.6678 0.601254 10
-3.87078 9.29894 -2.69889 0.136914 4
-4.42777 10.637 -2.66002 0.0336141 4
-5.26226 12.6418 -2.6617 0.0552351 4
-6.46411 15.529 -2.66413 0.0190308 4
-8.18176 19.6554 -2.61412 0.123501 4
-12.0904 29.0453 -2.7525 0.0328251 1
-15.326 36.8185 -2.09007 0.795869 10
-15.3261 36.8185 -0.696126 0.796838 10
-15.3261 36.8186 0.696126 0.796836 10
-15.3261 36.8187 2.09008 0.620545 10
-15.3262 36.8188 3.48916 0.61903 10
-15.3262 36.8189 4.89681 0.616762 10
-15.3263 36.819 6.3166 0.613742 10
-15.3204 36.8048 7.74919 0.284521 10
-15.3263 36.8191 9.2074 0.605463 10
-15.3264 36.8192 10.6863 0.600214 10
-3.90328 9.28555 -2.69894 0.117863 4
-4.46497 10.6218 -2.66007 0.0222366 4
-5.30649 12.6237 -2.66177 0.0223565 4
-6.51848 15.5069 -2.66422 0.0229799 4
-8.20179 19.5113 -2.59874 0.128272 4
-12.1924 29.0046 -2.75266 0.0328232 1
-15.4814 36.8289 -2.09372 0.794482 10
-15.4815 36.829 -0.697341 0.795449 10
-15.4815 36.8291 0.697342 0.795447 10
-15.3527 36.5226 2.07631 0.224881 10
-15.4816 36.8293 3.49525 0.617951 10
-15.3566 36.532 4.86576 0.223454 10
-15.4817 36.8294 6.32763 0.612672 10
-15.3412 36.4952 7.69522 0.286516 10
-15.3626 36.5463 9.15252 0.219276 10
-15.4818 36.8297 10.7049 0.599168 10
-3.93575 9.27204 -2.69899 0.123813 4
-4.50212 10.6063 -2.66013 0.0336127 4
-5.35066 12.6054 -2.66184 0.0192874 4
-6.57278 15.4845 -2.6643 0.0678603 4
-8.22157 19.3688 -2.58357 0.0934672 4
-12.2943 28.9635 -2.75282 0.0328213 1
-18.3178 43.1541 -2.45692 0.793085 10
-18.3179 43.1542 -0.818311 0.79405 10
-18.3179 43.1543 0.818313 0.794048 10
-15.3733 36.2172 2.06198 0.226444 10
-16.2683 38.3256 3.64263 0.616865 10
-15.3772 36.2263 4.83217 0.225007 10
-16.2683 38.3258 6.59443 0.611594 10
-15.3617 36.1898 7.64209 0.288508 10
-15.3832 36.2404 9.08932 0.220801 10
-16.2684 38.3261 11.1563 0.598114 10
-3.96816 9.25842 -2.69904 0.0958344 4
-4.53921 10.5908 -2.66019 0.0263725 4
-5.39477 12.5869 -2.66191 0.0341905 4
-6.62699 15.4619 -2.66438 0.066422 4
-8.2411 19.2279 -2.5686 0.100143 4
-12.396 28.9221 -2.75298 0.0328195 1
-18.5012 43.1665 -2.46129 0.791678 10
-18.5012 43.1666 -0.819766 0.792642 10
-18.5012 43.1667 0.819767 0.79264 10
-15.3936 35.9159 2.04787 0.228004 10
-16.4311 38.3366 3.6491 0.615771 10
-15.378 35.8795 4.79303 0.293802 10
-16.4311 38.3368 6.60615 0.61051 10
-15.3819 35.8887 7.58979 0.290496 10
-15.4034 35.9388 9.02711 0.222323 10
-16.4313 38.337 11.1761 0.597054 10
-4.00053 9.24468 -2.69909 0.103571 4
-4.57625 10.5751 -2.66025 0.0351625 4
-5.43882 12.5684 -2.66198 0.0276147 4
-6.68114 15.4392 -2.66447 0.0775498 4
-8.26465 19.0985 -2.55515 0.0337938 4
-12.4976 28.8803 -2.75313 0.0328176 1
-18.6852 43.1789 -2.4657 0.790261 10
-18.6852 43.179 -0.821235 0.791224 10
-18.6853 43.1791 0.821236 0.791222 10
-15.4136 35.6187 2.03398 0.229561 10
-16.6246 38.4173 3.66228 0.743164 10
-15.3979 35.5825 4.76051 0.295809 10
-15.4018 35.5916 7.53829 0.292481 10
-15.4234 35.6413 8.96584 0.223842 10
-16.5947 38.3481 11.1962 0.595985 10
-4.03285 9.23083 -2.69914 0.112497 4
-4.61324 10.5593 -2.6603 0.00723919 4
-5.48279 12.5496 -2.66204 0.0197243 4
-6.7352 15.4163 -2.66455 0.0129246 4
-8.3316 19.0703 -2.55525 0.0326753 4
-12.5991 28.8382 -2.75329 0.0328157 1
-18.8698 43.1913 -2.47016 0.788835 10
-18.8699 43.1914 -0.822719 0.789796 10
-18.8699 43.1915 0.822721 0.789794 10
-15.4333 35.3255 2.02031 0.231115 10
-16.7889 38.4283 3.6689 0.741823 10
-15.4176 35.2896 4.72849 0.297812 10
-15.4215 35.2985 7.48757 0.294462 10
-15.4431 35.3478 8.90551 0.225358 10
-16.7587 38.3591 11.2164 0.59491 10
-4.06512 9.21687 -2.69919 0.0303558 4
-4.65017 10.5433 -2.66036 0.035161 4
-6.79935 15.4162 -2.66863 0.0197312 4
-8.39845 19.0419 -2.55535 0.0371423 4
-12.7004 28.7957 -2.75345 0.0328138 1
-19.0552 43.2039 -0.824219 0.788359 10
-19.0552 43.204 0.824221 0.788357 10
-15.4528 35.0363 2.00684 0.232666 10
-16.9538 38.4395 3.67559 0.740473 10
-15.4371 35.0006 4.69696 0.299812 10
-15.4409 35.0093 7.43762 0.29644 10
-15.4625 35.0582 8.8461 0.226872 10
-16.9233 38.3702 11.2369 0.593827 10
-4.09734 9.20279 -2.69924 0.0101184 4
-4.68704 10.5273 -2.66042 0.032575 4
-5.57055 12.5117 -2.66218 0.0241062 4
-6.91039 15.521 -2.69092 0.0184719 4
-8.46522 19.0132 -2.55546 0.0410503 4
-12.8016 28.7528 -2.7536 0.032812 1
-19.2412 43.2165 -0.825735 0.786911 10
-19.2413 43.2166 0.825736 0.78691 10
-15.4721 34.7508 1.99357 0.234215 10
-17.1193 38.4506 3.68235 0.739113 10
-15.4563 34.7153 4.66589 0.301808 10
-15.4601 34.724 7.38842 0.298414 10
-15.4817 34.7724 8.78757 0.228383 10
-17.0885 38.3814 11.2575 0.592737 10
-4.12952 9.1886 -2.69929 0.0178557 4
-4.72386 10.5111 -2.66048 0.0243014 4
-5.61433 12.4925 -2.66225 0.0135868 4
-7.02309 15.6271 -2.71355 0.0184731 4
-8.53187 18.9843 -2.55556 0.0399317 4
-12.9026 28.7095 -2.75376 0.0328101 1
-17.3933 38.7018 -2.22369 0.784499 10
-19.4279 43.2291 -0.827266 0.785455 10
-19.4279 43.2292 0.827268 0.785453 10
-15.491 34.4692 1.9805 0.23576 10
-17.2754 38.4395 3.68704 0.0738235 10
-15.4752 34.4339 4.6353 0.3038 10
-15.479 34.4424 7.33996 0.300384 10
-15.5006 34.4904 8.72993 0.229891 10
-17.2543 38.3926 11.2784 0.59164 10
-4.16165 9.1743 -2.69934 0.00952286 4
-4.76063 10.4947 -2.66053 0.0408462 4
-5.65805 12.4731 -2.66232 0.0613582 4
-7.13752 15.7346 -2.73653 0.0166247 4
-8.59844 18.9552 -2.55566 0.0312739 4
-13.0035 28.666 -2.75392 0.0328083 1
-17.5259 38.6357 -2.2234 0.420962 10
-17.528 38.6404 -0.74062 0.421425 10
-17.5301 38.645 0.740708 0.421374 10
-15.5098 34.1911 1.96762 0.237303 10
-17.4205 38.4033 3.68938 0.736368 10
-15.4939 34.1561 4.60515 0.305789 10
-17.4522 38.4733 6.6912 0.730077 10
-15.5578 34.2971 7.32052 0.124741 10
-15.5193 34.2121 8.67313 0.231396 10
-17.4207 38.4038 11.2995 0.590535 10
-4.19372 9.15988 -2.69939 0.0440424 4
-4.79733 10.4783 -2.66059 0.0103406 4
-5.7017 12.4536 -2.66238 0.0192835 4
-7.20775 15.7431 -2.74237 0.059135 1
-8.6649 18.9258 -2.55577 0.0365778 4
-13.1042 28.622 -2.75407 0.0328064 1
-17.5469 38.3257 -2.20907 0.423693 10
-17.549 38.3303 -0.735846 0.280168 10
-17.5511 38.3349 0.735933 0.280134 10
-15.6379 34.1561 1.96874 0.440733 10
-17.5553 38.344 3.68954 0.398255 10
-15.6273 34.133 4.60937 0.568065 10
-17.5734 38.3837 6.68626 0.728703 10
-15.6771 34.2417 7.32034 0.124744 10
-15.6381 34.1565 8.67284 0.430021 10
-17.5661 38.3676 11.3068 0.31919 10
-4.22575 9.14536 -2.69944 0.0374949 4
-4.83398 10.4617 -2.66064 0.0165446 4
-5.74528 12.4339 -2.66245 0.024542 4
-7.26289 15.7183 -2.74245 0.0591331 1
-8.73126 18.8962 -2.55587 0.0396477 4
-13.2048 28.5777 -2.75423 0.0328046 1
-17.5675 38.0196 -2.19495 0.426419 10
-17.5696 38.0241 -0.731142 0.28197 10
-17.5717 38.0286 0.731228 0.281937 10
-15.787 34.1662 1.97248 0.439897 10
-17.635 38.1655 3.67827 0.400818 10
-15.7763 34.1431 4.61814 0.566986 10
-15.7961 34.1859 7.32015 0.124748 10
-15.7872 34.1666 8.68933 0.429205 10
-17.5866 38.061 11.2345 0.321246 10
-4.25772 9.13072 -2.69949 0.0696321 4
-4.87057 10.445 -2.6607 0.0118912 4
-5.7888 12.4141 -2.66252 0.0210355 4
-7.31793 15.6934 -2.74254 0.0591313 1
-8.79752 18.8663 -2.55597 0.0312702 4
-13.3052 28.533 -2.75438 0.0328027 1
-17.5879 37.7175 -2.18104 0.429139 10
-17.605 37.754 -0.727125 0.514902 10
-17.605 37.7541 0.727126 0.5149 10
-15.9367 34.1763 1.97626 0.439055 10
-17.6554 37.8621 3.65494 0.403376 10
-15.9259 34.1532 4.62699 0.565901 10
-15.9259 34.1533 7.32503 0.559673 10
-15.9368 34.1767 8.70599 0.428384 10
-17.6069 37.7582 11.1632 0.323298 10
-4.28965 9.11596 -2.69954 0.00476108 4
-4.90711 10.4281 -2.66076 0.0170609 4
-5.83224 12.3941 -2.66258 0.0205967 4
-7.3729 15.6682 -2.74262 0.0591295 1
-8.86368 18.8363 -2.55607 0.0312689 4
-13.4054 28.488 -2.75454 0.0328009 1
-17.6081 37.4191 -2.16732 0.431854 10
-17.6394 37.4857 -0.723139 0.513908 10
-17.6395 37.4858 0.72314 0.513907 10
-16.0869 34.1864 1.98009 0.438207 10
-17.6756 37.5625 3.63195 0.40593 10
-16.076 34.1633 4.63594 0.564809 10
-16.0761 34.1635 7.3392 0.558593 10
-16.0871 34.1868 8.72283 0.427557 10
-17.627 37.4593 11.0929 0.325345 10
-4.32152 9.1011 -2.69959 0.0374928 4
-4.94358 10.4112 -2.66081 0.0263663 4
-5.87562 12.374 -2.66265 0.020158 4
-7.42777 15.6429 -2.74271 0.0591276 1
-8.92973 18.806 -2.55617 0.0415972 4
-13.5056 28.4426 -2.75469 0.032799 1
-17.628 37.1245 -2.15381 0.434564 10
-17.6721 37.2173 -0.719147 0.512908 10
-17.6721 37.2174 0.719148 0.512907 10
-16.2377 34.1966 1.98394 0.437355 10
-17.6362 37.1417 3.5972 0.337851 10
-16.2267 34.1735 4.64498 0.56371 10
-17.6404 37.1505 6.51371 0.334887 10
-16.2268 34.1736 7.3535 0.557506 10
-16.2379 34.197 8.73983 0.426725 10
-17.6468 37.1641 11.0237 0.327389 10
-4.35334 9.08613 -2.69964 0.0612967 4
-4.98 10.3941 -2.66087 0.0336034 4
-5.91892 12.3538 -2.66272 0.0184047 4
-7.48256 15.6173 -2.74279 0.0591258 1
-8.99567 18.7754 -2.55628 0.0379664 4
-13.6055 28.3969 -2.75484 0.0327972 1
-17.6476 36.8335 -2.14049 0.437268 10
-17.7029 36.9488 -0.715147 0.511902 10
-17.7029 36.9488 0.715148 0.511901 10
-16.3891 34.2068 1.98784 0.436497 10
-17.6558 36.8505 3.57494 0.339955 10
-16.3781 34.1837 4.65411 0.562604 10
-17.6599 36.8592 6.47339 0.336973 10
-16.3781 34.1838 7.36795 0.556413 10
-16.3893 34.2072 8.75701 0.425888 10
-17.6663 36.8725 10.9554 0.329429 10
-4.38511 9.07104 -2.69969 0.00654613 4
-5.01636 10.3768 -2.66093 0.0217125 4
-5.96216 12.3333 -2.66278 0.022348 4
-7.53129 15.5792 -2.7407 0.142025 4
-9.06152 18.7447 -2.55638 0.0388023 4
-13.7053 28.3508 -2.755 0.0327954 1
-17.667 36.546 -2.12735 0.439968 10
-17.7319 36.6801 -0.711141 0.51089 10
-17.7319 36.6802 0.711142 0.510888 10
-16.5412 34.2171 1.99178 0.435634 10
-17.6752 36.5628 3.553 0.342054 10
-16.53 34.1939 4.66333 0.561492 10
-17.6793 36.5714 6.43365 0.339055 10
-16.5301 34.1941 7.38256 0.555312 10
-16.5414 34.2175 8.77436 0.425046 10
-17.6856 36.5845 10.8881 0.331464 10
-4.41683 9.05584 -2.69973 0.0214233 4
-5.05265 10.3595 -2.66098 0.0398054 4
-6.00532 12.3127 -2.66285 0.0249765 4
-7.5439 15.4673 -2.72563 0.179704 4
-9.12725 18.7136 -2.55648 0.0401965 4
-13.805 28.3044 -2.75515 0.0327935 1
-17.6862 36.2621 -2.11441 0.442662 10
-17.759 36.4113 -0.707127 0.509871 10
-17.759 36.4114 0.707129 0.50987 10
-16.6938 34.2273 1.99576 0.434765 10
-17.6943 36.2787 3.53137 0.34415 10
-16.6825 34.2042 4.67265 0.560372 10
-17.6984 36.2871 6.39447 0.341132 10
-16.6826 34.2044 7.3973 0.554205 10
-16.694 34.2278 8.79189 0.424198 10
-17.7047 36.3001 10.8218 0.333496 10
-4.44849 9.04053 -2.69978 0.0107115 4
-5.08889 10.342 -2.66104 0.0211946 4
-6.04842 12.292 -2.66292 0.030234 4
-7.55636 15.3566 -2.71075 0.149578 4
-9.19289 18.6824 -2.55658 0.038241 4
-13.9045 28.2576 -2.7553 0.0327917 1
-17.7051 35.9816 -2.10164 0.44535 10
-17.7843 36.1424 -0.703107 0.508846 10
-17.7843 36.1425 0.703108 0.508845 10
-16.847 34.2377 1.99978 0.433891 10
-17.7132 35.998 3.51004 0.346241 10
-16.8356 34.2145 4.68206 0.559246 10
-17.7173 36.0062 6.35584 0.343205 10
-16.8357 34.2147 7.4122 0.553091 10
-16.8472 34.2381 8.8096 0.423346 10
-17.7236 36.0191 10.7564 0.335524 10
-4.4801 9.02511 -2.69983 0.016662 4
-5.12507 10.3244 -2.66109 0.0186095 4
-6.09144 12.2711 -2.66298 0.0192792 4
-7.56868 15.247 -2.69606 0.180472 4
-9.2584 18.6509 -2.55668 0.0466131 4
-14.0038 28.2105 -2.75546 0.0327899 1
-17.7239 35.7045 -2.08906 0.448033 10
-17.8077 35.8734 -0.699078 0.507815 10
-17.8077 35.8735 0.699079 0.507814 10
-17.0009 34.2481 2.00384 0.433012 10
-17.7319 35.7206 3.48901 0.348328 10
-16.9894 34.2249 4.69156 0.558113 10
-17.7359 35.7288 6.31775 0.345274 10
-16.9895 34.2251 7.42725 0.55197 10
-17.0011 34.2485 8.82749 0.422488 10
-17.7422 35.7414 10.6919 0.337547 10
-4.51166 9.00958 -2.69988 0.0243975 4
-5.16118 10.3066 -2.66115 0.00723689 4
-6.13439 12.2501 -2.66305 0.0232221 4
-7.58086 15.1386 -2.68156 0.160884 4
-9.32382 18.6192 -2.55678 0.0387962 4
-14.103 28.163 -2.75561 0.0327881 1
-17.7423 35.4306 -2.07665 0.450711 10
-17.8293 35.6042 -0.695041 0.506778 10
-17.8293 35.6043 0.695043 0.506777 10
-17.1554 34.2585 2.00794 0.432128 10
-17.7826 35.5111 3.47459 0.380495 10
-17.1438 34.2353 4.70117 0.556973 10
-17.7827 35.5113 6.29023 0.377245 10
-17.1439 34.2355 7.44245 0.550843 10
-17.1556 34.2589 8.84555 0.421625 10
-17.7829 35.5116 10.6417 0.36893 10
-4.54316 8.99393 -2.69993 0.0273723 4
-5.20663 10.3074 -2.66601 0.143073 4
-6.17726 12.2289 -2.66312 0.0188401 4
-7.5929 15.0314 -2.66724 0.143505 4
-9.38912 18.5873 -2.55688 0.0382365 4
-14.202 28.1151 -2.75576 0.0327863 1
-17.7606 35.1601 -2.06441 0.453383 10
-17.849 35.3349 -0.690997 0.505735 10
-17.849 35.335 0.690998 0.505733 10
-17.3105 34.2689 2.01209 0.431238 10
-17.2988 34.2458 4.71086 0.555826 10
-17.2989 34.2459 7.45781 0.549709 10
-17.3107 34.2694 8.8638 0.420757 10
-4.57461 8.97818 -2.69998 0.0190412 4
-5.25348 10.3105 -2.67156 0.104188 4
-6.22006 12.2076 -2.66318 0.0170871 4
-7.6048 14.9253 -2.6531 0.132043 4
-9.45432 18.5552 -2.55698 0.0262342 4
-14.3008 28.0669 -2.75591 0.0327845 1
-17.7787 34.8926 -2.05234 0.45605 10
-17.8668 35.0655 -0.686943 0.504685 10
-17.8668 35.0656 0.686944 0.504684 10
-17.4659 34.2788 2.01623 0.355469 10
-17.4678 34.2826 3.36623 0.354563 10
-17.4544 34.2563 4.72066 0.554673 10
-17.4718 34.2903 6.09541 0.351456 10
-17.4545 34.2564 7.47331 0.548568 10
-17.4664 34.2799 8.88223 0.419884 10
-17.4778 34.3022 10.3156 0.343593 10
-4.60601 8.96232 -2.70002 0.042247 4
-5.30052 10.3137 -2.67716 0.100119 4
-6.26279 12.1861 -2.66325 0.0455644 4
-7.61658 14.8203 -2.63914 0.188051 4
-9.5194 18.5228 -2.55708 0.0348846 4
-14.3995 28.0184 -2.75607 0.0327827 1
-17.7965 34.6283 -2.04043 0.45871 10
-17.7985 34.6321 -0.679666 0.459219 10
-17.8004 34.6359 0.67974 0.459169 10
-17.6107 34.2666 2.01912 0.593778 10
-17.6107 34.2667 3.37069 0.592329 10
-17.6107 34.2668 4.73056 0.590158 10
-17.6108 34.2669 6.10214 0.587268 10
-17.6108 34.267 7.48898 0.583663 10
-17.6109 34.2671 8.89479 0.579347 10
-17.6109 34.2671 10.3235 0.574324 10
-4.63734 8.94635 -2.70007 0.0136854 4
-5.34777 10.3169 -2.68281 0.0768526 4
-6.30545 12.1644 -2.66331 0.020153 4
-7.62821 14.7163 -2.62536 0.165563 4
-9.58437 18.4901 -2.55718 0.0376739 4
-14.498 27.9695 -2.75622 0.0327809 1
-17.8142 34.367 -2.02869 0.461366 10
-17.8161 34.3708 -0.675754 0.461878 10
-17.8181 34.3746 0.675827 0.461827 10
-17.7676 34.2772 2.02339 0.592526 10
-17.7677 34.2773 3.37781 0.59108 10
-17.7677 34.2774 4.74055 0.588914 10
-17.7677 34.2775 6.11503 0.58603 10
-17.7678 34.2776 7.5048 0.582433 10
-17.7678 34.2776 8.91358 0.578125 10
-17.7679 34.2777 10.3453 0.573113 10
-4.66863 8.93026 -2.70012 0.0160652 4
-5.39521 10.3201 -2.68853 0.111199 4
-6.34803 12.1427 -2.66338 0.0416193 4
-7.63972 14.6134 -2.61175 0.135376 4
-9.64924 18.4573 -2.55728 0.0418582 4
-14.5963 27.9202 -2.75637 0.0327791 1
-17.9251 34.2876 -2.02768 0.75832 10
-17.9252 34.2877 -0.675346 0.759243 10
-17.9252 34.2878 0.675347 0.759241 10
-17.9253 34.2879 2.02769 0.591267 10
-17.9253 34.2879 3.38501 0.589824 10
-17.9253 34.288 4.75065 0.587662 10
-17.9254 34.2881 6.12805 0.584785 10
-17.9254 34.2882 7.52079 0.581195 10
-17.9255 34.2883 8.93257 0.576897 10
-17.9255 34.2884 10.3673 0.571895 10
-4.69985 8.91407 -2.70017 0.0618796 4
-5.44286 10.3233 -2.6943 0.107135 4
-6.39053 12.1207 -2.66344 0.035047 4
-7.6511 14.5116 -2.59831 0.151057 4
-9.71398 18.4242 -2.55738 0.0432518 4
-14.6945 27.8706 -2.75652 0.0327773 1
-18.0834 34.2983 -2.03203 0.756696 10
-18.0835 34.2984 -0.676795 0.757617 10
-18.0835 34.2984 0.676796 0.757615 10
-18.0836 34.2985 2.03205 0.590001 10
-18.0836 34.2986 3.39227 0.588561 10
-18.0836 34.2987 4.76084 0.586404 10
-18.0837 34.2988 6.1412 0.583532 10
-18.0837 34.2989 7.53693 0.57995 10
-18.0838 34.299 8.95174 0.575661 10
-18.0838 34.299 10.3896 0.570671 10
-4.73103 8.89777 -2.70022 0.0232044 4
-5.49072 10.3265 -2.70012 0.104995 4
-7.66236 14.4108 -2.58503 0.17191 4
-9.77862 18.3909 -2.55748 0.0351582 4
-14.7925 27.8207 -2.75667 0.0327755 1
-14.8245 27.8808 -1.65488 0.469298 10
-14.8261 27.8838 -0.551236 0.46982 10
-14.8276 27.8868 0.551295 0.46977 10
-14.8292 27.8898 1.65541 0.3658 10
-14.8308 27.8928 2.76381 0.364868 10
-14.8325 27.8958 3.87925 0.363492 10
-14.8341 27.8989 5.00454 0.361674 10
-14.8357 27.902 6.1426 0.359414 10
-14.8374 27.9051 7.29647 0.356717 10
-14.8391 27.9083 8.46936 0.353585 10
-4.76214 8.88135 -2.70026 0.00832966 4
-5.53005 10.3135 -2.70175 0.1013 4
-6.47531 12.0764 -2.66357 0.0144562 4
-7.67349 14.311 -2.57192 0.158913 4
-10.5779 19.7277 -2.74849 0.0459661 1
-14.8369 27.6706 -2.74691 0.47083 10
-14.8384 27.6736 -1.64564 0.471931 10
-14.84 27.6766 -0.548161 0.472456 10
-14.8416 27.6795 0.548219 0.472406 10
-14.8432 27.6825 1.64617 0.367852 10
-14.8448 27.6855 2.74839 0.366916 10
-14.8464 27.6884 3.8576 0.365533 10
-14.848 27.6915 4.9766 0.363704 10
-14.8497 27.6945 6.1083 0.361432 10
-14.8513 27.6976 7.25573 0.35872 10
-14.853 27.7008 8.42207 0.355571 10
-4.7932 8.86483 -2.70031 0.0374828 4
-5.56613 10.2943 -2.7018 0.0966463 4
-6.51758 12.054 -2.66364 0.023655 4
-7.68451 14.2122 -2.55897 0.038028 4
-10.6471 19.6914 -2.7486 0.0459644 1
-14.8507 27.4658 -2.73171 0.473451 10
-14.8523 27.4687 -1.63653 0.474558 10
-14.8539 27.4716 -0.545126 0.475086 10
-14.8554 27.4746 0.545183 0.475036 10
-14.857 27.4775 1.63706 0.369901 10
-14.8586 27.4804 2.73316 0.368959 10
-14.8602 27.4834 3.83623 0.367569 10
-14.8618 27.4864 4.94903 0.36573 10
-14.8634 27.4894 6.07446 0.363446 10
-14.8651 27.4924 7.21552 0.360719 10
-14.8668 27.4955 8.3754 0.357552 10
-4.8242 8.8482 -2.70036 0.025583 4
-5.60214 10.2751 -2.70186 0.0785558 4
-6.55978 12.0315 -2.6637 0.00963699 4
-7.71734 14.1546 -2.55343 0.0498651 4
-10.7162 19.6549 -2.7487 0.0459626 1
-14.8644 27.2632 -2.71671 0.476066 10
-14.866 27.2661 -1.62754 0.477179 10
-14.8675 27.269 -0.542131 0.477711 10
-14.8691 27.2719 0.542188 0.47766 10
-14.8707 27.2748 1.62806 0.371944 10
-14.8723 27.2777 2.71815 0.370998 10
-14.8738 27.2806 3.81515 0.3696 10
-14.8755 27.2835 4.92183 0.367751 10
-14.8771 27.2865 6.04107 0.365455 10
-14.8787 27.2895 7.17586 0.362713 10
-14.8804 27.2926 8.32935 0.359529 10
-4.85513 8.83146 -2.70041 0.118989 4
-5.63809 10.2557 -2.70191 0.106978 4
-6.60189 12.0088 -2.66377 0.0591346 4
-7.76693 14.128 -2.55351 0.0419715 4
-10.7851 19.6181 -2.74881 0.0459608 1
-14.8779 27.0628 -2.7019 0.478675 10
-14.8795 27.0657 -1.61867 0.479795 10
-14.8811 27.0686 -0.539176 0.480329 10
-14.8826 27.0714 0.539232 0.480279 10
-14.8842 27.0743 1.61918 0.373984 10
-14.8858 27.0771 2.70332 0.373032 10
-14.8873 27.08 3.79434 0.371627 10
-14.8889 27.0829 4.89499 0.369768 10
-14.8906 27.0858 6.00812 0.367459 10
-14.8922 27.0888 7.13671 0.364702 10
-14.8939 27.0919 8.2839 0.361501 10
-4.88602 8.81462 -2.70045 0.108873 4
-5.67397 10.2361 -2.70197 0.101808 4
-6.64393 11.986 -2.66383 0.0297856 4
-7.81643 14.1012 -2.55358 0.0477098 4
-10.854 19.5811 -2.74891 0.0459591 1
-14.8913 26.8646 -2.68728 0.481278 10
-14.8929 26.8675 -1.60992 0.482404 10
-14.8944 26.8703 -0.536259 0.482942 10
-14.896 26.8731 0.536314 0.482892 10
-14.8975 26.8759 1.61042 0.376019 10
-14.8991 26.8787 2.68869 0.375062 10
-14.9007 26.8816 3.7738 0.373649 10
-14.9023 26.8844 4.86849 0.371781 10
-14.9039 26.8873 5.97559 0.369459 10
-14.9055 26.8903 7.09807 0.366688 10
-14.9072 26.8933 8.23904 0.36347 10
-4.91684 8.79766 -2.7005 0.113035 4
-5.70978 10.2165 -2.70202 0.106974 4
-6.68589 11.963 -2.66389 0.0179585 4
-8.21442 14.698 -2.66683 0.0570348 4
-10.9227 19.5438 -2.74902 0.0459573 1
-14.5893 26.1046 -2.61633 0.743268 10
-14.5894 26.1046 -1.56725 0.745083 10
-14.5894 26.1047 -0.521993 0.74599 10
-14.9092 26.6769 0.533435 0.485499 10
-14.5895 26.1048 1.56726 0.580943 10
-14.5903 26.1062 2.6165 0.377087 10
-14.5918 26.109 3.67247 0.375667 10
-14.5934 26.1118 4.73776 0.373789 10
-14.5949 26.1146 5.81513 0.371455 10
-14.5965 26.1174 6.90746 0.368669 10
-14.9204 26.6968 8.19477 0.365433 10
-4.94761 8.7806 -2.70055 0.114223 4
-5.74552 10.1967 -2.70208 0.0852675 4
-6.72777 11.9399 -2.66396 0.0372302 4
-8.26592 14.6696 -2.6669 0.0627723 4
-10.9912 19.5063 -2.74912 0.0459556 1
-14.7139 26.113 -2.6223 0.741575 10
-14.7139 26.113 -1.57083 0.743385 10
-14.714 26.1131 -0.523185 0.744286 10
-14.9223 26.4828 0.530592 0.4881 10
-14.714 26.1132 1.57084 0.579619 10
-14.7141 26.1133 2.62234 0.578204 10
-14.7141 26.1133 3.68029 0.576085 10
-14.6061 25.9217 4.7125 0.375792 10
-14.7142 26.1135 5.82629 0.569745 10
-14.7142 26.1135 6.91998 0.565532 10
-14.9334 26.5025 8.15107 0.367393 10
-4.97831 8.76342 -2.70059 0.102918 4
-5.7812 10.1768 -2.70213 0.0842322 4
-6.76957 11.9166 -2.66402 0.0932923 4
-8.31732 14.6411 -2.66698 0.02188 4
-11.0597 19.4686 -2.74923 0.0459538 1
-14.839 26.1214 -2.62834 0.739873 10
-14.839 26.1215 -1.57444 0.741675 10
-14.8391 26.1215 -0.524388 0.742578 10
-14.9352 26.2908 0.527786 0.490695 10
-14.8392 26.1217 1.57445 0.578289 10
-14.8392 26.1217 2.62837 0.576877 10
-14.8392 26.1218 3.68875 0.574763 10
-14.6188 25.7337 4.68757 0.377791 10
-14.8393 26.1219 5.83969 0.568437 10
-14.8393 26.122 6.9359 0.564233 10
-14.9463 26.3102 8.10793 0.369347 10
-5.00896 8.74614 -2.70064 0.0969675 4
-5.8168 10.1567 -2.70218 0.0273878 4
-6.81129 11.8932 -2.66408 0.0788367 4
-8.36862 14.6124 -2.66706 0.0581058 4
-11.128 19.4306 -2.74933 0.0459521 1
-14.9435 26.0928 -2.63069 0.491632 10
-14.9468 26.0987 -1.5762 0.739951 10
-14.9469 26.0987 -0.524975 0.740852 10
-14.9481 26.1008 0.525016 0.493284 10
-14.9496 26.1035 1.57649 0.245209 10
-14.9511 26.1061 2.63204 0.244586 10
-14.9527 26.1088 3.69427 0.243665 10
-14.6953 25.6595 4.68336 0.109232 10
-14.9558 26.1143 5.84964 0.240934 10
-14.9574 26.1171 6.94844 0.239127 10
-14.9591 26.12 8.06534 0.371297 10
-5.03955 8.72876 -2.70069 0.139202 4
-5.85234 10.1365 -2.70224 0.0434063 4
-6.85292 11.8696 -2.66415 0.0985435 4
-8.41982 14.5836 -2.66714 0.0552348 4
-11.1962 19.3923 -2.74943 0.0459503 1
-14.9562 25.9048 -2.61699 0.494206 10
-14.9607 25.9128 0.522281 0.495867 10
-15.037 26.0448 1.57611 0.367452 10
-15.037 26.0449 2.63113 0.366555 10
-15.026 26.0257 3.68991 0.244942 10
-14.7844 25.6073 4.68323 0.109235 10
-15.0371 26.045 5.84584 0.361192 10
-15.0371 26.0451 6.9432 0.358521 10
-14.9717 25.9317 8.0233 0.373243 10
-5.07008 8.71126 -2.70073 0.110051 4
-5.88781 10.1163 -2.70229 0.0201525 4
-6.89448 11.8459 -2.66421 0.0845264 4
-8.47093 14.5545 -2.66722 0.0566678 4
-11.2642 19.3539 -2.74954 0.0459486 1
-14.9687 25.7188 -2.60346 0.496774 10
-14.9733 25.7267 0.51958 0.498444 10
-15.0385 25.8388 3.67083 0.246215 10
-14.8732 25.5548 4.68309 0.109238 10
-14.9842 25.7454 7.98178 0.375184 10
-5.10054 8.69366 -2.70078 0.130275 4
-5.9232 10.0958 -2.70235 0.0346203 4
-6.93595 11.822 -2.66427 0.0783931 4
-8.49927 14.4867 -2.6602 0.163382 4
-11.3321 19.3152 -2.74964 0.0459469 1
-14.9812 25.5348 -2.59011 0.499335 10
-14.9857 25.5425 0.516915 0.501015 10
-15.051 25.6538 3.65199 0.247485 10
-14.9619 25.502 4.68296 0.109242 10
-14.9965 25.561 7.9408 0.377121 10
-5.13094 8.67595 -2.70083 0.0410448 4
-5.95852 10.0753 -2.7024 0.0206684 4
-6.97734 11.798 -2.66434 0.00788292 4
-8.5131 14.3949 -2.64879 0.157726 4
-11.3999 19.2762 -2.74975 0.0459452 1
-14.9935 25.3526 -2.57692 0.501891 10
-14.998 25.3602 0.514282 0.503579 10
-15.0633 25.4707 3.63338 0.248752 10
-15.0041 25.3705 4.66841 0.387715 10
-15.0088 25.3785 7.90033 0.379053 10
-5.16128 8.65814 -2.70087 0.0196298 4
-5.99377 10.0547 -2.70245 0.0935228 4
-7.01865 11.7739 -2.6644 0.0319689 4
-8.52681 14.3039 -2.6375 0.0485423 4
-11.4676 19.237 -2.74985 0.0459434 1
-14.6816 24.6286 -2.50853 0.50444 10
-14.6831 24.6311 -1.50282 0.505623 10
-14.6845 24.6335 -0.500582 0.506189 10
-15.0102 25.1798 0.511682 0.506138 10
-14.6875 24.6384 1.50327 0.394122 10
-14.6889 24.6409 2.50978 0.393122 10
-14.6904 24.6434 3.52267 0.391642 10
-15.0162 25.1899 4.64479 0.389686 10
-14.6934 24.6485 5.57788 0.387255 10
-14.695 24.651 6.62561 0.384352 10
-15.0209 25.1978 7.86036 0.38098 10
-5.19156 8.64021 -2.70092 0.0886299 4
-6.02895 10.0339 -2.70251 0.109538 4
-7.09837 11.8137 -2.679 0.0322207 4
-8.54038 14.2136 -2.62634 0.186015 4
-11.5351 19.1976 -2.74995 0.0459417 1
-14.7523 24.552 -2.50595 0.727694 10
-14.7524 24.5521 -1.50113 0.729471 10
-14.7524 24.5521 -0.499972 0.730359 10
-15.0222 25.0011 0.509115 0.508691 10
-14.7525 24.5523 1.50114 0.568773 10
-14.7525 24.5523 2.50599 0.567385 10
-14.7526 24.5524 3.517 0.565305 10
-15.0282 25.0112 4.62148 0.391652 10
-14.7526 24.5525 5.56778 0.559084 10
-14.7527 24.5526 6.61295 0.554949 10
-15.0329 25.019 7.82089 0.382903 10
-5.22178 8.62219 -2.70096 0.0297411 4
-6.06406 10.013 -2.70256 0.0997192 4
-7.18467 11.8633 -2.69592 0.0217268 4
-8.55382 14.124 -2.61529 0.188089 4
-11.6024 19.1579 -2.75005 0.04594 1
-14.8742 24.5602 -2.51208 0.72592 10
-14.8742 24.5603 -1.5048 0.727692 10
-14.8743 24.5604 -0.501193 0.728578 10
-15.0341 24.8243 0.506579 0.511237 10
-14.8744 24.5605 1.50481 0.567387 10
-14.8744 24.5605 2.51211 0.566002 10
-14.8744 24.5606 3.52559 0.563927 10
-15.0401 24.8342 4.59845 0.393613 10
-14.8745 24.5607 5.58139 0.557721 10
-14.8745 24.5608 6.62911 0.553596 10
-15.0448 24.8419 7.78191 0.384821 10
-5.25193 8.60405 -2.70101 0.0214132 4
-6.09909 9.99193 -2.70261 0.104367 4
-7.27186 11.9132 -2.71301 0.0274608 4
-8.56713 14.0352 -2.60437 0.192759 4
-11.6697 19.118 -2.75015 0.0459383 1
-14.9967 24.5685 -2.51826 0.724138 10
-14.9967 24.5686 -1.5085 0.725906 10
-14.9967 24.5686 -0.502427 0.726789 10
-15.0459 24.6492 0.504074 0.513777 10
-14.9968 24.5687 1.50851 0.565993 10
-14.9969 24.5688 2.51829 0.564612 10
-14.9969 24.5689 3.53427 0.562543 10
-15.0519 24.659 4.57571 0.39557 10
-14.997 24.569 5.59513 0.556351 10
-14.997 24.569 6.64543 0.552237 10
-15.0565 24.6666 7.74341 0.386734 10
-5.28203 8.58581 -2.70105 0.0273608 4
-6.13406 9.97077 -2.70267 0.0991986 4
-7.35996 11.9634 -2.73029 0.0203242 4
-8.58032 13.9471 -2.59356 0.161085 4
-11.7368 19.0779 -2.75026 0.0459366 1
-15.0532 24.4686 -2.51339 0.514576 10
-15.0547 24.471 -1.50573 0.515783 10
-15.0561 24.4734 -0.501552 0.516362 10
-15.0576 24.4758 0.5016 0.516311 10
-15.0591 24.4782 1.50617 0.402044 10
-15.0606 24.4806 2.51463 0.401025 10
-15.0621 24.483 3.52946 0.399516 10
-15.0636 24.4855 4.55324 0.397521 10
-15.0651 24.4879 5.58861 0.395042 10
-15.0666 24.4904 6.63835 0.392081 10
-15.0682 24.493 7.70538 0.388643 10
-5.31205 8.56747 -2.7011 0.0321187 4
-6.16894 9.94949 -2.70272 0.089897 4
-7.43371 11.9894 -2.74211 0.0721361 1
-8.59338 13.8597 -2.58287 0.134358 4
-11.8037 19.0375 -2.75036 0.0459349 1
-15.0648 24.297 -2.50115 0.517094 10
-15.0663 24.2994 -1.4984 0.518307 10
-15.0677 24.3018 -0.499109 0.518889 10
-15.0692 24.3041 0.499157 0.518838 10
-15.0707 24.3065 1.49884 0.404013 10
-15.0721 24.3089 2.50237 0.402988 10
-15.0736 24.3113 3.51226 0.401473 10
-15.0751 24.3137 4.53105 0.399468 10
-15.0766 24.3161 5.56138 0.396977 10
-15.0782 24.3186 6.606 0.394002 10
-15.0797 24.3211 7.66782 0.390547 10
-5.34202 8.54901 -2.70115 0.0148695 4
-6.20376 9.92809 -2.70277 0.0392646 4
-7.47569 11.9636 -2.74217 0.0721344 1
-8.60632 13.773 -2.57229 0.148009 4
-11.8706 18.9969 -2.75046 0.0459332 1
-15.0763 24.1271 -2.48906 0.519606 10
-15.0777 24.1294 -1.49115 0.520826 10
-15.0792 24.1317 -0.496695 0.52141 10
-15.0807 24.1341 0.496743 0.52136 10
-15.0821 24.1364 1.49159 0.405976 10
-15.0836 24.1388 2.49027 0.404947 10
-15.0851 24.1411 3.49527 0.403424 10
-15.0866 24.1435 4.50913 0.40141 10
-15.0881 24.1459 5.53447 0.398907 10
-15.0896 24.1484 6.57403 0.395918 10
-15.0911 24.1509 7.63071 0.392446 10
-5.37192 8.53046 -2.70119 0.0190327 4
-6.2385 9.90657 -2.70282 0.0113658 4
-7.51758 11.9377 -2.74223 0.0721327 1
-8.61913 13.687 -2.56183 0.177547 4
-11.9372 18.956 -2.75056 0.0459315 1
-15.0876 23.9588 -2.47712 0.522112 10
-15.0891 23.9611 -1.484 0.523337 10
-15.0906 23.9634 -0.494311 0.523925 10
-15.092 23.9657 0.494358 0.523875 10
-15.0935 23.968 1.48443 0.407935 10
-15.0949 23.9703 2.47831 0.4069 10
-15.0964 23.9727 3.47849 0.405371 10
-15.0979 23.975 4.48748 0.403347 10
-15.0994 23.9774 5.50789 0.400832 10
-15.1009 23.9798 6.54245 0.397828 10
-15.1025 23.9823 7.59405 0.39434 10
-5.40175 8.5118 -2.70124 0.0160585 4
-6.27316 9.88492 -2.70288 0.0247977 4
-7.55938 11.9117 -2.7423 0.0721311 1
-8.64322 13.6195 -2.55484 0.0415911 4
-12.0038 18.9149 -2.75066 0.0459298 1
-15.0989 23.7921 -2.46532 0.524611 10
-15.1003 23.7944 -1.47693 0.525842 10
-15.1018 23.7966 -0.491956 0.526433 10
-15.1033 23.7989 0.492003 0.526383 10
-15.1047 23.8012 1.47735 0.409888 10
-15.1062 23.8035 2.4665 0.408849 10
-15.1076 23.8058 3.46191 0.407312 10
-15.1091 23.8082 4.46609 0.405279 10
-15.1106 23.8105 5.48163 0.402752 10
-15.1121 23.8129 6.51126 0.399734 10
-15.1137 23.8153 7.55784 0.39623 10
-5.43152 8.49303 -2.70128 0.0136793 4
-6.30775 9.86316 -2.70293 0.0351294 4
-7.60109 11.8855 -2.74236 0.0721294 1
-8.69095 13.5897 -2.55491 0.0548556 4
-12.0702 18.8736 -2.75076 0.0459282 1
-15.1101 23.6269 -2.45366 0.527104 10
-15.1115 23.6292 -1.46994 0.528342 10
-15.1129 23.6315 -0.489629 0.528936 10
-15.1144 23.6337 0.489675 0.528885 10
-15.1158 23.636 1.47036 0.411837 10
-15.1173 23.6382 2.45483 0.410793 10
-15.1187 23.6405 3.44553 0.409249 10
-15.1202 23.6428 4.44495 0.407206 10
-15.1217 23.6452 5.45568 0.404667 10
-15.1232 23.6475 6.48044 0.401636 10
-15.1248 23.6499 7.52206 0.398115 10
-5.46122 8.47416 -2.70133 0.0511477 4
-6.34226 9.84127 -2.70298 0.0196308 4
-7.6427 11.8592 -2.74242 0.0721278 1
-8.73858 13.5596 -2.55498 0.0440984 4
-12.1364 18.832 -2.75086 0.0459265 1
-15.1211 23.4634 -2.44214 0.52959 10
-15.1225 23.4656 -1.46304 0.530834 10
-15.124 23.4678 -0.487329 0.531431 10
-15.1254 23.4701 0.487375 0.531381 10
-15.1269 23.4723 1.46345 0.41378 10
-15.1283 23.4746 2.4433 0.412732 10
-15.1298 23.4768 3.42934 0.41118 10
-15.1312 23.4791 4.42406 0.409128 10
-15.1327 23.4814 5.43005 0.406578 10
-15.1342 23.4837 6.44999 0.403532 10
-15.1357 23.4861 7.48671 0.399994 10
-5.49086 8.45518 -2.70137 0.0469838 4
-6.3767 9.81926 -2.70303 0.0340949 4
-7.68423 11.8327 -2.74248 0.0721261 1
-8.78611 13.5294 -2.55506 0.0304736 4
-12.2025 18.7902 -2.75096 0.0459248 1
-15.132 23.3013 -2.43075 0.532071 10
-15.1335 23.3035 -1.45622 0.53332 10
-15.1349 23.3057 -0.485057 0.53392 10
-15.1364 23.3079 0.485103 0.53387 10
-15.1378 23.3101 1.45663 0.415719 10
-15.1392 23.3124 2.4319 0.414665 10
-15.1407 23.3146 3.41335 0.413107 10
-15.1421 23.3168 4.40343 0.411046 10
-15.1436 23.3191 5.40472 0.408483 10
-15.1451 23.3214 6.41989 0.405423 10
-15.1466 23.3238 7.45178 0.401869 10
-5.52043 8.43611 -2.70142 0.0356833 4
-6.41106 9.79713 -2.70308 0.0397766 4
-7.72566 11.8061 -2.74255 0.0721245 1
-8.83353 13.4991 -2.55513 0.049832 4
-12.2685 18.7482 -2.75106 0.0459232 1
-15.1429 23.1408 -2.41951 0.534544 10
-15.1443 23.143 -1.44948 0.5358 10
-15.1458 23.1452 -0.482812 0.536403 10
-15.1472 23.1473 0.482857 0.536352 10
-15.1486 23.1495 1.44989 0.417652 10
-15.15 23.1517 2.42065 0.416594 10
-15.1515 23.1539 3.39754 0.415029 10
-15.1529 23.1561 4.38304 0.412958 10
-15.1544 23.1584 5.37969 0.410384 10
-15.1559 23.1607 6.39016 0.40731 10
-15.1574 23.163 7.41726 0.403739 10
-5.54994 8.41692 -2.70146 0.00654183 4
-6.44534 9.77488 -2.70314 0.0191131 4
-7.76701 11.7793 -2.74261 0.0721228 1
-8.88085 13.4685 -2.5552 0.0498306 4
-12.3343 18.7059 -2.75116 0.0459215 1
-15.1536 22.9817 -2.40839 0.537011 10
-15.1551 22.9839 -1.44282 0.538273 10
-15.1565 22.986 -0.480594 0.538879 10
-15.1579 22.9882 0.480638 0.538829 10
-15.1593 22.9903 1.44322 0.41958 10
-15.1608 22.9925 2.40952 0.418518 10
-15.1622 22.9947 3.38192 0.416945 10
-15.1636 22.9969 4.36289 0.414865 10
-15.1651 22.9991 5.35495 0.412279 10
-15.1666 23.0014 6.36078 0.409191 10
-15.1681 23.0037 7.38315 0.405605 10
-5.57938 8.39764 -2.7015 0.0136781 4
-6.47955 9.75251 -2.70319 0.00671528 4
-7.79218 11.7282 -2.73703 0.157566 4
-8.92805 13.4378 -2.55527 0.0480368 4
-12.4 18.6635 -2.75126 0.0459199 1
-15.2143 22.8994 -2.40531 0.703953 10
-15.2143 22.8994 -1.44084 0.705671 10
-15.2144 22.8995 -0.479892 0.70653 10
-15.2144 22.8995 0.479892 0.706528 10
-15.2144 22.8996 1.44085 0.550216 10
-15.2145 22.8997 2.40534 0.548873 10
-15.2145 22.8997 3.37575 0.546861 10
-15.2146 22.8998 4.35451 0.544183 10
-15.2146 22.8998 5.34417 0.540843 10
-15.2146 22.8999 6.34737 0.536843 10
-15.2147 22.9 7.36687 0.532189 10
-5.60875 8.37825 -2.70155 0.0333028 4
-6.51367 9.73001 -2.70324 0.0232447 4
-7.80101 11.653 -2.72582 0.164019 4
-8.97515 13.4069 -2.55534 0.0458846 4
-12.4655 18.6207 -2.75136 0.0459182 1
-15.3352 22.9075 -2.41178 0.702066 10
-15.3353 22.9076 -1.44471 0.70378 10
-15.3353 22.9076 -0.481181 0.704636 10
-15.3354 22.9077 0.481182 0.704635 10
-15.3354 22.9078 1.44473 0.548741 10
-15.3354 22.9078 2.41181 0.547402 10
-15.3355 22.9079 3.38482 0.545396 10
-15.3355 22.9079 4.36622 0.542725 10
-15.3356 22.908 5.35854 0.539393 10
-15.3356 22.9081 6.36443 0.535404 10
-15.3356 22.9081 7.38667 0.530762 10
-5.63805 8.35876 -2.70159 0.061847 4
-6.54772 9.7074 -2.70329 0.0299593 4
-7.80976 11.5784 -2.71474 0.206954 4
-9.02215 13.3759 -2.55541 0.0466002 4
-12.5309 18.5778 -2.75146 0.0459166 1
-15.4568 22.9157 -2.4183 0.70017 10
-15.4569 22.9158 -1.44863 0.701879 10
-15.4569 22.9158 -0.482484 0.702734 10
-15.457 22.9159 0.482485 0.702732 10
-15.457 22.916 1.44864 0.54726 10
-15.457 22.916 2.41833 0.545924 10
-15.4571 22.9161 3.39398 0.543923 10
-15.4571 22.9161 4.37804 0.541259 10
-15.4572 22.9162 5.37305 0.537936 10
-15.4572 22.9163 6.38166 0.533958 10
-15.4573 22.9163 7.40667 0.529329 10
-5.66728 8.33916 -2.70164 0.0208136 4
-7.81843 11.5045 -2.70378 0.19755 4
-9.06903 13.3447 -2.55548 0.0401468 4
-12.5961 18.5346 -2.75156 0.0459149 1
-15.5791 22.924 -2.4249 0.698266 10
-15.5791 22.924 -1.45258 0.699971 10
-15.5792 22.9241 -0.4838 0.700823 10
-15.5792 22.9241 0.483801 0.700821 10
-15.5793 22.9242 1.45259 0.545771 10
-15.5793 22.9243 2.42493 0.544439 10
-15.5793 22.9243 3.40324 0.542444 10
-15.5794 22.9244 4.38998 0.539788 10
-15.5794 22.9244 5.3877 0.536474 10
-15.5795 22.9245 6.39906 0.532506 10
-15.5795 22.9246 7.42687 0.52789 10
-5.69645 8.31946 -2.70168 0.0761169 4
-6.61558 9.66182 -2.70339 0.00723129 4
-7.82702 11.4311 -2.69293 0.174838 4
-9.11581 13.3133 -2.55555 0.0483899 4
-12.6611 18.4911 -2.75165 0.0459133 1
-15.702 22.9322 -2.43156 0.696353 10
-15.7021 22.9323 -1.45657 0.698053 10
-15.7021 22.9324 -0.485129 0.698903 10
-15.7022 22.9324 0.485129 0.698901 10
-15.7022 22.9325 1.45658 0.544276 10
-15.7022 22.9326 2.43159 0.542948 10
-15.7023 22.9326 3.41259 0.540958 10
-15.7023 22.9327 4.40203 0.538309 10
-15.7024 22.9327 5.40249 0.535004 10
-15.7024 22.9328 6.41664 0.531047 10
-15.7025 22.9329 7.44727 0.526444 10
-5.72555 8.29966 -2.70172 0.0338953 4
-6.64939 9.63885 -2.70344 0.0139458 4
-7.83553 11.3583 -2.68221 0.213889 4
-9.16248 13.2818 -2.55562 0.0551988 4
-12.7261 18.4475 -2.75175 0.0459117 1
-15.8256 22.9406 -2.43828 0.694432 10
-15.8257 22.9406 -1.46059 0.696128 10
-15.8257 22.9407 -0.486471 0.696975 10
-15.8258 22.9408 0.486471 0.696973 10
-15.8258 22.9408 1.46061 0.542775 10
-15.8259 22.9409 2.43832 0.54145 10
-15.8259 22.9409 3.42203 0.539466 10
-15.8259 22.941 4.41421 0.536824 10
-15.826 22.9411 5.41744 0.533528 10
-15.826 22.9411 6.43439 0.529582 10
-15.8261 22.9412 7.46787 0.524991 10
-5.75458 8.27976 -2.70177 0.0279483 4
-6.68313 9.61576 -2.7035 0.0180775 4
-7.84397 11.286 -2.67159 0.196968 4
-9.20904 13.2501 -2.55569 0.0401435 4
-12.7908 18.4036 -2.75185 0.04591 1
-15.9499 22.949 -2.44508 0.692503 10
-15.95 22.949 -1.46466 0.694194 10
-15.95 22.9491 -0.487826 0.695039 10
-15.9501 22.9492 0.487827 0.695037 10
-15.9501 22.9492 1.46468 0.541267 10
-15.9502 22.9493 2.44511 0.539946 10
-15.9502 22.9493 3.43156 0.537967 10
-15.9502 22.9494 4.42651 0.535332 10
-15.9503 22.9495 5.43254 0.532046 10
-15.9503 22.9495 6.45232 0.528111 10
-15.9504 22.9496 7.48868 0.523533 10
-5.78354 8.25976 -2.70181 0.0261639 4
-6.71677 9.59255 -2.70355 0.0805727 4
-7.85233 11.2143 -2.66109 0.209639 4
-9.25549 13.2182 -2.55576 0.0487443 4
-12.8555 18.3595 -2.75195 0.0459084 1
-16.0749 22.9574 -2.45194 0.690565 10
-16.075 22.9575 -1.46877 0.692251 10
-16.075 22.9575 -0.489195 0.693094 10
-16.0751 22.9576 0.489196 0.693092 10
-16.0751 22.9576 1.46879 0.539752 10
-16.0751 22.9577 2.45197 0.538435 10
-16.0752 22.9578 3.44119 0.536461 10
-16.0752 22.9578 4.43893 0.533834 10
-16.0753 22.9579 5.44778 0.530557 10
-16.0753 22.958 6.47042 0.526633 10
-16.0754 22.958 7.50969 0.522067 10
-5.81243 8.23965 -2.70185 0.0297312 4
-6.75035 9.56923 -2.7036 0.0351208 4
-7.86062 11.1431 -2.6507 0.19255 4
-9.30183 13.1862 -2.55583 0.0430085 4
-12.9199 18.3152 -2.75204 0.0459068 1
-16.2006 22.9659 -2.45887 0.688619 10
-16.2007 22.9659 -1.47293 0.6903 10
-16.2007 22.966 -0.490578 0.69114 10
-16.2008 22.9661 0.490579 0.691138 10
-16.2008 22.9661 1.47294 0.538231 10
-16.2009 22.9662 2.4589 0.536917 10
-16.2009 22.9662 3.45092 0.534949 10
-16.2009 22.9663 4.45148 0.532329 10
-16.201 22.9664 5.46318 0.529061 10
-16.201 22.9664 6.48871 0.525149 10
-16.2011 22.9665 7.53092 0.520596 10
-5.84125 8.21944 -2.7019 0.0392446 4
-6.78383 9.54578 -2.70365 0.0201424 4
-7.86883 11.0725 -2.64042 0.247243 4
-9.34805 13.154 -2.5559 0.0433657 4
-12.9842 18.2706 -2.75214 0.0459052 1
-16.3271 22.9744 -2.46587 0.686664 10
-16.3271 22.9745 -1.47712 0.68834 10
-16.3271 22.9745 -0.491974 0.689178 10
-16.3272 22.9746 0.491975 0.689176 10
-16.3272 22.9746 1.47713 0.536703 10
-16.3273 22.9747 2.4659 0.535393 10
-16.3273 22.9748 3.46074 0.533431 10
-16.3274 22.9748 4.46415 0.530818 10
-16.3274 22.9749 5.47873 0.52756 10
-16.3274 22.975 6.50718 0.523658 10
-16.3275 22.975 7.55236 0.519118 10
-5.87 8.19913 -2.70194 0.0332979 4
-6.81724 9.52222 -2.7037 0.0325372 4
-7.87698 11.0025 -2.63025 0.201568 4
-9.39416 13.1216 -2.55597 0.0301043 4
-13.0484 18.2258 -2.75224 0.0459036 1
-16.4542 22.983 -2.47294 0.684701 10
-16.4542 22.983 -1.48135 0.686373 10
-16.4543 22.9831 -0.493385 0.687208 10
-16.4543 22.9832 0.493386 0.687206 10
-16.4544 22.9832 1.48137 0.535169 10
-16.4544 22.9833 2.47297 0.533862 10
-16.4544 22.9833 3.47066 0.531906 10
-16.4545 22.9834 4.47695 0.529301 10
-16.4545 22.9835 5.49444 0.526051 10
-16.4546 22.9835 6.52584 0.522161 10
-16.4546 22.9836 7.57401 0.517634 10
-5.89868 8.17872 -2.70198 0.0434055 4
-6.85056 9.49854 -2.70375 0.0237568 4
-7.88505 10.9329 -2.62019 0.191772 4
-9.44016 13.0891 -2.55604 0.0397796 4
-13.1124 18.1808 -2.75233 0.045902 1
-16.5821 22.9916 -2.48008 0.682729 10
-16.5821 22.9917 -1.48563 0.684396 10
-16.5821 22.9917 -0.49481 0.685229 10
-16.5822 22.9918 0.49481 0.685227 10
-16.5822 22.9918 1.48564 0.533628 10
-16.5823 22.9919 2.48011 0.532325 10
-16.5823 22.992 3.48069 0.530374 10
-16.5824 22.992 4.48988 0.527777 10
-16.5824 22.9921 5.51031 0.524537 10
-16.5825 22.9922 6.54469 0.520657 10
-16.5825 22.9922 7.59588 0.516144 10
-5.92728 8.15821 -2.70203 0.0362698 4
-6.8838 9.47475 -2.7038 0.00877954 4
-7.89305 10.8639 -2.61023 0.195535 4
-9.48605 13.0564 -2.55611 0.0401369 4
-13.1762 18.1355 -2.75243 0.0459004 1
-16.7107 23.0003 -2.48729 0.68075 10
-16.7107 23.0003 -1.48995 0.682412 10
-16.7108 23.0004 -0.496248 0.683242 10
-16.7108 23.0005 0.496249 0.68324 10
-16.7108 23.0005 1.48996 0.53208 10
-16.7109 23.0006 2.48733 0.530781 10
-16.7109 23.0006 3.49081 0.528836 10
-16.711 23.0007 4.50294 0.526246 10
-16.711 23.0008 5.52633 0.523015 10
-16.7111 23.0008 6.56372 0.519147 10
-16.7111 23.0009 7.61798 0.514647 10
-5.95582 8.1376 -2.70207 0.0261614 4
-6.91696 9.45083 -2.70385 0.0371833 4
-7.90098 10.7953 -2.60037 0.231271 4
-9.53183 13.0236 -2.55618 0.0512449 4
-13.2399 18.09 -2.75252 0.0458988 1
-16.84 23.009 -2.49458 0.678761 10
-16.8401 23.0091 -1.49432 0.680419 10
-16.8401 23.0091 -0.497702 0.681247 10
-16.8402 23.0092 0.497703 0.681245 10
-14.479 19.783 1.2848 0.530537 10
-14.479 19.7831 2.14483 0.529242 10
-14.4791 19.7832 3.01014 0.527303 10
-16.8404 23.0094 4.51613 0.524709 10
-14.479 19.7831 4.76534 0.438278 10
-14.4803 19.7849 5.66038 0.434997 10
-14.4817 19.7867 6.57014 0.431187 10
-5.98428 8.11689 -2.70211 0.0356741 4
-6.95004 9.4268 -2.7039 0.0258212 4
-7.90884 10.7273 -2.59062 0.177161 4
-9.57748 12.9906 -2.55625 0.0426432 4
-13.3034 18.0443 -2.75262 0.0458972 1
-16.9702 23.0178 -2.50194 0.676765 10
-16.9702 23.0178 -1.49872 0.678417 10
-16.9703 23.0179 -0.49917 0.679243 10
-16.9703 23.018 0.499171 0.679241 10
-14.5909 19.7906 1.28859 0.528977 10
-14.5909 19.7906 2.15116 0.527686 10
-14.591 19.7907 3.01902 0.525752 10
-16.9705 23.0182 4.52945 0.523166 10
-14.4879 19.6509 4.74566 0.440095 10
-14.5911 19.7909 5.67662 0.516116 10
-14.5911 19.7909 6.58839 0.511642 10
-6.01268 8.09608 -2.70215 0.0362681 4
-6.98303 9.40265 -2.70394 0.0996682 4
-7.91663 10.6598 -2.58097 0.167093 4
-9.62303 12.9574 -2.55631 0.0397754 4
-13.3668 17.9984 -2.75271 0.0458956 1
-17.1011 23.0266 -2.50937 0.674761 10
-17.1011 23.0267 -1.50318 0.676408 10
-17.1012 23.0267 -0.500653 0.677231 10
-17.1012 23.0268 0.500654 0.677229 10
-14.7034 19.7982 1.29242 0.52741 10
-14.7035 19.7982 2.15755 0.526123 10
-14.7035 19.7983 3.02799 0.524195 10
-14.8263 19.9636 3.93854 0.444676 10
-14.4967 19.5198 4.72619 0.441908 10
-14.7036 19.7984 5.69349 0.514587 10
-14.7037 19.7985 6.60797 0.510126 10
-6.04099 8.07517 -2.7022 0.0261602 4
-7.01593 9.37839 -2.70399 0.0914038 4
-7.92436 10.5927 -2.57142 0.204641 4
-9.66845 12.9241 -2.55638 0.0455076 4
-13.43 17.9523 -2.75281 0.045894 1
-17.2327 23.0355 -2.51688 0.672748 10
-17.2328 23.0355 -1.50767 0.67439 10
-17.2328 23.0356 -0.502151 0.675211 10
-17.2329 23.0357 0.502152 0.675209 10
-14.8166 19.8058 1.29629 0.525837 10
-14.8167 19.8059 2.16401 0.524554 10
-14.8167 19.8059 3.03705 0.522631 10
-14.5041 19.3881 3.83496 0.446494 10
-14.5054 19.3898 4.70695 0.443715 10
-14.8168 19.8061 5.71052 0.513052 10
-14.8169 19.8061 6.62774 0.508605 10
-6.06924 8.05415 -2.70224 0.0368615 4
-7.04876 9.35402 -2.70404 0.100181 4
-7.93203 10.5262 -2.56197 0.163699 4
-9.71377 12.8906 -2.55645 0.0508811 4
-13.493 17.9059 -2.7529 0.0458925 1
