VERSION 0.7
FIELDS x y z intensity label
SIZE 4 4 4 4 4
TYPE F F F F F
COUNT 1 1 1 1 1
WIDTH 1253
HEIGHT 1
VIEWPOINT 10.069 3.98534 2.73054 0.731194 0.000166084 0.000368518 -0.682169
POINTS 1253
DATA ascii
-8.89637 7.30756 -2.65795 0.0455777 4
-10.1218 8.31415 -2.54613 0.0540175 4
-13.3554 10.9703 -2.73741 0.059285 1
-15.7919 12.9716 -2.50928 0.72006 10
-22.4247 18.4199 -2.53892 0.514027 10
-22.4243 18.4195 -1.52085 0.515293 10
-22.4239 18.4192 -0.506527 0.515932 10
-22.4235 18.4188 0.506517 0.515941 10
-15.349 12.6078 1.04099 0.0366221 10
-15.2828 12.5535 1.73032 0.563395 10
-15.2833 12.5539 2.42847 0.561313 10
-15.2838 12.5543 3.13267 0.558548 10
-15.2843 12.5547 3.84476 0.555102 10
-15.2849 12.5551 4.56663 0.55098 10
-15.2854 12.5555 5.30028 0.546186 10
-7.90829 6.44985 -2.73442 0.0981937 1
-8.92192 7.27654 -2.65798 0.0709554 4
-10.1509 8.27887 -2.54616 0.0439161 4
-13.3938 10.9237 -2.73745 0.0592841 1
-15.798 12.8845 -2.50308 0.721843 10
-22.5999 18.4321 -2.55146 0.511502 10
-22.5995 18.4317 -1.52835 0.512762 10
-22.5991 18.4314 -0.509028 0.513397 10
-22.5987 18.431 0.509018 0.513407 10
-15.3922 12.5536 1.04094 0.0366237 10
-15.2887 12.4692 1.72604 0.564791 10
-15.2892 12.4696 2.42247 0.562704 10
-15.2897 12.47 3.12493 0.559932 10
-15.2902 12.4704 3.83526 0.556477 10
-15.2907 12.4708 4.55534 0.552345 10
-15.2912 12.4712 5.28718 0.547539 10
-7.93083 6.42226 -2.73444 0.0981929 1
-8.94736 7.24543 -2.65801 0.107727 4
-10.1799 8.24349 -2.54619 0.0531379 4
-13.4321 10.8771 -2.73749 0.0592832 1
-15.804 12.7978 -2.49694 0.723618 10
-22.7682 18.4374 -2.56318 0.0772035 10
-22.7764 18.444 -1.53596 0.510224 10
-22.776 18.4436 -0.51156 0.510856 10
-22.7756 18.4433 0.51155 0.510866 10
-15.4352 12.4992 1.04089 0.0366254 10
-15.2945 12.3853 1.72181 0.566179 10
-15.295 12.3857 2.41652 0.564087 10
-15.2955 12.3861 3.11727 0.561309 10
-15.296 12.3865 3.82585 0.557846 10
-15.2965 12.3869 4.54417 0.553703 10
-15.297 12.3873 5.27421 0.548886 10
-7.95327 6.3946 -2.73447 0.098192 1
-8.96186 7.20552 -2.65483 0.297103 4
-10.2087 8.20801 -2.54623 0.058407 4
-13.4702 10.8303 -2.73754 0.0592823 1
-15.81 12.7116 -2.49086 0.725384 10
-22.8331 18.3583 -2.56325 0.0772014 10
-22.9552 18.4564 -1.54365 0.507679 10
-22.9547 18.4561 -0.514124 0.508309 10
-22.9543 18.4557 0.514113 0.508318 10
-15.4781 12.4447 1.04085 0.036627 10
-15.3003 12.3018 1.71762 0.567561 10
-15.3008 12.3022 2.41064 0.565464 10
-15.3013 12.3026 3.10968 0.562679 10
-15.3018 12.303 3.81653 0.559207 10
-15.3023 12.3034 4.5331 0.555055 10
-15.3028 12.3038 5.26136 0.550226 10
-7.97561 6.36685 -2.73449 0.0981911 1
-8.96868 7.15961 -2.64943 0.275791 4
-10.2374 8.17242 -2.54626 0.060602 4
-13.5081 10.7834 -2.73758 0.0592814 1
-15.816 12.6257 -2.48485 0.72714 10
-22.8977 18.279 -2.56332 0.0771993 10
-23.1357 18.469 -1.55145 0.505129 10
-23.1352 18.4686 -0.516719 0.505755 10
-23.1348 18.4682 0.516709 0.505765 10
-15.5207 12.39 1.0408 0.0366287 10
-15.3061 12.2187 1.71347 0.568936 10
-15.3066 12.2191 2.40481 0.566834 10
-15.3071 12.2195 3.10216 0.564042 10
-15.3076 12.2199 3.80731 0.560562 10
-15.3081 12.2203 4.52214 0.5564 10
-15.3086 12.2207 5.24865 0.551559 10
-7.99786 6.33903 -2.73451 0.0981903 1
-8.97545 7.11385 -2.64408 0.223276 4
-10.266 8.13673 -2.54629 0.0592839 4
-13.5459 10.7363 -2.73762 0.0592805 1
-15.8219 12.5403 -2.47889 0.728889 10
-22.962 18.1994 -2.56339 0.0771972 10
-23.318 18.4816 -1.55934 0.502572 10
-23.3176 18.4813 -0.519348 0.503195 10
-23.3171 18.4809 0.519338 0.503205 10
-15.5632 12.3352 1.04075 0.0366303 10
-15.3118 12.136 1.70936 0.570304 10
-15.3123 12.1364 2.39905 0.568197 10
-15.3128 12.1368 3.09472 0.565398 10
-15.3133 12.1372 3.79818 0.56191 10
-15.3138 12.1376 4.51129 0.557738 10
-15.3143 12.138 5.23605 0.552886 10
-8.02001 6.31113 -2.73454 0.0981894 1
-8.98217 7.06828 -2.63877 0.238395 4
-10.2945 8.10095 -2.54632 0.0526961 4
-13.5835 10.6891 -2.73766 0.0592796 1
-15.8278 12.4553 -2.47299 0.730628 10
-23.026 18.1197 -2.56346 0.0771951 10
-23.5022 18.4944 -1.56733 0.50001 10
-23.5017 18.4941 -0.522009 0.50063 10
-23.5013 18.4937 0.521999 0.500639 10
-15.6054 12.2803 1.04071 0.036632 10
-15.3175 12.0537 1.70529 0.571665 10
-15.318 12.0541 2.39333 0.569553 10
-15.3185 12.0545 3.08735 0.566748 10
-15.319 12.0549 3.78913 0.563251 10
-15.3195 12.0553 4.50055 0.559069 10
-15.32 12.0557 5.22359 0.554205 10
-8.04206 6.28315 -2.73456 0.0981885 1
-8.98885 7.02286 -2.63352 0.216821 4
-10.3228 8.06506 -2.54635 0.0518172 4
-13.6209 10.6418 -2.7377 0.0592787 1
-15.8337 12.3706 -2.46714 0.732358 10
-23.0897 18.0397 -2.56353 0.077193 10
-23.6883 18.5074 -1.57543 0.497441 10
-23.6879 18.507 -0.524705 0.498058 10
-23.6874 18.5066 0.524695 0.498067 10
-15.6475 12.2252 1.04066 0.0366336 10
-15.3232 11.9718 1.70126 0.573019 10
-15.3237 11.9722 2.38768 0.570903 10
-15.3242 11.9726 3.08005 0.56809 10
-15.3247 11.973 3.78018 0.564586 10
-15.3252 11.9734 4.48992 0.560393 10
-15.3257 11.9738 5.21124 0.555518 10
-8.06402 6.2551 -2.73459 0.0981876 1
-8.99549 6.97762 -2.62831 0.239344 4
-10.351 8.02908 -2.54638 0.0360081 4
-13.6582 10.5944 -2.73774 0.0592778 1
-15.8396 12.2864 -2.46136 0.734079 10
-23.1532 17.9594 -2.5636 0.0771909 10
-23.8764 18.5204 -1.58362 0.494866 10
-23.8759 18.5201 -0.527435 0.49548 10
-23.8754 18.5197 0.527424 0.495489 10
-15.6894 12.1699 1.04061 0.0366352 10
-15.3289 11.8903 1.69727 0.574367 10
-15.3294 11.8907 2.38208 0.572245 10
-15.3299 11.8911 3.07283 0.569426 10
-15.3304 11.8914 3.77131 0.565913 10
-15.3309 11.8918 4.47938 0.561711 10
-15.3314 11.8922 5.19902 0.556824 10
-8.08588 6.22696 -2.73461 0.0981868 1
-9.00209 6.93254 -2.62315 0.302536 4
-10.3791 7.99299 -2.54641 0.0671851 4
-13.6953 10.5468 -2.73778 0.059277 1
-15.8454 12.2026 -2.45563 0.735792 10
-23.2163 17.879 -2.56367 0.0771888 10
-24.0664 18.5336 -1.59193 0.492285 10
-24.0659 18.5333 -0.5302 0.492896 10
-24.0655 18.5329 0.53019 0.492905 10
-15.7311 12.1146 1.04057 0.0366369 10
-15.3345 11.8092 1.69331 0.575707 10
-15.335 11.8095 2.37653 0.57358 10
-15.3355 11.8099 3.06568 0.570755 10
-15.336 11.8103 3.76253 0.567234 10
-15.3365 11.8107 4.46895 0.563022 10
-15.337 11.8111 5.18691 0.558124 10
-8.10763 6.19875 -2.73463 0.0981859 1
-9.00864 6.88762 -2.61804 0.24398 4
-10.4071 7.95681 -2.54644 0.0395202 4
-13.7322 10.4991 -2.73782 0.0592761 1
-15.8512 12.1192 -2.44996 0.737495 10
-23.2792 17.7983 -2.56374 0.0771867 10
-24.2584 18.547 -1.60033 0.489699 10
-24.2579 18.5466 -0.533001 0.490306 10
-24.2574 18.5462 0.53299 0.490315 10
-15.7726 12.059 1.04052 0.0366385 10
-15.4312 11.7981 1.69944 0.380923 10
-15.4309 11.7978 2.385 0.379536 10
-15.4306 11.7976 3.07644 0.377686 10
-15.4303 11.7974 3.77554 0.375376 10
-15.43 11.7971 4.48417 0.372608 10
-15.4297 11.7969 5.20429 0.369387 10
-8.12929 6.17047 -2.73466 0.0981851 1
-9.01515 6.84287 -2.61297 0.290751 4
-10.4349 7.92053 -2.54647 0.0627924 4
-13.769 10.4512 -2.73786 0.0592752 1
-15.857 12.0361 -2.44434 0.73919 10
-23.3418 17.7174 -2.56381 0.0771846 10
-24.4525 18.5604 -1.60885 0.487106 10
-24.452 18.5601 -0.535838 0.48771 10
-24.4515 18.5597 0.535827 0.48772 10
-15.8139 12.0034 1.04048 0.0366401 10
-15.5547 11.8066 1.70848 0.378907 10
-15.5543 11.8064 2.39769 0.377527 10
-15.554 11.8062 3.09281 0.375686 10
-15.5537 11.8059 3.79563 0.373389 10
-15.5534 11.8057 4.50803 0.370636 10
-15.5531 11.8054 5.23198 0.367432 10
-8.14431 6.13718 -2.73249 0.260824 4
-9.02161 6.79827 -2.60795 0.283888 4
-10.4626 7.88416 -2.5465 0.0579615 4
-13.8056 10.4032 -2.7379 0.0592743 1
-15.8627 11.9534 -2.43878 0.740876 10
-16.7204 12.5998 -1.83169 0.743576 10
-16.721 12.6001 -1.09726 0.74537 10
-16.7215 12.6005 -0.365467 0.746256 10
-16.722 12.6009 0.365478 0.746233 10
-15.855 11.9476 1.04043 0.0366417 10
-15.6794 11.8153 1.71765 0.376885 10
-15.6791 11.8151 2.41055 0.375513 10
-15.6788 11.8148 3.1094 0.373682 10
-15.6785 11.8146 3.81599 0.371397 10
-15.6781 11.8143 4.53221 0.368659 10
-15.6778 11.8141 5.26004 0.365472 10
-8.14902 6.09625 -2.72691 0.263322 4
-9.02804 6.75384 -2.60298 0.241673 4
-10.4902 7.84768 -2.54653 0.0109774 4
-13.842 10.3551 -2.73794 0.0592735 1
-15.8684 11.8711 -2.43327 0.742552 10
-16.7265 12.513 -1.82755 0.745258 10
-16.727 12.5134 -1.09478 0.747056 10
-16.7275 12.5138 -0.364641 0.747944 10
-16.728 12.5142 0.364652 0.747921 10
-15.8959 11.8916 1.04038 0.0366433 10
-15.8055 11.8241 1.72693 0.374859 10
-15.8052 11.8238 2.42358 0.373494 10
-15.8049 11.8236 3.1262 0.371674 10
-15.8046 11.8233 3.83661 0.369401 10
-15.8042 11.8231 4.5567 0.366677 10
-15.8039 11.8228 5.28847 0.363507 10
-8.15371 6.05548 -2.72139 0.248103 4
-9.03442 6.70955 -2.59805 0.249582 4
-11.3022 8.39373 -2.73651 0.072336 1
-13.8783 10.3069 -2.73798 0.0592726 1
-15.8741 11.7892 -2.42782 0.744219 10
-16.7325 12.4266 -1.82345 0.746932 10
-16.733 12.427 -1.09233 0.748734 10
-16.7335 12.4274 -0.363824 0.749624 10
-16.734 12.4278 0.363835 0.749601 10
-15.9366 11.8356 1.04034 0.036645 10
-15.933 11.8329 1.73633 0.372829 10
-15.9327 11.8327 2.43678 0.371471 10
-15.9324 11.8324 3.14323 0.36966 10
-15.932 11.8322 3.85751 0.3674 10
-15.9317 11.8319 4.58152 0.364691 10
-15.9314 11.8317 5.31727 0.361538 10
-8.15837 6.01487 -2.71592 0.26636 4
-9.04076 6.66543 -2.59317 0.25565 4
-11.3315 8.35433 -2.73654 0.0723351 1
-13.9144 10.2586 -2.73802 0.0592717 1
-15.8798 11.7076 -2.42242 0.745878 10
-16.7384 12.3406 -1.8194 0.748596 10
-16.739 12.341 -1.0899 0.750403 10
-16.7395 12.3414 -0.363015 0.751295 10
-16.74 12.3418 0.363026 0.751272 10
-16.0622 11.8421 1.04583 0.371693 10
-16.0619 11.8419 1.74586 0.370794 10
-16.0616 11.8416 2.45015 0.369443 10
-16.0612 11.8414 3.16048 0.367643 10
-16.0609 11.8411 3.87868 0.365394 10
-16.0606 11.8409 4.60666 0.362701 10
-16.0602 11.8406 5.34645 0.359565 10
-8.163 5.97441 -2.7105 0.239215 4
-9.04706 6.62145 -2.58833 0.192563 4
-11.3608 8.31482 -2.73658 0.0723342 1
-13.9503 10.2101 -2.73806 0.0592708 1
-15.8854 11.6264 -2.41708 0.747527 10
-16.7444 12.255 -1.81539 0.750252 10
-16.7449 12.2554 -1.08749 0.752062 10
-16.7454 12.2558 -0.362214 0.752956 10
-16.7459 12.2562 0.362225 0.752933 10
-16.1926 11.8512 1.05162 0.369648 10
-16.1922 11.8509 1.75552 0.368754 10
-16.1919 11.8507 2.46371 0.367411 10
-16.1915 11.8504 3.17796 0.365621 10
-16.1912 11.8502 3.90013 0.363385 10
-16.1909 11.8499 4.63214 0.360706 10
-16.1905 11.8497 5.37602 0.357587 10
-8.1676 5.93411 -2.70514 0.263461 4
-9.05333 6.57763 -2.58354 0.25473 4
-11.3898 8.27521 -2.73661 0.0723334 1
-13.9861 10.1615 -2.7381 0.05927 1
-15.8911 11.5455 -2.41179 0.749167 10
-16.7503 12.1698 -1.81141 0.751898 10
-16.7508 12.1702 -1.08511 0.753712 10
-16.7513 12.1706 -0.361421 0.754608 10
-16.7519 12.1709 0.361432 0.754585 10
-16.3243 11.8603 1.05748 0.367599 10
-16.324 11.8601 1.7653 0.36671 10
-16.3236 11.8598 2.47744 0.365375 10
-16.3233 11.8596 3.19567 0.363594 10
-16.3229 11.8593 3.92187 0.361371 10
-16.3226 11.8591 4.65796 0.358707 10
-16.3222 11.8588 5.40598 0.355606 10
-8.17217 5.89395 -2.69982 0.216344 4
-9.05955 6.53395 -2.57879 0.238311 4
-11.4188 8.2355 -2.73664 0.0723325 1
-14.0216 10.1127 -2.73814 0.0592691 1
-15.8967 11.465 -2.40655 0.750798 10
-16.7562 12.085 -1.80748 0.753535 10
-16.7567 12.0853 -1.08275 0.755353 10
-16.7572 12.0857 -0.360636 0.756252 10
-16.7578 12.0861 0.360647 0.756228 10
-16.4576 11.8696 1.06342 0.365545 10
-16.4572 11.8693 1.77522 0.364662 10
-16.4569 11.8691 2.49135 0.363334 10
-16.4565 11.8688 3.21363 0.361563 10
-16.4562 11.8686 3.9439 0.359352 10
-16.4558 11.8683 4.68412 0.356703 10
-16.4554 11.868 5.43635 0.353619 10
-8.17672 5.85396 -2.69456 0.266484 4
-9.06573 6.49043 -2.57408 0.244386 4
-11.4476 8.19569 -2.73667 0.0723317 1
-14.0571 10.0639 -2.73818 0.0592683 1
-15.9022 11.3849 -2.40136 0.75242 10
-16.7621 12.0005 -1.80358 0.755163 10
-16.7626 12.0008 -1.08042 0.756985 10
-16.7631 12.0012 -0.359859 0.757885 10
-16.7636 12.0016 0.359869 0.757862 10
-16.5923 11.8789 1.06944 0.363487 10
-16.5919 11.8787 1.78527 0.362609 10
-16.5916 11.8784 2.50546 0.361288 10
-16.5912 11.8782 3.23182 0.359528 10
-16.5909 11.8779 3.96622 0.357329 10
-16.5905 11.8776 4.71064 0.354695 10
-16.5902 11.8774 5.46712 0.351629 10
-8.18124 5.81411 -2.68934 0.261023 4
-9.07187 6.44705 -2.56942 0.291912 4
-11.4763 8.15578 -2.7367 0.0723308 1
-14.0923 10.0149 -2.73822 0.0592674 1
-15.9078 11.3051 -2.39623 0.754033 10
-16.7679 11.9164 -1.79972 0.756781 10
-16.7684 11.9167 -1.07811 0.758608 10
-16.769 11.9171 -0.359089 0.75951 10
-16.7695 11.9174 0.3591 0.759487 10
-16.7286 11.8884 1.07555 0.361425 10
-16.7282 11.8881 1.79546 0.360552 10
-16.7279 11.8879 2.51975 0.359239 10
-16.7275 11.8876 3.25026 0.357488 10
-16.7271 11.8874 3.98885 0.355302 10
-16.7268 11.8871 4.73751 0.352683 10
-16.7264 11.8868 5.49831 0.349634 10
-8.18573 5.7744 -2.68417 0.249547 4
-9.07798 6.40381 -2.5648 0.271684 4
-11.5048 8.11576 -2.73674 0.07233 1
-14.1274 9.96577 -2.73826 0.0592665 1
-15.9133 11.2256 -2.39114 0.755636 10
-16.8678 11.899 -1.80598 0.459723 10
-16.8675 11.8987 -1.0818 0.460856 10
-16.8671 11.8984 -0.360299 0.461428 10
-16.8668 11.8982 0.360292 0.461438 10
-16.8664 11.8979 1.08173 0.359358 10
-16.8661 11.8977 1.80579 0.35849 10
-16.8657 11.8974 2.53425 0.357184 10
-16.8653 11.8972 3.26895 0.355444 10
-16.865 11.8969 4.0118 0.35327 10
-16.8646 11.8967 4.76476 0.350666 10
-16.8642 11.8964 5.52993 0.347635 10
-8.1902 5.73484 -2.67906 0.244023 4
-9.08404 6.36072 -2.56023 0.262719 4
-11.5332 8.07565 -2.73677 0.0723291 1
-14.1623 9.91655 -2.7383 0.0592657 1
-15.9188 11.1465 -2.38611 0.757231 10
-17.0073 11.9086 -1.81645 0.457073 10
-17.0069 11.9084 -1.08807 0.4582 10
-17.0066 11.9081 -0.362388 0.458769 10
-17.0062 11.9079 0.36238 0.458779 10
-16.9537 11.8711 1.08466 0.557069 10
-16.9757 11.8865 1.81307 0.428508 10
-17.0051 11.9071 2.54894 0.355126 10
-17.0048 11.9069 3.2879 0.353395 10
-16.9558 11.8726 4.02351 0.547517 10
-16.9563 11.8729 4.77893 0.543452 10
-16.9784 11.8884 5.55372 0.415422 10
-8.19464 5.69542 -2.67399 0.268533 4
-9.09007 6.31776 -2.5557 0.289693 4
-11.5615 8.03543 -2.7368 0.0723283 1
-14.197 9.86719 -2.73834 0.0592648 1
-15.9243 11.0677 -2.38112 0.758816 10
-19.1949 13.3408 -2.0451 0.761582 10
-19.2633 13.3883 -1.22943 0.300895 10
-19.2629 13.388 -0.409469 0.301268 10
-19.2625 13.3878 0.40946 0.301274 10
-16.9595 11.7872 1.0824 0.558236 10
-16.9815 11.8025 1.80928 0.429405 10
-19.263 13.3881 2.88035 0.71519 10
-19.2254 13.362 3.70822 0.131678 10
-16.9616 11.7886 4.0151 0.548664 10
-16.9621 11.789 4.76894 0.54459 10
-16.9842 11.8043 5.54211 0.416292 10
-8.19905 5.65615 -2.66897 0.152589 4
-9.09606 6.27495 -2.55121 0.0625928 4
-11.5896 7.99512 -2.73683 0.0723274 1
-14.2316 9.81772 -2.73838 0.059264 1
-15.9297 10.9892 -2.37619 0.760392 10
-19.2015 13.2462 -2.04086 0.763164 10
-34.1813 23.5801 -2.17627 0.765006 10
-34.3045 23.6651 -0.727446 0.299504 10
-34.3037 23.6646 0.72743 0.29951 10
-16.9653 11.7036 1.08015 0.559395 10
-16.9873 11.7188 1.80553 0.430297 10
-19.2702 13.2936 3.70788 0.713146 10
-16.9674 11.705 4.00678 0.549804 10
-16.9679 11.7054 4.75906 0.545721 10
-16.99 11.7206 5.53062 0.417157 10
-8.20343 5.61701 -2.664 0.289655 4
-9.10201 6.23227 -2.54676 0.087403 4
-11.6176 7.95471 -2.73687 0.0723266 1
-14.266 9.76811 -2.73842 0.0592631 1
-15.9352 10.911 -2.3713 0.761958 10
-19.208 13.152 -2.03667 0.764736 10
-19.2086 13.1524 -1.22005 0.506347 10
-19.2092 13.1528 -0.406365 0.506949 10
-19.2097 13.1532 0.406377 0.506934 10
-16.9711 11.6203 1.07793 0.560548 10
-16.9931 11.6354 1.80182 0.431184 10
-19.2767 13.199 3.70026 0.714616 10
-16.9732 11.6218 3.99854 0.550937 10
-16.9737 11.6221 4.74927 0.546846 10
-16.9958 11.6372 5.51925 0.418017 10
-8.2078 5.57802 -2.65908 0.282131 4
-9.12069 6.19841 -2.54591 0.0787044 4
-11.6454 7.9142 -2.7369 0.0723257 1
-14.3002 9.7184 -2.73846 0.0592623 1
-15.9406 10.8332 -2.36646 0.763516 10
-19.2145 13.0582 -2.03251 0.766299 10
-19.3065 13.1207 -1.22335 0.295598 10
-19.3061 13.1204 -0.407444 0.295965 10
-19.3057 13.1201 0.407435 0.295971 10
-16.9768 11.5374 1.07573 0.561693 10
-16.9989 11.5524 1.79814 0.432065 10
-19.2832 13.1049 3.69271 0.716077 10
-16.9789 11.5389 3.99038 0.552063 10
-16.9794 11.5392 4.73958 0.547964 10
-17.0015 11.5542 5.50798 0.418872 10
-8.21213 5.53916 -2.6542 0.169589 4
-9.14235 6.1666 -2.54594 0.0750792 4
-11.6731 7.87359 -2.73693 0.0723249 1
-14.3342 9.66856 -2.7385 0.0592614 1
-15.946 10.7557 -2.36168 0.765064 10
-19.221 12.9647 -2.0284 0.767853 10
-34.2161 23.0791 -2.16298 0.769706 10
-34.2799 23.1221 -0.721749 0.29419 10
-34.2791 23.1216 0.721733 0.294196 10
-16.9826 11.4549 1.07356 0.562832 10
-17.0046 11.4698 1.7945 0.432941 10
-19.2898 13.0111 3.68524 0.717529 10
-16.9846 11.4563 3.9823 0.553182 10
-16.9852 11.4567 4.72999 0.549075 10
-17.0073 11.4716 5.49684 0.419721 10
-8.22802 5.50818 -2.65311 0.25687 4
-9.16392 6.13471 -2.54596 0.0714539 4
-11.7006 7.83289 -2.73696 0.072324 1
-14.3681 9.6186 -2.73854 0.0592606 1
-15.9513 10.6785 -2.35694 0.766602 10
-19.2275 12.8717 -2.02433 0.769397 10
-19.2281 12.8721 -1.21266 0.509433 10
-19.2286 12.8725 -0.403903 0.510039 10
-19.2292 12.8728 0.403915 0.510024 10
-16.9883 11.3727 1.0714 0.563965 10
-17.0103 11.3874 1.7909 0.433812 10
-19.2962 12.9177 3.67784 0.718973 10
-16.9903 11.374 3.97431 0.554295 10
-16.9909 11.3744 4.72049 0.55018 10
-17.013 11.3892 5.4858 0.420566 10
-8.23232 5.46954 -2.64832 0.273545 4
-9.18536 6.10274 -2.54599 0.067311 4
-11.728 7.79209 -2.73699 0.0723232 1
-14.4018 9.56853 -2.73858 0.0592598 1
-15.9567 10.6016 -2.35224 0.768132 10
-19.2339 12.779 -2.0203 0.770932 10
-19.3448 12.8527 -1.21719 0.290269 10
-19.3444 12.8524 -0.40539 0.290629 10
-19.344 12.8521 0.405381 0.290636 10
-16.994 11.2908 1.06927 0.56509 10
-17.016 11.3054 1.78734 0.434678 10
-19.3027 12.8247 3.67051 0.720407 10
-16.996 11.2921 3.96639 0.555402 10
-16.9966 11.2925 4.71109 0.551278 10
-17.0187 11.3072 5.47487 0.421405 10
-8.23658 5.43103 -2.64358 0.282155 4
-9.2067 6.0707 -2.54601 0.0755947 4
-11.7553 7.75119 -2.73702 0.0723224 1
-14.4353 9.51833 -2.73862 0.0592589 1
-15.962 10.525 -2.3476 0.769652 10
-19.2403 12.6867 -2.01631 0.772458 10
-34.2505 22.5841 -2.15008 0.774322 10
-34.2515 22.5847 -0.716134 0.512068 10
-34.2526 22.5854 0.716155 0.512053 10
-16.9996 11.2092 1.06716 0.566208 10
-17.0217 11.2237 1.7838 0.435538 10
-19.3091 12.732 3.66326 0.721833 10
-17.0017 11.2106 3.95856 0.556501 10
-17.0022 11.2109 4.70178 0.552369 10
-17.0243 11.2255 5.46406 0.422239 10
-8.24082 5.39265 -2.63888 0.256221 4
-9.22792 6.03859 -2.54604 0.0538478 4
-11.7824 7.7102 -2.73705 0.0723215 1
-14.4686 9.46802 -2.73865 0.0592581 1
-15.9673 10.4487 -2.343 0.771162 10
-19.2467 12.5947 -2.01236 0.773974 10
-19.2473 12.5951 -1.20549 0.512464 10
-19.2479 12.5955 -0.401515 0.513073 10
-19.2485 12.5958 0.401526 0.513058 10
-17.0053 11.1279 1.06506 0.56732 10
-17.0273 11.1424 1.78031 0.436393 10
-19.3155 12.6397 3.65608 0.72325 10
-17.0073 11.1293 3.9508 0.557593 10
-17.0079 11.1296 4.69257 0.553454 10
-17.03 11.1441 5.45335 0.423068 10
-8.24504 5.35439 -2.63423 0.18945 4
-9.24903 6.00639 -2.54606 0.076111 4
-11.8094 7.66911 -2.73709 0.0723207 1
-14.5018 9.41759 -2.73869 0.0592573 1
-15.9726 10.3727 -2.33845 0.772664 10
-19.2531 12.5031 -2.00845 0.775481 10
-19.3782 12.5844 -1.21093 0.284908 10
-19.3778 12.5841 -0.403305 0.285262 10
-19.3773 12.5838 0.403296 0.285268 10
-17.0109 11.047 1.063 0.568424 10
-17.033 11.0613 1.77685 0.437243 10
-19.3213 12.5474 2.82872 0.728245 10
-19.3219 12.5478 3.64898 0.724659 10
-17.0129 11.0483 3.94312 0.558679 10
-17.0135 11.0487 4.68345 0.554531 10
-17.0356 11.063 5.44275 0.423892 10
-8.24924 5.31627 -2.62963 0.257123 4
-9.27003 5.97413 -2.54609 0.0786991 4
-11.8362 7.62793 -2.73712 0.0723199 1
-14.5348 9.36704 -2.73873 0.0592564 1
-15.9778 10.297 -2.33394 0.774155 10
-19.2594 12.4119 -2.00458 0.776978 10
-29.449 18.9786 -1.83609 0.778854 10
-29.4499 18.9792 -0.611552 0.77978 10
-29.4508 18.9797 0.61157 0.779757 10
-17.0165 10.9664 1.06095 0.569522 10
-17.0386 10.9806 1.77343 0.438087 10
-19.2629 12.4141 2.8138 0.603492 10
-19.2635 12.4145 3.62973 0.600521 10
-17.0185 10.9677 3.93552 0.559758 10
-17.0191 10.968 4.67442 0.555602 10
-17.0412 10.9823 5.43226 0.424711 10
-8.25341 5.27828 -2.62507 0.273923 4
-9.29092 5.94179 -2.54611 0.050222 4
-11.8629 7.58665 -2.73715 0.0723191 1
-14.5676 9.31637 -2.73877 0.0592556 1
-15.9831 10.2216 -2.32948 0.775638 10
-19.2657 12.321 -2.00075 0.778466 10
-19.2663 12.3213 -1.19853 0.515438 10
-19.2669 12.3217 -0.399198 0.516051 10
-19.2675 12.3221 0.399209 0.516036 10
-17.0221 10.8861 1.05892 0.570613 10
-17.0442 10.9002 1.77004 0.438926 10
-19.2692 12.3232 2.80842 0.604648 10
-19.2698 12.3235 3.6228 0.601671 10
-17.0241 10.8874 3.928 0.56083 10
-17.0246 10.8877 4.66548 0.556666 10
-17.0468 10.9019 5.42187 0.425524 10
-8.25756 5.24041 -2.62055 0.243679 4
-9.31169 5.90938 -2.54614 0.0693781 4
-11.8895 7.54528 -2.73718 0.0723183 1
-14.6002 9.2656 -2.73881 0.0592548 1
-15.9883 10.1465 -2.32506 0.777111 10
-19.272 12.2304 -1.99696 0.779944 10
-19.4064 12.3157 -1.20456 0.279516 10
-19.4059 12.3154 -0.401185 0.279863 10
-19.4055 12.3151 0.401176 0.279869 10
-17.0276 10.8061 1.05691 0.571696 10
-17.0497 10.8201 1.76668 0.43976 10
-19.2755 12.2326 2.80309 0.605797 10
-19.2761 12.233 3.61593 0.602814 10
-17.0297 10.8074 3.92055 0.561896 10
-17.0302 10.8077 4.65664 0.557724 10
-17.0523 10.8217 5.41159 0.426332 10
-8.26168 5.20266 -2.61608 0.289223 4
-9.33235 5.8769 -2.54616 0.0709307 4
-11.9159 7.50382 -2.73721 0.0723174 1
-14.6327 9.21471 -2.73885 0.0592539 1
-15.9935 10.0717 -2.32069 0.778574 10
-19.2783 12.1402 -1.9932 0.781413 10
-29.774 18.7497 -1.84401 0.42044 10
-29.7733 18.7493 -0.614157 0.420963 10
-29.7726 18.7488 0.614142 0.420972 10
-17.0332 10.7264 1.05492 0.572773 10
-17.0553 10.7403 1.76336 0.440588 10
-19.2817 12.1424 2.79783 0.606938 10
-19.2823 12.1427 3.60913 0.603949 10
-17.0352 10.7276 3.91318 0.562954 10
-17.0357 10.728 4.64788 0.558774 10
-17.0579 10.7419 5.40142 0.427136 10
-8.26578 5.16503 -2.61166 0.27944 4
-9.3529 5.84434 -2.54618 0.0662704 4
-11.9421 7.46226 -2.73724 0.0723166 1
-14.665 9.1637 -2.73888 0.0592531 1
-15.9987 9.99709 -2.31637 0.780028 10
-19.2846 12.0503 -1.98949 0.782872 10
-19.2851 12.0507 -1.19178 0.518356 10
-19.2857 12.051 -0.396951 0.518973 10
-19.2863 12.0514 0.396962 0.518957 10
-17.0387 10.6469 1.05296 0.573843 10
-17.0608 10.6608 1.76007 0.441411 10
-19.288 12.0525 2.79261 0.608071 10
-19.2886 12.0528 3.6024 0.605077 10
-17.0407 10.6482 3.90589 0.564006 10
-17.0412 10.6485 4.63922 0.559818 10
-17.0634 10.6624 5.39135 0.427933 10
-8.26986 5.12753 -2.60727 0.228455 4
-9.37333 5.81171 -2.54621 0.0786953 4
-11.9682 7.42062 -2.73727 0.0723158 1
-14.6971 9.11258 -2.73892 0.0592523 1
-16.0038 9.92281 -2.31209 0.781473 10
-19.2908 11.9608 -1.98581 0.784322 10
-19.4291 12.0466 -1.19808 0.274093 10
-19.4287 12.0463 -0.399026 0.274433 10
-19.4282 12.046 0.399016 0.27444 10
-17.0442 10.5678 1.05101 0.574906 10
-17.0447 10.5681 1.75459 0.573487 10
-19.2942 11.9629 2.78745 0.609198 10
-19.2948 11.9633 3.59574 0.606198 10
-17.0462 10.5691 3.89866 0.56505 10
-17.0467 10.5694 4.63064 0.560856 10
-17.0473 10.5698 5.37456 0.555977 10
-8.27391 5.09014 -2.60293 0.224713 4
-9.39365 5.77901 -2.54623 0.0605741 4
-11.9942 7.37888 -2.7373 0.072315 1
-14.729 9.06135 -2.73896 0.0592515 1
-16.009 9.8488 -2.30785 0.782908 10
-19.297 11.8716 -1.98217 0.785762 10
-34.3513 21.1331 -2.11368 0.787659 10
-66.9895 41.2122 -1.37287 0.788597 10
-64.4146 39.6282 1.3201 0.321816 10
-17.0496 10.489 1.04908 0.575962 10
-17.0718 10.5026 1.7536 0.443041 10
-19.3004 11.8737 2.78234 0.610317 10
-19.301 11.874 3.58915 0.607311 10
-17.0517 10.4903 3.89152 0.566088 10
-17.0522 10.4906 4.62215 0.561886 10
-17.0744 10.5042 5.37151 0.429514 10
-8.27794 5.05288 -2.59864 0.29323 4
-9.41385 5.74624 -2.54626 0.0771407 4
-12.02 7.33705 -2.73733 0.0723142 1
-14.7607 9.01 -2.739 0.0592507 1
-16.0141 9.77506 -2.30365 0.784333 10
-19.3032 11.7827 -1.97857 0.787193 10
-19.3037 11.783 -1.18524 0.521217 10
-19.3043 11.7834 -0.394772 0.521837 10
-19.3049 11.7837 0.394783 0.521822 10
-17.0551 10.4105 1.04718 0.57701 10
-17.0772 10.424 1.75041 0.443847 10
-19.3066 11.7848 2.77728 0.611428 10
-19.3071 11.7851 3.58262 0.608417 10
-17.0571 10.4117 3.88444 0.567119 10
-17.0576 10.412 4.61375 0.562909 10
-17.0798 10.4256 5.36175 0.430296 10
-8.28195 5.01573 -2.59438 0.250274 4
-9.43394 5.7134 -2.54628 0.0414174 4
-12.0457 7.29512 -2.73736 0.0723134 1
-14.7923 8.95854 -2.73903 0.0592499 1
-16.0192 9.70159 -2.2995 0.785749 10
-19.3093 11.6941 -1.975 0.788614 10
-19.4464 11.7771 -1.19147 0.26864 10
-19.4459 11.7769 -0.396824 0.268974 10
-19.4454 11.7766 0.396815 0.26898 10
-17.0605 10.3322 1.04529 0.578052 10
-17.0827 10.3456 1.74725 0.444649 10
-19.3127 11.6962 2.77227 0.612532 10
-19.3133 11.6965 3.57617 0.609516 10
-17.0626 10.3334 3.87744 0.568143 10
-17.0631 10.3338 4.60543 0.563926 10
-17.0853 10.3472 5.35208 0.431073 10
-8.28594 4.9787 -2.59017 0.16574 4
-9.45392 5.68049 -2.5463 0.0698913 4
-12.0712 7.25312 -2.7374 0.0723126 1
-14.8237 8.90698 -2.73907 0.0592491 1
-16.0243 9.62838 -2.2954 0.787155 10
-19.3154 11.6059 -1.97147 0.790026 10
-34.3842 20.6601 -2.10227 0.791933 10
-66.0351 39.6779 1.34472 0.31536 10
-17.0659 10.2543 1.04342 0.579087 10
-17.0881 10.2676 1.74413 0.445445 10
-19.3188 11.6079 2.76732 0.613628 10
-19.3194 11.6083 3.56978 0.610607 10
-17.068 10.2555 3.87051 0.56916 10
-17.0685 10.2558 4.5972 0.564935 10
-17.0907 10.2691 5.34252 0.431845 10
-8.2899 4.94177 -2.586 0.112055 4
-9.47378 5.6475 -2.54633 0.0429698 4
-12.0966 7.21101 -2.73743 0.0723118 1
-14.8549 8.8553 -2.73911 0.0592482 1
-16.0294 9.55543 -2.29133 0.788552 10
-19.3215 11.518 -1.96798 0.791427 10
-19.3221 11.5183 -1.1789 0.52402 10
-19.3227 11.5186 -0.392659 0.524644 10
-19.3232 11.519 0.392671 0.524629 10
-17.0713 10.1766 1.04157 0.580115 10
-17.0935 10.1898 1.74104 0.446235 10
-19.3249 11.52 2.76242 0.614717 10
-19.3255 11.5203 3.56345 0.611691 10
-17.0734 10.1778 3.86365 0.57017 10
-17.0739 10.1781 4.58906 0.565938 10
-17.0961 10.1913 5.33305 0.432611 10
-8.30589 4.91209 -2.58563 0.0858003 4
-9.49352 5.61445 -2.54635 0.0181196 4
-12.1218 7.16883 -2.73746 0.072311 1
-14.8859 8.80351 -2.73915 0.0592474 1
-16.0344 9.48274 -2.28731 0.789939 10
-19.3276 11.4303 -1.96453 0.79282 10
-19.4577 11.5073 -1.18472 0.263157 10
-19.4572 11.507 -0.394575 0.263485 10
-19.4568 11.5067 0.394565 0.263491 10
-17.0767 10.0991 1.03974 0.581135 10
-17.0989 10.1122 1.73799 0.44702 10
-19.331 11.4323 2.75757 0.615799 10
-19.3316 11.4327 3.55719 0.612767 10
-17.0787 10.1003 3.85687 0.571174 10
-17.0792 10.1006 4.581 0.566934 10
-17.1014 10.1138 5.32368 0.433372 10
-8.32305 4.88311 -2.58565 0.0798414 4
-9.55783 5.60755 -2.55834 0.0370044 4
-12.1469 7.12655 -2.73749 0.0723102 1
-14.9168 8.75162 -2.73918 0.0592466 1
-16.0395 9.41031 -2.28333 0.791316 10
-19.3337 11.343 -1.96111 0.794202 10
-34.4167 20.1922 -2.09122 0.79612 10
-17.0992 10.0321 1.03898 0.0344144 10
-17.1042 10.035 1.73496 0.4478 10
-19.3371 11.345 2.75276 0.616873 10
-19.3377 11.3453 3.551 0.613836 10
-17.0841 10.0232 3.85015 0.57217 10
-17.0846 10.0235 4.57302 0.567922 10
-17.1068 10.0365 5.31441 0.434128 10
-8.34011 4.85406 -2.58567 0.0780532 4
-9.64517 5.61362 -2.57645 0.0327718 4
-12.1718 7.08418 -2.73752 0.0723094 1
-14.9474 8.69961 -2.73922 0.0592458 1
-16.0445 9.33811 -2.27939 0.792684 10
-19.3398 11.256 -1.95772 0.795575 10
-19.3403 11.2563 -1.17276 0.526767 10
-19.3409 11.2567 -0.390612 0.527394 10
-19.3414 11.257 0.390623 0.527379 10
-17.1335 9.97192 1.03894 0.0344158 10
-17.1096 9.95801 1.73197 0.448574 10
-19.3431 11.258 2.74801 0.617939 10
-19.3437 11.2583 3.54487 0.614897 10
-17.0894 9.94628 3.84351 0.573159 10
-17.0899 9.94658 4.56513 0.568905 10
-17.1121 9.95951 5.30524 0.434879 10
-8.35707 4.82496 -2.58569 0.0792443 4
-9.70245 5.60172 -2.58651 0.053322 4
-12.1966 7.04173 -2.73755 0.0723086 1
-14.9779 8.6475 -2.73926 0.059245 1
-16.0495 9.26618 -2.27549 0.794042 10
-19.3458 11.1693 -1.95437 0.796938 10
-19.463 11.237 -1.17781 0.257646 10
-19.4625 11.2367 -0.392275 0.257967 10
-19.462 11.2364 0.392265 0.257973 10
-17.1675 9.91166 1.0389 0.0344172 10
-17.1149 9.8813 1.729 0.449343 10
-19.3492 11.1712 2.74331 0.618998 10
-19.3497 11.1716 3.53881 0.615951 10
-17.0947 9.86966 3.83693 0.574141 10
-17.0953 9.86996 4.55732 0.569879 10
-17.1175 9.88278 5.29616 0.435624 10
-8.37393 4.7958 -2.58571 0.0774562 4
-9.72204 5.56786 -2.58654 0.067299 4
-12.2213 6.99919 -2.73758 0.0723078 1
-15.0082 8.59527 -2.73929 0.0592442 1
-16.0545 9.19448 -2.27163 0.795391 10
-19.3518 11.0829 -1.95106 0.798292 10
-25.0786 14.3627 -1.5146 0.800219 10
-25.0793 14.3631 -0.50447 0.801172 10
-25.0801 14.3635 0.504484 0.801149 10
-17.2013 9.85128 1.03885 0.0344186 10
-17.1202 9.80484 1.72607 0.450106 10
-19.3552 11.0848 2.73866 0.62005 10
-19.3557 11.0851 3.5328 0.616997 10
-17.1 9.79328 3.83042 0.575117 10
-17.1006 9.79358 4.54959 0.570848 10
-17.1228 9.80631 5.28718 0.436364 10
-8.39069 4.76657 -2.58573 0.0607728 4
-9.7415 5.53395 -2.58656 0.0605685 4
-12.2458 6.95656 -2.73761 0.072307 1
-15.0383 8.54295 -2.73933 0.0592434 1
-16.0863 9.13831 -2.27161 0.382114 10
-19.3578 10.9967 -1.94778 0.799635 10
-19.3583 10.9971 -1.1668 0.529455 10
-19.3589 10.9974 -0.388629 0.530086 10
-19.3594 10.9977 0.38864 0.53007 10
-17.2349 9.79079 1.03881 0.03442 10
-17.1255 9.72865 1.72317 0.450864 10
-19.3611 10.9987 2.73406 0.621094 10
-19.3617 10.999 3.52687 0.618036 10
-17.1053 9.71718 3.82399 0.576085 10
-17.1058 9.71747 4.54194 0.571809 10
-17.1281 9.7301 5.2783 0.437099 10
-8.40734 4.73729 -2.58575 0.0863921 4
-9.76085 5.49996 -2.58659 0.0657447 4
-12.2701 6.91384 -2.73763 0.0723062 1
-15.0682 8.49052 -2.73937 0.0592427 1
-16.2364 9.14874 -2.28828 0.379331 10
-19.3637 10.9109 -1.94454 0.800969 10
-19.462 10.9663 -1.17073 0.252106 10
-19.4615 10.966 -0.389917 0.25242 10
-19.461 10.9657 0.389907 0.252427 10
-17.2683 9.73017 1.03877 0.0344213 10
-17.1308 9.6527 1.7203 0.451616 10
-19.3671 10.9128 2.7295 0.62213 10
-19.3677 10.9131 3.52099 0.619067 10
-17.1106 9.64132 3.81762 0.577046 10
-17.1111 9.64161 4.53437 0.572763 10
-17.1333 9.65413 5.2695 0.437829 10
-8.42389 4.70795 -2.58577 0.0679215 4
-9.78008 5.4659 -2.58661 0.0320955 4
-12.2943 6.87105 -2.73766 0.0723054 1
-15.098 8.43798 -2.7394 0.0592419 1
-16.3887 9.15932 -2.30522 0.376543 10
-19.3697 10.8253 -1.94133 0.802294 10
-25.1132 14.0353 -1.50773 0.378871 10
-25.1126 14.035 -0.502155 0.379342 10
-25.1119 14.0346 0.502141 0.379352 10
-17.3014 9.66946 1.03873 0.0344227 10
-17.136 9.57701 1.71746 0.452363 10
-19.373 10.8272 2.725 0.623159 10
-19.3736 10.8275 3.51518 0.620091 10
-17.1158 9.56572 3.81131 0.578 10
-17.1163 9.566 4.52689 0.57371 10
-17.1386 9.57843 5.2608 0.438553 10
-8.44034 4.67856 -2.58579 0.073879 4
-9.79919 5.43178 -2.58663 0.0760968 4
-12.3183 6.82816 -2.73769 0.0723047 1
-15.1275 8.38533 -2.73944 0.0592411 1
-16.5432 9.17006 -2.32244 0.373751 10
-19.3756 10.7401 -1.93815 0.803608 10
-19.3762 10.7404 -1.16103 0.532086 10
-19.3767 10.7407 -0.386707 0.532719 10
-19.3773 10.741 0.386718 0.532704 10
-17.3344 9.60862 1.03869 0.0344241 10
-17.1413 9.50156 1.71465 0.453104 10
-19.379 10.7419 2.72054 0.62418 10
-19.3795 10.7422 3.50943 0.621107 10
-17.1211 9.49036 3.80508 0.578948 10
-17.1216 9.49064 4.51948 0.57465 10
-17.1438 9.50297 5.25219 0.439271 10
-8.45669 4.6491 -2.58581 0.0840069 4
-9.81818 5.39759 -2.58666 0.0605663 4
-12.3422 6.7852 -2.73772 0.0723039 1
-15.1569 8.33259 -2.73948 0.0592403 1
-16.7001 9.18096 -2.33995 0.370954 10
-19.3815 10.6551 -1.93501 0.804913 10
-19.4543 10.6951 -1.16347 0.246539 10
-19.4538 10.6948 -0.387497 0.246846 10
-19.4532 10.6945 0.387487 0.246853 10
-17.3672 9.54768 1.03865 0.0344254 10
-17.1465 9.42637 1.71187 0.45384 10
-19.3849 10.6569 2.71613 0.625193 10
-19.3854 10.6572 3.50374 0.622115 10
-17.1263 9.41525 3.79891 0.579888 10
-17.1268 9.41553 4.51215 0.575583 10
-17.149 9.42776 5.24368 0.439985 10
-8.8423 4.82098 -2.69856 0.073282 4
-9.83704 5.36334 -2.58668 0.0641893 4
-12.366 6.74215 -2.73775 0.0723031 1
-15.1861 8.27975 -2.73951 0.0592395 1
-16.8594 9.19203 -2.35776 0.368153 10
-19.3874 10.5704 -1.9319 0.806207 10
-34.5123 18.8167 -2.06008 0.808155 10
-17.3997 9.48663 1.03861 0.0344268 10
-17.1517 9.35142 1.70912 0.45457 10
-19.4476 10.6032 2.71971 0.183283 10
-19.4471 10.6029 3.50817 0.182391 10
-17.1315 9.34039 3.79281 0.58082 10
-17.132 9.34066 4.5049 0.576509 10
-17.1542 9.3528 5.23525 0.440693 10
-8.85915 4.79012 -2.69858 0.0869845 4
-9.8558 5.32901 -2.5867 0.0812713 4
-12.3896 6.69901 -2.73778 0.0723023 1
-15.2151 8.22679 -2.73955 0.0592387 1
-17.0211 9.20327 -2.37587 0.365347 10
-19.3933 10.4859 -1.92883 0.807492 10
-19.3938 10.4862 -1.15545 0.534658 10
-19.3944 10.4865 -0.384847 0.535294 10
-19.3949 10.4868 0.384858 0.535279 10
-17.432 9.42546 1.03857 0.0344281 10
-17.1569 9.27669 1.7064 0.455294 10
-17.1366 9.26575 3.78677 0.581747 10
-17.1372 9.26603 4.49773 0.577429 10
-17.1594 9.27806 5.22692 0.441395 10
-8.87588 4.75921 -2.6986 0.0423003 4
-9.87442 5.29462 -2.58673 0.0791999 4
-12.413 6.6558 -2.73781 0.0723016 1
-15.2439 8.17374 -2.73958 0.059238 1
-17.1853 9.21468 -2.39428 0.362536 10
-19.3991 10.4017 -1.92579 0.808768 10
-19.4395 10.4234 -1.156 0.240945 10
-19.439 10.4231 -0.385009 0.241245 10
-19.4385 10.4228 0.384998 0.241252 10
-17.4641 9.36419 1.03853 0.0344294 10
-17.2309 9.23911 1.71054 0.205224 10
-17.1811 9.21245 3.78947 0.262268 10
-17.1807 9.2122 4.50069 0.260336 10
-17.2285 9.23785 5.23811 0.199017 10
-8.89251 4.72823 -2.69862 0.0834085 4
-9.89294 5.26017 -2.58675 0.06367 4
-12.4363 6.61249 -2.73784 0.0723008 1
-15.2726 8.12058 -2.73962 0.0592372 1
-17.3521 9.22627 -2.41302 0.359721 10
-19.4049 10.3178 -1.92278 0.810033 10
-34.5435 18.3671 -2.05035 0.811989 10
-34.5445 18.3676 -0.682913 0.536979 10
-34.5455 18.3682 0.682932 0.536963 10
-17.496 9.30281 1.03849 0.0344308 10
-17.3981 9.25072 1.72392 0.203631 10
-17.3479 9.22402 3.81912 0.260232 10
-17.3474 9.22377 4.5359 0.258316 10
-17.3957 9.24944 5.27909 0.197472 10
-8.90903 4.6972 -2.69864 0.0935359 4
-9.91132 5.22565 -2.58677 0.0672929 4
-12.4594 6.56911 -2.73787 0.0723 1
-15.301 8.06733 -2.73966 0.0592364 1
-17.5215 9.23804 -2.43208 0.356902 10
-19.4108 10.2341 -1.9198 0.811288 10
-19.4113 10.2344 -1.15004 0.537171 10
-19.4119 10.2347 -0.383046 0.537811 10
-19.4124 10.235 0.383057 0.537796 10
-17.5277 9.24133 1.03845 0.0344321 10
-17.5679 9.26251 1.73754 0.202036 10
-17.5172 9.23578 3.84928 0.258193 10
-17.5167 9.23552 4.57171 0.256292 10
-17.5655 9.26123 5.32077 0.195925 10
-8.92544 4.66611 -2.69866 0.0798326 4
-9.92959 5.19107 -2.5868 0.0693628 4
-12.4824 6.52565 -2.7379 0.0722993 1
-15.3293 8.01397 -2.73969 0.0592357 1
-17.6936 9.25 -2.45147 0.354079 10
-19.4166 10.1507 -1.91686 0.812534 10
-19.4175 10.1512 -1.1483 0.235324 10
-19.4177 10.1513 -0.382459 0.538637 10
-19.4182 10.1516 0.38247 0.538621 10
-17.6912 9.24874 1.04621 0.260559 10
-17.7405 9.2745 1.75139 0.200437 10
-17.6893 9.24772 3.87997 0.256151 10
-17.6888 9.24746 4.60816 0.254265 10
-17.738 9.27319 5.36319 0.194375 10
-9.94774 5.15642 -2.58682 0.0621154 4
-12.5052 6.48211 -2.73793 0.0722985 1
-15.3574 7.96052 -2.73973 0.0592349 1
-17.8685 9.26216 -2.47121 0.351251 10
-19.4223 10.0676 -1.91395 0.81377 10
-34.5744 17.9217 -2.04093 0.815735 10
-17.866 9.26088 1.05463 0.258478 10
-17.9158 9.28667 1.76549 0.198837 10
-19.491 10.1032 2.6956 0.403504 10
-19.4916 10.1035 3.47725 0.401517 10
-17.8641 9.25985 3.9112 0.254106 10
-17.8635 9.25959 4.64525 0.252235 10
-17.9133 9.28535 5.40635 0.192823 10
-8.95793 4.60375 -2.6987 0.0184685 4
-9.96577 5.12171 -2.58684 0.0781612 4
-12.5279 6.43849 -2.73796 0.0722977 1
-15.3853 7.90697 -2.73976 0.0592341 1
-18.0462 9.27451 -2.49129 0.348419 10
-19.4281 9.98469 -1.91107 0.814995 10
-34.5847 17.7741 -2.03786 0.816964 10
-34.6889 17.8277 -0.68078 0.231852 10
-34.6879 17.8272 0.680761 0.231858 10
-18.0437 9.27322 1.0632 0.256395 10
-18.082 9.2929 1.77866 0.595918 10
-18.0417 9.27218 3.94298 0.252058 10
-18.0412 9.27191 4.683 0.250202 10
-18.0847 9.29426 5.44826 0.577727 10
-8.97401 4.57249 -2.69872 0.0982991 4
-9.98367 5.08694 -2.58686 0.0776429 4
-12.5505 6.39478 -2.73798 0.072297 1
-15.413 7.85331 -2.7398 0.0592334 1
-18.2269 9.28706 -2.51174 0.345582 10
-19.4338 9.90203 -1.90822 0.816211 10
-19.4344 9.90231 -1.1431 0.540431 10
-19.4349 9.9026 -0.380736 0.541075 10
-19.4355 9.90288 0.380746 0.541059 10
-18.2243 9.28576 1.07193 0.254308 10
-18.2751 9.31161 1.79444 0.195629 10
-18.2223 9.28471 3.97534 0.250006 10
-18.2217 9.28444 4.72142 0.248165 10
-18.2724 9.31027 5.495 0.189713 10
-8.98999 4.54117 -2.69874 0.132256 4
-10.0015 5.0521 -2.58689 0.0667723 4
-12.5728 6.351 -2.73801 0.0722962 1
-15.4405 7.79956 -2.73983 0.0592326 1
-18.4105 9.29982 -2.53256 0.342742 10
-19.4396 9.81963 -1.90541 0.817417 10
-19.5829 9.89205 -1.1498 0.22779 10
-19.5824 9.89177 -0.382945 0.228075 10
-19.5818 9.89149 0.382934 0.228081 10
-18.4079 9.29851 1.08081 0.252218 10
-18.4592 9.3244 1.80931 0.194021 10
-18.4058 9.29745 4.00827 0.247952 10
-18.4053 9.29718 4.76054 0.246126 10
-18.4565 9.32304 5.54053 0.188154 10
-9.00585 4.5098 -2.69876 0.0691062 4
-10.0191 5.0172 -2.58691 0.0584899 4
-12.5951 6.30714 -2.73804 0.0722955 1
-15.4678 7.74571 -2.73987 0.0592319 1
-18.5972 9.3128 -2.55376 0.339897 10
-19.4453 9.73747 -1.90263 0.818613 10
-34.6153 17.334 -2.02885 0.820591 10
-34.6162 17.3345 -0.675755 0.542667 10
-34.6172 17.335 0.675773 0.542652 10
-18.5946 9.31147 1.08986 0.250124 10
-18.6463 9.33739 1.82445 0.192411 10
-18.5924 9.3104 4.04181 0.245894 10
-18.5919 9.31012 4.80037 0.244084 10
-18.6436 9.33602 5.58689 0.186593 10
-9.02161 4.47837 -2.69878 0.133445 4
-10.0367 4.98224 -2.58693 0.0377852 4
-12.6171 6.2632 -2.73807 0.0722947 1
-15.495 7.69177 -2.7399 0.0592311 1
-18.7871 9.32599 -2.57534 0.337048 10
-19.451 9.65555 -1.89987 0.819799 10
-19.4515 9.65582 -1.1381 0.821779 10
-19.4521 9.65609 -0.37907 0.822758 10
-19.4526 9.65636 0.37908 0.822735 10
-18.7844 9.32465 1.09907 0.248028 10
-18.8367 9.35061 1.83987 0.190798 10
-19.1054 9.484 2.61897 0.636758 10
-19.1059 9.48427 3.37841 0.633623 10
-18.7822 9.32357 4.07596 0.243834 10
-18.8345 9.34951 4.85455 0.186641 10
-18.8339 9.34923 5.63409 0.185029 10
-9.03725 4.44688 -2.6988 0.139998 4
-10.0541 4.94722 -2.58695 0.0703937 4
-12.639 6.21918 -2.7381 0.072294 1
-15.5219 7.63773 -2.73994 0.0592304 1
-18.9802 9.33941 -2.59733 0.334195 10
-19.4566 9.57385 -1.89715 0.820975 10
-19.4572 9.57412 -1.13647 0.822958 10
-19.4577 9.57439 -0.378526 0.823939 10
-19.4583 9.57466 0.378537 0.823916 10
-18.9774 9.33806 1.10845 0.245929 10
-19.0303 9.36405 1.85558 0.189183 10
-19.111 9.40376 2.61522 0.637672 10
-19.1115 9.40403 3.37357 0.634533 10
-18.9752 9.33697 4.11075 0.24177 10
-19.028 9.36294 4.89598 0.185062 10
-19.0274 9.36265 5.68218 0.183463 10
-9.05279 4.41534 -2.69882 0.139997 4
-10.0714 4.91214 -2.58698 0.05383 4
-11.782 5.74647 -2.54807 0.0609977 4
-15.5487 7.5836 -2.73997 0.0592296 1
-19.1766 9.35306 -2.61972 0.331338 10
-19.4623 9.4924 -1.89446 0.822141 10
-19.4628 9.49267 -1.13486 0.824127 10
-19.4634 9.49293 -0.37799 0.825109 10
-19.4639 9.4932 0.378 0.825086 10
-19.1738 9.3517 1.11801 0.25997 10
-19.1732 9.35142 1.86632 0.259344 10
-19.1727 9.35115 2.61919 0.258401 10
-19.1721 9.35087 3.37849 0.257144 10
-19.1715 9.35059 4.14619 0.255574 10
-19.171 9.35031 4.92434 0.253692 10
-19.1704 9.35002 5.71509 0.251501 10
-9.06821 4.38375 -2.69884 0.0875716 4
-10.0885 4.87699 -2.587 0.0729805 4
-11.8021 5.70536 -2.5481 0.0609971 4
-15.5753 7.52937 -2.74001 0.0592289 1
-19.3765 9.36695 -2.64254 0.328477 10
-19.4679 9.41117 -1.8918 0.823297 10
-19.4685 9.41143 -1.13327 0.825286 10
-19.469 9.4117 -0.377459 0.826269 10
-19.4696 9.41196 0.377469 0.826246 10
-19.3736 9.36557 1.12774 0.257725 10
-19.373 9.36529 1.88258 0.257104 10
-19.3725 9.36502 2.642 0.25617 10
-19.3719 9.36474 3.40791 0.254924 10
-19.3713 9.36445 4.1823 0.253367 10
-19.3707 9.36417 4.96722 0.251502 10
-19.3701 9.36388 5.76485 0.24933 10
-9.08353 4.3521 -2.69886 0.0131059 4
-10.1056 4.84179 -2.58702 0.0538291 4
-11.8221 5.66419 -2.54812 0.05222 4
-15.6016 7.47506 -2.74004 0.0592281 1
-19.5798 9.38108 -2.66579 0.325612 10
-19.5792 9.3808 -1.89942 0.326819 10
-19.5786 9.38052 -1.13777 0.327627 10
-19.5781 9.38024 -0.378936 0.328036 10
-19.5775 9.37997 0.378924 0.328046 10
-19.5769 9.37969 1.13766 0.255478 10
-19.5763 9.37941 1.89914 0.254862 10
-19.5757 9.37913 2.66524 0.253936 10
-19.5752 9.37885 3.43789 0.252701 10
-19.5746 9.37856 4.21909 0.251158 10
-19.574 9.37827 5.01091 0.249309 10
-19.5733 9.37798 5.81556 0.247156 10
-9.09873 4.3204 -2.69888 0.0708903 4
-10.1225 4.80653 -2.58704 0.0734968 4
-11.8419 5.62295 -2.54815 0.0495866 4
-15.6278 7.42064 -2.74007 0.0592274 1
-19.7868 9.39546 -2.68949 0.322743 10
-19.7862 9.39518 -1.91631 0.323939 10
-19.7856 9.3949 -1.14788 0.324741 10
-19.785 9.39462 -0.382304 0.325146 10
-19.7844 9.39434 0.382292 0.325156 10
-19.7838 9.39406 1.14778 0.253227 10
-19.7832 9.39377 1.91602 0.252617 10
-19.7826 9.39349 2.68893 0.2517 10
-19.782 9.39321 3.46844 0.250475 10
-19.7814 9.39292 4.25658 0.248946 10
-19.7808 9.39262 5.05544 0.247113 10
-19.7802 9.39233 5.86724 0.244979 10
-9.11382 4.28864 -2.6989 0.0959097 4
-10.1393 4.7712 -2.58707 0.0553809 4
-11.8616 5.58163 -2.54817 0.0500249 4
-15.6538 7.36614 -2.74011 0.0592267 1
-19.9975 9.41011 -2.71365 0.31987 10
-19.9969 9.40982 -1.93352 0.321055 10
-19.9963 9.40954 -1.15819 0.32185 10
-19.9957 9.40925 -0.385738 0.322252 10
-19.9951 9.40897 0.385726 0.322262 10
-19.9945 9.40868 1.15808 0.250973 10
-19.9939 9.4084 1.93323 0.250369 10
-19.9933 9.40811 2.71307 0.249459 10
-19.9926 9.40782 3.49959 0.248246 10
-19.992 9.40753 4.2948 0.24673 10
-19.9914 9.40724 5.10084 0.244914 10
-19.9908 9.40694 5.91992 0.242799 10
-9.1288 4.25683 -2.69892 0.0524223 4
-10.156 4.73582 -2.58709 0.0631441 4
-11.8811 5.54025 -2.5482 0.0614335 4
-15.6796 7.31154 -2.74014 0.0592259 1
-20.212 9.42501 -2.73828 0.316993 10
-20.2114 9.42472 -1.95107 0.318168 10
-34.6955 16.1788 -2.00629 0.82982 10
-20.2089 9.42358 1.16859 0.248716 10
-20.2083 9.42329 1.95077 0.248117 10
-20.2077 9.423 2.73769 0.247216 10
-20.207 9.42271 3.53134 0.246014 10
-20.2064 9.42241 4.33377 0.244512 10
-20.2058 9.42211 5.14711 0.242712 10
-20.2051 9.42181 5.97363 0.240616 10
-9.14368 4.22497 -2.69894 0.0822071 4
-10.1726 4.70038 -2.58711 0.0786707 4
-11.9005 5.4988 -2.54822 0.0509015 4
-15.7053 7.25685 -2.74018 0.0592252 1
-20.2806 9.37098 -2.74313 0.0460894 1
-20.4298 9.4399 -1.96896 0.315276 10
-34.7054 16.0362 -2.00361 0.830929 10
-20.4273 9.43874 1.17931 0.246456 10
-20.4267 9.43845 1.96866 0.245863 10
-20.426 9.43816 2.76279 0.24497 10
-20.4254 9.43786 3.56372 0.243778 10
-20.4248 9.43756 4.37351 0.24229 10
-20.4241 9.43726 5.19431 0.240507 10
-20.4234 9.43696 6.0284 0.23843 10
-9.15843 4.19306 -2.69896 0.0988861 4
-10.189 4.66488 -2.58713 0.0817754 4
-11.9197 5.45728 -2.54825 0.0522174 4
-15.7307 7.20208 -2.74021 0.0592245 1
-20.3136 9.30028 -2.74317 0.0460886 1
-20.6523 9.45536 -1.98721 0.312381 10
-34.7153 15.8939 -2.00097 0.832027 10
-20.6497 9.45419 1.19024 0.244193 10
-20.6491 9.45389 1.9869 0.243605 10
-20.6484 9.4536 2.78839 0.242721 10
-20.6478 9.4533 3.59674 0.24154 10
-20.6471 9.453 4.41403 0.240066 10
-20.6465 9.45269 5.24243 0.238299 10
-20.6458 9.45238 6.08425 0.236241 10
-9.17151 4.16038 -2.69852 0.241967 4
-10.2053 4.62933 -2.58715 0.0558966 4
-11.9388 5.41569 -2.54828 0.0548497 4
-15.7559 7.14721 -2.74024 0.0592237 1
-20.3462 9.22945 -2.74322 0.0460879 1
-20.8789 9.47111 -2.00582 0.309482 10
-34.7252 15.752 -1.99835 0.833115 10
-20.7337 9.40522 1.19318 0.649536 10
-20.7343 9.40548 1.99192 0.647934 10
-20.7349 9.40575 2.79561 0.645543 10
-20.7354 9.40601 3.60627 0.642365 10
-20.736 9.40628 4.42599 0.638405 10
-20.7366 9.40656 5.25696 0.633667 10
-20.7372 9.40683 6.10149 0.628157 10
-9.17601 4.12386 -2.69559 0.267074 4
-10.2215 4.59372 -2.58717 0.0564137 4
-11.9578 5.37404 -2.5483 0.0627474 4
-15.781 7.09225 -2.74028 0.059223 1
-20.3786 9.15852 -2.74326 0.0460872 1
-21.1099 9.48715 -2.02481 0.30658 10
-34.735 15.6105 -1.99577 0.834193 10
-20.7396 9.32073 1.19164 0.650376 10
-20.7401 9.32099 1.98935 0.648772 10
-20.7407 9.32125 2.792 0.646378 10
-20.7413 9.32152 3.60161 0.643196 10
-20.7419 9.32178 4.42027 0.639231 10
-20.7425 9.32205 5.25017 0.634487 10
-20.7431 9.32233 6.09361 0.628969 10
-9.18049 4.08742 -2.6927 0.198966 4
-10.2375 4.55804 -2.5872 0.0476149 4
-11.9766 5.33232 -2.54833 0.0645019 4
-15.8058 7.03721 -2.74031 0.0592223 1
-20.4108 9.08747 -2.7433 0.0460864 1
-21.3452 9.50351 -2.0442 0.303673 10
-21.6188 9.62529 -1.24021 0.551711 10
-21.6194 9.62556 -0.41308 0.552369 10
-21.62 9.62582 0.413091 0.552353 10
-20.7454 9.23645 1.19011 0.651209 10
-20.746 9.23671 1.98681 0.649603 10
-20.7466 9.23697 2.78843 0.647206 10
-20.7472 9.23723 3.597 0.64402 10
-20.7478 9.23749 4.41462 0.640049 10
-20.7484 9.23776 5.24345 0.635299 10
-20.749 9.23803 6.08581 0.629775 10
-9.18493 4.05104 -2.68984 0.302916 4
-10.2535 4.52232 -2.58722 0.064176 4
-11.9952 5.29053 -2.54835 0.0530929 4
-15.8305 6.98208 -2.74034 0.0592216 1
-20.4427 9.01631 -2.74335 0.0460857 1
-21.5851 9.52017 -2.06397 0.300763 10
-21.6248 9.5377 -1.23864 0.55241 10
-21.6254 9.53796 -0.412558 0.553068 10
-21.626 9.53822 0.412569 0.553053 10
-20.7513 9.1524 1.18861 0.652033 10
-20.7518 9.15265 1.98429 0.650426 10
-20.7524 9.1529 2.7849 0.648025 10
-20.753 9.15316 3.59246 0.644835 10
-20.7536 9.15343 4.40903 0.64086 10
-20.7542 9.15369 5.23682 0.636104 10
-20.7548 9.15396 6.07812 0.630572 10
-9.18936 4.01473 -2.68702 0.253388 4
-10.2693 4.48654 -2.58724 0.0652106 4
-12.0138 5.24868 -2.54838 0.057919 4
-15.855 6.92687 -2.74038 0.0592209 1
-20.4744 8.94505 -2.74339 0.046085 1
-21.8297 9.53717 -2.08417 0.297849 10
-21.8936 9.56508 -1.25212 0.553101 10
-21.8942 9.56534 -0.417045 0.553761 10
-21.8948 9.56561 0.417056 0.553745 10
-20.8448 9.10687 1.19214 0.232834 10
-20.8441 9.10657 1.99007 0.232274 10
-20.8434 9.10627 2.79283 0.231431 10
-20.8427 9.10597 3.60246 0.230306 10
-20.842 9.10567 4.42104 0.228901 10
-20.8413 9.10536 5.25076 0.227216 10
-20.8406 9.10504 6.0939 0.225255 10
-9.24463 4.00051 -2.69908 0.139983 4
-10.285 4.4507 -2.58726 0.0890169 4
-12.0321 5.20676 -2.5484 0.0587959 4
-15.8792 6.87156 -2.74041 0.0592201 1
-20.5058 8.87365 -2.74343 0.0460843 1
-22.0791 9.5545 -2.10478 0.294931 10
-22.1625 9.59055 -1.26557 0.553787 10
-22.1631 9.59082 -0.421526 0.554447 10
-22.1637 9.59108 0.421538 0.554431 10
-22.0762 9.55325 1.26065 0.230554 10
-21.0822 9.1231 2.00975 0.229999 10
-21.9903 9.51607 2.94204 0.649641 10
-21.6443 9.36631 3.73533 0.108992 10
-22.0733 9.55197 4.67512 0.226659 10
-22.0725 9.55165 5.55252 0.224991 10
-21.9929 9.51716 6.42107 0.632145 10
-9.25861 3.96825 -2.6991 0.0214441 4
-10.3005 4.41481 -2.58728 0.0589991 4
