VERSION 0.7
FIELDS x y z intensity label
SIZE 4 4 4 4 4
TYPE F F F F F
COUNT 1 1 1 1 1
WIDTH 1252
HEIGHT 1
VIEWPOINT 0.0598947 3.9302 2.72896 0.729215 0.000564255 0.000305689 -0.684284
POINTS 1252
DATA ascii
-8.78978 7.74923 -2.70531 0.0237467 4
-10.4498 9.21276 -2.70792 0.0756802 4
-12.6517 11.154 -2.67139 0.0229216 4
-16.3556 14.4194 -2.67722 0.0579087 4
-22.0613 19.4496 -2.5731 0.543054 10
-22.1713 19.5466 -1.54903 0.464271 10
-22.1725 19.5477 -0.515953 0.464812 10
-22.1737 19.5487 0.515981 0.464787 10
-22.0629 19.4511 1.54146 0.424429 10
-22.0633 19.4514 2.57334 0.423387 10
-22.0637 19.4518 3.61158 0.421828 10
-22.0642 19.4522 4.6588 0.419755 10
-22.0646 19.4526 5.71771 0.417172 10
-22.065 19.4529 6.79114 0.414079 10
-22.0654 19.4533 7.88206 0.410483 10
-7.59128 6.64567 -2.7034 0.0416061 4
-8.81684 7.71856 -2.70533 0.018068 4
-10.482 9.17631 -2.70795 0.0831162 4
-12.6907 11.1099 -2.67142 0.0118188 4
-16.406 14.3624 -2.67726 0.0423173 4
-22.2294 19.4603 -2.58477 0.540603 10
-22.2298 19.4607 -1.54836 0.357948 10
-22.2302 19.4611 -0.515712 0.358378 10
-22.2306 19.4614 0.515721 0.358372 10
-22.231 19.4618 1.54845 0.422514 10
-22.2314 19.4621 2.58501 0.421476 10
-22.2318 19.4625 3.62796 0.419924 10
-22.2323 19.4629 4.67993 0.417861 10
-22.2327 19.4633 5.74364 0.415289 10
-22.2331 19.4636 6.82193 0.41221 10
-22.2336 19.464 7.9178 0.40863 10
-7.61448 6.61917 -2.70342 0.00594369 4
-8.8438 7.6878 -2.70535 0.0335546 4
-10.5078 9.13429 -2.70635 0.0522166 4
-12.7296 11.0657 -2.67145 0.0107443 4
-15.7581 13.6983 -2.5637 0.0239423 4
-22.3989 19.4711 -2.59657 0.538146 10
-22.4441 19.5104 -1.55854 0.46677 10
-22.4453 19.5114 -0.51912 0.467314 10
-22.4466 19.5125 0.519148 0.467289 10
-22.4006 19.4726 1.55552 0.420593 10
-22.4011 19.4729 2.59681 0.41956 10
-22.4015 19.4733 3.64452 0.418015 10
-22.4019 19.4737 4.7013 0.415961 10
-22.4023 19.4741 5.76987 0.413401 10
-22.4028 19.4744 6.85309 0.410336 10
-22.4032 19.4748 7.95396 0.406772 10
-7.63759 6.5926 -2.70343 0.00416056 4
-8.87064 7.65694 -2.70537 0.030457 4
-10.5117 9.07344 -2.69918 0.0300923 4
-12.7683 11.0213 -2.67148 0.0168325 4
-15.806 13.6434 -2.56374 0.0222716 4
-22.5701 19.482 -2.60851 0.535682 10
-22.7088 19.6017 -1.57216 0.468011 10
-22.7101 19.6028 -0.523657 0.468556 10
-22.7113 19.6039 0.523685 0.468531 10
-22.5718 19.4835 1.56268 0.418668 10
-22.5722 19.4838 2.60875 0.417639 10
-22.5727 19.4842 3.66129 0.416101 10
-22.5731 19.4846 4.72292 0.414057 10
-22.5735 19.485 5.79641 0.411508 10
-22.574 19.4854 6.88461 0.408458 10
-22.5744 19.4857 7.99055 0.40491 10
-7.66061 6.56594 -2.70345 0.00950979 4
-8.89738 7.62598 -2.70539 0.00929189 4
-10.5155 9.01291 -2.69207 0.0476533 4
-15.8538 13.5883 -2.56377 0.0283959 4
-22.7429 19.493 -2.6206 0.533212 10
-22.7433 19.4934 -1.56983 0.353054 10
-22.7437 19.4937 -0.522861 0.353478 10
-22.7442 19.4941 0.52287 0.353472 10
-22.7446 19.4945 1.56992 0.416737 10
-22.745 19.4948 2.62084 0.415713 10
-22.7455 19.4952 3.67825 0.414182 10
-22.7459 19.4956 4.74481 0.412147 10
-22.7463 19.496 5.82327 0.40961 10
-22.7468 19.4964 6.91651 0.406574 10
-22.7472 19.4968 8.02757 0.403042 10
-7.68353 6.5392 -2.70347 0.0386333 4
-8.92401 7.59493 -2.70541 0.0139377 4
-10.5194 8.95269 -2.68504 0.0677599 4
-12.8452 10.9321 -2.67153 0.0175484 4
-15.9528 13.5769 -2.5721 0.19199 4
-22.9172 19.5041 -2.63282 0.530735 10
-22.9821 19.5593 -1.58159 0.470476 10
-22.9833 19.5603 -0.526796 0.471024 10
-22.9845 19.5614 0.526824 0.470999 10
-22.919 19.5056 1.57724 0.414801 10
-22.9194 19.5059 2.63307 0.26415 10
-22.9198 19.5063 3.69542 0.263178 10
-22.9203 19.5067 4.76695 0.410232 10
-22.9207 19.5071 5.85045 0.260272 10
-22.9212 19.5075 6.9488 0.258343 10
-22.9216 19.5079 8.06504 0.401169 10
-7.70636 6.51238 -2.70349 0.0261516 4
-8.95054 7.56379 -2.70543 0.0273591 4
-10.5232 8.89279 -2.67807 0.0499077 4
-16.0705 13.5806 -2.58343 0.21996 4
-23.0932 19.5153 -2.6452 0.528252 10
-23.2471 19.6453 -1.5951 0.4717 10
-23.2484 19.6464 -0.531296 0.472249 10
-23.2496 19.6475 0.531324 0.472224 10
-23.095 19.5168 1.58466 0.41286 10
-23.0959 19.5175 3.71279 0.261946 10
-23.0963 19.5179 4.78937 0.408313 10
-23.0977 19.5191 8.10297 0.399292 10
-7.72909 6.48548 -2.7035 0.0231797 4
-8.97695 7.53256 -2.70545 0.0134213 4
-10.527 8.8332 -2.67118 0.01611 4
-12.9214 10.8424 -2.67159 0.0150412 4
-16.1893 13.5844 -2.59488 0.260926 4
-23.2709 19.5266 -2.65773 0.525762 10
-23.2713 19.527 -1.59207 0.348122 10
-23.2718 19.5273 -0.53027 0.34854 10
-23.2722 19.5277 0.53028 0.348533 10
-23.2727 19.5281 1.59216 0.410914 10
-23.1773 19.4481 3.71494 0.0854114 10
-23.274 19.5292 4.81205 0.406388 10
-23.2754 19.5304 8.14134 0.39741 10
-7.75173 6.4585 -2.70352 0.0552742 4
-9.00325 7.50123 -2.70547 0.0221967 4
-10.5447 8.78548 -2.66786 0.0279953 4
-12.9594 10.7973 -2.67162 0.0146829 4
-16.3091 13.5882 -2.60647 0.237617 4
-23.4502 19.538 -2.67041 0.523266 10
-23.5207 19.5967 -1.60445 0.47413 10
-23.522 19.5978 -0.53441 0.474683 10
-23.5233 19.5988 0.534438 0.474657 10
-23.452 19.5395 1.59976 0.408963 10
-23.2447 19.3668 3.7149 0.0854126 10
-23.4534 19.5406 4.83501 0.404458 10
-23.4548 19.5418 8.18019 0.395523 10
-7.77427 6.43144 -2.70354 0.019019 4
-9.02945 7.46981 -2.70549 0.114596 4
-10.5754 8.74869 -2.66788 0.0301822 4
-12.9971 10.7521 -2.67165 0.0189802 4
-16.43 13.592 -2.61818 0.245578 4
-23.6313 19.5495 -2.68324 0.520764 10
-23.7861 19.6776 -1.61785 0.475336 10
-23.7874 19.6786 -0.538875 0.475891 10
-23.7887 19.6797 0.538904 0.475865 10
-23.6331 19.551 1.60745 0.407007 10
-23.3119 19.2853 3.71485 0.0854137 10
-23.6345 19.5522 4.85824 0.402524 10
-23.636 19.5534 8.2195 0.393631 10
-7.79672 6.4043 -2.70355 0.0338774 4
-9.05553 7.4383 -2.7055 0.0991093 4
-10.6059 8.7118 -2.66791 0.00787355 4
-13.0347 10.7068 -2.67167 0.0229192 4
-16.5519 13.5959 -2.63004 0.251721 4
-23.8141 19.5611 -2.69623 0.518255 10
-23.8146 19.5615 -1.61514 0.343151 10
-23.8151 19.5619 -0.537952 0.343562 10
-23.8155 19.5623 0.537962 0.343556 10
-23.816 19.5627 1.61523 0.405046 10
-23.9058 19.6364 2.7066 0.257938 10
-23.3787 19.2035 3.7148 0.0854148 10
-23.8174 19.5638 4.88177 0.400584 10
-23.9072 19.6376 6.01383 0.254151 10
-23.9077 19.638 7.14285 0.252267 10
-23.8188 19.565 8.2593 0.391734 10
-7.81908 6.37709 -2.70357 0.0166414 4
-9.0815 7.40669 -2.70552 0.0965276 4
-10.6363 8.6748 -2.66793 0.0174966 4
-13.0721 10.6614 -2.6717 0.0153987 4
-16.675 13.5998 -2.64203 0.24119 4
-23.9987 19.5729 -2.70938 0.51574 10
-24.0601 19.623 -1.62713 0.477732 10
-24.0614 19.624 -0.541966 0.478289 10
-24.0627 19.6251 0.541995 0.478264 10
-24.0006 19.5744 1.62311 0.40308 10
-24.0011 19.5748 2.70964 0.402089 10
-23.5218 19.1839 3.72686 0.400609 10
-24.002 19.5756 4.90558 0.39864 10
-24.0025 19.576 6.02058 0.396186 10
-24.003 19.5764 7.15087 0.393249 10
-24.0035 19.5768 8.29959 0.389832 10
-7.84133 6.34979 -2.70358 0.0154526 4
-9.10736 7.375 -2.70554 0.109432 4
-10.6666 8.63769 -2.66795 0.0157469 4
-13.1094 10.6158 -2.67173 0.0214863 4
-16.7991 13.6037 -2.65416 0.25292 4
-24.1851 19.5847 -2.72269 0.513218 10
-24.3258 19.6987 -1.64044 0.478921 10
-24.3271 19.6997 -0.546399 0.47948 10
-24.3284 19.7008 0.546428 0.479454 10
-24.187 19.5863 1.63108 0.401109 10
-24.1875 19.5867 2.72295 0.400123 10
-23.7045 19.1955 3.74517 0.39865 10
-24.1885 19.5875 4.92968 0.396691 10
-24.189 19.5879 6.05016 0.394248 10
-24.1895 19.5883 7.18601 0.391326 10
-24.19 19.5887 8.34037 0.387926 10
-7.8635 6.32242 -2.7036 0.0101036 4
-9.13311 7.34321 -2.70556 0.0939454 4
-10.6968 8.60047 -2.66797 0.0244949 4
-13.1465 10.57 -2.67175 0.0171889 4
-16.9244 13.6076 -2.66644 0.288933 4
-24.3734 19.5967 -2.73616 0.51069 10
-24.3739 19.5971 -1.63906 0.338142 10
-24.3744 19.5975 -0.54592 0.338548 10
-24.3748 19.5979 0.54593 0.338541 10
-24.3753 19.5983 1.63916 0.399133 10
-24.3758 19.5987 2.73643 0.398152 10
-23.889 19.2073 3.76372 0.396686 10
-24.3768 19.5994 4.95408 0.394737 10
-24.3773 19.5998 6.08012 0.392306 10
-24.3778 19.6003 7.22159 0.389398 10
-24.3783 19.6007 8.38166 0.386015 10
-7.88557 6.29497 -2.70362 0.00950921 4
-9.15875 7.31134 -2.70558 0.112527 4
-10.7269 8.56315 -2.66799 0.00962292 4
-13.1834 10.5242 -2.67178 0.0189792 4
-17.0509 13.6115 -2.67886 0.285871 4
-24.5635 19.6088 -2.74981 0.508157 10
-24.6002 19.6381 -1.64966 0.481281 10
-24.6015 19.6392 -0.549469 0.481843 10
-24.6028 19.6402 0.549498 0.481818 10
-24.5655 19.6104 1.64733 0.397153 10
-24.566 19.6108 2.75008 0.396177 10
-24.5665 19.6112 3.85963 0.394718 10
-24.567 19.6116 4.97879 0.392778 10
-24.5675 19.612 6.11044 0.39036 10
-24.568 19.6124 7.2576 0.387466 10
-24.5685 19.6128 8.42346 0.3841 10
-7.90754 6.26744 -2.70363 0.0101035 4
-9.18428 7.27937 -2.7056 0.0918794 4
-10.7568 8.52572 -2.66802 0.0148717 4
-13.2202 10.4782 -2.67181 0.0193371 4
-17.1785 13.6155 -2.69143 0.235969 4
-24.7556 19.621 -2.76362 0.505616 10
-24.8663 19.7088 -1.66288 0.730408 10
-24.8676 19.7098 -0.553871 0.73126 10
-24.8689 19.7108 0.5539 0.731222 10
-24.7576 19.6226 1.65561 0.395167 10
-24.7581 19.623 2.7639 0.394196 10
-24.7586 19.6234 3.87903 0.392744 10
-24.7591 19.6238 5.00381 0.390814 10
-24.7596 19.6242 6.14114 0.388408 10
-24.7601 19.6246 7.29407 0.385528 10
-24.7606 19.625 8.46579 0.382179 10
-7.92941 6.23983 -2.70365 0.0576489 4
-9.20969 7.24732 -2.70561 0.0361321 4
-10.7866 8.48819 -2.66804 0.0271187 4
-13.2568 10.4321 -2.67183 0.0136075 4
-17.3073 13.6195 -2.70414 0.202724 4
-24.851 19.5559 -2.76664 0.0326621 1
-24.9501 19.6338 -1.66389 0.50429 10
-24.9506 19.6342 -0.55419 0.504895 10
-24.9511 19.6346 0.5542 0.504885 10
-24.9516 19.6349 1.66399 0.393177 10
-24.9521 19.6353 2.77789 0.392211 10
-24.9526 19.6357 3.89866 0.390766 10
-24.9531 19.6361 5.02913 0.388846 10
-24.9536 19.6366 6.17223 0.386452 10
-24.9541 19.637 7.331 0.383587 10
-24.9547 19.6374 8.50865 0.380254 10
-7.95119 6.21215 -2.70366 0.0386305 4
-9.235 7.21517 -2.70563 0.0381965 4
-10.8162 8.45055 -2.66806 0.0319298 4
-13.2933 10.3859 -2.67186 0.0168301 4
-17.4373 13.6235 -2.71701 0.244578 4
-24.9196 19.4693 -2.76669 0.0326615 1
-25.146 19.6462 -1.67237 0.501731 10
-25.1465 19.6466 -0.557016 0.502333 10
-25.1471 19.647 0.557027 0.502323 10
-25.1476 19.6474 1.67247 0.391182 10
-25.1481 19.6478 2.79206 0.39022 10
-25.1486 19.6482 3.91855 0.388783 10
-25.1491 19.6486 5.05479 0.386873 10
-25.1496 19.649 6.20371 0.38449 10
-25.1502 19.6494 7.36839 0.38164 10
-25.1507 19.6499 8.55205 0.378324 10
-7.97287 6.18439 -2.70368 0.0410075 4
-9.26019 7.18294 -2.70565 0.0991039 4
-10.8457 8.41281 -2.66808 0.0188078 4
-13.3296 10.3395 -2.67188 0.0225593 4
-17.5686 13.6276 -2.73003 0.19422 4
-24.9878 19.3826 -2.76674 0.032661 1
-25.344 19.6588 -1.68097 0.499166 10
-25.3445 19.6592 -0.559878 0.499765 10
-25.345 19.6596 0.559889 0.499755 10
-25.3455 19.66 1.68107 0.389182 10
-25.2981 19.6232 2.80109 0.572096 10
-25.3466 19.6608 3.93868 0.386796 10
-25.3471 19.6612 5.08076 0.384895 10
-25.3022 19.6264 6.2244 0.56364 10
-25.3036 19.6275 7.39322 0.559442 10
-25.3487 19.6625 8.596 0.37639 10
-7.99446 6.15656 -2.70369 0.0564593 4
-9.28526 7.15061 -2.70567 0.0872315 4
-10.8751 8.37496 -2.6681 0.0253685 4
-13.3657 10.293 -2.67191 0.0318692 4
-17.7011 13.6317 -2.74321 0.141741 4
-25.0558 19.2955 -2.76679 0.0326604 1
-25.544 19.6716 -1.68967 0.496595 10
-69.4992 53.5215 -1.53115 0.738274 10
-64.058 49.3313 1.41127 0.387658 10
-25.5456 19.6728 1.68977 0.387178 10
-25.3067 19.4888 2.79449 0.573448 10
-25.5467 19.6736 3.95908 0.384803 10
-25.5472 19.674 5.10707 0.382912 10
-25.3107 19.4919 6.20973 0.564972 10
-25.3121 19.4929 7.37578 0.560765 10
-25.5488 19.6752 8.64051 0.374451 10
-8.01594 6.12865 -2.70371 0.029121 4
-9.31023 7.11821 -2.70568 0.105297 4
-10.9044 8.33701 -2.66812 0.022744 4
-13.4017 10.2464 -2.67193 0.0107423 4
-17.8293 13.6315 -2.75569 0.0458527 1
-25.1234 19.2083 -2.76683 0.0326598 1
-25.7461 19.6844 -1.69848 0.494019 10
-66.484 50.8309 -1.4608 0.494611 10
-64.1368 49.0363 1.40923 0.385661 10
-25.7477 19.6856 1.69859 0.385169 10
-25.3152 19.3549 2.78795 0.574793 10
-25.7488 19.6864 3.97973 0.382807 10
-25.7493 19.6868 5.13371 0.380925 10
-25.3192 19.358 6.1952 0.566297 10
-25.3206 19.3591 7.35853 0.56208 10
-25.751 19.6881 8.68559 0.372508 10
-8.03733 6.10067 -2.70372 0.0998427 4
-9.33508 7.08571 -2.7057 0.104264 4
-10.9335 8.29896 -2.66814 0.024056 4
-13.4375 10.1996 -2.67196 0.00930993 4
-17.877 13.5694 -2.75573 0.0458521 1
-25.1907 19.1208 -2.76688 0.0326593 1
-25.9504 19.6974 -1.70741 0.491436 10
-66.9736 50.8357 -1.46765 0.741727 10
-25.952 19.6986 1.70751 0.383155 10
-25.4337 19.3053 2.79357 0.382213 10
-25.953 19.6994 4.00064 0.380805 10
-25.9536 19.6999 5.16069 0.378933 10
-25.4353 19.3065 6.20709 0.3766 10
-25.4359 19.3069 7.3724 0.373808 10
-25.9553 19.7011 8.73124 0.37056 10
-8.05862 6.07261 -2.70374 0.114105 4
-9.35981 7.05312 -2.70572 0.105295 4
-10.9625 8.26081 -2.66816 0.0192447 4
-13.4732 10.1528 -2.67198 0.00895177 4
-17.9245 13.5071 -2.75576 0.0458516 1
-25.2577 19.0331 -2.76693 0.0326587 1
-26.1568 19.7105 -1.71645 0.488847 10
-26.134 19.6934 1.71496 0.578903 10
-26.1354 19.6944 2.86307 0.577461 10
-26.1367 19.6954 4.01834 0.575316 10
-26.1381 19.6965 5.18368 0.57247 10
-26.1395 19.6975 6.36211 0.568927 10
-25.6382 19.3198 7.41146 0.371838 10
-26.1424 19.6997 8.771 0.559765 10
-8.07981 6.04447 -2.70375 0.109945 4
-9.38443 7.02046 -2.70574 0.0923908 4
-10.9913 8.22256 -2.66818 0.006998 4
-13.5086 10.1058 -2.67201 0.0189776 4
-17.9717 13.4446 -2.75579 0.045851 1
-25.3244 18.9451 -2.76697 0.0326582 1
-26.3653 19.7238 -1.72561 0.486252 10
-65.6931 49.1448 1.43204 0.379583 10
-26.1427 19.5572 1.71103 0.58023 10
-26.144 19.5582 2.85652 0.578785 10
-26.1454 19.5593 4.00915 0.576635 10
-26.1468 19.5603 5.17182 0.573782 10
-26.1482 19.5613 6.34756 0.570231 10
-26.1496 19.5624 7.53949 0.565984 10
-26.151 19.5635 8.75093 0.561049 10
-8.1009 6.01626 -2.70377 0.106378 4
-9.40894 6.9877 -2.70575 0.0190974 4
-11.02 8.1842 -2.6682 0.0218686 4
-18.0187 13.3819 -2.75582 0.0458505 1
-25.3908 18.8569 -2.76702 0.0326577 1
-26.5762 19.7372 -1.73489 0.483651 10
-26.6652 19.8034 -0.579763 0.493306 10
-26.6666 19.8044 0.579792 0.493281 10
-26.1513 19.4217 1.70715 0.58155 10
-26.1526 19.4227 2.85004 0.580102 10
-26.154 19.4237 4.00005 0.577947 10
-26.1554 19.4247 5.16008 0.575088 10
-26.1568 19.4257 6.33315 0.571528 10
-26.1582 19.4268 7.52237 0.567272 10
-26.1596 19.4279 8.73106 0.562325 10
-8.1219 5.98798 -2.70378 0.107566 4
-9.43333 6.95485 -2.70577 0.0526466 4
-11.0486 8.14574 -2.66822 0.0253674 4
-13.5791 10.0114 -2.67206 0.0211256 4
-18.0655 13.3191 -2.75585 0.04585 1
-25.4569 18.7685 -2.76706 0.0326571 1
-26.7893 19.7508 -1.74429 0.481045 10
-26.9324 19.8563 -0.584061 0.494419 10
-26.9338 19.8573 0.584091 0.494394 10
-26.2555 19.3572 1.70953 0.375053 10
-26.256 19.3576 2.85392 0.37413 10
-26.2566 19.358 4.00538 0.372752 10
-26.2572 19.3585 5.1668 0.37092 10
-26.2577 19.3589 6.34119 0.368636 10
-26.2583 19.3593 7.53169 0.365902 10
-26.2589 19.3597 8.74159 0.362723 10
-8.14279 5.95962 -2.70379 0.109943 4
-9.45761 6.92192 -2.70578 0.0825825 4
-11.0771 8.10718 -2.66824 0.0336772 4
-13.6141 9.96401 -2.67208 0.0128901 4
-25.5227 18.6798 -2.76711 0.0326566 1
-27.0048 19.7645 -1.75382 0.478432 10
-27.0053 19.7649 -0.584143 0.316395 10
-27.0059 19.7653 0.584155 0.316389 10
-26.5004 19.3953 1.72106 0.269779 10
-29.4446 21.5502 3.19231 0.582714 10
-26.4678 19.3715 4.02725 0.370727 10
-26.5021 19.3966 5.20164 0.266806 10
-29.4492 21.5536 7.09372 0.574102 10
-26.4695 19.3728 7.57282 0.363915 10
-26.5039 19.3979 8.80054 0.26091 10
-8.16358 5.93119 -2.70381 0.0998396 4
-9.48177 6.88891 -2.7058 0.0170325 4
-11.1054 8.06852 -2.66826 0.0428615 4
-13.6489 9.91652 -2.6721 0.0161125 4
-25.5881 18.5909 -2.76715 0.0326561 1
-27.2225 19.7783 -1.76347 0.475814 10
-27.2231 19.7788 -0.587357 0.314664 10
-27.2237 19.7792 0.587369 0.314657 10
-26.7141 19.409 1.73053 0.268303 10
-29.4542 21.3997 3.18523 0.584009 10
-26.6813 19.3851 4.04942 0.368699 10
-26.7159 19.4102 5.23027 0.265346 10
-29.4588 21.4031 7.07798 0.575379 10
-26.683 19.3864 7.6145 0.361923 10
-26.7176 19.4115 8.84897 0.259482 10
-8.18428 5.90269 -2.70382 0.114102 4
-9.50581 6.85581 -2.70582 0.0201292 4
-11.1335 8.02976 -2.66827 0.0166197 4
-13.6836 9.8689 -2.67212 0.0322247 4
-17.6909 12.7591 -2.67817 0.0545484 4
-25.6533 18.5017 -2.76719 0.0326556 1
-27.4428 19.7924 -1.77325 0.473189 10
-27.476 19.8163 -0.591317 0.497724 10
-27.4774 19.8173 0.591347 0.497698 10
-26.9303 19.4227 1.74013 0.266823 10
-29.4637 21.2499 3.17822 0.585297 10
-26.8971 19.3988 4.07188 0.366665 10
-26.932 19.424 5.25928 0.263882 10
-29.4683 21.2532 7.0624 0.576648 10
-26.8989 19.4001 7.65674 0.359926 10
-26.9338 19.4253 8.89806 0.258051 10
-8.20488 5.87412 -2.70384 0.124204 4
-9.52974 6.82263 -2.70583 0.0521293 4
-11.1616 7.9909 -2.66829 0.019681 4
-13.718 9.82116 -2.67215 0.0100254 4
-17.7355 12.6974 -2.6782 0.0503732 4
-25.7181 18.4124 -2.76724 0.0326551 1
-27.6655 19.8065 -1.78316 0.47056 10
-27.7436 19.8625 -0.595581 0.498813 10
-27.7451 19.8635 0.595611 0.498787 10
-27.1488 19.4366 1.74985 0.26534 10
-29.4732 21.1007 3.17128 0.586578 10
-27.1154 19.4127 4.09464 0.364627 10
-27.1506 19.4379 5.28868 0.262416 10
-29.4778 21.104 7.04697 0.57791 10
-27.1172 19.414 7.69954 0.357926 10
-27.1524 19.4392 8.9478 0.256616 10
-8.22537 5.84547 -2.70385 0.0933011 4
-9.55355 6.78936 -2.70585 0.0325161 4
-11.1895 7.95195 -2.66831 0.028428 4
-13.7524 9.7733 -2.67217 0.0307919 4
-17.7799 12.6356 -2.67823 0.0509293 4
-25.7826 18.3228 -2.76728 0.0326546 1
-27.8906 19.8209 -1.7932 0.467924 10
-28.0114 19.9067 -0.599833 0.499896 10
-28.0128 19.9077 0.599863 0.499871 10
-27.3698 19.4507 1.75971 0.263854 10
-29.4826 20.9522 3.1644 0.587852 10
-27.3361 19.4268 4.1177 0.362584 10
-27.3716 19.452 5.31847 0.260946 10
-29.4872 20.9555 7.0317 0.579166 10
-27.3379 19.4281 7.74291 0.355921 10
-27.3734 19.4533 8.9982 0.255179 10
-8.24577 5.81675 -2.70386 0.121231 4
-9.57725 6.75601 -2.70586 0.0170321 4
-11.2172 7.91289 -2.66833 0.0244916 4
-17.8241 12.5735 -2.67826 0.0197592 4
-25.8468 18.2329 -2.76732 0.0326541 1
-28.1184 19.8353 -1.80338 0.465283 10
-28.2792 19.9488 -0.604074 0.500973 10
-28.2807 19.9498 0.604104 0.500948 10
-27.5933 19.4649 1.7697 0.262364 10
-29.492 20.8043 3.1576 0.589119 10
-27.5594 19.441 4.14108 0.360537 10
-27.5951 19.4662 5.34867 0.259472 10
-29.4966 20.8076 7.01658 0.580414 10
-27.5612 19.4423 7.78688 0.353911 10
-27.597 19.4675 9.0493 0.253738 10
-8.26606 5.78796 -2.70387 0.030902 4
-9.60083 6.72257 -2.70588 0.0185804 4
-11.2449 7.87375 -2.66835 0.018806 4
-25.9107 18.1429 -2.76736 0.0326536 1
-28.3487 19.85 -1.8137 0.462636 10
-28.3493 19.8504 -0.604088 0.305949 10
-28.35 19.8509 0.604101 0.305942 10
-27.8193 19.4793 1.77983 0.260872 10
-29.5014 20.6571 3.15086 0.590379 10
-27.7851 19.4554 4.16478 0.358486 10
-27.8212 19.4806 5.37927 0.257996 10
-29.506 20.6603 7.0016 0.581655 10
-27.787 19.4567 7.83144 0.351897 10
-27.8231 19.4819 9.10108 0.252294 10
-8.28625 5.7591 -2.70389 0.026742 4
-9.62429 6.68906 -2.70589 0.00929016 4
-11.2724 7.8345 -2.66836 0.0161818 4
-13.8543 9.62898 -2.67224 0.0315073 4
-25.9742 18.0526 -2.7674 0.0326531 1
-28.5817 19.8648 -1.82416 0.459983 10
-34.3432 23.8692 -0.73003 0.304194 10
-34.3441 23.8698 0.730048 0.503084 10
-28.048 19.4939 1.79009 0.259376 10
-29.5107 20.5105 3.14419 0.591631 10
-28.0135 19.4699 4.1888 0.35643 10
-28.0499 19.4952 5.4103 0.256517 10
-29.5153 20.5137 6.98678 0.582889 10
-28.0154 19.4712 7.87661 0.349879 10
-28.0518 19.4965 9.15358 0.250847 10
-8.30635 5.73017 -2.7039 0.0326845 4
-9.64763 6.65546 -2.70591 0.0190963 4
-11.2997 7.79515 -2.66838 0.0266779 4
-13.8879 9.58064 -2.67226 0.0182597 4
-26.0375 17.962 -2.76744 0.0326526 1
-28.8174 19.8798 -1.83476 0.457325 10
-28.2793 19.5086 1.8005 0.257877 10
-29.52 20.3645 3.13759 0.592877 10
-28.2445 19.4846 4.21315 0.35437 10
-28.2812 19.5099 5.44175 0.255034 10
-29.5245 20.3676 6.9721 0.584116 10
-28.2465 19.4859 7.9224 0.347857 10
-28.2832 19.5112 9.2068 0.249397 10
-8.32634 5.70116 -2.70391 0.0320901 4
-9.67086 6.62177 -2.70592 0.0190962 4
-11.3269 7.75571 -2.6684 0.0174936 4
-13.9214 9.53218 -2.67228 0.0243461 4
-26.1004 17.8713 -2.76748 0.0326522 1
-29.0559 19.895 -1.84551 0.454661 10
-29.5247 20.216 -0.624589 0.764876 10
-29.5262 20.217 0.62462 0.764838 10
-28.5133 19.5235 1.81105 0.256374 10
-29.5292 20.2191 3.13105 0.594115 10
-28.4783 19.4995 4.23784 0.352306 10
-28.5153 19.5248 5.47364 0.253548 10
-29.5338 20.2222 6.95757 0.585336 10
-28.4803 19.5008 7.96883 0.34583 10
-28.5172 19.5262 9.26075 0.247944 10
-8.34622 5.67209 -2.70393 0.0172335 4
-9.69396 6.58801 -2.70594 0.0252895 4
-11.354 7.71617 -2.66842 0.0096214 4
-13.9547 9.4836 -2.6723 0.0311485 4
-26.163 17.7803 -2.76752 0.0326517 1
-29.2972 19.9103 -1.85641 0.451992 10
-29.534 20.0713 -0.623298 0.766461 10
-29.5354 20.0723 0.623328 0.766422 10
-28.7501 19.5385 1.82174 0.254869 10
-29.5384 20.0743 3.12458 0.595345 10
-28.7148 19.5146 4.26286 0.350237 10
-28.7521 19.5399 5.50597 0.25206 10
-29.543 20.0774 6.94319 0.586549 10
-28.7168 19.5159 8.01589 0.3438 10
-28.7175 19.5164 9.30359 0.319649 10
-8.36601 5.64295 -2.70394 0.0439749 4
-9.71695 6.55417 -2.70595 0.0402565 4
-11.3809 7.67654 -2.66843 0.0218667 4
-18.0847 12.1983 -2.67843 0.023654 4
-29.5413 19.9259 -1.86746 0.449317 10
-29.5431 19.9271 -0.62202 0.768035 10
-29.5446 19.9281 0.62205 0.767997 10
-28.9897 19.5538 1.83259 0.253361 10
-29.5476 19.9301 3.11817 0.596569 10
-28.9541 19.5298 4.28824 0.348164 10
-28.9917 19.5551 5.53875 0.250568 10
-29.5521 19.9332 6.92895 0.587755 10
-28.9561 19.5312 8.06362 0.341765 10
-29.5553 19.9353 9.55242 0.578292 10
-8.3857 5.61373 -2.70395 0.0309011 4
-9.73982 6.52024 -2.70597 0.0371596 4
-11.4077 7.63682 -2.66845 0.0069973 4
-14.0208 9.38609 -2.67234 0.0358023 4
-24.4615 16.3756 -2.57539 0.0295312 4
-29.7884 19.9416 -1.87867 0.446636 10
-29.7891 19.942 -0.625728 0.447171 10
-29.7898 19.9425 0.625742 0.447161 10
-29.2322 19.5692 1.84359 0.251849 10
-29.5567 19.7865 3.11182 0.597785 10
-29.1963 19.5452 4.31398 0.346087 10
-29.2342 19.5706 5.57199 0.249073 10
-29.5613 19.7895 6.91484 0.588953 10
-29.1983 19.5466 8.11203 0.339725 10
-29.5644 19.7916 9.53298 0.579472 10
-8.40528 5.58446 -2.70396 0.0178275 4
-9.76257 6.48624 -2.70598 0.0252891 4
-11.4344 7.597 -2.66847 0.031925 4
-14.0536 9.33717 -2.67236 0.0329379 4
-24.5189 16.2903 -2.57542 0.0251706 4
-30.0384 19.9575 -1.89003 0.443951 10
-30.0391 19.958 -0.629514 0.444482 10
-30.0398 19.9584 0.629527 0.444472 10
-29.4776 19.5849 1.85474 0.250335 10
-29.5658 19.6435 3.10554 0.598994 10
-29.4414 19.5608 4.34008 0.344006 10
-29.4796 19.5862 5.60571 0.247575 10
-29.5703 19.6465 6.90089 0.590144 10
-29.4435 19.5622 8.16111 0.337682 10
-29.5735 19.6486 9.51373 0.580644 10
-8.42476 5.5551 -2.70397 0.0184217 4
-9.78521 6.45216 -2.70599 0.0190957 4
-11.4609 7.55708 -2.66848 0.053791 4
-14.0862 9.28812 -2.67238 0.0311475 4
-18.2119 12.0086 -2.67851 0.0242098 4
-24.5759 16.2048 -2.57546 0.0281431 4
-30.2916 19.9736 -1.90156 0.441259 10
-34.5813 22.8021 -0.723028 0.291812 10
-34.5821 22.8027 0.723044 0.291805 10
-29.6881 19.5757 1.86368 0.344032 10
-29.6888 19.5762 3.11127 0.343185 10
-29.6895 19.5766 4.36656 0.34192 10
-29.6902 19.5771 5.63272 0.340239 10
-29.6909 19.5775 6.91303 0.338143 10
-29.6916 19.578 8.21089 0.335635 10
-29.6923 19.5785 9.52992 0.332718 10
-8.44413 5.52569 -2.70399 0.0190158 4
-9.80772 6.41799 -2.70601 0.0908332 4
-11.4873 7.51708 -2.6685 0.0306126 4
-14.1186 9.23897 -2.6724 0.0221969 4
-24.6327 16.1192 -2.57549 0.033692 4
-30.5478 19.9899 -1.91325 0.438562 10
-34.4277 22.5288 -0.718168 0.511406 10
-34.4294 22.53 0.718203 0.511381 10
-30.5499 19.9913 1.91338 0.341929 10
-30.5506 19.9918 3.19425 0.341088 10
-30.5513 19.9922 4.48302 0.33983 10
-30.552 19.9927 5.78295 0.338159 10
-30.5528 19.9932 7.0974 0.336076 10
-30.5535 19.9937 8.42989 0.333583 10
-30.5542 19.9942 9.7841 0.330684 10
-8.4634 5.4962 -2.704 0.0237697 4
-9.83011 6.38375 -2.70602 0.0330301 4
-11.5135 7.47697 -2.66851 0.0135569 4
-14.1509 9.18969 -2.67242 0.0207647 4
-18.2957 11.8813 -2.67856 0.015583 4
-24.6891 16.0333 -2.57553 0.0269532 4
-30.8072 20.0064 -1.92511 0.43586 10
-30.8093 20.0078 1.92525 0.339822 10
-30.81 20.0083 3.21405 0.338986 10
-30.8108 20.0087 4.51081 0.337736 10
-30.8115 20.0092 5.81881 0.336075 10
-30.8122 20.0097 7.14141 0.334005 10
-30.813 20.0102 8.48216 0.331528 10
-30.8137 20.0107 9.84477 0.328646 10
-8.48257 5.46665 -2.70401 0.0380313 4
-9.85238 6.34943 -2.70603 0.044384 4
-11.5396 7.43678 -2.66853 0.0314869 4
-14.183 9.1403 -2.67244 0.0221966 4
-18.3372 11.8175 -2.67858 0.0141916 4
-31.0698 20.0231 -1.93715 0.433153 10
-34.5381 22.2583 -0.717213 0.286451 10
-34.5389 22.2588 0.717229 0.286445 10
-31.0443 20.0067 1.93555 0.605263 10
-31.0458 20.0077 3.23134 0.603757 10
-31.0734 20.0255 4.53901 0.335638 10
-31.049 20.0097 5.85043 0.598541 10
-31.0506 20.0107 7.18042 0.594838 10
-31.0522 20.0118 8.52872 0.590409 10
-31.0538 20.0128 9.89909 0.585262 10
-8.50164 5.43703 -2.70402 0.0998318 4
-9.87453 6.31503 -2.70605 0.0159988 4
-11.5656 7.3965 -2.66854 0.0293001 4
-18.3785 11.7535 -2.67861 0.0214263 4
-24.8011 15.861 -2.57559 0.0253671 4
-31.3358 20.04 -1.94935 0.43044 10
-34.4589 22.0374 -0.713967 0.514416 10
-34.4606 22.0385 0.714001 0.51439 10
-31.0536 19.8596 1.9318 0.606438 10
-31.0552 19.8606 3.22508 0.604929 10
-31.3394 20.0424 4.56762 0.333536 10
-31.0583 19.8626 5.83909 0.599703 10
-31.0599 19.8636 7.1665 0.595993 10
-31.0615 19.8647 8.51219 0.591556 10
-31.0631 19.8657 9.8799 0.586398 10
-8.5206 5.40734 -2.70403 0.0588292 4
-9.89657 6.28055 -2.70606 0.0113539 4
-11.5914 7.35612 -2.66856 0.0131194 4
-14.2466 9.04119 -2.67248 0.0354425 4
-18.4196 11.6894 -2.67863 0.0197565 4
-24.8566 15.7745 -2.57562 0.0259613 4
-31.605 20.0572 -1.96174 0.427723 10
-31.063 19.7132 1.92809 0.607606 10
-31.0645 19.7141 3.21888 0.606094 10
-31.6088 20.0596 4.59664 0.33143 10
-31.0676 19.7161 5.82786 0.600858 10
-31.0692 19.7171 7.15272 0.597141 10
-31.0708 19.7181 8.49582 0.592695 10
-31.0724 19.7192 9.8609 0.587528 10
-8.53946 5.37759 -2.70404 0.0463501 4
-9.91847 6.246 -2.70607 0.0619303 4
-11.6171 7.31566 -2.66857 0.0231775 4
-14.2782 8.99147 -2.67249 0.0100241 4
-31.8778 20.0745 -1.97431 0.425 10
-34.4805 21.7136 -0.711256 0.28106 10
-23.8363 15.0105 0.49169 0.23 5
-31.8816 20.0769 4.62609 0.32932 10
-31.7973 20.0239 7.30421 0.13329 10
-8.55821 5.34777 -2.70405 0.00356538 4
-9.94026 6.21137 -2.70609 0.0283846 4
-11.6426 7.2751 -2.66859 0.0139939 4
-14.3096 8.94163 -2.67251 0.017542 4
-24.9668 15.601 -2.57569 0.0319058 4
-32.1541 20.0921 -1.98706 0.422272 10
-32.3216 20.1968 -0.665263 0.517368 10
-23.8903 14.9283 0.491725 0.968397 5
-32.158 20.0945 4.65599 0.327206 10
-31.8669 19.9126 7.30417 0.13329 10
-8.57686 5.31788 -2.70406 0.00950764 4
-9.96193 6.17666 -2.7061 0.0314809 4
-11.668 7.23446 -2.6686 0.0249264 4
-14.3408 8.89169 -2.67253 0.0114559 4
-18.5415 11.4962 -2.6787 0.0172517 4
-25.0214 15.5139 -2.57572 0.0301219 4
-32.434 20.1099 -2.00001 0.419538 10
-32.5914 20.2076 -0.669362 0.51834 10
-32.593 20.2085 0.669394 0.518314 10
-32.2808 20.0149 4.66363 0.0854495 10
-31.936 19.8012 7.30414 0.133291 10
-8.59541 5.28793 -2.70407 0.0219863 4
-9.98347 6.14187 -2.70611 0.0965067 4
-11.6932 7.19372 -2.66862 0.0284247 4
-14.3719 8.84163 -2.67255 0.0243437 4
-25.0757 15.4267 -2.57575 0.0267527 4
-32.7175 20.128 -2.01315 0.4168 10
-32.8614 20.2165 -0.673453 0.519305 10
-32.863 20.2175 0.673485 0.51928 10
-32.3502 19.902 4.66359 0.0854502 10
-32.0691 19.729 7.31877 0.319396 10
-8.61384 5.25792 -2.70408 0.0255516 4
-10.0049 6.10702 -2.70612 0.106828 4
-11.7183 7.1529 -2.66863 0.0358587 4
-14.4027 8.79147 -2.67256 0.0157517 4
-33.0048 20.1462 -2.02649 0.414056 10
-33.1315 20.2236 -0.677537 0.520264 10
-33.1331 20.2245 0.67757 0.520239 10
-33.131 20.2233 2.03424 0.206083 10
-32.4192 19.7888 4.66355 0.0854509 10
-32.3507 19.747 7.36727 0.317294 10
-8.63218 5.22783 -2.70409 0.0184208 4
-10.0262 6.07208 -2.70613 0.0939255 4
-11.7433 7.11199 -2.66865 0.00612218 4
-14.4334 8.74119 -2.67258 0.0239854 4
-33.296 20.1648 -2.04003 0.411308 10
-33.4017 20.2288 -0.681615 0.521217 10
-24.0566 14.5692 0.490912 0.852475 5
-33.2984 20.1663 2.04018 0.204715 10
-33.2993 20.1667 3.40593 0.204211 10
-32.6345 19.7641 4.68456 0.318709 10
-33.3009 20.1678 6.1662 0.202457 10
-32.6361 19.7651 7.41651 0.315187 10
-33.3026 20.1688 8.98859 0.199717 10
-33.3035 20.1693 10.4326 0.197981 10
-8.65041 5.19769 -2.7041 0.00950749 4
-10.0474 6.03707 -2.70615 0.0939251 4
-11.7681 7.07099 -2.66866 0.0424178 4
-14.4639 8.69082 -2.6726 0.0257752 4
-18.7008 11.2366 -2.67879 0.0155817 4
-24.1131 14.4886 -2.46115 0.249963 5
-24.1715 14.5237 -1.47786 0.257617 5
-24.147 14.509 -0.491722 0.275045 5
-23.6607 14.2168 0.481817 0.96898 5
-33.3278 20.0254 2.03769 0.615572 10
-33.3295 20.0264 3.40185 0.614041 10
-32.9237 19.7826 4.71614 0.316575 10
-33.3328 20.0284 6.15912 0.608738 10
-33.5969 20.1871 7.61879 0.313077 10
-33.3362 20.0304 8.97871 0.600468 10
-33.3379 20.0314 10.4214 0.595234 10
-8.66853 5.16748 -2.70411 0.0766539 4
-10.0684 6.00199 -2.70616 0.105794 4
-11.7928 7.0299 -2.66867 0.0319225 4
-24.1908 14.4206 -2.46393 0.230767 5
-33.8901 20.2026 -2.06774 0.405796 10
-33.9425 20.2338 -0.68975 0.523103 10
-24.0617 14.3437 0.488962 0.0304166 5
-33.3375 19.8732 2.03402 0.61668 10
-33.3392 19.8741 3.39573 0.615147 10
-33.2169 19.8012 4.7482 0.314438 10
-33.3425 19.8761 6.14805 0.609834 10
-33.8961 20.2061 7.6706 0.310962 10
-33.3458 19.8781 8.96257 0.60155 10
-33.3475 19.8791 10.4026 0.596305 10
-10.0894 5.96683 -2.70617 0.102181 4
-11.8173 6.98873 -2.66869 0.00699667 4
-14.5244 8.58973 -2.67263 0.0418841 4
-25.4963 15.0785 -2.59153 0.297548 4
-34.1933 20.2218 -2.08192 0.403032 10
-34.213 20.2335 -0.693809 0.793363 10
-24.3021 14.3722 0.492825 0.444362 5
-34.1958 20.2234 2.08207 0.314226 10
-34.1967 20.2239 3.47587 0.313452 10
-34.1976 20.2244 4.87827 0.312296 10
-34.1984 20.2249 6.29283 0.31076 10
-34.1993 20.2254 7.7232 0.308845 10
-34.2002 20.226 9.17319 0.306553 10
-34.2012 20.2265 10.6468 0.303888 10
-8.70445 5.10688 -2.70413 0.0148553 4
-10.1102 5.9316 -2.70618 0.0954721 4
-11.8417 6.94748 -2.6687 0.0153052 4
-14.5544 8.53903 -2.67265 0.0128874 4
-25.7055 15.0813 -2.60743 0.285321 4
-34.5006 20.2414 -2.09632 0.400265 10
-34.5015 20.2419 -0.698222 0.400743 10
-34.5024 20.2424 0.698239 0.400733 10
-34.5032 20.2429 2.09647 0.312068 10
-34.5041 20.2435 3.49991 0.311299 10
-34.505 20.244 4.91202 0.310151 10
-34.5059 20.2445 6.33636 0.308625 10
-34.5068 20.245 7.77662 0.306723 10
-34.5077 20.2456 9.23664 0.304447 10
-34.5086 20.2461 10.7205 0.301801 10
-8.72226 5.07648 -2.70414 0.0392178 4
-10.1309 5.8963 -2.70619 0.103729 4
-11.8659 6.90613 -2.66871 0.0161797 4
-14.5842 8.48823 -2.67266 0.017541 4
-18.8565 10.9747 -2.67887 0.0191983 4
-25.9173 15.0842 -2.62355 0.172931 4
-34.8149 20.2628 2.1111 0.309905 10
-34.8158 20.2633 3.52433 0.309142 10
-34.8167 20.2638 4.94629 0.308002 10
-34.8176 20.2643 6.38058 0.306486 10
-34.8186 20.2649 7.83089 0.304597 10
-34.8195 20.2654 9.3011 0.302337 10
-34.8204 20.266 10.7953 0.299709 10
-8.73995 5.04602 -2.70415 0.0231741 4
-10.1514 5.86092 -2.7062 0.0402528 4
-11.89 6.8647 -2.66872 0.0402303 4
-18.8948 10.9089 -2.67889 0.0436827 4
-26.1316 15.0871 -2.6399 0.253438 4
-24.3505 14.0588 0.490794 0.960757 5
-61.4511 35.4788 16.3818 0.155225 10
-8.75755 5.01549 -2.70416 0.0534785 4
-10.1718 5.82547 -2.70621 0.0319957 4
-11.9139 6.82318 -2.66874 0.00962024 4
-14.6433 8.3863 -2.67269 0.0286381 4
-26.3486 15.09 -2.65649 0.195409 4
-24.3982 13.973 0.490768 0.960812 5
-61.5743 35.2639 16.3818 0.155225 10
-8.77503 4.98491 -2.70417 0.0172319 4
-10.1922 5.78996 -2.70622 0.0216744 4
-11.9377 6.78159 -2.66875 0.013993 4
-14.6726 8.33518 -2.67271 0.0175407 4
-18.9708 10.7769 -2.67893 0.0222584 4
-26.5683 15.0929 -2.67331 0.261573 4
-61.6968 35.0487 16.3817 0.155226 10
-8.7924 4.95426 -2.70418 0.0124782 4
-10.2123 5.75436 -2.70623 0.0134174 4
-11.9614 6.7399 -2.66876 0.0454771 4
-14.7017 8.28396 -2.67272 0.0239841 4
-61.8185 34.8329 16.3817 0.155227 10
-8.80967 4.92356 -2.70419 0.0041594 4
-10.2324 5.7187 -2.70624 0.0216742 4
-11.9849 6.69814 -2.66877 0.0104947 4
-61.9395 34.6168 16.3816 0.155227 10
-8.82683 4.89279 -2.7042 0.0499126 4
-10.2523 5.68297 -2.70625 0.0165136 4
-12.0083 6.65629 -2.66878 0.0192401 4
-14.7593 8.1812 -2.67275 0.0175404 4
-25.7532 14.2753 -2.57611 0.0281359 4
-62.0597 34.4003 16.3815 0.155228 10
-8.84388 4.86197 -2.7042 0.0344634 4
-12.0315 6.61436 -2.6688 0.022301 4
-14.7878 8.12968 -2.67277 0.0289952 4
-21.9192 12.0502 -2.18837 0.0361809 6
-62.1792 34.1833 16.3815 0.155228 10
-8.86083 4.83108 -2.70421 0.0386226 4
-10.2918 5.6113 -2.70627 0.0232222 4
-12.0545 6.57236 -2.66881 0.0109318 4
-14.8162 8.07806 -2.67278 0.010023 4
-21.8815 11.9302 -2.18043 0.341085 6
-62.2979 33.966 16.3814 0.155229 10
-8.87767 4.80014 -2.70422 0.0291154 4
-10.3114 5.57536 -2.70628 0.0278665 4
-12.0775 6.53026 -2.66882 0.0144299 4
-14.8444 8.02633 -2.67279 0.038302 4
-21.7958 11.7849 -2.16778 0.0421869 6
-62.4159 33.7482 16.3814 0.15523 10
-8.89439 4.76913 -2.70423 0.0237676 4
-10.3308 5.53935 -2.70629 0.0268343 4
-12.1002 6.48809 -2.66883 0.0380424 4
-14.8724 7.9745 -2.67281 0.0139605 4
-21.7835 11.6802 -2.16249 0.0453399 6
-22.1236 11.8626 -1.31561 0.179598 6
-60.4518 32.414 -1.19731 0.285204 10
-60.4546 32.4155 1.19736 0.285197 10
-60.4604 32.4186 6.00202 0.284139 10
-60.4663 32.4218 10.8668 0.281697 10
-60.4723 32.425 15.8415 0.277883 10
-8.91101 4.73807 -2.70424 0.0243618 4
-10.3501 5.50327 -2.7063 0.0190936 4
-12.1229 6.44584 -2.66884 0.0170534 4
-14.9002 7.92257 -2.67282 0.0136024 4
-21.7714 11.5761 -2.15727 0.0424605 6
-22.1178 11.7603 -1.31281 0.0352619 6
-60.4685 32.1517 -1.19541 0.283024 10
-60.4713 32.1532 1.19546 0.283016 10
-60.4771 32.1563 5.9925 0.281967 10
-60.483 32.1594 10.8495 0.279543 10
-60.4889 32.1625 15.8163 0.275758 10
-8.92752 4.70695 -2.70424 0.0207966 4
-10.3693 5.46713 -2.70631 0.0371549 4
-12.1453 6.40351 -2.66885 0.0415402 4
-14.9278 7.87055 -2.67283 0.0204036 4
-19.3011 10.1763 -2.67909 0.0178056 4
-21.7642 11.475 -2.15257 0.0399761 6
-22.107 11.6557 -1.30975 0.0325694 6
-60.4851 31.8902 -1.19353 0.28084 10
-60.488 31.8917 1.19358 0.280833 10
-60.4937 31.8947 5.98308 0.279791 10
-60.4996 31.8978 10.8325 0.277386 10
-60.5056 31.901 15.7914 0.27363 10
-8.94392 4.67577 -2.70425 0.0243616 4
-10.3884 5.43091 -2.70632 0.0108368 4
-12.1677 6.36109 -2.66886 0.0253613 4
-21.761 11.3764 -2.14831 0.0375656 6
-22.1007 11.554 -1.30698 0.0308296 6
-60.5017 31.6295 -1.19167 0.278653 10
-60.5046 31.631 1.19172 0.278645 10
-60.5103 31.634 5.97376 0.277612 10
-60.5162 31.6371 10.8156 0.275225 10
-60.5221 31.6402 15.7668 0.271498 10
-8.96021 4.64453 -2.70426 0.00891277 4
-10.4073 5.39464 -2.70632 0.0392189 4
-12.1898 6.31861 -2.66887 0.00787072 4
-14.9825 7.76622 -2.67286 0.0121704 4
-21.7621 11.2804 -2.14452 0.0344273 6
-22.0989 11.455 -1.3045 0.0277105 6
-60.5182 31.3697 -1.18983 0.276463 10
-60.5211 31.3712 1.18989 0.276455 10
-60.5268 31.3742 5.96454 0.275429 10
-60.5327 31.3772 10.7989 0.273062 10
-60.5386 31.3803 15.7425 0.269364 10
-8.97639 4.61324 -2.70426 0.0451579 4
-10.4261 5.35829 -2.70633 0.0634724 4
-12.2118 6.27604 -2.66888 0.0236121 4
-15.0096 7.71391 -2.67287 0.0121704 4
-19.4069 9.9738 -2.67914 0.0169707 4
-21.768 11.1872 -2.14124 0.030753 6
-22.1013 11.3585 -1.30229 0.0258072 6
-60.5347 31.1106 -1.18801 0.274269 10
-60.5376 31.1121 1.18807 0.274261 10
-60.5433 31.1151 5.95543 0.273243 10
-60.5491 31.1181 10.7824 0.270894 10
-60.5551 31.1211 15.7184 0.267226 10
-8.99246 4.58189 -2.70427 0.0178254 4
-10.4448 5.32188 -2.70634 0.015481 4
-12.2337 6.2334 -2.66889 0.0223002 4
-15.0365 7.6615 -2.67288 0.0168237 4
-22.1068 11.264 -1.30029 0.024055 6
-60.554 30.8538 1.18627 0.272063 10
-60.5598 30.8567 5.94641 0.271054 10
-60.5656 30.8597 10.7661 0.268724 10
-60.5715 30.8627 15.6946 0.265084 10
-9.00842 4.55049 -2.70428 0.0338683 4
-10.4633 5.28541 -2.70635 0.030446 4
-12.2555 6.19068 -2.6689 0.0218629 4
-15.0632 7.609 -2.67289 0.00859078 4
-22.1149 11.1711 -1.29847 0.0227074 6
-60.5704 30.5963 1.18449 0.269863 10
-60.5761 30.5992 5.9375 0.268861 10
-60.5819 30.6022 10.7499 0.26655 10
-60.5879 30.6052 15.6711 0.26294 10
-9.02428 4.51902 -2.70428 0.0314915 4
-10.4817 5.24886 -2.70636 0.0144489 4
-12.277 6.14788 -2.66891 0.0292962 4
-19.5106 9.77019 -2.67918 0.0175268 4
-21.8177 10.9255 -2.13476 0.0203293 6
-22.1256 11.0797 -1.29682 0.0210616 6
-60.5867 30.3396 1.18273 0.267659 10
-60.5925 30.3424 5.92868 0.266665 10
-60.5983 30.3453 10.734 0.264373 10
-60.6042 30.3483 15.6478 0.260792 10
-9.04002 4.48751 -2.70429 0.0415924 4
-10.5 5.21226 -2.70636 0.00722442 4
-12.2985 6.10501 -2.66891 0.0126804 4
-15.1161 7.50371 -2.67291 0.0204029 4
-19.5447 9.70208 -2.6792 0.0191959 4
-21.834 10.8385 -2.13264 0.0187611 6
-22.1394 10.9901 -1.29537 0.0188574 6
-60.603 30.0836 1.18099 0.265452 10
-60.6087 30.0865 5.91996 0.264466 10
-60.6145 30.0893 10.7182 0.262192 10
-60.6204 30.0923 15.6248 0.258641 10
-9.05565 4.45593 -2.7043 0.0522875 4
-10.5182 5.17559 -2.70637 0.0975294 4
-12.3197 6.06206 -2.66892 0.0323567 4
-15.1423 7.45093 -2.67292 0.0279197 4
-19.5785 9.63384 -2.67921 0.0147446 4
-21.8545 10.7537 -2.13096 0.031147 6
-60.6193 29.8284 1.17927 0.263241 10
-60.625 29.8312 5.91134 0.262264 10
-60.6308 29.834 10.7026 0.260009 10
-60.6367 29.8369 15.6021 0.256487 10
-9.07117 4.42431 -2.7043 0.0392155 4
-10.5362 5.13885 -2.70638 0.0985612 4
-12.3409 6.01904 -2.66893 0.0209881 4
-15.1683 7.39806 -2.67293 0.0118121 4
-21.8681 10.6658 -2.12865 0.0355865 6
-60.6355 29.5739 1.17757 0.261028 10
-60.6412 29.5767 5.90281 0.260059 10
-60.6469 29.5795 10.6871 0.257822 10
-60.6528 29.5824 15.5796 0.25433 10
-9.08658 4.39262 -2.70431 0.0237669 4
-10.5541 5.10206 -2.70638 0.0944328 4
-12.3618 5.97594 -2.66894 0.0222998 4
-15.194 7.34509 -2.67294 0.0275616 4
-19.6455 9.49701 -2.67924 0.0306018 4
-60.6516 29.3201 1.17589 0.258811 10
-60.6573 29.3229 5.89438 0.25785 10
-60.6631 29.3257 10.6719 0.255632 10
-60.669 29.3285 15.5573 0.252169 10
-9.10187 4.36089 -2.70432 0.0255494 4
-10.5719 5.0652 -2.70639 0.0861761 4
-12.3826 5.93277 -2.66895 0.0306075 4
-15.2196 7.29204 -2.67295 0.0164653 4
-60.6677 29.0671 1.17423 0.256591 10
-60.6734 29.0698 5.88605 0.255638 10
-60.6791 29.0726 10.6568 0.253439 10
-60.685 29.0754 15.5353 0.250006 10
-9.11706 4.3291 -2.70432 0.0112892 4
-10.5895 5.02828 -2.7064 0.0959804 4
-12.4033 5.88953 -2.66896 0.0113684 4
-21.9868 10.4401 -2.12943 0.0220156 6
-22.2685 10.5739 -1.29193 0.281769 6
-60.6838 28.8148 1.17259 0.254368 10
-60.6894 28.8175 5.87781 0.253423 10
-60.6952 28.8202 10.6419 0.251244 10
-60.7011 28.823 15.5136 0.24784 10
-10.607 4.99129 -2.7064 0.0309613 4
-12.4238 5.84621 -2.66896 0.0170526 4
-15.2703 7.18565 -2.67297 0.0196866 4
-19.7442 9.2909 -2.67927 0.0161353 4
-22.0967 10.3979 -2.13655 0.0988623 6
-22.4657 10.5715 -1.30122 0.436378 6
-60.6969 28.5618 -1.17091 0.25215 10
-60.6998 28.5632 1.17096 0.252142 10
-60.7055 28.5658 5.86967 0.251205 10
-60.7112 28.5685 10.6271 0.249044 10
-60.7171 28.5713 15.4921 0.24567 10
-9.14709 4.26536 -2.70433 0.00534751 4
-10.6244 4.95425 -2.70641 0.0861755 4
-12.4442 5.80283 -2.66897 0.0236113 4
-15.2953 7.13234 -2.67298 0.0118119 4
-22.2556 10.3779 -2.1484 0.302808 6
-22.6867 10.579 -1.31187 0.0601959 6
-60.7129 28.3109 -1.1693 0.249921 10
-60.7157 28.3122 1.16936 0.249913 10
-60.7214 28.3149 5.86162 0.248984 10
-60.7271 28.3176 10.6125 0.246842 10
-60.733 28.3203 15.4708 0.243498 10
-9.16195 4.23341 -2.70434 0.0445625 4
-10.6417 4.91714 -2.70642 0.1063 4
-12.4644 5.75937 -2.66898 0.0314816 4
-15.3202 7.07892 -2.67299 0.0118119 4
-19.8087 9.15291 -2.6793 0.0180825 4
-22.5251 10.4081 -2.1709 0.0187806 6
-22.9009 10.5817 -1.32212 0.0610503 6
-60.7288 28.0607 -1.16772 0.247688 10
-60.7317 28.062 1.16777 0.24768 10
-60.7373 28.0646 5.85367 0.24676 10
-60.7431 28.0672 10.5981 0.244637 10
-60.7489 28.0699 15.4498 0.241322 10
-9.17669 4.20142 -2.70434 0.00772416 4
-10.6588 4.87998 -2.70642 0.105784 4
-12.4845 5.71584 -2.66898 0.0384774 4
-15.3449 7.02543 -2.673 0.0229078 4
-22.7753 10.4274 -2.19149 0.0574526 6
-23.1264 10.5881 -1.33299 0.0611936 6
-60.7447 27.8111 -1.16615 0.245453 10
-60.7475 27.8124 1.1662 0.245445 10
-60.7504 27.8137 3.50161 0.245138 10
-60.7532 27.815 5.8458 0.244533 10
-60.756 27.8163 8.20458 0.243629 10
-60.7589 27.8176 10.5839 0.242429 10
-60.7618 27.819 12.9899 0.240933 10
-60.7648 27.8203 15.4291 0.239144 10
-60.7678 27.8217 17.9081 0.237064 10
-9.19131 4.16936 -2.70435 0.0730823 4
-10.6758 4.84275 -2.70643 0.10888 4
-12.5044 5.67224 -2.66899 0.0327932 4
-19.8723 9.01447 -2.67932 0.021977 4
-22.979 10.4237 -2.20757 0.0308792 6
-23.3601 10.5966 -1.34432 0.0613638 6
-60.7606 27.5622 -1.1646 0.243214 10
-60.7634 27.5635 1.16465 0.243207 10
-60.7662 27.5648 3.49696 0.242902 10
-60.769 27.5661 5.83803 0.242302 10
-60.7719 27.5673 8.19368 0.241407 10
-60.7747 27.5686 10.5698 0.240218 10
-60.7777 27.57 12.9726 0.238736 10
-60.7806 27.5713 15.4085 0.236963 10
-60.7836 27.5727 17.8843 0.234901 10
-9.20582 4.13726 -2.70435 0.0219841 4
-10.6926 4.80547 -2.70643 0.106299 4
-12.5241 5.62857 -2.669 0.0249227 4
-15.3936 6.91817 -2.67301 0.0243394 4
-23.2309 10.4404 -2.22826 0.11534 6
-23.6021 10.6072 -1.35611 0.0614644 6
-60.7764 27.314 -1.16307 0.240973 10
-60.7792 27.3153 1.16312 0.240966 10
-60.782 27.3165 3.49236 0.240664 10
-60.7848 27.3178 5.83035 0.240069 10
-60.7877 27.3191 8.1829 0.239182 10
-60.7905 27.3204 10.5559 0.238004 10
-60.7934 27.3217 12.9556 0.236535 10
-60.7964 27.323 15.3883 0.234779 10
-60.7994 27.3243 17.8607 0.232736 10
-9.22023 4.10511 -2.70436 0.0374323 4
-10.7094 4.76812 -2.70644 0.098043 4
-12.5437 5.58483 -2.669 0.0354165 4
-15.4177 6.86441 -2.67302 0.0121697 4
-19.9349 8.87558 -2.67934 0.0153003 4
-8.106 3.60902 -0.776298 0.551286 8
-8.10638 3.60919 -0.465042 0.600801 8
-60.7921 27.0664 -1.16155 0.238729 10
-60.7949 27.0676 1.1616 0.238721 10
-60.7977 27.0689 3.48781 0.238422 10
-60.8034 27.0714 8.17225 0.236954 10
-60.8092 27.074 12.9387 0.234332 10
-60.8151 27.0766 17.8375 0.230569 10
-9.23451 4.07291 -2.70436 0.11705 4
-10.726 4.73072 -2.70644 0.0877225 4
-12.5632 5.54102 -2.66901 0.0341047 4
-15.4416 6.81057 -2.67303 0.0110959 4
-19.9658 8.80597 -2.67935 0.05369 4
-8.1081 3.5761 -0.775298 0.558415 8
-8.10847 3.57626 -0.464444 0.611226 8
-60.8078 26.8195 -1.16006 0.236482 10
-60.8106 26.8207 1.16011 0.236474 10
-60.8134 26.8219 3.48332 0.236178 10
-60.8191 26.8244 8.16172 0.234724 10
-60.8249 26.827 12.9221 0.232126 10
-60.8308 26.8296 17.8145 0.228398 10
-9.24869 4.04066 -2.70436 0.106949 4
-10.7424 4.69326 -2.70645 0.102171 4
-12.5825 5.49715 -2.66901 0.0126799 4
-15.4653 6.75665 -2.67304 0.0275606 4
-19.9965 8.73626 -2.67936 0.0545243 4
-8.11019 3.54326 -0.774311 0.568767 8
-8.11056 3.54342 -0.463852 0.618447 8
-60.8235 26.5732 -1.15858 0.234232 10
-60.8263 26.5744 1.15863 0.234224 10
-60.8291 26.5756 3.47888 0.233931 10
-60.8348 26.5781 8.15133 0.23249 10
-60.8405 26.5806 12.9056 0.229917 10
-60.8465 26.5832 17.7918 0.226225 10
-9.26275 4.00835 -2.70437 0.0980364 4
-10.7588 4.65574 -2.70645 0.101655 4
-15.4889 6.70264 -2.67304 0.0164647 4
-20.0269 8.66643 -2.67936 0.0550805 4
-8.11228 3.5105 -0.773336 0.579137 8
-8.11265 3.51066 -0.463268 0.628903 8
-60.8391 26.3275 -1.15712 0.231979 10
-60.8419 26.3287 1.15717 0.231971 10
-60.8447 26.3299 3.4745 0.231681 10
-60.8504 26.3323 8.14105 0.230254 10
-60.8561 26.3348 12.8893 0.227705 10
-60.8621 26.3374 17.7694 0.224048 10
-9.2767 3.976 -2.70437 0.118238 4
-10.775 4.61817 -2.70646 0.0784338 4
-12.6206 5.4092 -2.66903 0.0441609 4
-15.5122 6.64855 -2.67305 0.0318556 4
-8.11436 3.47782 -0.772372 0.586302 8
-8.11473 3.47798 -0.46269 0.639375 8
-60.8547 26.0824 -1.15568 0.229724 10
-60.8575 26.0836 1.15573 0.229716 10
-60.8603 26.0848 3.47017 0.229428 10
-60.866 26.0872 8.13091 0.228015 10
-60.8717 26.0897 12.8733 0.225491 10
-60.8776 26.0922 17.7472 0.221869 10
-9.29053 3.9436 -2.70438 0.0909062 4
-10.7911 4.58053 -2.70646 0.100106 4
-12.6394 5.36512 -2.66903 0.0253597 4
-15.5354 6.59437 -2.67305 0.019686 4
-8.11643 3.44522 -0.77142 0.593477 8
-8.11681 3.44538 -0.46212 0.649863 8
-60.8703 25.8379 -1.15425 0.227465 10
-60.8731 25.8391 1.1543 0.227457 10
-60.8759 25.8403 3.46589 0.227172 10
-60.8815 25.8427 8.12088 0.225773 10
-60.8873 25.8451 12.8574 0.223273 10
-60.8932 25.8476 17.7254 0.219687 10
-9.30426 3.91115 -2.70438 0.102195 4
-10.8002 4.53997 -2.70476 0.0110668 4
-12.6581 5.32098 -2.66904 0.0620874 4
-15.5583 6.54012 -2.67306 0.0250549 4
-8.1185 3.41271 -0.77048 0.603889 8
-8.11888 3.41286 -0.461557 0.653894 8
-60.8858 25.5941 -1.15285 0.225204 10
-60.8886 25.5952 1.1529 0.225196 10
-60.8914 25.5964 3.46167 0.224914 10
-60.897 25.5988 8.11098 0.223528 10
-60.9028 25.6012 12.8417 0.221053 10
-60.9087 25.6037 17.7037 0.217503 10
-9.31786 3.87865 -2.70438 0.10576 4
-10.8029 4.49682 -2.7015 0.0409006 4
-12.6766 5.27677 -2.66904 0.0236106 4
-15.5811 6.48578 -2.67307 0.0572681 4
-8.12057 3.38027 -0.769551 0.614317 8
-8.12094 3.38042 -0.461001 0.667647 8
-60.9013 25.3508 -1.15146 0.22294 10
-60.9041 25.3519 1.15151 0.222932 10
-60.9069 25.3531 3.45749 0.222653 10
-60.9125 25.3554 8.10121 0.221281 10
-60.9182 25.3578 12.8262 0.21883 10
-60.9241 25.3603 17.6824 0.215316 10
-9.33136 3.84611 -2.70439 0.124773 4
-10.8057 4.45377 -2.69828 0.00506061 4
-12.695 5.2325 -2.66904 0.026234 4
-15.6037 6.43137 -2.67307 0.00930605 4
-8.12263 3.34791 -0.768634 0.624762 8
-8.123 3.34806 -0.460451 0.674933 8
-60.9167 25.1081 -1.15008 0.220673 10
-60.9195 25.1092 1.15014 0.220665 10
-60.9223 25.1104 3.45338 0.220389 10
-60.9279 25.1127 8.09155 0.219031 10
-60.9337 25.1151 12.8109 0.216605 10
-60.9395 25.1175 17.6613 0.213126 10
-9.34474 3.81352 -2.70439 0.119425 4
-10.8084 4.41082 -2.6951 0.0157412 4
-12.7132 5.18816 -2.66905 0.0196755 4
-15.6261 6.37687 -2.67308 0.0103798 4
-8.12468 3.31562 -0.767729 0.63198 8
-8.12505 3.31577 -0.459909 0.678978 8
-60.9322 24.866 -1.14873 0.218404 10
-60.9349 24.8671 1.14878 0.218396 10
-60.9377 24.8682 3.44931 0.218122 10
-60.9433 24.8705 8.08202 0.216778 10
-60.9491 24.8728 12.7958 0.214377 10
-60.9549 24.8752 17.6405 0.210933 10
-9.358 3.78088 -2.70439 0.0130714 4
-10.8111 4.36798 -2.69196 0.0439003 4
-12.7312 5.14376 -2.66905 0.0284201 4
-15.6482 6.3223 -2.67308 0.0225492 4
-20.2331 8.1747 -2.67942 0.015578 4
-8.12673 3.28341 -0.766835 0.642451 8
-8.12711 3.28357 -0.459373 0.666759 8
-60.9475 24.6244 -1.14739 0.216132 10
-60.9503 24.6255 1.14744 0.216124 10
-60.9531 24.6267 3.44529 0.215853 10
-60.9559 24.6278 5.75177 0.215319 10
-60.9587 24.6289 8.07261 0.214522 10
-60.9616 24.6301 10.4136 0.213464 10
-60.9644 24.6312 12.7809 0.212147 10
-60.9673 24.6324 15.1808 0.21057 10
-60.9703 24.6336 17.62 0.20874 10
