VERSION 0.7
FIELDS x y z intensity label
SIZE 4 4 4 4 4
TYPE F F F F F
COUNT 1 1 1 1 1
WIDTH 1259
HEIGHT 1
VIEWPOINT 0.545889 4.14687 2.72625 0.877226 -0.000680581 0.000667856 -0.480077
POINTS 1259
DATA ascii
2.1902 13.5227 -2.6628 0.0213322 4
2.64218 16.3133 -2.61745 0.0306733 4
3.38682 20.9109 -2.60099 0.151588 4
4.8756 30.1029 -2.66798 0.0338363 1
6.63507 40.9662 -2.17492 0.353303 10
7.00867 43.2729 -0.765174 0.816713 10
7.00818 43.2699 0.76512 0.81677 10
7.0077 43.2668 2.29707 0.636114 10
7.00721 43.2638 3.83442 0.634607 10
7.00672 43.2608 5.38098 0.632327 10
7.00622 43.2577 6.94064 0.629277 10
7.00572 43.2546 8.51742 0.62546 10
7.00521 43.2515 10.1155 0.620881 10
7.00469 43.2483 11.7394 0.615546 10
1.55874 9.84148 -2.66989 0.0330675 4
1.80706 11.4093 -2.66688 0.0376663 4
2.143 13.5303 -2.66281 0.0426643 4
2.58524 16.3225 -2.61746 0.0321337 4
3.28983 20.7711 -2.58217 0.089311 4
4.77054 30.12 -2.668 0.033836 1
6.44017 40.6616 -2.15755 0.356148 10
6.86801 43.3629 -0.766337 0.815473 10
6.86754 43.3599 0.766283 0.81553 10
6.86706 43.3569 2.30056 0.635148 10
6.86056 43.3159 3.83688 0.259865 10
6.86609 43.3508 5.38916 0.631368 10
6.86561 43.3477 6.95118 0.628322 10
6.86512 43.3446 8.53036 0.624511 10
6.86462 43.3415 10.1309 0.619939 10
6.85885 43.3051 11.7482 0.252032 10
1.52438 9.84689 -2.66989 0.0348711 4
1.76723 11.4156 -2.66689 0.0622537 4
2.09576 13.5378 -2.66282 0.0333314 4
2.52826 16.3315 -2.61747 0.0321336 4
3.19422 20.6334 -2.56364 0.0657746 4
4.66542 30.1367 -2.66803 0.0338357 1
6.27582 40.5393 -2.14988 0.813175 10
7.72031 49.87 -0.880854 0.814223 10
7.71977 49.8666 0.880792 0.81428 10
6.96677 45.0025 2.38658 0.634175 10
6.66445 43.0496 5.34879 0.201256 10
6.9653 44.993 7.21108 0.627359 10
6.65527 42.9903 8.45602 0.258145 10
6.96429 44.9865 10.5097 0.618989 10
6.6546 42.986 11.6553 0.254042 10
1.49 9.85218 -2.6699 0.0144294 4
1.72737 11.4217 -2.6669 0.0219718 4
2.0485 13.5451 -2.66284 0.0257761 4
2.47125 16.3403 -2.61749 0.0200834 4
3.09996 20.4975 -2.5454 0.133466 4
4.56023 30.1531 -2.66805 0.0338354 1
6.14377 40.6238 -2.15321 0.811916 10
7.58733 50.1688 -0.885659 0.812964 10
7.5868 50.1654 0.885596 0.81302 10
6.82018 45.0963 2.39027 0.633194 10
6.8197 45.0932 3.99 0.631694 10
6.46306 42.735 5.30686 0.202846 10
6.81874 45.0868 7.22225 0.626389 10
6.45417 42.6762 8.38974 0.260184 10
6.81775 45.0802 10.5259 0.618032 10
6.45353 42.6719 11.5639 0.256048 10
1.45561 9.85735 -2.66991 0.0180367 4
1.6875 11.4277 -2.66691 0.0224949 4
2.00122 13.5522 -2.66285 0.0271093 4
3.00704 20.3636 -2.52745 0.149131 4
4.45499 30.1691 -2.66808 0.0338351 1
6.01133 40.7086 -2.15658 0.810648 10
7.42377 50.2735 -0.887044 0.811694 10
7.42325 50.27 0.886981 0.811751 10
6.67315 45.1904 2.39401 0.632205 10
6.67268 45.1872 3.99624 0.630708 10
6.26483 42.4253 5.26566 0.204433 10
6.67174 45.1808 7.23354 0.625411 10
6.25622 42.367 8.32461 0.26222 10
6.67077 45.1743 10.5424 0.617068 10
6.2556 42.3628 11.4742 0.258052 10
1.42119 9.8624 -2.66992 0.0216439 4
1.64761 11.4336 -2.66692 0.0408045 4
1.95391 13.5592 -2.66286 0.0319977 4
2.35713 16.3574 -2.61751 0.0142408 4
2.91541 20.2315 -2.50978 0.127456 4
4.34969 30.1847 -2.6681 0.0338348 1
5.87845 40.7936 -2.15999 0.80937 10
7.25966 50.3786 -0.888444 0.810415 10
7.25915 50.375 0.888382 0.810471 10
6.06244 42.0704 2.22759 0.268779 10
6.52518 45.2816 4.00255 0.629714 10
6.06963 42.1203 5.22515 0.206018 10
6.53482 45.3485 7.25669 0.754961 10
6.06129 42.0625 8.26057 0.264253 10
6.53387 45.3419 10.5761 0.744889 10
6.0607 42.0583 11.3859 0.260052 10
1.38677 9.86734 -2.66993 0.0132268 4
1.60769 11.4393 -2.66693 0.0183097 4
1.90657 13.566 -2.66287 0.01511 4
2.30004 16.3656 -2.61753 0.0138756 4
2.83122 20.1451 -2.49782 0.0431011 4
4.24435 30.2 -2.66813 0.0338344 1
5.74517 40.8789 -2.16343 0.808083 10
7.09506 50.4839 -0.88986 0.809125 10
7.09457 50.4804 0.889797 0.809182 10
5.87799 41.824 2.21344 0.208853 10
6.37723 45.3763 4.00892 0.628713 10
5.87744 41.8201 5.18532 0.2076 10
5.86936 41.7626 8.19761 0.266283 10
5.86879 41.7585 11.2991 0.262049 10
1.35232 9.87215 -2.66994 0.0240486 4
1.56776 11.4449 -2.66694 0.0172633 4
1.85921 13.5726 -2.66288 0.0151099 4
2.24291 16.3736 -2.61754 0.0164315 4
2.76089 20.155 -2.49784 0.0319688 4
4.13894 30.215 -2.66815 0.0338341 1
5.61144 40.9645 -2.16691 0.806785 10
6.92991 50.5896 -0.891291 0.807826 10
6.92943 50.5861 0.891228 0.807883 10
5.68865 41.5281 2.19672 0.210443 10
6.22879 45.4713 4.01537 0.627703 10
5.68812 41.5243 5.14616 0.20918 10
5.68031 41.4673 8.1357 0.268309 10
5.67976 41.4633 11.2138 0.264043 10
1.31785 9.87685 -2.66995 0.0126255 4
1.52781 11.4504 -2.66695 0.0277258 4
1.81184 13.5791 -2.6629 0.00755491 4
2.18575 16.3814 -2.61756 0.01278 4
2.69055 20.1647 -2.49786 0.0391044 4
4.03349 30.2296 -2.66818 0.0338337 1
5.4773 41.0504 -2.17042 0.805478 10
6.76425 50.6956 -0.892738 0.806517 10
6.76378 50.6921 0.892675 0.806574 10
5.50217 41.2368 2.18028 0.21203 10
6.07989 45.5666 4.02189 0.626686 10
5.50166 41.233 5.10764 0.210758 10
6.08886 45.6338 7.29175 0.751331 10
5.49411 41.1764 8.07482 0.270331 10
5.49359 41.1725 11.1299 0.266033 10
1.28337 9.88142 -2.66996 0.0120242 4
1.48783 11.4557 -2.66696 0.0141244 4
1.76443 13.5854 -2.66291 0.018665 4
2.12857 16.3891 -2.61757 0.0273855 4
2.73638 21.069 -2.60867 0.0191239 4
3.92798 30.2438 -2.66821 0.0338334 1
5.3427 41.1365 -2.17398 0.80416 10
6.59803 50.802 -0.8942 0.805198 10
6.59756 50.7985 0.894137 0.805255 10
5.34477 41.1525 2.17482 0.453576 10
5.93048 45.6622 4.02847 0.625662 10
5.34401 41.1466 5.0946 0.450877 10
5.93923 45.7296 7.30369 0.750103 10
5.34004 41.116 8.05927 0.578355 10
5.33925 41.1099 11.1079 0.569188 10
1.24888 9.88587 -2.66997 0.0450907 4
1.44784 11.4608 -2.66697 0.0146475 4
1.71701 13.5915 -2.66292 0.0253309 4
2.07136 16.3965 -2.61759 0.0233688 4
2.66284 21.0785 -2.60869 0.0382475 4
3.82243 30.2576 -2.66824 0.033833 1
5.20767 41.2229 -2.17757 0.802833 10
5.8146 46.0273 -0.809794 0.382039 10
5.81434 46.0252 0.809757 0.382056 10
5.20969 41.2389 2.17842 0.452828 10
5.7806 45.7581 4.03513 0.624629 10
5.20895 41.2331 5.10302 0.450134 10
5.78913 45.8256 7.31575 0.748865 10
5.20508 41.2024 8.07259 0.577401 10
5.78828 45.8189 10.6622 0.738876 10
5.2043 41.1963 11.1262 0.56825 10
1.21437 9.89021 -2.66998 0.0354712 4
1.40784 11.4659 -2.66698 0.0486504 4
1.66957 13.5975 -2.66294 0.028886 4
3.71684 30.2711 -2.66827 0.0338326 1
5.0722 41.3096 -2.18121 0.801496 10
5.61519 45.732 -0.804249 0.530092 10
5.6148 45.7287 0.804192 0.53013 10
5.07417 41.3256 2.18205 0.452074 10
5.61197 45.7057 4.02876 0.29901 10
5.07344 41.3198 5.11153 0.449384 10
5.62536 45.8147 7.31083 0.747619 10
5.06967 41.289 8.08604 0.57644 10
5.62453 45.808 10.655 0.737646 10
5.06891 41.2829 11.1448 0.567304 10
1.17984 9.89443 -2.66999 0.0601205 4
1.36781 11.4708 -2.667 0.0104624 4
1.95687 16.4108 -2.61762 0.0116843 4
2.51566 21.097 -2.60873 0.0411011 4
3.61118 30.2843 -2.6683 0.0338322 1
4.93626 41.3967 -2.18488 0.80015 10
5.42918 45.5304 -0.800367 0.529202 10
5.4288 45.5272 0.80031 0.529239 10
4.93817 41.4127 2.18572 0.451315 10
5.41301 45.3948 3.99967 0.301185 10
4.93746 41.4068 5.12013 0.44863 10
4.93379 41.376 8.09965 0.575472 10
4.93305 41.3698 11.1635 0.566352 10
1.1453 9.89852 -2.67 0.032465 4
1.32777 11.4755 -2.66701 0.00993923 4
1.57462 13.609 -2.66296 0.00577713 4
1.89959 16.4176 -2.61764 0.0357828 4
2.43302 21.0279 -2.59913 0.125224 4
3.5055 30.2971 -2.66833 0.0338318 1
4.79987 41.484 -2.18859 0.798793 10
5.21762 45.0944 -0.792378 0.257893 10
5.21739 45.0925 0.792342 0.257905 10
4.80172 41.5 2.18943 0.45055 10
5.21693 45.0885 3.97105 0.303356 10
4.80104 41.4941 5.12882 0.447869 10
4.79746 41.4632 8.11339 0.574497 10
4.79675 41.457 11.1825 0.565392 10
1.11074 9.9025 -2.67001 0.0414828 4
1.2877 11.4801 -2.66702 0.0141241 4
1.52711 13.6145 -2.66298 0.00888785 4
1.84227 16.4242 -2.61766 0.0259241 4
2.34551 20.9107 -2.58361 0.10798 4
3.39975 30.3095 -2.66836 0.0338314 1
4.663 41.5716 -2.19234 0.797427 10
5.02799 44.8255 -0.787339 0.527401 10
5.02763 44.8223 0.787282 0.527439 10
4.6648 41.5876 2.19318 0.449779 10
5.0236 44.7864 3.94288 0.305523 10
4.66413 41.5817 5.1376 0.447104 10
5.02316 44.7825 7.13733 0.302941 10
4.66066 41.5507 8.12729 0.573515 10
5.0227 44.7784 10.4027 0.298883 10
4.65996 41.5445 11.2016 0.564426 10
1.07618 9.90636 -2.67002 0.0240479 4
1.24763 11.4846 -2.66703 0.0272019 4
1.47958 13.6198 -2.66299 0.034218 4
1.78495 16.4307 -2.61768 0.0167958 4
2.25904 20.7948 -2.5683 0.160923 4
3.29398 30.3215 -2.6684 0.033831 1
4.52567 41.6595 -2.19613 0.796051 10
4.84735 44.6205 -0.783437 0.526491 10
4.84701 44.6174 0.78338 0.526529 10
4.52742 41.6755 2.19697 0.449003 10
4.83303 44.4887 3.91516 0.307687 10
4.52677 41.6696 5.14648 0.446333 10
4.8326 44.4848 7.08715 0.305086 10
4.5234 41.6385 8.14132 0.572526 10
4.83217 44.4808 10.3296 0.300999 10
4.52272 41.6323 11.221 0.563453 10
1.04159 9.9101 -2.67003 0.0210418 4
1.20754 11.489 -2.66705 0.0193551 4
1.43204 13.6249 -2.66301 0.0266632 4
1.72759 16.4369 -2.61769 0.07412 4
2.17358 20.6803 -2.5532 0.130512 4
3.18815 30.3332 -2.66843 0.0338306 1
4.38786 41.7477 -2.19995 0.794666 10
4.64569 44.2008 -0.775777 0.263412 10
4.64549 44.1989 0.775743 0.263423 10
4.38955 41.7638 2.2008 0.448222 10
4.64509 44.1951 3.88786 0.309846 10
4.38892 41.7578 5.15545 0.445556 10
4.64468 44.1912 7.03775 0.307228 10
4.38564 41.7266 8.15551 0.57153 10
4.64426 44.1872 10.2576 0.303112 10
4.38499 41.7204 11.2405 0.562473 10
1.007 9.91371 -2.67004 0.0246489 4
1.16743 11.4932 -2.66706 0.0115084 4
1.38448 13.6299 -2.66302 0.0208861 4
1.67022 16.443 -2.61771 0.0788661 4
2.08912 20.567 -2.53831 0.14349 4
3.08229 30.3445 -2.66846 0.0338302 1
4.24957 41.8362 -2.20382 0.793271 10
4.46034 43.9112 -0.770416 0.265245 10
4.46015 43.9093 0.770383 0.265256 10
4.25121 41.8523 2.20467 0.447435 10
4.45977 43.9055 3.861 0.312002 10
4.2506 41.8463 5.16452 0.444774 10
4.45938 43.9017 6.98913 0.309365 10
4.24743 41.8151 8.16985 0.570527 10
4.45898 43.8978 10.1868 0.30522 10
4.24679 41.8088 11.2603 0.561486 10
0.97239 9.91721 -2.67005 0.0168333 4
1.12731 11.4972 -2.66707 0.0512643 4
1.3369 13.6348 -2.66304 0.0199972 4
1.61282 16.4488 -2.61773 0.0613398 4
2.00563 20.455 -2.52361 0.110547 4
2.97638 30.3555 -2.6685 0.0338297 1
4.11078 41.925 -2.20773 0.791866 10
4.28466 43.6984 -0.766416 0.523723 10
4.28435 43.6952 0.76636 0.523761 10
4.11236 41.9411 2.20858 0.446643 10
4.27697 43.6199 3.83455 0.314154 10
4.11177 41.9351 5.17368 0.443987 10
4.2766 43.6162 6.94125 0.311499 10
4.1087 41.9038 8.18434 0.569517 10
4.27622 43.6123 10.117 0.307326 10
4.10808 41.8975 11.2802 0.560492 10
0.937773 9.92059 -2.67006 0.0240475 4
1.08718 11.5011 -2.66709 0.046033 4
1.28931 13.6394 -2.66306 0.0297734 4
1.55541 16.4545 -2.61775 0.0755789 4
1.92311 20.3443 -2.5091 0.0422096 4
2.87045 30.3661 -2.66854 0.0338293 1
3.97151 42.0141 -2.21168 0.790451 10
4.11092 43.489 -0.762487 0.522788 10
4.11063 43.4859 0.762432 0.522825 10
3.97304 42.0303 2.21253 0.445845 10
4.09667 43.3382 3.80851 0.201921 10
3.97246 42.0242 5.18293 0.443194 10
4.09992 43.3726 6.90016 0.389307 10
3.9695 41.9929 8.19898 0.5685 10
4.09931 43.3661 10.0565 0.384115 10
3.9689 41.9865 11.3004 0.559491 10
0.903144 9.92385 -2.67008 0.0799576 4
1.04703 11.5049 -2.6671 0.0303398 4
1.2417 13.6439 -2.66307 0.0213301 4
1.49798 16.4599 -2.61777 0.0244625 4
1.84397 20.2618 -2.49812 0.0416689 4
2.76448 30.3764 -2.66857 0.0338288 1
3.83174 42.1036 -2.21568 0.789027 10
3.91931 43.0658 -0.754823 0.270724 10
3.91914 43.064 0.75479 0.270736 10
3.83092 42.0945 2.2152 0.577137 10
3.84797 42.2819 3.71447 0.318447 10
3.83266 42.1137 5.19228 0.442396 10
3.84764 42.2783 6.7239 0.315755 10
3.8298 42.0823 8.21377 0.567477 10
3.8473 42.2746 9.8002 0.311524 10
3.82922 42.0759 11.3208 0.558484 10
0.868499 9.92698 -2.67009 0.0751478 4
1.00687 11.5086 -2.66711 0.0313858 4
1.19407 13.6483 -2.66309 0.0288843 4
1.44785 16.5489 -2.63111 0.0208598 4
1.77325 20.2683 -2.49814 0.0345335 4
2.65845 30.3863 -2.66861 0.0338283 1
3.69145 42.1934 -2.21971 0.787593 10
3.74377 42.7915 -0.749782 0.272544 10
3.74362 42.7897 0.74975 0.272556 10
3.69065 42.1843 2.21923 0.614229 10
3.69038 42.1813 3.70448 0.612776 10
3.69012 42.1782 5.19861 0.610576 10
3.68985 42.1751 6.7054 0.607632 10
3.68957 42.172 8.22871 0.603948 10
3.68929 42.1688 9.77262 0.599528 10
3.68901 42.1656 11.3414 0.594378 10
0.833848 9.93 -2.6701 0.0102201 4
0.9667 11.5121 -2.66713 0.0340011 4
1.14643 13.6524 -2.66311 0.0182192 4
1.40116 16.686 -2.6521 0.0203688 4
1.70251 20.2746 -2.49817 0.0385287 4
2.55241 30.3958 -2.66865 0.0338279 1
2.95748 35.2196 -1.85228 0.414844 10
2.95736 35.2181 -0.616898 0.415368 10
2.95723 35.2166 0.616872 0.415385 10
2.95711 35.2152 1.85205 0.3235 10
2.95699 35.2137 3.09164 0.322724 10
2.95687 35.2123 4.33874 0.321556 10
2.95674 35.2108 5.59647 0.319995 10
2.95661 35.2093 6.86808 0.318045 10
2.95649 35.2077 8.15696 0.315708 10
2.95636 35.2062 9.46668 0.312985 10
0.799182 9.9329 -2.67011 0.02044 4
0.926511 11.5155 -2.66714 0.00418473 4
1.09877 13.6565 -2.66312 0.00933173 4
1.35369 16.8248 -2.67339 0.0224697 4
1.63174 20.2806 -2.49819 0.0379575 4
2.44632 30.4049 -2.66868 0.0338274 1
2.8159 34.9983 -1.84011 0.417587 10
2.81578 34.9969 -0.612847 0.418113 10
2.81567 34.9955 0.612822 0.41813 10
2.81555 34.994 1.83988 0.325638 10
2.81544 34.9926 3.07135 0.324857 10
2.81532 34.9911 4.31025 0.323681 10
2.8152 34.9897 5.55972 0.32211 10
2.81508 34.9882 6.82299 0.320147 10
2.81496 34.9867 8.10341 0.317794 10
2.81484 34.9851 9.40453 0.315053 10
0.764511 9.93567 -2.67013 0.0234458 4
0.886316 11.5187 -2.66716 0.0282468 4
1.30491 16.9588 -2.69395 0.0601467 1
1.56096 20.2864 -2.49822 0.0296808 4
2.34022 30.4137 -2.66872 0.0338269 1
2.67618 34.78 -1.82813 0.420323 10
2.67607 34.7786 -0.608857 0.420853 10
2.67596 34.7772 0.608832 0.42087 10
2.67586 34.7758 1.82791 0.327771 10
2.67575 34.7743 3.05135 0.326986 10
2.67564 34.7729 4.28219 0.325802 10
2.67552 34.7714 5.52354 0.32422 10
2.67541 34.77 6.77858 0.322244 10
2.6753 34.7685 8.05067 0.319876 10
2.67518 34.767 9.34332 0.317117 10
0.729825 9.93833 -2.67014 0.021041 4
0.846105 11.5218 -2.66717 0.0162156 4
1.00342 13.664 -2.66316 0.0475468 4
1.24571 16.9634 -2.69397 0.0601462 1
1.49014 20.2919 -2.49824 0.0379567 4
2.23406 30.4222 -2.66876 0.0338264 1
2.53826 34.5645 -1.81633 0.423055 10
2.53815 34.5631 -0.604926 0.423588 10
2.53805 34.5617 0.6049 0.423606 10
2.53795 34.5603 1.8161 0.329902 10
2.53784 34.5589 3.03165 0.329111 10
2.53774 34.5575 4.25455 0.327919 10
2.53763 34.556 5.48787 0.326327 10
2.53753 34.5546 6.73482 0.324338 10
2.53742 34.5531 7.99869 0.321954 10
2.53731 34.5516 9.28301 0.319178 10
0.695135 9.94087 -2.67015 0.0685331 4
0.955726 13.6675 -2.66318 0.0297721 4
1.18651 16.9678 -2.694 0.0601457 1
1.41932 20.2972 -2.49827 0.0388125 4
2.12789 30.4302 -2.6688 0.0338259 1
2.35118 33.6233 -1.76643 0.780292 10
2.351 33.6209 -0.588288 0.7813 10
2.40192 34.349 0.601028 0.426335 10
2.35066 33.616 1.76604 0.608533 10
2.35049 33.6135 2.94798 0.607093 10
2.40163 34.3448 4.22731 0.330032 10
2.35014 33.6086 5.33607 0.601998 10
2.34997 33.6061 6.54831 0.598349 10
2.40133 34.3405 7.94749 0.324028 10
2.34961 33.6009 9.02532 0.588868 10
0.660431 9.94328 -2.67017 0.0276536 4
0.765656 11.5275 -2.6672 0.0256309 4
0.908014 13.6708 -2.6632 0.0279944 4
1.12728 16.972 -2.69402 0.0601452 1
1.34847 20.3023 -2.4983 0.0356728 4
2.02168 30.438 -2.66884 0.0338254 1
2.23806 33.6957 -1.76981 0.7788 10
2.2379 33.6932 -0.589414 0.779804 10
2.2675 34.139 0.59721 0.42906 10
2.23757 33.6884 1.76942 0.60737 10
2.23741 33.6859 2.95363 0.605933 10
2.26723 34.1348 4.20047 0.332141 10
2.23708 33.6809 5.34629 0.600848 10
2.23691 33.6784 6.56084 0.597206 10
2.26695 34.1306 7.89703 0.326099 10
2.23657 33.6732 9.04259 0.587743 10
0.625724 9.94558 -2.67018 0.0174337 4
0.72542 11.5302 -2.66722 0.034523 4
0.860298 13.674 -2.66322 0.0813166 4
1.06804 16.976 -2.69404 0.0601447 1
1.27762 20.3071 -2.49833 0.039097 4
1.91546 30.4453 -2.66888 0.0338248 1
2.12453 33.7684 -1.77322 0.777296 10
2.12437 33.7659 -0.590552 0.778301 10
2.1348 33.9316 0.593449 0.43178 10
2.12406 33.761 1.77284 0.6062 10
2.12391 33.7585 2.95933 0.604766 10
2.13454 33.9275 4.17401 0.334246 10
2.12359 33.7535 5.3566 0.599691 10
2.12343 33.751 6.5735 0.596056 10
2.13428 33.9234 7.84731 0.328165 10
2.12311 33.7458 9.06004 0.586612 10
0.591009 9.94776 -2.67019 0.0156301 4
0.685174 11.5327 -2.66724 0.0230152 4
0.81257 13.677 -2.66323 0.0866482 4
1.00879 16.9797 -2.69407 0.0601441 1
1.20674 20.3116 -2.49835 0.0339598 4
1.80921 30.4523 -2.66893 0.0338243 1
2.00852 33.807 -1.77487 0.775779 10
2.00837 33.8045 -0.591101 0.776782 10
2.00376 33.7269 0.589742 0.434494 10
2.00808 33.7996 1.77449 0.386231 10
2.00793 33.7971 2.96208 0.385318 10
2.00352 33.7228 4.14794 0.336346 10
2.00763 33.7921 5.36158 0.382084 10
2.00748 33.7896 6.57961 0.379768 10
2.00327 33.7187 7.7983 0.330227 10
2.00717 33.7844 9.06846 0.373751 10
0.556281 9.94981 -2.67021 0.0228439 4
0.644914 11.5351 -2.66725 0.0109845 4
0.764825 13.6799 -2.66325 0.0839815 4
0.949515 16.9833 -2.69409 0.0601436 1
1.13584 20.316 -2.49838 0.0368131 4
1.70292 30.4589 -2.66897 0.0338237 1
1.87432 33.5246 0.586088 0.437203 10
1.8741 33.5206 4.12224 0.338443 10
1.87387 33.5166 7.74999 0.332286 10
0.521551 9.95175 -2.67022 0.0114219 4
0.604651 11.5374 -2.66727 0.0366146 4
0.717077 13.6826 -2.66327 0.0888687 4
0.888745 16.9582 -2.6896 0.126631 4
1.06493 20.3201 -2.49841 0.0422347 4
1.59662 30.4652 -2.66901 0.0338232 1
1.74649 33.3249 0.582486 0.439906 10
1.74629 33.321 4.09691 0.340536 10
1.70796 32.5897 7.53426 0.33434 10
0.48681 9.95356 -2.67024 0.0354678 4
0.564375 11.5395 -2.66729 0.0141227 4
0.669313 13.6851 -2.66329 0.0728718 4
0.824973 16.8678 -2.67479 0.139232 4
0.994004 20.3239 -2.49844 0.0410927 4
1.49028 30.471 -2.66906 0.0338226 1
1.62021 33.1276 0.578935 0.442605 10
1.62002 33.1237 4.07194 0.342624 10
1.58447 32.3968 7.48833 0.33639 10
0.452067 9.95525 -2.67025 0.0198378 4
0.524097 11.5415 -2.6673 0.0120304 4
0.621546 13.6875 -2.66331 0.0933107 4
0.761907 16.7784 -2.66018 0.17709 4
0.92307 20.3275 -2.49847 0.0379533 4
1.38394 30.4766 -2.6691 0.0338221 1
1.46838 32.336 -1.6964 0.769645 10
1.46827 32.3336 -0.564967 0.77064 10
1.49547 32.9327 0.575434 0.445297 10
1.46805 32.3289 1.69603 0.600234 10
1.46794 32.3265 2.83111 0.598815 10
1.4953 32.9288 4.04732 0.344709 10
1.46772 32.3216 5.12452 0.59379 10
1.46761 32.3192 6.28869 0.590191 10
1.4675 32.3167 7.46859 0.585873 10
1.46738 32.3142 8.66748 0.580841 10
0.417314 9.95683 -2.67027 0.0414788 4
0.483807 11.5433 -2.66732 0.0381831 4
0.573765 13.6896 -2.66333 0.0844233 4
0.700518 16.7139 -2.64954 0.143167 4
0.852113 20.3308 -2.4985 0.0328163 4
1.27756 30.4817 -2.66915 0.0338215 1
1.35823 32.4065 -1.69984 0.768087 10
1.35813 32.4041 -0.566113 0.769081 10
1.37221 32.7401 0.571982 0.447985 10
1.35793 32.3993 1.69947 0.59902 10
1.35783 32.3969 2.83685 0.597604 10
1.37206 32.7363 4.02304 0.346789 10
1.35763 32.3921 5.13491 0.592589 10
1.35752 32.3896 6.30143 0.588998 10
1.35742 32.3871 7.48372 0.584688 10
1.35731 32.3846 8.68504 0.579666 10
0.38256 9.95828 -2.67028 0.00601139 4
0.443516 11.545 -2.66734 0.0523053 4
0.525983 13.6917 -2.66336 0.0813123 4
0.638718 16.6262 -2.63528 0.157247 4
0.781154 20.3339 -2.49853 0.0333866 4
1.17118 30.4865 -2.66919 0.0338209 1
1.24766 32.4773 -1.70332 0.766521 10
1.24756 32.4749 -0.567269 0.767513 10
1.25044 32.5498 0.568578 0.450667 10
1.24738 32.4701 1.70294 0.597798 10
1.24729 32.4677 2.84265 0.596385 10
1.2503 32.5461 3.9991 0.348865 10
1.2471 32.4628 5.14539 0.591381 10
1.247 32.4603 6.3143 0.587797 10
1.24691 32.4578 7.499 0.583497 10
1.24681 32.4553 8.70278 0.578485 10
0.347801 9.95961 -2.6703 0.0162306 4
0.403219 11.5466 -2.66736 0.0732269 4
0.478194 13.6935 -2.66338 0.0102195 4
0.577579 16.5395 -2.6212 0.181198 4
0.710184 20.3368 -2.49857 0.0385225 4
1.06478 30.491 -2.66924 0.0338203 1
1.1302 32.3643 -1.69717 0.452757 10
1.13015 32.363 -0.565243 0.453326 10
1.13011 32.3618 0.565221 0.453343 10
1.13007 32.3606 1.69698 0.35306 10
1.13002 32.3593 2.8328 0.352213 10
1.12998 32.3581 3.9755 0.350936 10
1.12994 32.3569 5.12795 0.349232 10
1.12989 32.3556 6.29312 0.347102 10
1.12985 32.3543 7.47413 0.34455 10
1.1298 32.353 8.67425 0.341578 10
0.313032 9.96083 -2.67031 0.0174328 4
0.362911 11.548 -2.66737 0.0287675 4
0.430391 13.6952 -2.6634 0.0106637 4
0.51708 16.4537 -2.6073 0.172383 4
0.639193 20.3394 -2.4986 0.0405195 4
0.958349 30.4951 -2.66929 0.0338197 1
1.01125 32.1784 -1.68723 0.455424 10
1.01121 32.1772 -0.561932 0.455997 10
1.01117 32.176 0.561911 0.456014 10
1.01114 32.1748 1.68704 0.35514 10
1.0111 32.1735 2.81621 0.354288 10
1.01106 32.1723 3.95221 0.353004 10
1.01102 32.1711 5.09791 0.351289 10
1.01098 32.1698 6.25627 0.349147 10
1.01094 32.1686 7.43036 0.34658 10
1.0109 32.1673 8.62345 0.34359 10
0.278265 9.96192 -2.67033 0.0498936 4
0.322603 11.5492 -2.66739 0.0230138 4
0.382589 13.6968 -2.66342 0.0493194 4
0.457226 16.3688 -2.59357 0.125363 4
0.568203 20.3418 -2.49863 0.0359534 4
0.851917 30.4988 -2.66934 0.0338191 1
0.893703 31.9947 -1.67743 0.458086 10
0.893669 31.9935 -0.558667 0.458662 10
0.893636 31.9923 0.558645 0.45868 10
0.893602 31.9911 1.67724 0.357216 10
0.893569 31.9899 2.79985 0.356358 10
0.893535 31.9887 3.92925 0.355067 10
0.893501 31.9875 5.0683 0.353342 10
0.893466 31.9862 6.21992 0.351187 10
0.893431 31.985 7.3872 0.348605 10
0.893396 31.9837 8.57335 0.345597 10
0.243488 9.96289 -2.67035 0.0661237 4
0.282286 11.5504 -2.66741 0.0219676 4
0.334776 13.6981 -2.66344 0.0222158 4
0.39799 16.2847 -2.58001 0.166793 4
0.497195 20.3439 -2.49866 0.0405184 4
0.745457 30.5021 -2.66939 0.0338185 1
0.777497 31.8131 -1.66775 0.460743 10
0.777468 31.8119 -0.555446 0.461322 10
0.777439 31.8108 0.555424 0.46134 10
0.77741 31.8096 1.66757 0.359287 10
0.777381 31.8084 2.7837 0.358425 10
0.777352 31.8072 3.9066 0.357125 10
0.777323 31.806 5.03908 0.355391 10
0.777293 31.8048 6.18406 0.353224 10
0.777263 31.8035 7.34461 0.350626 10
0.777232 31.8023 8.52394 0.347601 10
0.208713 9.96374 -2.67036 0.0186347 4
0.24197 11.5514 -2.66743 0.0376585 4
0.286963 13.6993 -2.66347 0.0208826 4
0.339377 16.2015 -2.56663 0.155244 4
0.426188 20.3458 -2.4987 0.0388059 4
0.638998 30.5051 -2.66944 0.0338178 1
0.662638 31.6337 -1.65821 0.463394 10
0.662614 31.6325 -0.552268 0.463976 10
0.662589 31.6313 0.552247 0.463994 10
0.662565 31.6301 1.65803 0.361354 10
0.66254 31.629 2.76778 0.360487 10
0.662515 31.6278 3.88426 0.35918 10
0.66249 31.6266 5.01026 0.357435 10
0.662465 31.6254 6.1487 0.355255 10
0.66244 31.6242 7.30262 0.352643 10
0.662413 31.6229 8.47519 0.3496 10
0.17393 9.96447 -2.67038 0.025848 4
0.201645 11.5522 -2.66745 0.016737 4
0.239141 13.7004 -2.66349 0.0351003 4
0.28136 16.1191 -2.5534 0.149806 4
0.355165 20.3474 -2.49873 0.0396613 4
0.532514 30.5077 -2.66949 0.0338172 1
0.549069 31.4562 -1.6488 0.46604 10
0.549049 31.455 -0.549133 0.466625 10
0.549029 31.4539 0.549113 0.466642 10
0.549008 31.4527 1.64862 0.363417 10
0.548988 31.4516 2.75207 0.362544 10
0.548968 31.4504 3.86221 0.36123 10
0.548947 31.4492 4.98182 0.359475 10
0.548926 31.448 6.1138 0.357283 10
0.548905 31.4468 7.26117 0.354655 10
0.548884 31.4456 8.4271 0.351595 10
0.13915 9.96508 -2.6704 0.0336623 4
0.161322 11.553 -2.66747 0.0763619 4
0.19132 13.7012 -2.66351 0.0186607 4
0.224498 16.0773 -2.54664 0.0489152 4
0.284145 20.3488 -2.49876 0.026821 4
0.426033 30.51 -2.66954 0.0338165 1
0.436796 31.2808 -1.63952 0.468679 10
0.43678 31.2796 -0.546041 0.469268 10
0.436764 31.2785 0.546021 0.469285 10
0.436748 31.2773 1.63933 0.365475 10
0.436732 31.2762 2.73658 0.364597 10
0.436716 31.275 3.84046 0.363275 10
0.436699 31.2738 4.95377 0.361511 10
0.436683 31.2727 6.07938 0.359306 10
0.436666 31.2715 7.22029 0.356663 10
0.436649 31.2703 8.37966 0.353586 10
0.104362 9.96557 -2.67041 0.0198366 4
0.120992 11.5535 -2.66749 0.00732232 4
0.143491 13.7019 -2.66354 0.0217707 4
0.168375 16.0781 -2.54666 0.0434392 4
0.213111 20.35 -2.4988 0.0356657 4
0.319529 30.5119 -2.66959 0.0338159 1
0.325764 31.1073 -1.63035 0.471313 10
0.325752 31.1061 -0.542989 0.471905 10
0.32574 31.105 0.542969 0.471922 10
0.325728 31.1039 1.63017 0.367529 10
0.325716 31.1027 2.72128 0.366646 10
0.325704 31.1016 3.819 0.365317 10
0.325692 31.1004 4.92609 0.363542 10
0.32568 31.0993 6.04541 0.361325 10
0.325668 31.0981 7.17995 0.358667 10
0.325655 31.0969 8.33284 0.355573 10
0.0695778 9.96594 -2.67043 0.0108199 4
0.0806648 11.554 -2.66751 0.0209208 4
0.0956648 13.7025 -2.66356 0.0155503 4
0.112255 16.0788 -2.54669 0.0390583 4
0.142081 20.3509 -2.49883 0.0142661 4
0.213031 30.5134 -2.66964 0.0338152 1
0.217419 31.1419 -1.63212 0.752005 10
0.217402 31.1395 -0.543556 0.752979 10
0.217386 31.1372 0.543514 0.753036 10
0.21737 31.1348 1.63175 0.58648 10
0.217353 31.1325 2.7238 0.585094 10
0.217337 31.1301 3.82239 0.582996 10
0.21732 31.1277 4.93027 0.580187 10
0.217303 31.1253 6.05029 0.576671 10
0.217286 31.1228 7.18545 0.572453 10
0.217269 31.1204 8.33888 0.567537 10
0.0347921 9.96619 -2.67045 0.0168308 4
0.0403361 11.5543 -2.66753 0.0491634 4
0.0478369 13.7029 -2.66358 0.0226589 4
0.0585841 16.7814 -2.65793 0.0372327 4
0.0763558 21.8721 -2.68557 0.0470032 1
0.106527 30.5146 -2.6697 0.0338146 1
0.108959 31.2113 -1.63572 0.750346 10
0.108951 31.2089 -0.544757 0.751318 10
0.108943 31.2066 0.544716 0.751375 10
0.108934 31.2042 1.63535 0.585186 10
0.108926 31.2018 2.72982 0.583804 10
0.108918 31.1995 3.83084 0.58171 10
0.108909 31.1971 4.94116 0.578907 10
0.108901 31.1946 6.06366 0.5754 10
0.108892 31.1922 7.20133 0.571191 10
0.108884 31.1897 8.3573 0.566286 10
7.52436e-07 9.96631 -2.67047 0.0384702 4
8.72335e-07 11.5544 -2.66755 0.0319037 4
1.03455e-06 13.7031 -2.66361 0.0568688 4
1.26698e-06 16.7817 -2.65796 0.015331 4
1.65133e-06 21.8725 -2.68561 0.0470025 1
2.30385e-06 30.5154 -2.66975 0.0338139 1
2.36165e-06 31.281 -1.63937 0.748677 10
2.36147e-06 31.2787 -0.545971 0.749648 10
2.36129e-06 31.2763 0.545929 0.749704 10
2.36112e-06 31.2739 1.639 0.583885 10
2.36094e-06 31.2715 2.7359 0.582506 10
2.36076e-06 31.2692 3.83937 0.580417 10
2.36057e-06 31.2667 4.95217 0.577621 10
2.36039e-06 31.2643 6.07717 0.574121 10
2.3602e-06 31.2618 7.21736 0.569921 10
2.36001e-06 31.2593 8.37591 0.565028 10
-0.0347863 9.96632 -2.67048 0.0390711 4
-0.0403295 11.5545 -2.66757 0.0266734 4
-0.0478292 13.7031 -2.66363 0.00666425 4
-0.0585749 16.7818 -2.65799 0.0317566 4
-0.0763443 21.8727 -2.68565 0.0470018 1
-0.106224 30.4333 -2.66259 0.4806 10
-0.109427 31.3511 -1.64305 0.747 10
-0.109419 31.3487 -0.547197 0.747968 10
-0.109411 31.3463 0.547155 0.748025 10
-0.109402 31.3439 1.64268 0.582578 10
-0.109394 31.3415 2.74205 0.581201 10
-0.109386 31.3391 3.84799 0.579117 10
-0.109377 31.3367 4.96328 0.576327 10
-0.109369 31.3343 6.0908 0.572835 10
-0.10936 31.3318 7.23356 0.568646 10
-0.109351 31.3293 8.3947 0.563763 10
-0.0695782 9.96621 -2.6705 0.0264479 4
-0.0806655 11.5543 -2.66759 0.0355642 4
-0.0956662 13.703 -2.66366 0.00621991 4
-0.11716 16.7817 -2.65802 0.0565772 4
-0.152702 21.8727 -2.68569 0.0470011 1
-0.211321 30.2691 -2.64827 0.483199 10
-0.219366 31.4214 -1.64677 0.745314 10
-0.219349 31.419 -0.548435 0.74628 10
-0.219333 31.4167 0.548393 0.746336 10
-0.219316 31.4143 1.64639 0.581263 10
-0.219299 31.4119 2.74825 0.57989 10
-0.219282 31.4095 3.85669 0.57781 10
-0.219265 31.407 4.97451 0.575027 10
-0.219248 31.4046 6.10458 0.571543 10
-0.219231 31.4021 7.24992 0.567362 10
-0.219213 31.3995 8.41369 0.562491 10
-0.104365 9.96597 -2.67052 0.0114206 4
-0.120996 11.5541 -2.66761 0.0491619 4
-0.143496 13.7027 -2.66368 0.0244351 4
-0.175736 16.7813 -2.65805 0.0310259 4
-0.22905 21.8723 -2.68573 0.0470004 1
-0.315281 30.1066 -2.63414 0.485791 10
-0.146725 14.011 -0.734327 0.109934 8
-0.329764 31.4897 -0.549685 0.744582 10
-0.329739 31.4873 0.549643 0.744639 10
-0.329714 31.4849 1.65015 0.579941 10
-0.329689 31.4825 2.75451 0.578571 10
-0.329663 31.4801 3.86548 0.576496 10
-0.329638 31.4776 4.98584 0.573719 10
-0.329612 31.4752 6.11849 0.570243 10
-0.329586 31.4727 7.26644 0.566073 10
-0.329559 31.4701 8.43286 0.561212 10
-0.139156 9.96562 -2.67054 0.0276497 4
-0.161331 11.5537 -2.66764 0.0271957 4
-0.191332 13.7023 -2.66371 0.0239906 4
-0.23432 16.7808 -2.65808 0.0240904 4
-0.305407 21.8717 -2.68577 0.0469997 1
-0.418152 29.9459 -2.62018 0.488378 10
-0.195809 14.0228 -0.734976 0.328367 8
-0.440701 31.5607 -0.550948 0.742875 10
-0.440667 31.5583 0.550906 0.742932 10
-0.440633 31.5559 1.65394 0.578612 10
-0.440599 31.5535 2.76084 0.577245 10
-0.440565 31.551 3.87436 0.575175 10
-0.440531 31.5486 4.99729 0.572405 10
-0.440496 31.5461 6.13254 0.568937 10
-0.440461 31.5436 7.28312 0.564776 10
-0.440426 31.541 8.45222 0.559927 10
-0.17394 9.96514 -2.67056 0.0258463 4
-0.201659 11.5531 -2.66766 0.0470691 4
-0.239161 13.7016 -2.66373 0.0204363 4
-0.29256 16.7609 -2.65508 0.145215 4
-0.381753 21.8709 -2.68581 0.046999 1
-0.519926 29.7869 -2.60641 0.490959 10
-0.24532 14.0545 -0.736677 0.335793 8
-0.245301 14.0534 -0.245341 0.383704 8
-0.552092 31.6296 0.552181 0.741217 10
-0.552049 31.6272 1.65776 0.577276 10
-0.552007 31.6248 2.76723 0.575912 10
-0.551964 31.6223 3.88332 0.573847 10
-0.551921 31.6199 5.00886 0.571083 10
-0.551877 31.6174 6.14673 0.567624 10
-0.551834 31.6148 7.29997 0.563472 10
-0.551789 31.6123 8.47177 0.558634 10
-0.208728 9.96454 -2.67058 0.0186332 4
-0.241991 11.5525 -2.66768 0.0219654 4
-0.286993 13.7009 -2.66376 0.0364295 4
-0.349534 16.6865 -2.64346 0.153397 4
-0.458107 21.8697 -2.68585 0.0469982 1
-0.620652 29.6295 -2.59281 0.493534 10
-0.295068 14.0863 -0.738396 0.348997 8
-0.295045 14.0853 -0.245913 0.395263 8
-0.66405 31.7013 0.553469 0.739492 10
-0.586872 28.0169 1.46862 0.575942 10
-0.586827 28.0147 2.45151 0.574582 10
-0.586782 28.0125 3.44026 0.572522 10
-0.663844 31.6915 5.02054 0.569755 10
-0.586689 28.0081 5.44542 0.56631 10
-0.586642 28.0059 6.46709 0.562168 10
-0.586577 28.0027 7.50496 0.373253 10
-0.243509 9.96383 -2.6706 0.0138246 4
-0.282315 11.5516 -2.6677 0.0481143 4
-0.3367 13.777 -2.67877 0.0300791 4
-0.406002 16.6126 -2.63197 0.180587 4
-0.534448 21.8683 -2.6859 0.0469975 1
-0.720319 29.4737 -2.57939 0.496102 10
-0.345043 14.1183 -0.740131 0.358482 8
-0.345016 14.1172 -0.246491 0.39732 8
-0.776518 31.7732 0.554769 0.737758 10
-0.686269 28.0805 1.47207 0.574592 10
-0.686216 28.0783 2.45727 0.573235 10
-0.686162 28.0761 3.44834 0.57118 10
-0.776277 31.7634 5.03233 0.56842 10
-0.686054 28.0717 5.45821 0.564982 10
-0.685999 28.0694 6.48228 0.560851 10
-0.680773 27.8556 7.46612 0.375195 10
-0.278288 9.96299 -2.67062 0.0228404 4
-0.322636 11.5507 -2.66772 0.0167353 4
-0.387091 13.8582 -2.69482 0.0290919 4
-0.461982 16.5394 -2.62061 0.188979 4
-0.610785 21.8667 -2.68594 0.0469967 1
-0.81896 29.3196 -2.56613 0.498665 10
-0.395254 14.1505 -0.741884 0.368041 8
-0.395223 14.1494 -0.247075 0.389726 8
-0.889517 31.8456 0.556083 0.736015 10
-0.786134 28.1444 1.47556 0.573235 10
-0.786074 28.1422 2.46308 0.571882 10
-0.786012 28.14 3.45651 0.569831 10
-0.791955 28.3528 4.49239 0.385588 10
-0.785888 28.1356 5.47113 0.563648 10
-0.785825 28.1333 6.49761 0.559527 10
-0.774001 27.71 7.42776 0.377132 10
-0.313069 9.96203 -2.67064 0.0258455 4
-0.36296 11.5496 -2.66775 0.018827 4
-0.436384 13.886 -2.7005 0.0731855 1
-0.517489 16.4668 -2.60937 0.165592 4
-0.687127 21.8648 -2.68598 0.046996 1
-0.916608 29.167 -2.55304 0.501222 10
-0.44571 14.1828 -0.743654 0.377676 8
-0.445676 14.1817 -0.247664 0.382027 8
-1.00307 31.9182 0.557409 0.734264 10
-0.886476 28.2082 1.47906 0.250128 10
-0.88642 28.2064 2.46896 0.570521 10
-0.886351 28.2042 3.46475 0.568476 10
-0.886384 28.2052 4.46948 0.387564 10
-0.886211 28.1997 5.48418 0.562307 10
-0.886139 28.1975 6.51311 0.558195 10
-0.867944 27.6185 7.404 0.178427 10
-0.347841 9.96095 -2.67066 0.0246432 4
-0.403274 11.5483 -2.66777 0.00941342 4
-0.484854 13.8845 -2.70052 0.0731847 1
-0.496312 14.2126 -2.25243 0.454458 8
-0.496295 14.2121 -1.7461 0.456729 8
-0.496278 14.2117 -1.24412 0.458444 8
-0.496261 14.2112 -0.74523 0.4596 8
-0.496244 14.2107 -0.2482 0.460197 8
-1.11715 31.9912 0.558749 0.732503 10
-0.984092 28.1809 1.4778 0.251401 10
-0.984058 28.18 2.46693 0.250797 10
-0.984024 28.179 3.46205 0.249886 10
-0.979843 28.0592 4.44686 0.389536 10
-0.983956 28.177 5.4804 0.247155 10
-0.983921 28.176 6.50891 0.245337 10
-0.964332 27.6151 7.40395 0.178428 10
-0.382615 9.95975 -2.67068 0.0408714 4
-0.44359 11.547 -2.66779 0.0695541 4
-0.528989 13.77 -2.67859 0.011305 4
-0.545849 14.2089 -2.25212 0.315381 8
-0.545806 14.2077 -1.74578 0.316943 8
-0.545763 14.2066 -1.24383 0.318119 8
-0.54572 14.2055 -0.745028 0.318907 8
-0.545678 14.2044 -0.248122 0.319307 8
-1.2318 32.0646 0.560102 0.730734 10
-1.07237 27.9147 4.42451 0.391503 10
-1.06072 27.6113 7.40389 0.17843 10
-0.41738 9.95843 -2.6707 0.0408711 4
-0.483895 11.5455 -2.66782 0.0339923 4
-0.57389 13.6927 -2.66392 0.0213233 4
-0.681173 16.2524 -2.57638 0.13933 4
-0.916094 21.8574 -2.68611 0.0469937 1
-1.20365 28.7184 -2.51474 0.508855 10
-0.598531 14.2806 -0.749071 0.408989 8
-0.598484 14.2795 -0.249468 0.360282 8
-1.34699 32.1383 0.561469 0.728955 10
-1.16397 27.7716 4.40245 0.393465 10
-1.15708 27.6072 7.40383 0.178431 10
-0.452145 9.95699 -2.67072 0.0126219 4
-0.524201 11.5438 -2.66784 0.0585708 4
-0.621693 13.6907 -2.66395 0.0706326 4
-0.734823 16.182 -2.56562 0.163233 4
-0.992407 21.8545 -2.68616 0.0469929 1
-1.29744 28.5719 -2.50229 0.511387 10
-0.649973 14.3135 -0.750912 0.401143 8
-0.649923 14.3124 -0.250081 0.354161 8
-1.46276 32.2124 0.562849 0.727168 10
-1.25467 27.6299 4.38065 0.395422 10
-1.25344 27.6028 7.40377 0.178433 10
-0.4869 9.95543 -2.67074 0.0366632 4
-0.564496 11.542 -2.66787 0.0277163 4
-0.669483 13.6886 -2.66398 0.053307 4
-0.788019 16.1123 -2.55498 0.175621 4
-1.0687 21.8513 -2.6862 0.0469921 1
-1.39293 28.4806 -2.49471 0.0791891 10
-0.701663 14.3466 -0.752772 0.393195 8
-0.701608 14.3455 -0.2507 0.345968 8
-1.57909 32.2869 0.564243 0.725372 10
-1.35046 27.6122 1.44882 0.360644 10
-1.35035 27.61 2.41845 0.359793 10
-1.35024 27.6078 3.39387 0.358504 10
-1.34446 27.4896 4.35913 0.397375 10
-1.35011 27.605 5.37229 0.252128 10
-1.35006 27.6041 6.38052 0.250273 10
-1.34432 27.4867 7.37385 0.248113 10
-0.521655 9.95375 -2.67076 0.0246423 4
-0.60479 11.5401 -2.66789 0.0454962 4
-0.717273 13.6864 -2.66401 0.0319839 4
-0.841695 16.0605 -2.54722 0.0514587 4
-1.145 21.8478 -2.68625 0.0469913 1
-1.49238 28.4762 -2.49477 0.0791872 10
-0.753617 14.3798 -0.75465 0.387141 8
-0.753558 14.3787 -0.251326 0.337674 8
-1.69601 32.3617 0.56565 0.723566 10
-1.40119 26.7362 1.40311 0.403706 10
-1.40114 26.7353 2.34224 0.402735 10
-1.40109 26.7344 3.28707 0.401273 10
-1.43339 27.3507 4.33787 0.399323 10
-1.401 26.7326 5.20342 0.396886 10
-1.40095 26.7316 6.17996 0.393965 10
-1.4009 26.7307 7.1723 0.390565 10
-0.556399 9.95195 -2.67078 0.0288493 4
-0.645073 11.538 -2.66792 0.0156882 4
-0.765049 13.6839 -2.66404 0.0284298 4
-0.89776 16.0576 -2.54725 0.043794 4
-1.22127 21.844 -2.6863 0.0469905 1
-1.5918 28.4715 -2.49483 0.0791853 10
-0.805825 14.4133 -0.756547 0.378998 8
-0.805762 14.4121 -0.251958 0.329278 8
-1.8135 32.4369 0.567072 0.721753 10
-1.49535 26.7463 1.4039 0.562118 10
-1.49523 26.7442 2.34347 0.560791 10
-1.49511 26.7421 3.28864 0.558782 10
-1.52145 27.2131 4.31687 0.401266 10
-1.49487 26.7377 5.20541 0.552724 10
-1.49475 26.7356 6.18203 0.548683 10
-1.49462 26.7333 7.17436 0.543973 10
-0.591137 9.95002 -2.6708 0.0198337 4
-0.685348 11.5358 -2.66794 0.0465412 4
-0.812816 13.6813 -2.66407 0.0235432 4
-0.953816 16.0546 -2.54729 0.0514573 4
-1.29753 21.84 -2.68634 0.0469897 1
-1.69121 28.4665 -2.49489 0.0791833 10
-0.858297 14.4469 -0.758462 0.370754 8
-1.93174 32.515 -0.568553 0.719874 10
-1.93159 32.5125 0.568507 0.71993 10
-1.59272 26.8086 1.40746 0.560698 10
-1.59259 26.8065 2.3494 0.559376 10
-1.59246 26.8043 3.29696 0.557371 10
-1.60865 27.0769 4.29612 0.403203 10
-1.59221 26.8 5.21858 0.551329 10
-1.59207 26.7978 6.19767 0.547298 10
-1.59194 26.7956 7.19251 0.5426 10
-0.625873 9.94798 -2.67082 0.0234397 4
-0.725621 11.5334 -2.66797 0.0115045 4
-0.860581 13.6786 -2.6641 0.00977253 4
-1.00987 16.0514 -2.54732 0.0503618 4
-1.37379 21.8357 -2.68639 0.0469888 1
-1.79062 28.4611 -2.49495 0.0791814 10
-2.05061 32.5936 -1.71153 0.71711 10
-2.05045 32.591 -0.570003 0.718042 10
-2.05029 32.5884 0.569957 0.718099 10
-1.69059 26.8712 1.41105 0.559272 10
-1.69046 26.8691 2.35539 0.557953 10
-1.69032 26.867 3.30537 0.555954 10
-1.69504 26.9419 4.27562 0.405137 10
-1.69005 26.8626 5.23189 0.549927 10
-1.68991 26.8604 6.21347 0.545906 10
-1.68977 26.8581 7.21084 0.54122 10
-0.660598 9.94582 -2.67085 0.0306516 4
-1.06709 16.0659 -2.5502 0.274639 4
-1.45002 21.8312 -2.68644 0.046988 1
-1.89 28.4554 -2.49501 0.0791794 10
-2.16993 32.6699 -1.71593 0.715273 10
-2.16975 32.6674 -0.571467 0.716202 10
-2.16958 32.6648 0.571422 0.716259 10
-1.78077 26.8109 1.4082 0.411533 10
-1.78071 26.81 2.35074 0.410543 10
-1.78065 26.8091 3.299 0.409053 10
-1.7806 26.8083 4.25537 0.407065 10
-1.78054 26.8074 5.2223 0.40458 10
-1.78048 26.8065 6.20239 0.401603 10
-1.78041 26.8055 7.19834 0.398136 10
-0.69532 9.94353 -2.67087 0.0222373 4
-0.806137 11.5283 -2.66802 0.0747775 4
-0.956076 13.6725 -2.66416 0.018212 4
-1.12574 16.0988 -2.55603 0.237822 4
-1.52625 21.8264 -2.68649 0.0469872 1
-1.98937 28.4494 -2.49507 0.0791774 10
-2.28987 32.7467 -1.72037 0.713426 10
-2.28969 32.7441 -0.572946 0.714353 10
-2.28951 32.7415 0.5729 0.71441 10
-1.86554 26.6785 1.40157 0.413478 10
-1.86548 26.6776 2.33969 0.412483 10
-1.86542 26.6767 3.28349 0.410986 10
-1.86536 26.6758 4.23536 0.408988 10
-1.86529 26.6749 5.19775 0.406492 10
-1.86523 26.674 6.17323 0.4035 10
-1.86517 26.6731 7.1645 0.400017 10
-0.730029 9.94113 -2.67089 0.0402671 4
-0.846379 11.5255 -2.66804 0.0329436 4
-1.0038 13.6693 -2.66419 0.0879497 4
-1.18465 16.1318 -2.56191 0.28026 4
-1.60245 21.8213 -2.68654 0.0469863 1
-2.01575 27.4494 -2.40798 0.531415 10
-2.41043 32.8239 -1.72486 0.711571 10
-2.41024 32.8213 -0.57444 0.712495 10
-2.41004 32.8187 0.574394 0.712552 10
-1.9495 26.5473 1.39503 0.415417 10
-1.94944 26.5464 2.32876 0.414418 10
-1.94938 26.5456 3.26816 0.412914 10
-1.94931 26.5447 4.21558 0.410906 10
-1.94925 26.5438 5.17348 0.408398 10
-1.94918 26.5429 6.14441 0.405392 10
-1.94912 26.542 7.13106 0.401893 10
-0.764735 9.9386 -2.67091 0.0697156 4
-0.886618 11.5226 -2.66807 0.0507222 4
-1.05153 13.6658 -2.66422 0.0892812 4
-1.24383 16.165 -2.56786 0.226434 4
-1.67865 21.816 -2.68658 0.0469854 1
-2.10178 27.315 -2.39682 0.53389 10
-2.53163 32.9015 -1.72939 0.709706 10
-2.53143 32.8988 -0.575949 0.710629 10
-2.53123 32.8962 0.575902 0.710686 10
-2.0327 26.4173 1.38856 0.417352 10
-2.03264 26.4164 2.31797 0.416348 10
-2.03257 26.4156 3.25301 0.414836 10
-2.0325 26.4147 4.19605 0.412819 10
-2.03244 26.4138 5.14951 0.4103 10
-2.03237 26.413 6.11594 0.40728 10
-2.0323 26.4121 7.09801 0.403764 10
-0.799427 9.93596 -2.67094 0.0438724 4
-0.926841 11.5196 -2.6681 0.0292826 4
-1.09924 13.6622 -2.66425 0.0959429 4
-1.30328 16.1983 -2.57385 0.255001 4
-1.75482 21.8104 -2.68663 0.0469846 1
-2.18699 27.1818 -2.38579 0.536358 10
-2.6404 32.8172 -1.72543 0.537687 10
-2.64032 32.8161 -0.574659 0.53836 10
-2.64023 32.8151 0.57464 0.538377 10
-2.11512 26.2885 1.38217 0.419281 10
-2.11505 26.2877 2.3073 0.418272 10
-2.11498 26.2868 3.23805 0.416754 10
-2.11491 26.286 4.17674 0.414728 10
-2.11485 26.2851 5.12582 0.412196 10
-2.11477 26.2842 6.0878 0.409162 10
-2.1147 26.2833 7.06536 0.40563 10
-0.83411 9.93319 -2.67096 0.0492809 4
-0.967053 11.5164 -2.66812 0.0141183 4
-1.14693 13.6585 -2.66428 0.0870583 4
-1.36301 16.2317 -2.5799 0.242451 4
-1.83097 21.8045 -2.68668 0.0469837 1
-2.27143 27.0499 -2.37489 0.53882 10
-2.75696 32.832 -1.72671 0.705952 10
-2.75674 32.8293 -0.575055 0.70687 10
-2.75652 32.8267 0.575008 0.706927 10
-2.19678 26.1609 1.37586 0.421205 10
-2.19671 26.1601 2.29676 0.420192 10
-2.19664 26.1592 3.22325 0.418666 10
-2.19657 26.1584 4.15766 0.41663 10
-2.1965 26.1575 5.1024 0.414087 10
-2.19643 26.1567 6.06 0.41104 10
-2.19635 26.1558 7.03309 0.407491 10
-0.868788 9.93031 -2.67098 0.0228373 4
-1.00726 11.513 -2.66815 0.0501978 4
-1.19462 13.6546 -2.66432 0.0875014 4
-1.42303 16.2653 -2.58601 0.155006 4
-1.90711 21.7984 -2.68674 0.0469828 1
-2.35512 26.9191 -2.36411 0.541276 10
-2.87927 32.9102 -1.73134 0.704062 10
-2.87904 32.9076 -0.576598 0.704978 10
-2.87881 32.9049 0.576552 0.705035 10
-2.27772 26.0345 1.36962 0.423124 10
-2.27765 26.0336 2.28635 0.422106 10
-2.27757 26.0328 3.20864 0.420574 10
-2.2775 26.032 4.13881 0.418529 10
-2.27742 26.0311 5.07926 0.415974 10
-2.27735 26.0303 6.03251 0.412912 10
-2.27727 26.0294 7.00119 0.409347 10
-0.903452 9.9273 -2.67101 0.0432703 4
-1.04745 11.5096 -2.66818 0.0679755 4
-1.24229 13.6505 -2.66435 0.0279823 4
-1.48332 16.299 -2.59218 0.232806 4
-1.98323 21.7921 -2.68679 0.0469819 1
-2.43803 26.7895 -2.35347 0.543724 10
-3.00222 32.9889 -1.73602 0.702164 10
-3.00198 32.9863 -0.578157 0.703077 10
-3.00173 32.9836 0.57811 0.703134 10
-2.35791 25.9092 1.36345 0.425038 10
-2.35784 25.9083 2.27605 0.424015 10
-2.35776 25.9075 3.19419 0.422476 10
-2.35769 25.9067 4.12017 0.420421 10
-2.35761 25.9058 5.0564 0.417855 10
-2.35753 25.905 6.00535 0.414779 10
-2.35745 25.9041 6.96968 0.411199 10
-0.93811 9.92418 -2.67103 0.0246398 4
-1.08763 11.506 -2.6682 0.0214382 4
-1.28995 13.6462 -2.66438 0.00843902 4
-1.54391 16.3328 -2.5984 0.21021 4
-2.05933 21.7854 -2.68684 0.046981 1
-2.52022 26.6611 -2.34294 0.546166 10
-3.14736 33.2956 -1.75273 0.700257 10
-3.1471 33.2929 -0.58372 0.701168 10
-3.14685 33.2902 0.583672 0.701224 10
-2.4374 25.785 1.35736 0.426947 10
-2.43732 25.7842 2.26588 0.425919 10
-2.43724 25.7833 3.17991 0.424373 10
-2.43716 25.7825 4.10175 0.422309 10
-2.43709 25.7817 5.03379 0.419731 10
-2.43701 25.7808 5.97851 0.416642 10
-2.43693 25.78 6.93852 0.413045 10
-0.972753 9.92093 -2.67105 0.0763226 4
-1.1278 11.5022 -2.66823 0.042876 4
-1.33759 13.6418 -2.66441 0.0270933 4
-1.60478 16.3668 -2.60468 0.214777 4
-2.1354 21.7785 -2.68689 0.0469801 1
-2.60166 26.5339 -2.33254 0.548601 10
-3.27251 33.3757 -1.75753 0.698341 10
-3.27224 33.373 -0.585321 0.69925 10
-3.27197 33.3703 0.585273 0.699307 10
-2.51616 25.6619 1.35133 0.42885 10
-2.51609 25.6611 2.25582 0.427818 10
-2.51601 25.6603 3.1658 0.426265 10
-2.51593 25.6595 4.08355 0.424192 10
-2.51585 25.6586 5.01145 0.421602 10
-2.51576 25.6578 5.95198 0.418499 10
-2.51568 25.657 6.90773 0.414886 10
-1.00739 9.91756 -2.67108 0.0330528 4
-1.16796 11.4983 -2.66826 0.0193463 4
-1.66595 16.4009 -2.61102 0.231126 4
-2.21145 21.7714 -2.68694 0.0469792 1
-2.6824 26.4077 -2.32226 0.55103 10
-3.39836 33.4562 -1.76239 0.696417 10
-3.39808 33.4535 -0.586938 0.697323 10
-3.39781 33.4508 0.58689 0.69738 10
-2.60825 25.6778 1.35264 0.543138 10
-2.60804 25.6757 2.25789 0.541858 10
-2.60782 25.6735 3.16854 0.539918 10
-2.60761 25.6714 4.08687 0.53732 10
-2.60739 25.6693 5.01527 0.534067 10
-2.60717 25.6671 5.9562 0.530164 10
-2.60694 25.6649 6.91227 0.525614 10
-1.04201 9.91408 -2.6711 0.065504 4
-1.2081 11.4943 -2.66829 0.0366007 4
-1.7274 16.4352 -2.61742 0.215415 4
-2.28748 21.7639 -2.687 0.0469783 1
-2.76241 26.2827 -2.3121 0.553452 10
-3.5249 33.5372 -1.76729 0.694485 10
-3.52461 33.5345 -0.588571 0.695389 10
-3.52432 33.5318 0.588523 0.695445 10
-2.70537 25.7399 1.3564 0.541631 10
-2.70515 25.7378 2.26417 0.540355 10
-2.70492 25.7357 3.17735 0.53842 10
-2.7047 25.7335 4.09824 0.535829 10
-2.70447 25.7314 5.02922 0.532586 10
-2.70424 25.7292 5.97277 0.528693 10
-2.70401 25.7269 6.93149 0.524157 10
-1.07662 9.91047 -2.67113 0.0186294 4
-1.24823 11.4901 -2.66832 0.0292802 4
-1.48043 13.6276 -2.66451 0.0213186 4
-1.78917 16.4696 -2.62388 0.214885 4
-2.36349 21.7563 -2.68705 0.0469773 1
-2.84175 26.1587 -2.30205 0.555867 10
-3.65216 33.6187 -1.77225 0.692543 10
-3.65186 33.6159 -0.590221 0.693445 10
-3.65156 33.6132 0.590172 0.693502 10
-2.80304 25.8024 1.3602 0.540117 10
-2.80281 25.8003 2.27051 0.538845 10
-2.80258 25.7981 3.18625 0.536916 10
-2.80234 25.796 4.10972 0.534332 10
-2.80211 25.7938 5.04331 0.531098 10
-2.80187 25.7916 5.9895 0.527217 10
-2.80163 25.7894 6.9509 0.522693 10
-1.11122 9.90674 -2.67115 0.0474745 4
-1.28834 11.4858 -2.66834 0.00784283 4
-1.528 13.6225 -2.66455 0.0124357 4
-1.85123 16.5041 -2.63039 0.197606 4
-2.43946 21.7483 -2.6871 0.0469764 1
-2.92038 26.0358 -2.29212 0.558276 10
-3.78012 33.7006 -1.77725 0.690594 10
-3.77981 33.6978 -0.591887 0.691493 10
-3.7795 33.6951 0.591838 0.69155 10
-2.90125 25.8652 1.36404 0.538597 10
-2.90101 25.8631 2.27692 0.537329 10
-2.90077 25.861 3.19524 0.535405 10
-2.90053 25.8588 4.12132 0.532829 10
-2.90028 25.8566 5.05754 0.529604 10
-2.90003 25.8544 6.00639 0.525734 10
-2.89978 25.8522 6.97051 0.521223 10
-1.1458 9.9029 -2.67118 0.0108169 4
-1.32844 11.4814 -2.66837 0.00784275 4
-1.57556 13.6172 -2.66458 0.0541833 4
-1.9136 16.5388 -2.63697 0.258919 4
-2.51541 21.7401 -2.68716 0.0469754 1
-2.99834 25.914 -2.28231 0.560677 10
-3.90881 33.783 -1.7823 0.688636 10
-3.90849 33.7802 -0.593569 0.689533 10
-3.90817 33.7774 0.59352 0.68959 10
-3.00001 25.9284 1.36792 0.537071 10
-2.99977 25.9263 2.28339 0.535806 10
-2.99952 25.9242 3.20432 0.533888 10
-2.99927 25.922 4.13303 0.531319 10
-2.99901 25.9198 5.07191 0.528103 10
-2.99875 25.9176 6.02346 0.524244 10
-2.99849 25.9153 6.99031 0.519746 10
-1.18038 9.89893 -2.6712 0.0294457 4
-1.36853 11.4768 -2.6684 0.0376448 4
-1.62311 13.6118 -2.66462 0.0315325 4
-1.97629 16.5737 -2.64361 0.223278 4
-2.59134 21.7316 -2.68721 0.0469745 1
-3.07565 25.7932 -2.2726 0.563072 10
-4.03825 33.8658 -1.78741 0.68667 10
-4.03792 33.863 -0.595269 0.687564 10
-4.03759 33.8602 0.595219 0.687621 10
-3.09936 25.992 1.37183 0.535538 10
-3.0991 25.9899 2.28993 0.534276 10
-3.09884 25.9877 3.21349 0.532364 10
-3.09858 25.9855 4.14486 0.529803 10
-3.09832 25.9833 5.08642 0.526596 10
-3.09805 25.9811 6.04069 0.522748 10
-3.09778 25.9788 7.01031 0.518263 10
-1.21493 9.89485 -2.67123 0.00841296 4
-1.40859 11.4721 -2.66843 0.0188222 4
-1.67063 13.6063 -2.66465 0.0452996 4
-2.03929 16.6087 -2.65031 0.201107 4
-2.66723 21.7229 -2.68727 0.0469735 1
-3.15229 25.6734 -2.263 0.56546 10
-4.16842 33.9491 -1.79256 0.684695 10
-4.16808 33.9463 -0.596985 0.685588 10
-4.16773 33.9435 0.596936 0.685644 10
-3.19926 26.0559 1.37579 0.533998 10
-3.19899 26.0538 2.29653 0.53274 10
-3.19873 26.0516 3.22276 0.530834 10
-3.19846 26.0494 4.15681 0.52828 10
-3.19818 26.0472 5.10108 0.525083 10
-3.19791 26.0449 6.0581 0.521246 10
-3.19763 26.0426 7.03051 0.516774 10
-1.24948 9.89064 -2.67125 0.0288442 4
-1.44865 11.4672 -2.66846 0.0413038 4
-1.71815 13.6005 -2.66469 0.0150997 4
-2.10261 16.6439 -2.65708 0.197279 4
-2.7431 21.7139 -2.68732 0.0469725 1
-3.2283 25.5546 -2.25351 0.567841 10
