VERSION 0.7
FIELDS x y z intensity label
SIZE 4 4 4 4 4
TYPE F F F F F
COUNT 1 1 1 1 1
WIDTH 1262
HEIGHT 1
VIEWPOINT 0.560202 9.12554 2.72718 0.877676 0.000418964 0.00145026 -0.479252
POINTS 1262
DATA ascii
13.1932 -2.56449 -2.61249 0.0348191 4
13.8218 -2.68668 -2.23012 0.0690664 6
13.7846 -2.67946 -1.72422 0.0764249 6
13.959 -2.71335 -1.24411 0.0658985 6
63.8753 -12.4161 -1.13582 0.253988 10
63.8702 -12.4151 1.13572 0.254039 10
63.86 -12.4131 5.69159 0.253214 10
63.8496 -12.4111 10.3021 0.251155 10
62.2118 -12.0928 12.3191 0.589598 10
63.839 -12.4091 15.0143 0.247872 10
62.1892 -12.0884 16.9754 0.580256 10
9.66886 -1.84443 -2.63748 0.0490127 4
11.14 -2.12507 -2.61825 0.0267809 4
13.2017 -2.51837 -2.61243 0.019642 4
13.8418 -2.64046 -2.23186 0.0690129 6
13.805 -2.63344 -1.72561 0.0758421 6
13.9851 -2.6678 -1.2456 0.0685268 6
61.9524 -11.8181 12.2595 0.520166 10
61.9332 -11.8144 16.8942 0.511914 10
9.68892 -1.81323 -2.64121 0.0586554 4
11.1472 -2.08614 -2.61821 0.012603 4
13.2102 -2.47222 -2.61238 0.0290172 4
13.8619 -2.59418 -2.23362 0.0655105 6
13.8268 -2.58762 -1.72719 0.0757725 6
14.0295 -2.62556 -1.24874 0.044599 6
61.7323 -11.5529 12.2079 0.518668 10
61.7132 -11.5493 16.8231 0.51044 10
9.70904 -1.78194 -2.64498 0.0211283 4
11.1542 -2.04718 -2.61816 0.00945242 4
13.2185 -2.42604 -2.61232 0.0200892 4
13.8835 -2.5481 -2.23566 0.0689613 6
13.8487 -2.54171 -1.7288 0.0757018 6
14.792 -2.71484 -1.31575 0.0472241 6
61.5558 -11.2976 12.1651 0.428862 10
61.5389 -11.2945 16.7647 0.422045 10
9.72922 -1.75056 -2.6488 0.0971648 4
11.1611 -2.00819 -2.61811 0.0267823 4
13.2266 -2.37984 -2.61227 0.0272326 4
13.905 -2.50191 -2.2377 0.0688984 6
13.8706 -2.49571 -1.73044 0.0756303 6
29.1374 -5.24265 -2.59013 0.0725861 4
61.4185 -11.0509 12.1303 0.427046 10
61.4016 -11.0479 16.7167 0.420257 10
9.74945 -1.71909 -2.65266 0.0455535 4
11.1678 -1.96919 -2.61807 0.055141 4
13.2345 -2.33361 -2.61222 0.0218758 4
13.9296 -2.45617 -2.24027 0.0177146 6
13.8925 -2.44962 -1.7321 0.0755579 6
29.7446 -5.24478 -2.64246 0.0341748 1
61.282 -10.8057 12.0958 0.425224 10
61.2656 -10.8028 16.6693 0.317072 10
9.76974 -1.68753 -2.65656 0.0424668 4
11.1744 -1.93016 -2.61802 0.00630194 4
13.2423 -2.28735 -2.61216 0.0205369 4
13.9215 -2.40466 -2.2376 0.479837 6
13.918 -2.40406 -1.73422 0.0370998 6
29.7614 -5.14069 -2.64234 0.0341763 1
61.2025 -10.5715 12.0727 0.320143 10
61.2187 -10.5743 16.6464 0.175775 10
9.7901 -1.65587 -2.66051 0.0480605 4
11.1809 -1.89111 -2.61798 0.0383375 4
13.25 -2.24106 -2.61211 0.0214303 4
13.9228 -2.35486 -2.23647 0.435264 6
13.9351 -2.35695 -1.73532 0.0760691 6
29.7778 -5.03655 -2.64223 0.0341778 1
61.1243 -10.3384 12.0501 0.318072 10
61.2561 -10.3607 16.6467 0.175773 10
9.80084 -1.62252 -2.66187 0.123062 4
11.1873 -1.85204 -2.61793 0.0257338 4
13.2574 -2.19475 -2.61206 0.024556 4
14.4787 -2.39694 -2.32441 0.0376038 6
13.9538 -2.31004 -1.73663 0.0715108 6
29.7939 -4.93236 -2.64211 0.0341793 1
61.0535 -10.1073 12.0291 0.204853 10
61.2928 -10.147 16.6469 0.17577 10
9.8063 -1.58828 -2.66183 0.12789 4
11.1935 -1.81295 -2.61789 0.0257342 4
13.2647 -2.14842 -2.61201 0.0183057 4
14.1491 -2.29165 -2.27019 0.041273 6
13.976 -2.26361 -1.7384 0.0751983 6
29.6434 -4.80119 -2.62726 0.255121 4
61.0208 -9.88322 12.0158 0.202612 10
61.3288 -9.9331 16.6471 0.175767 10
9.81165 -1.55401 -2.66179 0.109191 4
11.1995 -1.77383 -2.61785 0.0341378 4
13.2719 -2.10206 -2.61195 0.0232175 4
14.0022 -2.21773 -2.24538 0.133225 6
13.9821 -2.21456 -1.73819 0.484152 6
29.4405 -4.66292 -2.60782 0.204546 4
65.2164 -10.3293 -1.15255 0.276081 10
65.2112 -10.3284 1.15245 0.276133 10
65.2006 -10.3268 5.77541 0.275226 10
65.1898 -10.3251 10.4538 0.272979 10
60.9882 -9.65959 12.0027 0.200368 10
65.1789 -10.3233 15.2353 0.269402 10
61.364 -9.7191 16.6474 0.175765 10
9.81687 -1.51973 -2.66176 0.125481 4
11.2055 -1.7347 -2.6178 0.0131301 4
13.2789 -2.05568 -2.6119 0.0129485 4
13.9871 -2.16533 -2.24174 0.191364 6
13.9976 -2.16694 -1.73916 0.489269 6
29.2405 -4.52667 -2.58869 0.229266 4
65.3528 -10.1171 -1.15433 0.278272 10
65.3475 -10.1163 1.15423 0.278324 10
65.3368 -10.1147 5.78432 0.27741 10
65.3261 -10.113 10.4699 0.275144 10
65.3151 -10.1113 15.2588 0.271538 10
61.3984 -9.50498 16.6476 0.175762 10
9.82198 -1.48543 -2.66172 0.104971 4
11.2113 -1.69555 -2.61776 0.00997907 4
14.0096 -2.11875 -2.24413 0.164159 6
14.0112 -2.119 -1.73992 0.489054 6
29.0434 -4.39241 -2.56987 0.198121 4
65.4895 -9.90436 -1.15612 0.28046 10
65.4842 -9.90356 1.15603 0.280511 10
65.4735 -9.90194 5.79333 0.279589 10
65.4627 -9.90031 10.4862 0.277305 10
65.4517 -9.89864 15.2825 0.27367 10
61.4321 -9.29074 16.6479 0.17576 10
9.82697 -1.45112 -2.66168 0.138153 4
11.217 -1.65638 -2.61772 0.00945401 4
13.2924 -1.96286 -2.6118 0.0125025 4
14.0448 -2.07396 -2.2486 0.759996 6
14.0249 -2.07101 -1.74071 0.488833 6
28.8492 -4.26008 -2.55135 0.266932 4
65.6267 -9.69092 -1.15794 0.282644 10
65.6214 -9.69013 1.15785 0.282696 10
65.6106 -9.68855 5.80243 0.281765 10
65.5998 -9.68695 10.5027 0.279463 10
65.5887 -9.68531 15.3066 0.275798 10
61.4651 -9.07638 16.6481 0.175757 10
9.83184 -1.41679 -2.66164 0.121263 4
11.2225 -1.61719 -2.61768 0.020484 4
13.2989 -1.91641 -2.61175 0.00893049 4
14.2061 -2.04713 -2.27326 0.131907 6
14.0393 -2.0231 -1.74162 0.468806 6
28.6576 -4.12963 -2.53312 0.180219 4
65.7643 -9.47679 -1.15978 0.284825 10
65.759 -9.47602 1.15968 0.284877 10
65.7482 -9.47447 5.81164 0.283938 10
65.7373 -9.4729 10.5193 0.281617 10
65.7262 -9.4713 15.3308 0.277923 10
61.4972 -8.8619 16.6483 0.175755 10
9.83659 -1.38244 -2.66161 0.110405 4
11.2279 -1.57798 -2.61764 0.0409687 4
13.3053 -1.86994 -2.6117 0.0102703 4
14.1341 -1.98642 -2.26062 0.059744 6
14.0551 -1.97531 -1.74271 0.465851 6
28.4688 -4.00104 -2.51518 0.27371 4
65.9024 -9.26199 -1.16164 0.287003 10
65.897 -9.26123 1.16154 0.287054 10
65.8862 -9.25971 5.82094 0.286108 10
65.8753 -9.25817 10.5362 0.283768 10
65.8641 -9.25661 15.3554 0.280045 10
61.5286 -8.6473 16.6486 0.175752 10
9.84122 -1.34808 -2.66157 0.101357 4
11.2331 -1.53875 -2.61759 0.0320401 4
13.3115 -1.82345 -2.61166 0.0205409 4
14.1309 -1.9357 -2.25902 0.610539 6
14.0762 -1.9282 -1.74448 0.453225 6
28.2826 -3.87424 -2.49752 0.248411 4
66.0409 -9.04649 -1.16351 0.289177 10
66.0355 -9.04575 1.16342 0.289228 10
66.0247 -9.04426 5.83035 0.288274 10
66.0137 -9.04276 10.5532 0.285915 10
66.0025 -9.04122 15.3802 0.282164 10
61.5593 -8.43259 16.6488 0.17575 10
9.84573 -1.3137 -2.66154 0.112821 4
11.2383 -1.49951 -2.61755 0.0178587 4
13.3175 -1.77694 -2.61161 0.0379567 4
14.1687 -1.89051 -2.26399 0.66845 6
14.0984 -1.88112 -1.7464 0.457154 6
28.099 -3.74921 -2.48013 0.280422 4
61.5892 -8.21776 16.649 0.175747 10
9.85013 -1.27931 -2.6615 0.0229266 4
11.2433 -1.46025 -2.61751 0.0488496 4
13.3234 -1.73041 -2.61156 0.0334918 4
14.1837 -1.84214 -2.26534 0.764794 6
14.1198 -1.83385 -1.74826 0.459579 6
27.9179 -3.6259 -2.46301 0.281849 4
61.6184 -8.00283 16.6493 0.175745 10
9.8544 -1.2449 -2.66147 0.0277536 4
11.2481 -1.42097 -2.61747 0.0341427 4
13.3291 -1.68386 -2.61151 0.00625192 4
14.2256 -1.79712 -2.27103 0.64396 6
14.141 -1.78642 -1.75009 0.465664 6
27.8664 -3.52034 -2.45737 0.0280218 4
61.6468 -7.7878 16.6495 0.175743 10
9.85856 -1.21048 -2.66143 0.0199104 4
11.2528 -1.38168 -2.61743 0.0267893 4
13.3347 -1.63729 -2.61146 0.0263479 4
14.204 -1.74403 -2.26659 0.757335 6
14.161 -1.73875 -1.75181 0.466371 6
45.5913 -5.59791 -2.40728 0.210252 4
61.2587 -7.52162 11.9969 0.115292 10
61.6744 -7.57267 16.6497 0.17574 10
9.8626 -1.17604 -2.6614 0.0422348 4
11.2574 -1.34237 -2.61739 0.0157586 4
13.3401 -1.59071 -2.61142 0.024562 4
14.2078 -1.69418 -2.26624 0.781006 6
14.1806 -1.69093 -1.75349 0.466076 6
29.1247 -3.47291 -2.56613 0.030515 4
45.6846 -5.44755 -2.41119 0.245794 4
61.322 -7.31221 12.0042 0.117608 10
61.7013 -7.35743 16.6499 0.175738 10
9.86652 -1.1416 -2.66136 0.034995 4
11.2619 -1.30305 -2.61736 0.0278407 4
13.3453 -1.54411 -2.61137 0.0125045 4
14.2254 -1.64594 -2.26811 0.719639 6
14.2062 -1.64371 -1.75594 0.396927 6
29.0451 -3.36064 -2.55807 0.187327 4
45.7781 -5.29671 -2.41513 0.256139 4
61.4035 -7.10465 12.0153 0.198339 10
61.7274 -7.14212 16.6502 0.175736 10
9.87032 -1.10714 -2.66133 0.0271516 4
11.2662 -1.26371 -2.61732 0.0583087 4
13.3504 -1.49749 -2.61133 0.0178639 4
14.2545 -1.5989 -2.27185 0.188244 6
14.2388 -1.59714 -1.75927 0.394649 6
28.8759 -3.23895 -2.54215 0.0926916 4
45.8719 -5.14537 -2.41912 0.239623 4
61.4943 -6.89771 12.0283 0.200585 10
61.7527 -6.92669 16.6504 0.175733 10
9.87399 -1.07266 -2.66129 0.027152 4
11.2704 -1.22436 -2.61728 0.0267909 4
13.3553 -1.45085 -2.61128 0.0424275 4
14.2521 -1.54827 -2.27059 0.197135 6
14.2763 -1.55091 -1.76323 0.406253 6
28.7086 -3.11876 -2.52646 0.20418 4
45.966 -4.99351 -2.42315 0.27493 4
61.5854 -6.69032 12.0414 0.202829 10
61.7773 -6.71118 16.6506 0.175731 10
9.87756 -1.03817 -2.66126 0.0114643 4
11.2744 -1.18499 -2.61724 0.0220634 4
13.3601 -1.4042 -2.61124 0.0125052 4
14.2769 -1.50056 -2.27369 0.129517 6
14.3156 -1.50463 -1.76742 0.405289 6
28.5434 -3.00004 -2.51098 0.229271 4
46.0604 -4.84115 -2.42722 0.210307 4
61.6766 -6.48248 12.0547 0.205071 10
61.8012 -6.49557 16.6508 0.175729 10
9.881 -1.00368 -2.66123 0.013878 4
11.2783 -1.14561 -2.6172 0.0220637 4
13.3647 -1.35753 -2.61119 0.0236709 4
14.8297 -1.50635 -2.36088 0.0372242 6
14.369 -1.45955 -1.77337 0.0629553 6
28.3802 -2.88276 -2.49572 0.257441 4
46.1551 -4.68827 -2.43133 0.217068 4
61.7856 -6.27595 12.0717 0.288594 10
61.8242 -6.27988 16.651 0.175727 10
9.88432 -0.969167 -2.6612 0.054306 4
11.2821 -1.10622 -2.61717 0.0210133 4
13.3691 -1.31085 -2.61115 0.0209915 4
14.8488 -1.45594 -2.3631 0.048346 6
14.4142 -1.41333 -1.77833 0.532926 6
28.2189 -2.76689 -2.48067 0.19985 4
46.2501 -4.53487 -2.43549 0.243341 4
36.0764 -3.53732 1.89975 0.228635 10
36.0154 -3.53134 4.44334 0.294787 10
36.0584 -3.53556 5.73848 0.226242 10
61.9097 -6.07031 12.0917 0.290717 10
35.9971 -3.52955 8.35044 0.289535 10
61.8987 -6.06923 16.6653 0.286169 10
9.88753 -0.934647 -2.66117 0.00724088 4
11.2857 -1.06682 -2.61713 0.0367739 4
13.3734 -1.26416 -2.61111 0.0245649 4
16.3586 -1.54634 -2.60249 0.0194714 4
14.4925 -1.36995 -1.78739 0.290383 6
28.0595 -2.6524 -2.46583 0.180468 4
46.3454 -4.38093 -2.43969 0.239376 4
35.8446 -3.38831 1.88691 0.230191 10
35.784 -3.38259 4.41331 0.296792 10
35.8268 -3.38663 5.69971 0.227781 10
62.0343 -5.86398 12.112 0.292837 10
35.766 -3.38088 8.29404 0.291504 10
62.0233 -5.86293 16.6932 0.288255 10
9.89061 -0.900116 -2.66113 0.0120683 4
11.2892 -1.0274 -2.61709 0.0194379 4
13.3775 -1.21745 -2.61106 0.0232254 4
16.3635 -1.4892 -2.60244 0.0180022 4
27.9618 -2.54472 -2.45645 0.0261635 4
46.441 -4.22647 -2.44393 0.260202 4
35.6158 -3.2413 1.87426 0.231744 10
35.5558 -3.23583 4.38374 0.298794 10
35.5983 -3.2397 5.66153 0.229317 10
62.1594 -5.65695 12.1325 0.294954 10
35.538 -3.23421 8.23849 0.29347 10
62.1483 -5.65594 16.7214 0.290338 10
9.89358 -0.865578 -2.6611 0.0313779 4
11.2926 -0.987976 -2.61706 0.00893104 4
13.3814 -1.17073 -2.61102 0.0107196 4
16.3683 -1.43205 -2.60239 0.0598862 4
27.9695 -2.44702 -2.45636 0.0259568 4
35.3666 -3.09418 1.86056 0.57553 10
35.3306 -3.09103 4.35462 0.300792 10
35.3576 -3.09339 5.62148 0.569369 10
62.31 -5.45143 12.1581 0.388703 10
35.313 -3.08949 8.18379 0.295431 10
62.2997 -5.45053 16.7569 0.382603 10
9.89642 -0.831028 -2.66107 0.0199131 4
11.2958 -0.948539 -2.61702 0.047808 4
13.3852 -1.12399 -2.61098 0.0272461 4
16.3729 -1.37487 -2.60234 0.01984 4
27.9769 -2.34929 -2.45628 0.0311492 4
64.1453 -5.38645 -1.1236 0.459783 10
64.1371 -5.38575 1.12346 0.459813 10
35.1675 -2.9531 1.84954 0.234842 10
64.1205 -5.38436 5.62956 0.458194 10
35.1083 -2.94814 4.32593 0.302787 10
35.1504 -2.95167 5.58688 0.232381 10
62.4828 -5.24684 12.1882 0.390622 10
35.091 -2.94668 8.1299 0.297389 10
35.086 -2.94626 9.43434 0.166678 10
9.89915 -0.796468 -2.66104 0.0253443 4
11.2989 -0.909091 -2.61699 0.0267938 4
16.3773 -1.31769 -2.60229 0.0271886 4
34.9477 -2.81183 1.83745 0.236386 10
34.889 -2.80711 4.29767 0.304778 10
34.9309 -2.81048 5.55039 0.233909 10
62.6565 -5.04124 12.2186 0.392537 10
34.8719 -2.80573 8.07682 0.299344 10
34.9135 -2.80908 9.38528 0.228869 10
9.90176 -0.7619 -2.66101 0.115861 4
11.3019 -0.869633 -2.61695 0.0241673 4
13.3923 -1.03048 -2.6109 0.066554 4
16.3815 -1.26049 -2.60224 0.0249846 4
21.0219 -1.61755 -2.5888 0.0227302 4
64.1286 -4.93444 -1.12268 0.425514 10
64.1237 -4.93406 1.12259 0.425574 10
34.7308 -2.67239 1.82554 0.237928 10
64.1139 -4.9333 5.62582 0.424138 10
34.6725 -2.66791 4.26983 0.306765 10
34.7142 -2.67111 5.51444 0.235433 10
62.8311 -4.8346 12.2492 0.394446 10
34.6556 -2.66661 8.02452 0.301295 10
34.697 -2.66979 9.32452 0.230361 10
9.90424 -0.727323 -2.66098 0.127931 4
11.3047 -0.830165 -2.61692 0.0294215 4
13.3956 -0.983715 -2.61086 0.0129537 4
21.0269 -1.54412 -2.58873 0.0146743 4
27.9971 -2.05598 -2.45603 0.0303217 4
34.4697 -2.5313 1.81134 0.331103 10
34.4643 -2.5309 3.02335 0.330348 10
34.4588 -2.5305 4.2424 0.32919 10
34.4533 -2.5301 5.47156 0.327631 10
34.4477 -2.52969 6.71399 0.325673 10
34.4421 -2.52927 7.97299 0.323318 10
34.4364 -2.52885 9.25204 0.32057 10
9.90661 -0.692739 -2.66095 0.132157 4
11.3074 -0.790689 -2.61689 0.0535898 4
13.3988 -0.936935 -2.61082 0.0375215 4
16.3892 -1.14605 -2.60214 0.0128602 4
28.0032 -1.95818 -2.45594 0.030738 4
34.2586 -2.39559 1.7998 0.333227 10
34.2532 -2.39522 3.00408 0.332466 10
34.2478 -2.39484 4.21537 0.331301 10
34.2424 -2.39446 5.4367 0.329732 10
34.2369 -2.39408 6.67123 0.327761 10
34.2313 -2.39369 7.92222 0.325391 10
34.2257 -2.39329 9.19313 0.322624 10
9.90886 -0.658146 -2.66092 0.122503 4
11.3099 -0.751204 -2.61685 0.0373032 4
13.4018 -0.890145 -2.61078 0.0375221 4
21.0362 -1.39722 -2.58861 0.0169769 4
34.0659 -2.26266 -1.78925 0.42989 10
34.0607 -2.26231 -0.595841 0.430481 10
34.0554 -2.26196 0.595748 0.430548 10
34.0501 -2.26161 1.78842 0.335347 10
34.0448 -2.26126 2.9851 0.334581 10
34.0395 -2.2609 4.18873 0.333408 10
34.0341 -2.26055 5.40235 0.331828 10
34.0287 -2.26019 6.62908 0.329844 10
34.0232 -2.25982 7.87218 0.327459 10
34.0176 -2.25945 9.13508 0.324674 10
9.91099 -0.623547 -2.66089 0.121901 4
11.3123 -0.711711 -2.61682 0.0136605 4
13.4046 -0.843345 -2.61074 0.0214415 4
16.3962 -1.03156 -2.60205 0.0135956 4
28.0143 -1.76251 -2.45578 0.0319863 4
33.8599 -2.13029 -1.77803 0.432604 10
33.8547 -2.12996 -0.592105 0.433198 10
33.8495 -2.12963 0.592013 0.433265 10
33.8443 -2.1293 1.77721 0.337462 10
33.8391 -2.12897 2.96639 0.336691 10
33.8338 -2.12864 4.16248 0.33551 10
33.8285 -2.12831 5.3685 0.333921 10
33.8231 -2.12797 6.58755 0.331924 10
33.8177 -2.12763 7.82287 0.329523 10
33.8122 -2.12728 9.07786 0.326721 10
9.913 -0.588941 -2.66086 0.103194 4
11.3146 -0.672211 -2.61679 0.0283721 4
13.4073 -0.796537 -2.6107 0.0214418 4
16.3995 -0.974307 -2.602 0.0132284 4
21.0444 -1.25027 -2.58849 0.037984 4
28.0194 -1.66466 -2.4557 0.0290794 4
33.6565 -1.99956 -1.76697 0.435312 10
33.8077 -2.00855 -0.591157 0.775958 10
33.8048 -2.00838 0.591106 0.776024 10
32.9075 -1.95506 1.72765 0.339574 10
32.9024 -1.95476 2.88366 0.338798 10
32.8973 -1.95446 4.04641 0.337609 10
32.8922 -1.95416 5.2188 0.336009 10
32.887 -1.95385 6.40386 0.334 10
32.8818 -1.95354 7.60474 0.331583 10
32.8764 -1.95322 8.82475 0.328763 10
9.91489 -0.55433 -2.66084 0.131559 4
11.3167 -0.632706 -2.61676 0.0309996 4
13.4098 -0.749724 -2.61066 0.0312698 4
28.0242 -1.5668 -2.45563 0.0301189 4
33.4555 -1.87046 -1.75607 0.438014 10
33.8812 -1.89426 -0.592322 0.774432 10
33.8783 -1.8941 0.592271 0.774498 10
32.8428 -1.8362 1.72391 0.603201 10
32.84 -1.83605 2.87761 0.601782 10
32.8372 -1.83589 4.03819 0.59963 10
32.8343 -1.83573 5.20856 0.596747 10
32.8314 -1.83557 6.39175 0.593137 10
32.6857 -1.82742 7.55788 0.333639 10
32.8255 -1.83524 8.80931 0.583754 10
9.91666 -0.519712 -2.66081 0.111042 4
11.3187 -0.593192 -2.61672 0.0220678 4
13.4121 -0.702901 -2.61063 0.00893435 4
16.4053 -0.859767 -2.60191 0.023518 4
21.0517 -1.10328 -2.58837 0.0235972 4
28.0286 -1.46892 -2.45555 0.0261731 4
33.257 -1.74293 -1.74532 0.440712 10
33.9549 -1.77951 -0.593499 0.772896 10
33.952 -1.77936 0.593448 0.772962 10
32.9143 -1.72497 1.72733 0.602005 10
32.9115 -1.72482 2.88333 0.600589 10
32.9086 -1.72467 4.04621 0.598441 10
32.9057 -1.72452 5.21891 0.595564 10
32.9028 -1.72437 6.40444 0.591961 10
32.4921 -1.70284 7.51168 0.335692 10
32.8969 -1.72406 8.8268 0.582597 10
9.91831 -0.485088 -2.66078 0.131562 4
11.3206 -0.553672 -2.61669 0.0204917 4
13.4143 -0.65607 -2.61059 0.0138484 4
16.4079 -0.802482 -2.60186 0.00808444 4
33.061 -1.61696 -1.73472 0.443404 10
34.6177 -1.69309 -0.604977 0.293281 10
34.6125 -1.69284 0.604886 0.293325 10
32.986 -1.61329 1.73079 0.600802 10
32.9832 -1.61315 2.8891 0.599388 10
32.9803 -1.61301 4.05432 0.597245 10
32.9775 -1.61287 5.22936 0.594374 10
32.9746 -1.61273 6.41727 0.590778 10
32.3007 -1.57977 7.46612 0.33774 10
32.9686 -1.61244 8.84447 0.581433 10
9.91984 -0.450459 -2.66075 0.0923356 4
11.3223 -0.514146 -2.61666 0.0488655 4
13.4163 -0.609232 -2.61055 0.0089346 4
16.4103 -0.74519 -2.60182 0.0106569 4
21.058 -0.956239 -2.58826 0.0175548 4
32.8673 -1.4925 -1.72428 0.44609 10
34.5191 -1.56751 -0.603155 0.50847 10
34.5162 -1.56737 0.603102 0.508513 10
32.8525 -1.49183 1.7235 0.347978 10
32.982 -1.49771 2.88852 0.221635 10
32.1265 -1.45886 3.94871 0.345962 10
32.8377 -1.49115 5.20634 0.344321 10
32.9669 -1.49702 6.41473 0.218494 10
32.2227 -1.46323 7.44686 0.154167 10
32.8223 -1.49046 8.80378 0.336892 10
9.92125 -0.415825 -2.66073 0.115873 4
11.3239 -0.474614 -2.61663 0.022594 4
13.4182 -0.562389 -2.61052 0.0192097 4
16.4125 -0.687891 -2.60177 0.0165369 4
28.0399 -1.17522 -2.45532 0.0255523 4
32.6759 -1.36953 -1.71397 0.448772 10
34.7489 -1.45641 -0.607076 0.296831 10
34.7437 -1.4562 0.606986 0.296875 10
32.6613 -1.36892 1.71321 0.350069 10
31.9396 -1.33867 3.92513 0.34804 10
32.6466 -1.3683 5.17526 0.346389 10
32.228 -1.35076 7.44695 0.154165 10
32.6315 -1.36767 8.75125 0.338914 10
9.92255 -0.381186 -2.6607 0.0307791 4
11.3254 -0.435078 -2.6166 0.0614774 4
13.4199 -0.51554 -2.61048 0.0375264 4
16.4146 -0.630585 -2.60173 0.026827 4
32.4868 -1.24802 -1.70381 0.451447 10
34.6705 -1.33191 -0.605623 0.506397 10
34.6675 -1.3318 0.60557 0.506441 10
32.4724 -1.24747 1.70306 0.352155 10
31.8084 -1.22196 2.78493 0.595743 10
31.8057 -1.22185 3.90812 0.593613 10
32.4579 -1.24691 5.14461 0.348453 10
31.8 -1.22164 6.18586 0.587186 10
31.7972 -1.22153 7.34637 0.582898 10
32.4429 -1.24633 8.69945 0.340932 10
9.92372 -0.346544 -2.66067 0.0694046 4
11.3267 -0.395538 -2.61657 0.027849 4
13.4214 -0.468686 -2.61044 0.088903 4
16.4164 -0.573274 -2.60169 0.0286649 4
32.2999 -1.12794 -1.6938 0.454118 10
32.34 -1.12934 -0.564841 0.505352 10
32.3372 -1.12924 0.564792 0.505396 10
32.2857 -1.12744 1.69305 0.354237 10
31.8783 -1.11322 2.79069 0.594513 10
31.8755 -1.11312 3.91621 0.592388 10
32.2713 -1.12694 5.11439 0.350512 10
31.8699 -1.11292 6.19865 0.585975 10
31.867 -1.11282 7.36156 0.581695 10
32.2565 -1.12642 8.64837 0.342946 10
9.92477 -0.311899 -2.66065 0.0422467 4
11.3279 -0.355993 -2.61654 0.0604278 4
13.4228 -0.421828 -2.61041 0.0848833 4
16.418 -0.515957 -2.60164 0.0139652 4
21.0675 -0.662072 -2.58804 0.0215856 4
28.0481 -0.881449 -2.45511 0.0297097 4
32.1152 -1.00926 -1.68391 0.456782 10
32.1105 -1.00911 -0.560767 0.302129 10
32.1058 -1.00897 0.560685 0.302173 10
32.1011 -1.00882 1.68318 0.356315 10
31.9485 -1.00402 2.79651 0.593277 10
31.9457 -1.00393 3.92437 0.591155 10
32.0869 -1.00837 5.08458 0.352567 10
31.94 -1.00376 6.21157 0.584756 10
31.9371 -1.00366 7.3769 0.580485 10
32.0723 -1.00791 8.59798 0.344956 10
9.92571 -0.277252 -2.66062 0.0875119 4
11.3289 -0.316448 -2.61651 0.037308 4
13.424 -0.374969 -2.61038 0.0772895 4
16.4195 -0.458641 -2.6016 0.0216831 4
30.1452 -0.84204 -2.6384 0.0342274 1
31.9326 -0.891965 -1.67417 0.459441 10
31.928 -0.891836 -0.557522 0.303887 10
31.9233 -0.891707 0.557441 0.303931 10
31.9187 -0.891578 1.67344 0.358388 10
31.9141 -0.891448 2.79321 0.357566 10
31.9094 -0.891317 3.91951 0.356309 10
31.9047 -0.891186 5.05518 0.354617 10
31.8999 -0.891053 6.20314 0.352494 10
31.8951 -0.890918 7.36644 0.349941 10
31.8902 -0.890781 8.54829 0.346961 10
9.92652 -0.242601 -2.6606 0.0265556 4
11.3299 -0.276898 -2.61648 0.02785 4
13.425 -0.328103 -2.61034 0.0875662 4
16.4207 -0.401317 -2.60156 0.011393 4
30.1472 -0.736786 -2.63832 0.0342284 1
31.7521 -0.776011 -1.66456 0.462095 10
31.9225 -0.780175 -0.557375 0.502179 10
31.9197 -0.780107 0.557327 0.502222 10
31.7384 -0.775676 1.66384 0.360457 10
31.7338 -0.775564 2.77718 0.35963 10
31.7292 -0.775451 3.89702 0.358365 10
31.7245 -0.775337 5.02618 0.356664 10
31.7198 -0.775222 6.16755 0.354527 10
31.7151 -0.775106 7.32419 0.351959 10
31.7102 -0.774987 8.49927 0.348962 10
9.92721 -0.207947 -2.66057 0.00784604 4
11.3306 -0.237345 -2.61646 0.00420381 4
13.4259 -0.281235 -2.61031 0.0790786 4
16.4217 -0.343989 -2.60152 0.00992311 4
21.072 -0.441398 -2.58788 0.0469156 4
30.1487 -0.63153 -2.63825 0.0342293 1
31.5737 -0.66138 -1.65507 0.464743 10
31.6765 -0.663533 -0.553036 0.501109 10
31.6737 -0.663475 0.552988 0.501152 10
31.5602 -0.661096 1.65436 0.362522 10
31.5556 -0.661001 2.76136 0.36169 10
31.551 -0.660905 3.87483 0.360417 10
31.5464 -0.660809 4.99756 0.358706 10
31.5418 -0.660712 6.13245 0.356557 10
31.5371 -0.660613 7.2825 0.353974 10
31.5323 -0.660513 8.4509 0.350959 10
9.92779 -0.173292 -2.66055 0.0440589 4
11.3313 -0.19779 -2.61643 0.014188 4
13.4267 -0.234365 -2.61028 0.0138501 4
16.4226 -0.28666 -2.60148 0.0113934 4
21.073 -0.367833 -2.58783 0.0572784 4
30.1499 -0.526273 -2.63818 0.0342303 1
31.3973 -0.548047 -1.64571 0.467385 10
31.4294 -0.548606 -0.548685 0.500032 10
31.4266 -0.548558 0.548637 0.500076 10
31.3839 -0.547812 1.64501 0.364582 10
31.3794 -0.547734 2.74576 0.363745 10
31.3749 -0.547655 3.85294 0.362465 10
31.3704 -0.547576 4.96933 0.360743 10
31.3658 -0.547496 6.09781 0.358582 10
31.3611 -0.547414 7.24138 0.355984 10
31.3564 -0.547332 8.40319 0.352952 10
9.92824 -0.138635 -2.66052 0.00543197 4
11.3318 -0.158233 -2.6164 0.0367841 4
13.4272 -0.187493 -2.61024 0.0402105 4
21.0737 -0.294266 -2.58778 0.0506593 4
30.1507 -0.421014 -2.6381 0.0342312 1
31.2229 -0.435986 -1.63648 0.470022 10
31.2185 -0.435924 -0.544974 0.310884 10
31.2141 -0.435862 0.544896 0.310928 10
31.2096 -0.435801 1.63579 0.366638 10
31.2052 -0.435739 2.73037 0.365796 10
31.2007 -0.435676 3.83134 0.364508 10
31.1962 -0.435613 4.94148 0.362776 10
31.1917 -0.43555 6.06364 0.360603 10
31.1871 -0.435486 7.20081 0.35799 10
31.1824 -0.43542 8.35611 0.354941 10
9.92858 -0.103976 -2.6605 0.0247459 4
11.3321 -0.118675 -2.61637 0.03731 4
13.4276 -0.14062 -2.61021 0.0442321 4
16.4237 -0.171996 -2.6014 0.0128639 4
30.1512 -0.315757 -2.63803 0.0342321 1
31.0504 -0.325174 -1.62737 0.472653 10
31.2507 -0.327271 -0.545512 0.497862 10
31.2479 -0.327242 0.545464 0.497905 10
31.0373 -0.325037 1.62669 0.368689 10
31.0329 -0.324991 2.71518 0.367842 10
31.0285 -0.324944 3.81003 0.366547 10
31.0241 -0.324898 4.914 0.364805 10
31.0196 -0.324851 6.02992 0.362619 10
31.015 -0.324803 7.16077 0.359991 10
31.0104 -0.324754 8.30966 0.356925 10
9.92879 -0.0693177 -2.66048 0.00965701 4
11.3324 -0.0791168 -2.61635 0.0520243 4
13.4279 -0.0937466 -2.61018 0.0142974 4
16.424 -0.114664 -2.60136 0.0407975 4
21.4387 -0.149674 -2.63241 0.0773597 4
30.1513 -0.210501 -2.63796 0.034233 1
30.8799 -0.215587 -1.61839 0.475278 10
31.0009 -0.216433 -0.541137 0.496767 10
30.9982 -0.216414 0.541089 0.496811 10
30.8669 -0.215497 1.61771 0.370736 10
30.8626 -0.215467 2.70019 0.236127 10
30.8582 -0.215436 3.789 0.235295 10
30.8538 -0.215405 4.88688 0.36683 10
30.8494 -0.215374 5.99665 0.232773 10
30.8448 -0.215343 7.12127 0.231086 10
30.8403 -0.215311 8.26383 0.358905 10
9.92889 -0.0346588 -2.66045 0.0259534 4
11.3325 -0.0395582 -2.61632 0.00998457 4
13.428 -0.046873 -2.61015 0.0361907 4
16.424 -0.0573314 -2.60133 0.0124967 4
21.6868 -0.0757022 -2.66282 0.0474209 1
30.1511 -0.105249 -2.6379 0.0342339 1
30.7112 -0.107204 -1.60952 0.477897 10
30.7501 -0.107339 -0.536748 0.495667 10
30.7474 -0.10733 0.5367 0.495711 10
30.6984 -0.107159 1.60884 0.372778 10
30.8487 -0.107683 2.69892 0.372254 10
30.8153 -0.107567 3.78366 0.236592 10
30.6854 -0.107114 4.86012 0.36885 10
30.672 -0.107067 8.21859 0.36088 10
9.92887 0 -2.66043 0.0271608 4
11.3324 0 -2.61629 0.0525509 4
13.4279 0 -2.61012 0.0308295 4
16.4239 0 -2.60129 0.0135995 4
21.6866 0 -2.66278 0.0474218 1
30.1505 0 -2.63783 0.0342347 1
30.5443 0 -1.60076 0.48051 10
30.5401 0 -0.53308 0.317821 10
30.5359 0 0.533006 0.317865 10
30.5317 0 1.6001 0.374816 10
30.648 0 3.7631 0.237885 10
30.5188 0 4.83371 0.370865 10
30.5056 0 8.17395 0.362851 10
9.92872 0.0346558 -2.66041 0.00724294 4
11.3322 0.0395547 -2.61627 0.0304798 4
13.4277 0.0468687 -2.61009 0.0196596 4
16.4236 0.0573258 -2.60125 0.0161727 4
21.686 0.0756943 -2.66273 0.0474226 1
30.1496 0.105236 -2.63776 0.0342356 1
30.3793 0.106038 -1.59212 0.483118 10
30.5667 0.106692 -0.533547 0.493448 10
30.564 0.106682 0.533499 0.493492 10
30.3668 0.105994 1.59146 0.376849 10
30.3541 0.10595 4.80764 0.372876 10
30.4739 0.106368 5.92356 0.23661 10
30.4695 0.106353 7.03449 0.234894 10
30.341 0.105904 8.12989 0.364817 10
9.92846 0.069313 -2.66039 0.0169003 4
11.3319 0.079111 -2.61624 0.0362608 4
13.4273 0.093739 -2.61006 0.0107235 4
16.423 0.114653 -2.60122 0.0271998 4
21.6853 0.15139 -2.66268 0.0474235 1
30.1483 0.210473 -2.6377 0.0342364 1
30.216 0.210946 -1.58359 0.48572 10
30.3131 0.211624 -0.529131 0.49233 10
30.3105 0.211605 0.529084 0.492373 10
30.2036 0.210859 1.58294 0.378877 10
30.1911 0.210771 4.78191 0.374882 10
30.3103 0.211604 5.89186 0.237882 10
30.1781 0.210681 8.0864 0.36678 10
9.92807 0.103969 -2.66037 0.0362153 4
11.3315 0.118665 -2.61622 0.0436185 4
13.4267 0.140607 -2.61003 0.0151919 4
16.4223 0.171978 -2.60118 0.0165407 4
21.6842 0.227082 -2.66263 0.0474243 1
30.0586 0.31478 -2.62993 0.487058 10
30.0545 0.314737 -1.57518 0.488315 10
30.0585 0.314778 -0.524702 0.491205 10
30.0558 0.314751 0.524655 0.491249 10
30.0422 0.314608 1.57453 0.380901 10
30.0298 0.314478 4.75651 0.376884 10
30.0256 0.314434 5.8367 0.239153 10
30.017 0.314344 8.04346 0.368737 10
9.92757 0.138623 -2.66034 0.0205222 4
11.3309 0.158218 -2.6162 0.0515018 4
13.426 0.187473 -2.61 0.0268095 4
16.4214 0.229299 -2.60115 0.0257303 4
21.6829 0.302768 -2.66259 0.0474251 1
29.8987 0.417489 -2.61606 0.489642 10
29.8947 0.417432 -1.56687 0.490905 10
29.8906 0.417375 -0.521793 0.324695 10
29.8866 0.417318 0.521722 0.324739 10
29.8825 0.417262 1.56623 0.382921 10
29.8784 0.417205 2.61428 0.382039 10
29.8743 0.417148 3.66847 0.380692 10
29.8702 0.41709 4.73144 0.378881 10
29.866 0.417032 5.80594 0.376609 10
29.8618 0.416973 6.89481 0.373877 10
29.8575 0.416913 8.00108 0.370691 10
9.92695 0.173275 -2.66032 0.0181079 4
11.3302 0.197768 -2.61617 0.0131383 4
13.4251 0.234335 -2.60997 0.0147454 4
16.4203 0.286615 -2.60111 0.0257306 4
21.5845 0.376756 -2.65064 0.221211 4
29.7405 0.51912 -2.60236 0.49222 10
29.7464 0.519222 -1.55918 0.0492191 10
29.8703 0.521385 -0.521468 0.488938 10
29.8676 0.521338 0.521421 0.488982 10
29.7245 0.51884 1.55803 0.384935 10
29.7204 0.518769 2.6006 0.384049 10
29.7164 0.518699 3.64927 0.382694 10
29.7123 0.518627 4.70669 0.380874 10
29.7082 0.518555 5.77557 0.378589 10
29.704 0.518482 6.85875 0.375843 10
29.6998 0.518408 7.95924 0.372639 10
9.92621 0.207924 -2.6603 0.038027 4
11.3293 0.237314 -2.61615 0.0157661 4
13.4241 0.281193 -2.60995 0.0299379 4
16.419 0.343927 -2.60108 0.015071 4
21.4786 0.449912 -2.63782 0.241194 4
29.584 0.619694 -2.58883 0.494791 10
29.6156 0.620355 -1.55243 0.487158 10
29.6129 0.6203 -0.517009 0.487796 10
29.6103 0.620244 0.516962 0.487839 10
29.5681 0.619361 1.54994 0.386945 10
29.5641 0.619278 2.58709 0.386054 10
29.5601 0.619194 3.63032 0.384692 10
29.5561 0.619109 4.68225 0.382862 10
29.552 0.619023 5.74558 0.380565 10
29.5478 0.618937 6.82315 0.377804 10
29.5436 0.618849 7.91793 0.374583 10
9.92535 0.24257 -2.66028 0.00543246 4
11.3283 0.276857 -2.61613 0.0268027 4
13.4229 0.328047 -2.60992 0.0339597 4
16.4174 0.401233 -2.60104 0.0216878 4
21.3738 0.522364 -2.62516 0.204762 4
29.429 0.719229 -2.57548 0.497357 10
29.4251 0.719133 -1.54256 0.329364 10
29.4212 0.719037 -0.513702 0.32981 10
29.4172 0.718941 0.513633 0.329854 10
29.4133 0.718845 1.54195 0.388951 10
29.4094 0.718748 2.57375 0.388054 10
29.4054 0.718651 3.61161 0.386685 10
29.4014 0.718554 4.65812 0.384845 10
29.3974 0.718455 5.71598 0.382536 10
29.3933 0.718355 6.788 0.379761 10
29.3891 0.718253 7.87714 0.376523 10
9.92437 0.277213 -2.66026 0.0181083 4
11.3272 0.316396 -2.6161 0.0331095 4
13.4215 0.374896 -2.60989 0.0183206 4
21.27 0.594124 -2.61264 0.214463 4
29.2757 0.817744 -2.56229 0.499916 10
29.4241 0.821889 -1.54265 0.484858 10
29.4214 0.821815 -0.513754 0.485493 10
29.4188 0.821741 0.513707 0.485537 10
29.2601 0.817309 1.53406 0.390951 10
28.6183 0.799381 2.50475 0.39005 10
28.6145 0.799273 3.51478 0.388674 10
29.2484 0.81698 4.63429 0.386824 10
29.2443 0.816868 5.68674 0.384502 10
28.6027 0.798945 6.60603 0.381713 10
29.2362 0.81664 7.83687 0.378458 10
9.92327 0.311849 -2.66024 0.0325953 4
11.3259 0.355928 -2.61608 0.0289054 4
13.42 0.421737 -2.60987 0.032173 4
16.4138 0.515822 -2.60098 0.0194827 4
21.1671 0.665199 -2.60028 0.193549 4
29.1239 0.91525 -2.54927 0.502469 10
29.1201 0.915128 -1.52687 0.503764 10
29.1162 0.915007 -0.508476 0.504445 10
29.1124 0.914886 0.508409 0.504512 10
29.1085 0.914765 1.52627 0.392947 10
28.6076 0.899023 2.50407 0.569792 10
28.605 0.898941 3.51398 0.567757 10
29.0969 0.914399 4.61076 0.388797 10
29.0929 0.914274 5.65788 0.386464 10
28.597 0.898691 6.6054 0.557515 10
29.0848 0.91402 7.7971 0.380388 10
9.92205 0.346484 -2.66022 0.0156941 4
11.3245 0.395458 -2.61606 0.0136645 4
13.4183 0.468574 -2.60984 0.012065 4
16.4117 0.573107 -2.60095 0.0290407 4
21.0652 0.735609 -2.58806 0.247249 4
28.9737 1.01178 -2.53641 0.505017 10
28.9698 1.01164 -1.51917 0.506318 10
28.966 1.01151 -0.505912 0.507002 10
28.9622 1.01138 0.505845 0.507069 10
28.9584 1.01124 1.51857 0.394938 10
28.6733 1.00129 2.51012 0.568421 10
28.6707 1.0012 3.52246 0.566391 10
28.9469 1.01084 4.58753 0.390767 10
28.943 1.0107 5.62937 0.388421 10
28.6627 1.00092 6.62133 0.556174 10
28.9349 1.01042 7.75782 0.382314 10
9.92071 0.381113 -2.66021 0.0440646 4
11.323 0.434982 -2.61604 0.0399426 4
13.4164 0.515405 -2.60981 0.0245771 4
16.4094 0.630385 -2.60092 0.0249973 4
20.9642 0.80536 -2.57598 0.207766 4
28.8249 1.10734 -2.52371 0.507558 10
28.8211 1.10719 -1.51157 0.508865 10
28.8174 1.10705 -0.50338 0.509552 10
28.8136 1.1069 0.503314 0.509619 10
28.8098 1.10676 1.51097 0.396924 10
28.7393 1.10405 2.51622 0.567042 10
28.7367 1.10395 3.53102 0.565017 10
28.7984 1.10632 4.56458 0.392731 10
28.7945 1.10617 5.60121 0.390374 10
28.7286 1.10364 6.63742 0.554826 10
28.1589 1.08175 7.55072 0.384235 10
9.91925 0.415738 -2.66019 0.104428 4
11.3213 0.4745 -2.61602 0.0105113 4
13.4144 0.562229 -2.60979 0.012959 4
16.407 0.687653 -2.60089 0.0213215 4
20.8641 0.874464 -2.56404 0.267884 4
28.6777 1.20195 -2.51117 0.510093 10
28.8161 1.20775 -1.51152 0.726978 10
28.8135 1.20764 -0.503383 0.72793 10
28.8109 1.20753 0.503337 0.727996 10
28.6627 1.20132 1.50347 0.398905 10
28.769 1.20577 2.51917 0.361104 10
28.7664 1.20566 3.53517 0.359815 10
28.6514 1.20085 4.54192 0.394691 10
28.6476 1.20068 5.57341 0.392321 10
28.7583 1.20533 6.64521 0.353325 10
28.0152 1.17418 7.51325 0.386152 10
9.91767 0.450358 -2.66017 0.117105 4
11.3195 0.514012 -2.616 0.0441478 4
13.4123 0.609046 -2.60977 0.0151934 4
16.4043 0.744912 -2.60086 0.0264684 4
20.765 0.94293 -2.55225 0.213414 4
28.5318 1.29562 -2.49879 0.512621 10
28.8828 1.31156 -1.51525 0.725188 10
28.8802 1.31144 -0.504626 0.726138 10
28.8776 1.31132 0.504579 0.726204 10
27.8952 1.26671 1.46343 0.400882 10
27.8916 1.26655 2.44271 0.399956 10
27.8879 1.26638 3.42774 0.398544 10
27.8843 1.26621 4.42099 0.396646 10
27.8805 1.26605 5.42501 0.394264 10
27.8768 1.26587 6.44249 0.391402 10
27.873 1.2657 7.47623 0.388063 10
9.91597 0.484971 -2.66015 0.0488946 4
11.3175 0.553518 -2.61598 0.0383668 4
13.4099 0.655854 -2.60974 0.0241309 4
16.4014 0.80216 -2.60083 0.0172781 4
20.6667 1.01077 -2.54059 0.174307 4
28.3875 1.38838 -2.48655 0.515144 10
28.9499 1.41588 -1.51901 0.723389 10
28.9473 1.41575 -0.50588 0.724337 10
28.9446 1.41563 0.505834 0.724403 10
27.7928 1.35929 1.4583 0.291359 10
27.835 1.36136 2.43816 0.562866 10
27.8325 1.36123 3.42148 0.560856 10
27.7433 1.35687 4.39936 0.398596 10
27.7782 1.35858 5.406 0.286549 10
27.8246 1.36085 6.4315 0.55074 10
27.7321 1.35632 7.43967 0.38997 10
9.91415 0.519578 -2.66013 0.0501022 4
11.3154 0.593016 -2.61596 0.0210231 4
13.4074 0.702653 -2.60972 0.0165343 4
20.5693 1.07799 -2.52906 0.160475 4
28.2445 1.48023 -2.47446 0.51766 10
48.1365 2.52272 -2.52619 0.246806 4
81.2115 4.25611 -1.4195 0.519691 10
76.168 3.99179 1.33134 0.563415 10
27.6529 1.44922 1.45122 0.292782 10
27.8998 1.46217 2.44427 0.56146 10
27.8972 1.46203 3.43005 0.559455 10
27.6037 1.44665 4.37799 0.400541 10
27.6385 1.44847 5.37975 0.287947 10
27.8893 1.46162 6.4476 0.549365 10
27.7115 1.4523 7.43548 0.177649 10
9.91222 0.554179 -2.66012 0.0941685 4
11.3132 0.632506 -2.61594 0.0336372 4
13.4048 0.749444 -2.6097 0.0210032 4
16.395 0.916624 -2.60077 0.0231606 4
20.4728 1.14461 -2.51767 0.138376 4
28.1029 1.57119 -2.46252 0.52017 10
48.2488 2.69753 -2.53256 0.25178 4
81.401 4.55102 -1.42308 0.52221 10
75.7863 4.23711 1.32492 0.561997 10
27.5143 1.53829 1.44422 0.2942 10
27.9649 1.56348 2.45043 0.560047 10
27.9623 1.56333 3.4387 0.558047 10
27.4654 1.53555 4.35689 0.402481 10
27.5001 1.53749 5.35382 0.289341 10
27.9544 1.56289 6.46386 0.547983 10
27.7065 1.54903 7.43553 0.177648 10
9.91016 0.588772 -2.6601 0.0404444 4
11.3108 0.671988 -2.61592 0.0231257 4
13.402 0.796224 -2.60967 0.0129595 4
16.3916 0.973838 -2.60075 0.0176463 4
20.3771 1.21062 -2.50641 0.18955 4
27.9626 1.66129 -2.45073 0.522673 10
48.3617 2.87322 -2.539 0.200913 4
81.5915 4.84743 -1.4267 0.524723 10
75.4083 4.48008 1.31858 0.560572 10
27.3771 1.6265 1.4373 0.295616 10
28.0303 1.66531 2.45666 0.558627 10
28.0277 1.66515 3.44744 0.556633 10
27.3285 1.62361 4.33604 0.404416 10
27.363 1.62566 5.3282 0.290733 10
28.0198 1.66468 6.48028 0.546595 10
28.017 1.66452 7.52038 0.541911 10
9.90798 0.623355 -2.66008 0.0325972 4
11.3115 0.711656 -2.61663 0.107755 4
13.399 0.842991 -2.60965 0.023238 4
16.3879 1.03104 -2.60072 0.0316167 4
20.2823 1.27605 -2.49527 0.19733 4
27.8238 1.75052 -2.43908 0.52517 10
48.4752 3.04979 -2.5455 0.2839 4
81.7154 5.14108 -1.42917 0.717046 10
75.0339 4.72072 1.31231 0.559141 10
27.2412 1.71386 1.43047 0.297027 10
28.0961 1.76765 2.46295 0.557201 10
28.0935 1.76748 3.45626 0.555212 10
27.1929 1.71082 4.31544 0.406347 10
27.2272 1.71298 5.30289 0.29212 10
28.0855 1.76698 6.49686 0.5452 10
28.0827 1.76681 7.53962 0.540528 10
9.90569 0.657933 -2.66007 0.106243 4
11.3381 0.753075 -2.62338 0.113613 4
13.3959 0.88975 -2.60963 0.0183224 4
16.384 1.08822 -2.60069 0.0297788 4
20.1883 1.3409 -2.48427 0.185218 4
27.6862 1.83891 -2.42756 0.527661 10
27.6827 1.83868 -1.45398 0.34943 10
27.6792 1.83844 -0.484207 0.3499 10
27.6757 1.83821 0.484145 0.349944 10
27.1065 1.80041 1.42372 0.298435 10
28.1622 1.87052 2.4693 0.555768 10
28.1595 1.87035 3.46518 0.553784 10
27.0585 1.79722 4.29509 0.408272 10
27.0927 1.79949 5.27789 0.293504 10
28.1515 1.86982 6.51361 0.543798 10
28.1487 1.86963 7.55905 0.539138 10
9.90327 0.692503 -2.66005 0.101415 4
11.3649 0.794709 -2.6302 0.0335729 4
13.3926 0.936498 -2.60961 0.0151943 4
16.38 1.1454 -2.60067 0.0117646 4
20.1241 1.40721 -2.47696 0.0319621 4
27.5499 1.92647 -2.41619 0.530145 10
27.6789 1.93549 -1.45413 0.470566 10
27.6764 1.93532 -0.484272 0.471184 10
27.6738 1.93514 0.484227 0.471228 10
26.9731 1.88614 1.41705 0.29984 10
28.2286 1.97393 2.47571 0.554328 10
28.226 1.97375 3.47418 0.552349 10
26.9254 1.8828 4.27498 0.410193 10
26.9594 1.88518 5.25318 0.294885 10
28.2179 1.97318 6.53052 0.54239 10
28.2151 1.97299 7.57868 0.537742 10
9.90074 0.727063 -2.66004 0.108659 4
11.3918 0.836561 -2.63709 0.0809517 4
16.3757 1.20256 -2.60064 0.0231617 4
20.1188 1.47743 -2.47693 0.0302348 4
27.4148 2.01322 -2.40495 0.532623 10
27.4114 2.01296 -1.44044 0.352715 10
27.408 2.01271 -0.479697 0.35319 10
27.4046 2.01246 0.479636 0.353234 10
26.841 1.97108 1.41047 0.30124 10
28.2954 2.07788 2.48219 0.552881 10
28.2927 2.07769 3.48327 0.550908 10
26.7935 1.96759 4.25511 0.412108 10
26.8274 1.97008 5.22876 0.296262 10
28.2846 2.07709 6.5476 0.540974 10
28.2818 2.07688 7.5985 0.536339 10
9.89809 0.761615 -2.66002 0.109867 4
11.4189 0.878633 -2.64405 0.123347 4
13.3855 1.02996 -2.60957 0.0330705 4
16.3713 1.2597 -2.60062 0.0448533 4
20.1133 1.54763 -2.4769 0.0354183 4
27.2811 2.09916 -2.39384 0.535094 10
27.4726 2.1139 -1.44403 0.468103 10
27.47 2.1137 -0.480909 0.468718 10
27.4675 2.1135 0.480864 0.468762 10
26.7101 2.05523 1.40395 0.302637 10
28.3625 2.18238 2.48873 0.551427 10
28.3599 2.18217 3.49245 0.54946 10
26.6629 2.0516 4.23547 0.414019 10
26.6966 2.05419 5.20464 0.297635 10
28.3517 2.18154 6.56485 0.539553 10
28.3489 2.18133 7.61852 0.53493 10
9.89531 0.796157 -2.66001 0.116508 4
11.4461 0.920928 -2.65107 0.113022 4
13.3817 1.07667 -2.60955 0.0196637 4
16.3666 1.31683 -2.6006 0.0139708 4
20.9991 1.68955 -2.5867 0.0316753 4
27.1485 2.18432 -2.38286 0.537559 10
27.1995 2.18842 -1.43007 0.466863 10
27.197 2.18821 -0.476259 0.467477 10
27.1944 2.18801 0.476214 0.46752 10
26.5804 2.1386 1.39752 0.304031 10
28.43 2.28742 2.49534 0.549967 10
28.4274 2.28721 3.50172 0.548005 10
26.5335 2.13483 4.21607 0.415924 10
26.567 2.13753 5.1808 0.299004 10
28.4191 2.28655 6.58228 0.538125 10
28.4163 2.28632 7.63874 0.533514 10
9.89242 0.830689 -2.66 0.11832 4
11.461 0.962404 -2.65529 0.0998657 4
13.3778 1.12336 -2.60953 0.0299426 4
16.3618 1.37394 -2.60057 0.0294125 4
20.9928 1.76282 -2.58667 0.0385867 4
27.0172 2.26869 -2.37202 0.540018 10
27.0138 2.26841 -1.42072 0.357611 10
27.0105 2.26814 -0.47313 0.358092 10
27.0072 2.26786 0.473071 0.358136 10
26.4465 2.22077 1.39088 0.51565 10
28.4979 2.39303 2.50202 0.5485 10
28.4952 2.39281 3.51108 0.546543 10
26.4052 2.21731 4.19689 0.417824 10
26.4364 2.21993 5.1568 0.507064 10
28.4869 2.39211 6.59987 0.53669 10
28.4841 2.39188 7.65916 0.532092 10
9.88941 0.865211 -2.65998 0.125565 4
11.4575 1.0024 -2.65527 0.109327 4
13.3737 1.17005 -2.60951 0.0169825 4
20.9572 1.83352 -2.58305 0.057898 4
26.887 2.35231 -2.36129 0.542469 10
26.9896 2.36129 -1.41987 0.464366 10
26.9871 2.36106 -0.472861 0.464977 10
26.9846 2.36084 0.472816 0.46502 10
26.3245 2.30309 1.38488 0.306806 10
28.5661 2.49921 2.50876 0.547027 10
28.5634 2.49897 3.52054 0.545075 10
26.2781 2.29903 4.17794 0.41972 10
26.3114 2.30195 5.13395 0.301733 10
28.5551 2.49825 6.61765 0.535249 10
28.5523 2.498 7.67978 0.530663 10
9.88628 0.89972 -2.65997 0.0120736 4
11.4538 1.04238 -2.65525 0.122468 4
13.3694 1.21671 -2.60949 0.0348591 4
16.3515 1.4881 -2.60053 0.0113975 4
20.8679 1.89912 -2.57285 0.189276 4
26.758 2.43517 -2.3507 0.544914 10
26.7548 2.43487 -1.40795 0.360854 10
26.7515 2.43457 -0.468879 0.361338 10
26.7483 2.43428 0.468822 0.361382 10
26.1983 2.38422 1.37867 0.308188 10
28.6347 2.60595 2.51556 0.545547 10
28.632 2.60571 3.53009 0.5436 10
26.1521 2.38003 4.15921 0.42161 10
26.1853 2.38304 5.11094 0.303091 10
28.6236 2.60495 6.63559 0.533801 10
28.6208 2.60469 7.7006 0.529228 10
9.88303 0.934219 -2.65996 0.0277693 4
11.4501 1.08235 -2.65524 0.100919 4
13.365 1.26336 -2.60948 0.0165358 4
16.3461 1.54516 -2.60051 0.01103 4
20.7793 1.96422 -2.56275 0.145873 4
26.6302 2.51729 -2.34023 0.547353 10
26.7779 2.53125 -1.40963 0.461847 10
26.7753 2.53101 -0.469449 0.462454 10
26.7728 2.53077 0.469404 0.462497 10
26.0732 2.46463 1.37253 0.309567 10
28.7036 2.71329 2.52244 0.54406 10
28.7009 2.71303 3.53974 0.542119 10
26.0273 2.4603 4.1407 0.423495 10
26.0603 2.46342 5.08819 0.304446 10
28.6925 2.71224 6.65372 0.532346 10
28.6897 2.71197 7.72164 0.527786 10
9.87966 0.968708 -2.65994 0.0199216 4
11.4462 1.1223 -2.65522 0.095663 4
13.3604 1.31 -2.60946 0.0245804 4
16.3405 1.60219 -2.60049 0.0136037 4
20.6914 2.0288 -2.55276 0.154764 4
26.5035 2.59869 -2.32988 0.549784 10
26.5003 2.59837 -1.39548 0.364078 10
26.4975 2.5981 -0.464734 0.461184 10
26.495 2.59785 0.464689 0.461228 10
25.9492 2.54433 1.36646 0.310942 10
28.773 2.82121 2.52938 0.542566 10
28.7702 2.82094 3.54948 0.540631 10
25.9036 2.53986 4.1224 0.425375 10
25.9364 2.54309 5.06571 0.305798 10
28.7618 2.82012 6.67203 0.530886 10
28.7589 2.81983 7.74289 0.526338 10
9.87618 1.00318 -2.65993 0.0175069 4
11.4421 1.16224 -2.65521 0.101971 4
16.3346 1.65921 -2.60047 0.022428 4
20.6041 2.09288 -2.54288 0.144974 4
26.3779 2.67937 -2.31964 0.55221 10
26.5643 2.6983 -1.39934 0.459304 10
26.5617 2.69804 -0.466023 0.459908 10
26.5592 2.69778 0.465978 0.459952 10
25.8263 2.62333 1.36046 0.312312 10
28.8427 2.92973 2.53639 0.541066 10
28.8399 2.92945 3.55932 0.539136 10
25.7809 2.61873 4.10431 0.427249 10
25.8136 2.62205 5.04348 0.307145 10
28.8315 2.92859 6.69052 0.529418 10
28.8286 2.9283 7.76434 0.524883 10
9.87257 1.03765 -2.65992 0.0132812 4
11.4379 1.20217 -2.6552 0.0404732 4
13.3508 1.40322 -2.60943 0.0303907 4
20.5174 2.15646 -2.5331 0.181646 4
26.2534 2.75934 -2.30953 0.554628 10
26.2846 2.76262 -1.38511 0.458025 10
26.2821 2.76236 -0.461283 0.458627 10
26.2796 2.7621 0.461239 0.458671 10
25.7044 2.70164 1.35453 0.31368 10
28.9128 3.03886 2.54348 0.539559 10
28.91 3.03856 3.56926 0.537635 10
25.6594 2.6969 4.08643 0.429119 10
25.6919 2.70033 5.02151 0.308489 10
28.9015 3.03767 6.7092 0.527945 10
28.8986 3.03736 7.78601 0.523422 10
9.86884 1.0721 -2.65991 0.0181108 4
11.4336 1.24208 -2.65518 0.0204995 4
13.3457 1.44981 -2.60941 0.0169832 4
16.3224 1.77318 -2.60043 0.011398 4
20.4314 2.21956 -2.52342 0.166536 4
26.13 2.83863 -2.29953 0.55704 10
26.3487 2.86239 -1.389 0.45674 10
26.3462 2.86211 -0.462581 0.457341 10
26.3437 2.86184 0.462536 0.457384 10
25.5837 2.77927 1.34867 0.315043 10
28.9616 3.14623 2.54872 0.52544 10
28.9581 3.14585 3.57653 0.523579 10
25.5388 2.7744 4.06875 0.430983 10
25.5713 2.77793 4.99979 0.309829 10
28.9474 3.14469 6.72236 0.51418 10
28.9438 3.1443 7.80109 0.421645 10
9.865 1.10654 -2.65989 0.117721 4
11.4291 1.28198 -2.65517 0.0115639 4
13.3405 1.49638 -2.6094 0.0174302 4
16.316 1.83013 -2.60041 0.0165456 4
20.346 2.28217 -2.51384 0.206851 4
26.0077 2.91723 -2.28965 0.559444 10
39.897 4.47516 -2.10402 0.560878 10
39.8922 4.47463 -0.700688 0.561629 10
39.8875 4.4741 0.700604 0.561696 10
25.4639 2.85623 1.34288 0.316402 10
25.4255 2.85192 2.23839 0.409363 10
28.9289 3.2449 3.5743 0.525837 10
25.4193 2.85123 4.05128 0.432842 10
25.4516 2.85486 4.97832 0.311165 10
28.9183 3.24371 6.71818 0.516397 10
28.8084 3.23138 7.7676 0.423463 10
9.86104 1.14096 -2.65988 0.111684 4
11.4245 1.32186 -2.65516 0.0278586 4
13.3351 1.54293 -2.60938 0.0147487 4
20.2612 2.3443 -2.50436 0.165478 4
25.8864 2.99516 -2.27987 0.561842 10
39.7109 4.59471 -2.09504 0.563282 10
39.7062 4.59416 -0.697698 0.564036 10
39.7015 4.59362 0.697615 0.564102 10
25.3452 2.93254 1.33715 0.317758 10
25.3069 2.92811 2.22884 0.411117 10
25.3009 2.92741 4.034 0.434696 10
25.333 2.93113 4.9571 0.312498 10
28.6742 3.31772 7.73448 0.425276 10
9.85696 1.17537 -2.65987 0.12074 4
11.4198 1.36173 -2.65515 0.0614995 4
13.3296 1.58946 -2.60937 0.0156427 4
16.3026 1.94397 -2.60037 0.00845675 4
20.1771 2.40597 -2.49498 0.216 4
25.7661 3.07242 -2.27021 0.564233 10
39.5264 4.71324 -2.08617 0.565679 10
39.5218 4.71269 -0.694742 0.566436 10
39.5171 4.71213 0.69466 0.566502 10
25.2275 3.0082 1.33148 0.31911 10
25.1894 3.00366 2.2194 0.412865 10
25.1834 3.00294 4.01692 0.436545 10
25.2154 3.00676 4.93611 0.313826 10
28.5411 3.40332 7.70175 0.427083 10
9.85276 1.20976 -2.65986 0.143077 4
11.4149 1.40157 -2.65513 0.0373204 4
13.3239 1.63597 -2.60935 0.0134081 4
16.2956 2.00085 -2.60036 0.0283119 4
20.0935 2.46717 -2.4857 0.17224 4
25.6469 3.14903 -2.26066 0.566617 10
39.3435 4.83077 -2.07739 0.568069 10
39.3389 4.8302 -0.69182 0.568828 10
39.3343 4.82963 0.691738 0.568895 10
25.0759 3.07892 1.32404 0.443086 10
25.0729 3.07856 2.21007 0.442058 10
25.0699 3.0782 3.10132 0.440491 10
25.067 3.07783 4.00003 0.438388 10
25.0639 3.07746 4.90852 0.43575 10
25.0609 3.07708 5.8292 0.432581 10
25.0577 3.0767 6.76462 0.428886 10
9.84844 1.24414 -2.65985 0.125571 4
11.4099 1.44141 -2.65512 0.0215513 4
13.318 1.68246 -2.60934 0.0192183 4
16.2884 2.05771 -2.60034 0.0235321 4
20.0109 2.52797 -2.47656 0.0339832 4
25.5286 3.22501 -2.25122 0.568995 10
38.8838 4.91216 -2.05401 0.570452 10
38.8793 4.91159 -0.684034 0.571215 10
38.8747 4.91102 0.683954 0.571282 10
24.9603 3.15321 1.31851 0.444945 10
24.9574 3.15284 2.20084 0.443912 10
24.9544 3.15247 3.08837 0.442338 10
24.9515 3.1521 3.98333 0.440226 10
24.9485 3.15172 4.88803 0.437577 10
24.9454 3.15133 5.80487 0.434394 10
24.9423 3.15094 6.73639 0.430683 10
9.844 1.27851 -2.65984 0.124967 4
11.4048 1.48122 -2.65511 0.0210257 4
13.312 1.72893 -2.60933 0.0308388 4
16.2811 2.11454 -2.60033 0.0125015 4
20.0018 2.59778 -2.47654 0.0426233 4
25.4113 3.30035 -2.24188 0.571365 10
38.7052 5.02692 -2.04549 0.572829 10
38.7007 5.02634 -0.681197 0.573594 10
38.6962 5.02575 0.681117 0.573661 10
24.9828 3.2447 1.32029 0.53007 10
24.9804 3.24438 2.20386 0.528829 10
24.978 3.24407 3.09267 0.526944 10
24.9755 3.24375 3.98895 0.524417 10
24.973 3.24342 4.89503 0.521251 10
24.9705 3.24309 5.8133 0.51745 10
24.9679 3.24276 6.74631 0.513018 10
9.83944 1.31286 -2.65984 0.109271 4
11.3995 1.52101 -2.6551 0.074116 4
13.3058 1.77538 -2.60932 0.0286043 4
16.2735 2.17135 -2.60031 0.0194878 4
19.9925 2.66757 -2.47653 0.0351357 4
25.295 3.37507 -2.23264 0.573729 10
38.5281 5.14074 -2.03707 0.575198 10
38.5236 5.14014 -0.678392 0.575966 10
38.5192 5.13955 0.678313 0.576033 10
25.0452 3.34174 1.3242 0.528508 10
25.0427 3.34141 2.21037 0.527271 10
25.0403 3.34108 3.10181 0.525391 10
25.0378 3.34075 4.00074 0.522872 10
25.0353 3.34042 4.90949 0.519715 10
25.0327 3.34008 5.83048 0.515925 10
25.0302 3.33973 6.76625 0.511507 10
9.83477 1.34719 -2.65983 0.11712 4
11.3941 1.56079 -2.65509 0.0315388 4
13.2995 1.8218 -2.6093 0.0116205 4
19.9829 2.73732 -2.47651 0.0417599 4
25.1797 3.44918 -2.22351 0.576085 10
25.1768 3.44878 -1.33178 0.57756 10
25.1739 3.44839 -0.443515 0.578331 10
25.1709 3.44799 0.443463 0.578398 10
25.1079 3.43935 1.32814 0.526939 10
25.1055 3.43902 2.21695 0.525705 10
25.103 3.43868 3.11104 0.523832 10
25.1005 3.43834 4.01265 0.52132 10
25.098 3.43799 4.92411 0.518173 10
25.0954 3.43764 5.84783 0.514394 10
25.0928 3.43728 6.78638 0.509989 10
9.82997 1.38151 -2.65982 0.0241485 4
11.3885 1.60055 -2.65508 0.0252312 4
