VERSION 0.7
FIELDS x y z intensity label
SIZE 4 4 4 4 4
TYPE F F F F F
COUNT 1 1 1 1 1
WIDTH 1251
HEIGHT 1
VIEWPOINT 4.57939 4.07289 2.72884 -0.539816 -0.000374066 -0.0011635 0.841782
POINTS 1251
DATA ascii
-27.6904 11.64 -0.524305 0.655771 10
-27.6896 11.6396 0.524289 0.655791 10
-21.8559 9.18739 1.24251 0.468575 10
-21.8586 9.18852 2.07447 0.467375 10
-21.8613 9.18965 2.91175 0.465606 10
-21.864 9.19079 3.75644 0.463269 10
-21.8668 9.19195 4.61074 0.460368 10
-21.8696 9.19313 5.47694 0.456907 10
-21.8724 9.19432 6.35744 0.452888 10
-9.3127 3.8765 -2.70289 0.0225895 4
-10.9646 4.56412 -2.74193 0.0850577 1
-12.7357 5.30135 -2.68147 0.226814 4
-16.019 6.66805 -2.74819 0.0590157 1
-20.7071 8.61955 -2.754 0.0458789 1
-27.2525 11.3441 -2.58261 0.0765717 10
-27.821 11.5808 -1.57931 0.65285 10
-27.8202 11.5804 -0.525994 0.653666 10
-27.8193 11.5801 0.525977 0.653686 10
-21.805 9.07656 1.2378 0.470355 10
-21.8077 9.07767 2.06662 0.469151 10
-21.8104 9.07878 2.90072 0.467375 10
-21.8131 9.07991 3.74222 0.46503 10
-21.8158 9.08105 4.59328 0.462118 10
-21.8186 9.0822 5.4562 0.458643 10
-21.8214 9.08338 6.33337 0.45461 10
-9.32644 3.84408 -2.70296 0.0243722 4
-10.9808 4.52597 -2.74202 0.0850549 1
-12.7139 5.24029 -2.67302 0.190882 4
-16.0429 6.61242 -2.74832 0.0590129 1
-20.7384 8.54775 -2.75417 0.0458761 1
-27.2943 11.2499 -2.58283 0.076565 10
-28.1789 11.6145 -1.59732 0.65074 10
-28.1781 11.6142 -0.531991 0.651554 10
-28.1772 11.6138 0.531975 0.651573 10
-21.7545 8.96658 1.23315 0.472129 10
-21.7572 8.96767 2.05886 0.47092 10
-21.7598 8.96877 2.88982 0.469138 10
-21.7625 8.96988 3.72815 0.466784 10
-21.7653 8.971 4.57602 0.463862 10
-21.768 8.97213 5.43569 0.460374 10
-21.7708 8.97329 6.30955 0.456326 10
-9.34007 3.81161 -2.70304 0.0142662 4
-10.9969 4.48776 -2.74211 0.0850522 1
-12.6922 5.17961 -2.66465 0.2068 4
-16.0667 6.55669 -2.74845 0.0590101 1
-20.7694 8.47583 -2.75434 0.0458732 1
-27.3358 11.1555 -2.58306 0.0765584 10
-28.3114 11.5537 -1.60253 0.648622 10
-28.3106 11.5533 -0.533728 0.649433 10
-28.3097 11.553 0.533712 0.649452 10
-21.7044 8.8574 1.22855 0.473897 10
-21.707 8.85848 2.05117 0.472684 10
-21.7097 8.85956 2.87904 0.470896 10
-21.7124 8.86065 3.71423 0.468533 10
-21.7151 8.86175 4.55893 0.4656 10
-21.7178 8.86287 5.41539 0.4621 10
-21.7206 8.86401 6.28599 0.458036 10
-9.35358 3.77909 -2.70311 0.0190211 4
-11.0129 4.44949 -2.7422 0.0850494 1
-12.6707 5.1193 -2.65636 0.199762 4
-16.0902 6.50088 -2.74858 0.0590073 1
-20.8001 8.4038 -2.75451 0.0458704 1
-27.377 11.061 -2.58328 0.0765517 10
-28.4448 11.4925 -1.6078 0.646496 10
-28.444 11.4921 -0.535483 0.647305 10
-28.4431 11.4918 0.535467 0.647324 10
-21.6547 8.74905 1.224 0.475659 10
-21.6573 8.75011 2.04357 0.474443 10
-21.6599 8.75117 2.86837 0.472647 10
-21.6626 8.75225 3.70047 0.470277 10
-21.6653 8.75333 4.54203 0.467333 10
-21.668 8.75443 5.39531 0.463819 10
-21.6707 8.75555 6.26268 0.459741 10
-9.36697 3.74653 -2.70319 0.0184262 4
-11.0287 4.41117 -2.74229 0.0850466 1
-12.6493 5.05935 -2.64815 0.194216 4
-16.1136 6.44498 -2.74871 0.0590045 1
-20.8306 8.33166 -2.75468 0.0458676 1
-27.4178 10.9663 -2.5835 0.0765451 10
-28.5791 11.4308 -1.61313 0.644363 10
-28.5782 11.4305 -0.537256 0.645168 10
-28.5774 11.4301 0.53724 0.645188 10
-21.6053 8.6415 1.2195 0.477416 10
-21.6079 8.64254 2.03605 0.476195 10
-21.6105 8.64359 2.85781 0.474393 10
-21.6131 8.64464 3.68685 0.472014 10
-21.6158 8.64571 4.52531 0.469059 10
-21.6185 8.6468 5.37545 0.465533 10
-21.6213 8.6479 6.23962 0.46144 10
-9.38026 3.71391 -2.70327 0.0202088 4
-11.0444 4.37278 -2.74238 0.0850438 1
-12.6279 4.99975 -2.64001 0.222645 4
-16.1368 6.389 -2.74885 0.0590016 1
-20.8609 8.2594 -2.75485 0.0458648 1
-27.4583 10.8715 -2.58373 0.0765384 10
-28.7143 11.3688 -1.61851 0.642221 10
-28.7134 11.3684 -0.539048 0.643024 10
-28.7125 11.3681 0.539031 0.643043 10
-21.5562 8.53472 1.21504 0.479167 10
-21.5588 8.53574 2.02861 0.477942 10
-21.5614 8.53678 2.84736 0.476134 10
-21.5641 8.53782 3.67337 0.473746 10
-21.5667 8.53887 4.50876 0.470781 10
-21.5694 8.53993 5.35579 0.467242 10
-21.5721 8.54101 6.2168 0.463134 10
-9.39343 3.68125 -2.70334 0.0635964 4
-11.0599 4.33435 -2.74247 0.0850411 1
-12.6067 4.94052 -2.63196 0.148885 4
-16.1597 6.33293 -2.74898 0.0589988 1
-20.8908 8.18704 -2.75501 0.0458619 1
-27.4985 10.7765 -2.58395 0.0765318 10
-28.8503 11.3063 -1.62394 0.640072 10
-28.8494 11.306 -0.540858 0.640872 10
-28.8486 11.3056 0.540841 0.640891 10
-21.5076 8.42874 1.21063 0.480912 10
-21.5102 8.42974 2.02125 0.479682 10
-21.5127 8.43076 2.83703 0.477868 10
-21.5153 8.43178 3.66003 0.475472 10
-21.518 8.43281 4.4924 0.472496 10
-21.5207 8.43386 5.33635 0.468944 10
-21.5234 8.43493 6.19423 0.464822 10
-9.40648 3.64853 -2.70342 0.0291228 4
-11.0754 4.29585 -2.74255 0.0850383 1
-12.5856 4.88163 -2.62397 0.164894 4
-16.1825 6.27678 -2.74911 0.0589961 1
-20.9206 8.11456 -2.75518 0.0458591 1
-27.5383 10.6814 -2.58418 0.0765252 10
-28.9873 11.2434 -1.62943 0.637914 10
-28.9864 11.2431 -0.542687 0.638712 10
-28.9855 11.2428 0.54267 0.638731 10
-21.4593 8.3235 1.20627 0.482652 10
-21.4618 8.32449 2.01396 0.481418 10
-21.4644 8.32549 2.8268 0.479597 10
-21.467 8.32649 3.64684 0.477192 10
-21.4696 8.32751 4.4762 0.474206 10
-21.4723 8.32854 5.3171 0.470641 10
-21.475 8.32959 6.17189 0.466504 10
-9.41942 3.61578 -2.70349 0.0469518 4
-11.0906 4.2573 -2.74264 0.0850356 1
-12.5646 4.82309 -2.61607 0.274613 4
-16.2051 6.22055 -2.74924 0.0589933 1
-20.95 8.04198 -2.75535 0.0458563 1
-27.5778 10.5861 -2.5844 0.0765186 10
-29.1252 11.1801 -1.63498 0.635749 10
-29.1243 11.1798 -0.544535 0.636544 10
-29.1234 11.1795 0.544518 0.636564 10
-21.4113 8.21903 1.20195 0.484385 10
-21.4138 8.22001 2.00676 0.483147 10
-21.4164 8.22099 2.81669 0.48132 10
-21.419 8.22198 3.63379 0.478906 10
-21.4216 8.22298 4.46018 0.475909 10
-21.4242 8.22399 5.29807 0.472333 10
-21.4269 8.22502 6.14979 0.468181 10
-9.43225 3.58298 -2.70357 0.0190179 4
-11.1058 4.2187 -2.74273 0.0850328 1
-12.5437 4.76489 -2.60823 0.200318 4
-16.2275 6.16423 -2.74937 0.0589905 1
-20.9793 7.96928 -2.75552 0.0458535 1
-23.7163 9.00898 -2.21957 0.076512 10
-29.2641 11.1164 -1.64059 0.633576 10
-29.2632 11.116 -0.546403 0.634369 10
-29.2623 11.1157 0.546385 0.634388 10
-21.3637 8.11529 1.19768 0.486112 10
-21.3662 8.11625 1.99962 0.48487 10
-21.3687 8.11722 2.80667 0.483037 10
-21.3713 8.11819 3.62087 0.480615 10
-21.3739 8.11918 4.44432 0.477607 10
-21.3765 8.12017 5.27923 0.474018 10
-21.3792 8.12119 6.12792 0.469851 10
-9.44496 3.55013 -2.70364 0.0540807 4
-11.1208 4.18004 -2.74282 0.0850301 1
-12.5229 4.70704 -2.60047 0.204055 4
-16.2496 6.10784 -2.7495 0.0589877 1
-21.0082 7.89648 -2.75569 0.0458507 1
-23.7496 8.92691 -2.21976 0.0765055 10
-29.4039 11.0522 -1.64626 0.631396 10
-29.403 11.0519 -0.548289 0.632186 10
-29.4021 11.0515 0.548272 0.632205 10
-21.3362 8.01975 1.19456 0.492353 10
-21.3355 8.0195 1.99412 0.491168 10
-21.3349 8.01925 2.79853 0.489384 10
-21.3342 8.019 3.60982 0.487004 10
-21.3335 8.01875 4.43008 0.484031 10
-21.3328 8.01849 5.26149 0.480468 10
-21.3321 8.01822 6.10637 0.476319 10
-9.45756 3.51723 -2.70372 0.0314967 4
-11.1357 4.14133 -2.74291 0.0850273 1
-12.5139 4.65386 -2.59522 0.0642914 4
-16.2716 6.05136 -2.74962 0.0589849 1
-21.037 7.82357 -2.75586 0.045848 1
-23.7827 8.8447 -2.21995 0.0764989 10
-29.5447 10.9876 -1.65198 0.629208 10
-29.5438 10.9872 -0.550196 0.629995 10
-29.5429 10.9869 0.550179 0.630014 10
-21.4384 7.97285 1.19872 0.490647 10
-21.4377 7.9726 2.00106 0.489465 10
-21.437 7.97235 2.80826 0.487688 10
-21.4363 7.9721 3.62237 0.485316 10
-21.4357 7.97185 4.44548 0.482354 10
-21.435 7.97159 5.27979 0.478803 10
-21.4343 7.97133 6.1276 0.474669 10
-9.47004 3.4843 -2.70379 0.0326843 4
-11.1504 4.10257 -2.743 0.0850246 1
-12.5305 4.61033 -2.59531 0.0454833 4
-16.2934 5.99481 -2.74975 0.0589822 1
-21.0654 7.75057 -2.75602 0.0458452 1
-23.8592 8.77848 -2.22422 0.625463 10
-29.6865 10.9225 -1.65777 0.627012 10
-29.6856 10.9222 -0.552123 0.627796 10
-29.6846 10.9218 0.552105 0.627816 10
-21.5412 7.92563 1.20291 0.488934 10
-21.5405 7.92538 2.00806 0.487758 10
-21.5399 7.92513 2.8181 0.485986 10
-21.5392 7.92488 3.63505 0.483623 10
-21.5385 7.92463 4.46105 0.480671 10
-21.5378 7.92437 5.29827 0.477133 10
-21.5371 7.92411 6.14906 0.473013 10
-9.48241 3.45132 -2.70387 0.0546704 4
-11.1651 4.06375 -2.74308 0.0850219 1
-12.547 4.56674 -2.59541 0.0695344 4
-16.315 5.93818 -2.74988 0.0589794 1
-21.0936 7.67746 -2.75619 0.0458424 1
-23.9739 8.72581 -2.23206 0.623265 10
-10.2556 3.73274 -0.571967 0.443693 8
-29.8283 10.8566 -0.55407 0.62559 10
-29.8274 10.8563 0.554052 0.62561 10
-21.6448 7.87807 1.20716 0.487217 10
-21.6441 7.87782 2.01514 0.486044 10
-21.6434 7.87758 2.82803 0.484279 10
-21.6428 7.87733 3.64787 0.481924 10
-21.6421 7.87708 4.47677 0.478982 10
-21.6414 7.87682 5.31695 0.475456 10
-21.6406 7.87656 6.17073 0.471351 10
-9.49466 3.41829 -2.70394 0.0380306 4
-11.1672 4.02044 -2.74015 0.19392 4
-12.5633 4.52308 -2.59551 0.0660333 4
-16.3364 5.88147 -2.75001 0.0589766 1
-21.1216 7.60423 -2.75636 0.0458396 1
-24.0895 8.67276 -2.23999 0.621059 10
-10.305 3.71004 -0.573998 0.452559 8
-29.9721 10.7906 -0.556038 0.623376 10
-29.9712 10.7903 0.55602 0.623396 10
-21.7491 7.83017 1.21144 0.485492 10
-21.7485 7.82993 2.0223 0.484324 10
-21.7478 7.82968 2.83807 0.482565 10
-21.7471 7.82943 3.66082 0.480219 10
-21.7464 7.82918 4.49267 0.477287 10
-21.7457 7.82892 5.33583 0.473774 10
-21.7449 7.82866 6.19264 0.469684 10
-9.50679 3.38522 -2.70402 0.0273337 4
-11.1468 3.9692 -2.73173 0.223273 4
-12.5795 4.47937 -2.59561 0.0546612 4
-16.3576 5.82468 -2.75014 0.0589739 1
-21.1493 7.53092 -2.75652 0.0458369 1
-24.2059 8.61934 -2.248 0.618846 10
-10.3548 3.68719 -0.576051 0.466379 8
-30.1169 10.7242 -0.558026 0.621155 10
-30.116 10.7238 0.558008 0.621174 10
-21.8542 7.78194 1.21578 0.483763 10
-21.8535 7.78169 2.02953 0.482598 10
-21.8528 7.78145 2.84822 0.480846 10
-21.8521 7.7812 3.67391 0.478508 10
-21.8514 7.78095 4.50873 0.475587 10
-21.8507 7.78069 5.35491 0.472086 10
-21.85 7.78043 6.21478 0.468011 10
-9.51881 3.3521 -2.70409 0.0255504 4
-11.1265 3.91827 -2.72339 0.242619 4
-12.5956 4.4356 -2.59571 0.0638419 4
-16.3786 5.76781 -2.75027 0.0589711 1
-21.1767 7.45749 -2.75669 0.0458341 1
-10.4179 3.66872 -0.966312 0.106003 8
-10.405 3.66417 -0.578126 0.475351 8
-10.4106 3.66614 -0.192656 0.353878 8
-22.9271 8.07392 0.424284 0.639598 10
-21.96 7.73335 1.22015 0.482027 10
-21.9593 7.73311 2.03684 0.480866 10
-21.9586 7.73286 2.85848 0.479121 10
-21.9579 7.73261 3.68714 0.476791 10
-21.9572 7.73236 4.52497 0.47388 10
-21.9565 7.73211 5.37419 0.470392 10
-21.9558 7.73185 6.23716 0.466331 10
-9.53072 3.31895 -2.70416 0.0303031 4
-11.1063 3.86764 -2.71513 0.231445 4
-12.6115 4.39177 -2.59581 0.0529081 4
-16.3994 5.71087 -2.7504 0.0589684 1
-21.2039 7.38397 -2.75685 0.0458313 1
-10.4558 3.6411 -0.968644 0.438863 8
-10.4555 3.64099 -0.580223 0.48931 8
-10.4551 3.64087 -0.193244 0.499747 8
-22.878 7.96698 0.422858 0.641754 10
-22.0666 7.68442 1.22458 0.480285 10
-22.0659 7.68417 2.04423 0.479129 10
-22.0652 7.68393 2.86884 0.47739 10
-22.0645 7.68368 3.70051 0.475068 10
-22.0638 7.68343 4.54138 0.472168 10
-22.0631 7.68318 5.39368 0.468693 10
-22.0623 7.68292 6.25977 0.464647 10
-9.54251 3.28575 -2.70424 0.0320848 4
-11.0863 3.81731 -2.70695 0.233851 4
-12.6272 4.34789 -2.5959 0.0572785 4
-16.42 5.65385 -2.75052 0.0589657 1
-21.2308 7.31034 -2.75702 0.0458286 1
-10.5067 3.61774 -0.972183 0.452701 8
-10.5064 3.61763 -0.582342 0.498387 8
-10.506 3.61751 -0.19395 0.491491 8
-22.8293 7.86075 0.421447 0.643903 10
-22.174 7.63512 1.22905 0.478537 10
-22.1733 7.63488 2.05169 0.477386 10
-22.1726 7.63463 2.87932 0.475652 10
-22.1719 7.63439 3.71402 0.47334 10
-22.1712 7.63414 4.55796 0.47045 10
-22.1704 7.63388 5.41337 0.466988 10
-22.1697 7.63363 6.28263 0.462956 10
-9.55418 3.25251 -2.70431 0.0754566 4
-11.0663 3.76729 -2.69885 0.244826 4
-12.6428 4.30395 -2.596 0.0594624 4
-16.4404 5.59676 -2.75065 0.0589629 1
-21.2574 7.23663 -2.75718 0.0458259 1
-10.5579 3.59422 -0.975758 0.464133 8
-10.5576 3.5941 -0.584483 0.512482 8
-10.5573 3.59399 -0.194663 0.480672 8
-22.7808 7.75523 0.420051 0.646044 10
-22.2822 7.58547 1.23357 0.476784 10
-22.2814 7.58523 2.05924 0.475637 10
-22.2807 7.58498 2.88991 0.47391 10
-22.28 7.58474 3.72768 0.471606 10
-22.2793 7.58449 4.57472 0.468727 10
-22.2785 7.58424 5.43327 0.465277 10
-22.2778 7.58398 6.30573 0.46126 10
-9.56573 3.21923 -2.70438 0.0552541 4
-10.6011 3.56766 -2.58233 0.373385 8
-10.6023 3.56809 -2.17446 0.376179 8
-10.6036 3.5685 -1.772 0.378514 8
-10.6048 3.56891 -1.37387 0.380388 8
-10.606 3.56932 -0.979043 0.381798 8
-10.6072 3.56973 -0.586537 0.382744 8
-10.6089 3.57029 -0.195384 0.472264 8
-22.7327 7.65041 0.418669 0.648177 10
-22.3911 7.53545 1.23814 0.475025 10
-22.3904 7.53521 2.06686 0.473882 10
-22.3897 7.53497 2.90061 0.472162 10
-22.3889 7.53472 3.74148 0.469866 10
-22.3882 7.53447 4.59166 0.466998 10
-22.3875 7.53422 5.45339 0.463561 10
-22.3867 7.53397 6.32908 0.459559 10
-9.57717 3.1859 -2.70446 0.0558467 4
-10.6147 3.53103 -2.58263 0.398494 8
-10.6143 3.53092 -2.17438 0.401415 8
-10.614 3.5308 -1.77166 0.403846 8
-10.6136 3.53068 -1.3734 0.405786 8
-10.6133 3.53057 -0.97857 0.407231 8
-10.6129 3.53046 -0.586168 0.40818 8
-10.6609 3.54641 -0.196113 0.461277 8
-22.6849 7.54626 0.4173 0.650302 10
-22.5009 7.48505 1.24276 0.47326 10
-22.5002 7.48481 2.07457 0.472121 10
-22.4994 7.48457 2.91143 0.470407 10
-22.4987 7.48432 3.75544 0.46812 10
-22.498 7.48408 4.60878 0.465263 10
-22.4972 7.48383 5.47373 0.461839 10
-22.4964 7.48357 6.35268 0.457852 10
-9.58849 3.15254 -2.70453 0.0249521 4
-11.1502 3.66601 -2.7098 0.214547 4
-12.6886 4.17179 -2.59629 0.0533353 4
-16.5004 5.42505 -2.75103 0.0589548 1
-21.3359 7.01489 -2.75768 0.0458177 1
-10.714 3.52259 -0.986717 0.501296 8
-10.7137 3.52247 -0.591048 0.499952 8
-10.7133 3.52236 -0.19685 0.452718 8
-22.6374 7.44281 0.415946 0.652419 10
-22.6115 7.43428 1.24742 0.471489 10
-22.6107 7.43404 2.08236 0.470355 10
-22.61 7.4338 2.92236 0.468647 10
-22.6093 7.43356 3.76954 0.466369 10
-22.6085 7.43331 4.62609 0.463522 10
-22.6078 7.43306 5.49428 0.460111 10
-22.607 7.43281 6.37653 0.456139 10
-9.5997 3.11913 -2.7046 0.0130698 4
-11.2009 3.63941 -2.71902 0.22025 4
-12.7035 4.12762 -2.59639 0.0546448 4
-16.52 5.36766 -2.75116 0.0589521 1
-21.3615 6.94077 -2.75784 0.045815 1
-10.7668 3.49835 -0.99045 0.515489 8
-10.7665 3.49824 -0.593284 0.488966 8
-10.7661 3.49812 -0.197594 0.441566 8
-22.7237 7.38336 0.417055 0.603133 10
-22.7229 7.38312 1.25214 0.469712 10
-22.7222 7.38289 2.09024 0.468582 10
-22.7214 7.38264 2.93341 0.466881 10
-22.7207 7.3824 3.7838 0.464612 10
-22.7199 7.38216 4.64358 0.461776 10
-22.7192 7.38191 5.51506 0.458377 10
-22.7184 7.38165 6.40064 0.454421 10
-9.61079 3.08569 -2.70468 0.0291092 4
-11.252 3.61262 -2.72833 0.230714 4
-12.7183 4.08341 -2.59649 0.0489599 4
-16.5394 5.31021 -2.75128 0.0589494 1
-21.3722 6.86186 -2.75611 0.652127 10
-10.82 3.47393 -0.994223 0.527234 8
-10.8197 3.47382 -0.595543 0.477892 8
-10.8193 3.4737 -0.198347 0.432858 8
-22.8359 7.33182 0.418643 0.600844 10
-22.8072 7.3226 1.25537 0.369793 10
-22.8098 7.32343 2.09593 0.36885 10
-22.8337 7.3311 2.94458 0.46511 10
-22.7859 7.31576 3.79038 0.474138 10
-22.7885 7.31661 4.65235 0.471173 10
-22.8203 7.32679 5.53336 0.360604 10
-22.8306 7.33012 6.42502 0.452697 10
-9.62176 3.0522 -2.70475 0.0338608 4
-11.3034 3.58564 -2.73774 0.239501 4
-12.733 4.03914 -2.59658 0.0686287 4
-16.5585 5.25268 -2.75141 0.0589467 1
-21.328 6.76565 -2.74735 0.654206 10
-22.9513 7.28059 -2.10659 0.596303 10
-10.8733 3.44921 -0.597828 0.471806 8
-10.8729 3.44909 -0.199108 0.419002 8
-22.9491 7.27988 0.420249 0.598548 10
-22.7601 7.21992 1.25138 0.370972 10
-22.7626 7.22073 2.08927 0.370026 10
-22.9468 7.27916 2.95588 0.463333 10
-22.7388 7.21317 3.77833 0.47565 10
-22.7414 7.214 4.63756 0.472676 10
-22.7731 7.22404 5.51576 0.361754 10
-22.9437 7.27818 6.44966 0.450967 10
-9.63261 3.01868 -2.70482 0.0599974 4
-11.3426 3.55455 -2.74421 0.084987 1
-12.7475 3.99482 -2.59668 0.0546387 4
-16.5775 5.19509 -2.75153 0.058944 1
-21.2842 6.67006 -2.73869 0.656275 10
-25.5442 8.00507 -2.342 0.594008 10
-10.9273 3.42441 -0.600137 0.458031 8
-25.6865 8.04968 -0.469861 0.660882 10
-25.6894 8.05057 0.469913 0.660808 10
-22.7132 7.1179 1.24743 0.372147 10
-22.7158 7.1187 2.08267 0.371198 10
-22.692 7.11123 3.7664 0.477156 10
-22.6946 7.11205 4.62292 0.474173 10
-22.7261 7.12194 5.49834 0.3629 10
-9.64335 2.98511 -2.7049 0.0142564 4
-11.3553 3.51504 -2.7443 0.0849843 1
-12.771 3.95327 -2.59864 0.158935 4
-16.5963 5.13742 -2.75166 0.0589413 1
-21.2406 6.57506 -2.73011 0.658338 10
-25.6282 7.93325 -2.34715 0.660684 10
-10.9817 3.39942 -0.602472 0.451813 8
-25.6339 7.93501 -0.468389 0.662959 10
-25.6367 7.93589 0.46844 0.662886 10
-22.6667 7.01651 1.24352 0.373317 10
-22.6692 7.01729 2.07615 0.372365 10
-22.6454 7.00993 3.75459 0.478657 10
-22.648 7.01073 4.60842 0.475665 10
-22.6795 7.02048 5.4811 0.364042 10
-9.65397 2.95152 -2.70497 0.0302941 4
-11.3678 3.47549 -2.74438 0.0849817 1
-12.8267 3.92152 -2.60718 0.182326 4
-16.6149 5.07969 -2.75178 0.0589387 1
-21.1973 6.48066 -2.72162 0.660392 10
-25.5759 7.81935 -2.33984 0.662745 10
-11.0366 3.37423 -0.604832 0.44042 8
-25.5816 7.82108 -0.466931 0.665028 10
-25.5844 7.82195 0.466982 0.664955 10
-22.6204 6.91576 1.23965 0.374482 10
-22.6229 6.91653 2.06968 0.373528 10
-25.4601 7.78393 3.26894 0.553705 10
-22.5992 6.90927 3.74291 0.480152 10
-22.6018 6.91006 4.59408 0.477151 10
-22.6332 6.91966 5.46404 0.365179 10
-25.4566 7.78287 7.13275 0.538929 10
-9.66447 2.91788 -2.70504 0.0332632 4
-11.3802 3.4359 -2.74447 0.0849791 1
-12.8828 3.88956 -2.61581 0.184703 4
-16.6333 5.02189 -2.75191 0.058936 1
-21.1542 6.38685 -2.71321 0.662437 10
-25.524 7.70616 -2.33262 0.664799 10
-25.6678 7.74959 -1.40517 0.588536 10
-25.667 7.74933 -0.467993 0.589273 10
-25.6661 7.74908 0.467978 0.589293 10
-22.5744 6.81564 1.23582 0.375643 10
-22.5769 6.81639 2.06329 0.374686 10
-25.5026 7.69969 3.27093 0.624003 10
-22.5532 6.80923 3.73134 0.48164 10
-22.5558 6.81001 4.57987 0.47863 10
-22.5872 6.81947 5.44714 0.366311 10
-25.5143 7.70322 7.14132 0.606989 10
-9.67485 2.8842 -2.70511 0.0320744 4
-11.3925 3.39625 -2.74455 0.0849764 1
-12.9393 3.85737 -2.62452 0.173698 4
-16.6515 4.96402 -2.75203 0.0589333 1
-21.1114 6.2936 -2.70489 0.664476 10
-25.4724 7.59364 -2.32546 0.666845 10
-25.4752 7.59448 -1.39316 0.441496 10
-25.478 7.59532 -0.464061 0.441986 10
-25.4808 7.59615 0.464111 0.441937 10
-22.5288 6.71611 1.23203 0.376799 10
-22.5312 6.71686 2.05696 0.375839 10
-25.5746 7.62412 3.27673 0.549347 10
-22.5076 6.7098 3.71988 0.483124 10
-22.5101 6.71056 4.56581 0.480104 10
-22.5414 6.71988 5.43042 0.36744 10
-25.5711 7.62307 7.14973 0.534687 10
-9.68512 2.85049 -2.70518 0.0409829 4
-11.4046 3.35657 -2.74464 0.0849738 1
-12.9961 3.82496 -2.63332 0.211588 4
-16.6694 4.90609 -2.75216 0.0589307 1
-21.0689 6.20093 -2.69666 0.666505 10
-25.421 7.48183 -2.31838 0.668882 10
-25.5763 7.52752 -1.39725 0.385661 10
-25.5755 7.52727 -0.465355 0.386145 10
-25.5746 7.52702 0.465339 0.386157 10
-22.4833 6.61721 1.22828 0.377951 10
-22.4858 6.61794 2.05069 0.376988 10
-25.5282 7.51337 3.26741 0.547158 10
-22.5255 6.62962 3.719 0.10272 10
-22.4647 6.61173 4.5519 0.481572 10
-22.4959 6.62092 5.41386 0.368563 10
-25.5354 7.51548 7.13237 0.610721 10
-9.69527 2.81674 -2.70525 0.029103 4
-11.4166 3.31684 -2.74472 0.0849712 1
-13.0532 3.79232 -2.64221 0.190232 4
-16.6872 4.84809 -2.75228 0.058928 1
-21.0267 6.10881 -2.6885 0.668527 10
-25.37 7.37068 -2.31137 0.670911 10
-25.3728 7.37149 -1.38472 0.444188 10
-25.3756 7.37229 -0.461247 0.444681 10
-25.3784 7.3731 0.461297 0.444633 10
-22.4382 6.5189 1.22456 0.379098 10
-22.4407 6.51961 2.04448 0.378132 10
-22.5475 6.55066 3.71883 0.102724 10
-22.4196 6.51349 4.53812 0.483035 10
-22.4507 6.52254 5.39747 0.369682 10
-9.7053 2.78295 -2.70533 0.0302901 4
-11.4285 3.27707 -2.7448 0.0849686 1
-13.1108 3.75946 -2.65118 0.205754 4
-16.7048 4.79003 -2.7524 0.0589254 1
-20.9846 6.01726 -2.68043 0.670541 10
-25.3194 7.26021 -2.30443 0.672932 10
-25.4376 7.29411 -1.38685 0.382561 10
-25.4367 7.29387 -0.461893 0.38304 10
-25.4359 7.29362 0.461877 0.383053 10
-22.3933 6.42119 1.22088 0.38024 10
-22.3958 6.42189 2.03834 0.379272 10
-22.5692 6.47163 3.71867 0.102729 10
-22.3747 6.41585 4.52448 0.484491 10
-22.4058 6.42476 5.38125 0.370797 10
-9.71521 2.74913 -2.7054 0.0112842 4
-11.4402 3.23725 -2.74489 0.084966 1
-13.1687 3.72636 -2.66024 0.174295 4
-16.7222 4.73189 -2.75253 0.0589228 1
-20.9429 5.92624 -2.67243 0.672546 10
-25.269 7.15039 -2.29755 0.674945 10
-25.2717 7.15117 -1.37644 0.446859 10
-25.2745 7.15195 -0.45849 0.447356 10
-25.2772 7.15272 0.458539 0.447307 10
-22.3487 6.32405 1.21724 0.381378 10
-22.3512 6.32474 2.03226 0.380407 10
-25.2883 7.15586 4.16254 0.521371 10
-22.3301 6.31879 4.51097 0.485941 10
-22.3611 6.32756 5.36518 0.371907 10
-9.725 2.71527 -2.70547 0.0344457 4
-11.4518 3.1974 -2.74497 0.0849634 1
-13.2269 3.69303 -2.66939 0.170779 4
-16.7393 4.6737 -2.75265 0.0589201 1
-20.9014 5.83577 -2.66452 0.674543 10
-25.2189 7.04124 -2.29075 0.676949 10
-25.295 7.06248 -1.37635 0.379442 10
-25.2941 7.06225 -0.458396 0.379917 10
-25.2932 7.06201 0.458381 0.37993 10
-22.3044 6.22751 1.21363 0.382511 10
-22.3068 6.22818 2.02624 0.381537 10
-25.2381 7.0466 4.1502 0.52292 10
-22.2858 6.22231 4.4976 0.487386 10
-22.3167 6.23095 5.34928 0.373013 10
-9.73468 2.68138 -2.70554 0.0451346 4
-11.4632 3.1575 -2.74506 0.0849608 1
-13.2856 3.65945 -2.67863 0.219646 4
-15.5925 4.29488 -2.56158 0.0518577 4
-20.8601 5.74583 -2.65669 0.676532 10
-25.1691 6.93271 -2.28401 0.678946 10
-33.1549 9.13236 -1.80228 0.572082 10
-33.1537 9.13205 -0.600252 0.572799 10
-33.1526 9.13174 0.600232 0.572819 10
-22.2414 6.12631 1.20903 0.418404 10
-22.2407 6.1261 2.01827 0.417398 10
-25.1882 6.93798 4.13799 0.524463 10
-22.2417 6.12639 4.48436 0.488824 10
-22.2442 6.12708 5.32674 0.485155 10
-9.74423 2.64745 -2.70561 0.0391948 4
-11.4745 3.11756 -2.74514 0.0849582 1
-13.3446 3.62564 -2.68796 0.217434 4
-15.6081 4.24062 -2.56169 0.0489944 4
-20.8191 5.65642 -2.64893 0.678513 10
-25.1196 6.82484 -2.27735 0.680934 10
-25.1484 6.83267 -1.36575 0.376304 10
-25.1475 6.83244 -0.454865 0.376776 10
-25.1467 6.8322 0.454849 0.376789 10
-22.2165 6.0361 1.20653 0.384764 10
-22.2189 6.03675 2.01437 0.383784 10
-25.1386 6.83001 4.1259 0.526 10
-22.1979 6.03105 4.47126 0.490257 10
-22.2287 6.03942 5.31795 0.375211 10
-9.75367 2.61349 -2.70568 0.0397876 4
-11.4857 3.07759 -2.74522 0.0849557 1
-13.404 3.59159 -2.69738 0.225342 4
-15.6235 4.1863 -2.56181 0.0500651 4
-20.7783 5.56754 -2.64125 0.680485 10
-25.0703 6.71759 -2.27075 0.682913 10
-25.2779 6.77321 -1.37149 0.374728 10
-25.2771 6.77298 -0.456777 0.375198 10
-25.2762 6.77275 0.456761 0.375211 10
-22.173 5.94124 1.20303 0.385883 10
-22.1754 5.94188 2.00853 0.384901 10
-25.0865 6.72193 3.1889 0.641017 10
-25.0893 6.72266 4.11393 0.527531 10
-22.1544 5.93626 4.45829 0.491683 10
-22.1851 5.94449 5.30252 0.376302 10
-25.1825 6.74764 6.98567 0.623546 10
-9.76298 2.57949 -2.70575 0.052257 4
-11.4967 3.03756 -2.74531 0.0849531 1
-13.4638 3.55729 -2.7069 0.1972 4
-15.6387 4.13192 -2.56192 0.0482749 4
-20.7378 5.47915 -2.63365 0.68245 10
-25.0214 6.61094 -2.26421 0.684885 10
-25.0241 6.61165 -1.35646 0.453441 10
-25.0268 6.61236 -0.451834 0.453945 10
-25.0294 6.61307 0.451882 0.453897 10
-22.1015 5.83946 1.19804 0.501863 10
-22.132 5.84754 2.00275 0.386012 10
-25.0375 6.6152 3.17971 0.531715 10
-25.0402 6.61592 4.10208 0.529055 10
-22.1111 5.842 4.44544 0.493104 10
-22.1417 5.8501 5.28724 0.37739 10
-25.0486 6.61814 6.94208 0.517224 10
-9.77218 2.54547 -2.70582 0.0296907 4
-11.5076 2.99751 -2.74539 0.0849505 1
-13.4982 3.51603 -2.71134 0.0943675 4
-15.6537 4.07749 -2.56203 0.0386182 4
-20.6974 5.39128 -2.62613 0.684405 10
-24.9728 6.50492 -2.25774 0.686848 10
-25.1274 6.54521 -1.36081 0.371563 10
-25.1265 6.54498 -0.45322 0.372029 10
-25.1257 6.54476 0.453204 0.372042 10
-22.0585 5.74581 1.19461 0.503302 10
-22.089 5.75375 1.99702 0.387119 10
-24.9888 6.5091 3.17062 0.53324 10
-24.9915 6.5098 4.09035 0.530572 10
-22.068 5.7483 4.43273 0.494519 10
-22.0986 5.75627 5.27211 0.378473 10
-24.9999 6.51198 6.92222 0.518708 10
-9.78126 2.5114 -2.70589 0.0362217 4
-11.5183 2.95741 -2.74547 0.084948 1
-13.5109 3.46901 -2.71144 0.0380078 4
-15.6685 4.02299 -2.56215 0.050416 4
-20.7401 5.32514 -2.62916 0.556669 10
-24.9244 6.39949 -2.25133 0.688803 10
-24.927 6.40018 -1.34874 0.456035 10
-24.9297 6.40086 -0.449264 0.456543 10
-24.9323 6.40154 0.449311 0.456494 10
-22.0157 5.65267 1.19122 0.504735 10
-22.0461 5.66049 1.99135 0.388222 10
-24.9403 6.40359 3.16162 0.534758 10
-24.943 6.40428 4.07873 0.532083 10
-22.0252 5.65512 4.42014 0.495927 10
-22.0558 5.66296 5.25714 0.379551 10
-24.9514 6.40642 6.90255 0.520186 10
-9.79022 2.47731 -2.70596 0.0421586 4
-11.5289 2.91727 -2.74555 0.0849454 1
-13.5234 3.42195 -2.71153 0.099603 4
-15.6832 3.96845 -2.56226 0.0522015 4
-20.8483 5.27544 -2.64053 0.554271 10
-24.8763 6.29467 -2.24499 0.690749 10
-24.9728 6.31909 -1.35002 0.36838 10
-24.9719 6.31887 -0.449625 0.368842 10
-24.971 6.31865 0.449609 0.368855 10
-21.9732 5.56008 1.18786 0.506162 10
-22.0036 5.56776 1.98573 0.389319 10
-24.8922 6.29869 3.1527 0.53627 10
-24.8948 6.29937 4.06723 0.533588 10
-21.9827 5.56248 4.40767 0.49733 10
-22.0131 5.57018 5.24231 0.380624 10
-24.9031 6.30147 6.88308 0.521657 10
-9.79906 2.44318 -2.70603 0.0362199 4
-11.5394 2.87709 -2.74564 0.0849429 1
-13.5357 3.37484 -2.71163 0.046305 4
-15.6976 3.91385 -2.56237 0.0454062 4
-20.9576 5.22531 -2.65204 0.551866 10
-24.8284 6.19042 -2.23871 0.692687 10
-42.2064 10.5232 -2.27966 0.555287 10
-42.2049 10.5229 -0.759242 0.367242 10
-42.2034 10.5225 0.759215 0.367255 10
-21.9309 5.46799 1.18454 0.507582 10
-21.9612 5.47554 1.98018 0.390412 10
-24.8442 6.19436 3.14388 0.537776 10
-24.8469 6.19503 4.05584 0.535086 10
-21.9403 5.47034 4.39533 0.498726 10
-21.9707 5.47792 5.22763 0.381693 10
-24.8552 6.19709 6.8638 0.523123 10
-9.80778 2.40902 -2.7061 0.0267189 4
-11.5497 2.83688 -2.74572 0.0849404 1
-13.5438 3.32669 -2.71091 0.0535028 4
-15.7119 3.85921 -2.56248 0.038254 4
-21.0677 5.17474 -2.66368 0.549454 10
-24.7809 6.08677 -2.23249 0.694616 10
-24.814 6.0949 -1.3391 0.365179 10
-24.8131 6.09469 -0.445988 0.365637 10
-24.8122 6.09447 0.445972 0.36565 10
-21.8889 5.37643 1.18124 0.508997 10
-21.9191 5.38385 1.97467 0.3915 10
-24.7966 6.09063 3.13514 0.539275 10
-24.7993 6.09129 4.04457 0.536578 10
-21.8983 5.37873 4.38311 0.500117 10
-21.9286 5.38618 5.21309 0.382757 10
-24.8075 6.0933 6.84472 0.524581 10
-9.81638 2.37483 -2.70617 0.0261245 4
-11.5115 2.78492 -2.73431 0.0255353 4
-13.518 3.27034 -2.70343 0.0770974 4
-15.7259 3.8045 -2.56259 0.0450447 4
-21.1789 5.12372 -2.67546 0.547035 10
-24.7336 5.98367 -2.22633 0.696537 10
-24.9449 6.0348 -1.34502 0.363571 10
-24.944 6.03459 -0.44796 0.364028 10
-24.9431 6.03438 0.447944 0.364041 10
-21.8471 5.28536 1.17799 0.510405 10
-21.8772 5.29266 1.96922 0.392583 10
-24.7492 5.98746 3.12648 0.540767 10
-24.7519 5.9881 4.0334 0.538063 10
-21.8564 5.28762 4.37101 0.501501 10
-21.8867 5.29494 5.1987 0.383817 10
-24.76 5.99008 6.82582 0.526034 10
-9.82486 2.34061 -2.70624 0.0148431 4
-11.4698 2.73248 -2.72211 0.0347025 4
-13.4923 3.21432 -2.69603 0.0586133 4
-15.7398 3.74975 -2.5627 0.0150143 4
-21.2911 5.07225 -2.68737 0.54461 10
-24.6865 5.88116 -2.22023 0.69845 10
-24.6891 5.88178 -1.33011 0.462423 10
-24.6917 5.8824 -0.443057 0.462938 10
-24.6943 5.88301 0.443103 0.46289 10
-21.8055 5.1948 1.17476 0.511807 10
-21.8356 5.20197 1.96383 0.393662 10
-24.7021 5.88487 3.11792 0.542253 10
-24.7047 5.8855 4.02235 0.539541 10
-21.8148 5.19701 4.35903 0.502879 10
-21.845 5.20421 5.18445 0.384872 10
-24.7129 5.88744 6.80711 0.52748 10
-9.83322 2.30637 -2.70631 0.0106867 4
-11.4281 2.68044 -2.70998 0.0277852 4
-13.4667 3.1586 -2.68871 0.0402904 4
-15.7535 3.69495 -2.56282 0.00822174 4
-21.4042 5.02032 -2.69943 0.542178 10
-24.6397 5.7792 -2.2142 0.700354 10
-24.7819 5.81254 -1.33401 0.360344 10
-24.781 5.81234 -0.444293 0.360796 10
-24.7801 5.81213 0.444276 0.360809 10
-21.7641 5.10474 1.17156 0.513203 10
-21.7942 5.11178 1.95849 0.394735 10
-24.6552 5.78284 3.10944 0.543732 10
-24.6579 5.78346 4.01141 0.541013 10
-21.7734 5.10691 4.34717 0.504251 10
-21.8035 5.11398 5.17035 0.385922 10
-24.666 5.78536 6.78859 0.528919 10
-9.84147 2.27208 -2.70638 0.0261225 4
-11.4324 2.63938 -2.70881 0.0252615 4
-13.0267 3.00745 -2.59874 0.0646409 4
-15.7669 3.64009 -2.56293 0.0296685 4
-21.5184 4.96791 -2.71162 0.53974 10
-24.5932 5.67779 -2.20822 0.702249 10
-24.5958 5.67838 -1.32292 0.464938 10
-24.5983 5.67897 -0.44066 0.465457 10
-24.6009 5.67956 0.440705 0.465409 10
-21.723 5.01515 1.1684 0.514592 10
-21.753 5.02207 1.9532 0.395804 10
-24.6086 5.68135 3.10104 0.545204 10
-24.6112 5.68195 4.00057 0.542478 10
-21.7322 5.01728 4.33543 0.505617 10
-21.7623 5.02422 5.15638 0.386967 10
-24.6193 5.68381 6.77024 0.530352 10
-9.84959 2.23777 -2.70645 0.0195914 4
-11.4419 2.59954 -2.70889 0.0273229 4
-13.0376 2.96207 -2.59883 0.0598344 4
-15.7802 3.58519 -2.56304 0.0407477 4
-21.6336 4.91503 -2.72396 0.537295 10
-24.5469 5.57693 -2.2023 0.704136 10
-24.6145 5.59228 -1.32287 0.357098 10
-24.6136 5.59208 -0.440581 0.357547 10
-24.6127 5.59188 0.440565 0.35756 10
-21.6821 4.92606 1.16527 0.515975 10
-21.712 4.93285 1.94796 0.396868 10
-24.5623 5.58042 3.09272 0.54667 10
-24.5649 5.58101 3.98984 0.543937 10
-21.6913 4.92814 4.3238 0.506976 10
-21.7213 4.93496 5.14255 0.388008 10
-24.5729 5.58283 6.75208 0.531778 10
-9.85759 2.20343 -2.70651 0.0362134 4
-11.4512 2.55965 -2.70897 0.0943386 4
-13.0483 2.91664 -2.59892 0.0576486 4
-15.7933 3.53023 -2.56315 0.047537 4
-21.7499 4.86167 -2.73645 0.534843 10
-24.5009 5.47659 -2.19644 0.706015 10
-43.5117 9.72601 -2.33662 0.538161 10
-43.5101 9.72566 -0.778214 0.538837 10
-43.5085 9.72531 0.778185 0.538856 10
-21.7459 4.86079 1.16778 0.393598 10
-21.7814 4.86871 1.95265 0.302782 10
-24.5162 5.48001 3.08449 0.548129 10
-24.5187 5.48059 3.97922 0.545389 10
-21.7427 4.86007 4.33065 0.386953 10
-21.7781 4.86799 5.15196 0.296193 10
-24.5267 5.48237 6.7341 0.533199 10
-9.86547 2.16907 -2.70658 0.0207777 4
-11.4604 2.51974 -2.70905 0.0963978 4
-13.0589 2.87118 -2.59901 0.0532795 4
-15.8062 3.47523 -2.56326 0.0400294 4
-21.8672 4.80782 -2.74908 0.532385 10
-24.4551 5.3768 -2.19064 0.707884 10
-24.4576 5.37736 -1.31238 0.46867 10
-24.4601 5.37791 -0.437151 0.469193 10
-24.4627 5.37847 0.437196 0.469144 10
-21.8632 4.80694 1.17317 0.391789 10
-21.8989 4.81478 1.96166 0.301391 10
-24.4703 5.38015 3.07634 0.549582 10
-24.4729 5.38072 3.9687 0.546834 10
-21.86 4.80623 4.35064 0.385175 10
-21.8956 4.81406 5.17574 0.294832 10
-24.4808 5.38246 6.71629 0.534612 10
-9.87323 2.13467 -2.70665 0.0184026 4
-11.4695 2.47979 -2.70912 0.111859 4
-13.0716 2.82617 -2.59956 0.206817 4
-15.8189 3.42018 -2.56337 0.0482477 4
-21.9856 4.75346 -2.76187 0.529921 10
-24.4095 5.27752 -2.1849 0.709745 10
-24.575 5.31331 -1.31768 0.352197 10
-24.5741 5.31311 -0.438854 0.35264 10
-24.5732 5.31292 0.438838 0.352653 10
-21.9816 4.75259 1.17862 0.389976 10
-22.0174 4.76034 1.97078 0.299996 10
-24.4247 5.2808 3.06827 0.551028 10
-24.4272 5.28135 3.95829 0.548273 10
-21.9783 4.75188 4.37087 0.383393 10
-22.0141 4.75963 5.1998 0.293468 10
-24.4351 5.28306 6.69866 0.536019 10
-9.88087 2.10024 -2.70672 0.0302745 4
-11.4784 2.43981 -2.7092 0.105671 4
-13.1367 2.7923 -2.61057 0.191742 4
-15.8315 3.36508 -2.56348 0.037167 4
-22.0077 4.67789 -2.76258 0.0457364 1
-24.3642 5.17877 -2.17921 0.711598 10
-24.3667 5.17931 -1.30553 0.471128 10
-24.3692 5.17984 -0.434869 0.471655 10
-24.3717 5.18037 0.434914 0.471606 10
-22.1011 4.69773 1.18414 0.388158 10
-22.1371 4.70539 1.98001 0.298597 10
-24.3793 5.18198 3.06027 0.552467 10
-24.3818 5.18252 3.94798 0.549705 10
-22.0978 4.69703 4.39134 0.381606 10
-22.1338 4.70469 5.22415 0.2921 10
-24.3897 5.1842 6.6812 0.53742 10
-9.88839 2.0658 -2.70679 0.0350226 4
-11.4872 2.3998 -2.70928 0.100513 4
-13.2024 2.75813 -2.62169 0.161229 4
-15.8438 3.30995 -2.56358 0.0428832 4
-22.0251 4.6013 -2.76273 0.0457339 1
-24.3191 5.08054 -2.17358 0.713441 10
-24.3987 5.09716 -1.30629 0.348909 10
-24.3978 5.09697 -0.435059 0.349348 10
-24.3969 5.09678 0.435043 0.34936 10
-22.2217 4.64236 1.18973 0.386335 10
-22.2579 4.64993 1.98936 0.297195 10
-24.3341 5.08367 3.05236 0.553899 10
-24.3367 5.08421 3.93777 0.551131 10
-22.2184 4.64167 4.41205 0.379814 10
-22.2546 4.64923 5.24879 0.290729 10
-24.3445 5.08584 6.66392 0.538814 10
-9.89578 2.03131 -2.70685 0.060546 4
-11.4958 2.35976 -2.70936 0.108757 4
-13.2671 2.72334 -2.63263 0.060249 4
-15.8559 3.25475 -2.56369 0.041452 4
-22.0423 4.52463 -2.76288 0.0457314 1
-24.2743 4.98279 -2.168 0.715277 10
-37.176 7.63114 -1.98894 0.716951 10
-37.1798 7.63192 -0.662508 0.717752 10
-37.1836 7.6327 0.662575 0.717678 10
-22.3435 4.58646 1.19539 0.384507 10
-22.3799 4.59393 1.99881 0.295789 10
-24.3713 5.00271 3.05481 0.354509 10
-24.2917 4.98638 3.92766 0.552549 10
-22.3401 4.58577 4.43302 0.378018 10
-22.3765 4.59324 5.27374 0.289354 10
-24.375 5.00348 6.66746 0.2532 10
-9.90306 1.99681 -2.70692 0.0326465 4
-11.5043 2.31968 -2.70944 0.0999917 4
-13.3154 2.68487 -2.64035 0.241956 4
-15.8679 3.19952 -2.5638 0.0371623 4
-22.0591 4.44791 -2.76303 0.0457289 1
-24.2296 4.88556 -2.16248 0.717103 10
-24.2321 4.88606 -1.29551 0.474774 10
-24.2346 4.88656 -0.43153 0.475304 10
-24.2371 4.88706 0.431574 0.475256 10
-22.5038 4.53758 1.20311 0.295088 10
-22.503 4.53741 2.00838 0.29438 10
-24.247 4.88907 3.91765 0.553961 10
-22.463 4.52934 4.45424 0.376217 10
-22.4996 4.53672 5.29898 0.287975 10
-9.91022 1.96228 -2.70699 0.0320522 4
-11.5127 2.27958 -2.70952 0.0108235 4
-13.3827 2.64985 -2.65184 0.255684 4
-15.8796 3.14425 -2.56391 0.0421631 4
-22.0757 4.37111 -2.76318 0.0457264 1
-24.1852 4.78881 -2.15701 0.718921 10
-24.3515 4.82173 -1.30098 0.343944 10
-24.3506 4.82155 -0.433293 0.344377 10
-24.3497 4.82137 0.433277 0.34439 10
-22.6282 4.4805 1.20892 0.293672 10
-22.6273 4.48033 2.01807 0.292967 10
-24.2026 4.79224 3.90773 0.555366 10
-22.5871 4.47236 4.47572 0.374411 10
-22.6239 4.47965 5.32454 0.286593 10
-9.91725 1.92772 -2.70706 0.0225547 4
-11.5209 2.23944 -2.7096 0.0195849 4
-13.4505 2.61453 -2.66346 0.250626 4
-15.8911 3.08893 -2.56402 0.0564533 4
-22.0921 4.29427 -2.76333 0.0457239 1
-24.1411 4.69255 -2.1516 0.72073 10
-24.1435 4.69303 -1.28899 0.477175 10
-24.146 4.69351 -0.429358 0.477709 10
-24.1484 4.69398 0.429401 0.47766 10
-22.7537 4.42288 1.21479 0.292252 10
-22.7528 4.42271 2.02787 0.29155 10
-24.1583 4.69591 3.89792 0.556765 10
-22.7123 4.41484 4.49746 0.372601 10
-22.7493 4.42203 5.3504 0.285207 10
-9.92416 1.89314 -2.70712 0.0261153 4
-11.529 2.19927 -2.70967 0.0216458 4
-13.519 2.57888 -2.67521 0.264427 4
-15.9025 3.03356 -2.56413 0.0521635 4
-22.1081 4.21735 -2.76348 0.0457214 1
-24.0971 4.59677 -2.14624 0.72253 10
-24.1658 4.60987 -1.28931 0.340613 10
-24.1649 4.6097 -0.429406 0.341042 10
-24.164 4.60952 0.429389 0.341055 10
-22.8805 4.36468 1.22074 0.290828 10
-22.8796 4.36452 2.0378 0.29013 10
-23.0374 4.39462 3.71456 0.102842 10
-22.8389 4.35675 4.51948 0.370786 10
-22.8761 4.36384 5.37659 0.283818 10
-9.93096 1.85853 -2.70719 0.0617255 4
-11.5369 2.15908 -2.70975 0.0200991 4
-13.588 2.54292 -2.68709 0.242316 4
-15.9136 2.97816 -2.56423 0.045016 4
-22.1239 4.14038 -2.76363 0.0457189 1
-24.0534 4.50147 -2.14093 0.724321 10
-42.9037 8.02921 -2.28752 0.726017 10
-71.0141 13.2899 -1.26108 0.513785 10
-71.0213 13.2913 1.2612 0.40062 10
-23.0085 4.30592 1.22676 0.289401 10
-23.0076 4.30576 2.04785 0.288706 10
-24.1493 4.51943 3.01664 0.358994 10
-23.0516 4.314 3.71441 0.102847 10
-22.9666 4.29809 4.54176 0.368967 10
-23.004 4.30509 5.40309 0.282426 10
-24.1595 4.52133 6.5859 0.349219 10
-9.93763 1.8239 -2.70726 0.097334 4
-11.5447 2.11885 -2.70983 0.0262827 4
-13.6576 2.50664 -2.69911 0.227689 4
-15.9246 2.92271 -2.56434 0.037869 4
-22.1394 4.06334 -2.76378 0.0457165 1
-24.0098 4.40663 -2.13568 0.726104 10
-24.0123 4.40707 -1.27945 0.480733 10
-24.0147 4.40752 -0.42618 0.481271 10
-24.0171 4.40796 0.426222 0.481223 10
-23.1377 4.24657 1.23285 0.28797 10
-23.1369 4.24641 2.05802 0.287279 10
-23.0965 4.23901 3.71924 0.369395 10
-23.0956 4.23884 4.56432 0.367143 10
-23.1332 4.24574 5.42993 0.28103 10
-9.94418 1.78924 -2.70732 0.112762 4
-11.5524 2.0786 -2.7099 0.0422573 4
-13.7278 2.47002 -2.71126 0.232007 4
-15.9354 2.86723 -2.56445 0.0425115 4
-22.1546 3.98625 -2.76393 0.045714 1
-23.9665 4.31226 -2.13047 0.727877 10
-24.1105 4.33817 -1.28387 0.335586 10
-24.1096 4.338 -0.427592 0.336008 10
-24.1087 4.33783 0.427575 0.336021 10
-23.2683 4.18663 1.23902 0.286536 10
-23.2674 4.18647 2.06832 0.285848 10
-23.2269 4.17917 3.73785 0.367556 10
-23.2259 4.17901 4.58716 0.365315 10
-23.2637 4.18581 5.45711 0.279631 10
-9.9506 1.75456 -2.70739 0.118101 4
-11.5599 2.03832 -2.70998 0.0195821 4
-13.7986 2.43308 -2.72356 0.261118 4
-15.946 2.81171 -2.56455 0.0628716 4
-22.1696 3.90911 -2.76408 0.0457116 1
-23.9234 4.21836 -2.12532 0.729642 10
-23.9259 4.21878 -1.27324 0.731351 10
-23.9283 4.21921 -0.424113 0.73217 10
-23.9307 4.21963 0.424155 0.732096 10
-23.4002 4.12609 1.24527 0.285098 10
-23.3993 4.12593 2.07875 0.284414 10
-23.5067 4.14488 2.93079 0.566485 10
-23.3585 4.11874 3.75669 0.365712 10
-23.3576 4.11858 4.61029 0.363482 10
-23.3956 4.12528 5.48462 0.278228 10
-23.5166 4.14661 6.39845 0.551062 10
-9.95691 1.71986 -2.70745 0.107416 4
-11.5673 1.99801 -2.71006 0.0195815 4
-13.8701 2.39578 -2.736 0.278892 4
-15.9563 2.75614 -2.56466 0.0307201 4
-22.1843 3.8319 -2.76423 0.0457091 1
-23.8806 4.12489 -2.12022 0.731398 10
-23.8829 4.1253 -1.27019 0.733112 10
-23.8853 4.12572 -0.423094 0.733932 10
-23.8877 4.12613 0.423136 0.733859 10
-23.4942 4.05816 1.24951 0.392205 10
-23.4933 4.058 2.08583 0.391264 10
-23.4924 4.05784 2.92722 0.389846 10
-23.4915 4.05768 3.77578 0.387954 10
-23.4905 4.05752 4.63371 0.385588 10
-23.4896 4.05736 5.5033 0.382753 10
-23.4886 4.05719 6.38695 0.379451 10
-9.9631 1.68513 -2.70752 0.112161 4
-11.5745 1.95768 -2.71013 0.0690487 4
-13.9422 2.35815 -2.74858 0.191445 4
-15.9665 2.70054 -2.56476 0.0500074 4
-22.1987 3.75464 -2.76437 0.0457067 1
-23.8379 4.03188 -2.11516 0.733145 10
-23.8403 4.03229 -1.26716 0.734863 10
-23.8426 4.03269 -0.422086 0.735686 10
-23.845 4.03309 0.422128 0.735612 10
-23.6286 3.99648 1.25591 0.390208 10
-23.6276 3.99632 2.09651 0.389272 10
-23.6267 3.99617 2.9422 0.387861 10
-23.6258 3.99601 3.7951 0.385978 10
-23.6248 3.99585 4.65742 0.383625 10
-23.6239 3.99569 5.53146 0.380804 10
-23.6229 3.99552 6.41964 0.37752 10
-9.96916 1.65038 -2.70758 0.0973222 4
-11.5816 1.91732 -2.71021 0.0103055 4
-13.9631 2.31157 -2.75109 0.0719079 1
-15.9765 2.64489 -2.56487 0.0457191 4
-22.2129 3.67732 -2.76452 0.0457042 1
-23.7954 3.9393 -2.11016 0.734883 10
-23.7978 3.93969 -1.26416 0.736605 10
-23.8001 3.94009 -0.421087 0.73743 10
-23.8025 3.94048 0.421129 0.737357 10
-23.7643 3.93416 1.26239 0.388206 10
-23.7634 3.934 2.10732 0.387274 10
-23.7624 3.93385 2.95737 0.385871 10
-23.7615 3.93369 3.81467 0.383998 10
-23.7605 3.93353 4.68144 0.381657 10
-23.7596 3.93337 5.55999 0.378851 10
-23.7586 3.93321 6.45274 0.375583 10
-9.9751 1.61562 -2.70765 0.124617 4
-11.5885 1.87693 -2.71029 0.0324614 4
-13.9715 2.26289 -2.75118 0.0719055 1
-15.9863 2.58922 -2.56497 0.0385739 4
-22.2268 3.59996 -2.76467 0.0457018 1
-23.9052 3.87181 -2.11869 0.494024 10
-23.9043 3.87165 -1.2691 0.495251 10
-23.9033 3.8715 -0.422672 0.495874 10
-23.9024 3.87135 0.422655 0.495894 10
-23.9015 3.8712 1.26895 0.386199 10
-23.9005 3.87104 2.11827 0.385272 10
-23.8996 3.87089 2.97274 0.383877 10
-23.8986 3.87074 3.83449 0.382013 10
-23.8976 3.87058 4.70577 0.379684 10
-23.8967 3.87042 5.58887 0.376893 10
-23.8957 3.87026 6.48626 0.373642 10
-9.98092 1.58082 -2.70772 0.11868 4
-11.5953 1.83652 -2.71036 0.0164879 4
-13.9798 2.21418 -2.75127 0.0719031 1
-15.9959 2.5335 -2.56508 0.0482155 4
-22.2404 3.52253 -2.76481 0.0456994 1
-24.0439 3.80817 -2.12979 0.49145 10
-24.0429 3.80802 -1.27574 0.492671 10
-24.042 3.80787 -0.424885 0.493291 10
-24.041 3.80772 0.424868 0.493311 10
-24.0401 3.80757 1.27559 0.384187 10
-24.0391 3.80742 2.12936 0.383266 10
-24.0381 3.80727 2.9883 0.381877 10
-24.0372 3.80711 3.85457 0.380023 10
-24.0362 3.80696 4.7304 0.377707 10
-24.0352 3.8068 5.61813 0.37493 10
-24.0342 3.80664 6.52022 0.371696 10
-9.98661 1.54601 -2.70778 0.116897 4
-11.602 1.79609 -2.71044 0.0370967 4
-13.9879 2.16544 -2.75136 0.0719007 1
-16.0053 2.47775 -2.56518 0.0553562 4
-22.2537 3.44506 -2.76496 0.045697 1
-24.1839 3.74387 -2.14102 0.488871 10
-24.183 3.74373 -1.28247 0.490085 10
-24.182 3.74358 -0.427127 0.490702 10
-24.1811 3.74343 0.427109 0.490722 10
-24.1801 3.74328 1.28232 0.382171 10
-24.1791 3.74313 2.1406 0.381254 10
-24.1782 3.74298 3.00407 0.379873 10
-24.1772 3.74283 3.8749 0.378029 10
-24.1762 3.74268 4.75535 0.375725 10
-24.1752 3.74252 5.64777 0.372962 10
-24.1742 3.74236 6.55461 0.369746 10
-9.99219 1.51118 -2.70784 0.10028 4
-11.6085 1.75562 -2.71051 0.0139109 4
-13.9958 2.11667 -2.75145 0.0718984 1
-16.0746 2.43106 -2.57492 0.262241 4
-22.2668 3.36753 -2.7651 0.0456946 1
-24.3255 3.67889 -2.15241 0.486285 10
-42.1438 6.37365 -2.23378 0.743485 10
-73.5871 11.129 -1.29908 0.488107 10
-73.5944 11.1301 1.2992 0.380598 10
-24.3216 3.6783 1.28914 0.38015 10
-24.3207 3.67815 2.15198 0.379238 10
-24.3197 3.678 3.02004 0.377864 10
-24.3187 3.67785 3.8955 0.37603 10
-24.3177 3.6777 4.78063 0.373738 10
-24.3167 3.67755 5.67779 0.370991 10
-24.3156 3.67739 6.58945 0.367791 10
-9.99764 1.47632 -2.70791 0.0207675 4
-11.6149 1.71514 -2.71059 0.0113345 4
-14.0036 2.06787 -2.75154 0.071896 1
-16.1554 2.38563 -2.58651 0.237746 4
-22.2795 3.28996 -2.76525 0.0456922 1
-24.4686 3.61321 -2.16394 0.483693 10
-42.0698 6.21233 -2.22869 0.745182 10
-74.4677 10.9964 -1.31393 0.746017 10
-74.4647 10.996 1.31388 0.581622 10
-24.4647 3.61263 1.29604 0.378124 10
-24.4637 3.61249 2.1635 0.377218 10
-24.4627 3.61234 3.03621 0.375851 10
-24.4617 3.61219 3.91637 0.374027 10
-24.4607 3.61204 4.80624 0.371747 10
-24.4597 3.61189 5.70819 0.369014 10
-24.4586 3.61174 6.62474 0.365832 10
-10.003 1.44145 -2.70797 0.0409406 4
-11.6211 1.67463 -2.71066 0.016486 4
-14.0112 2.01905 -2.75163 0.0718936 1
-16.2369 2.33978 -2.59824 0.213148 4
-22.2921 3.21234 -2.76539 0.0456898 1
-24.6132 3.54683 -2.17562 0.481096 10
-41.9961 6.05174 -2.22365 0.74687 10
-74.9078 10.7944 -1.32103 0.747707 10
-74.9048 10.794 1.32097 0.582939 10
-24.6093 3.54626 1.30304 0.376094 10
-24.6083 3.54611 2.17518 0.375192 10
-24.6073 3.54597 3.0526 0.373834 10
-24.6062 3.54582 3.9375 0.372019 10
-24.6052 3.54568 4.83217 0.369752 10
-24.6042 3.54553 5.739 0.367033 10
-24.6031 3.54537 6.66048 0.363868 10
-10.0082 1.40656 -2.70804 0.0154265 4
-11.6272 1.6341 -2.71074 0.0293649 4
-14.0186 1.97019 -2.75172 0.0718913 1
-16.3192 2.29351 -2.6101 0.217162 4
-22.3043 3.13467 -2.76554 0.0456875 1
-24.7594 3.47972 -2.18746 0.478493 10
-41.9227 5.89185 -2.21867 0.748549 10
-81.8105 11.4977 -1.44204 0.317242 10
-77.662 10.9147 1.36892 0.58425 10
-24.7554 3.47915 1.31013 0.374059 10
-24.7544 3.47901 2.18701 0.373163 10
-24.7534 3.47887 3.0692 0.371811 10
-24.7524 3.47872 3.95892 0.370007 10
-24.7513 3.47858 4.85846 0.367751 10
-24.7503 3.47843 5.77021 0.365048 10
-24.7492 3.47828 6.69671 0.3619 10
-10.0133 1.37165 -2.7081 0.0711977 4
-11.6332 1.59355 -2.71081 0.0381219 4
-14.0054 1.91851 -2.7478 0.00873423 4
-16.4021 2.24681 -2.6221 0.233777 4
-22.3163 3.05695 -2.76568 0.0456851 1
-24.9072 3.41188 -2.19945 0.475884 10
-41.427 5.6748 -2.19137 0.750219 10
-41.431 5.67536 -0.729935 0.75106 10
-41.4351 5.67591 0.730006 0.750987 10
-24.9032 3.41132 1.31731 0.37202 10
-24.9022 3.41118 2.199 0.371128 10
-24.9011 3.41104 3.08603 0.369784 10
-24.9001 3.4109 3.98062 0.36799 10
-24.8991 3.41075 4.88508 0.365747 10
-24.898 3.41061 5.80183 0.363058 10
-24.8969 3.41046 6.73341 0.359928 10
-10.0182 1.33672 -2.70817 0.0255119 4
-11.639 1.55297 -2.71089 0.0242119 4
-13.9294 1.85857 -2.73159 0.0113734 4
-16.4858 2.19967 -2.63423 0.275678 4
-22.3279 2.97918 -2.76582 0.0456827 1
-25.0567 3.34328 -2.21161 0.473269 10
-41.355 5.51793 -2.18653 0.75188 10
-41.359 5.51847 -0.728323 0.752723 10
-41.3631 5.51901 0.728393 0.75265 10
-24.908 3.32344 1.31694 0.586078 10
-24.9104 3.32376 2.1987 0.584592 10
-24.9129 3.32409 3.08603 0.582393 10
-24.9154 3.32442 3.98118 0.579485 10
-24.9179 3.32476 4.88647 0.575871 10
-24.9204 3.3251 5.80432 0.571556 10
-24.923 3.32544 6.73728 0.566544 10
-10.0231 1.30177 -2.70823 0.0302576 4
-11.6447 1.51238 -2.71096 0.035029 4
-13.8539 1.7993 -2.71553 0.0092291 4
-16.5702 2.1521 -2.6465 0.279826 4
-22.3394 2.90138 -2.76597 0.0456804 1
-25.2078 3.27393 -2.22392 0.470648 10
-41.3503 5.37047 -2.18528 0.471818 10
-41.3486 5.37025 -0.727804 0.472413 10
-41.3469 5.37003 0.727774 0.472433 10
-24.8648 3.22938 1.31405 0.587366 10
-24.8672 3.2297 2.19387 0.585877 10
-24.8697 3.23002 3.07926 0.583673 10
-24.8722 3.23034 3.97245 0.580759 10
-24.8747 3.23066 4.87575 0.577137 10
-24.8772 3.23099 5.79159 0.572812 10
-24.8798 3.23132 6.7225 0.567789 10
-10.0278 1.2668 -2.70829 0.0172049 4
-11.6502 1.47176 -2.71103 0.0916911 4
-13.7789 1.74068 -2.69963 0.010172 4
-16.6554 2.10406 -2.65892 0.274941 4
-22.3505 2.82352 -2.76611 0.045678 1
-25.3606 3.20379 -2.2364 0.468022 10
-41.6009 5.25542 -2.19754 0.469185 10
-41.5992 5.2552 -0.731888 0.469777 10
-41.5975 5.25498 0.731857 0.469796 10
-24.8218 3.13572 1.3112 0.588647 10
-24.8242 3.13603 2.1891 0.587154 10
-24.8267 3.13634 3.07256 0.584946 10
-24.8291 3.13665 3.9638 0.582026 10
-24.8316 3.13696 4.86514 0.578396 10
-24.8341 3.13728 5.77898 0.574062 10
-24.8367 3.13761 6.70787 0.569028 10
-10.0324 1.23182 -2.70835 0.0290697 4
-11.6556 1.43112 -2.71111 0.0958094 4
-13.7044 1.6827 -2.68388 0.00918351 4
-16.7413 2.05558 -2.67148 0.231974 4
-22.3614 2.74563 -2.76625 0.0456757 1
-25.5151 3.13287 -2.24905 0.46539 10
-25.8211 3.17044 -1.36339 0.49989 10
-25.8236 3.17074 -0.454138 0.500452 10
-25.8261 3.17105 0.454181 0.500403 10
-24.8301 3.04876 1.31106 0.363818 10
-24.8291 3.04863 2.18857 0.362946 10
-24.828 3.0485 3.07139 0.361632 10
-24.8269 3.04837 3.96173 0.359877 10
-24.8259 3.04824 4.8619 0.357684 10
-24.8248 3.04811 5.7743 0.355055 10
-24.8237 3.04797 6.70144 0.351994 10
-10.0368 1.19682 -2.70842 0.0183906 4
-11.6608 1.39046 -2.71118 0.11229 4
-13.6627 1.62918 -2.67458 0.0366499 4
-16.8013 2.00344 -2.67992 0.0378414 4
-22.372 2.66769 -2.76639 0.0456734 1
-25.6714 3.06113 -2.26187 0.462752 10
