VERSION 0.7
FIELDS x y z intensity label
SIZE 4 4 4 4 4
TYPE F F F F F
COUNT 1 1 1 1 1
WIDTH 1249
HEIGHT 1
VIEWPOINT 11.0691 7.49013 2.7283 0.999993 -9.20449e-05 0.000678583 -0.00370078
POINTS 1249
DATA ascii
13.4762 -12.655 -0.968848 0.425017 10
13.4753 -12.6542 -0.322666 0.425563 10
13.4745 -12.6534 0.322644 0.425591 10
13.4736 -12.6525 0.968657 0.425101 10
12.9226 -12.1351 1.55093 0.477043 10
12.9227 -12.1352 2.17664 0.475292 10
12.9228 -12.1353 2.80776 0.472961 10
12.9229 -12.1354 3.44591 0.470054 10
12.923 -12.1356 4.0928 0.466575 10
12.9232 -12.1357 4.75021 0.462527 10
6.90592 -6.43988 -2.53015 0.0910376 4
8.60905 -8.02807 -2.71764 0.0858009 1
10.2179 -9.52838 -2.71574 0.0728293 1
12.5276 -11.6822 -2.71301 0.059769 1
13.3949 -12.4909 -2.24882 0.607375 10
13.4765 -12.567 -1.61213 0.425361 10
13.4756 -12.5662 -0.96564 0.426429 10
13.4747 -12.5654 -0.321598 0.426977 10
13.4738 -12.5645 0.321576 0.427005 10
13.4729 -12.5637 0.965451 0.426512 10
13.0126 -12.1344 1.55664 0.475293 10
13.0127 -12.1345 2.18466 0.473548 10
13.0128 -12.1347 2.8181 0.471226 10
13.0129 -12.1348 3.4586 0.46833 10
13.0131 -12.1349 4.10787 0.464863 10
13.0132 -12.135 4.7677 0.46083 10
6.92826 -6.41564 -2.53012 0.079659 4
8.63688 -7.99784 -2.71759 0.0858023 1
10.2509 -9.49248 -2.71569 0.0728307 1
12.568 -11.6381 -2.71295 0.0597704 1
13.4882 -12.4902 -2.25716 0.605131 10
13.4884 -12.4904 -1.60833 0.401171 10
13.4885 -12.4905 -0.963435 0.402148 10
13.4886 -12.4906 -0.320887 0.402634 10
13.4887 -12.4907 0.32089 0.402631 10
13.4888 -12.4908 0.963462 0.402137 10
13.1033 -12.1338 1.56241 0.473537 10
13.1034 -12.1339 2.19276 0.471798 10
13.1035 -12.134 2.82855 0.469485 10
13.1036 -12.1341 3.47143 0.466599 10
13.1038 -12.1342 4.1231 0.463145 10
13.1039 -12.1343 4.78538 0.459127 10
6.95052 -6.39133 -2.53008 0.0622906 4
8.06269 -7.41402 -2.52877 0.0708347 4
10.2838 -9.45646 -2.71564 0.0728321 1
12.6082 -11.5939 -2.71289 0.0597718 1
13.5823 -12.4895 -2.26559 0.60288 10
13.7316 -12.6268 -1.63206 0.0783579 10
13.7461 -12.6402 -0.978682 0.429236 10
13.7453 -12.6394 -0.325941 0.429788 10
13.7444 -12.6386 0.32592 0.429815 10
13.7435 -12.6378 0.978492 0.42932 10
13.1946 -12.1331 1.56824 0.471776 10
13.1948 -12.1332 2.20095 0.470043 10
13.1949 -12.1333 2.83911 0.467738 10
13.195 -12.1334 3.48439 0.464864 10
13.1951 -12.1335 4.1385 0.461423 10
13.1953 -12.1337 4.80325 0.457419 10
6.97269 -6.36695 -2.53005 0.0862497 4
8.08839 -7.38572 -2.52873 0.0609396 4
10.3166 -9.42033 -2.71559 0.0728334 1
12.6483 -11.5495 -2.71283 0.0597731 1
13.677 -12.4888 -2.27411 0.600622 10
13.7464 -12.5522 -1.6286 0.429554 10
13.7455 -12.5514 -0.97551 0.430632 10
13.7446 -12.5505 -0.324885 0.431185 10
13.7437 -12.5497 0.324863 0.431213 10
13.7428 -12.5489 0.97532 0.430716 10
13.2867 -12.1324 1.57414 0.470008 10
13.2868 -12.1325 2.20923 0.468282 10
13.2869 -12.1326 2.84979 0.465986 10
13.287 -12.1327 3.49749 0.463122 10
13.2872 -12.1329 4.15406 0.459694 10
13.2873 -12.133 4.82131 0.455705 10
6.99478 -6.34248 -2.53001 0.0904437 4
8.11399 -7.35732 -2.52869 0.0786498 4
10.3492 -9.38408 -2.71553 0.0728348 1
12.6883 -11.505 -2.71276 0.0597745 1
13.7725 -12.4881 -2.28272 0.598356 10
13.7726 -12.4882 -1.62654 0.396679 10
13.7727 -12.4884 -0.974344 0.397645 10
13.7729 -12.4885 -0.324521 0.398126 10
13.773 -12.4886 0.324523 0.398123 10
13.7731 -12.4887 0.974371 0.397634 10
13.3794 -12.1317 1.5801 0.468235 10
13.3795 -12.1318 2.21759 0.466516 10
13.3797 -12.1319 2.86058 0.464228 10
13.3798 -12.1321 3.51074 0.461375 10
13.3799 -12.1322 4.16979 0.45796 10
13.3801 -12.1323 4.83957 0.453986 10
7.01678 -6.31794 -2.52998 0.0473188 4
8.1395 -7.32884 -2.52865 0.0604207 4
10.3817 -9.34772 -2.71548 0.0728362 1
12.7281 -11.4604 -2.7127 0.0597759 1
13.8687 -12.4874 -2.29142 0.596083 10
13.8688 -12.4875 -1.63274 0.598269 10
14.016 -12.6201 -0.988432 0.433408 10
14.0151 -12.6193 -0.329189 0.433965 10
14.0142 -12.6185 0.329167 0.433993 10
14.0133 -12.6176 0.988242 0.433492 10
13.4729 -12.131 1.58613 0.466456 10
13.473 -12.1311 2.22605 0.464743 10
13.4731 -12.1313 2.87149 0.462464 10
13.4733 -12.1314 3.52412 0.459622 10
13.4734 -12.1315 4.18569 0.45622 10
13.4735 -12.1316 4.85803 0.452261 10
7.0387 -6.29332 -2.52994 0.0808624 4
8.1649 -7.30027 -2.52861 0.079694 4
10.4141 -9.31125 -2.71543 0.0728375 1
12.7677 -11.4157 -2.71264 0.0597773 1
13.9656 -12.4867 -2.30022 0.593803 10
13.9657 -12.4868 -1.63901 0.59598 10
14.0154 -12.5312 -0.985295 0.434788 10
14.0145 -12.5304 -0.328144 0.435346 10
14.0136 -12.5296 0.328122 0.435374 10
14.0127 -12.5288 0.985105 0.434872 10
13.567 -12.1303 1.59222 0.464672 10
13.5672 -12.1304 2.2346 0.462965 10
13.5673 -12.1306 2.88252 0.460695 10
13.5674 -12.1307 3.53766 0.457864 10
13.5676 -12.1308 4.20177 0.454474 10
13.5677 -12.1309 4.87669 0.450531 10
7.06053 -6.26863 -2.52991 0.0437262 4
8.19021 -7.27161 -2.52857 0.0750073 4
10.4463 -9.27467 -2.71538 0.0728389 1
12.8072 -11.3708 -2.71258 0.0597786 1
14.0633 -12.486 -2.30912 0.591515 10
14.0634 -12.4861 -1.64535 0.593684 10
14.0636 -12.4862 -0.985613 0.393099 10
14.0637 -12.4863 -0.328274 0.393574 10
14.0638 -12.4864 0.328277 0.393571 10
14.0639 -12.4866 0.985641 0.393088 10
13.6619 -12.1296 1.59838 0.462881 10
13.6621 -12.1297 2.24324 0.461182 10
13.6622 -12.1299 2.89367 0.45892 10
13.6623 -12.13 3.55134 0.4561 10
13.6625 -12.1301 4.21802 0.452723 10
13.6626 -12.1302 4.89555 0.448795 10
7.08227 -6.24386 -2.52988 0.0736766 4
8.21541 -7.24286 -2.52853 0.0593817 4
10.4784 -9.23798 -2.71533 0.0728403 1
12.8465 -11.3257 -2.71251 0.05978 1
14.1617 -12.4852 -2.31811 0.58922 10
14.1619 -12.4854 -1.65176 0.591381 10
14.2858 -12.5947 -0.998105 0.437532 10
14.2849 -12.5939 -0.33241 0.438094 10
14.284 -12.5931 0.332389 0.438122 10
14.2831 -12.5923 0.997914 0.437616 10
13.7576 -12.1289 1.6046 0.461086 10
13.7577 -12.129 2.25198 0.459393 10
13.7578 -12.1292 2.90494 0.45714 10
13.758 -12.1293 3.56517 0.45433 10
13.7581 -12.1294 4.23445 0.450967 10
13.7582 -12.1295 4.91462 0.447054 10
7.10393 -6.21902 -2.52984 0.0718806 4
8.24051 -7.21403 -2.52849 0.0557364 4
10.5104 -9.20117 -2.71528 0.0728416 1
12.8857 -11.2806 -2.71245 0.0597814 1
14.2609 -12.4845 -2.3272 0.586918 10
14.2611 -12.4846 -1.65824 0.58907 10
14.2852 -12.5057 -0.995003 0.438897 10
14.2843 -12.5049 -0.331377 0.43946 10
14.2834 -12.5041 0.331356 0.439488 10
14.2825 -12.5034 0.994813 0.43898 10
13.8539 -12.1282 1.6109 0.459284 10
13.8541 -12.1283 2.26081 0.457598 10
13.8542 -12.1284 2.91633 0.455354 10
13.8543 -12.1286 3.57916 0.452555 10
13.8545 -12.1287 4.25106 0.449205 10
13.8546 -12.1288 4.93389 0.445307 10
7.12549 -6.1941 -2.52981 0.0605003 4
8.26552 -7.1851 -2.52845 0.0619881 4
10.5423 -9.16426 -2.71523 0.0728429 1
12.9247 -11.2352 -2.71239 0.0597827 1
14.3609 -12.4838 -2.3364 0.584609 10
14.3611 -12.4839 -1.66479 0.586753 10
14.3612 -12.484 -0.997256 0.388509 10
14.3613 -12.4841 -0.332152 0.388979 10
14.3615 -12.4842 0.332155 0.388976 10
14.3616 -12.4844 0.997284 0.388498 10
13.9511 -12.1275 1.61726 0.457477 10
13.9512 -12.1276 2.26974 0.455797 10
13.9514 -12.1277 2.92785 0.453562 10
13.9515 -12.1278 3.5933 0.450774 10
13.9516 -12.128 4.26785 0.447437 10
13.9518 -12.1281 4.95338 0.443555 10
7.14698 -6.16911 -2.52977 0.0533129 4
8.29042 -7.1561 -2.52841 0.068761 4
10.574 -9.12724 -2.71518 0.0728443 1
12.9635 -11.1898 -2.71233 0.0597841 1
14.4617 -12.483 -2.34569 0.582293 10
14.4618 -12.4831 -1.67141 0.584428 10
14.7368 -12.7205 -1.02025 0.668572 10
14.7359 -12.7197 -0.339786 0.669429 10
14.735 -12.7189 0.339764 0.669472 10
14.734 -12.7181 1.02006 0.668698 10
14.4625 -12.4837 1.67149 0.455665 10
14.5405 -12.551 3.73368 0.286625 10
14.4631 -12.4842 4.41095 0.445664 10
14.4632 -12.4843 5.11947 0.441798 10
7.16837 -6.14404 -2.52974 0.0599029 4
8.31522 -7.12701 -2.52837 0.0645947 4
10.6056 -9.09011 -2.71513 0.0728456 1
13.0022 -11.1442 -2.71227 0.0597854 1
14.5633 -12.4823 -2.35509 0.57997 10
14.5634 -12.4824 -1.6781 0.582096 10
14.7361 -12.6304 -1.01715 0.670613 10
14.7352 -12.6296 -0.338752 0.671473 10
14.7343 -12.6288 0.33873 0.671515 10
14.7334 -12.628 1.01695 0.670739 10
14.5641 -12.483 1.67818 0.453846 10
14.6423 -12.55 2.36786 0.288663 10
14.6425 -12.5501 3.05443 0.287247 10
14.6055 -12.5185 3.73915 0.0841529 10
14.5647 -12.4835 4.42863 0.443886 10
14.5649 -12.4836 5.13998 0.440035 10
7.18968 -6.1189 -2.52971 0.0724835 4
8.33992 -7.09783 -2.52833 0.0630329 4
10.6371 -9.05286 -2.71508 0.072847 1
13.0407 -11.0985 -2.71221 0.0597867 1
14.6657 -12.4815 -2.36459 0.577639 10
14.6659 -12.4816 -1.68487 0.579757 10
14.7355 -12.5409 -1.01407 0.672645 10
14.7346 -12.5401 -0.337728 0.673508 10
14.7336 -12.5393 0.337707 0.67355 10
14.7327 -12.5385 1.01388 0.672772 10
14.6666 -12.4822 1.68495 0.452023 10
14.7007 -12.5113 2.37022 0.332877 10
14.6997 -12.5105 3.05724 0.331268 10
14.667 -12.4826 3.7437 0.284334 10
14.6671 -12.4827 4.44649 0.442102 10
14.6673 -12.4828 5.16072 0.438266 10
7.2109 -6.09368 -2.52967 0.0760787 4
8.36451 -7.06856 -2.52829 0.0661595 4
10.6684 -9.01551 -2.71503 0.0728483 1
13.0791 -11.0527 -2.71215 0.0597881 1
14.769 -12.4807 -2.37419 0.575302 10
14.7691 -12.4809 -1.69172 0.577412 10
14.7692 -12.481 -1.01339 0.578817 10
14.7694 -12.4811 -0.337525 0.579518 10
14.7695 -12.4812 0.337528 0.579512 10
14.7697 -12.4813 1.01342 0.578801 10
14.7698 -12.4815 1.6918 0.450193 10
14.7302 -12.448 2.36796 0.523008 10
14.7293 -12.4472 3.05433 0.520481 10
14.7283 -12.4464 3.74825 0.517321 10
14.7704 -12.482 4.46456 0.440313 10
14.7705 -12.4821 5.18169 0.436493 10
7.23203 -6.06839 -2.52964 0.0808722 4
8.38901 -7.03922 -2.52825 0.0739747 4
10.6996 -8.97805 -2.71498 0.0728496 1
13.1173 -11.0067 -2.71209 0.0597894 1
14.873 -12.48 -2.38391 0.572958 10
14.8732 -12.4801 -1.69864 0.575059 10
14.8733 -12.4802 -1.01754 0.576459 10
14.8735 -12.4803 -0.338907 0.577156 10
14.8736 -12.4804 0.33891 0.577151 10
14.8738 -12.4806 1.01757 0.576442 10
14.8739 -12.4807 1.69872 0.448359 10
14.7296 -12.3596 2.36091 0.52457 10
14.7286 -12.3588 3.04523 0.522036 10
14.7277 -12.358 3.73708 0.518866 10
14.8745 -12.4812 4.48283 0.438519 10
14.8746 -12.4813 5.2029 0.434714 10
7.25307 -6.04303 -2.52961 0.0838685 4
8.4134 -7.00978 -2.52822 0.0734549 4
10.7307 -8.94049 -2.71493 0.072851 1
13.1554 -10.9606 -2.71203 0.0597908 1
14.978 -12.4792 -2.39373 0.570607 10
14.9781 -12.4793 -1.70564 0.572699 10
14.9783 -12.4794 -1.02173 0.574093 10
14.9784 -12.4796 -0.340303 0.574788 10
14.9786 -12.4797 0.340306 0.574782 10
14.9787 -12.4798 1.02176 0.574076 10
14.9789 -12.4799 1.70572 0.446519 10
14.7289 -12.2717 2.35393 0.526127 10
14.728 -12.2709 3.03623 0.523585 10
14.727 -12.2701 3.72603 0.520405 10
14.9795 -12.4804 4.50131 0.436719 10
14.9796 -12.4805 5.22434 0.43293 10
7.27403 -6.0176 -2.52957 0.0874641 4
8.43769 -6.98026 -2.52818 0.0718931 4
10.7617 -8.90282 -2.71488 0.0728523 1
13.1933 -10.9144 -2.71197 0.0597921 1
15.0838 -12.4784 -2.40367 0.568248 10
15.0839 -12.4785 -1.71272 0.570332 10
15.0841 -12.4786 -1.02597 0.57172 10
15.0842 -12.4788 -0.341716 0.572412 10
15.0844 -12.4789 0.341719 0.572406 10
15.0845 -12.479 1.026 0.571703 10
15.0847 -12.4791 1.7128 0.444673 10
14.7283 -12.1843 2.34701 0.527676 10
14.7274 -12.1835 3.02731 0.525127 10
14.7264 -12.1827 3.71509 0.521938 10
15.0853 -12.4796 4.51999 0.434914 10
15.0854 -12.4798 5.24602 0.43114 10
7.29489 -5.99209 -2.52954 0.0814744 4
8.46187 -6.95066 -2.52814 0.0630377 4
10.7925 -8.86504 -2.71484 0.0728536 1
13.231 -10.868 -2.71191 0.0597934 1
15.1905 -12.4776 -2.41371 0.565883 10
15.1906 -12.4777 -1.71988 0.567958 10
27.1693 -22.3171 -1.84266 0.682686 10
36.0421 -29.6053 -0.814146 0.68356 10
36.0399 -29.6035 0.814095 0.683602 10
15.7866 -12.9673 1.07067 0.0461653 10
15.1914 -12.4783 1.71996 0.442822 10
14.7572 -12.1217 2.34486 0.441196 10
14.7573 -12.1218 3.02475 0.439032 10
14.7574 -12.1219 3.71222 0.436333 10
15.192 -12.4788 4.53888 0.433103 10
15.1922 -12.479 5.26795 0.429345 10
7.31567 -5.96651 -2.52951 0.070692 4
8.48596 -6.92098 -2.5281 0.0562659 4
10.8232 -8.82715 -2.71479 0.0728549 1
13.2685 -10.8216 -2.71185 0.0597947 1
15.2981 -12.4768 -2.42388 0.563511 10
15.2982 -12.4769 -1.72712 0.565577 10
27.1681 -22.1578 -1.83732 0.684669 10
27.1665 -22.1564 -0.611905 0.685546 10
27.1648 -22.1551 0.611867 0.685588 10
15.8328 -12.913 1.07074 0.0461622 10
15.299 -12.4775 1.7272 0.440966 10
15.2991 -12.4777 2.42404 0.439346 10
15.2993 -12.4778 3.12689 0.437191 10
15.2994 -12.4779 3.83758 0.434504 10
15.2996 -12.4781 4.55799 0.431287 10
15.2998 -12.4782 5.29013 0.427545 10
7.33636 -5.94087 -2.52947 0.0850711 4
8.50993 -6.89121 -2.52806 0.0640816 4
10.8537 -8.78916 -2.71474 0.0728562 1
13.3059 -10.7749 -2.71179 0.059796 1
15.4066 -12.476 -2.43415 0.561132 10
15.4067 -12.4761 -1.73444 0.563189 10
27.167 -21.9994 -1.83204 0.686644 10
27.1653 -21.998 -0.610145 0.687523 10
27.1636 -21.9967 0.610107 0.687566 10
15.8789 -12.8585 1.07081 0.046159 10
15.4075 -12.4767 1.73453 0.439104 10
15.4076 -12.4769 2.43432 0.437491 10
15.4078 -12.477 3.14015 0.435346 10
15.408 -12.4771 3.85385 0.43267 10
15.4081 -12.4773 4.57732 0.429467 10
15.4083 -12.4774 5.31256 0.42574 10
7.37642 -5.93079 -2.53613 0.201631 4
8.53381 -6.86136 -2.52802 0.0724185 4
10.8841 -8.75106 -2.71469 0.0728575 1
13.3432 -10.7282 -2.71173 0.0597973 1
15.516 -12.4752 -2.44454 0.558746 10
15.5162 -12.4753 -1.74185 0.560794 10
27.1658 -21.8419 -1.82681 0.68861 10
27.1641 -21.8405 -0.608403 0.689492 10
27.1625 -21.8392 0.608365 0.689535 10
15.9248 -12.8038 1.07089 0.0461559 10
15.5169 -12.4759 1.74193 0.437237 10
15.5171 -12.4761 2.44471 0.435631 10
15.5172 -12.4762 3.15356 0.433494 10
15.5174 -12.4763 3.87031 0.43083 10
15.5176 -12.4764 4.59687 0.42764 10
15.5177 -12.4766 5.33525 0.42393 10
7.42181 -5.92476 -2.54462 0.209957 4
8.55758 -6.83143 -2.52799 0.0729406 4
10.9144 -8.71286 -2.71464 0.0728588 1
13.3803 -10.6813 -2.71167 0.0597986 1
15.6264 -12.4744 -2.45506 0.556353 10
15.6265 -12.4745 -1.74934 0.558393 10
27.1646 -21.6852 -1.82163 0.690568 10
27.2444 -21.749 -0.608498 0.560429 10
27.2447 -21.7492 0.608504 0.560424 10
15.9704 -12.749 1.07096 0.0461528 10
15.6273 -12.4751 1.74943 0.435364 10
15.6275 -12.4752 2.45523 0.433765 10
15.6276 -12.4754 3.16713 0.431638 10
15.6278 -12.4755 3.88695 0.428985 10
15.6279 -12.4756 4.61664 0.425809 10
15.6281 -12.4758 5.3582 0.422114 10
7.4675 -5.91867 -2.55318 0.103132 4
8.58124 -6.80141 -2.52795 0.0500171 4
10.9446 -8.67456 -2.71459 0.0728601 1
13.4172 -10.6343 -2.71161 0.0597999 1
15.7377 -12.4736 -2.46569 0.553954 10
15.7379 -12.4737 -1.75692 0.555985 10
27.1635 -21.5295 -1.8165 0.692518 10
27.4385 -21.7475 -0.611134 0.558012 10
27.4388 -21.7477 0.61114 0.558007 10
16.0159 -12.6941 1.07103 0.0461497 10
15.7386 -12.4743 1.757 0.433486 10
15.7388 -12.4744 2.46587 0.431894 10
15.739 -12.4746 3.18084 0.429776 10
15.7391 -12.4747 3.90379 0.427134 10
15.7393 -12.4748 4.63664 0.423972 10
15.7395 -12.4749 5.38141 0.420293 10
7.51347 -5.91252 -2.56183 0.171306 4
8.6048 -6.77132 -2.52791 0.0677326 4
10.9746 -8.63615 -2.71454 0.0728614 1
13.4539 -10.5872 -2.71155 0.0598012 1
15.85 -12.4727 -2.47645 0.551548 10
15.8502 -12.4728 -1.76458 0.553569 10
27.1623 -21.3746 -1.81142 0.694459 10
36.0328 -28.3551 -0.800344 0.695348 10
36.0307 -28.3533 0.800295 0.69539 10
16.0612 -12.6389 1.0711 0.0356685 10
15.851 -12.4735 1.76467 0.431603 10
15.8511 -12.4736 2.47662 0.430018 10
15.8513 -12.4737 3.19472 0.427909 10
15.8514 -12.4739 3.92082 0.425279 10
15.8516 -12.474 4.65687 0.42213 10
15.8518 -12.4741 5.40489 0.418468 10
7.55973 -5.90631 -2.57055 0.190024 4
8.62826 -6.74114 -2.52787 0.0609602 4
11.0045 -8.59763 -2.7145 0.0728626 1
13.4905 -10.5399 -2.71149 0.0598025 1
15.9633 -12.4719 -2.48733 0.549135 10
15.9634 -12.472 -1.77234 0.551148 10
27.1612 -21.2206 -1.80639 0.696392 10
35.8503 -28.0093 -0.794112 0.697284 10
35.8481 -28.0076 0.794063 0.697326 10
16.1063 -12.5836 1.07117 0.0356661 10
15.9642 -12.4726 1.77242 0.429715 10
15.9644 -12.4728 2.48751 0.428137 10
15.9646 -12.4729 3.20876 0.426037 10
15.9647 -12.473 3.93805 0.423418 10
15.9649 -12.4731 4.67733 0.420283 10
15.9651 -12.4733 5.42864 0.416637 10
7.6063 -5.90005 -2.57937 0.170141 4
8.65161 -6.71088 -2.52784 0.0672135 4
11.0342 -8.55902 -2.71445 0.0728639 1
13.5269 -10.4925 -2.71143 0.0598038 1
16.0776 -12.471 -2.49834 0.546715 10
16.0777 -12.4712 -1.78018 0.548719 10
27.16 -21.0675 -1.80141 0.698316 10
35.8488 -27.8072 -0.791924 0.69921 10
35.8466 -27.8055 0.791876 0.699252 10
16.1512 -12.5282 1.07124 0.0356638 10
16.0785 -12.4718 1.78027 0.427821 10
16.0787 -12.4719 2.49852 0.42625 10
16.0789 -12.472 3.22296 0.42416 10
16.079 -12.4722 3.95549 0.421552 10
16.0792 -12.4723 4.69803 0.418431 10
16.0794 -12.4724 5.45267 0.414801 10
7.65316 -5.89372 -2.58827 0.194621 4
8.67486 -6.68054 -2.5278 0.0708618 4
11.0638 -8.5203 -2.7144 0.0728652 1
13.5632 -10.445 -2.71138 0.0598051 1
16.1929 -12.4702 -2.50948 0.544289 10
16.193 -12.4703 -1.78812 0.546284 10
27.1589 -20.9152 -1.79649 0.700232 10
35.8721 -27.6252 -0.790305 0.548276 10
35.8725 -27.6255 0.790312 0.54827 10
16.1959 -12.4725 1.07132 0.0356614 10
16.1938 -12.4709 1.78821 0.425923 10
16.194 -12.4711 2.50966 0.424358 10
16.1942 -12.4712 3.23733 0.422277 10
16.1943 -12.4713 3.97312 0.419681 10
16.1945 -12.4715 4.71898 0.416574 10
16.1947 -12.4716 5.47698 0.41296 10
7.70032 -5.88734 -2.59725 0.108728 4
8.698 -6.65012 -2.52776 0.0677366 4
11.0933 -8.48148 -2.71435 0.0728665 1
13.5993 -10.3974 -2.71132 0.0598064 1
16.3092 -12.4693 -2.52074 0.541856 10
16.3093 -12.4694 -1.79614 0.543842 10
27.1578 -20.7637 -1.79161 0.702139 10
36.0268 -27.5446 -0.79159 0.703038 10
36.0247 -27.5429 0.791542 0.70308 10
16.31 -12.4699 1.07598 0.42506 10
16.3102 -12.4701 1.79623 0.424019 10
16.3103 -12.4702 2.52092 0.422462 10
16.3105 -12.4703 3.25187 0.42039 10
16.3107 -12.4705 3.99096 0.417805 10
16.3109 -12.4706 4.74017 0.414712 10
16.311 -12.4707 5.50157 0.411114 10
7.74779 -5.88089 -2.60632 0.077602 4
8.72103 -6.61962 -2.52772 0.0771166 4
11.1227 -8.44256 -2.71431 0.0728677 1
13.6352 -10.3497 -2.71126 0.0598077 1
16.4266 -12.4684 -2.53214 0.539416 10
16.4267 -12.4686 -1.80427 0.541394 10
27.1566 -20.613 -1.78677 0.704038 10
36.0253 -27.3447 -0.789456 0.704939 10
36.0232 -27.3431 0.789408 0.704981 10
16.4274 -12.4691 1.08084 0.423146 10
16.4276 -12.4692 1.80436 0.42211 10
16.4277 -12.4693 2.53233 0.420559 10
16.4279 -12.4695 3.26658 0.418497 10
16.4281 -12.4696 4.00901 0.415924 10
16.4283 -12.4697 4.76161 0.412845 10
16.4284 -12.4699 5.52646 0.409262 10
7.79557 -5.87439 -2.61548 0.110889 4
8.74395 -6.58904 -2.52769 0.0781598 4
11.1519 -8.40354 -2.71426 0.072869 1
13.6709 -10.3018 -2.7112 0.0598089 1
16.545 -12.4676 -2.54368 0.53697 10
16.5452 -12.4677 -1.81249 0.538939 10
27.1555 -20.4632 -1.78199 0.705928 10
27.1539 -20.4619 -0.593479 0.46688 10
27.1523 -20.4607 0.593443 0.466908 10
16.5459 -12.4682 1.08577 0.421227 10
16.546 -12.4683 1.81258 0.420195 10
16.5462 -12.4685 2.54386 0.418652 10
16.5464 -12.4686 3.28146 0.416599 10
16.5466 -12.4687 4.02727 0.414038 10
16.5467 -12.4689 4.7833 0.410972 10
16.5469 -12.469 5.55163 0.407406 10
7.84367 -5.86782 -2.62473 0.220996 4
8.76677 -6.55839 -2.52765 0.0625288 4
11.1809 -8.36442 -2.71421 0.0728703 1
13.7065 -10.2538 -2.71114 0.0598102 1
16.6645 -12.4667 -2.55535 0.534518 10
16.6647 -12.4668 -1.8208 0.536477 10
19.7928 -14.8069 -1.29544 0.467526 10
19.7916 -14.806 -0.431435 0.468124 10
19.7904 -14.8051 0.431409 0.468152 10
16.6654 -12.4673 1.09075 0.419303 10
16.6656 -12.4675 1.8209 0.418276 10
16.6658 -12.4676 2.55554 0.41674 10
16.6659 -12.4677 3.29652 0.414696 10
16.6661 -12.4678 4.04575 0.412147 10
16.6663 -12.468 4.80525 0.409095 10
16.6665 -12.4681 5.57711 0.405545 10
7.89209 -5.86119 -2.63407 0.182544 4
8.78949 -6.52765 -2.52761 0.0833729 4
11.2099 -8.32519 -2.71417 0.0728715 1
13.7419 -10.2057 -2.71109 0.0598115 1
16.7852 -12.4658 -2.56716 0.532059 10
16.7854 -12.4659 -1.82922 0.534009 10
19.9053 -14.783 -1.29941 0.353585 10
19.9055 -14.7831 -0.432791 0.354013 10
19.9057 -14.7833 0.432795 0.354009 10
16.7861 -12.4664 1.09579 0.417374 10
16.7862 -12.4666 1.82931 0.416352 10
16.7864 -12.4667 2.56735 0.414822 10
16.7866 -12.4668 3.31175 0.412788 10
16.7868 -12.467 4.06446 0.41025 10
16.7869 -12.4671 4.82746 0.407213 10
16.7871 -12.4672 5.60289 0.403679 10
7.93375 -5.84926 -2.64115 0.0149798 4
8.81209 -6.49684 -2.52758 0.0677415 4
11.2387 -8.28587 -2.71412 0.0728728 1
13.7772 -10.1574 -2.71103 0.0598127 1
16.9069 -12.4649 -2.57911 0.529593 10
16.9071 -12.465 -1.83774 0.531534 10
19.7912 -14.5913 -1.28863 0.469995 10
19.79 -14.5905 -0.42917 0.470596 10
19.7888 -14.5896 0.429144 0.470624 10
16.9078 -12.4655 1.10089 0.415439 10
16.908 -12.4657 1.83783 0.414422 10
16.9082 -12.4658 2.5793 0.4129 10
16.9084 -12.4659 3.32717 0.410875 10
16.9085 -12.4661 4.08338 0.408349 10
16.9087 -12.4662 4.84994 0.405326 10
16.9089 -12.4663 5.62898 0.401808 10
7.95402 -5.82146 -2.64111 0.152796 4
8.83459 -6.46594 -2.52754 0.0745167 4
11.2673 -8.24645 -2.71407 0.072874 1
13.8123 -10.1091 -2.71097 0.059814 1
17.0298 -12.464 -2.59121 0.527121 10
17.03 -12.4641 -1.84635 0.529053 10
19.8302 -14.5135 -1.28787 0.350303 10
19.8304 -14.5137 -0.428945 0.350727 10
19.8306 -14.5138 0.428949 0.350723 10
17.0307 -12.4646 1.10606 0.4135 10
17.0309 -12.4648 1.84645 0.412487 10
16.9497 -12.4053 2.57901 0.553024 10
16.9486 -12.4045 3.32656 0.55035 10
17.0315 -12.4652 4.10253 0.406442 10
17.0317 -12.4653 4.87269 0.403433 10
16.9625 -12.4147 5.63237 0.178987 10
7.97419 -5.79359 -2.64108 0.0940754 4
8.85698 -6.43497 -2.52751 0.0745178 4
11.2959 -8.20693 -2.71403 0.0728752 1
13.8472 -10.0606 -2.71092 0.0598152 1
17.1539 -12.463 -2.60345 0.524642 10
17.1541 -12.4632 -1.85508 0.526565 10
27.15 -19.7256 -1.75877 0.715249 10
36.0166 -26.1676 -0.777082 0.716164 10
36.0145 -26.1661 0.777036 0.716206 10
17.1548 -12.4637 1.11128 0.411556 10
17.155 -12.4638 1.85517 0.410548 10
16.949 -12.3142 2.57235 0.554455 10
16.948 -12.3134 3.31797 0.551775 10
17.1555 -12.4642 4.12192 0.404531 10
17.1557 -12.4644 4.89571 0.401536 10
17.006 -12.3556 5.63244 0.178985 10
7.99427 -5.76565 -2.64105 0.0874852 4
8.87926 -6.40392 -2.52747 0.0797299 4
11.3243 -8.16731 -2.71398 0.0728765 1
13.8819 -10.012 -2.71086 0.0598164 1
17.2791 -12.4621 -2.61584 0.522157 10
17.2793 -12.4622 -1.86391 0.524071 10
19.7888 -14.2721 -1.27868 0.473654 10
19.7876 -14.2713 -0.425854 0.47426 10
19.7865 -14.2705 0.425828 0.474288 10
17.2801 -12.4628 1.11657 0.409606 10
17.2802 -12.4629 1.864 0.408603 10
16.9483 -12.2235 2.56576 0.55588 10
16.9473 -12.2228 3.30947 0.553192 10
17.2808 -12.4633 4.14153 0.402615 10
17.281 -12.4634 4.91901 0.399634 10
17.0492 -12.2963 5.63251 0.178983 10
8.01425 -5.73764 -2.64101 0.0719065 4
8.90143 -6.3728 -2.52743 0.0739988 4
11.3525 -8.1276 -2.71394 0.0728777 1
13.9165 -9.96324 -2.7108 0.0598177 1
17.4056 -12.4612 -2.62838 0.519666 10
17.4058 -12.4613 -1.87284 0.521571 10
19.8945 -14.243 -1.28228 0.345349 10
19.8947 -14.2432 -0.427085 0.345767 10
19.8949 -14.2433 0.427089 0.345763 10
17.4065 -12.4618 1.12192 0.407652 10
17.4067 -12.462 1.87294 0.406654 10
16.9477 -12.1334 2.55923 0.557297 10
16.9467 -12.1326 3.30105 0.554603 10
17.4073 -12.4624 4.16139 0.400694 10
17.4075 -12.4625 4.9426 0.397727 10
17.0922 -12.2369 5.63258 0.17898 10
8.03413 -5.70956 -2.64098 0.0611213 4
8.9235 -6.3416 -2.5274 0.0812956 4
11.3806 -8.08778 -2.71389 0.0728789 1
13.9509 -9.9144 -2.71075 0.0598189 1
17.5332 -12.4602 -2.64107 0.517169 10
17.5334 -12.4604 -1.88188 0.519064 10
19.7872 -14.0621 -1.2722 0.476065 10
19.7861 -14.0612 -0.423697 0.476674 10
19.7849 -14.0604 0.423672 0.476702 10
17.5342 -12.4609 1.12734 0.405693 10
17.5344 -12.461 1.88198 0.404699 10
17.0332 -12.1049 2.56575 0.403213 10
17.0334 -12.105 3.30969 0.401235 10
17.5349 -12.4614 4.18149 0.398768 10
17.5351 -12.4616 4.96647 0.395816 10
17.1351 -12.1773 5.63265 0.178978 10
8.05391 -5.68141 -2.64095 0.135427 4
8.94545 -6.31032 -2.52736 0.0661839 4
11.4086 -8.04787 -2.71384 0.0728802 1
13.9851 -9.86543 -2.71069 0.0598202 1
17.6621 -12.4593 -2.65392 0.514665 10
17.6623 -12.4594 -1.89104 0.516551 10
19.8089 -13.9737 -1.27045 0.342025 10
19.8092 -13.9738 -0.423144 0.342439 10
19.8094 -13.974 0.423148 0.342435 10
17.6631 -12.4599 1.13283 0.403728 10
17.6633 -12.4601 1.89114 0.40274 10
17.6639 -12.4605 4.20183 0.396837 10
17.6641 -12.4606 4.99063 0.393899 10
17.1777 -12.1175 5.63272 0.178976 10
8.0736 -5.65319 -2.64092 0.152807 4
8.9673 -6.27897 -2.52733 0.063058 4
11.4364 -8.00787 -2.7138 0.0728814 1
14.0192 -9.81636 -2.71064 0.0598214 1
17.7923 -12.4583 -2.66693 0.512155 10
17.7925 -12.4584 -1.90031 0.514032 10
17.9761 -12.587 -1.15008 0.478453 10
17.9751 -12.5863 -0.383025 0.479065 10
17.974 -12.5855 0.383003 0.479093 10
17.7933 -12.459 1.13838 0.401759 10
17.7935 -12.4591 1.90041 0.400775 10
17.794 -12.4595 4.22243 0.394902 10
17.7942 -12.4597 5.0151 0.391978 10
17.2856 -12.1035 5.65423 0.388576 10
8.09318 -5.62491 -2.64089 0.0779025 4
8.98904 -6.24754 -2.52729 0.0646223 4
11.4641 -7.96776 -2.71375 0.0728826 1
14.0531 -9.76716 -2.71058 0.0598226 1
17.9237 -12.4573 -2.6801 0.509638 10
17.9239 -12.4575 -1.90969 0.511506 10
17.9754 -12.4932 -1.14723 0.479638 10
17.9744 -12.4925 -0.382079 0.480251 10
17.9733 -12.4918 0.382056 0.480279 10
17.9247 -12.458 1.144 0.399785 10
17.9249 -12.4581 1.9098 0.398806 10
17.9255 -12.4586 4.24328 0.392961 10
17.9257 -12.4587 5.03986 0.390051 10
17.4134 -12.1026 5.68215 0.386667 10
8.11267 -5.59656 -2.64085 0.0958812 4
9.01066 -6.21604 -2.52726 0.0594116 4
10.6934 -7.37685 -2.52519 0.045569 4
14.0868 -9.71785 -2.71053 0.0598238 1
18.0565 -12.4563 -2.69343 0.507115 10
18.0567 -12.4565 -1.91919 0.508974 10
18.0569 -12.4566 -1.14965 0.337008 10
18.0571 -12.4568 -0.382911 0.337416 10
18.0573 -12.4569 0.382915 0.337412 10
18.0575 -12.457 1.14969 0.397806 10
18.0577 -12.4572 1.9193 0.396832 10
18.1202 -12.5003 2.70294 0.360228 10
18.1192 -12.4996 3.48641 0.358486 10
18.0583 -12.4576 4.26439 0.391016 10
18.0585 -12.4577 5.06493 0.388121 10
17.5423 -12.1016 5.71042 0.384753 10
8.13206 -5.56814 -2.64082 0.0449448 4
9.03218 -6.18446 -2.52722 0.0760897 4
10.7189 -7.33936 -2.52515 0.067691 4
14.1204 -9.66842 -2.71047 0.059825 1
18.1809 -12.4487 -2.70549 0.0466922 1
18.1908 -12.4555 -1.92881 0.506436 10
18.2454 -12.4929 -1.15887 0.481991 10
18.2444 -12.4922 -0.385955 0.482607 10
18.2433 -12.4915 0.385932 0.482635 10
18.1916 -12.456 1.15545 0.395822 10
18.1918 -12.4562 1.92892 0.394853 10
18.1497 -12.4274 2.70084 0.56566 10
18.1486 -12.4266 3.48372 0.562925 10
18.1924 -12.4566 4.28576 0.389066 10
18.1926 -12.4567 5.09032 0.386185 10
17.6726 -12.1007 5.73904 0.382834 10
8.15135 -5.53965 -2.64079 0.0437468 4
9.05359 -6.15281 -2.52719 0.0682732 4
10.7442 -7.30178 -2.52511 0.0690194 4
14.1538 -9.61888 -2.71042 0.0598262 1
18.2238 -12.3849 -2.70542 0.0466934 1
18.3262 -12.4545 -1.93855 0.503892 10
18.3264 -12.4546 -1.16125 0.333643 10
18.3266 -12.4548 -0.386773 0.334046 10
18.3268 -12.4549 0.386777 0.334043 10
18.327 -12.455 1.16129 0.393833 10
18.3272 -12.4552 1.93866 0.392869 10
18.149 -12.3341 2.69432 0.56703 10
18.1479 -12.3333 3.4753 0.564288 10
18.3278 -12.4556 4.30741 0.387111 10
18.3281 -12.4557 5.11603 0.384245 10
18.1447 -12.3311 5.87833 0.551955 10
8.17054 -5.5111 -2.64076 0.0868954 4
9.07488 -6.12109 -2.52715 0.0599353 4
10.7695 -7.26411 -2.52507 0.0530927 4
14.187 -9.56923 -2.71036 0.0598274 1
18.2664 -12.3209 -2.70535 0.0466946 1
18.463 -12.4535 -1.94841 0.501341 10
18.5154 -12.4888 -1.17046 0.48432 10
18.5144 -12.4881 -0.389813 0.484939 10
18.5133 -12.4874 0.38979 0.484967 10
18.4638 -12.454 1.1672 0.39184 10
18.464 -12.4542 1.94852 0.39088 10
18.1483 -12.2412 2.68786 0.568393 10
18.1473 -12.2405 3.46697 0.565644 10
18.4647 -12.4546 4.32932 0.385152 10
18.4649 -12.4547 5.14205 0.3823 10
18.144 -12.2383 5.86424 0.553281 10
8.18963 -5.48248 -2.64073 0.0779072 4
9.09607 -6.08929 -2.52712 0.0714022 4
10.7946 -7.22636 -2.52503 0.0699065 4
14.22 -9.51945 -2.71031 0.0598286 1
18.3089 -12.2567 -2.70528 0.0466958 1
18.6012 -12.4524 -1.9584 0.498785 10
18.6014 -12.4526 -1.17314 0.330262 10
18.6017 -12.4527 -0.390733 0.330661 10
18.6019 -12.4529 0.390737 0.330657 10
18.6021 -12.453 1.17318 0.389842 10
18.6023 -12.4531 1.95851 0.388887 10
18.1477 -12.1488 2.68146 0.569749 10
18.1466 -12.1481 3.45872 0.566994 10
18.6029 -12.4536 4.35151 0.383187 10
18.6031 -12.4537 5.16841 0.38035 10
18.1433 -12.1459 5.85028 0.5546 10
8.20862 -5.4538 -2.6407 0.0293653 4
9.11715 -6.05742 -2.52708 0.0635853 4
10.8196 -7.18852 -2.52499 0.0517671 4
14.2528 -9.46957 -2.71026 0.0598298 1
18.3511 -12.1924 -2.70521 0.046697 1
18.7409 -12.4514 -1.96851 0.496222 10
18.7854 -12.481 -1.18198 0.486626 10
18.7843 -12.4803 -0.393652 0.487247 10
18.7832 -12.4796 0.39363 0.487275 10
18.7417 -12.452 1.17924 0.387839 10
18.7419 -12.4521 1.96862 0.386889 10
18.2062 -12.0962 2.68386 0.385468 10
18.2064 -12.0963 3.46205 0.383577 10
18.7426 -12.4525 4.37399 0.381218 10
18.7428 -12.4527 5.1951 0.378396 10
18.2071 -12.0968 5.85718 0.375112 10
8.22751 -5.42504 -2.64067 0.035958 4
9.13811 -6.02548 -2.52705 0.0750525 4
10.8444 -7.15059 -2.52494 0.0504405 4
14.2855 -9.41957 -2.7102 0.059831 1
18.393 -12.128 -2.70514 0.0466982 1
18.882 -12.4504 -1.97875 0.493654 10
19.056 -12.5651 -1.19625 0.48777 10
19.0549 -12.5644 -0.398402 0.488393 10
19.0539 -12.5637 0.398379 0.48842 10
18.8828 -12.4509 1.18537 0.385831 10
18.883 -12.4511 1.97886 0.384886 10
18.8832 -12.4512 2.77724 0.383472 10
18.8835 -12.4513 3.5825 0.381591 10
18.8837 -12.4515 4.39675 0.379245 10
18.8839 -12.4516 5.22214 0.376437 10
18.8841 -12.4518 6.06097 0.37317 10
7.89633 -5.16722 -2.52857 0.0431501 4
9.15896 -5.99346 -2.52701 0.0687991 4
10.8692 -7.11258 -2.5249 0.0588482 4
14.318 -9.36947 -2.71015 0.0598322 1
18.4348 -12.0634 -2.70507 0.0466994 1
19.0245 -12.4493 -1.98913 0.491079 10
19.0553 -12.4695 -1.19346 0.488908 10
19.0542 -12.4687 -0.397475 0.489532 10
19.0532 -12.468 0.397452 0.48956 10
19.0254 -12.4499 1.19159 0.383819 10
19.0256 -12.45 1.98924 0.382879 10
19.0258 -12.4502 2.7918 0.381472 10
19.026 -12.4503 3.60129 0.379601 10
19.0263 -12.4504 4.4198 0.377267 10
19.0265 -12.4506 5.24952 0.374473 10
19.0267 -12.4507 6.09275 0.371223 10
7.91423 -5.13956 -2.52854 0.070719 4
9.1797 -5.96137 -2.52698 0.0599394 4
10.8937 -7.07448 -2.52486 0.0646014 4
14.3504 -9.31925 -2.71009 0.0598334 1
18.4763 -11.9987 -2.705 0.0467005 1
19.1686 -12.4482 -1.99964 0.488498 10
19.3259 -12.5504 -1.20766 0.49004 10
19.3248 -12.5497 -0.402204 0.490665 10
19.3237 -12.549 0.402181 0.490693 10
19.1695 -12.4488 1.19788 0.381802 10
19.1697 -12.4489 1.99975 0.380867 10
19.1699 -12.4491 2.80655 0.379467 10
19.1701 -12.4492 3.62031 0.377606 10
19.1704 -12.4494 4.44315 0.375284 10
19.1706 -12.4495 5.27726 0.372505 10
19.1708 -12.4497 6.12494 0.369272 10
7.93203 -5.11184 -2.52851 0.063528 4
9.20033 -5.92921 -2.52694 0.0646312 4
10.9182 -7.03629 -2.52482 0.0570802 4
14.3825 -9.26891 -2.71004 0.0598345 1
18.5176 -11.9338 -2.70494 0.0467017 1
19.3142 -12.4472 -2.01028 0.485912 10
19.3252 -12.4543 -1.20489 0.491166 10
19.3241 -12.4536 -0.401282 0.491793 10
19.323 -12.4529 0.401259 0.491821 10
19.3151 -12.4477 1.20426 0.37978 10
19.3153 -12.4479 2.01039 0.37885 10
19.3155 -12.448 2.82149 0.377458 10
19.3158 -12.4482 3.63959 0.375606 10
19.316 -12.4483 4.46681 0.373297 10
19.3162 -12.4485 5.30535 0.370533 10
19.3165 -12.4486 6.15755 0.367317 10
7.94973 -5.08407 -2.52848 0.0779126 4
9.25052 -5.91595 -2.53504 0.185789 4
10.9425 -6.99803 -2.52478 0.0526562 4
14.4145 -9.21847 -2.70999 0.0598357 1
18.5587 -11.8688 -2.70487 0.0467029 1
19.4614 -12.4461 -2.02106 0.483319 10
19.5958 -12.5321 -1.21903 0.745294 10
19.5947 -12.5313 -0.40599 0.746245 10
19.5936 -12.5306 0.405967 0.746288 10
19.4623 -12.4466 1.21072 0.377754 10
19.4625 -12.4468 2.02118 0.376828 10
19.4627 -12.4469 2.83662 0.375444 10
19.4629 -12.4471 3.65911 0.373602 10
19.4632 -12.4472 4.49077 0.371305 10
19.4634 -12.4474 5.33381 0.368555 10
19.4636 -12.4475 6.19058 0.365357 10
7.96734 -5.05623 -2.52845 0.0743175 4
9.31008 -5.90835 -2.54569 0.149833 4
10.9667 -6.95968 -2.52474 0.0482321 4
14.4463 -9.16792 -2.70994 0.0598369 1
18.5996 -11.8036 -2.7048 0.0467041 1
19.6101 -12.445 -2.03199 0.480721 10
19.6104 -12.4451 -1.21722 0.48189 10
19.6106 -12.4453 -0.405416 0.482472 10
19.6108 -12.4454 0.40542 0.482467 10
19.611 -12.4455 1.21726 0.375723 10
19.6113 -12.4457 2.0321 0.374802 10
19.6115 -12.4458 2.85196 0.373425 10
19.6117 -12.446 3.67889 0.371593 10
19.612 -12.4461 4.51504 0.369309 10
19.6122 -12.4463 5.36265 0.366574 10
19.6124 -12.4464 6.22405 0.363393 10
7.98811 -5.03039 -2.52946 0.16482 4
9.37011 -5.90067 -2.55646 0.169961 4
10.9908 -6.92125 -2.5247 0.0619505 4
14.478 -9.11727 -2.70988 0.059838 1
18.6402 -11.7384 -2.70473 0.0467052 1
19.7605 -12.4439 -2.04306 0.478117 10
19.7607 -12.444 -1.22385 0.47928 10
19.761 -12.4441 -0.407624 0.479859 10
19.7612 -12.4443 0.407629 0.479853 10
19.7614 -12.4444 1.2239 0.373687 10
19.7616 -12.4446 2.04317 0.372772 10
19.7619 -12.4447 2.86749 0.371402 10
19.7621 -12.4449 3.69893 0.36958 10
19.7623 -12.445 4.53964 0.367308 10
19.7626 -12.4452 5.39186 0.364588 10
19.7628 -12.4453 6.25795 0.361424 10
8.04326 -5.02599 -2.54135 0.168018 4
9.43063 -5.89291 -2.56735 0.156321 4
11.0147 -6.88273 -2.52466 0.0553138 4
14.5094 -9.0665 -2.70983 0.0598392 1
18.6806 -11.6729 -2.70467 0.0467064 1
19.9125 -12.4427 -2.05427 0.475507 10
19.9127 -12.4429 -1.23057 0.476663 10
19.913 -12.443 -0.409862 0.477239 10
19.9132 -12.4432 0.409866 0.477234 10
19.7712 -12.3544 1.22182 0.585138 10
19.7701 -12.3537 2.03958 0.583744 10
19.769 -12.353 2.86225 0.581639 10
19.7678 -12.3523 3.69191 0.578825 10
19.7667 -12.3516 4.53071 0.575306 10
19.7655 -12.3509 5.38087 0.571087 10
19.7644 -12.3501 6.24474 0.566171 10
8.09891 -5.02154 -2.55338 0.184344 4
9.49164 -5.88507 -2.57835 0.158227 4
11.0385 -6.84413 -2.52462 0.0570847 4
14.5407 -9.01562 -2.70978 0.0598403 1
18.7207 -11.6074 -2.7046 0.0467075 1
26.1835 -16.2345 -2.69535 0.0335178 1
27.1284 -16.8203 -1.67285 0.751986 10
35.8072 -22.2014 -0.735407 0.752945 10
35.8052 -22.2002 0.735365 0.752987 10
19.7705 -12.2582 1.21913 0.586431 10
19.7694 -12.2575 2.03508 0.585034 10
19.7683 -12.2569 2.85594 0.582925 10
19.7671 -12.2562 3.68377 0.580105 10
19.766 -12.2554 4.52071 0.576578 10
19.7648 -12.2547 5.369 0.572349 10
19.7637 -12.254 6.23097 0.567423 10
8.15508 -5.01704 -2.56555 0.162502 4
9.55315 -5.87714 -2.58947 0.0973465 4
11.0621 -6.80546 -2.52458 0.0433674 4
14.5718 -8.96464 -2.70973 0.0598415 1
18.7607 -11.5417 -2.70453 0.0467087 1
26.2391 -16.1424 -2.69526 0.033519 1
27.1274 -16.6889 -1.66918 0.753636 10
35.8059 -22.028 -0.733797 0.754597 10
35.8039 -22.0267 0.733755 0.75464 10
19.7698 -12.1625 1.21646 0.587718 10
19.7687 -12.1618 2.03062 0.586318 10
19.7676 -12.1611 2.84968 0.584203 10
19.7664 -12.1604 3.67571 0.581377 10
19.7653 -12.1597 4.51082 0.577843 10
19.7641 -12.159 5.35725 0.573604 10
19.763 -12.1583 6.21734 0.568667 10
8.21177 -5.01248 -2.57786 0.209982 4
9.61517 -5.86913 -2.60071 0.0446368 4
11.0856 -6.76669 -2.52454 0.0610693 4
14.6027 -8.91355 -2.70968 0.0598426 1
18.8004 -11.4758 -2.70447 0.0467098 1
26.2944 -16.0502 -2.69517 0.0335202 1
27.1265 -16.5581 -1.66556 0.755277 10
35.8046 -21.8552 -0.732203 0.75624 10
35.8026 -21.854 0.732161 0.756283 10
19.797 -12.0842 1.21553 0.3655 10
19.7973 -12.0843 2.02921 0.364604 10
19.7975 -12.0844 2.8479 0.363265 10
19.7977 -12.0846 3.67366 0.361482 10
19.798 -12.0847 4.50862 0.35926 10
19.7982 -12.0849 5.35502 0.356599 10
19.7985 -12.085 6.2152 0.353504 10
8.26899 -5.00788 -2.59032 0.205078 4
9.6777 -5.86103 -2.61207 0.12063 4
11.109 -6.72785 -2.52451 0.0491217 4
14.6335 -8.86235 -2.70962 0.0598438 1
18.8399 -11.4098 -2.7044 0.046711 1
26.3493 -15.9577 -2.69507 0.0335213 1
27.1255 -16.4278 -1.66197 0.756909 10
35.8071 -21.6856 -0.730702 0.466703 10
35.8076 -21.6858 0.730709 0.466697 10
27.121 -16.425 1.66169 0.59027 10
27.1194 -16.4241 2.77384 0.588863 10
27.1179 -16.4232 3.89268 0.58674 10
27.1164 -16.4223 5.02103 0.583901 10
27.1148 -16.4213 6.1618 0.580351 10
27.1132 -16.4204 7.31803 0.576094 10
27.1116 -16.4194 8.49292 0.571135 10
8.32676 -5.00322 -2.60293 0.142084 4
9.74076 -5.85284 -2.62356 0.183313 4
11.1323 -6.68893 -2.52447 0.0376163 4
14.664 -8.81105 -2.70957 0.0598449 1
18.8791 -11.3437 -2.70433 0.0467121 1
26.404 -15.8651 -2.69498 0.0335224 1
27.1245 -16.2981 -1.65841 0.758531 10
36.0874 -21.6835 -0.734872 0.464054 10
36.0878 -21.6838 0.73488 0.464049 10
26.7584 -16.0781 1.63603 0.591535 10
26.7569 -16.0772 2.731 0.590125 10
26.7554 -16.0763 3.83257 0.587997 10
26.7539 -16.0754 4.94349 0.585152 10
26.7524 -16.0744 6.06665 0.581595 10
26.7508 -16.0735 7.20503 0.577329 10
26.7492 -16.0726 8.36177 0.572359 10
8.38507 -4.99851 -2.61569 0.17224 4
9.80435 -5.84456 -2.63518 0.159849 4
11.1554 -6.64993 -2.52443 0.0566466 4
14.6944 -8.75964 -2.70952 0.059846 1
18.9182 -11.2775 -2.70427 0.0467132 1
26.4583 -15.7723 -2.69489 0.0335236 1
27.1236 -16.1689 -1.65489 0.760145 10
36.3713 -21.6817 0.739107 0.461395 10
26.8273 -15.9923 1.63682 0.359313 10
26.8277 -15.9925 2.73251 0.358432 10
26.7545 -15.9489 3.82444 0.589247 10
26.8283 -15.9929 4.9469 0.355363 10
26.8286 -15.9931 6.07125 0.353178 10
26.829 -15.9933 7.211 0.350562 10
26.7513 -15.947 8.34498 0.17893 10
8.44394 -4.99374 -2.6286 0.16372 4
9.83729 -5.81776 -2.63856 0.101131 4
11.1783 -6.61085 -2.52439 0.0429281 4
14.7246 -8.70814 -2.70947 0.0598471 1
18.957 -11.2111 -2.7042 0.0467144 1
26.5123 -15.6793 -2.6948 0.0335247 1
27.1226 -16.0403 -1.65141 0.761748 10
36.6581 -21.6795 0.743392 0.458735 10
27.0388 -15.9907 1.64631 0.357241 10
27.0392 -15.9909 2.74835 0.356366 10
26.7536 -15.822 3.81639 0.59049 10
27.0398 -15.9913 4.97558 0.353314 10
27.0402 -15.9915 6.10645 0.351142 10
27.0405 -15.9917 7.25281 0.348541 10
26.8071 -15.8537 8.34507 0.178928 10
8.50339 -4.98891 -2.64167 0.202365 4
9.85741 -5.78331 -2.63852 0.0302355 4
11.2012 -6.57169 -2.52435 0.0601888 4
14.7547 -8.65653 -2.70942 0.0598482 1
18.9955 -11.1446 -2.70414 0.0467155 1
26.566 -15.5862 -2.69471 0.0335258 1
27.1217 -15.9122 -1.64796 0.763343 10
36.9482 -21.6774 0.747737 0.45607 10
27.185 -15.9493 1.65181 0.380019 10
27.1835 -15.9485 2.75734 0.379114 10
26.7526 -15.6957 3.80841 0.591726 10
27.1804 -15.9467 4.99118 0.375919 10
27.1789 -15.9458 6.12517 0.373633 10
27.1773 -15.9448 7.27452 0.370892 10
26.8626 -15.7602 8.34517 0.178926 10
8.56342 -4.98403 -2.6549 0.164631 4
9.87741 -5.74879 -2.63849 0.0563012 4
11.2239 -6.53245 -2.52431 0.0442572 4
14.7845 -8.60481 -2.70937 0.0598494 1
19.0338 -11.078 -2.70407 0.0467166 1
26.6193 -15.4928 -2.69462 0.0335269 1
27.1207 -15.7846 -1.64454 0.764929 10
37.3558 -21.7416 -0.754444 0.453405 10
37.2417 -21.6752 0.752141 0.453399 10
26.7517 -15.5699 3.80052 0.592955 10
26.9178 -15.6665 8.34526 0.178924 10
8.62403 -4.97909 -2.66828 0.152465 4
9.89729 -5.71421 -2.63846 0.074548 4
11.2464 -6.49314 -2.52428 0.0358488 4
14.8142 -8.55299 -2.70932 0.0598505 1
19.072 -11.0112 -2.70401 0.0467177 1
26.6724 -15.3993 -2.69453 0.0335281 1
27.1198 -15.6576 -1.64116 0.766505 10
37.5388 -21.673 0.756607 0.450723 10
26.7508 -15.4446 3.79271 0.594176 10
26.9726 -15.5726 8.34535 0.178922 10
8.68524 -4.97409 -2.68184 0.159216 4
9.91705 -5.67955 -2.63842 0.0599519 4
11.2689 -6.45374 -2.52424 0.046914 4
14.8437 -8.50107 -2.70927 0.0598516 1
19.1098 -10.9443 -2.70395 0.0467188 1
26.7251 -15.3056 -2.69444 0.0335292 1
27.1188 -15.5311 -1.63781 0.768071 10
37.8393 -21.6708 0.761136 0.448041 10
26.7507 -15.3203 3.7851 0.0838432 10
27.0271 -15.4786 8.34544 0.17892 10
8.74707 -4.96903 -2.69555 0.182105 4
9.93669 -5.64483 -2.63839 0.0724645 4
11.2912 -6.41427 -2.5242 0.0659461 4
14.873 -8.44905 -2.70922 0.0598527 1
19.1475 -10.8773 -2.70388 0.0467199 1
26.7775 -15.2117 -2.69435 0.0335303 1
27.1179 -15.4051 -1.6345 0.769629 10
38.1435 -21.6685 0.765729 0.445354 10
26.8047 -15.2272 3.78519 0.0838412 10
27.1767 -15.4385 4.95043 0.379013 10
27.0813 -15.3843 8.34553 0.178918 10
8.80951 -4.9639 -2.70944 0.208471 4
9.95621 -5.61004 -2.63836 0.0729868 4
11.3133 -6.37472 -2.52416 0.0557674 4
14.9021 -8.39693 -2.70917 0.0598537 1
19.1849 -10.8101 -2.70382 0.046721 1
26.8295 -15.1177 -2.69426 0.0335314 1
27.1169 -15.2796 -1.63122 0.771177 10
38.4514 -21.6663 0.770387 0.442661 10
26.8583 -15.1339 3.78528 0.0838392 10
26.7466 -15.0709 4.86246 0.594904 10
27.1034 -15.272 8.33587 0.581896 10
8.85053 -4.94639 -2.71673 0.0987519 1
9.97561 -5.57518 -2.63832 0.0620395 4
11.3353 -6.3351 -2.52412 0.0619646 4
14.9311 -8.34471 -2.70912 0.0598548 1
19.222 -10.7428 -2.70376 0.0467221 1
26.8813 -15.0234 -2.69418 0.0335325 1
27.116 -15.1546 -1.62797 0.772715 10
31.3925 -17.5447 -0.627728 0.7737 10
31.3908 -17.5437 0.627693 0.773742 10
26.9116 -15.0404 3.78537 0.0838372 10
26.7457 -14.9477 4.85278 0.596091 10
27.1025 -15.147 8.31928 0.583056 10
8.86765 -4.91542 -2.7167 0.098753 1
9.99489 -5.54026 -2.63829 0.0161618 4
11.3572 -6.2954 -2.52409 0.0548838 4
14.9599 -8.29238 -2.70907 0.0598559 1
19.259 -10.6754 -2.70369 0.0467232 1
26.9327 -14.929 -2.69409 0.0335336 1
27.1151 -15.0301 -1.62475 0.774245 10
31.3914 -17.4005 -0.626488 0.775231 10
31.3897 -17.3996 0.626454 0.775273 10
26.9646 -14.9467 3.78546 0.0838353 10
26.7448 -14.8249 4.8432 0.59727 10
27.1016 -15.0226 8.30285 0.58421 10
8.88465 -4.88438 -2.71667 0.098754 1
10.014 -5.50527 -2.63826 0.0615197 4
11.3789 -6.25563 -2.52405 0.0562124 4
14.9884 -8.23997 -2.70903 0.059857 1
19.2957 -10.6079 -2.70363 0.0467243 1
26.9837 -14.8344 -2.694 0.0335346 1
27.1142 -14.9061 -1.62157 0.775764 10
31.3903 -17.257 -0.625261 0.776753 10
31.3886 -17.2561 0.625226 0.776795 10
27.0172 -14.8529 3.78555 0.0838333 10
26.7439 -14.7026 4.83371 0.598442 10
27.1007 -14.8987 8.2866 0.585356 10
8.90156 -4.85329 -2.71664 0.0987551 1
10.0331 -5.47021 -2.63823 0.0505719 4
11.4005 -6.21578 -2.52401 0.0615247 4
15.0168 -8.18745 -2.70898 0.0598581 1
19.3321 -10.5402 -2.70357 0.0467254 1
27.0345 -14.7397 -2.69391 0.0335357 1
27.1133 -14.7826 -1.61842 0.777275 10
27.1118 -14.7818 -0.539006 0.514064 10
27.1103 -14.781 0.538976 0.514092 10
27.0696 -14.7588 3.78564 0.0838313 10
26.743 -14.5808 4.82433 0.599607 10
27.0998 -14.7753 8.2705 0.586495 10
8.91835 -4.82213 -2.71661 0.0987561 1
10.052 -5.43509 -2.63819 0.107923 4
11.422 -6.17586 -2.52398 0.0544435 4
15.0451 -8.13484 -2.70893 0.0598591 1
19.3684 -10.4724 -2.70351 0.0467264 1
27.0849 -14.6448 -2.69383 0.0335368 1
27.1123 -14.6596 -1.6153 0.778775 10
27.2404 -14.7288 -0.540537 0.283446 10
27.2407 -14.729 0.540544 0.283443 10
27.105 -14.6556 3.78341 0.385381 10
26.7421 -14.4594 4.81503 0.600764 10
27.0989 -14.6523 8.25457 0.587627 10
8.93503 -4.79092 -2.71658 0.0987571 1
10.0708 -5.3999 -2.63816 0.0677784 4
11.4433 -6.13586 -2.52394 0.0668382 4
15.0731 -8.08213 -2.70888 0.0598602 1
19.4044 -10.4045 -2.70344 0.0467275 1
27.1129 -14.5378 -2.69155 0.778322 10
27.1114 -14.537 -1.61221 0.515386 10
27.11 -14.5362 -0.536939 0.516043 10
27.1085 -14.5355 0.53691 0.51607 10
27.1041 -14.5331 3.77618 0.386119 10
26.7412 -14.3385 4.80583 0.601914 10
27.098 -14.5298 8.2388 0.588751 10
8.95161 -4.75965 -2.71656 0.0987582 1
9.66125 -5.13698 -2.52617 0.0547448 4
11.4645 -6.09579 -2.5239 0.0513466 4
15.101 -8.02932 -2.70883 0.0598612 1
19.4401 -10.3365 -2.70338 0.0467286 1
27.112 -14.4157 -2.68645 0.7798 10
27.1934 -14.459 -1.61407 0.279506 10
27.1937 -14.4592 -0.537595 0.279844 10
27.1941 -14.4593 0.537602 0.27984 10
27.1032 -14.411 3.76903 0.386852 10
26.7403 -14.2181 4.79672 0.603057 10
27.0971 -14.4078 8.22319 0.589869 10
8.96807 -4.72833 -2.71653 0.0987592 1
9.679 -5.10316 -2.52614 0.0656945 4
11.4856 -6.05565 -2.52387 0.0371826 4
15.1286 -7.97642 -2.70879 0.0598623 1
19.4756 -10.2683 -2.70332 0.0467296 1
27.1111 -14.2941 -2.6814 0.781269 10
27.2434 -14.3638 -1.61406 0.0475777 10
80.4995 -42.4426 -1.58846 0.784218 10
66.7615 -35.1993 1.31738 0.611498 10
27.1023 -14.2894 3.76194 0.38758 10
26.7395 -14.0981 4.78771 0.604192 10
27.0962 -14.2862 8.20774 0.590979 10
8.98443 -4.69695 -2.7165 0.0987602 1
9.69664 -5.06928 -2.52611 0.0703879 4
11.5065 -6.01543 -2.52383 0.0402817 4
14.1032 -7.373 -2.52057 0.0461494 4
19.5109 -10.2001 -2.70326 0.0467307 1
27.1102 -14.1729 -2.6764 0.782728 10
27.1417 -14.1893 -1.60509 0.275894 10
27.1421 -14.1895 -0.534603 0.276227 10
27.1424 -14.1897 0.534609 0.276224 10
27.1077 -14.1715 3.7558 0.0535101 10
26.7386 -13.9786 4.77879 0.60532 10
27.0954 -14.1651 8.19245 0.592083 10
6.16167 -3.19391 -1.85964 0.0442956 6
9.71416 -5.03534 -2.52608 0.0693459 4
11.5272 -5.97514 -2.5238 0.0101812 4
14.1287 -7.3236 -2.52052 0.0490573 4
19.546 -10.1317 -2.7032 0.0467317 1
27.1093 -14.0521 -2.67145 0.784178 10
40.842 -21.1705 -2.4109 0.786137 10
66.7607 -34.6054 -1.31256 0.787138 10
66.7571 -34.6036 1.31249 0.613774 10
27.1576 -14.0772 3.75588 0.0535089 10
26.7377 -13.8595 4.76996 0.606441 10
27.0945 -14.0444 8.17731 0.593179 10
6.14428 -3.15773 -1.85105 0.0472752 6
6.16647 -3.16914 -1.60065 0.282823 6
11.5478 -5.93479 -2.52376 0.0411682 4
14.1539 -7.27411 -2.52048 0.046151 4
19.5808 -10.0632 -2.70314 0.0467327 1
27.1084 -13.9318 -2.66655 0.785618 10
27.1069 -13.9311 -1.59724 0.520217 10
27.1055 -13.9303 -0.531953 0.520879 10
27.104 -13.9296 0.531924 0.520907 10
26.7412 -13.7431 1.57569 0.614185 10
26.7398 -13.7424 2.63029 0.61272 10
26.7383 -13.7416 3.69125 0.610509 10
26.7369 -13.7409 4.76122 0.607554 10
26.7354 -13.7401 5.84297 0.603859 10
26.7339 -13.7394 6.93939 0.599428 10
27.0936 -13.9242 8.16233 0.594267 10
6.12895 -3.12286 -1.84314 0.0578709 6
6.14908 -3.13312 -1.59329 0.41636 6
11.5832 -5.90195 -2.52698 0.142507 4
14.1789 -7.22454 -2.52044 0.0570538 4
19.6153 -9.99452 -2.70308 0.0467338 1
27.1075 -13.812 -2.66171 0.787048 10
40.8393 -20.8087 -2.40211 0.789014 10
80.4888 -41.0111 -1.5768 0.790019 10
67.8844 -34.5889 1.32987 0.319633 10
26.9105 -13.7116 1.58284 0.319239 10
26.9109 -13.7118 2.6424 0.318457 10
26.9113 -13.712 3.70849 0.317286 10
26.9116 -13.7122 4.78379 0.315729 10
26.912 -13.7124 5.87108 0.313787 10
26.9124 -13.7126 6.97326 0.311462 10
27.0928 -13.8045 8.14751 0.595349 10
6.12513 -3.09403 -1.83873 0.0467442 6
6.15539 -3.10931 -1.5921 0.0404799 6
11.6649 -5.89239 -2.5403 0.14619 4
14.2038 -7.17488 -2.52039 0.0486964 4
19.6497 -9.92577 -2.70302 0.0467348 1
27.1066 -13.6925 -2.65691 0.788469 10
27.1051 -13.6918 -1.59147 0.522105 10
27.1037 -13.6911 -0.53003 0.52277 10
27.1023 -13.6903 0.530001 0.522798 10
27.1008 -13.6896 1.59121 0.616413 10
27.0994 -13.6889 2.6562 0.614943 10
27.0979 -13.6881 3.7276 0.612724 10
27.0964 -13.6874 4.80811 0.609759 10
27.0949 -13.6866 5.90052 0.60605 10
27.0934 -13.6859 7.00774 0.601603 10
27.0919 -13.6851 8.13283 0.596423 10
6.12425 -3.0668 -1.83524 0.0678522 6
6.15214 -3.08076 -1.58847 0.0703547 6
11.7475 -5.88271 -2.55379 0.145418 4
14.2285 -7.12513 -2.52035 0.0516045 4
19.6838 -9.85691 -2.70296 0.0467358 1
