VERSION 0.7
FIELDS x y z intensity label
SIZE 4 4 4 4 4
TYPE F F F F F
COUNT 1 1 1 1 1
WIDTH 1218
HEIGHT 1
VIEWPOINT 9.56926 4.0719 2.73058 -0.538503 -0.000357428 -0.000101327 0.842624
POINTS 1218
DATA ascii
-5.55901 -26.1531 3.28293 0.412987 10
-5.55919 -26.1539 4.23492 0.410952 10
-5.55938 -26.1548 5.19756 0.408417 10
-5.55957 -26.1557 6.17342 0.405384 10
-5.55976 -26.1566 7.16522 0.401857 10
-2.05484 -9.83597 -2.69244 0.111667 4
-2.38479 -11.4153 -2.69234 0.00519031 4
-2.87121 -13.7437 -2.72918 0.0725313 1
-3.27892 -15.6953 -2.53956 0.0454845 4
-4.54454 -21.7535 -2.72866 0.0463345 1
-5.67728 -27.1756 -2.42889 0.529236 10
-7.55362 -36.1571 -1.93582 0.713328 10
-7.46171 -35.7172 -0.636905 0.714214 10
-7.5533 -36.1556 0.644722 0.714229 10
-5.49296 -26.2933 1.40772 0.413606 10
-5.49314 -26.2942 2.3501 0.412585 10
-5.49332 -26.295 3.29833 0.41106 10
-5.4935 -26.2959 4.25478 0.409035 10
-5.49369 -26.2968 5.22193 0.406511 10
-5.49387 -26.2977 6.20237 0.403492 10
-5.49406 -26.2986 7.19881 0.399981 10
-2.02048 -9.84299 -2.69241 0.0967396 4
-2.3449 -11.4235 -2.69231 0.0529418 4
-2.82318 -13.7535 -2.72914 0.0725323 1
-3.22406 -15.7064 -2.53951 0.0400704 4
-4.46848 -21.7687 -2.7286 0.0463355 1
-5.60875 -27.3237 -2.44036 0.526749 10
-7.40817 -36.0898 -1.93082 0.715176 10
-7.33571 -35.7368 -0.636795 0.528646 10
-7.40786 -36.0882 0.643057 0.716079 10
-5.42665 -26.4366 1.41437 0.411662 10
-5.42683 -26.4374 2.3612 0.410645 10
-5.42701 -26.4383 3.3139 0.409128 10
-5.42719 -26.4392 4.27487 0.407112 10
-5.42737 -26.4401 5.24659 0.4046 10
-5.42756 -26.441 6.23166 0.401595 10
-5.42775 -26.4419 7.23282 0.398101 10
-1.98609 -9.84989 -2.69239 0.11585 4
-2.30499 -11.4315 -2.69227 0.0903134 4
-2.77512 -13.763 -2.72911 0.0725333 1
-3.16916 -15.7173 -2.53947 0.03971 4
-4.39238 -21.7838 -2.72854 0.0463365 1
-5.53956 -27.4731 -2.45196 0.524255 10
-7.26348 -36.0228 -1.92587 0.717014 10
-7.24523 -35.9323 -0.639824 0.526143 10
-7.26317 -36.0213 0.641408 0.71792 10
-5.90896 -29.3052 1.56673 0.29632 10
-7.24594 -35.9358 3.20725 0.408701 10
-7.2627 -36.019 4.51158 0.555719 10
-5.90202 -29.2708 4.72934 0.380024 10
-7.24667 -35.9395 7.12652 0.402684 10
-7.26222 -36.0166 8.48243 0.545578 10
-5.90263 -29.2738 8.00175 0.371612 10
-1.95167 -9.85666 -2.69236 0.123614 4
-2.26504 -11.4393 -2.69225 0.0799335 4
-2.72702 -13.7725 -2.72907 0.0725342 1
-3.11423 -15.728 -2.53943 0.0314075 4
-4.31622 -21.7985 -2.72848 0.0463375 1
-5.46971 -27.624 -2.46371 0.521755 10
-7.11952 -35.9562 -1.92097 0.718844 10
-7.11937 -35.9554 -0.639789 0.719737 10
-7.11921 -35.9547 0.639775 0.719752 10
-5.83445 -29.4661 1.57424 0.294907 10
-7.11891 -35.9531 3.20656 0.559173 10
-7.11876 -35.9523 4.5001 0.557137 10
-5.82761 -29.4316 4.752 0.378212 10
-7.11845 -35.9508 7.12379 0.551032 10
-7.11829 -35.95 8.46084 0.54697 10
-5.82821 -29.4346 8.0401 0.369839 10
-1.91724 -9.86332 -2.69234 0.0167209 4
-2.22508 -11.447 -2.69221 0.0970632 4
-2.6789 -13.7817 -2.72903 0.0725352 1
-3.07017 -15.7946 -2.54845 0.159852 4
-4.24002 -21.813 -2.72843 0.0463384 1
-5.39919 -27.7764 -2.4756 0.519249 10
-6.97629 -35.8899 -1.91611 0.720666 10
-6.97615 -35.8891 -0.638172 0.72156 10
-6.976 -35.8884 0.638158 0.721575 10
-5.75923 -29.6287 1.58184 0.29349 10
-6.9757 -35.8868 3.19845 0.56059 10
-6.97555 -35.8861 4.48873 0.558548 10
-5.75248 -29.5939 4.77494 0.376394 10
-6.97525 -35.8845 7.10579 0.552428 10
-6.97509 -35.8837 8.43946 0.548356 10
-5.75308 -29.597 8.07893 0.368063 10
-1.88278 -9.86986 -2.69231 0.0101521 4
-2.18508 -11.4546 -2.69219 0.0981024 4
-2.63074 -13.7908 -2.729 0.0725362 1
-3.02742 -15.8703 -2.55893 0.150063 4
-4.16376 -21.8272 -2.72837 0.0463394 1
-5.32798 -27.9302 -2.48764 0.516736 10
-6.83378 -35.8239 -1.91131 0.722478 10
-6.83364 -35.8232 -0.636571 0.723375 10
-6.8335 -35.8224 0.636557 0.72339 10
-6.83335 -35.8216 1.91119 0.563361 10
-6.8332 -35.8209 3.19043 0.561999 10
-6.83306 -35.8201 4.47747 0.559953 10
-6.83291 -35.8193 5.77553 0.557224 10
-6.83276 -35.8186 7.08797 0.553817 10
-6.83261 -35.8178 8.41829 0.549735 10
-6.83246 -35.817 9.77018 0.544983 10
-1.8483 -9.87628 -2.69228 0.0292621 4
-2.14506 -11.462 -2.69215 0.0965463 4
-2.58255 -13.7997 -2.72896 0.0725371 1
-2.98431 -15.9465 -2.56953 0.131251 4
-4.08746 -21.8411 -2.72831 0.0463404 1
-5.25607 -28.0856 -2.49983 0.514217 10
-6.69199 -35.7583 -1.90655 0.724282 10
-6.69184 -35.7575 -0.634986 0.725181 10
-6.6917 -35.7568 0.634972 0.725196 10
-6.69156 -35.756 1.90643 0.564767 10
-6.69142 -35.7553 3.18249 0.563402 10
-6.69128 -35.7545 4.46632 0.561351 10
-6.69113 -35.7537 5.76115 0.558615 10
-6.69099 -35.753 7.07032 0.555199 10
-6.69084 -35.7522 8.39734 0.551107 10
-6.69069 -35.7514 9.74586 0.546343 10
-1.81379 -9.88257 -2.69226 0.0167214 4
-2.10501 -11.4693 -2.69212 0.0960283 4
-2.52956 -13.7825 -2.72379 0.019198 4
-2.94084 -16.0234 -2.58024 0.115177 4
-4.01111 -21.8548 -2.72825 0.0463414 1
-5.18346 -28.2424 -2.51217 0.511692 10
-6.55089 -35.693 -1.90183 0.726076 10
-6.55075 -35.6922 -0.633417 0.726978 10
-6.55062 -35.6915 0.633403 0.726993 10
-6.55048 -35.6907 1.90171 0.566167 10
-6.55034 -35.69 3.17462 0.564798 10
-6.5502 -35.6892 4.45528 0.562742 10
-6.55006 -35.6884 5.74691 0.559999 10
-6.54992 -35.6877 7.05285 0.556575 10
-6.54977 -35.6869 8.37658 0.552472 10
-6.54962 -35.6861 9.72177 0.547697 10
-1.77927 -9.88875 -2.69223 0.00418039 4
-2.06494 -11.4765 -2.69209 0.0846097 4
-2.46606 -13.7058 -2.70692 0.0177723 4
-2.897 -16.1008 -2.59107 0.158512 4
-3.93472 -21.8682 -2.7282 0.0463423 1
-5.11013 -28.4009 -2.52466 0.50916 10
-6.4105 -35.628 -1.89717 0.727862 10
-6.41036 -35.6273 -0.631862 0.728766 10
-6.41023 -35.6265 0.631849 0.728781 10
-6.41009 -35.6258 1.89705 0.567559 10
-6.40996 -35.625 3.16683 0.566187 10
-6.40982 -35.6242 4.44435 0.564126 10
-6.40968 -35.6235 5.73281 0.561377 10
-6.40954 -35.6227 7.03555 0.557944 10
-6.4094 -35.6219 8.35603 0.553831 10
-6.40926 -35.6211 9.69792 0.549044 10
-1.74472 -9.89481 -2.69221 0.0137357 4
-2.02484 -11.4834 -2.69205 0.118048 4
-2.40328 -13.6296 -2.69021 0.0229365 4
-2.85278 -16.1789 -2.60201 0.19506 4
-3.85828 -21.8814 -2.72814 0.0463433 1
-5.03606 -28.5609 -2.5373 0.506622 10
-6.27078 -35.5633 -1.89255 0.729639 10
-6.27065 -35.5626 -0.630323 0.730545 10
-6.27052 -35.5618 0.63031 0.73056 10
-6.27039 -35.5611 1.89243 0.568945 10
-6.27025 -35.5603 3.15912 0.567569 10
-6.27012 -35.5596 4.43352 0.565503 10
-6.26999 -35.5588 5.71885 0.562747 10
-6.26985 -35.5581 7.01841 0.559306 10
-6.26971 -35.5573 8.33568 0.555183 10
-6.26957 -35.5565 9.67431 0.550384 10
-1.71016 -9.90074 -2.69218 0.0197079 4
-1.97994 -11.4626 -2.68554 0.059167 4
-2.3412 -13.5541 -2.67366 0.023274 4
-2.80818 -16.2576 -2.61308 0.171233 4
-3.78179 -21.8942 -2.72808 0.0463443 1
-4.96124 -28.7225 -2.55011 0.504079 10
-6.13174 -35.499 -1.88797 0.731408 10
-6.13161 -35.4982 -0.6288 0.732315 10
-6.13149 -35.4975 0.628786 0.73233 10
-6.13136 -35.4968 1.88785 0.570323 10
-6.13123 -35.496 3.15148 0.568945 10
-6.1311 -35.4953 4.42281 0.566873 10
-6.13097 -35.4945 5.70503 0.564111 10
-6.13084 -35.4937 7.00145 0.560661 10
-6.1307 -35.493 8.31554 0.556528 10
-6.13057 -35.4922 9.65092 0.551717 10
-1.67557 -9.90656 -2.69215 0.103915 4
-1.93526 -11.4419 -2.6791 0.129739 4
-2.27982 -13.4791 -2.65728 0.0240078 4
-2.76319 -16.3369 -2.62427 0.147599 4
-3.70527 -21.9068 -2.72802 0.0463452 1
-4.88567 -28.8858 -2.56307 0.501529 10
-5.99337 -35.4349 -1.88344 0.733167 10
-5.99325 -35.4342 -0.627291 0.734077 10
-5.99312 -35.4335 0.627277 0.734092 10
-5.993 -35.4327 1.88332 0.571695 10
-5.99287 -35.432 3.14392 0.570313 10
-5.99275 -35.4312 4.4122 0.568236 10
-5.99262 -35.4305 5.69134 0.565467 10
-5.99249 -35.4297 6.98465 0.562009 10
-5.99236 -35.4289 8.29559 0.557867 10
-5.99223 -35.4282 9.62777 0.553044 10
-1.64096 -9.91225 -2.69213 0.117055 4
-1.89079 -11.4214 -2.67272 0.0371569 4
-2.22814 -13.4591 -2.65179 0.0167332 4
-2.71781 -16.4169 -2.63558 0.144432 4
-3.6287 -21.9192 -2.72797 0.0463462 1
-4.80932 -29.0507 -2.5762 0.498972 10
-5.85567 -35.3712 -1.87896 0.734917 10
-5.85554 -35.3705 -0.625797 0.735829 10
-5.85542 -35.3697 0.625784 0.735844 10
-5.8553 -35.369 1.87884 0.57306 10
-5.85518 -35.3682 3.13644 0.571675 10
-5.85505 -35.3675 4.40169 0.569593 10
-5.85493 -35.3668 5.67778 0.566817 10
-5.8548 -35.366 6.96802 0.563351 10
-5.85468 -35.3652 8.27583 0.559198 10
-5.85455 -35.3644 9.60484 0.554364 10
-1.60634 -9.91782 -2.6921 0.112279 4
-1.84654 -11.4009 -2.6664 0.0595918 4
-2.18111 -13.4666 -2.65175 0.0717777 4
-2.67203 -16.4976 -2.64701 0.179129 4
-3.55209 -21.9313 -2.72791 0.0463472 1
-4.98353 -30.7692 -2.72704 0.0331562 1
-5.71861 -35.3078 -1.87451 0.736659 10
-5.7185 -35.307 -0.624318 0.737572 10
-5.71838 -35.3063 0.624304 0.737588 10
-5.71826 -35.3056 1.8744 0.574418 10
-5.71814 -35.3048 3.12902 0.573029 10
-5.71802 -35.3041 4.39128 0.570942 10
-5.7179 -35.3033 5.66437 0.56816 10
-5.71778 -35.3026 6.95155 0.564685 10
-5.71765 -35.3018 8.25627 0.560523 10
-5.71753 -35.301 9.58215 0.555678 10
-1.57169 -9.92327 -2.69208 0.113474 4
-1.80249 -11.3805 -2.66014 0.074665 4
-2.13406 -13.4739 -2.65172 0.0801455 4
-2.61876 -16.5342 -2.65141 0.0537995 4
-3.47544 -21.9431 -2.72785 0.0463481 1
-4.87595 -30.7855 -2.72696 0.0331571 1
-5.5144 -34.8165 -1.8474 0.738391 10
-5.51429 -34.8158 -0.615288 0.739307 10
-5.58197 -35.2432 0.62284 0.739322 10
-5.51462 -34.8179 1.84748 0.385942 10
-5.51481 -34.8191 3.08425 0.384987 10
-5.58162 -35.241 4.38098 0.572285 10
-5.5152 -34.8216 5.58395 0.381673 10
-5.5154 -34.8228 6.85325 0.379317 10
-5.58127 -35.2387 8.23691 0.561841 10
-5.51581 -34.8254 9.44776 0.373222 10
-1.53703 -9.9286 -2.69205 0.102725 4
-1.75865 -11.3602 -2.65395 0.117872 4
-2.08699 -13.4811 -2.65168 0.0973208 4
-2.56099 -16.543 -2.65136 0.0444124 4
-3.39875 -21.9546 -2.7278 0.0463491 1
-4.76832 -30.8014 -2.72688 0.0331581 1
-5.42074 -35.0158 -1.85696 0.492444 10
-5.42093 -35.0171 -0.618506 0.493035 10
-5.44621 -35.1803 0.621389 0.741048 10
-5.42131 -35.0195 1.85716 0.383925 10
-5.4215 -35.0208 3.10042 0.38298 10
-5.44587 -35.1781 4.37078 0.57362 10
-5.42189 -35.0232 5.61321 0.379683 10
-5.42208 -35.0245 6.88917 0.377339 10
-5.44552 -35.1759 8.21773 0.563152 10
-5.42248 -35.0271 9.49728 0.371271 10
-1.50235 -9.93381 -2.69202 0.11049 4
-1.71764 -11.3574 -2.65187 0.00415299 4
-2.03989 -13.4882 -2.65165 0.0982028 4
-2.50319 -16.5516 -2.65132 0.0592175 4
-3.32203 -21.9659 -2.72774 0.0463501 1
-4.66063 -30.817 -2.7268 0.0331591 1
-5.31858 -35.1674 -1.86401 0.489864 10
-5.31876 -35.1687 -0.620852 0.490445 10
-5.31107 -35.1178 0.619953 0.742764 10
-5.31914 -35.1712 1.8642 0.243806 10
-5.31933 -35.1724 3.11218 0.243203 10
-5.31074 -35.1156 4.36068 0.574949 10
-5.31971 -35.1749 5.63451 0.241109 10
-5.3199 -35.1762 6.91531 0.239621 10
-5.3104 -35.1134 8.19874 0.564456 10
-5.3203 -35.1788 9.53332 0.23577 10
-1.46765 -9.9389 -2.692 0.10213 4
-1.67797 -11.3632 -2.65184 0.0249182 4
-1.99277 -13.495 -2.65161 0.0863139 4
-3.24527 -21.9769 -2.72768 0.0463511 1
-4.5529 -30.8322 -2.72672 0.03316 1
-5.17656 -35.0555 0.618532 0.744472 10
-5.17623 -35.0533 4.35068 0.576271 10
-5.1759 -35.0511 8.17994 0.565754 10
-1.43293 -9.94387 -2.69197 0.130202 4
-1.63828 -11.3688 -2.65181 0.0342629 4
-1.94563 -13.5017 -2.65158 0.0339095 4
-2.3875 -16.5681 -2.65123 0.0747464 4
-3.16847 -21.9876 -2.72763 0.046352 1
-4.44512 -30.847 -2.72664 0.033161 1
-5.04265 -34.9936 0.617124 0.74617 10
-5.04234 -34.9914 4.34078 0.577585 10
-5.04202 -34.9892 8.16132 0.567044 10
-1.3982 -9.94871 -2.69195 0.102729 4
-1.59856 -11.3744 -2.65178 0.0150551 4
-1.89846 -13.5082 -2.65154 0.0229002 4
-2.32961 -16.5761 -2.65119 0.0556094 4
-3.09163 -21.9981 -2.72757 0.046353 1
-4.33729 -30.8614 -2.72656 0.033162 1
-4.90936 -34.9319 0.61573 0.747859 10
-4.90905 -34.9297 4.33098 0.578893 10
-4.90874 -34.9275 8.14289 0.568328 10
-1.36345 -9.95344 -2.69192 0.115272 4
-1.55883 -11.3797 -2.65176 0.0228425 4
-1.85127 -13.5146 -2.65151 0.00660592 4
-2.17538 -15.8806 -2.53873 0.0422494 4
-3.01476 -22.0083 -2.72751 0.046354 1
-4.22941 -30.8754 -2.72648 0.033163 1
-4.77666 -34.8704 0.61435 0.749539 10
-4.77636 -34.8683 4.32127 0.580193 10
-4.77606 -34.8661 8.12464 0.569604 10
-1.32869 -9.95804 -2.6919 0.109301 4
-1.51908 -11.385 -2.65173 0.0290725 4
-1.80406 -13.5208 -2.65147 0.0317088 4
-2.1199 -15.8879 -2.53869 0.0343056 4
-2.93786 -22.0182 -2.72746 0.0463549 1
-4.12149 -30.8891 -2.7264 0.0331639 1
-4.64456 -34.8093 0.612983 0.75121 10
-4.64427 -34.8072 4.31166 0.581486 10
-4.64398 -34.805 8.10657 0.570874 10
-1.29391 -9.96253 -2.69187 0.021502 4
-1.47932 -11.3901 -2.6517 0.0607415 4
-1.75683 -13.5268 -2.65144 0.0528487 4
-2.06439 -15.8949 -2.53865 0.0426118 4
-2.86092 -22.0279 -2.7274 0.0463559 1
-4.01353 -30.9024 -2.72632 0.0331649 1
-4.52349 -34.8289 -1.84064 0.751924 10
-4.5234 -34.8282 -0.613035 0.752857 10
-4.51304 -34.7484 0.61163 0.752872 10
-4.52322 -34.8268 1.84053 0.374306 10
-4.52313 -34.8261 3.07248 0.373402 10
-4.51276 -34.7463 4.30214 0.582773 10
-4.52294 -34.8247 5.56201 0.370218 10
-4.52284 -34.8239 6.82594 0.367954 10
-4.51248 -34.7441 8.08868 0.572137 10
-4.52265 -34.8224 9.40901 0.362083 10
-1.25911 -9.96689 -2.69185 0.0430044 4
-1.43953 -11.3951 -2.65167 0.0207666 4
-2.01406 -15.9429 -2.54518 0.172743 4
-2.78396 -22.0373 -2.72734 0.0463569 1
-3.90552 -30.9153 -2.72624 0.0331659 1
-4.38209 -34.6878 0.61029 0.754525 10
-4.38183 -34.6857 4.29272 0.584052 10
-4.38155 -34.6835 8.07096 0.573393 10
-1.2243 -9.97112 -2.69182 0.0280726 4
-1.39973 -11.3999 -2.65164 0.0238818 4
-1.66231 -13.5384 -2.65137 0.0361143 4
-1.96839 -16.0313 -2.55817 0.134231 4
-2.51907 -20.5161 -2.53798 0.0388332 4
-3.79747 -30.9279 -2.72616 0.0331668 1
-4.25172 -34.6275 0.608964 0.756168 10
-4.25146 -34.6254 4.28339 0.585324 10
-4.2512 -34.6232 8.05342 0.574641 10
-1.18948 -9.97524 -2.69179 0.1105 4
-1.35992 -11.4046 -2.65161 0.0571093 4
-1.61502 -13.544 -2.65133 0.0184978 4
-1.92225 -16.1205 -2.57132 0.161003 4
-2.44739 -20.5244 -2.53793 0.0230753 4
-3.68938 -30.94 -2.72608 0.0331678 1
-4.12192 -34.5674 0.607651 0.757803 10
-4.12167 -34.5653 4.27415 0.586589 10
-4.12141 -34.5631 8.03606 0.575883 10
-1.15464 -9.97924 -2.69177 0.0173217 4
-1.32008 -11.4091 -2.65158 0.0576291 4
-1.56771 -13.5493 -2.6513 0.0193789 4
-1.87563 -16.2106 -2.58463 0.170107 4
-2.37568 -20.5324 -2.53788 0.0393977 4
-3.58125 -30.9518 -2.726 0.0331688 1
-3.99267 -34.5076 0.60635 0.759428 10
-3.99243 -34.5055 4.26501 0.587847 10
-3.99218 -34.5033 8.01886 0.577118 10
-4.00118 -34.5811 9.3278 0.365236 10
-1.11979 -9.98311 -2.69174 0.0304626 4
-1.28024 -11.4135 -2.65155 0.0218059 4
-1.52039 -13.5546 -2.65126 0.0308305 4
-1.82852 -16.3016 -2.59811 0.167989 4
-2.30395 -20.5401 -2.53783 0.032363 4
-3.47309 -30.9632 -2.72592 0.0331697 1
-3.81719 -34.031 -1.79467 0.760086 10
-3.81711 -34.0303 -0.597726 0.761028 10
-3.81704 -34.0296 0.597714 0.761043 10
-3.81696 -34.0289 1.79456 0.592684 10
-3.81688 -34.0282 2.99575 0.591251 10
-3.86373 -34.4459 4.25595 0.589097 10
-3.81673 -34.0268 5.42312 0.586226 10
-3.81665 -34.0261 6.65549 0.582641 10
-3.86349 -34.4438 8.00184 0.578346 10
-3.81648 -34.0247 9.17406 0.573346 10
-1.08492 -9.98687 -2.69172 0.0292683 4
-1.24037 -11.4178 -2.65152 0.00519193 4
-1.47305 -13.5596 -2.65123 0.0105706 4
-1.78091 -16.3936 -2.61176 0.137621 4
-2.23219 -20.5476 -2.53777 0.040525 4
-3.36488 -30.9743 -2.72584 0.0331707 1
-3.70911 -34.1429 -1.79988 0.458369 10
-3.70925 -34.1442 -0.599496 0.458911 10
-3.70939 -34.1455 0.599518 0.458894 10
-3.70953 -34.1468 1.80009 0.357356 10
-3.70967 -34.1481 3.00515 0.356471 10
-3.73558 -34.3866 4.24699 0.590341 10
-3.70995 -34.1507 5.44076 0.3534 10
-3.7101 -34.152 6.67754 0.351218 10
-3.73535 -34.3845 7.98499 0.579566 10
-3.71039 -34.1547 9.20558 0.345573 10
-1.05004 -9.9905 -2.69169 0.0537586 4
-1.2005 -11.422 -2.65149 0.00830718 4
-1.42569 -13.5645 -2.65119 0.0290695 4
-1.7328 -16.4865 -2.62559 0.141785 4
-2.1604 -20.5548 -2.53772 0.0340529 4
-3.25665 -30.9849 -2.72576 0.0331717 1
-3.60834 -34.331 -1.80912 0.763286 10
-3.60826 -34.3303 -0.602539 0.764232 10
-3.60819 -34.3296 0.602526 0.764247 10
-3.60812 -34.3289 1.80901 0.595179 10
-3.60805 -34.3283 3.01988 0.59374 10
-3.60797 -34.3276 4.23811 0.591577 10
-3.6079 -34.3269 5.46679 0.588694 10
-3.60782 -34.3261 6.70908 0.585093 10
-3.60775 -34.3254 7.9683 0.58078 10
-3.60767 -34.3247 9.24794 0.575759 10
-1.01516 -9.99401 -2.69167 0.0447993 4
-1.16061 -11.4259 -2.65146 0.0249218 4
-1.37831 -13.5692 -2.65116 0.0127731 4
-1.68417 -16.5804 -2.63959 0.148328 4
-2.0886 -20.5618 -2.53767 0.0292693 4
-3.14838 -30.9952 -2.72568 0.0331726 1
-3.48125 -34.2722 -1.80537 0.764871 10
-3.48118 -34.2715 -0.60129 0.76582 10
-3.48111 -34.2708 0.601277 0.765835 10
-3.48104 -34.2701 1.80526 0.596416 10
-3.48097 -34.2694 3.01361 0.594973 10
-3.4809 -34.2687 4.22932 0.592806 10
-3.48083 -34.268 5.45545 0.589917 10
-3.48075 -34.2673 6.69517 0.586309 10
-3.48068 -34.2666 7.95178 0.581987 10
-3.48061 -34.2659 9.22876 0.576955 10
-0.980254 -9.99739 -2.69164 0.0185172 4
-1.1207 -11.4298 -2.65143 0.00882657 4
-1.33092 -13.5738 -2.65112 0.0127733 4
-1.63502 -16.6752 -2.65376 0.133024 4
-2.01677 -20.5686 -2.53761 0.0337729 4
-3.04008 -31.0051 -2.7256 0.0331736 1
-3.35468 -34.2136 -1.80166 0.766448 10
-3.35461 -34.2129 -0.600053 0.767398 10
-3.35454 -34.2122 0.60004 0.767414 10
-3.35448 -34.2116 1.80155 0.597645 10
-3.35441 -34.2109 3.00742 0.5962 10
-3.35434 -34.2102 4.22062 0.594028 10
-3.35427 -34.2095 5.44423 0.591133 10
-3.3542 -34.2088 6.6814 0.587517 10
-3.35413 -34.2081 7.93543 0.583186 10
-3.35406 -34.2073 9.20978 0.578144 10
-0.945342 -10.0007 -2.69161 0.0185174 4
-1.08079 -11.4335 -2.6514 0.0280377 4
-1.58534 -16.7711 -2.66813 0.149147 4
-1.94492 -20.5751 -2.53756 0.0306777 4
-2.93175 -31.0146 -2.72552 0.0331746 1
-3.22863 -34.1553 -1.79798 0.768015 10
-3.22856 -34.1546 -0.598828 0.768968 10
-3.2285 -34.1539 0.598816 0.768983 10
-3.22843 -34.1532 1.79787 0.598867 10
-3.22837 -34.1525 3.00128 0.597419 10
-3.2283 -34.1519 4.21201 0.595243 10
-3.22824 -34.1512 5.43312 0.592342 10
-3.22817 -34.1505 6.66777 0.588719 10
-3.2281 -34.1497 7.91923 0.584378 10
-3.22804 -34.149 9.19099 0.579326 10
-0.910418 -10.0038 -2.69159 0.0113495 4
-1.04086 -11.4371 -2.65137 0.0176535 4
-1.23609 -13.5824 -2.65105 0.0110117 4
-1.53511 -16.868 -2.68268 0.156712 4
-1.87305 -20.5813 -2.53751 0.0365888 4
-2.82339 -31.0238 -2.72544 0.0331755 1
-3.10309 -34.0972 -1.79434 0.769573 10
-3.10302 -34.0965 -0.597616 0.770528 10
-3.10296 -34.0958 0.597604 0.770543 10
-3.1029 -34.0951 1.79423 0.600082 10
-3.10284 -34.0944 2.9952 0.598631 10
-3.10278 -34.0938 4.20349 0.59645 10
-3.10271 -34.0931 5.42213 0.593543 10
-3.10265 -34.0924 6.65427 0.589913 10
-3.10259 -34.0917 7.9032 0.585564 10
-3.10252 -34.0909 9.17239 0.580501 10
-0.875485 -10.0068 -2.69156 0.0209071 4
-1.00092 -11.4405 -2.65135 0.0212883 4
-1.18866 -13.5864 -2.65102 0.0255476 4
-1.48433 -16.966 -2.69741 0.143958 4
-1.80116 -20.5873 -2.53746 0.0377154 4
-2.715 -31.0325 -2.72537 0.0331765 1
-2.97806 -34.0393 -1.79074 0.771122 10
-2.978 -34.0386 -0.596416 0.772078 10
-2.97794 -34.0379 0.596404 0.772093 10
-2.97788 -34.0373 1.79063 0.601289 10
-2.97782 -34.0366 2.98919 0.599835 10
-2.97776 -34.0359 4.19505 0.59765 10
-2.9777 -34.0352 5.41124 0.594737 10
-2.97764 -34.0345 6.64091 0.5911 10
-2.97758 -34.0338 7.88734 0.586742 10
-2.97751 -34.0331 9.15397 0.581669 10
-0.840542 -10.0097 -2.69154 0.0639167 4
-0.960967 -11.4438 -2.65132 0.0166155 4
-1.14121 -13.5903 -2.65098 0.0405243 4
-1.43299 -17.065 -2.71234 0.188127 4
-1.72925 -20.593 -2.53741 0.0346201 4
-2.60658 -31.0409 -2.72529 0.0331774 1
-2.85352 -33.9816 -1.78717 0.772661 10
-2.85347 -33.981 -0.595228 0.773619 10
-2.85341 -33.9803 0.595215 0.773634 10
-2.85335 -33.9796 1.78706 0.602489 10
-2.8533 -33.979 2.98323 0.601032 10
-2.85324 -33.9783 4.18669 0.598843 10
-2.85318 -33.9776 5.40046 0.595924 10
-2.85312 -33.9769 6.62768 0.592279 10
-2.85306 -33.9762 7.87163 0.587913 10
-2.853 -33.9755 9.13574 0.58283 10
-0.805588 -10.0125 -2.69151 0.0238943 4
-0.921004 -11.447 -2.65129 0.0223273 4
-1.09375 -13.594 -2.65095 0.0339175 4
-1.38103 -17.1646 -2.72739 0.0595038 1
-1.65732 -20.5985 -2.53735 0.0312432 4
-2.49814 -31.0489 -2.72521 0.0331784 1
-2.72948 -33.9242 -1.78364 0.774191 10
-2.72943 -33.9236 -0.594052 0.775151 10
-2.72937 -33.9229 0.594039 0.775166 10
-2.72932 -33.9222 1.78353 0.603682 10
-2.72927 -33.9215 2.97734 0.602222 10
-2.72921 -33.9209 4.17842 0.600029 10
-2.72916 -33.9202 5.38979 0.597104 10
-2.7291 -33.9195 6.61459 0.593452 10
-2.72904 -33.9188 7.85608 0.589077 10
-2.72899 -33.9181 9.11769 0.583984 10
-0.770625 -10.0152 -2.69149 0.0364392 4
-0.881031 -11.45 -2.65126 0.0290777 4
-1.04628 -13.5976 -2.65092 0.00880985 4
-1.32108 -17.169 -2.72734 0.0595047 1
-1.58537 -20.6038 -2.5373 0.028992 4
-2.38967 -31.0566 -2.72513 0.0331794 1
-2.60593 -33.867 -1.78014 0.775711 10
-2.60588 -33.8664 -0.592887 0.776673 10
-2.60583 -33.8657 0.592875 0.776688 10
-2.60577 -33.865 1.78004 0.604868 10
-2.60572 -33.8644 2.97151 0.603405 10
-2.60567 -33.8637 4.17023 0.601207 10
-2.60562 -33.863 5.37923 0.598276 10
-2.60557 -33.8623 6.60162 0.594617 10
-2.60551 -33.8616 7.84068 0.590233 10
-2.60546 -33.8609 9.09982 0.58513 10
-0.735655 -10.0177 -2.69146 0.0555553 4
-0.84105 -11.4529 -2.65123 0.0534827 4
-0.998795 -13.601 -2.65088 0.0229059 4
-1.26113 -17.1733 -2.7273 0.0595057 1
-1.51341 -20.6087 -2.53725 0.0391259 4
-2.28119 -31.0638 -2.72505 0.0331803 1
-2.49986 -34.0416 -1.78885 0.431507 10
-2.49996 -34.0429 -0.595822 0.432016 10
-2.50006 -34.0443 0.595845 0.431999 10
-2.50016 -34.0456 1.78906 0.336411 10
-2.50026 -34.047 2.98675 0.335577 10
-2.50036 -34.0484 4.19187 0.334335 10
-2.50046 -34.0498 5.40748 0.332685 10
-2.50057 -34.0512 6.6367 0.330629 10
-2.50067 -34.0526 7.88283 0.328171 10
-2.50078 -34.054 9.14932 0.325314 10
-0.700675 -10.0201 -2.69144 0.023895 4
-0.801057 -11.4556 -2.6512 0.0176547 4
-0.9513 -13.6042 -2.65085 0.0149771 4
-1.20115 -17.1773 -2.72726 0.0595067 1
-1.44144 -20.6135 -2.5372 0.0441935 4
-2.17268 -31.0707 -2.72497 0.0331813 1
-2.3961 -34.2657 -1.80018 0.428791 10
-2.39619 -34.2671 -0.599595 0.429297 10
-2.39629 -34.2685 0.599619 0.429279 10
-2.39639 -34.2699 1.80039 0.334293 10
-2.39648 -34.2713 3.00567 0.333465 10
-2.39658 -34.2726 4.21843 0.33223 10
-2.39668 -34.2741 5.44173 0.33059 10
-2.39678 -34.2755 6.67875 0.328548 10
-2.39688 -34.2769 7.93277 0.326105 10
-2.39698 -34.2784 9.20729 0.323265 10
-0.665688 -10.0224 -2.69141 0.0322585 4
-0.761056 -11.4582 -2.65117 0.0207705 4
-0.903795 -13.6073 -2.65081 0.044051 4
-1.14117 -17.1811 -2.72721 0.0595076 1
-1.36944 -20.6179 -2.53714 0.0278678 4
-2.06415 -31.0772 -2.72489 0.0331822 1
-2.29101 -34.4928 -1.81167 0.42607 10
-2.2911 -34.4942 -0.603425 0.426573 10
-2.2912 -34.4956 0.603448 0.426555 10
-2.29129 -34.497 1.81189 0.332172 10
-2.29138 -34.4984 3.02486 0.331348 10
-2.29148 -34.4998 4.24537 0.330121 10
-2.29157 -34.5012 5.47649 0.328492 10
-2.29167 -34.5026 6.72141 0.326463 10
-2.29176 -34.5041 7.98345 0.324035 10
-2.29186 -34.5056 9.26611 0.321213 10
-0.630693 -10.0246 -2.69139 0.0400249 4
-0.721047 -11.4607 -2.65114 0.0280404 4
-0.856279 -13.6102 -2.65078 0.0220258 4
-1.08117 -17.1847 -2.72717 0.0595085 1
-1.29744 -20.6222 -2.53709 0.0326539 4
-1.9556 -31.0833 -2.72481 0.0331832 1
-2.18457 -34.7227 -1.82334 0.423344 10
-2.18466 -34.7241 -0.607311 0.423843 10
-2.18475 -34.7255 0.607335 0.423826 10
-2.18484 -34.727 1.82356 0.330046 10
-2.18493 -34.7284 3.04435 0.329228 10
-2.18502 -34.7298 4.27272 0.328009 10
-2.18511 -34.7313 5.51177 0.32639 10
-2.1852 -34.7327 6.76471 0.324373 10
-2.18529 -34.7342 8.03488 0.321961 10
-2.18539 -34.7357 9.32581 0.319157 10
-0.595691 -10.0266 -2.69136 0.0298696 4
-0.681029 -11.463 -2.65111 0.0244058 4
-0.808755 -13.6129 -2.65074 0.0114536 4
-1.02116 -17.1881 -2.72713 0.0595095 1
-1.22542 -20.6262 -2.53704 0.0287135 4
-1.84703 -31.0891 -2.72474 0.0331841 1
-2.07675 -34.9557 -1.83518 0.420613 10
-2.07684 -34.9571 -0.611255 0.421108 10
-2.07692 -34.9585 0.611279 0.421091 10
-2.07701 -34.96 1.83541 0.327916 10
-2.07709 -34.9614 3.06412 0.327103 10
-2.07718 -34.9629 4.30047 0.325892 10
-2.07726 -34.9643 5.54757 0.324283 10
-2.07735 -34.9658 6.80865 0.32228 10
-2.07744 -34.9673 8.08707 0.319883 10
-2.07753 -34.9688 9.38639 0.317097 10
-0.560684 -10.0285 -2.69133 0.0704928 4
-0.641006 -11.4652 -2.65108 0.022329 4
-1.15339 -20.6299 -2.53699 0.0371594 4
-1.73845 -31.0944 -2.72466 0.0331851 1
-1.96752 -35.1916 -1.8472 0.417876 10
-1.9676 -35.1931 -0.615257 0.418369 10
-1.96769 -35.1945 0.615282 0.418351 10
-1.96777 -35.196 1.84742 0.325783 10
-1.96785 -35.1975 3.08419 0.324975 10
-1.96793 -35.1989 4.32863 0.323771 10
-1.96801 -35.2004 5.5839 0.322173 10
-1.9681 -35.2019 6.85324 0.320182 10
-1.96818 -35.2034 8.14005 0.317802 10
-1.96827 -35.205 9.44788 0.315034 10
-0.525669 -10.0303 -2.69131 0.0525714 4
-0.600974 -11.4672 -2.65106 0.0285606 4
-0.713683 -13.6178 -2.65067 0.0392074 4
-0.891136 -17.0039 -2.69684 0.0173275 4
-1.08135 -20.6334 -2.53694 0.0329374 4
-1.62985 -31.0994 -2.72458 0.0331861 1
-1.85367 -35.3701 -1.85621 0.786077 10
-1.85364 -35.3694 -0.618223 0.787052 10
-1.857 -35.4337 0.619346 0.415607 10
-1.85357 -35.3681 1.85611 0.612953 10
-1.85353 -35.3674 3.09849 0.61147 10
-1.85724 -35.4381 4.35723 0.321647 10
-1.85346 -35.366 5.60911 0.606273 10
-1.85342 -35.3653 6.88375 0.602565 10
-1.85748 -35.4427 8.19382 0.315716 10
-1.85334 -35.3638 9.48871 0.592951 10
-0.490648 -10.032 -2.69128 0.0286756 4
-0.560936 -11.4691 -2.65103 0.0493325 4
-0.666134 -13.6201 -2.65064 0.0127756 4
-0.825014 -16.8686 -2.67492 0.02372 4
-1.0093 -20.6366 -2.53688 0.0343457 4
-1.52124 -31.104 -2.7245 0.033187 1
-1.72702 -35.3115 -1.85281 0.787522 10
-1.72699 -35.3108 -0.61709 0.788501 10
-1.74485 -35.676 0.623471 0.412857 10
-1.72692 -35.3095 1.8527 0.614079 10
-1.72689 -35.3088 3.09281 0.612594 10
-1.74507 -35.6805 4.38625 0.319518 10
-1.72682 -35.3074 5.59882 0.607387 10
-1.72679 -35.3067 6.87112 0.603672 10
-1.7453 -35.6851 8.24841 0.313626 10
-1.72672 -35.3052 9.47131 0.59404 10
-0.455622 -10.0336 -2.69126 0.0388319 4
-0.520892 -11.4709 -2.651 0.0353121 4
-0.618579 -13.6221 -2.65061 0.029957 4
-0.759938 -16.7351 -2.65331 0.0261752 4
-0.937238 -20.6396 -2.53683 0.0309681 4
-1.41262 -31.1082 -2.72442 0.033188 1
-1.60084 -35.2531 -1.84944 0.78896 10
-1.6008 -35.2524 -0.615968 0.789938 10
-1.63119 -35.9216 0.627659 0.410102 10
-1.60074 -35.251 1.84933 0.615198 10
-1.60071 -35.2504 3.08718 0.61371 10
-1.6314 -35.9261 4.41572 0.317386 10
-1.60065 -35.249 5.58864 0.608493 10
-1.60062 -35.2483 6.85863 0.604771 10
-1.63161 -35.9308 8.30383 0.311533 10
-1.60055 -35.2468 9.45409 0.595122 10
-0.420593 -10.035 -2.69123 0.0597419 4
-0.480843 -11.4725 -2.65097 0.0633547 4
-0.571019 -13.624 -2.65057 0.0246708 4
-0.700643 -16.7168 -2.65 0.0126442 4
-0.865171 -20.6423 -2.53678 0.0385701 4
-1.30399 -31.1121 -2.72434 0.0331889 1
-1.516 -36.1705 0.631912 0.407342 10
-1.51619 -36.1751 4.44564 0.31525 10
-1.5084 -35.9892 8.31606 0.156014 10
-0.385558 -10.0363 -2.69121 0.032261 4
-0.440789 -11.474 -2.65094 0.0228495 4
-0.523451 -13.6258 -2.65054 0.0264333 4
-0.642276 -16.7189 -2.64996 0.082369 4
-0.795621 -20.7105 -2.54481 0.148221 4
-1.19534 -31.1156 -2.72427 0.0331899 1
-1.39923 -36.4228 0.636231 0.404577 10
-1.39941 -36.4275 4.47603 0.31311 10
-1.38278 -35.9946 8.31615 0.156012 10
-0.350519 -10.0375 -2.69118 0.115304 4
-0.400729 -11.4754 -2.65091 0.0306394 4
-0.475879 -13.6273 -2.6505 0.0118951 4
-0.583902 -16.7207 -2.64992 0.0646679 4
-0.727539 -20.834 -2.55965 0.139231 4
-1.08669 -31.1187 -2.72419 0.0331908 1
-1.28484 -36.7928 -1.92941 0.793213 10
-1.28481 -36.7921 -0.6426 0.794196 10
-1.28085 -36.6786 0.640616 0.401807 10
-1.28476 -36.7907 1.92929 0.394847 10
-1.28474 -36.79 3.22067 0.393892 10
-1.28101 -36.6833 4.50689 0.310966 10
-1.28469 -36.7885 5.83028 0.390544 10
-1.28466 -36.7878 7.15518 0.388155 10
-1.25714 -35.9996 8.31624 0.15601 10
-1.28461 -36.7863 9.86287 0.381962 10
-0.315476 -10.0386 -2.69116 0.120085 4
-0.360666 -11.4766 -2.65088 0.0129829 4
-0.428302 -13.6288 -2.65047 0.0171821 4
-0.525524 -16.7224 -2.64988 0.0657528 4
-0.658657 -20.9588 -2.57468 0.11518 4
-0.97803 -31.1214 -2.72411 0.0331918 1
-1.15542 -36.766 -1.92778 0.794609 10
-1.1554 -36.7653 -0.642057 0.795594 10
-1.16082 -36.9379 0.645071 0.399032 10
-1.15535 -36.7639 1.92766 0.619602 10
-1.15533 -36.7631 3.21795 0.618104 10
-1.16097 -36.9427 4.53823 0.308818 10
-1.15529 -36.7617 5.82536 0.61285 10
-1.15526 -36.761 7.14914 0.609101 10
-1.1359 -36.1448 8.34881 0.303122 10
-1.15522 -36.7595 9.85454 0.599382 10
-0.280431 -10.0395 -2.69113 0.112319 4
-0.320601 -11.4776 -2.65085 0.0503744 4
-0.380722 -13.63 -2.65044 0.0281966 4
-0.467142 -16.7239 -2.64983 0.0177029 4
-0.588961 -21.085 -2.58993 0.108476 4
-0.869368 -31.1237 -2.72403 0.0331927 1
-1.02529 -36.7058 -1.92442 0.795995 10
-1.02527 -36.705 -0.640939 0.796982 10
-1.03912 -37.2008 0.649596 0.396253 10
-1.02523 -36.7036 1.92431 0.620683 10
-1.02521 -36.7029 3.21234 0.619182 10
-1.03926 -37.2057 4.57007 0.306667 10
-1.02517 -36.7015 5.81521 0.613919 10
-1.02515 -36.7008 7.13669 0.610163 10
-1.01681 -36.4022 8.40739 0.30101 10
-1.02511 -36.6993 9.83738 0.600428 10
-0.245382 -10.0404 -2.69111 0.113515 4
-0.280531 -11.4786 -2.65082 0.0358337 4
-0.333138 -13.6311 -2.6504 0.0290782 4
-0.408755 -16.7251 -2.64979 0.0274581 4
-0.518431 -21.2127 -2.60538 0.116819 4
-0.760698 -31.1257 -2.72396 0.0331937 1
-0.895716 -36.6502 -1.92133 0.393023 10
-0.895755 -36.6518 -0.639951 0.393485 10
-0.915691 -37.4675 0.654193 0.393468 10
-0.895834 -36.655 1.92158 0.306405 10
-0.895873 -36.6566 3.208 0.305644 10
-0.915812 -37.4725 4.60242 0.304511 10
-0.895953 -36.6599 5.80809 0.303007 10
-0.895994 -36.6616 7.12841 0.301134 10
-0.896035 -36.6632 8.46691 0.298894 10
-0.896076 -36.665 9.82728 0.29629 10
-0.210331 -10.0411 -2.69108 0.123673 4
-0.240459 -11.4793 -2.6508 0.0358341 4
-0.28555 -13.632 -2.65037 0.0110146 4
-0.350365 -16.7262 -2.64975 0.0180648 4
-0.447052 -21.342 -2.62104 0.137955 4
-0.652025 -31.1272 -2.72388 0.0331946 1
-0.790432 -37.7347 -1.97802 0.390237 10
-0.790467 -37.7363 -0.658835 0.390696 10
-0.790502 -37.738 0.658864 0.390679 10
-0.790537 -37.7397 1.97829 0.304233 10
-0.790572 -37.7414 3.30266 0.303477 10
-0.790607 -37.743 4.63528 0.302352 10
-0.790643 -37.7447 5.97949 0.300859 10
-0.790679 -37.7465 7.33878 0.298999 10
-0.790716 -37.7482 8.71677 0.296775 10
-0.790753 -37.75 10.1173 0.294189 10
-0.175278 -10.0416 -2.69106 0.10814 4
-0.200385 -11.48 -2.65077 0.0903652 4
-0.237961 -13.6327 -2.65033 0.0207077 4
-0.291973 -16.7271 -2.64971 0.0162586 4
-0.374809 -21.4727 -2.63692 0.14699 4
-0.543351 -31.1284 -2.7238 0.0331955 1
-0.663452 -38.009 -1.99227 0.387447 10
-0.663482 -38.0107 -0.66358 0.387902 10
-0.663511 -38.0124 0.663609 0.387885 10
-0.663541 -38.0141 1.99254 0.302057 10
-0.66357 -38.0158 3.32646 0.301307 10
-0.6636 -38.0175 4.66867 0.30019 10
-0.66363 -38.0192 6.02257 0.298707 10
-0.663661 -38.021 7.39165 0.29686 10
-0.663692 -38.0227 8.77958 0.294652 10
-0.663723 -38.0245 10.1902 0.292085 10
-0.140225 -10.0421 -2.69103 0.0322631 4
-0.16031 -11.4805 -2.65074 0.0259673 4
-0.190371 -13.6333 -2.6503 0.00793071 4
-0.233581 -16.7277 -2.64967 0.028182 4
-0.301192 -21.5696 -2.64868 0.0681422 4
-0.434679 -31.1293 -2.72372 0.0331965 1
-0.534632 -38.2873 -2.00675 0.384652 10
-0.534656 -38.289 -0.668403 0.385104 10
-0.53468 -38.2907 0.668432 0.385086 10
-0.534704 -38.2925 2.00702 0.299877 10
-0.534728 -38.2942 3.35063 0.299133 10
-0.534753 -38.2959 4.70261 0.298024 10
-0.534777 -38.2977 6.06635 0.296551 10
-0.534802 -38.2994 7.44538 0.294718 10
-0.534827 -38.3012 8.8434 0.292525 10
-0.534852 -38.3031 10.2643 0.289976 10
-0.105169 -10.0424 -2.69101 0.0477976 4
-0.120233 -11.4809 -2.65071 0.0249289 4
-0.142779 -13.6337 -2.65027 0.0118962 4
-0.175185 -16.7282 -2.64963 0.00903283 4
-0.225893 -21.5701 -2.64862 0.0349166 4
-0.326005 -31.1297 -2.72365 0.0331974 1
-0.450857 -43.0516 -2.25636 0.802782 10
-0.488072 -46.6051 -0.813541 0.530915 10
-0.488063 -46.6043 0.813525 0.530925 10
-0.434698 -41.5085 2.17549 0.297694 10
-0.434717 -41.5104 3.63189 0.296955 10
-0.434737 -41.5123 5.09735 0.295854 10
-0.434757 -41.5142 6.57557 0.294392 10
-0.434778 -41.5162 8.07037 0.292572 10
-0.434798 -41.5181 9.58574 0.290395 10
-0.434819 -41.5201 11.1259 0.287865 10
-0.070113 -10.0426 -2.69098 0.0119495 4
-0.0801555 -11.4811 -2.65068 0.0223324 4
-0.0951857 -13.6339 -2.65023 0.0202679 4
-0.11679 -16.7284 -2.64958 0.0278215 4
-0.150594 -21.5703 -2.64857 0.02478 4
-0.217333 -31.1298 -2.72357 0.0331984 1
-0.300079 -42.9818 -2.25263 0.80411 10
-0.327288 -46.8792 -0.818299 0.250664 10
-0.327303 -46.8813 0.818335 0.250653 10
-0.289874 -41.5201 2.17603 0.62701 10
-0.289868 -41.5193 3.63256 0.625493 10
-0.289863 -41.5185 5.09796 0.623214 10
-0.289857 -41.5177 6.57592 0.620176 10
-0.289851 -41.5169 8.07026 0.616382 10
-0.289846 -41.5161 9.58497 0.611838 10
-0.28984 -41.5152 11.1242 0.606547 10
-0.0350566 -10.0427 -2.69096 0.0382388 4
-0.0400778 -11.4812 -2.65065 0.0306424 4
-0.0475928 -13.634 -2.6502 0.0304022 4
-0.108665 -31.1294 -2.72349 0.0331993 1
-0.149796 -42.9122 -2.24895 0.805428 10
-0.165281 -47.3483 -0.826473 0.532665 10
-0.165278 -47.3474 0.826457 0.532675 10
-0.144702 -41.4529 2.17247 0.628038 10
-0.144699 -41.4521 3.62661 0.626518 10
-0.144696 -41.4513 5.08961 0.624236 10
-0.144693 -41.4505 6.56516 0.621193 10
-0.14469 -41.4497 8.05706 0.617393 10
-0.144687 -41.4489 9.56929 0.61284 10
-0.144685 -41.4481 11.106 0.607542 10
-4.3898e-07 -10.0427 -2.69093 0.0388366 4
-5.01856e-07 -11.4811 -2.65062 0.0327202 4
-5.95957e-07 -13.6339 -2.65016 0.0176247 4
-7.31217e-07 -16.7283 -2.6495 0.0209571 4
-9.02875e-07 -20.6554 -2.53616 0.0321027 4
-1.36068e-06 -31.1288 -2.72341 0.0332003 1
-1.87272e-06 -42.8429 -2.2453 0.806736 10
-2.08006e-06 -47.5863 -0.830621 0.373862 10
-2.08016e-06 -47.5885 0.830659 0.373845 10
-1.80904e-06 -41.386 2.16895 0.629058 10
-1.809e-06 -41.3852 3.62073 0.627536 10
-1.80897e-06 -41.3844 5.08136 0.62525 10
-1.80893e-06 -41.3836 6.55451 0.622201 10
-1.8089e-06 -41.3828 8.04399 0.618395 10
-1.80886e-06 -41.3819 9.55377 0.613836 10
-1.80883e-06 -41.3811 11.088 0.608528 10
0.0350539 -10.0425 -2.69091 0.0238997 4
0.0400746 -11.4809 -2.6506 0.0296043 4
0.0475888 -13.6337 -2.65013 0.0264374 4
0.0583894 -16.7279 -2.64946 0.0202348 4
0.0720965 -20.6548 -2.53611 0.0326665 4
0.108652 -31.1277 -2.72334 0.0332012 1
0.149303 -42.7738 -2.24169 0.808034 10
0.271263 -77.7137 -1.35651 0.809035 10
0.206321 -59.1087 1.03175 0.202566 3
0.144226 -41.3192 2.16546 0.63007 10
0.144223 -41.3184 3.61491 0.628546 10
0.144221 -41.3176 5.0732 0.626256 10
0.144218 -41.3168 6.54398 0.623203 10
0.144215 -41.316 8.03107 0.61939 10
0.144212 -41.3152 9.53842 0.614824 10
0.144209 -41.3144 11.0702 0.609508 10
0.0701083 -10.0423 -2.69088 0.0173274 4
0.0801497 -11.4806 -2.65057 0.0103876 4
0.095178 -13.6332 -2.6501 0.0326065 4
0.116779 -16.7274 -2.64942 0.00867219 4
0.144193 -20.654 -2.53606 0.0354833 4
0.217302 -31.1262 -2.72326 0.0332021 1
0.298137 -42.7049 -2.23812 0.809323 10
0.541671 -77.5885 -1.35435 0.810325 10
0.41406 -59.3096 1.03528 0.145078 3
0.287998 -41.2527 2.16201 0.631075 10
0.287993 -41.2519 3.60916 0.629548 10
0.287987 -41.2511 5.06512 0.627254 10
0.287982 -41.2503 6.53356 0.624197 10
0.287976 -41.2495 8.01828 0.620378 10
0.28797 -41.2487 9.52324 0.615804 10
0.287965 -41.2478 11.0526 0.610479 10
0.105161 -10.0419 -2.69086 0.00418252 4
0.120223 -11.4801 -2.65054 0.0347988 4
0.142765 -13.6326 -2.65006 0.0251162 4
0.175165 -16.7266 -2.64938 0.0122858 4
0.217395 -20.7591 -2.54903 0.0215778 4
0.325944 -31.1244 -2.72318 0.0332031 1
0.446498 -42.6362 -2.23459 0.810602 10
0.811222 -77.4638 -1.35221 0.811605 10
0.622881 -59.479 1.03827 0.162654 3
0.431315 -41.1863 2.1586 0.632072 10
0.431307 -41.1855 3.60347 0.630543 10
0.431298 -41.1848 5.05713 0.628245 10
0.43129 -41.184 6.52326 0.625183 10
0.431282 -41.1832 8.00564 0.621358 10
0.431273 -41.1824 9.50822 0.616777 10
0.431264 -41.1815 11.0352 0.611444 10
0.140212 -10.0413 -2.69083 0.0316679 4
0.160294 -11.4795 -2.65051 0.00779086 4
0.190349 -13.6319 -2.65003 0.0167443 4
0.233548 -16.7256 -2.64934 0.0437237 4
0.291915 -20.9056 -2.56714 0.144136 4
0.434575 -31.1222 -2.72311 0.033204 1
0.594395 -42.5678 -2.2311 0.811871 10
1.07993 -77.3394 -1.3501 0.812876 10
1.07991 -77.3379 1.35007 0.633822 10
0.574182 -41.1202 2.15523 0.633061 10
0.574171 -41.1194 3.59783 0.63153 10
0.57416 -41.1186 5.04923 0.629229 10
0.574149 -41.1179 6.51306 0.626161 10
0.574138 -41.1171 7.99312 0.622331 10
0.574126 -41.1162 9.49336 0.617742 10
0.574115 -41.1154 11.0179 0.612401 10
0.17526 -10.0407 -2.69081 0.0316682 4
0.200361 -11.4788 -2.65048 0.0280474 4
0.237927 -13.631 -2.64999 0.0202697 4
0.291924 -16.7244 -2.64929 0.0122862 4
0.3675 -21.0542 -2.58553 0.117003 4
0.543191 -31.1196 -2.72303 0.033205 1
0.741826 -42.4995 -2.22765 0.81313 10
0.764708 -43.8104 -0.764831 0.814137 10
0.764693 -43.8096 0.764816 0.814152 10
0.716599 -41.0543 2.15189 0.634043 10
0.716586 -41.0535 3.59226 0.632509 10
0.716572 -41.0527 5.04141 0.630204 10
0.716559 -41.0519 6.50298 0.627132 10
0.716545 -41.0511 7.98075 0.623296 10
0.716531 -41.0503 9.47866 0.6187 10
0.716516 -41.0495 11.0009 0.61335 10
0.210306 -10.0399 -2.69078 0.0155355 4
0.240426 -11.4779 -2.65045 0.0462268 4
0.285504 -13.6299 -2.64996 0.018948 4
0.350296 -16.7231 -2.64925 0.0372205 4
0.444179 -21.205 -2.60422 0.102723 4
0.651798 -31.1167 -2.72295 0.0332059 1
0.888808 -42.4315 -2.22423 0.814379 10
0.916224 -43.7403 -0.763658 0.815387 10
0.916207 -43.7395 0.763643 0.815403 10
0.858584 -40.9886 2.14859 0.635017 10
0.858568 -40.9878 3.58675 0.633481 10
0.858551 -40.987 5.03368 0.631173 10
0.858535 -40.9862 6.49301 0.628095 10
0.858518 -40.9854 7.96851 0.624253 10
0.858501 -40.9846 9.46413 0.61965 10
0.858484 -40.9838 10.984 0.614292 10
0.245348 -10.0391 -2.69076 0.0233035 4
0.280487 -11.4768 -2.65043 0.0275286 4
0.333075 -13.6286 -2.64993 0.0387778 4
0.408662 -16.7215 -2.64921 0.0383052 4
0.521974 -21.3579 -2.6232 0.117229 4
0.76039 -31.1133 -2.72288 0.0332068 1
1.03534 -42.3637 -2.22085 0.815618 10
1.07301 -43.9051 -0.766596 0.354016 10
1.07307 -43.9072 0.766632 0.353998 10
1.00013 -40.9231 2.14533 0.635983 10
1.00012 -40.9223 3.58131 0.634445 10
1.0001 -40.9215 5.02603 0.632133 10
1.00008 -40.9207 6.48314 0.629051 10
1.00006 -40.9199 7.95641 0.625203 10
1.00004 -40.9191 9.44975 0.620593 10
1.00002 -40.9183 10.9673 0.615227 10
0.280387 -10.038 -2.69073 0.0466074 4
0.320543 -11.4757 -2.6504 0.0275289 4
0.380642 -13.6272 -2.64989 0.0163045 4
0.600913 -21.513 -2.6425 0.127726 4
0.868968 -31.1096 -2.7228 0.0332077 1
1.18143 -42.2961 -2.21751 0.816847 10
1.23623 -44.2577 -0.772823 0.351163 10
1.23629 -44.2599 0.77286 0.351146 10
1.14126 -40.8578 2.1421 0.636942 10
1.14124 -40.857 3.57592 0.635401 10
1.14121 -40.8562 5.01847 0.633085 10
1.14119 -40.8554 6.47339 0.629999 10
1.14117 -40.8546 7.94443 0.626145 10
1.14115 -40.8538 9.43553 0.621528 10
1.14113 -40.853 10.9508 0.616154 10
0.315421 -10.0369 -2.69071 0.0484004 4
0.360594 -11.4743 -2.65037 0.00415535 4
0.4282 -13.6256 -2.64986 0.0198301 4
0.525372 -16.7177 -2.64913 0.0195146 4
0.681018 -21.6705 -2.66211 0.112698 4
0.977525 -31.1055 -2.72272 0.0332087 1
1.32981 -42.3153 -2.21875 0.347899 10
2.41107 -76.7218 1.33985 0.638658 10
1.284 -40.8578 2.14232 0.637885 10
1.28398 -40.857 3.57629 0.636342 10
1.28395 -40.8563 5.01899 0.634026 10
1.28393 -40.8555 6.47407 0.630935 10
1.28691 -40.9505 7.9639 0.266549 10
1.28388 -40.8539 9.43652 0.622451 10
1.28385 -40.8531 10.952 0.617069 10
0.350452 -10.0357 -2.69069 0.0155361 4
0.400641 -11.4729 -2.65034 0.0337626 4
0.475755 -13.6239 -2.64983 0.0246777 4
0.583716 -16.7155 -2.64909 0.0220446 4
0.762325 -21.8302 -2.68205 0.11186 4
1.08607 -31.101 -2.72265 0.0332096 1
1.48974 -42.6608 -2.23712 0.345041 10
2.67491 -76.5997 1.33787 0.639603 10
1.42451 -40.7928 2.13916 0.638829 10
1.42448 -40.792 3.57101 0.637283 10
1.42446 -40.7912 5.01159 0.634963 10
1.42443 -40.7904 6.46451 0.631867 10
1.4417 -41.285 8.02988 0.264359 10
1.42437 -40.7889 9.42259 0.623371 10
1.42435 -40.7881 10.9358 0.617981 10
0.385477 -10.0343 -2.69066 0.0280847 4
0.440682 -11.4713 -2.65031 0.0322046 4
0.523302 -13.622 -2.64979 0.00881358 4
0.642051 -16.7131 -2.64905 0.0177082 4
0.844859 -21.9924 -2.70231 0.15358 4
1.19459 -31.0962 -2.72257 0.0332105 1
1.65236 -43.0122 -2.25583 0.342179 10
2.93798 -76.478 1.33591 0.640539 10
1.5646 -40.7279 2.13603 0.639764 10
1.56458 -40.7271 3.56579 0.638216 10
1.56455 -40.7264 5.00426 0.635893 10
1.56452 -40.7256 6.45506 0.632792 10
1.59907 -41.6251 8.09707 0.262165 10
1.56446 -40.724 9.40882 0.624284 10
1.56442 -40.7232 10.9198 0.618886 10
0.420498 -10.0328 -2.69064 0.00358531 4
0.480717 -11.4696 -2.65028 0.0166219 4
0.570841 -13.6199 -2.64976 0.0286445 4
0.700376 -16.7105 -2.64901 0.0195155 4
0.928649 -22.1569 -2.72292 0.0945722 4
1.30309 -31.091 -2.72249 0.0332115 1
1.81771 -43.3694 -2.27489 0.339313 10
3.20024 -76.3556 -1.33396 0.339709 10
3.20028 -76.3566 1.33398 0.641467 10
1.76624 -42.1412 3.69012 0.168448 10
1.7591 -41.971 8.16549 0.259969 10
1.71978 -41.0327 11.0043 0.255783 10
0.455511 -10.0312 -2.69061 0.0298779 4
0.520744 -11.4677 -2.65026 0.0218165 4
0.618371 -13.6176 -2.64973 0.0356959 4
0.758689 -16.7077 -2.64897 0.0155403 4
1.00661 -22.1674 -2.72462 0.0464032 1
1.41157 -31.0853 -2.72242 0.0332124 1
1.98588 -43.7327 -2.2943 0.336443 10
3.46189 -76.2369 -1.33209 0.823863 10
3.46182 -76.2355 1.33207 0.642388 10
1.92002 -42.2824 2.21821 0.641617 10
1.91999 -42.2816 3.70297 0.640065 10
1.91995 -42.2808 5.19678 0.637733 10
1.91992 -42.28 6.70339 0.634623 10
1.92186 -42.3227 8.23517 0.257769 10
1.91984 -42.2783 9.77078 0.62609 10
1.92206 -42.3273 11.3532 0.253618 10
0.490519 -10.0294 -2.69059 0.0322684 4
0.560765 -11.4657 -2.65023 0.0103889 4
0.665893 -13.6152 -2.64969 0.0462731 4
0.816993 -16.7047 -2.64892 0.0130107 4
1.08396 -22.1633 -2.72456 0.0464041 1
1.41452 -28.9221 -2.53338 0.0298384 4
2.15696 -44.1023 -2.31407 0.333568 10
3.72269 -76.1162 -1.3302 0.825033 10
3.72263 -76.1148 1.33018 0.643301 10
2.06467 -42.2154 2.21506 0.642529 10
2.06463 -42.2146 3.69771 0.640974 10
2.0646 -42.2138 5.1894 0.638639 10
2.06456 -42.213 6.69388 0.635525 10
2.08742 -42.6805 8.30616 0.255566 10
2.06448 -42.2114 9.75692 0.62698 10
2.08765 -42.6851 11.4511 0.25145 10
0.525521 -10.0276 -2.69056 0.0280857 4
0.600778 -11.4635 -2.6502 0.0503868 4
0.713407 -13.6126 -2.64966 0.0330526 4
0.875285 -16.7015 -2.64888 0.0133723 4
1.1613 -22.1589 -2.72451 0.0464051 1
2.33101 -44.4783 -2.33421 0.33069 10
3.98277 -75.9958 -1.32833 0.826194 10
3.98269 -75.9944 1.32831 0.644206 10
2.20891 -42.1487 2.21195 0.643433 10
2.20887 -42.1479 3.69252 0.641876 10
2.20883 -42.1471 5.18211 0.639537 10
2.20879 -42.1463 6.68448 0.636419 10
2.25586 -43.0445 8.37849 0.253359 10
2.2087 -42.1447 9.74322 0.627862 10
2.25611 -43.0493 11.5508 0.24928 10
0.560515 -10.0256 -2.69054 0.00597574 4
0.640783 -11.4613 -2.65017 0.0327258 4
0.76091 -13.6099 -2.64963 0.0198318 4
0.933565 -16.6981 -2.64884 0.0285522 4
1.23862 -22.1543 -2.72445 0.046406 1
2.50811 -44.861 -2.35474 0.327807 10
4.24211 -75.8758 -1.32649 0.827345 10
4.24203 -75.8744 1.32646 0.645103 10
2.42675 -43.4057 2.27835 0.255555 10
2.42688 -43.408 3.80364 0.254918 10
2.42701 -43.4103 5.33844 0.253971 10
2.42714 -43.4126 6.88662 0.252715 10
2.42727 -43.415 8.45219 0.25115 10
2.4274 -43.4174 10.0393 0.24928 10
2.42754 -43.4198 11.6525 0.247106 10
0.595503 -10.0235 -2.69051 0.0370499 4
0.68078 -11.4588 -2.65015 0.0218174 4
0.808403 -13.607 -2.64959 0.0136621 4
0.991832 -16.6944 -2.6488 0.0151799 4
2.68837 -45.2504 -2.37565 0.324921 10
4.50074 -75.7561 -1.32466 0.828485 10
4.50066 -75.7547 1.32463 0.645992 10
4.50057 -75.7533 3.97706 0.645217 10
4.50049 -75.7519 6.63912 0.643656 10
4.5004 -75.7505 9.31739 0.641311 10
4.50032 -75.749 12.0186 0.638184 10
4.50023 -75.7476 14.7498 0.63428 10
4.50015 -75.7461 17.5182 0.629603 10
4.50006 -75.7447 20.3315 0.793484 10
0.630481 -10.0212 -2.69049 0.0179275 4
0.720766 -11.4563 -2.65012 0.0161035 4
0.855884 -13.6039 -2.64956 0.0251209 4
1.05008 -16.6906 -2.64876 0.0104815 4
1.37714 -21.8891 -2.69295 0.017239 4
1.818 -28.8964 -2.5331 0.0294384 4
2.87185 -45.6468 -2.39698 0.32203 10
4.75865 -75.6367 -1.32285 0.829616 10
4.75856 -75.6353 1.32283 0.646874 10
4.75847 -75.6339 3.97164 0.646097 10
4.75839 -75.6325 6.63007 0.644534 10
4.7583 -75.6311 9.3047 0.642185 10
4.75821 -75.6297 12.0023 0.639054 10
4.75812 -75.6283 14.7297 0.635145 10
4.75802 -75.6268 17.4943 0.630461 10
4.75793 -75.6253 20.3038 0.794567 10
0.665452 -10.0189 -2.69046 0.0239036 4
0.760744 -11.4536 -2.65009 0.0301294 4
0.903354 -13.6007 -2.64953 0.020714 4
1.10832 -16.6866 -2.64872 0.0144575 4
1.43755 -21.6434 -2.66334 0.0168037 4
1.9188 -28.889 -2.53303 0.0318589 4
3.05866 -46.0504 -2.41872 0.319136 10
5.00842 -75.4056 -1.31911 0.319501 10
5.00869 -75.4096 1.31918 0.249105 10
5.01569 -75.5149 3.96629 0.64697 10
5.00924 -75.4178 6.61274 0.248174 10
5.00951 -75.4219 9.28105 0.247246 10
4.98975 -75.1244 14.6349 0.636003 10
5.01035 -75.4345 17.4538 0.242677 10
5.01511 -75.5063 20.2764 0.79564 10
0.700414 -10.0164 -2.69044 0.034063 4
0.800711 -11.4507 -2.65006 0.0207791 4
0.950812 -13.5973 -2.64949 0.037462 4
1.16654 -16.6824 -2.64868 0.0140962 4
2.01958 -28.8814 -2.53296 0.0264154 4
5.27734 -75.4696 1.32054 0.414062 10
5.27221 -75.3962 3.96099 0.647834 10
5.24495 -75.0063 14.6154 0.636852 10
5.27161 -75.3876 20.2494 0.796703 10
0.735367 -10.0138 -2.69042 0.121313 4
0.840668 -11.4477 -2.65003 0.0301301 4
0.998258 -13.5937 -2.64946 0.0678731 4
1.22475 -16.6779 -2.64864 0.044458 4
1.57909 -21.5031 -2.64735 0.0509914 4
5.53343 -75.3511 1.3188 0.41461 10
5.52805 -75.2778 3.95576 0.648691 10
5.49947 -74.8885 14.5961 0.637694 10
5.52742 -75.2692 20.2226 0.797756 10
0.77031 -10.0111 -2.69039 0.119521 4
0.880613 -11.4446 -2.65001 0.0368838 4
1.04569 -13.59 -2.64943 0.0193925 4
1.28294 -16.6733 -2.6486 0.0144581 4
1.6541 -21.497 -2.6473 0.0608528 4
2.22103 -28.865 -2.53282 0.0278284 4
5.78884 -75.2328 1.31707 0.415152 10
5.78321 -75.1597 3.9506 0.64954 10
5.75331 -74.771 14.577 0.638529 10
5.78255 -75.1511 20.1962 0.7988 10
0.805243 -10.0082 -2.69037 0.112949 4
0.920547 -11.4413 -2.64998 0.0119484 4
1.09311 -13.5861 -2.6494 0.0330559 4
1.34111 -16.6685 -2.64856 0.0119281 4
1.7291 -21.4907 -2.64725 0.0549376 4
2.32172 -28.8562 -2.53275 0.0318624 4
6.0436 -75.1149 1.31537 0.41569 10
6.03772 -75.0419 3.94549 0.650381 10
6.03738 -75.0377 11.9232 0.643291 10
6.03703 -75.0334 20.1701 0.799834 10
0.840166 -10.0053 -2.69034 0.0926307 4
0.96047 -11.4379 -2.64995 0.0244165 4
1.14051 -13.582 -2.64936 0.0215968 4
1.39927 -16.6634 -2.64852 0.0285557 4
1.80407 -21.4841 -2.6472 0.0180312 4
2.42236 -28.8472 -2.53268 0.02783 4
6.2977 -74.9973 1.31369 0.416222 10
