VERSION 0.7
FIELDS x y z intensity label
SIZE 4 4 4 4 4
TYPE F F F F F
COUNT 1 1 1 1 1
WIDTH 1242
HEIGHT 1
VIEWPOINT 9.57016 49.0677 2.72863 -0.538732 -0.000609359 -0.000490098 0.842477
POINTS 1242
DATA ascii
-0.545439 -31.2481 -2.73427 0.0330448 1
-0.692044 -39.647 6.28043 0.610308 10
-0.650378 -37.26 7.24371 0.214186 10
-0.138244 -9.90026 -2.65303 0.0620446 4
-0.160467 -11.4917 -2.65333 0.0254044 4
-0.190618 -13.651 -2.65374 0.0404524 4
-0.301941 -21.6233 -2.65526 0.0162791 4
-0.436336 -31.2479 -2.7341 0.0330469 1
-0.557681 -39.9379 6.32616 0.611334 10
-0.51971 -37.2186 7.23527 0.211955 10
-0.557891 -39.9529 10.7064 0.5979 10
-0.103683 -9.90049 -2.65297 0.0167047 4
-0.120349 -11.4919 -2.65327 0.0331821 4
-0.142962 -13.6512 -2.65367 0.0153899 4
-0.226449 -21.6233 -2.65515 0.051085 4
-0.327236 -31.2473 -2.73393 0.0330489 1
-0.42134 -40.2331 6.37264 0.612353 10
-0.38934 -37.1774 7.22695 0.209722 10
-0.4215 -40.2483 10.7851 0.598897 10
-0.0691213 -9.90059 -2.65292 0.0519048 4
-0.0802319 -11.492 -2.65321 0.0124436 4
-0.0953064 -13.6512 -2.65359 0.0237451 4
-0.116991 -16.7573 -2.65415 0.0147777 4
-0.150961 -21.623 -2.65503 0.023298 4
-0.218147 -31.2463 -2.73376 0.033051 1
-0.28298 -40.5326 6.41989 0.613364 10
-0.259268 -37.1362 7.21873 0.207486 10
-0.283088 -40.5481 10.8651 0.599886 10
-0.0345603 -9.90057 -2.65287 0.0340073 4
-0.0401155 -11.492 -2.65314 0.044072 4
-0.0476525 -13.6511 -2.65352 0.0285829 4
-0.0584944 -16.757 -2.65406 0.0205453 4
-0.0754782 -21.6224 -2.65491 0.051651 4
-0.109068 -31.2449 -2.73359 0.033053 1
-0.142445 -40.8064 -2.13859 0.621102 10
-0.142462 -40.8114 -0.712371 0.621872 10
-0.14248 -40.8164 0.712457 0.621883 10
-0.142532 -40.8315 5.01351 0.617378 10
-0.14255 -40.8366 6.46793 0.614368 10
-0.12949 -37.0952 7.21062 0.205248 10
-0.142605 -40.8523 10.9464 0.600868 10
-4.32761e-07 -9.90043 -2.65281 0.0149158 4
-5.02321e-07 -11.4918 -2.65308 0.0202217 4
-5.96695e-07 -13.6508 -2.65345 0.00923473 4
-7.32451e-07 -16.7565 -2.65397 0.0176624 4
-9.45109e-07 -21.6216 -2.6548 0.0255459 4
-1.36568e-06 -31.2431 -2.73342 0.0330551 1
-1.79718e-06 -41.1146 -2.15472 0.622109 10
-1.7974e-06 -41.1197 -0.717746 0.62288 10
-1.79762e-06 -41.1247 0.717834 0.622892 10
-1.79829e-06 -41.14 5.05136 0.618379 10
-1.79852e-06 -41.1452 6.51676 0.615365 10
-1.61999e-06 -37.0611 7.20395 0.0848374 10
-1.79921e-06 -41.1612 11.0291 0.601842 10
0.0345569 -9.90017 -2.65276 0.0369919 4
0.0401112 -11.4914 -2.65302 0.00933333 4
0.0584869 -16.7558 -2.65388 0.0252328 4
0.0722647 -20.703 -2.54203 0.0398646 4
0.109048 -31.241 -2.73325 0.0330571 1
0.144604 -41.4274 -2.17113 0.623109 10
0.144622 -41.4326 -0.723212 0.623881 10
0.14464 -41.4377 0.723302 0.623893 10
0.144694 -41.4533 5.08985 0.619373 10
0.144713 -41.4585 6.56642 0.616354 10
0.129306 -37.0446 7.20079 0.0825041 10
0.144769 -41.4747 11.1132 0.602809 10
0.0691136 -9.89979 -2.6527 0.0393793 4
0.095293 -13.6497 -2.6533 0.0395796 4
0.116972 -16.755 -2.65379 0.0223498 4
0.144526 -20.7017 -2.54192 0.0314439 4
0.218086 -31.2385 -2.73308 0.0330592 1
0.291436 -41.745 -2.18782 0.624102 10
0.291472 -41.7503 -0.728772 0.624875 10
0.291509 -41.7555 0.728862 0.624887 10
0.291619 -41.7713 5.129 0.620359 10
0.291656 -41.7766 6.61693 0.617335 10
0.258506 -37.0282 7.19773 0.0801698 10
0.291771 -41.7931 11.1987 0.603769 10
0.103668 -9.89928 -2.65265 0.01969 4
0.12033 -11.4903 -2.65289 0.030594 4
0.142935 -13.6489 -2.65322 0.0457377 4
0.175451 -16.7539 -2.6537 0.0302814 4
0.217722 -20.7903 -2.55287 0.0362493 4
0.327108 -31.2356 -2.73291 0.0330612 1
0.440544 -42.0676 -2.20479 0.625086 10
0.707244 -67.5349 -1.17889 0.241063 10
0.627667 -59.9361 1.04624 0.284525 10
0.627631 -59.9326 7.3592 0.28234 10
0.453868 -43.34 6.86475 0.107465 10
0.387598 -37.0118 7.19475 0.0778344 10
0.455869 -43.531 11.6647 0.177729 10
0.13822 -9.89866 -2.6526 0.0334141 4
0.160434 -11.4896 -2.65283 0.0114082 4
0.190573 -13.6479 -2.65315 0.0206705 4
0.233925 -16.7526 -2.65361 0.0273984 4
0.292357 -20.9372 -2.57102 0.107007 4
0.436112 -31.2323 -2.73274 0.0330633 1
0.837777 -59.9977 -1.04737 0.537056 10
0.835575 -59.84 1.04461 0.282314 10
0.833055 -59.6595 7.32598 0.629382 10
0.605172 -43.3396 6.86499 0.107461 10
0.516584 -36.9954 7.19187 0.0754981 10
0.607831 -43.53 11.665 0.177725 10
0.172767 -9.89792 -2.65254 0.0214809 4
0.200534 -11.4887 -2.65277 0.0150384 4
0.238204 -13.6468 -2.65308 0.0123147 4
0.292389 -16.7511 -2.65352 0.0108155 4
0.368058 -21.0862 -2.58946 0.13329 4
0.545094 -31.2287 -2.73257 0.0330654 1
1.0438 -59.7999 -1.04397 0.537887 10
1.04283 -59.7442 1.043 0.280099 10
1.04277 -59.7408 7.33636 0.177435 10
0.756474 -43.3387 6.86522 0.107457 10
0.645465 -36.979 7.18908 0.073161 10
0.759787 -43.5285 11.6652 0.177721 10
0.207313 -9.89705 -2.65249 0.00656374 4
0.24063 -11.4876 -2.65271 0.0373377 4
0.285831 -13.6455 -2.653 0.0175929 4
0.350848 -16.7494 -2.65343 0.0100949 4
0.444857 -21.2374 -2.60819 0.122743 4
0.654059 -31.2246 -2.7324 0.0330674 1
1.24948 -59.6498 -1.04142 0.235435 10
1.24946 -59.6487 1.0414 0.235404 10
1.24938 -59.6453 7.32513 0.17603 10
0.907782 -43.3373 6.86546 0.107453 10
0.774501 -36.9745 7.18869 0.0535548 10
0.911745 -43.5265 11.6654 0.177718 10
0.241854 -9.89607 -2.65243 0.0238686 4
0.280721 -11.4864 -2.65264 0.0176321 4
0.333452 -13.644 -2.65293 0.0233113 4
0.409298 -16.7475 -2.65333 0.0151428 4
0.522775 -21.3907 -2.62723 0.113286 4
0.763003 -31.2202 -2.73223 0.0330695 1
1.45548 -59.5546 -1.03984 0.233553 10
1.45545 -59.5535 1.03982 0.233522 10
1.45537 -59.5501 7.31402 0.174622 10
1.05909 -43.3354 6.8657 0.10745 10
0.903819 -36.9821 7.19073 0.0558987 10
1.0637 -43.5239 11.6657 0.177714 10
0.276391 -9.89496 -2.65238 0.0250626 4
0.320808 -11.4851 -2.65258 0.0114093 4
0.381067 -13.6424 -2.65285 0.0237518 4
0.601839 -21.5462 -2.64658 0.106787 4
0.871924 -31.2154 -2.73206 0.0330715 1
1.66086 -59.4597 -1.03828 0.350733 10
1.66082 -59.4586 1.03826 0.350687 10
1.66278 -59.5286 7.31204 0.173212 10
1.21039 -43.3329 6.86593 0.107446 10
1.03321 -36.9896 7.19286 0.058242 10
1.21564 -43.5208 11.6659 0.177711 10
0.310922 -9.89373 -2.65233 0.0202892 4
0.360887 -11.4837 -2.65252 0.0176329 4
0.428672 -13.6406 -2.65278 0.0527832 4
0.52617 -16.7431 -2.65315 0.0147833 4
0.682074 -21.7041 -2.66624 0.124761 4
0.980817 -31.2102 -2.73189 0.0330736 1
1.8679 -59.4378 -1.038 0.819269 10
1.86815 -59.4456 1.03814 0.819284 10
1.85319 -58.9697 7.24414 0.269119 10
1.36169 -43.3299 6.86617 0.107442 10
1.16268 -36.9972 7.19507 0.0605844 10
1.36758 -43.5172 11.6662 0.177707 10
0.345449 -9.89239 -2.65227 0.0375954 4
0.400961 -11.482 -2.65246 0.018152 4
0.476271 -13.6387 -2.6527 0.0233132 4
0.584591 -16.7406 -2.65306 0.0270435 4
0.763514 -21.8642 -2.68623 0.108004 4
1.08969 -31.2047 -2.73172 0.0330757 1
2.49233 -71.3713 -1.24655 0.541947 10
2.05599 -58.876 7.23346 0.266903 10
1.51298 -43.3264 6.8664 0.107439 10
1.29223 -37.0047 7.19738 0.0629263 10
1.5195 -43.513 11.6664 0.177703 10
0.37997 -9.89092 -2.65222 0.0465477 4
0.441028 -11.4803 -2.65239 0.0165965 4
0.523862 -13.6365 -2.65263 0.0206746 4
0.643001 -16.7378 -2.65297 0.0256021 4
0.846183 -22.0268 -2.70655 0.141384 4
1.19853 -31.1987 -2.73155 0.0330777 1
2.77108 -72.1333 -1.26002 0.225997 10
2.25819 -58.7825 7.22291 0.264685 10
1.66427 -43.3223 6.86664 0.107435 10
1.42187 -37.0123 7.19977 0.0652673 10
1.67142 -43.5083 11.6666 0.1777 10
0.414485 -9.88933 -2.65217 0.0381937 4
0.481088 -11.4784 -2.65233 0.038899 4
0.571443 -13.6342 -2.65255 0.0259539 4
0.7014 -16.7349 -2.65288 0.0176696 4
0.930112 -22.1918 -2.72721 0.117386 4
1.30735 -31.1924 -2.73138 0.0330798 1
3.04294 -72.6025 -1.26839 0.224101 10
2.45981 -58.6893 7.21247 0.262463 10
1.81555 -43.3177 6.86688 0.107431 10
1.55261 -37.0441 7.20697 0.189262 10
1.82332 -43.5031 11.6669 0.177696 10
0.448993 -9.88762 -2.65211 0.0477431 4
0.521139 -11.4764 -2.65227 0.0150413 4
0.619013 -13.6318 -2.65248 0.0202358 4
0.759784 -16.7318 -2.65279 0.0133428 4
1.00872 -22.2138 -2.73032 0.0462731 1
1.41613 -31.1857 -2.73121 0.0330818 1
3.33132 -73.3616 -1.28185 0.222202 10
2.66084 -58.5964 7.20215 0.260238 10
1.96681 -43.3126 6.86711 0.107428 10
1.68363 -37.0765 7.21438 0.191518 10
1.9752 -43.4974 11.6671 0.177693 10
0.483495 -9.8858 -2.65206 0.00895202 4
0.561183 -11.4742 -2.65221 0.0140043 4
0.666575 -13.6292 -2.65241 0.0228759 4
0.818156 -16.7285 -2.6527 0.00829448 4
1.08621 -22.2092 -2.7302 0.0462752 1
1.41897 -29.013 -2.54134 0.0281155 4
2.8613 -58.5038 7.19195 0.25801 10
2.11806 -43.307 6.86735 0.107424 10
1.81493 -37.109 7.22189 0.193772 10
2.12706 -43.4911 11.6673 0.177689 10
0.51799 -9.88385 -2.652 0.0232757 4
0.601218 -11.4719 -2.65214 0.0446073 4
0.714126 -13.6264 -2.65233 0.0193571 4
0.876514 -16.7249 -2.6526 0.020196 4
1.16367 -22.2043 -2.73008 0.0462772 1
1.52014 -29.006 -2.54118 0.0283181 4
3.06121 -58.4114 7.18186 0.255779 10
2.26929 -43.3008 6.86758 0.10742 10
1.9465 -37.1416 7.2295 0.196023 10
2.27891 -43.4843 11.6676 0.177685 10
0.552476 -9.88178 -2.65195 0.0208889 4
0.641244 -11.4695 -2.65208 0.0248977 4
0.761666 -13.6234 -2.65226 0.0514737 4
0.934858 -16.7212 -2.65251 0.0183934 4
1.24112 -22.1991 -2.72996 0.0462793 1
1.62128 -28.9988 -2.54102 0.029525 4
3.5634 -63.7361 -1.11426 0.327754 10
3.26055 -58.3193 7.17189 0.253545 10
2.42051 -43.2941 6.86782 0.107417 10
2.07836 -37.1742 7.23722 0.198272 10
2.43074 -43.477 11.6678 0.177682 10
0.586955 -9.87959 -2.6519 0.0238735 4
0.681261 -11.4669 -2.65202 0.0223047 4
0.809193 -13.6203 -2.65218 0.0224379 4
0.993187 -16.7173 -2.65242 0.0274107 4
1.31854 -22.1936 -2.72984 0.0462814 1
1.72239 -28.9911 -2.54087 0.0289242 4
3.78065 -63.6357 -1.11272 0.324864 10
3.45934 -58.2274 7.16203 0.251307 10
2.57171 -43.2869 6.86806 0.107413 10
2.21186 -37.2299 7.24953 0.311908 10
2.58254 -43.4691 11.668 0.177678 10
0.621424 -9.87728 -2.65184 0.0143244 4
0.721265 -11.4642 -2.65195 0.0103745 4
0.856707 -13.617 -2.65211 0.0224385 4
1.0515 -16.7131 -2.65233 0.0162306 4
1.38044 -21.9414 -2.6994 0.0151837 4
1.82346 -28.9831 -2.54071 0.0285243 4
4.73683 -75.2899 -1.31679 0.212669 10
3.65759 -58.1358 7.15229 0.249067 10
2.72288 -43.2791 6.86829 0.107409 10
2.34609 -37.2902 7.26281 0.313991 10
2.73431 -43.4607 11.6683 0.177675 10
0.655886 -9.87485 -2.65179 0.0179059 4
0.761261 -11.4614 -2.65189 0.0259369 4
0.904209 -13.6135 -2.65203 0.0184793 4
1.10979 -16.7088 -2.65224 0.0465292 4
1.44084 -21.6929 -2.66942 0.0168522 4
1.9245 -28.9748 -2.54055 0.0277225 4
3.88115 -58.4335 -1.02221 0.210755 10
3.88107 -58.4324 1.02219 0.210724 10
3.8553 -58.0444 7.14266 0.246824 10
2.87404 -43.2708 6.86853 0.107405 10
2.48082 -37.3506 7.27622 0.31607 10
2.88606 -43.4518 11.6685 0.177671 10
0.690338 -9.8723 -2.65173 0.0978873 4
0.801245 -11.4584 -2.65183 0.0461688 4
0.951697 -13.6099 -2.65196 0.0202398 4
1.16807 -16.7042 -2.65215 0.041481 4
1.5069 -21.5498 -2.65244 0.0334358 4
2.0255 -28.9661 -2.54039 0.0271215 4
5.24824 -75.0535 -1.31326 0.208837 10
4.05248 -57.9533 7.13314 0.244577 10
3.02517 -43.262 6.86877 0.107402 10
2.61605 -37.4113 7.28978 0.318145 10
3.03778 -43.4423 11.6688 0.177667 10
0.72478 -9.86963 -2.65168 0.10923 4
0.841218 -11.4552 -2.65177 0.0249006 4
0.999171 -13.6061 -2.65189 0.0796414 4
1.22633 -16.6995 -2.65206 0.0238073 4
1.58205 -21.5434 -2.65232 0.0542303 4
2.12647 -28.957 -2.54023 0.0269223 4
5.50446 -74.9566 -1.3119 0.550295 10
4.24915 -57.8624 7.12374 0.242327 10
3.17628 -43.2527 6.869 0.107398 10
2.75227 -37.4788 7.30475 0.416792 10
3.18947 -43.4323 11.669 0.177664 10
0.75921 -9.86684 -2.65163 0.110426 4
0.881177 -11.4519 -2.6517 0.02542 4
1.04663 -13.6022 -2.65181 0.0123206 4
1.28457 -16.6945 -2.65196 0.038598 4
1.65716 -21.5368 -2.6522 0.0477697 4
2.22739 -28.9476 -2.54007 0.0253166 4
4.48678 -58.311 -1.02083 0.551014 10
4.48744 -58.3197 1.02098 0.551024 10
4.44528 -57.7717 7.11445 0.240075 10
3.32735 -43.2428 6.86924 0.107394 10
2.89103 -37.5724 7.32492 0.418637 10
3.34112 -43.4218 11.6692 0.17766 10
0.793631 -9.86392 -2.65157 0.112816 4
0.921125 -11.4485 -2.65164 0.0632921 4
1.09407 -13.5981 -2.65174 0.0171613 4
1.34279 -16.6893 -2.65187 0.0147904 4
1.73226 -21.5299 -2.65209 0.05283 4
4.67206 -58.0683 -1.01686 0.551726 10
4.67276 -58.077 1.01701 0.551736 10
4.64092 -57.6813 7.10526 0.23782 10
3.47839 -43.2324 6.86947 0.107391 10
3.03057 -37.6666 7.3453 0.420478 10
3.49274 -43.4108 11.6695 0.177656 10
0.828041 -9.86089 -2.65152 0.128338 4
0.96106 -11.445 -2.65158 0.0212708 4
1.1415 -13.5938 -2.65166 0.0158416 4
1.40099 -16.684 -2.65178 0.0119049 4
2.42913 -28.9277 -2.53976 0.0301426 4
4.86848 -57.9772 -1.01556 0.201144 10
4.86839 -57.9761 1.01554 0.201113 10
4.87303 -58.0315 7.15045 0.413287 10
3.62941 -43.2215 6.86971 0.107387 10
3.64433 -43.3992 11.6697 0.177653 10
0.86244 -9.85774 -2.65146 0.110433 4
1.00098 -11.4413 -2.65152 0.0129703 4
1.45917 -16.6784 -2.65169 0.0133484 4
5.97814 -68.3305 -1.19727 0.837409 10
3.78039 -43.2101 6.86995 0.107383 10
3.79588 -43.3871 11.6699 0.177649 10
0.896826 -9.85447 -2.65141 0.102675 4
1.04089 -11.4374 -2.65145 0.0498071 4
1.2363 -13.5847 -2.65151 0.025084 4
1.51733 -16.6726 -2.6516 0.0187605 4
2.63069 -28.9065 -2.53944 0.0285385 4
6.77986 -74.4983 -1.30575 0.553822 10
3.93133 -43.1981 6.87019 0.10738 10
3.94738 -43.3745 11.6702 0.177646 10
0.9312 -9.85108 -2.65136 0.0931256 4
1.08078 -11.4335 -2.65139 0.0306114 4
1.28368 -13.5799 -2.65144 0.021564 4
1.57546 -16.6667 -2.65151 0.00938057 4
7.03311 -74.4027 -1.30449 0.554507 10
5.41851 -57.322 7.06963 0.22877 10
4.08224 -43.1856 6.87042 0.107376 10
5.41821 -57.3187 13.2921 0.224472 10
4.09885 -43.3613 11.6704 0.177642 10
0.965562 -9.84757 -2.6513 0.0220879 4
1.12066 -11.4294 -2.65133 0.0145278 4
1.33104 -13.575 -2.65136 0.0343274 4
1.63357 -16.6605 -2.65142 0.0169578 4
4.18274 -42.6589 -2.24638 0.673241 10
4.18154 -42.6467 -0.747971 0.674055 10
4.18035 -42.6345 0.747757 0.674047 10
4.17675 -42.5978 5.25544 0.669103 10
4.17553 -42.5854 6.77721 0.665821 10
4.17306 -42.5602 9.87292 0.656827 10
4.17244 -42.5539 11.457 0.569312 10
0.99991 -9.84394 -2.65125 0.0489526 4
1.16052 -11.4251 -2.65127 0.0228299 4
1.37838 -13.5699 -2.65129 0.0343283 4
1.69166 -16.6541 -2.65132 0.0342775 4
2.9327 -28.8719 -2.53896 0.0253277 4
4.30505 -42.3824 -2.2326 0.431389 10
4.30486 -42.3806 -0.743563 0.431886 10
4.30467 -42.3787 0.743529 0.431857 10
4.3041 -42.3731 5.22954 0.428635 10
4.30391 -42.3712 6.74548 0.426488 10
4.30352 -42.3674 9.83161 0.420697 10
4.30332 -42.3654 11.4102 0.417002 10
1.03424 -9.84019 -2.65119 0.0388047 4
1.20036 -11.4207 -2.6512 0.0352834 4
1.4257 -13.5646 -2.65121 0.0198054 4
1.74972 -16.6475 -2.65123 0.0119073 4
2.25706 -21.4745 -2.65126 0.0210824 4
3.0536 -29.0531 -2.55582 0.10266 4
4.4461 -42.3018 -2.22916 0.220981 10
1.06856 -9.83632 -2.65114 0.0185072 4
1.24019 -11.4162 -2.65114 0.0342465 4
1.47299 -13.5592 -2.65114 0.0110033 4
1.80776 -16.6407 -2.65114 0.0151553 4
3.1826 -29.2964 -2.57818 0.065681 4
4.5949 -42.2968 -2.22972 0.249971 10
4.595 -42.2977 -0.742653 0.250311 10
4.5951 -42.2986 0.742669 0.250346 10
4.59539 -42.3014 5.22451 0.248622 10
4.59549 -42.3023 6.73944 0.24744 10
4.5957 -42.3042 9.82415 0.244174 10
4.5958 -42.3051 11.4023 0.242094 10
1.10287 -9.83233 -2.65109 0.0244778 4
1.28001 -11.4115 -2.65108 0.0446252 4
1.52027 -13.5536 -2.65107 0.0268488 4
1.86577 -16.6338 -2.65105 0.0187644 4
3.31387 -29.5438 -2.60096 0.0808456 4
4.75201 -42.3651 -2.23419 0.454943 10
4.75224 -42.3672 -0.74416 0.455526 10
4.75247 -42.3692 0.744195 0.455554 10
4.75316 -42.3754 5.23568 0.452311 10
4.75339 -42.3775 6.75403 0.450126 10
4.75387 -42.3818 9.84596 0.444113 10
4.75411 -42.3839 11.428 0.440293 10
1.13716 -9.82822 -2.65103 0.0608973 4
1.3198 -11.4067 -2.65101 0.00726474 4
1.56753 -13.5478 -2.65099 0.0132047 4
1.92376 -16.6266 -2.65096 0.0104651 4
3.44748 -29.7957 -2.62418 0.0943128 4
6.61432 -57.1659 7.06592 0.215111 10
4.98679 -43.0996 6.87184 0.107354 10
6.61394 -57.1627 13.2851 0.211064 10
5.00665 -43.2713 11.6718 0.17762 10
1.17144 -9.82399 -2.65098 0.108662 4
1.61477 -13.5419 -2.65092 0.044457 4
1.98172 -16.6192 -2.65087 0.0108263 4
3.58348 -30.052 -2.64784 0.101201 4
4.70072 -39.4215 2.08063 0.610517 10
6.80605 -57.0773 7.05786 0.212825 10
5.13738 -43.0834 6.87208 0.10735 10
6.80567 -57.0741 13.2699 0.20882 10
5.15777 -43.2544 11.6721 0.177617 10
1.2057 -9.81964 -2.65092 0.108664 4
1.39933 -11.3967 -2.65089 0.10223 4
1.66198 -13.5358 -2.65084 0.0422574 4
2.03964 -16.6116 -2.65078 0.0212926 4
7.59691 -61.8719 -1.08809 0.27219 10
4.87166 -39.6766 2.09498 0.6116 10
6.99735 -56.9889 7.0499 0.210537 10
5.28792 -43.0667 6.87232 0.107346 10
6.99695 -56.9857 13.255 0.206573 10
5.30883 -43.237 11.6723 0.177613 10
1.23994 -9.81517 -2.65087 0.0979192 4
1.43907 -11.3915 -2.65083 0.100157 4
1.70917 -13.5295 -2.65077 0.0369762 4
2.09755 -16.6038 -2.65068 0.0230978 4
7.81551 -61.8662 -1.08846 0.848368 10
5.0559 -40.0216 2.11411 0.647285 10
7.18822 -56.9007 7.04205 0.208246 10
5.4384 -43.0494 6.87255 0.107343 10
7.18781 -56.8974 13.2402 0.204324 10
5.45984 -43.2191 11.6726 0.177609 10
1.27417 -9.81058 -2.65082 0.120013 4
1.47879 -11.3861 -2.65076 0.0954885 4
1.75634 -13.5231 -2.65069 0.012766 4
3.73584 -28.7644 -2.5377 0.0321782 4
5.24825 -40.4093 2.13555 0.648068 10
7.37867 -56.8126 7.0343 0.205953 10
5.58884 -43.0317 6.87279 0.107339 10
7.37825 -56.8094 13.2256 0.202073 10
7.37811 -56.8083 15.3496 0.200285 10
1.30838 -9.80587 -2.65076 0.128375 4
1.51849 -11.3806 -2.6507 0.11106 4
1.80348 -13.5165 -2.65062 0.0184892 4
2.21326 -16.5876 -2.6505 0.0292352 4
2.85477 -21.3955 -2.65032 0.0570833 4
3.83599 -28.7494 -2.53754 0.0261464 4
5.47058 -41.0001 2.16777 0.675519 10
7.55303 -56.6074 7.01211 0.65814 10
7.56856 -56.7238 9.06378 0.202624 10
7.55713 -56.6381 13.1918 0.646124 10
7.56813 -56.7205 15.3329 0.19805 10
1.34257 -9.80105 -2.65071 0.127183 4
1.55817 -11.375 -2.65064 0.114695 4
1.8506 -13.5097 -2.65055 0.011446 4
3.9556 -28.8766 -2.54997 0.112932 4
7.75846 -56.6382 5.00148 0.202135 10
7.75818 -56.6362 9.05405 0.200337 10
7.70695 -56.2621 11.0384 0.199071 10
7.75773 -56.6329 15.3165 0.195814 10
1.37675 -9.7961 -2.65065 0.123006 4
1.59783 -11.3692 -2.65058 0.00570896 4
1.89769 -13.5028 -2.65047 0.0396218 4
2.32885 -16.5706 -2.65032 0.015521 4
4.09889 -29.1652 -2.5767 0.104819 4
7.94769 -56.5508 4.99617 0.199826 10
7.9474 -56.5487 9.04446 0.198047 10
7.89491 -56.1753 11.0267 0.196795 10
7.94694 -56.5455 15.3002 0.193575 10
1.41091 -9.79104 -2.6506 0.114052 4
1.63747 -11.3633 -2.65051 0.0233554 4
1.94476 -13.4957 -2.6504 0.0145284 4
2.38659 -16.5618 -2.65023 0.0202141 4
3.07825 -21.3616 -2.64997 0.0188428 4
4.24522 -29.4598 -2.60402 0.0947898 4
9.53007 -66.1342 -1.1663 0.254383 10
8.1467 -56.5342 2.99344 0.12642 10
8.13651 -56.4635 4.99094 0.197514 10
8.14797 -56.543 7.01432 0.421483 10
8.13621 -56.4614 9.03498 0.195755 10
8.08249 -56.0886 11.0151 0.194517 10
8.13575 -56.4582 15.2842 0.191333 10
1.44505 -9.78585 -2.65055 0.127191 4
1.9918 -13.4885 -2.65032 0.0202523 4
2.4443 -16.5528 -2.65014 0.0256294 4
3.15266 -21.3498 -2.64985 0.0149062 4
4.39469 -29.7608 -2.63197 0.086308 4
9.75078 -66.0322 -1.16509 0.251405 10
8.32494 -56.3764 4.98578 0.1952 10
8.32464 -56.3743 9.02564 0.193461 10
8.26967 -56.0021 11.0037 0.192237 10
8.32416 -56.3711 15.2684 0.189089 10
1.47917 -9.78055 -2.65049 0.108682 4
1.71668 -11.351 -2.65039 0.0560556 4
2.03881 -13.481 -2.65025 0.018932 4
2.50198 -16.5436 -2.65005 0.0191325 4
4.54738 -30.0682 -2.66054 0.090087 4
8.51451 -56.2997 -0.993889 0.564546 10
8.51609 -56.3101 0.994073 0.564557 10
8.45708 -55.9199 2.96396 0.193391 10
8.51298 -56.2895 4.9807 0.192883 10
8.45677 -55.9178 6.94392 0.192141 10
8.51267 -56.2875 9.01644 0.191164 10
8.45646 -55.9158 10.9925 0.189954 10
8.4563 -55.9147 13.0557 0.188514 10
8.51219 -56.2843 15.2528 0.186843 10
1.51327 -9.77513 -2.65044 0.11167 4
1.75625 -11.3447 -2.65033 0.034257 4
2.0858 -13.4735 -2.65017 0.0726482 4
2.55963 -16.5342 -2.64995 0.0158841 4
3.30133 -21.3253 -2.64961 0.0151888 4
4.70344 -30.3824 -2.68978 0.081793 4
8.70112 -56.2059 -0.992764 0.162118 10
8.70096 -56.2048 0.992745 0.162088 10
8.7008 -56.2038 2.9806 0.191066 10
8.70065 -56.2028 4.97568 0.190564 10
8.70049 -56.2018 6.98291 0.18983 10
8.70033 -56.2007 9.00735 0.188865 10
8.70016 -56.1997 11.0542 0.187669 10
8.7 -56.1986 13.129 0.186245 10
8.69983 -56.1975 15.2375 0.184595 10
1.54735 -9.76959 -2.65038 0.130782 4
1.7958 -11.3382 -2.65026 0.00778586 4
2.13276 -13.4657 -2.6501 0.0162913 4
2.61724 -16.5246 -2.64986 0.0386286 4
3.3756 -21.3127 -2.64949 0.0165959 4
4.86295 -30.7035 -2.71969 0.101281 4
8.8881 -56.1173 2.97764 0.188739 10
8.88793 -56.1162 4.97073 0.188243 10
8.88777 -56.1152 6.97597 0.187517 10
8.88761 -56.1142 8.9984 0.186563 10
8.88744 -56.1131 11.0432 0.185382 10
8.88727 -56.1121 13.116 0.183975 10
8.8871 -56.111 15.2223 0.182344 10
1.58141 -9.76393 -2.65033 0.112272 4
1.83532 -11.3316 -2.6502 0.0285488 4
2.17969 -13.4578 -2.65002 0.0435914 4
2.67481 -16.5148 -2.64977 0.0194955 4
4.98088 -30.7529 -2.72559 0.03315 1
9.07502 -56.0309 2.97472 0.18641 10
9.07485 -56.0299 4.96586 0.185919 10
9.07469 -56.0288 6.96912 0.185202 10
9.07452 -56.0278 8.98957 0.18426 10
9.07435 -56.0268 11.0324 0.183093 10
9.07418 -56.0257 13.1031 0.181702 10
9.07401 -56.0246 15.2074 0.180091 10
1.61545 -9.75815 -2.65028 0.112274 4
1.87482 -11.3249 -2.65014 0.0576181 4
2.22659 -13.4498 -2.64995 0.0180535 4
2.73235 -16.5048 -2.64968 0.0238286 4
3.524 -21.2868 -2.64926 0.0202544 4
5.08789 -30.7334 -2.72542 0.0331521 1
9.27208 -56.0081 -0.990931 0.566782 10
9.27388 -56.019 0.991123 0.566792 10
9.26157 -55.9447 2.97184 0.184078 10
9.26141 -55.9436 4.96105 0.183593 10
9.26124 -55.9426 6.96238 0.182885 10
9.26107 -55.9416 8.98087 0.181954 10
9.2609 -55.9406 11.0217 0.180801 10
9.26072 -55.9395 13.0904 0.179428 10
9.26054 -55.9384 15.1927 0.177836 10
1.64947 -9.75225 -2.65022 0.112276 4
2.27346 -13.4415 -2.64988 0.0158523 4
2.78985 -16.4946 -2.64959 0.0256347 4
3.59812 -21.2734 -2.64914 0.0165981 4
5.19481 -30.7136 -2.72525 0.0331541 1
9.44811 -55.8606 -0.988899 0.154212 10
9.44794 -55.8596 0.988881 0.154181 10
9.44777 -55.8586 2.969 0.181745 10
9.4476 -55.8576 4.95631 0.181265 10
9.44742 -55.8566 6.95573 0.180566 10
9.44725 -55.8555 8.9723 0.179646 10
9.44708 -55.8545 11.0112 0.178507 10
9.4469 -55.8535 13.0779 0.177151 10
9.44672 -55.8524 15.1782 0.175578 10
1.68347 -9.74624 -2.65017 0.108695 4
1.95374 -11.311 -2.65001 0.048796 4
2.3203 -13.4331 -2.6498 0.0215773 4
9.63361 -55.7727 2.96621 0.179409 10
9.63344 -55.7717 4.95165 0.178935 10
9.63326 -55.7707 6.94918 0.178244 10
9.63309 -55.7697 8.96385 0.177335 10
9.63291 -55.7686 11.0008 0.176211 10
9.63273 -55.7676 13.0656 0.174871 10
9.63254 -55.7665 15.1639 0.173319 10
1.71744 -9.7401 -2.65011 0.113475 4
1.99317 -11.3038 -2.64995 0.0207647 4
2.36711 -13.4246 -2.64973 0.0286238 4
2.90473 -16.4736 -2.64941 0.0278029 4
3.74622 -21.2459 -2.64891 0.0154741 4
9.81911 -55.687 2.96345 0.17707 10
9.81894 -55.686 4.94705 0.176603 10
9.81876 -55.685 6.94273 0.17592 10
9.81858 -55.6839 8.95552 0.175023 10
9.81839 -55.6829 10.9906 0.173912 10
9.81821 -55.6819 13.0535 0.17259 10
9.81802 -55.6808 15.1498 0.171057 10
1.7514 -9.73385 -2.65006 0.0394186 4
2.03256 -11.2965 -2.64989 0.019727 4
2.41389 -13.4158 -2.64965 0.0202574 4
2.96212 -16.4628 -2.64932 0.0306926 4
5.35947 -29.7867 -2.64784 0.0328101 4
10.0046 -55.6034 -0.986147 0.224461 10
10.0045 -55.6024 0.986128 0.224415 10
9.93839 -55.2353 2.94124 0.17473 10
9.93821 -55.2343 4.90997 0.174268 10
9.93803 -55.2333 6.8907 0.173594 10
9.93785 -55.2323 8.88841 0.172708 10
9.93766 -55.2312 10.9083 0.171612 10
9.93748 -55.2302 12.9557 0.170307 10
9.93729 -55.2291 15.0362 0.168794 10
1.78533 -9.72748 -2.65001 0.0179179 4
2.07193 -11.2891 -2.64983 0.0269954 4
2.46064 -13.407 -2.64958 0.020258 4
3.01946 -16.4518 -2.64923 0.0220272 4
5.46307 -29.7659 -2.64768 0.0477084 4
10.1895 -55.518 -0.985257 0.221453 10
10.1893 -55.517 0.985238 0.221407 10
10.1635 -55.3764 2.95063 0.671374 10
10.1656 -55.388 4.92676 0.66975 10
10.1677 -55.3996 6.91584 0.667309 10
10.1699 -55.4114 8.92289 0.664055 10
10.1721 -55.4233 10.9531 0.659992 10
10.1743 -55.4354 13.012 0.655125 10
10.1765 -55.4476 15.1053 0.64946 10
1.81923 -9.72099 -2.64995 0.0501711 4
2.11128 -11.2815 -2.64976 0.0508772 4
2.50735 -13.3979 -2.64951 0.0224606 4
3.07676 -16.4406 -2.64913 0.0245558 4
3.96797 -21.2027 -2.64855 0.0225108 4
10.5106 -56.1628 -0.997344 0.144287 10
10.5104 -56.1618 0.997325 0.144257 10
10.4995 -56.1036 2.99131 0.671972 10
10.5017 -56.1155 4.9947 0.670346 10
10.504 -56.1275 7.01123 0.667903 10
10.5062 -56.1396 9.046 0.664646 10
10.5085 -56.1518 11.1043 0.66058 10
10.5108 -56.1642 13.1916 0.655708 10
10.5132 -56.1768 15.3139 0.650038 10
1.85312 -9.71439 -2.6499 0.0149322 4
2.1506 -11.2738 -2.6497 0.0809902 4
2.55403 -13.3887 -2.64943 0.0176166 4
3.13403 -16.4292 -2.64904 0.0155285 4
4.04177 -21.1877 -2.64844 0.0160397 4
10.8536 -56.8966 -1.01104 0.142297 10
10.8534 -56.8955 1.01102 0.142266 10
10.8126 -56.6819 3.02414 0.167697 10
10.8125 -56.6809 5.04836 0.167252 10
10.8123 -56.6799 7.08491 0.166603 10
10.8121 -56.6788 9.13892 0.165752 10
10.8544 -56.9007 11.2598 0.661159 10
10.8117 -56.6767 13.3208 0.163444 10
10.8524 -56.8905 15.5186 0.179562 10
1.88698 -9.70766 -2.64985 0.0131406 4
2.18988 -11.266 -2.64964 0.025959 4
2.60068 -13.3793 -2.64936 0.0242235 4
3.19125 -16.4175 -2.64895 0.0382808 4
4.11553 -21.1726 -2.64832 0.0405231 4
11.2017 -57.628 -1.02473 0.140305 10
11.2015 -57.627 1.02471 0.140274 10
11.0009 -56.5949 3.02153 0.165348 10
11.0007 -56.5939 5.04399 0.164909 10
11.0005 -56.5929 7.07879 0.164269 10
11.0003 -56.5918 9.13103 0.163429 10
11.2101 -57.6709 11.4199 0.661731 10
10.9999 -56.5897 13.3093 0.161152 10
11.0512 -56.8534 15.5189 0.179559 10
1.92081 -9.70082 -2.64979 0.0197113 4
2.22914 -11.258 -2.64958 0.0446505 4
2.64729 -13.3698 -2.64928 0.00836836 4
3.24842 -16.4057 -2.64886 0.0169741 4
12.8095 -64.6928 -1.15114 0.209395 10
11.5666 -58.4155 3.12086 0.104054 10
11.5682 -58.4238 5.21066 0.429047 10
11.5708 -58.4368 7.31444 0.427483 10
11.5719 -58.4426 9.43611 0.161104 10
11.576 -58.4633 11.5847 0.662294 10
11.5715 -58.4404 13.754 0.158859 10
11.2836 -56.9866 15.566 0.651725 10
1.95462 -9.69386 -2.64974 0.0615243 4
2.26837 -11.2499 -2.64951 0.0223258 4
2.69387 -13.3601 -2.64921 0.0251058 4
3.30556 -16.3937 -2.64877 0.0205863 4
4.26286 -21.1414 -2.64809 0.0191376 4
12.0597 -59.8093 -1.06499 0.206374 10
11.7666 -58.3561 3.11987 0.160645 10
11.7664 -58.355 5.20815 0.160217 10
11.7662 -58.354 7.30917 0.159594 10
11.766 -58.3529 9.4282 0.158777 10
11.9527 -59.2789 11.7546 0.66285 10
11.7656 -58.3508 13.7425 0.156563 10
11.7653 -58.3497 15.9494 0.15517 10
1.98841 -9.68678 -2.64968 0.0209068 4
2.30758 -11.2416 -2.64945 0.0228455 4
2.74041 -13.3503 -2.64913 0.0524153 4
3.36265 -16.3815 -2.64868 0.0180588 4
12.3237 -60.0362 -1.06979 0.866521 10
12.3264 -60.0498 1.07003 0.67565 10
12.3292 -60.0634 3.21342 0.674839 10
12.332 -60.0771 5.36565 0.673205 10
12.1087 -58.9889 7.39394 0.157254 10
12.3377 -60.1047 9.71815 0.667481 10
12.3406 -60.1188 11.9296 0.663397 10
12.3435 -60.133 14.1723 0.658505 10
12.3465 -60.1475 16.4525 0.652811 10
2.02217 -9.67958 -2.64963 0.0101549 4
2.34675 -11.2332 -2.64939 0.047769 4
2.78692 -13.3402 -2.64906 0.0215834 4
3.41969 -16.3691 -2.64859 0.0173371 4
4.40996 -21.1093 -2.64785 0.0137916 4
12.8154 -61.3439 -1.09388 0.13232 10
12.7254 -60.913 1.08619 0.676199 10
12.582 -60.2266 3.22448 0.155934 10
12.7313 -60.9411 5.44676 0.673753 10
12.4068 -59.3881 7.44937 0.671297 10
12.5813 -60.2233 9.74436 0.154117 10
12.7402 -60.9841 12.11 0.663936 10
12.5808 -60.2211 14.2033 0.151966 10
12.5806 -60.2199 16.4842 0.150612 10
2.0559 -9.67227 -2.64958 0.0316601 4
2.38589 -11.2247 -2.64933 0.0228466 4
2.83339 -13.3301 -2.64899 0.0409655 4
3.47669 -16.3566 -2.6485 0.0242005 4
13.1342 -61.7914 -1.10267 0.130319 10
13.1366 -61.8027 1.10287 0.67674 10
12.8018 -60.2278 3.22692 0.675927 10
13.1427 -61.8317 5.53043 0.674292 10
13.1458 -61.8463 7.76342 0.671834 10
13.037 -61.3345 9.93146 0.151785 10
13.1521 -61.876 12.2962 0.664468 10
13.0366 -61.3322 14.476 0.149665 10
12.8203 -60.3148 16.5224 0.653864 10
2.08961 -9.66484 -2.64952 0.0430108 4
2.425 -11.2161 -2.64926 0.0285589 4
2.87982 -13.3197 -2.64891 0.0229061 4
13.5731 -62.7783 -1.12112 0.128317 10
13.5606 -62.7203 1.12008 0.677273 10
13.2414 -61.2437 3.28381 0.151215 10
13.567 -62.7501 5.61677 0.674822 10
13.5703 -62.7652 7.88466 0.672363 10
13.2406 -61.2404 9.92365 0.14945 10
13.5769 -62.7957 12.4883 0.664991 10
13.2402 -61.2382 14.4646 0.147362 10
13.2399 -61.237 16.7875 0.146048 10
2.12329 -9.65729 -2.64947 0.00716861 4
2.46408 -11.2073 -2.6492 0.0197321 4
2.92622 -13.3092 -2.64884 0.0193826 4
3.59055 -16.3308 -2.64832 0.0133654 4
4.63016 -21.0592 -2.6475 0.0188603 4
14.0784 -64.0321 -1.14438 0.191232 10
13.9981 -63.6669 1.13785 0.677797 10
13.8404 -62.9498 3.37786 0.148853 10
14.0082 -63.7132 8.00985 0.672884 10
13.8397 -62.9464 10.2079 0.147114 10
14.0152 -63.7447 12.6867 0.665506 10
14.0187 -63.7608 15.0719 0.660598 10
13.8389 -62.9429 17.2683 0.143764 10
2.15695 -9.64962 -2.64942 0.0436099 4
2.50312 -11.1983 -2.64914 0.0223289 4
2.97257 -13.2985 -2.64876 0.0440526 4
3.64741 -16.3176 -2.64823 0.0162557 4
14.4461 -64.6282 -1.15593 0.869938 10
14.3442 -64.1723 1.14777 0.146703 10
14.3439 -64.1712 3.44606 0.146489 10
14.3437 -64.17 5.75269 0.146096 10
14.4603 -64.6918 8.13917 0.673396 10
14.3432 -64.1677 10.414 0.144776 10
14.3429 -64.1665 12.7805 0.143851 10
14.4713 -64.7409 15.3155 0.661101 10
14.3424 -64.1641 17.617 0.141477 10
2.19057 -9.64184 -2.64936 0.029273 4
2.54214 -11.1893 -2.64908 0.0264838 4
3.01889 -13.2877 -2.64869 0.0158594 4
14.9123 -65.6369 -1.17489 0.870589 10
14.5572 -64.0739 1.14691 0.144335 10
14.557 -64.0727 3.44348 0.144123 10
14.5567 -64.0716 5.74839 0.143736 10
14.9272 -65.7026 8.27284 0.673901 10
14.5562 -64.0693 10.4062 0.142436 10
14.5559 -64.0681 12.7709 0.141526 10
14.8968 -65.5685 15.5235 0.156017 10
14.5585 -64.0797 17.6077 0.655875 10
2.22417 -9.63394 -2.64931 0.0495859 4
2.58112 -11.1801 -2.64902 0.00519302 4
3.06517 -13.2767 -2.64862 0.0211464 4
3.76098 -16.2906 -2.64805 0.0227596 4
4.84979 -21.0067 -2.64715 0.0315319 4
15.3941 -66.6792 -1.19451 0.87123 10
15.0021 -64.9813 1.16409 0.679321 10
15.2109 -65.8856 3.54374 0.141756 10
15.2106 -65.8844 5.91576 0.141374 10
15.4098 -66.747 8.41108 0.674397 10
15.2101 -65.882 10.7092 0.140095 10
15.2098 -65.8808 13.1428 0.139199 10
15.1259 -65.5177 15.5238 0.156013 10
2.25774 -9.62593 -2.64926 0.0591458 4
2.62007 -11.1707 -2.64895 0.034794 4
3.11141 -13.2656 -2.64854 0.00881126 4
3.81769 -16.2768 -2.64795 0.0444369 4
4.92287 -20.9888 -2.64703 0.0174559 4
15.7379 -67.0988 -1.203 0.179077 10
15.8963 -67.7744 1.21511 0.679813 10
15.7373 -67.0964 3.6118 0.139386 10
15.737 -67.0952 6.02937 0.139011 10
15.9087 -67.8271 8.55413 0.674885 10
15.9214 -67.8812 16.0969 0.662562 10
15.9257 -67.8998 18.6874 0.656833 10
2.29128 -9.61779 -2.6492 0.0292748 4
2.65898 -11.1612 -2.64889 0.0436234 4
3.15761 -13.2543 -2.64847 0.0392112 4
3.87435 -16.2628 -2.64786 0.0158967 4
4.99588 -20.9705 -2.64692 0.0205539 4
15.9858 -67.1013 -1.20404 0.872481 10
16.4119 -68.8901 1.23613 0.680296 10
16.4249 -68.9445 8.70223 0.675364 10
16.4382 -69.0005 16.3758 0.663033 10
16.4428 -69.0197 19.0113 0.657299 10
2.32479 -9.60954 -2.64915 0.0238983 4
2.69786 -11.1516 -2.64883 0.0119448 4
3.20377 -13.2428 -2.6484 0.0070494 4
3.93096 -16.2486 -2.64777 0.0158972 4
16.9411 -70.0263 -1.25758 0.87309 10
16.9457 -70.045 1.25791 0.680771 10
16.9502 -70.0637 3.77781 0.679954 10
16.9547 -70.0824 6.30829 0.678308 10
16.9639 -70.1204 11.4264 0.67254 10
16.9781 -70.1791 19.3469 0.836199 10
2.35827 -9.60117 -2.64909 0.0472 4
2.73671 -11.1419 -2.64877 0.0737478 4
3.24988 -13.2312 -2.64832 0.0229112 4
3.98752 -16.2343 -2.64768 0.0213174 4
17.1926 -69.9958 -1.2581 0.169929 10
17.5177 -71.3194 11.6316 0.673001 10
17.5326 -71.3802 19.6948 0.836772 10
2.39172 -9.59269 -2.64904 0.0376413 4
2.77552 -11.132 -2.6487 0.0238907 4
3.29596 -13.2194 -2.64825 0.0207088 4
4.04402 -16.2197 -2.64759 0.0158983 4
17.898 -71.7849 -1.29137 0.166886 10
17.6119 -70.6374 3.81528 0.680877 10
18.0918 -72.5623 11.8446 0.673454 10
18.1075 -72.6253 20.0556 0.837335 10
2.42515 -9.58409 -2.64899 0.0597493 4
2.8143 -11.122 -2.64864 0.0212944 4
3.34199 -13.2074 -2.64818 0.0132187 4
4.10048 -16.2049 -2.6475 0.0195122 4
2.45854 -9.57537 -2.64893 0.0215102 4
2.85303 -11.1118 -2.64858 0.0270081 4
3.38798 -13.1953 -2.6481 0.0198286 4
2.49189 -9.56654 -2.64888 0.00956027 4
2.89174 -11.1016 -2.64852 0.0145432 4
3.43392 -13.183 -2.64803 0.0440649 4
4.21322 -16.1748 -2.64732 0.0296316 4
2.52522 -9.55759 -2.64883 0.0412295 4
2.9304 -11.0911 -2.64846 0.00986882 4
3.47982 -13.1706 -2.64795 0.0202704 4
4.26951 -16.1595 -2.64723 0.00903435 4
2.55852 -9.54852 -2.64877 0.0197189 4
2.96903 -11.0806 -2.6484 0.0493452 4
3.52568 -13.158 -2.64788 0.0251184 4
4.32574 -16.1439 -2.64714 0.0437277 4
5.5775 -20.8155 -2.64599 0.0171812 4
2.59178 -9.53934 -2.64872 0.0167315 4
3.00762 -11.0699 -2.64833 0.0244135 4
3.57148 -13.1453 -2.64781 0.022475 4
4.38192 -16.1282 -2.64705 0.0130103 4
2.62501 -9.53005 -2.64867 0.027488 4
3.04617 -11.0591 -2.64827 0.0389586 4
3.61725 -13.1323 -2.64773 0.0414256 4
4.43804 -16.1122 -2.64696 0.0220461 4
2.65821 -9.52063 -2.64861 0.0519892 4
3.08469 -11.0481 -2.64821 0.0129865 4
3.66296 -13.1193 -2.64766 0.0445117 4
4.4941 -16.0961 -2.64687 0.0390337 4
5.79441 -20.7533 -2.64564 0.029578 4
3.12316 -11.037 -2.64815 0.0368825 4
3.70863 -13.106 -2.64759 0.0105773 4
4.55011 -16.0797 -2.64678 0.0310834 4
2.7245 -9.50146 -2.64851 0.0549793 4
3.16159 -11.0258 -2.64809 0.0223378 4
3.75426 -13.0927 -2.64751 0.00749248 4
4.60605 -16.0632 -2.64669 0.0419279 4
5.93864 -20.7105 -2.64541 0.0160581 4
2.75759 -9.4917 -2.64845 0.0280878 4
3.19999 -11.0144 -2.64803 0.0166239 4
3.79983 -13.0791 -2.64744 0.0251225 4
4.66194 -16.0465 -2.6466 0.0144584 4
2.79065 -9.48183 -2.6484 0.0579696 4
3.23834 -11.0029 -2.64796 0.034807 4
3.84536 -13.0654 -2.64737 0.0149858 4
4.71776 -16.0296 -2.64651 0.0238572 4
2.82368 -9.47184 -2.64835 0.0633495 4
3.27665 -10.9913 -2.6479 0.0420811 4
3.89083 -13.0515 -2.6473 0.0264462 4
4.77353 -16.0125 -2.64642 0.0278343 4
2.85667 -9.46174 -2.6483 0.0418354 4
3.31492 -10.9796 -2.64784 0.0192227 4
3.93626 -13.0375 -2.64722 0.0317364 4
2.88962 -9.45152 -2.64824 0.0107579 4
3.35315 -10.9677 -2.64778 0.0342899 4
3.98164 -13.0233 -2.64715 0.0282109 4
4.88487 -15.9777 -2.64625 0.0260286 4
2.92253 -9.44119 -2.64819 0.0268953 4
3.39133 -10.9556 -2.64772 0.0415645 4
4.02696 -13.009 -2.64708 0.0335013 4
4.94044 -15.96 -2.64616 0.0184376 4
2.95541 -9.43074 -2.64814 0.022712 4
3.42948 -10.9435 -2.64766 0.0119501 4
4.07223 -12.9945 -2.647 0.0207185 4
4.99595 -15.9421 -2.64607 0.0144613 4
2.98826 -9.42018 -2.64808 0.0358618 4
3.46757 -10.9312 -2.64759 0.0119504 4
4.11745 -12.9799 -2.64693 0.0242457 4
5.0514 -15.924 -2.64598 0.0188004 4
3.02106 -9.4095 -2.64803 0.0388511 4
3.50563 -10.9188 -2.64753 0.0171466 4
4.16262 -12.9651 -2.64686 0.0171929 4
5.10678 -15.9058 -2.64589 0.0137392 4
3.05383 -9.39871 -2.64798 0.0310815 4
3.54364 -10.9062 -2.64747 0.0270194 4
4.20774 -12.9501 -2.64679 0.0242471 4
5.1621 -15.8873 -2.6458 0.0198863 4
3.08655 -9.38781 -2.64793 0.024507 4
3.5816 -10.8935 -2.64741 0.0233827 4
4.2528 -12.935 -2.64671 0.0784745 4
5.21735 -15.8687 -2.64571 0.0224181 4
9.42955 -28.6802 -2.64133 0.0349089 4
3.11924 -9.37679 -2.64787 0.0245075 4
3.61953 -10.8807 -2.64735 0.0124711 4
4.29781 -12.9197 -2.64664 0.029539 4
5.27253 -15.8498 -2.64562 0.0130174 4
6.79714 -20.433 -2.64403 0.0160665 4
9.52903 -28.6453 -2.64117 0.03592 4
3.15189 -9.36566 -2.64782 0.0406474 4
3.6574 -10.8677 -2.64729 0.0114321 4
6.86813 -20.4082 -2.64391 0.0200135 4
3.1845 -9.35441 -2.64777 0.0203241 4
3.69523 -10.8547 -2.64723 0.0509259 4
4.38766 -12.8887 -2.6465 0.0379177 4
5.38269 -15.8116 -2.64544 0.00867884 4
3.21707 -9.34306 -2.64772 0.0143467 4
3.73301 -10.8414 -2.64717 0.0296209 4
4.4325 -12.8729 -2.64642 0.0282186 4
5.43767 -15.7922 -2.64535 0.0296537 4
7.00983 -20.358 -2.64368 0.0143771 4
3.2496 -9.33158 -2.64766 0.0322808 4
3.77074 -10.8281 -2.64711 0.0254641 4
4.47729 -12.857 -2.64635 0.0176371 4
5.49258 -15.7725 -2.64527 0.0231451 4
3.28209 -9.32 -2.64761 0.0215209 4
3.80843 -10.8146 -2.64705 0.0348191 4
4.52201 -12.841 -2.64628 0.0189604 4
7.15116 -20.3068 -2.64345 0.0140964 4
3.31454 -9.3083 -2.64756 0.0215214 4
3.84607 -10.801 -2.64698 0.0296229 4
4.56669 -12.8247 -2.64621 0.0198429 4
5.60218 -15.7328 -2.64509 0.00904167 4
3.34694 -9.29649 -2.64751 0.0251087 4
3.88366 -10.7873 -2.64692 0.0301433 4
4.6113 -12.8084 -2.64613 0.0507109 4
5.65688 -15.7126 -2.645 0.00976533 4
7.29213 -20.2547 -2.64323 0.017763 4
3.37931 -9.28457 -2.64745 0.0173373 4
3.9212 -10.7734 -2.64686 0.0181903 4
4.65585 -12.7919 -2.64606 0.00793757 4
5.7115 -15.6922 -2.64491 0.0180845 4
7.36247 -20.2282 -2.64311 0.0135343 4
10.3201 -28.3543 -2.63989 0.0286692 4
3.41163 -9.27253 -2.6474 0.011957 4
3.95869 -10.7594 -2.6468 0.017671 4
4.70035 -12.7752 -2.64599 0.0127887 4
5.76605 -15.6717 -2.64482 0.0220639 4
3.44391 -9.26038 -2.64735 0.0340782 4
3.99613 -10.7453 -2.64674 0.0270269 4
4.74478 -12.7583 -2.64592 0.025578 4
5.82052 -15.6509 -2.64474 0.0387035 4
7.50286 -20.1746 -2.64288 0.0149454 4
3.47614 -9.24812 -2.6473 0.0490257 4
4.03352 -10.731 -2.64668 0.0275473 4
4.78916 -12.7414 -2.64585 0.0105843 4
5.87492 -15.63 -2.64465 0.0300234 4
3.50833 -9.23575 -2.64724 0.0113598 4
4.07086 -10.7166 -2.64662 0.0384631 4
4.83348 -12.7242 -2.64577 0.0220512 4
5.92925 -15.6089 -2.64456 0.0220661 4
3.54048 -9.22327 -2.64719 0.0137517 4
4.10815 -10.7021 -2.64656 0.0259892 4
4.87773 -12.7069 -2.6457 0.023816 4
5.9835 -15.5876 -2.64447 0.0217051 4
7.71272 -20.0923 -2.64254 0.0183317 4
3.57258 -9.21067 -2.64714 0.00657701 4
4.14539 -10.6875 -2.6465 0.0192324 4
4.92192 -12.6895 -2.64563 0.0326376 4
6.03767 -15.5661 -2.64438 0.0133852 4
7.78248 -20.0644 -2.64243 0.0177684 4
3.60464 -9.19796 -2.64709 0.0215252 4
4.18258 -10.6727 -2.64644 0.0249508 4
4.96605 -12.6719 -2.64556 0.0286689 4
6.09177 -15.5444 -2.6443 0.0151946 4
7.85213 -20.0363 -2.64232 0.0186153 4
3.63666 -9.18515 -2.64704 0.0137525 4
5.01012 -12.6541 -2.64549 0.0233768 4
6.14579 -15.5225 -2.64421 0.0115772 4
7.92168 -20.0079 -2.64221 0.0284882 4
3.66862 -9.17221 -2.64698 0.0119589 4
4.25679 -10.6427 -2.64632 0.0197536 4
5.05412 -12.6362 -2.64542 0.0176434 4
6.19973 -15.5004 -2.64412 0.0209844 4
7.99113 -19.9793 -2.64209 0.0157961 4
3.70055 -9.15917 -2.64693 0.0263101 4
4.29382 -10.6276 -2.64626 0.0488652 4
5.09806 -12.6182 -2.64534 0.0322 4
3.73242 -9.14602 -2.64688 0.0418578 4
4.33079 -10.6123 -2.6462 0.0259927 4
5.14194 -12.5999 -2.64527 0.024702 4
6.30738 -15.4558 -2.64395 0.034735 4
3.76425 -9.13276 -2.64683 0.0406626 4
4.36771 -10.5969 -2.64614 0.0046788 4
5.18575 -12.5816 -2.6452 0.0180859 4
6.36108 -15.4331 -2.64386 0.0130261 4
3.79603 -9.11939 -2.64678 0.00597992 4
4.40457 -10.5813 -2.64608 0.0447095 4
5.2295 -12.5631 -2.64513 0.0560237 4
6.4147 -15.4103 -2.64377 0.0173687 4
3.82777 -9.1059 -2.64673 0.0203321 4
4.44138 -10.5656 -2.64602 0.0369122 4
5.27318 -12.5444 -2.64506 0.0282332 4
6.46824 -15.3873 -2.64368 0.0285869 4
8.33683 -19.8325 -2.64153 0.0310347 4
3.85946 -9.09231 -2.64667 0.0257146 4
4.47813 -10.5498 -2.64596 0.0254752 4
5.31679 -12.5256 -2.64499 0.0154404 4
6.5217 -15.3642 -2.6436 0.0184554 4
3.89109 -9.0786 -2.64662 0.0209309 4
4.51483 -10.5339 -2.6459 0.030155 4
5.36034 -12.5066 -2.64492 0.0242642 4
6.57507 -15.3408 -2.64351 0.00940895 4
8.47436 -19.7722 -2.64131 0.0135436 4
3.92268 -9.06479 -2.64657 0.0293039 4
4.55147 -10.5178 -2.64584 0.034835 4
5.40381 -12.4875 -2.64485 0.0308825 4
3.95423 -9.05087 -2.64652 0.0167454 4
4.58805 -10.5016 -2.64578 0.0525136 4
5.44723 -12.4682 -2.64478 0.011471 4
6.68157 -15.2935 -2.64334 0.0170096 4
8.61146 -19.7109 -2.64108 0.0183418 4
3.98572 -9.03683 -2.64647 0.0400701 4
4.62458 -10.4853 -2.64572 0.0441956 4
5.49057 -12.4488 -2.64471 0.0352962 4
8.67985 -19.6798 -2.64097 0.016085 4
4.01716 -9.02269 -2.64642 0.0305017 4
4.66104 -10.4689 -2.64566 0.0192385 4
5.53384 -12.4292 -2.64464 0.0454451 4
6.78773 -15.2455 -2.64316 0.0278686 4
8.74812 -19.6486 -2.64086 0.0214476 4
4.04855 -9.00844 -2.64637 0.0131579 4
4.69745 -10.4523 -2.6456 0.019239 4
5.57704 -12.4095 -2.64456 0.041034 4
8.81628 -19.6171 -2.64075 0.0217307 4
4.07989 -8.99408 -2.64632 0.0382782 4
4.73381 -10.4356 -2.64554 0.0358789 4
5.62018 -12.3896 -2.64449 0.0313279 4
6.89355 -15.1967 -2.64299 0.0206314 4
4.11119 -8.97961 -2.64626 0.0143546 4
4.7701 -10.4188 -2.64548 0.0197598 4
5.66324 -12.3696 -2.64442 0.0150025 4
6.94632 -15.1721 -2.6429 0.020632 4
8.95227 -19.5534 -2.64053 0.0149588 4
4.14243 -8.96503 -2.64621 0.0131586 4
4.80633 -10.4018 -2.64542 0.0499207 4
5.70623 -12.3494 -2.64435 0.0264757 4
6.99901 -15.1473 -2.64282 0.0173749 4
9.02009 -19.5213 -2.64042 0.0254028 4
12.6385 -27.3522 -2.63611 0.036191 4
4.17361 -8.95034 -2.64616 0.0358878 4
4.8425 -10.3848 -2.64536 0.027041 4
5.74915 -12.3291 -2.64428 0.0172096 4
7.05162 -15.1222 -2.64273 0.0126696 4
9.08779 -19.4888 -2.6403 0.0256861 4
4.20475 -8.93555 -2.64611 0.0143554 4
4.87861 -10.3676 -2.64531 0.0561633 4
5.792 -12.3086 -2.64421 0.0251532 4
4.23583 -8.92065 -2.64606 0.0269169 4
4.91466 -10.3503 -2.64525 0.00936075 4
5.83478 -12.288 -2.64414 0.0300081 4
7.15655 -15.0717 -2.64256 0.0104984 4
4.26686 -8.90563 -2.64601 0.0556294 4
4.95065 -10.3328 -2.64519 0.0104011 4
5.87748 -12.2672 -2.64407 0.017211 4
7.20888 -15.0461 -2.64247 0.0177392 4
9.29021 -19.3902 -2.63997 0.0191964 4
4.29784 -8.89052 -2.64596 0.0215344 4
4.98658 -10.3152 -2.64513 0.0213227 4
5.92011 -12.2463 -2.644 0.0255965 4
7.26113 -15.0204 -2.64239 0.0246185 4
33.3348 -68.9563 1.3369 0.693896 10
33.3342 -68.9551 4.0139 0.693062 10
32.968 -68.1976 6.62711 0.691385 10
32.9674 -68.1964 9.30055 0.688865 10
33.3324 -68.9515 12.13 0.685506 10
33.3318 -68.9503 14.8865 0.681311 10
32.9656 -68.1927 17.4866 0.676286 10
4.32877 -8.87529 -2.64591 0.031704 4
5.02244 -10.2975 -2.64507 0.0436864 4
5.96266 -12.2253 -2.64393 0.0304518 4
7.31328 -14.9944 -2.6423 0.03005 4
13.2039 -27.072 -2.63519 0.0414624 4
30.9731 -63.5042 1.23328 0.69385 10
30.9725 -63.5031 3.7028 0.693016 10
30.972 -63.502 6.18128 0.691339 10
30.9714 -63.5009 8.67487 0.688819 10
30.9709 -63.4997 11.1898 0.68546 10
30.9703 -63.4986 13.7327 0.681265 10
30.9698 -63.4974 16.3102 0.676241 10
30.9692 -63.4963 18.9296 0.670393 10
4.35964 -8.85995 -2.64586 0.011964 4
5.05824 -10.2797 -2.64501 0.0187232 4
6.00514 -12.2041 -2.64386 0.0203018 4
7.36533 -14.9683 -2.64222 0.0141203 4
9.49156 -19.2894 -2.63964 0.0203282 4
13.2975 -27.0241 -2.63503 0.0418694 4
31.1975 -63.4018 -1.2334 0.889793 10
31.197 -63.4007 1.23338 0.693795 10
31.1965 -63.3996 3.70309 0.692962 10
31.1959 -63.3985 6.18177 0.691284 10
31.1954 -63.3974 8.67556 0.688764 10
31.1948 -63.3962 11.1907 0.685406 10
31.1943 -63.3951 13.7338 0.681212 10
31.1937 -63.394 16.3115 0.676188 10
31.1931 -63.3928 18.9311 0.67034 10
4.39045 -8.84451 -2.64581 0.0400801 4
5.09398 -10.2618 -2.64495 0.0161231 4
7.4173 -14.9421 -2.64213 0.0213622 4
9.55844 -19.2554 -2.63953 0.0638105 4
31.4215 -63.2983 -1.23352 0.889712 10
31.421 -63.2972 1.23349 0.693732 10
31.4204 -63.2961 3.70343 0.692899 10
31.4199 -63.295 6.18234 0.691221 10
31.4193 -63.2939 8.67635 0.688702 10
31.4188 -63.2927 11.1918 0.685343 10
31.4182 -63.2916 13.735 0.68115 10
31.4176 -63.2904 16.313 0.676126 10
31.4171 -63.2893 18.9328 0.670279 10
4.42122 -8.82897 -2.64576 0.0113662 4
5.12966 -10.2437 -2.64489 0.0223648 4
6.08988 -12.1612 -2.64373 0.0388402 4
7.46917 -14.9156 -2.64205 0.0282425 4
9.6252 -19.2211 -2.63942 0.0494128 4
31.645 -63.1936 1.23362 0.69366 10
31.6445 -63.1925 3.70381 0.692827 10
31.6439 -63.1914 6.18297 0.69115 10
31.6434 -63.1903 8.67724 0.688631 10
31.6428 -63.1892 11.1929 0.685272 10
31.6422 -63.1881 13.7365 0.681079 10
31.6416 -63.1869 16.3147 0.676056 10
31.6411 -63.1858 18.9347 0.67021 10
4.45192 -8.81331 -2.64571 0.0364923 4
5.16527 -10.2255 -2.64484 0.0410897 4
6.13213 -12.1396 -2.64366 0.0211861 4
7.52095 -14.8889 -2.64196 0.0238983 4
9.69183 -19.1866 -2.63931 0.0587331 4
31.8697 -63.0912 -1.23379 0.587549 10
31.8691 -63.0901 1.23376 0.69358 10
31.8685 -63.089 3.70424 0.692747 10
31.868 -63.0879 6.18369 0.69107 10
31.8674 -63.0868 8.67825 0.688551 10
31.8668 -63.0856 11.1942 0.685193 10
31.8663 -63.0845 13.738 0.681001 10
31.8657 -63.0834 16.3166 0.675978 10
31.8651 -63.0822 18.9369 0.670133 10
4.48257 -8.79755 -2.64566 0.0275193 4
5.20082 -10.2072 -2.64478 0.0374497 4
6.1743 -12.1178 -2.64359 0.00750361 4
7.57263 -14.8621 -2.64188 0.0659034 4
32.0938 -62.9876 -1.23394 0.587474 10
32.0932 -62.9865 1.23392 0.693491 10
32.0926 -62.9854 3.70471 0.692659 10
32.0921 -62.9843 6.18448 0.690982 10
32.0915 -62.9832 8.67935 0.688463 10
32.091 -62.9821 11.1956 0.685106 10
32.0904 -62.9809 13.7398 0.680914 10
32.0898 -62.9798 16.3187 0.675892 10
32.0892 -62.9786 18.9393 0.670047 10
4.51317 -8.78168 -2.64561 0.0329041 4
5.2363 -10.1887 -2.64472 0.0218461 4
6.2164 -12.0958 -2.64352 0.0256012 4
7.62422 -14.8351 -2.64179 0.0749584 4
9.86286 -19.1911 -2.64934 0.0345807 4
14.1629 -27.558 -2.71078 0.0333312 1
32.318 -62.884 -1.23412 0.587392 10
32.3174 -62.8829 1.23409 0.693394 10
32.3168 -62.8818 3.70523 0.692562 10
32.3163 -62.8807 6.18534 0.690885 10
32.3157 -62.8796 8.68057 0.688367 10
32.3151 -62.8785 11.1972 0.68501 10
32.3145 -62.8773 13.7417 0.680818 10
32.314 -62.8762 16.3209 0.675798 10
32.3134 -62.875 18.942 0.669953 10
4.54371 -8.76571 -2.64556 0.0143584 4
5.27172 -10.1702 -2.64466 0.0442133 4
6.25842 -12.0737 -2.64345 0.0860754 4
7.67571 -14.8079 -2.64171 0.0774957 4
9.98586 -19.2647 -2.6643 0.0351622 4
14.2581 -27.5068 -2.71062 0.0333331 1
32.5422 -62.7803 -1.23431 0.587303 10
32.3758 -62.4593 1.22799 0.693289 10
32.5722 -62.8381 3.70934 0.442051 10
32.5394 -62.7748 11.1989 0.684906 10
32.5376 -62.7714 18.9449 0.669851 10
4.57419 -8.74963 -2.6455 0.0215381 4
5.30707 -10.1515 -2.6446 0.049416 4
6.30037 -12.0515 -2.64338 0.0878433 4
7.72711 -14.7806 -2.64162 0.0242635 4
10.1101 -19.3389 -2.67943 0.0326499 4
14.3532 -27.4552 -2.71046 0.0333351 1
32.599 -62.3561 1.22819 0.693175 10
32.7967 -62.7343 3.70994 0.441978 10
32.7637 -62.6711 11.2007 0.684793 10
32.7619 -62.6677 18.948 0.669741 10
4.60462 -8.73344 -2.64545 0.0478632 4
5.34236 -10.1327 -2.64454 0.092592 4
6.34223 -12.0291 -2.64331 0.0843141 4
7.79285 -14.7805 -2.64645 0.0507853 4
10.2357 -19.4137 -2.69472 0.035532 4
32.8223 -62.253 1.22841 0.693053 10
33.0213 -62.6305 3.7106 0.4419 10
32.9881 -62.5674 11.2027 0.684673 10
32.9863 -62.564 18.9513 0.669623 10
4.63499 -8.71715 -2.64541 0.0113677 4
5.37758 -10.1137 -2.64449 0.103518 4
6.38401 -12.0066 -2.64324 0.102857 4
7.87864 -14.8176 -2.658 0.0439114 4
10.3625 -19.4891 -2.7102 0.0330417 4
