VERSION 0.7
FIELDS x y z intensity label
SIZE 4 4 4 4 4
TYPE F F F F F
COUNT 1 1 1 1 1
WIDTH 1268
HEIGHT 1
VIEWPOINT 5.05806 48.93 2.72916 0.727866 0.00036469 0.000352989 -0.685719
POINTS 1268
DATA ascii
53.4279 -11.5515 8.65768 0.677623 10
53.424 -11.5507 12.6189 0.668535 10
53.2771 -11.5189 14.6054 0.178975 10
9.64386 -2.04987 -2.64179 0.0287635 4
11.1861 -2.37768 -2.64021 0.0969317 4
16.7457 -3.55942 -2.71152 0.059821 1
20.9533 -4.45375 -2.63021 0.0354256 4
46.9072 -9.97043 -2.51322 0.20811 4
53.4433 -11.3597 4.78014 0.683773 10
53.4395 -11.3589 8.65307 0.677984 10
53.4355 -11.3581 12.6122 0.668892 10
53.3171 -11.3329 14.6054 0.178975 10
9.65093 -2.01619 -2.64179 0.0179773 4
11.1943 -2.33862 -2.64021 0.105791 4
16.758 -3.50093 -2.71151 0.0598212 1
20.9686 -4.38057 -2.6302 0.0473288 4
46.9181 -9.80172 -2.51196 0.20625 4
53.1006 -11.0933 2.84296 0.685777 10
53.4548 -11.1673 4.77766 0.68413 10
53.0967 -11.0925 6.66021 0.681649 10
53.4509 -11.1665 8.64857 0.678337 10
53.0928 -11.0917 10.543 0.674199 10
53.447 -11.1657 12.6056 0.66924 10
53.0888 -11.0908 14.5322 0.663465 10
9.65789 -1.98248 -2.64178 0.0227712 4
11.2024 -2.29952 -2.6402 0.096411 4
16.7701 -3.4424 -2.7115 0.0598214 1
20.9836 -4.30733 -2.63019 0.0589488 4
46.929 -9.63315 -2.51073 0.243692 4
53.4721 -10.9762 -0.95282 0.581912 10
53.4701 -10.9759 0.952785 0.581933 10
53.4682 -10.9755 2.86058 0.686126 10
53.4663 -10.9751 4.77523 0.684477 10
53.4644 -10.9747 6.70148 0.681995 10
53.4624 -10.9743 8.64417 0.678682 10
53.4604 -10.9739 10.6083 0.674542 10
53.4584 -10.9735 12.5992 0.66958 10
53.4564 -10.973 14.6223 0.663803 10
9.66474 -1.94875 -2.64178 0.0653176 4
11.2103 -2.2604 -2.6402 0.0870307 4
16.7819 -3.38383 -2.71149 0.0598216 1
20.9985 -4.23404 -2.63018 0.0456288 4
46.9398 -9.46474 -2.50952 0.249707 4
53.4797 -10.7834 2.85916 0.686466 10
53.4778 -10.783 4.77286 0.684817 10
53.4758 -10.7826 6.69815 0.682333 10
53.4739 -10.7822 8.63989 0.679019 10
53.4719 -10.7818 10.6031 0.674876 10
53.4699 -10.7814 12.5929 0.669912 10
53.4679 -10.781 14.615 0.664132 10
9.67146 -1.915 -2.64177 0.0245691 4
11.2181 -2.22125 -2.64019 0.0343954 4
16.7936 -3.32522 -2.71148 0.0598218 1
20.1215 -3.98417 -2.51858 0.0461958 4
28.1472 -5.57329 -2.51037 0.0264349 4
46.9507 -9.29649 -2.50835 0.251791 4
53.4912 -10.5915 2.85778 0.686798 10
53.4892 -10.5912 4.77055 0.685148 10
53.4873 -10.5908 6.69492 0.682663 10
53.4853 -10.5904 8.63571 0.679347 10
53.4834 -10.59 10.598 0.675203 10
53.4814 -10.5896 12.5869 0.670236 10
53.4793 -10.5892 14.608 0.664453 10
9.67807 -1.88123 -2.64177 0.038951 4
11.2258 -2.18207 -2.64018 0.0281418 4
13.3222 -2.58957 -2.63804 0.0468951 4
16.805 -3.26657 -2.71147 0.059822 1
20.1352 -3.9139 -2.51857 0.0274909 4
28.1663 -5.47497 -2.51035 0.0286719 4
46.9615 -9.12839 -2.50721 0.273553 4
53.5026 -10.3999 2.85643 0.687121 10
53.5007 -10.3995 4.76831 0.685471 10
53.4987 -10.3991 6.69176 0.682985 10
53.4968 -10.3987 8.63165 0.679667 10
53.4948 -10.3983 10.593 0.675521 10
53.4928 -10.398 12.5809 0.670552 10
53.4908 -10.3976 14.6011 0.664766 10
9.68456 -1.84743 -2.64176 0.0305616 4
11.2333 -2.14287 -2.64018 0.0234515 4
13.3311 -2.54305 -2.63803 0.0778638 4
20.2744 -3.86755 -2.53427 0.293875 4
28.1851 -5.37659 -2.51034 0.0292821 4
46.9722 -8.96043 -2.5061 0.244141 4
53.5178 -10.2091 -0.951003 0.583024 10
53.5159 -10.2087 0.950968 0.583045 10
53.514 -10.2083 2.85512 0.687436 10
53.5121 -10.208 4.76612 0.685785 10
53.5102 -10.2076 6.6887 0.683298 10
53.5082 -10.2072 8.62769 0.679979 10
53.5062 -10.2069 10.5881 0.675831 10
53.5042 -10.2065 12.5752 0.670859 10
53.5022 -10.2061 14.5944 0.665071 10
9.69093 -1.81361 -2.64176 0.0179775 4
11.2407 -2.10364 -2.64017 0.0359591 4
13.3399 -2.49649 -2.63803 0.092021 4
20.7101 -3.87579 -2.58703 0.305223 4
46.983 -8.79262 -2.50502 0.242277 4
53.5254 -10.017 2.85385 0.687743 10
53.5235 -10.0167 4.764 0.686091 10
53.5216 -10.0163 6.68571 0.683603 10
53.5196 -10.0159 8.62384 0.680282 10
53.5177 -10.0156 10.5834 0.676132 10
53.5157 -10.0152 12.5696 0.671159 10
53.5136 -10.0148 14.5879 0.665367 10
9.69718 -1.77977 -2.64175 0.0203745 4
11.2479 -2.06438 -2.64017 0.0099018 4
13.3485 -2.4499 -2.63802 0.0774217 4
21.1643 -3.88437 -2.64205 0.323312 4
28.5973 -5.24859 -2.54373 0.295529 4
46.9937 -8.62495 -2.50397 0.28179 4
62.8137 -11.5285 1.11473 0.883475 10
53.5368 -9.82585 2.85261 0.688042 10
53.5349 -9.8255 4.76193 0.686389 10
53.533 -9.82515 6.68282 0.683899 10
53.531 -9.82479 8.6201 0.680577 10
53.5291 -9.82442 10.5788 0.676425 10
53.5271 -9.82406 12.5641 0.67145 10
53.5251 -9.82369 14.5815 0.665656 10
9.70332 -1.7459 -2.64175 0.011985 4
11.2551 -2.0251 -2.64016 0.0307478 4
13.3569 -2.40329 -2.63801 0.0964456 4
21.6381 -3.89331 -2.69949 0.303227 4
29.1753 -5.24946 -2.59349 0.297658 4
47.0043 -8.45741 -2.50295 0.210935 4
53.5521 -9.63554 -0.949766 0.883816 10
53.5502 -9.63519 0.949731 0.883847 10
53.5483 -9.63485 2.85141 0.688332 10
53.5463 -9.6345 4.75992 0.686678 10
53.5444 -9.63416 6.68 0.684188 10
53.5425 -9.63381 8.61647 0.680864 10
53.5405 -9.63345 10.5743 0.67671 10
53.5385 -9.63309 12.5588 0.671733 10
53.5365 -9.63273 14.5754 0.665936 10
9.70934 -1.71202 -2.64174 0.0335581 4
13.3652 -2.35664 -2.63801 0.007521 4
21.7076 -3.82764 -2.70647 0.04669 1
47.015 -8.29002 -2.50196 0.236657 4
53.5635 -9.4447 -0.949377 0.884177 10
53.5616 -9.44436 0.949343 0.884209 10
53.2028 -9.3811 2.83125 0.688613 10
53.2009 -9.38076 4.72627 0.686959 10
53.199 -9.38042 6.63278 0.684468 10
53.197 -9.38008 8.55556 0.681143 10
53.1951 -9.37973 10.4996 0.676987 10
53.1931 -9.37938 12.47 0.672008 10
53.1911 -9.37903 14.4724 0.666209 10
9.71524 -1.67811 -2.64174 0.0185768 4
11.2689 -1.94648 -2.64015 0.0281421 4
13.3733 -2.30997 -2.638 0.0349506 4
16.4159 -2.83552 -2.63853 0.00837756 4
21.7207 -3.75183 -2.70647 0.0466902 1
29.5265 -5.10012 -2.62149 0.0268427 4
47.0256 -8.12274 -2.501 0.274232 4
9.72102 -1.64419 -2.64173 0.0221724 4
11.2756 -1.90712 -2.64015 0.044819 4
13.3812 -2.26327 -2.63799 0.0261024 4
16.4032 -2.77439 -2.63491 0.0087153 4
21.7336 -3.67597 -2.70646 0.0466904 1
29.544 -4.997 -2.62148 0.035587 4
47.0362 -7.95558 -2.50007 0.228941 4
58.2278 -9.8485 -1.03081 0.884868 10
58.2257 -9.84815 1.03077 0.8849 10
54.8915 -9.2842 2.9176 0.689151 10
54.8895 -9.28387 4.87041 0.687496 10
54.8875 -9.28354 6.83506 0.685003 10
54.8855 -9.2832 8.81648 0.681675 10
54.8835 -9.28286 10.8198 0.677516 10
54.8815 -9.28251 12.8503 0.672533 10
9.72669 -1.61024 -2.64173 0.0131836 4
11.2822 -1.86775 -2.64014 0.0323115 4
13.389 -2.21654 -2.63799 0.0150421 4
16.4127 -2.71711 -2.6349 0.070812 4
21.7463 -3.60007 -2.70645 0.0466905 1
58.2401 -9.6416 -1.03042 0.885198 10
58.2381 -9.64125 1.03038 0.885229 10
54.9031 -9.08916 2.91651 0.689408 10
54.9011 -9.08883 4.8686 0.687752 10
54.8992 -9.0885 6.83252 0.685257 10
54.8972 -9.08817 8.8132 0.681928 10
54.8951 -9.08784 10.8158 0.677768 10
54.8931 -9.0875 12.8456 0.672783 10
9.73223 -1.57628 -2.64173 0.0119851 4
11.2886 -1.82835 -2.64014 0.0458615 4
13.3967 -2.16979 -2.63798 0.0194663 4
16.4221 -2.65979 -2.63489 0.0671808 4
21.7195 -3.51779 -2.70157 0.0214558 4
29.5779 -4.79058 -2.62145 0.0392478 4
56.8196 -9.20278 3.0166 0.689656 10
56.8176 -9.20245 5.03567 0.687999 10
56.8156 -9.20212 7.06698 0.685504 10
56.8135 -9.20178 9.11564 0.682174 10
56.8093 -9.2011 13.2864 0.673025 10
9.73766 -1.54229 -2.64172 0.0509368 4
11.2949 -1.78893 -2.64013 0.0312693 4
13.4041 -2.12301 -2.63798 0.0203512 4
16.4312 -2.60245 -2.63489 0.0798909 4
21.5974 -3.4207 -2.68489 0.0172388 4
28.3387 -4.48842 -2.51022 0.0303002 4
62.9093 -9.96386 -1.11177 0.885824 10
62.9071 -9.9635 1.11173 0.885855 10
58.8561 -9.32189 3.12296 0.689896 10
58.8518 -9.32122 7.31617 0.685742 10
58.8497 -9.32088 9.43706 0.682411 10
58.8453 -9.32019 13.7549 0.673259 10
60.7207 -9.61721 16.4729 0.17897 10
9.74297 -1.50829 -2.64172 0.0383525 4
11.301 -1.74949 -2.64013 0.0291847 4
13.4114 -2.0762 -2.63797 0.019024 4
16.4401 -2.54507 -2.63488 0.0221516 4
21.4766 -3.32475 -2.66841 0.0214991 4
28.3541 -4.38945 -2.51021 0.0246063 4
63.1541 -9.77677 5.59108 0.688469 10
63.1472 -9.7757 12.4208 0.678475 10
60.754 -9.40521 16.4729 0.17897 10
9.74816 -1.47427 -2.64172 0.0281651 4
11.3071 -1.71003 -2.64012 0.0521156 4
13.4186 -2.02937 -2.63797 0.0203513 4
16.4489 -2.48766 -2.63487 0.0188834 4
21.3569 -3.22993 -2.65212 0.0142992 4
28.9088 -4.37204 -2.55795 0.288336 4
66.391 -10.0407 -1.17204 0.886407 10
63.1697 -9.55352 3.34823 0.69035 10
63.1674 -9.55317 5.58928 0.688691 10
63.1629 -9.55249 10.1178 0.68286 10
63.1605 -9.55213 12.4168 0.678694 10
63.1558 -9.55142 17.115 0.667888 10
9.75324 -1.44023 -2.64171 0.0575289 4
11.3129 -1.67055 -2.64012 0.0192828 4
13.4255 -1.98252 -2.63796 0.0371632 4
16.4574 -2.43023 -2.63487 0.0326829 4
21.2384 -3.13622 -2.63603 0.0181383 4
29.7879 -4.39869 -2.63436 0.216876 4
66.405 -9.80585 -1.17167 0.886682 10
69.62 -10.2806 1.2284 0.691382 10
66.4003 -9.80515 3.51763 0.690564 10
66.3979 -9.8048 5.87206 0.688905 10
69.6125 -10.2795 8.64003 0.686407 10
66.3931 -9.80409 10.6297 0.683072 10
66.3907 -9.80373 13.045 0.678905 10
69.6048 -10.2784 16.2438 0.673911 10
66.3857 -9.803 17.9809 0.668096 10
9.75819 -1.40618 -2.64171 0.0101874 4
11.3187 -1.63105 -2.64012 0.0244944 4
13.4324 -1.93564 -2.63796 0.0190241 4
16.4658 -2.37276 -2.63486 0.0268726 4
21.2009 -3.0551 -2.63003 0.0532839 4
30.5175 -4.39764 -2.69751 0.0335016 1
69.6371 -10.0349 -1.22808 0.886948 10
69.6347 -10.0345 1.22803 0.691589 10
69.6322 -10.0342 3.68696 0.69077 10
69.6297 -10.0338 6.15473 0.689111 10
69.6272 -10.0334 8.63745 0.686612 10
69.6247 -10.0331 11.1414 0.683276 10
69.6221 -10.0327 13.673 0.679107 10
69.6195 -10.0323 16.239 0.674113 10
9.76303 -1.37211 -2.6417 0.0191763 4
11.3243 -1.59153 -2.64011 0.0239733 4
13.439 -1.88873 -2.63795 0.0349513 4
16.4739 -2.31526 -2.63486 0.0159784 4
21.2113 -2.98106 -2.63002 0.0606531 4
30.5326 -4.29108 -2.6975 0.0335018 1
71.5593 -10.057 -1.26135 0.887201 10
71.5542 -10.0563 3.78685 0.690968 10
71.5516 -10.0559 6.32148 0.689308 10
71.5491 -10.0556 8.87146 0.686808 10
71.5438 -10.0548 14.0434 0.679302 10
71.5412 -10.0545 16.6789 0.674305 10
9.76775 -1.33802 -2.6417 0.0203749 4
11.3298 -1.55199 -2.64011 0.0323119 4
13.4455 -1.84181 -2.63795 0.0296423 4
16.4819 -2.25774 -2.63485 0.0239676 4
21.2216 -2.907 -2.63001 0.0564019 4
30.5472 -4.18445 -2.69749 0.0335019 1
9.77235 -1.30391 -2.6417 0.025169 4
11.3351 -1.51243 -2.6401 0.0343965 4
13.4518 -1.79486 -2.63794 0.0119454 4
21.2315 -2.83289 -2.63001 0.0144548 4
30.5615 -4.07778 -2.69748 0.033502 1
36.4308 -4.86091 -0.641538 0.872519 8
9.77683 -1.26979 -2.6417 0.0287646 4
11.3403 -1.47285 -2.6401 0.0396082 4
13.458 -1.74789 -2.63794 0.0349514 4
16.4972 -2.14261 -2.63484 0.0101681 4
30.3259 -3.93864 -2.67545 0.0275941 4
36.4385 -4.73253 -0.641378 0.872736 8
9.78119 -1.23565 -2.64169 0.0323602 4
11.3453 -1.43325 -2.6401 0.0265792 4
13.464 -1.7009 -2.63794 0.0132727 4
16.5045 -2.08501 -2.63484 0.0250572 4
36.4461 -4.60422 -0.641226 0.872943 8
9.78543 -1.2015 -2.64169 0.020375 4
11.3503 -1.39364 -2.64009 0.0229311 4
13.4698 -1.65389 -2.63793 0.0230061 4
16.5117 -2.02738 -2.63483 0.0119839 4
36.4699 -4.47794 -1.92566 0.557425 8
36.4538 -4.47596 -0.641082 0.873139 8
9.78956 -1.16733 -2.64169 0.0227721 4
11.355 -1.35401 -2.64009 0.00781743 4
13.4755 -1.60686 -2.63793 0.0309697 4
16.5186 -1.96973 -2.63483 0.0283256 4
29.7512 -3.54762 -2.62133 0.0402664 4
36.4614 -4.34776 -0.640946 0.873325 8
9.79356 -1.13316 -2.64168 0.0335588 4
11.3597 -1.31436 -2.64009 0.0171984 4
13.481 -1.55981 -2.63793 0.0287577 4
16.5254 -1.91205 -2.63482 0.017068 4
29.7633 -3.44374 -2.62133 0.0418934 4
36.4691 -4.21962 -0.640817 0.8735 8
9.79745 -1.09896 -2.64168 0.00479413 4
11.3642 -1.2747 -2.64009 0.0218889 4
13.4864 -1.51274 -2.63792 0.0146001 4
16.5319 -1.85435 -2.63482 0.0167049 4
49.843 -5.5908 -2.62854 0.355381 4
36.4767 -4.09153 -0.640697 0.873664 8
9.80122 -1.06475 -2.64168 0.0173787 4
11.3686 -1.23502 -2.64008 0.0239735 4
13.4915 -1.46565 -2.63792 0.0358366 4
9.80487 -1.03053 -2.64168 0.0257685 4
11.3728 -1.19533 -2.64008 0.0156349 4
13.4966 -1.41855 -2.63792 0.0181395 4
16.5444 -1.73889 -2.63481 0.0268731 4
9.8084 -0.996302 -2.64168 0.0203751 4
11.3769 -1.15562 -2.64008 0.0323122 4
13.5014 -1.37143 -2.63791 0.0252184 4
16.5504 -1.68113 -2.63481 0.0156155 4
21.3096 -2.16456 -2.62996 0.0272095 4
9.81181 -0.962057 -2.64167 0.017978 4
11.3808 -1.1159 -2.64008 0.0588917 4
13.5061 -1.32429 -2.63791 0.0327397 4
16.5561 -1.62334 -2.6348 0.0163418 4
21.317 -2.09016 -2.62996 0.0184231 4
9.8151 -0.927801 -2.64167 0.0299634 4
11.3847 -1.07617 -2.64007 0.0396086 4
13.5106 -1.27713 -2.63791 0.0411458 4
16.5617 -1.56554 -2.6348 0.0268732 4
9.81828 -0.893533 -2.64167 0.0227722 4
11.3883 -1.03642 -2.64007 0.0380451 4
13.515 -1.22996 -2.63791 0.0119456 4
16.567 -1.50772 -2.6348 0.0105314 4
9.82133 -0.859257 -2.64167 0.0197759 4
11.3919 -0.996663 -2.64007 0.0119868 4
13.5192 -1.18278 -2.6379 0.0221215 4
16.5721 -1.44988 -2.6348 0.0370416 4
21.3377 -1.86681 -2.62994 0.0246587 4
9.82426 -0.824968 -2.64167 0.0203751 4
11.3953 -0.956891 -2.64007 0.0109445 4
13.5232 -1.13558 -2.6379 0.0287579 4
16.5771 -1.39202 -2.63479 0.0210629 4
21.344 -1.79231 -2.62994 0.0138883 4
9.82708 -0.79067 -2.64167 0.0215737 4
11.3986 -0.917108 -2.64007 0.0385664 4
13.5271 -1.08837 -2.6379 0.0420308 4
16.5818 -1.33415 -2.63479 0.0170682 4
9.82977 -0.756361 -2.64167 0.0323606 4
11.4017 -0.877313 -2.64007 0.0260584 4
13.5308 -1.04114 -2.6379 0.0115032 4
16.5864 -1.27625 -2.63479 0.0286891 4
21.356 -1.64326 -2.62994 0.0204073 4
9.83235 -0.722044 -2.64166 0.0185774 4
11.4047 -0.837508 -2.64007 0.0151139 4
13.5344 -0.993903 -2.6379 0.0199094 4
16.5907 -1.21835 -2.63479 0.00871569 4
21.3616 -1.5687 -2.62993 0.0144552 4
96.1763 -7.06276 -1.68328 0.531641 10
96.1728 -7.0625 1.68322 0.531649 10
9.83481 -0.687718 -2.64166 0.0383533 4
11.4075 -0.797692 -2.64006 0.015635 4
13.5377 -0.946652 -2.6379 0.0296428 4
16.5949 -1.16043 -2.63479 0.0159788 4
9.83715 -0.653383 -2.64166 0.00838978 4
11.4102 -0.757867 -2.64006 0.0333547 4
13.541 -0.89939 -2.6379 0.0314126 4
16.5988 -1.10249 -2.63479 0.014163 4
21.372 -1.41953 -2.62993 0.0144552 4
9.83937 -0.619041 -2.64166 0.0167796 4
11.4128 -0.718033 -2.64006 0.0224102 4
13.544 -0.852117 -2.63789 0.00752132 4
16.6025 -1.04454 -2.63478 0.0381312 4
21.3768 -1.34491 -2.62993 0.0187067 4
9.84146 -0.584691 -2.64166 0.0227723 4
11.4152 -0.67819 -2.64006 0.0427358 4
13.5469 -0.804834 -2.63789 0.0203518 4
16.6061 -0.986583 -2.63478 0.0290524 4
9.84344 -0.550336 -2.64166 0.0898906 4
11.4175 -0.638341 -2.64006 0.0370029 4
13.5496 -0.757544 -2.63789 0.0168124 4
16.6094 -0.928615 -2.63478 0.0337734 4
21.3856 -1.19565 -2.62993 0.0164393 4
9.8453 -0.515972 -2.64166 0.0713132 4
11.4197 -0.598483 -2.64006 0.0260584 4
13.5522 -0.710242 -2.63789 0.0247761 4
16.6126 -0.870631 -2.63478 0.0239682 4
9.84704 -0.481602 -2.64166 0.0197759 4
11.4217 -0.558616 -2.64006 0.0213679 4
13.5546 -0.662932 -2.63789 0.0340672 4
16.6155 -0.812636 -2.63478 0.025784 4
9.84866 -0.447226 -2.64166 0.0587285 4
11.4236 -0.518743 -2.64006 0.015635 4
13.5568 -0.615613 -2.63789 0.0154851 4
16.6182 -0.754632 -2.63478 0.0167051 4
21.397 -0.971634 -2.62993 0.024092 4
9.85016 -0.412845 -2.64166 0.0491402 4
11.4253 -0.478864 -2.64006 0.0614979 4
13.5589 -0.568287 -2.63789 0.0119456 4
16.6208 -0.696618 -2.63478 0.0479364 4
9.85155 -0.378459 -2.64166 0.0419489 4
11.4269 -0.438979 -2.64006 0.0177197 4
13.5608 -0.520954 -2.63789 0.0411461 4
16.6231 -0.638596 -2.63478 0.0268734 4
9.85281 -0.344068 -2.64166 0.0455446 4
11.4284 -0.399089 -2.64006 0.0291854 4
13.5625 -0.473614 -2.63789 0.0150426 4
16.6252 -0.580567 -2.63478 0.0156156 4
21.406 -0.747515 -2.62993 0.0379804 4
9.85395 -0.309673 -2.64166 0.0113861 4
11.4297 -0.359194 -2.64006 0.018762 4
13.5641 -0.426269 -2.63789 0.0119456 4
16.6272 -0.52253 -2.63478 0.0105315 4
21.4085 -0.672789 -2.62993 0.0218245 4
9.85498 -0.275277 -2.64166 0.0557321 4
11.4309 -0.319297 -2.64006 0.0161562 4
13.5655 -0.378922 -2.6379 0.0154851 4
16.6289 -0.464491 -2.63478 0.0181577 4
9.85588 -0.240874 -2.64166 0.0119854 4
11.432 -0.279393 -2.64006 0.0151139 4
13.5667 -0.331567 -2.6379 0.0194669 4
16.6304 -0.406442 -2.63479 0.00944201 4
9.85666 -0.206469 -2.64166 0.00779051 4
11.4329 -0.239486 -2.64006 0.0265795 4
13.5678 -0.284208 -2.6379 0.012388 4
21.4144 -0.448571 -2.62993 0.0286269 4
9.85733 -0.172062 -2.64166 0.0143825 4
11.4336 -0.199576 -2.64007 0.0302277 4
13.5687 -0.236845 -2.6379 0.0110608 4
16.6329 -0.29033 -2.63479 0.0163419 4
21.4158 -0.373818 -2.62994 0.0181398 4
9.85787 -0.137652 -2.64167 0.0143825 4
11.4343 -0.159664 -2.64007 0.0114657 4
13.5695 -0.18948 -2.6379 0.0247761 4
16.6338 -0.232269 -2.63479 0.0134367 4
9.8583 -0.10324 -2.64167 0.0137832 4
11.4348 -0.11975 -2.64007 0.0792174 4
13.5701 -0.142112 -2.6379 0.00796373 4
16.6345 -0.174204 -2.63479 0.021426 4
21.418 -0.224298 -2.62994 0.0221079 4
9.8586 -0.0688277 -2.64167 0.0335591 4
11.4351 -0.0798341 -2.64007 0.0234525 4
13.5705 -0.0947423 -2.6379 0.0106183 4
16.635 -0.116137 -2.6348 0.0163419 4
21.4186 -0.149534 -2.62994 0.0187066 4
9.85879 -0.0344141 -2.64167 0.00539342 4
11.4353 -0.0399173 -2.64007 0.0302276 4
13.5708 -0.0473715 -2.63791 0.0119456 4
16.6354 -0.058069 -2.6348 0.0221523 4
21.4191 -0.0747675 -2.62995 0.0184232 4
9.85885 0 -2.64167 0.0305627 4
11.4354 0 -2.64007 0.0192831 4
13.5709 0 -2.63791 0.0190244 4
16.6355 0 -2.6348 0.0370415 4
9.8588 0.0344118 -2.64167 0.0173788 4
11.4354 0.0399147 -2.64007 0.0411721 4
13.5708 0.0473683 -2.63791 0.0212366 4
16.6354 0.0580652 -2.6348 0.0170681 4
21.4191 0.0747626 -2.62995 0.0204072 4
9.85862 0.0688255 -2.64167 0.0419487 4
11.4352 0.0798316 -2.64008 0.0135503 4
16.6351 0.116134 -2.63481 0.0323205 4
21.4188 0.14953 -2.62996 0.0144551 4
9.85833 0.103238 -2.64168 0.0617245 4
11.4348 0.119748 -2.64008 0.0385662 4
13.5702 0.142109 -2.63791 0.00619398 4
16.6346 0.174201 -2.63481 0.0130734 4
21.4181 0.224295 -2.62996 0.0141716 4
9.85792 0.13765 -2.64168 0.0371545 4
11.4343 0.159662 -2.64008 0.00781746 4
16.6339 0.232266 -2.63481 0.0152523 4
9.85739 0.17206 -2.64168 0.0233714 4
11.4337 0.199575 -2.64008 0.0203254 4
13.5689 0.236844 -2.63792 0.033182 4
16.633 0.290329 -2.63482 0.0185206 4
9.85673 0.206468 -2.64168 0.0287647 4
11.433 0.239486 -2.64009 0.0239735 4
13.568 0.284207 -2.63792 0.0132728 4
16.6319 0.348388 -2.63482 0.0225153 4
21.4147 0.448573 -2.62997 0.016439 4
9.85596 0.240874 -2.64169 0.0563309 4
11.4321 0.279393 -2.64009 0.00990209 4
13.5669 0.331567 -2.63793 0.0185819 4
16.6307 0.406444 -2.63482 0.0148891 4
96.6713 2.36259 -1.68791 0.292007 10
96.6681 2.36251 1.68785 0.292006 10
9.85507 0.275277 -2.64169 0.043147 4
11.431 0.319298 -2.64009 0.0562855 4
13.5657 0.378924 -2.63793 0.0181394 4
16.6292 0.464494 -2.63483 0.0177943 4
21.4112 0.598068 -2.62999 0.0181395 4
96.6785 2.70047 -1.68819 0.393727 10
96.6749 2.70037 1.68812 0.39374 10
9.85406 0.309674 -2.64169 0.0683161 4
11.4299 0.359195 -2.6401 0.0281427 4
13.5643 0.426272 -2.63793 0.0637091 4
21.409 0.6728 -2.62999 0.015872 4
9.85293 0.34407 -2.64169 0.0287646 4
11.4286 0.399092 -2.6401 0.0338755 4
13.5627 0.473619 -2.63794 0.0221212 4
16.6256 0.580575 -2.63484 0.0283255 4
9.85168 0.378462 -2.6417 0.0209742 4
11.4271 0.438983 -2.6401 0.0312696 4
13.561 0.52096 -2.63794 0.0252181 4
16.6235 0.638607 -2.63484 0.0167047 4
21.4039 0.82225 -2.63 0.0167222 4
9.85031 0.412849 -2.6417 0.0521358 4
11.4255 0.47887 -2.64011 0.022931 4
13.5591 0.568295 -2.63795 0.00663633 4
21.4009 0.896961 -2.63001 0.0209736 4
9.84882 0.447231 -2.6417 0.0221727 4
11.4238 0.51875 -2.64011 0.042735 4
13.5571 0.615623 -2.63795 0.0181393 4
16.6187 0.754648 -2.63485 0.0217887 4
9.84721 0.481608 -2.64171 0.0221726 4
11.4219 0.558625 -2.64011 0.0156347 4
13.5549 0.662944 -2.63795 0.022121 4
16.616 0.812655 -2.63486 0.0123469 4
9.84548 0.515979 -2.64171 0.01618 4
11.4199 0.598492 -2.64012 0.0177193 4
13.5525 0.710257 -2.63796 0.013715 4
16.6131 0.870653 -2.63486 0.0163415 4
21.3905 1.12103 -2.63003 0.0538507 4
9.84363 0.550344 -2.64171 0.0257681 4
11.4178 0.638353 -2.64012 0.0307482 4
13.55 0.757562 -2.63796 0.0384905 4
16.61 0.928641 -2.63487 0.0268726 4
21.3865 1.19569 -2.63004 0.0583853 4
9.84167 0.584703 -2.64172 0.0287644 4
11.4155 0.678206 -2.64012 0.0422136 4
13.5473 0.804857 -2.63797 0.0115029 4
16.6067 0.986618 -2.63488 0.0308671 4
21.3823 1.27034 -2.63005 0.0189893 4
9.83958 0.619052 -2.64172 0.0323599 4
11.4131 0.718048 -2.64013 0.0411712 4
13.5444 0.85214 -2.63797 0.0411448 4
16.6032 1.04458 -2.63488 0.0137994 4
9.83737 0.653396 -2.64172 0.0353561 4
11.4105 0.757885 -2.64013 0.0119865 4
13.5414 0.899416 -2.63798 0.010618 4
16.5995 1.10253 -2.63489 0.036314 4
9.83505 0.687732 -2.64173 0.0323598 4
11.4078 0.797712 -2.64014 0.0625384 4
13.5382 0.946681 -2.63798 0.0185815 4
16.5955 1.16047 -2.63489 0.0257829 4
21.368 1.49419 -2.63007 0.0300425 4
9.8326 0.72206 -2.64173 0.028165 4
11.405 0.83753 -2.64014 0.0234518 4
13.5348 0.993935 -2.63799 0.0154845 4
9.83004 0.756379 -2.64174 0.0347567 4
11.402 0.877338 -2.64015 0.0286633 4
13.5313 1.04118 -2.638 0.0283145 4
16.5871 1.27631 -2.63491 0.0177937 4
9.82735 0.790689 -2.64174 0.052135 4
11.3989 0.917135 -2.64015 0.048467 4
13.5276 1.08841 -2.638 0.0398171 4
16.5826 1.3342 -2.63492 0.0301403 4
21.3514 1.71789 -2.6301 0.0277749 4
9.82455 0.82499 -2.64174 0.0287641 4
11.3957 0.956921 -2.64016 0.0171979 4
13.5238 1.13562 -2.63801 0.0265447 4
16.5779 1.39208 -2.63492 0.0675431 4
21.3454 1.79242 -2.63011 0.017005 4
9.82163 0.859281 -2.64175 0.0377528 4
11.3923 0.996696 -2.64016 0.0130287 4
13.5198 1.18283 -2.63801 0.0331808 4
16.573 1.44995 -2.63493 0.0711743 4
21.3391 1.86693 -2.63012 0.0136039 4
29.8501 2.61155 -2.62152 0.0268423 4
9.81859 0.893559 -2.64175 0.0533332 4
11.3888 1.03646 -2.64017 0.0515935 4
13.5156 1.23001 -2.63802 0.0203508 4
16.5679 1.50779 -2.63494 0.0719003 4
21.3325 1.94141 -2.63013 0.019839 4
49.8403 4.53581 -2.62281 0.207918 4
46.5157 4.23325 -0.81529 0.620749 8
9.81542 0.927829 -2.64176 0.0533331 4
11.3851 1.07621 -2.64017 0.0104229 4
13.5112 1.27719 -2.63803 0.0176963 4
16.5626 1.56562 -2.63495 0.0203354 4
46.5255 4.39795 -0.815727 0.664491 8
9.81214 0.962087 -2.64176 0.0695127 4
11.3813 1.11594 -2.64018 0.0406493 4
13.5067 1.32434 -2.63803 0.02389 4
16.5571 1.62343 -2.63496 0.0156146 4
21.3186 2.0903 -2.63015 0.0167213 4
46.5354 4.56283 -0.816174 0.708176 8
9.80874 0.996334 -2.64177 0.0743065 4
11.3774 1.15567 -2.64019 0.0208457 4
13.5021 1.37149 -2.63804 0.0106177 4
16.5513 1.68122 -2.63496 0.0108939 4
46.5452 4.72788 -0.816631 0.667142 8
9.80523 1.03057 -2.64177 0.0377524 4
11.3733 1.19538 -2.64019 0.0166766 4
13.4972 1.41861 -2.63805 0.0291987 4
16.5454 1.73899 -2.63497 0.0370391 4
21.3037 2.2391 -2.63017 0.0153041 4
9.80159 1.06479 -2.64178 0.0323592 4
11.3691 1.23507 -2.6402 0.0291839 4
13.4922 1.46572 -2.63806 0.0345075 4
16.5393 1.79674 -2.63498 0.0239664 4
21.2958 2.31346 -2.63018 0.0178547 4
9.79783 1.099 -2.64178 0.00479394 4
11.3647 1.27476 -2.6402 0.0239724 4
13.4871 1.51282 -2.63806 0.0269865 4
16.533 1.85447 -2.63499 0.014525 4
70.0217 7.85418 -1.2299 0.151736 10
69.0126 7.741 1.21217 0.683847 10
69.0101 7.74072 3.63935 0.683039 10
69.0076 7.74044 6.07524 0.681398 10
69.0051 7.74016 8.5259 0.678927 10
69.0026 7.73988 10.9975 0.675629 10
69 7.73959 13.4964 0.671508 10
68.9974 7.7393 16.0292 0.666568 10
9.79396 1.1332 -2.64179 0.0167788 4
11.3602 1.31442 -2.64021 0.0594098 4
13.4818 1.55989 -2.63807 0.0880378 4
16.5265 1.91218 -2.635 0.0134356 4
69.9376 8.09206 -1.22891 0.876484 10
67.8144 7.84639 3.57771 0.682622 10
67.8119 7.8461 5.97235 0.680982 10
67.8069 7.84553 10.8112 0.675217 10
67.8044 7.84524 13.2678 0.671098 10
67.7993 7.84464 18.288 0.660414 10
9.78996 1.16738 -2.6418 0.0209734 4
11.3556 1.35407 -2.64022 0.0234512 4
13.4763 1.60695 -2.63808 0.08848 4
21.2707 2.53638 -2.63022 0.0144536 4
22.0226 2.62604 -1.94038 0.0611394 6
67.4099 8.03814 -1.18498 0.57858 10
9.78585 1.20155 -2.6418 0.00539315 4
11.3508 1.3937 -2.64022 0.0161552 4
13.4706 1.65398 -2.63809 0.0871525 4
16.5128 2.02752 -2.63502 0.0337703 4
21.447 2.63335 -1.89046 0.341273 6
66.0618 8.11136 -1.16177 0.578212 10
63.9708 7.85462 3.37775 0.125312 10
63.9703 7.85455 10.208 0.12394 10
9.78162 1.2357 -2.64181 0.0185764 4
11.3459 1.43332 -2.64023 0.00990156 4
13.4648 1.701 -2.63809 0.06459 4
21.1766 2.67522 -1.86743 0.342877 6
64.7132 8.17517 -1.13855 0.577838 10
64.6907 8.17232 1.13815 0.127847 10
63.0734 7.96801 3.33181 0.681322 10
62.7514 7.92733 7.76614 0.126914 10
63.0665 7.96714 10.0681 0.673931 10
62.8017 7.93369 14.6142 0.155462 10
63.0594 7.96624 17.031 0.659157 10
9.77727 1.26984 -2.64181 0.0197748 4
11.3409 1.47292 -2.64024 0.0276201 4
13.4588 1.74799 -2.6381 0.021235 4
16.4984 2.14277 -2.63504 0.0145248 4
20.7276 2.69204 -1.82866 0.343495 6
21.9762 2.8542 -1.1614 0.0666002 6
64.0001 8.31215 -1.12651 0.874237 10
63.4799 8.24459 1.11735 0.130227 10
63.0869 8.19354 3.33401 0.680872 10
61.5769 7.99744 7.62419 0.129277 10
63.08 8.19265 10.0748 0.673486 10
61.5766 7.99739 12.0698 0.119916 10
63.0753 8.19204 14.6844 0.664455 10
63.0728 8.19172 17.0423 0.658722 10
9.7728 1.30397 -2.64182 0.0275648 4
11.3357 1.5125 -2.64024 0.019803 4
13.4527 1.79497 -2.63811 0.0163686 4
16.4909 2.20035 -2.63505 0.0134354 4
21.2337 2.83317 -2.63027 0.0138865 4
20.3726 2.71828 -1.79817 0.34141 6
21.5089 2.8699 -1.13722 0.0720606 6
37.3086 4.97803 -0.656996 0.626369 8
62.3756 8.32267 1.09842 0.577089 10
63.1004 8.41938 3.33626 0.680414 10
60.4446 8.06502 7.48743 0.131638 10
63.0934 8.41845 10.0816 0.673033 10
60.4443 8.06498 11.8533 0.130191 10
63.0887 8.41782 14.6943 0.664008 10
9.76821 1.33808 -2.64183 0.0389502 4
11.3304 1.55207 -2.64025 0.0411693 4
13.4464 1.84192 -2.63812 0.0442393 4
16.4832 2.25791 -2.63506 0.0265075 4
21.2237 2.90729 -2.63028 0.0147367 4
20.0614 2.74807 -1.77154 0.339442 6
21.1814 2.90149 -1.12044 0.0654886 6
36.6343 5.01828 -0.645426 0.599018 8
61.2981 8.39679 1.07995 0.576693 10
59.6597 8.17236 3.15583 0.679948 10
59.6575 8.17206 5.2681 0.678315 10
59.6554 8.17176 7.39316 0.675855 10
59.6532 8.17146 9.53637 0.672572 10
59.651 8.17116 11.7032 0.668469 10
59.6487 8.17085 13.8996 0.663553 10
59.6464 8.17054 16.1315 0.657827 10
9.7635 1.37217 -2.64183 0.0437439 4
11.3249 1.59161 -2.64026 0.0349156 4
13.4399 1.88886 -2.63813 0.0349489 4
21.2136 2.98137 -2.6303 0.0340075 4
19.775 2.7792 -1.74709 0.339533 6
20.8143 2.92525 -1.10155 0.0719469 6
58.2977 8.19321 3.08528 0.137191 10
58.2976 8.19319 5.1505 0.136857 10
58.2975 8.19317 7.22837 0.136356 10
58.2973 8.19315 9.32413 0.135689 10
59.6637 8.38518 11.7114 0.668003 10
58.297 8.19311 13.5912 0.13386 10
58.2969 8.19309 15.7741 0.1327 10
9.75868 1.40625 -2.64184 0.0431446 4
11.3193 1.63114 -2.64027 0.0333522 4
13.4333 1.93577 -2.63814 0.0225619 4
16.4672 2.37295 -2.63508 0.0101672 4
19.3199 2.78404 -2.39669 0.373743 6
19.489 2.8084 -1.72268 0.337792 6
20.5199 2.95696 -1.08651 0.0648413 6
59.3258 8.54898 -1.04623 0.87182 10
59.3237 8.54867 1.04619 0.871852 10
58.2303 8.39111 3.08324 0.67899 10
58.2282 8.3908 5.14692 0.677359 10
58.226 8.3905 7.2231 0.674903 10
58.2239 8.39019 9.31701 0.671625 10
59.0481 8.50895 11.5963 0.137187 10
58.2195 8.38956 13.5799 0.662618 10
57.5094 8.28723 15.5688 0.178978 10
9.75373 1.44031 -2.64185 0.0263661 4
11.3136 1.67065 -2.64027 0.0171972 4
13.4265 1.98265 -2.63815 0.0199075 4
16.4588 2.43043 -2.63509 0.0479308 4
19.0453 2.81236 -2.36382 0.376042 6
19.2114 2.83689 -1.699 0.294426 6
20.2435 2.9893 -1.07242 0.254418 6
59.3386 8.76236 -1.04699 0.871189 10
59.3364 8.76204 1.04695 0.871221 10
58.2125 8.59607 3.08387 0.43314 10
58.2103 8.59575 5.14797 0.4321 10
58.2082 8.59544 7.22457 0.430533 10
58.2061 8.59512 9.31891 0.428442 10
56.2936 8.31271 11.061 0.139516 10
58.2017 8.59448 13.5826 0.422697 10
57.48 8.4879 15.5687 0.178978 10
9.74867 1.47435 -2.64185 0.0371521 4
11.3077 1.71013 -2.64028 0.0203239 4
16.4503 2.48787 -2.6351 0.0261439 4
19.0242 2.87713 -1.68333 0.305165 6
20.2007 3.05507 -1.07071 0.0245266 6
57.0519 8.62827 -1.00717 0.122389 10
57.0517 8.62825 1.00717 0.12239 10
55.9506 8.46171 2.96559 0.677999 10
55.9485 8.46141 4.95052 0.676371 10
55.9465 8.46109 6.94748 0.673918 10
55.9444 8.46078 8.96148 0.670645 10
55.9423 8.46047 10.9977 0.666554 10
55.9402 8.46015 13.0617 0.661651 10
57.0508 8.6281 15.4605 0.139575 10
9.74349 1.50837 -2.64186 0.0269652 4
11.3017 1.7496 -2.64029 0.0104225 4
18.5724 2.87516 -2.30757 0.0685959 6
18.8367 2.91607 -1.66763 0.209543 6
20.1885 3.12533 -1.07064 0.0195293 6
56.179 8.69696 -0.992289 0.574589 10
56.177 8.69664 0.992252 0.574609 10
55.9626 8.66346 2.96781 0.677491 10
55.9606 8.66314 4.95423 0.675864 10
55.9585 8.66282 6.95268 0.673413 10
55.9564 8.6625 8.9682 0.670142 10
55.9543 8.66218 11.006 0.666055 10
55.9522 8.66185 13.0715 0.661156 10
56.1006 8.68482 15.2112 0.141863 10
9.73819 1.54238 -2.64187 0.0329573 4
11.2956 1.78904 -2.6403 0.0234505 4
13.4051 2.12316 -2.63818 0.0101748 4
16.4327 2.60268 -2.63513 0.013435 4
18.4361 2.91999 -2.29189 0.284781 6
18.7227 2.96538 -1.65844 0.188409 6
20.1778 3.19584 -1.07065 0.0155395 6
55.1816 8.73989 -0.975205 0.191364 10
55.1815 8.73988 0.975202 0.191365 10
55.1813 8.73985 2.92798 0.149028 10
55.1812 8.73983 4.88791 0.148665 10
55.1811 8.73981 6.85984 0.148121 10
55.1809 8.73979 8.84875 0.147396 10
55.1808 8.73977 10.8598 0.146492 10
55.1807 8.73975 12.8983 0.145409 10
55.1806 8.73973 14.9699 0.144149 10
9.73277 1.57636 -2.64187 0.0209728 4
11.2893 1.82847 -2.64031 0.0140702 4
13.3977 2.16995 -2.63818 0.0261005 4
18.4157 2.98269 -2.29063 0.41486 6
18.6399 3.019 -1.65203 0.154503 6
54.6555 8.85225 -0.966448 0.86856 10
54.6535 8.85193 0.966412 0.868591 10
54.29 8.79305 2.88229 0.15139 10
54.2899 8.79303 4.81164 0.151021 10
54.2897 8.79301 6.75281 0.150468 10
54.2896 8.79299 8.71068 0.149732 10
54.2895 8.79297 10.6903 0.148814 10
54.2894 8.79295 12.697 0.147714 10
54.2893 8.79293 14.7363 0.146434 10
9.72724 1.61033 -2.64188 0.0119844 4
11.2829 1.86787 -2.64031 0.0156335 4
13.3901 2.21671 -2.63819 0.0159257 4
16.4143 2.71737 -2.63515 0.0232386 4
18.3999 3.04608 -2.28997 0.0206751 6
18.5956 3.07848 -1.64905 0.0609711 6
54.6673 9.05011 -0.967209 0.867876 10
54.6653 9.04978 0.967173 0.867908 10
54.6614 9.04912 4.84734 0.674295 10
54.6573 9.04845 8.77469 0.668587 10
54.6532 9.04777 12.7894 0.659621 10
54.6511 9.04742 14.843 0.65393 10
9.72159 1.64428 -2.64189 0.019175 4
11.2763 1.90725 -2.64032 0.0156335 4
13.3823 2.26345 -2.6382 0.0132714 4
16.4048 2.77466 -2.63516 0.0116193 4
18.3383 3.10169 -2.28364 0.42717 6
18.5714 3.14112 -1.64787 0.0559373 6
70.5273 11.9288 -1.24854 0.572796 10
54.6732 9.24727 4.85122 0.673756 10
54.6691 9.24659 8.78172 0.668052 10
54.665 9.24589 12.7997 0.659093 10
54.6629 9.24553 14.8549 0.653407 10
9.71581 1.67821 -2.6419 0.0173773 4
11.2697 1.94661 -2.64033 0.0401258 4
13.3744 2.31016 -2.63821 0.0194646 4
16.3951 2.83192 -2.63518 0.0112561 4
18.2713 3.15599 -2.27665 0.0465657 6
18.5516 3.20442 -1.64709 0.0331216 6
70.1782 12.1219 -1.2431 0.866477 10
54.7553 9.45788 2.9121 0.430797 10
54.685 9.44574 4.85517 0.673208 10
54.7513 9.45718 6.82216 0.428205 10
54.681 9.44504 8.78886 0.667509 10
54.7472 9.45648 10.7994 0.423526 10
54.6768 9.44433 12.8101 0.658558 10
54.6747 9.44396 14.867 0.652876 10
9.70992 1.71212 -2.6419 0.0359529 4
11.2628 1.98594 -2.64034 0.0203234 4
13.3663 2.35684 -2.63823 0.0190221 4
18.2629 3.22024 -2.277 0.328221 6
18.5385 3.26883 -1.64693 0.0323728 6
70.1934 12.377 -1.24413 0.865761 10
54.6969 9.64453 4.85918 0.672652 10
54.6928 9.64382 8.79613 0.666958 10
54.6887 9.64309 12.8207 0.658014 10
54.6866 9.64272 14.8793 0.652337 10
9.70392 1.74601 -2.64191 0.107859 4
11.2559 2.02525 -2.64035 0.0312667 4
13.358 2.40349 -2.63824 0.0216763 4
16.3751 2.94634 -2.6352 0.0123453 4
18.2541 3.28443 -2.27731 0.0954582 6
18.5236 3.33292 -1.64663 0.0360795 6
54.7088 9.84366 4.86326 0.672088 10
54.7047 9.84293 8.80351 0.666398 10
54.7006 9.84218 12.8314 0.657462 10
54.6984 9.8418 14.8918 0.65179 10
9.69779 1.77988 -2.64192 0.12164 4
13.3496 2.45011 -2.63825 0.0172525 4
16.3648 3.00349 -2.63522 0.0185178 4
18.5084 3.39692 -1.64632 0.0348369 6
20.1538 3.6989 -1.07386 0.0147472 6
54.6651 10.0329 2.91273 0.165522 10
54.7207 10.0431 4.8674 0.671516 10
54.6649 10.0329 6.82411 0.164515 10
54.7166 10.0424 8.81101 0.665831 10
54.6646 10.0328 10.8032 0.162706 10
54.7125 10.0416 12.8423 0.656902 10
54.7103 10.0412 14.9044 0.651235 10
9.69155 1.81372 -2.64193 0.122239 4
11.2415 2.10379 -2.64037 0.038562 4
13.341 2.49671 -2.63826 0.0101745 4
16.3543 3.06061 -2.63523 0.0279582 4
18.2284 3.41135 -2.27702 0.0284907 6
18.494 3.46105 -1.6461 0.0328952 6
20.1599 3.77281 -1.07488 0.0182244 6
54.7386 10.244 -0.972053 0.570398 10
54.7366 10.2437 0.972017 0.570419 10
54.7346 10.2433 2.91832 0.67255 10
54.7326 10.2429 4.87161 0.670935 10
54.7306 10.2425 6.83673 0.668503 10
54.7285 10.2422 8.81863 0.665255 10
54.7265 10.2418 10.8224 0.661198 10
54.7244 10.2414 12.8535 0.656335 10
54.7223 10.241 14.9173 0.650672 10
9.68519 1.84755 -2.64193 0.118044 4
11.2342 2.14303 -2.64038 0.0218864 4
13.3323 2.54327 -2.63827 0.0283116 4
16.3436 3.1177 -2.63524 0.0217855 4
18.222 3.47603 -2.27773 0.0494187 6
18.4804 3.52533 -1.64598 0.0310727 6
20.1687 3.84739 -1.07606 0.02495 6
54.7465 10.4435 2.92088 0.67196 10
54.7445 10.4431 4.87589 0.670346 10
54.7425 10.4427 6.84274 0.667916 10
54.7405 10.4423 8.82638 0.664672 10
54.7384 10.4419 10.8319 0.660618 10
54.7363 10.4415 12.8647 0.655759 10
54.7342 10.4411 14.9304 0.650101 10
9.67871 1.88135 -2.64194 0.118044 4
11.2266 2.18224 -2.64039 0.0208442 4
13.3234 2.5898 -2.63828 0.0305233 4
16.3327 3.17474 -2.63526 0.0482909 4
18.2184 3.5413 -2.27881 0.0603297 6
18.4652 3.58927 -1.64573 0.0140121 6
20.1798 3.92255 -1.07737 0.0279363 6
64.2494 12.4888 -1.14247 0.862025 10
54.7585 10.644 2.92348 0.671362 10
54.7565 10.6436 4.88023 0.66975 10
54.7545 10.6432 6.84883 0.667321 10
54.7524 10.6428 8.83424 0.66408 10
54.7503 10.6424 10.8416 0.66003 10
54.7482 10.642 12.8762 0.655175 10
54.7461 10.6416 14.9437 0.649522 10
9.67211 1.91513 -2.64195 0.130627 4
11.219 2.22142 -2.6404 0.0416882 4
13.3143 2.63631 -2.63829 0.0216758 4
16.3216 3.23175 -2.63527 0.0159758 4
18.2164 3.60694 -2.28011 0.0734063 6
20.1934 3.99839 -1.07884 0.0343128 6
54.7745 10.8456 -0.974655 0.568875 10
54.7725 10.8452 0.974618 0.568896 10
54.7705 10.8448 2.92613 0.670756 10
54.7685 10.8444 4.88465 0.669145 10
54.7664 10.844 6.85503 0.666719 10
54.7644 10.8436 8.84223 0.66348 10
54.7623 10.8432 10.8514 0.659434 10
54.7602 10.8428 12.8878 0.654584 10
54.7581 10.8424 14.9572 0.648936 10
9.6654 1.94889 -2.64196 0.118642 4
11.2112 2.26058 -2.64041 0.0406458 4
13.3051 2.68278 -2.6383 0.0238876 4
16.3103 3.28873 -2.63528 0.0174281 4
18.2169 3.67316 -2.28177 0.0828083 6
20.2093 4.0749 -1.08044 0.0417298 6
54.7889 11.0474 -0.975592 0.150334 10
54.7888 11.0474 0.975589 0.150334 10
54.7825 11.0461 2.92881 0.670141 10
54.7805 11.0457 4.88913 0.668532 10
54.7784 11.0453 6.86131 0.666108 10
54.7764 11.0449 8.85034 0.662872 10
54.7743 11.0444 10.8613 0.658829 10
54.7722 11.044 12.8997 0.653984 10
54.7701 11.0436 14.971 0.648341 10
9.65857 1.98262 -2.64197 0.0287617 4
11.2033 2.29971 -2.64042 0.0302237 4
13.2957 2.72922 -2.63831 0.0424666 4
16.2988 3.34566 -2.6353 0.0181542 4
18.2208 3.7402 -2.28388 0.0933901 6
20.2276 4.15214 -1.08219 0.0463194 6
54.7945 11.2477 2.93153 0.669518 10
54.7925 11.2473 4.89367 0.66791 10
54.7905 11.2469 6.86769 0.665489 10
54.7884 11.2464 8.85857 0.662257 10
54.7863 11.246 10.8714 0.658217 10
54.7842 11.2456 12.9117 0.653376 10
54.7821 11.2451 14.9849 0.647739 10
9.65162 2.01633 -2.64198 0.0347535 4
11.1952 2.33881 -2.64043 0.010943 4
13.2862 2.77563 -2.63833 0.0119437 4
16.2871 3.40255 -2.63531 0.00871396 4
18.2299 3.80842 -2.28667 0.0980736 6
20.2484 4.23011 -1.08408 0.0758291 6
54.8066 11.4497 2.9343 0.668887 10
54.8046 11.4493 4.89829 0.667281 10
54.8025 11.4488 6.87417 0.664862 10
54.8005 11.4484 8.86692 0.661632 10
54.7984 11.448 10.8817 0.657597 10
54.7963 11.4475 12.9238 0.652761 10
54.7942 11.4471 14.999 0.647129 10
9.64456 2.05001 -2.64198 0.0251663 4
11.1871 2.37788 -2.64044 0.0229281 4
13.2765 2.822 -2.63834 0.0336191 4
16.2752 3.4594 -2.63533 0.0217848 4
18.2428 3.87763 -2.28998 0.106699 6
18.4832 3.92872 -1.65319 0.0270321 6
47.2018 10.0331 -2.52901 0.336836 4
54.8227 11.6529 -0.978312 0.566749 10
54.8207 11.6525 0.978275 0.566769 10
54.8187 11.6521 2.93711 0.668248 10
54.8166 11.6516 4.90297 0.666643 10
54.8146 11.6512 6.88075 0.664227 10
54.8125 11.6508 8.8754 0.661 10
54.8105 11.6503 10.8921 0.656969 10
54.8083 11.6499 12.9362 0.652137 10
54.8062 11.6494 15.0134 0.646511 10
9.63738 2.08367 -2.64199 0.0155791 4
11.1787 2.41693 -2.64045 0.0177171 4
13.2666 2.86834 -2.63835 0.0207907 4
16.2631 3.51621 -2.63534 0.0130708 4
18.2597 3.94787 -2.29381 0.113142 6
18.4991 3.99964 -1.65586 0.0286647 6
47.2114 10.2075 -2.53142 0.19505 4
54.8362 11.856 -0.979287 0.158254 10
54.8361 11.856 0.979284 0.158255 10
54.8307 11.8548 2.93995 0.667601 10
54.8287 11.8544 4.90773 0.665998 10
54.8267 11.8539 6.88742 0.663583 10
54.8246 11.8535 8.884 0.66036 10
54.8225 11.853 10.9026 0.656333 10
54.8204 11.8526 12.9487 0.651506 10
54.8183 11.8521 15.0279 0.645885 10
9.63008 2.11731 -2.642 0.0263645 4
11.1703 2.45594 -2.64046 0.0369974 4
13.2566 2.91464 -2.63836 0.0234447 4
16.2508 3.57298 -2.63536 0.0137969 4
18.2795 4.01901 -2.29805 0.119464 6
18.5165 4.0711 -1.65867 0.0341419 6
47.2211 10.3822 -2.53386 0.321201 4
59.5977 13.1034 -1.06513 0.856354 10
59.5955 13.1029 1.06509 0.856386 10
54.8429 12.058 2.94284 0.666945 10
54.8408 12.0575 4.91255 0.665344 10
54.8388 12.0571 6.89418 0.662932 10
54.8367 12.0566 8.89273 0.659712 10
54.8347 12.0562 10.9134 0.655688 10
54.8325 12.0557 12.9614 0.650866 10
54.8304 12.0552 15.0427 0.645251 10
9.62266 2.15092 -2.64201 0.012583 4
11.1617 2.49493 -2.64047 0.0453347 4
13.2464 2.96091 -2.63838 0.0115011 4
16.2384 3.6297 -2.63537 0.0203321 4
18.303 4.09121 -2.30279 0.122134 6
18.535 4.14306 -1.66162 0.0331602 6
47.2307 10.5573 -2.53634 0.211786 4
73.6875 16.4711 -1.31796 0.245566 10
54.7985 12.2489 2.94274 0.191239 10
54.853 12.2611 4.91744 0.664682 10
54.7983 12.2489 6.89442 0.190075 10
54.8489 12.2602 8.90159 0.659056 10
54.7981 12.2488 10.9145 0.187984 10
54.798 12.2488 12.9633 0.186595 10
54.8425 12.2587 15.0576 0.644609 10
9.61513 2.1845 -2.64202 0.0053927 4
11.1529 2.53389 -2.64048 0.0291808 4
13.236 3.00715 -2.63839 0.00751992 4
16.2257 3.68638 -2.63539 0.0217843 4
18.3367 4.16599 -2.30884 0.152084 6
18.5527 4.21507 -1.66452 0.0356559 6
47.2403 10.7327 -2.53885 0.250044 4
54.8712 12.4664 -0.982189 0.564511 10
54.8692 12.466 0.982152 0.564532 10
54.5016 12.3825 2.9291 0.66561 10
54.8652 12.465 4.9224 0.664012 10
54.4976 12.3815 6.86198 0.661605 10
54.861 12.4641 8.91057 0.658392 10
54.4934 12.3806 10.8624 0.654376 10
54.4913 12.3801 12.9009 0.649563 10
54.8547 12.4627 15.0728 0.643959 10
9.60748 2.21806 -2.64203 0.0227691 4
11.1441 2.57281 -2.64049 0.0406445 4
13.2255 3.05335 -2.6384 0.0123857 4
16.2128 3.74302 -2.6354 0.00835059 4
18.3921 4.24615 -2.31767 0.210752 6
18.5829 4.29019 -1.66856 0.0765165 6
47.25 10.9085 -2.5414 0.0683196 4
54.8834 12.6708 -0.983193 0.563935 10
54.8814 12.6704 0.983156 0.563956 10
54.8773 12.6694 4.92743 0.663334 10
54.8732 12.6685 8.91967 0.657719 10
54.9397 12.6838 10.9601 0.417314 10
54.5034 12.5831 12.9141 0.6489 10
54.8669 12.667 15.0882 0.643302 10
9.59971 2.25159 -2.64204 0.0407446 4
11.1351 2.61171 -2.6405 0.0177168 4
13.2148 3.09951 -2.63841 0.0172514 4
16.1998 3.79962 -2.63542 0.0196056 4
18.3945 4.3144 -2.31986 0.104143 6
18.63 4.36963 -1.67415 0.125943 6
47.2596 11.0846 -2.54399 0.209016 4
55.4017 12.9943 -0.993283 0.254513 10
55.4016 12.9943 0.993281 0.254513 10
54.9601 12.8908 2.95851 0.42404 10
54.8896 12.8742 4.93254 0.662648 10
54.956 12.8898 6.93087 0.421488 10
54.8854 12.8733 8.92891 0.657039 10
54.9519 12.8888 10.9714 0.416883 10
54.5156 12.7865 12.9275 0.648229 10
54.8791 12.8718 15.1039 0.642636 10
9.59182 2.28509 -2.64205 0.0509305 4
11.1259 2.65057 -2.64051 0.0276172 4
13.204 3.14564 -2.63843 0.0358297 4
16.1865 3.85617 -2.63544 0.0246884 4
18.4553 4.39667 -2.32944 0.140163 6
18.6915 4.45294 -1.68106 0.112053 6
47.2693 11.2611 -2.54661 0.236499 4
54.9079 13.0809 -0.985244 0.85199 10
54.9059 13.0804 0.985206 0.852022 10
54.9018 13.0795 4.93771 0.661954 10
54.8977 13.0785 8.93827 0.656351 10
54.5277 12.9903 12.941 0.64755 10
54.8913 13.077 15.1197 0.641963 10
9.58383 2.31857 -2.64206 0.0335541 4
11.1167 2.6894 -2.64052 0.0166745 4
13.193 3.19172 -2.63844 0.023444 4
16.173 3.91267 -2.63545 0.0101657 4
18.5181 4.48001 -2.33934 0.161709 6
28.0153 6.77761 -2.52173 0.202409 4
47.2789 11.438 -2.54926 0.310747 4
54.9202 13.2866 -0.98629 0.851086 10
54.9182 13.2861 0.986253 0.851117 10
54.9141 13.2851 4.94295 0.661251 10
54.9099 13.2841 8.94777 0.655655 10
54.9078 13.2836 10.9809 0.416004 10
54.5399 13.1946 12.9548 0.646863 10
54.9036 13.2826 15.1358 0.641282 10
9.57571 2.35202 -2.64207 0.0137811 4
11.1073 2.7282 -2.64053 0.0260537 4
13.1819 3.23777 -2.63845 0.0305213 4
16.1594 3.96912 -2.63547 0.0137963 4
47.2886 11.6152 -2.55196 0.291284 4
68.3542 16.7894 -1.22859 0.26343 10
54.7698 13.4527 2.95568 0.20515 10
54.7697 13.4527 4.93416 0.20465 10
54.7696 13.4527 6.92475 0.203901 10
54.7695 13.4527 8.93248 0.202903 10
54.7694 13.4527 10.9625 0.201658 10
54.5521 13.3993 12.9687 0.646168 10
54.7693 13.4526 15.1116 0.198434 10
9.56748 2.38544 -2.64208 0.0245662 4
11.0977 2.76697 -2.64055 0.028659 4
13.1705 3.28378 -2.63847 0.0101737 4
16.1455 4.02553 -2.63549 0.0167007 4
27.8511 6.94406 -2.51125 0.0260191 4
47.2983 11.7928 -2.55468 0.312212 4
67.5348 16.8383 -1.21491 0.266396 10
54.5747 13.607 2.9477 0.661411 10
54.5726 13.6065 4.92065 0.659823 10
54.5706 13.606 6.90555 0.657431 10
54.5685 13.6054 8.90739 0.654238 10
54.5664 13.6049 10.9313 0.650248 10
54.5643 13.6044 12.9828 0.645466 10
54.5622 13.6039 15.0675 0.639897 10
9.55913 2.41883 -2.64209 0.0257645 4
11.088 2.8057 -2.64056 0.00990034 4
13.1591 3.32975 -2.63848 0.0389253 4
16.1315 4.08189 -2.6355 0.0323119 4
20.7719 5.25609 -2.63085 0.0575172 4
27.827 7.04132 -2.51128 0.0294744 4
47.308 11.9708 -2.55745 0.286415 4
66.7334 16.8861 -1.20155 0.269359 10
54.5869 13.8126 2.95095 0.660683 10
54.5849 13.8121 4.92607 0.659096 10
54.5829 13.8116 6.91316 0.656707 10
54.5808 13.8111 8.91721 0.653518 10
54.5787 13.8105 10.9434 0.649532 10
54.5766 13.81 12.9971 0.644755 10
54.5744 13.8094 15.0841 0.639193 10
9.55066 2.45219 -2.6421 0.0203718 4
11.0782 2.8444 -2.64057 0.0182374 4
13.1474 3.37568 -2.63849 0.0517526 4
16.1172 4.1382 -2.63552 0.0373945 4
20.7536 5.32861 -2.63087 0.0555334 4
27.8026 7.1385 -2.51131 0.028661 4
47.3177 12.1491 -2.56025 0.305175 4
65.9494 16.9329 -1.18849 0.272318 10
54.5992 14.0187 2.95424 0.659946 10
54.5972 14.0182 4.93157 0.658362 10
54.5951 14.0176 6.92087 0.655975 10
54.5931 14.0171 8.92716 0.65279 10
54.591 14.0166 10.9556 0.648808 10
54.5888 14.016 13.0116 0.644037 10
54.5867 14.0155 15.1009 0.638481 10
9.54208 2.48552 -2.64211 0.0527269 4
11.0683 2.88307 -2.64058 0.0765967 4
13.1356 3.42158 -2.63851 0.0345016 4
16.1028 4.19446 -2.63554 0.0199678 4
20.735 5.40107 -2.6309 0.0515663 4
27.7779 7.23559 -2.51134 0.0262214 4
47.3274 12.3279 -2.56309 0.237095 4
64.6191 16.832 -1.16557 0.275275 10
54.6116 14.2252 2.95757 0.659202 10
54.6095 14.2247 4.93714 0.657619 10
54.6075 14.2242 6.92869 0.655236 10
54.6054 14.2236 8.93723 0.652053 10
54.6033 14.2231 10.968 0.648077 10
54.6012 14.2225 13.0263 0.643311 10
54.599 14.222 15.1179 0.637761 10
9.53339 2.51883 -2.64212 0.0191733 4
11.0582 2.9217 -2.64059 0.0416851 4
13.1237 3.46743 -2.63852 0.0172507 4
16.0882 4.25068 -2.63555 0.0123436 4
47.3372 12.507 -2.56597 0.289693 4
64.5215 17.0473 -1.16487 0.845445 10
54.6239 14.4323 2.96095 0.65845 10
54.6219 14.4317 4.94278 0.656869 10
54.6198 14.4312 6.9366 0.654488 10
54.6177 14.4306 8.94744 0.651309 10
54.6156 14.4301 10.9805 0.647337 10
54.6135 14.4295 13.0412 0.642577 10
54.6113 14.4289 15.1352 0.637033 10
9.52457 2.5521 -2.64213 0.0257641 4
11.048 2.9603 -2.6406 0.0234477 4
13.1116 3.51323 -2.63854 0.0225585 4
16.0733 4.30684 -2.63557 0.0174262 4
20.8438 5.58508 -2.64958 0.0990958 4
47.3469 12.6866 -2.56888 0.247122 4
54.6363 14.6397 2.96438 0.657689 10
54.6342 14.6392 4.94849 0.65611 10
54.6322 14.6386 6.94462 0.653732 10
54.6301 14.6381 8.95779 0.650557 10
54.628 14.6375 10.9932 0.64659 10
54.6259 14.637 13.0563 0.641835 10
54.6237 14.6364 15.1527 0.636298 10
9.51564 2.58534 -2.64214 0.0754944 4
11.0376 2.99886 -2.64062 0.0349109 4
13.0993 3.559 -2.63855 0.0119427 4
16.0583 4.36295 -2.63559 0.0428391 4
21.0268 5.71286 -2.67536 0.0813921 4
47.3567 12.8665 -2.57183 0.278484 4
54.6487 14.8477 2.96784 0.656921 10
54.6467 14.8472 4.95428 0.655344 10
54.6446 14.8466 6.95274 0.652968 10
54.6425 14.846 8.96826 0.649797 10
54.6404 14.8455 11.006 0.645835 10
54.6383 14.8449 13.0715 0.641085 10
54.6361 14.8443 15.1704 0.635554 10
9.5066 2.61855 -2.64215 0.0119832 4
11.0272 3.03738 -2.64063 0.0401213 4
13.0869 3.60472 -2.63857 0.0243275 4
21.2129 5.843 -2.70162 0.0169448 4
27.6755 7.6231 -2.51146 0.030082 4
47.3664 13.0469 -2.57482 0.299234 4
54.6611 15.0562 2.97135 0.656145 10
54.6591 15.0556 4.96014 0.654569 10
54.657 15.055 6.96097 0.652197 10
54.6549 15.0545 8.97887 0.64903 10
54.6528 15.0539 11.0191 0.645071 10
54.6507 15.0533 13.087 0.640328 10
54.6485 15.0527 15.1884 0.634804 10
9.49744 2.65173 -2.64216 0.0239663 4
11.0165 3.07587 -2.64064 0.0135474 4
13.0743 3.6504 -2.63858 0.0230004 4
16.0277 4.47501 -2.63563 0.0141585 4
21.2378 5.92969 -2.70741 0.0466739 1
27.649 7.71975 -2.51149 0.0270328 4
47.3762 13.2277 -2.57784 0.235738 4
54.6736 15.2651 2.97491 0.65536 10
54.6716 15.2646 4.96608 0.653787 10
54.6695 15.264 6.9693 0.651417 10
54.6674 15.2634 8.98962 0.648254 10
54.6653 15.2628 11.0323 0.644301 10
54.6631 15.2622 13.1026 0.639562 10
54.661 15.2616 15.2065 0.634045 10
9.48817 2.68488 -2.64217 0.0281603 4
11.0058 3.11432 -2.64065 0.0276157 4
13.0615 3.69604 -2.6386 0.0150386 4
16.0121 4.53096 -2.63564 0.0312211 4
21.2172 6.00385 -2.70743 0.0466735 1
27.6223 7.81631 -2.51153 0.0296748 4
47.386 13.4089 -2.58091 0.294323 4
55.1152 15.596 -0.999815 0.193495 10
55.1151 15.596 0.999812 0.193495 10
54.6861 15.4746 2.97851 0.654568 10
54.684 15.474 4.97209 0.652997 10
54.682 15.4734 6.97773 0.65063 10
54.6799 15.4728 9.0005 0.64747 10
54.6778 15.4722 11.0456 0.643522 10
54.6756 15.4716 13.1185 0.638789 10
54.6734 15.471 15.2249 0.633278 10
9.47878 2.71799 -2.64218 0.0611135 4
10.9949 3.15273 -2.64067 0.0151104 4
13.0486 3.74163 -2.63861 0.0150386 4
21.1963 6.07793 -2.70746 0.0466731 1
27.5952 7.91279 -2.51156 0.0268289 4
47.3958 13.5905 -2.58401 0.254074 4
59.8397 17.1588 -1.0866 0.839433 10
