VERSION 0.7
FIELDS x y z intensity label
SIZE 4 4 4 4 4
TYPE F F F F F
COUNT 1 1 1 1 1
WIDTH 1251
HEIGHT 1
VIEWPOINT 5.56727 54.0837 2.72993 0.876783 0.000068 0.000102922 -0.480885
POINTS 1251
DATA ascii
8.26094 -13.428 0.275189 0.800759 10
8.26087 -13.4279 0.826232 0.799791 10
8.05113 -13.0869 1.34428 0.622092 10
8.05106 -13.0868 1.88659 0.619818 10
8.05099 -13.0867 2.43356 0.61679 10
8.05092 -13.0866 2.98661 0.61301 10
8.05085 -13.0865 3.5472 0.608484 10
8.05078 -13.0864 4.1169 0.603216 10
4.99236 -8.05184 -2.53854 0.0872113 4
5.79369 -9.34427 -2.53831 0.0602293 4
7.39375 -11.9249 -2.72736 0.0725624 1
8.29412 -13.377 -2.49292 0.792323 10
8.29405 -13.3769 -1.93257 0.796226 10
8.29398 -13.3768 -1.37702 0.79916 10
8.29391 -13.3767 -0.824861 0.80112 10
8.29383 -13.3766 -0.274728 0.802104 10
8.29377 -13.3765 0.274725 0.802111 10
8.29369 -13.3764 0.82484 0.801141 10
8.08312 -13.0367 1.34201 0.623142 10
8.08305 -13.0366 1.88341 0.620865 10
8.08298 -13.0365 2.42946 0.617831 10
8.08291 -13.0364 2.98158 0.614045 10
8.08284 -13.0363 3.54123 0.609511 10
8.08277 -13.0362 4.10997 0.604234 10
5.02042 -8.03435 -2.53853 0.0764594 4
5.82626 -9.32396 -2.53831 0.0597103 4
7.4353 -11.899 -2.72735 0.0725627 1
8.32683 -13.3257 -2.48876 0.793648 10
8.32676 -13.3256 -1.92935 0.797558 10
8.32669 -13.3255 -1.37472 0.800497 10
8.32662 -13.3254 -0.823483 0.80246 10
8.32655 -13.3253 -0.274269 0.803446 10
8.32648 -13.3251 0.274267 0.803453 10
8.32641 -13.325 0.823462 0.802481 10
8.17409 -13.0813 1.34953 0.297527 10
8.17417 -13.0814 1.89399 0.296434 10
8.17425 -13.0815 2.44315 0.29498 10
8.17432 -13.0817 2.99843 0.293167 10
8.1744 -13.0818 3.56131 0.290997 10
8.17448 -13.0819 4.13336 0.288473 10
5.066 -8.04467 -2.54737 0.0617179 4
5.85875 -9.30354 -2.5383 0.0508837 4
7.47676 -11.8729 -2.72734 0.0725629 1
8.35944 -13.2746 -2.48464 0.794964 10
8.35936 -13.2745 -1.92615 0.798881 10
8.35929 -13.2743 -1.37245 0.801824 10
8.35922 -13.2742 -0.82212 0.803791 10
8.35915 -13.2741 -0.273815 0.804778 10
8.35908 -13.274 0.273813 0.804785 10
8.35901 -13.2739 0.822099 0.803811 10
8.28038 -13.149 1.35949 0.295346 10
8.28046 -13.1492 1.90797 0.294262 10
8.28054 -13.1493 2.46119 0.292819 10
8.28062 -13.1494 3.02057 0.291019 10
8.2807 -13.1495 3.58761 0.288865 10
8.28079 -13.1497 4.16388 0.286358 10
5.12074 -8.069 -2.56071 0.0622972 4
5.89117 -9.283 -2.53829 0.0545184 4
6.99618 -11.0242 -2.53798 0.0577017 4
8.39193 -13.2236 -2.48056 0.79627 10
8.39186 -13.2235 -1.92299 0.800193 10
8.39179 -13.2234 -1.37019 0.803141 10
8.39172 -13.2232 -0.820772 0.805111 10
8.39165 -13.2231 -0.273366 0.8061 10
8.39158 -13.223 0.273364 0.806107 10
8.39151 -13.2229 0.820751 0.805132 10
8.38827 -13.2178 1.36962 0.293162 10
8.38834 -13.2179 1.92219 0.292085 10
8.38842 -13.218 2.47953 0.290653 10
8.38851 -13.2182 3.04307 0.288867 10
8.38859 -13.2183 3.61434 0.286728 10
8.38867 -13.2184 4.1949 0.284241 10
5.17604 -8.09356 -2.57422 0.0650844 4
5.92352 -9.26236 -2.53828 0.0638646 4
7.03459 -10.9997 -2.53797 0.0572615 4
8.4972 -13.2867 -2.49795 0.37002 10
8.49728 -13.2868 -1.93651 0.371836 10
8.49736 -13.287 -1.37985 0.373199 10
8.49745 -13.2871 -0.826571 0.374108 10
8.49753 -13.2872 -0.275302 0.374561 10
8.49761 -13.2873 0.275305 0.374557 10
8.49769 -13.2875 0.826595 0.374097 10
8.49777 -13.2876 1.37992 0.290974 10
8.49785 -13.2877 1.93664 0.289906 10
8.49794 -13.2879 2.49817 0.288484 10
8.49802 -13.288 3.06596 0.286711 10
8.4981 -13.2881 3.64151 0.284588 10
8.49819 -13.2883 4.22644 0.282119 10
5.23191 -8.11834 -2.5879 0.0558157 4
5.9558 -9.2416 -2.53828 0.0742493 4
7.07292 -10.975 -2.53797 0.0440474 4
8.60835 -13.3576 -2.51691 0.367233 10
8.60844 -13.3577 -1.9512 0.369036 10
8.60852 -13.3578 -1.39032 0.370389 10
8.6086 -13.3579 -0.832843 0.371291 10
8.60869 -13.3581 -0.277391 0.37174 10
8.60877 -13.3582 0.277394 0.371736 10
8.60885 -13.3583 0.832867 0.37128 10
8.60893 -13.3585 1.39039 0.288783 10
8.60902 -13.3586 1.95134 0.287722 10
8.6091 -13.3587 2.51713 0.286312 10
8.60919 -13.3588 3.08922 0.284552 10
8.60927 -13.359 3.66915 0.282445 10
8.60936 -13.3591 4.25851 0.279994 10
5.28836 -8.14336 -2.60175 0.0607564 4
5.98801 -9.22072 -2.53827 0.0576343 4
7.11116 -10.9502 -2.53796 0.0629881 4
8.72121 -13.4295 -2.53618 0.364442 10
8.72129 -13.4296 -1.96615 0.366231 10
8.72138 -13.4297 -1.40097 0.367574 10
8.72146 -13.4299 -0.839221 0.368469 10
8.72155 -13.43 -0.279516 0.368915 10
8.72163 -13.4301 0.279518 0.368911 10
8.72172 -13.4303 0.839245 0.368458 10
8.7218 -13.4304 1.40104 0.286588 10
8.72188 -13.4305 1.96628 0.285536 10
8.72197 -13.4307 2.5364 0.284135 10
8.72206 -13.4308 3.11288 0.282389 10
8.72215 -13.4309 3.69725 0.280298 10
8.72224 -13.4311 4.29113 0.277866 10
5.3454 -8.16862 -2.61576 0.0612306 4
6.02014 -9.19974 -2.53826 0.0628267 4
7.14932 -10.9253 -2.53795 0.0656311 4
8.8358 -13.5025 -2.55579 0.361647 10
8.83589 -13.5027 -1.98134 0.363422 10
8.83598 -13.5028 -1.4118 0.364754 10
8.83607 -13.5029 -0.845708 0.365642 10
8.83615 -13.5031 -0.281676 0.366085 10
8.83624 -13.5032 0.281679 0.366081 10
8.83632 -13.5033 0.845733 0.365632 10
8.83641 -13.5035 1.41187 0.28439 10
8.8365 -13.5036 1.98148 0.283345 10
8.83659 -13.5037 2.55601 0.281956 10
8.83667 -13.5039 3.13694 0.280223 10
8.83676 -13.504 3.72583 0.278148 10
8.83686 -13.5041 4.3243 0.275735 10
5.40303 -8.19413 -2.62995 0.0582658 4
6.0522 -9.17864 -2.53825 0.0685385 4
7.18739 -10.9002 -2.53794 0.0559408 4
8.95219 -13.5767 -2.57573 0.358847 10
8.95228 -13.5768 -1.9968 0.360609 10
8.98687 -13.6293 -1.4283 0.534749 10
8.9868 -13.6292 -0.855576 0.536061 10
8.98672 -13.6291 -0.284958 0.536719 10
8.98665 -13.629 0.284955 0.536724 10
8.98657 -13.6289 0.855555 0.536074 10
8.9528 -13.5776 1.42288 0.282188 10
8.9529 -13.5778 1.99694 0.281152 10
8.95298 -13.5779 2.57595 0.279773 10
8.95307 -13.578 3.16142 0.278053 10
8.95317 -13.5782 3.7549 0.275995 10
8.95326 -13.5783 4.35804 0.2736 10
5.46128 -8.21988 -2.64432 0.0507455 4
6.08418 -9.15743 -2.53825 0.0784041 4
7.22537 -10.875 -2.53793 0.0647506 4
9.0704 -13.6521 -2.59601 0.356043 10
9.07049 -13.6522 -2.01253 0.357791 10
9.07058 -13.6523 -1.43402 0.237196 10
9.07067 -13.6525 -0.859019 0.237774 10
9.07076 -13.6526 -0.28611 0.238061 10
9.07085 -13.6527 0.286112 0.238059 10
9.07094 -13.6529 0.859045 0.237767 10
9.07103 -13.653 1.43409 0.279983 10
9.07112 -13.6531 2.01267 0.278955 10
9.07122 -13.6533 2.59624 0.277586 10
9.07131 -13.6534 3.18632 0.27588 10
9.0714 -13.6536 3.78448 0.273838 10
9.0715 -13.6537 4.39237 0.271462 10
5.50361 -8.2212 -2.65091 0.0256862 4
6.11609 -9.13611 -2.53824 0.0742504 4
7.26326 -10.8497 -2.53792 0.060346 4
9.19049 -13.7286 -2.61665 0.353235 10
9.19058 -13.7287 -2.02853 0.354969 10
9.21779 -13.7694 -1.44968 0.536405 10
9.21771 -13.7693 -0.868387 0.537721 10
9.21763 -13.7691 -0.289225 0.538381 10
9.21756 -13.769 0.289222 0.538386 10
9.21748 -13.7689 0.868365 0.537734 10
9.19113 -13.7296 1.44549 0.277774 10
9.19123 -13.7297 2.02867 0.276754 10
9.19132 -13.7298 2.61689 0.275397 10
9.19141 -13.73 3.21166 0.273704 10
9.19151 -13.7301 3.81457 0.271678 10
9.19161 -13.7303 4.42729 0.26932 10
5.53226 -8.20191 -2.6509 0.130821 4
6.14793 -9.11468 -2.53823 0.0524428 4
7.30106 -10.8243 -2.53791 0.0458103 4
9.31251 -13.8064 -2.63765 0.350422 10
9.3126 -13.8065 -2.04481 0.352142 10
9.41631 -13.9603 -1.47323 0.537223 10
9.41623 -13.9601 -0.882493 0.538541 10
9.41615 -13.96 -0.293923 0.539202 10
9.41607 -13.9599 0.29392 0.539207 10
9.41599 -13.9598 0.882471 0.538554 10
9.31317 -13.8073 1.45709 0.275562 10
9.31326 -13.8075 2.04496 0.27455 10
9.31336 -13.8076 2.63789 0.273204 10
9.31346 -13.8078 3.23744 0.271524 10
9.31355 -13.8079 3.84519 0.269514 10
9.31365 -13.8081 4.46283 0.267175 10
5.56084 -8.18253 -2.65089 0.070488 4
6.17969 -9.09314 -2.53822 0.0664623 4
7.33877 -10.7987 -2.5379 0.0669537 4
9.4365 -13.8854 -2.65903 0.347605 10
9.4366 -13.8855 -2.06138 0.349311 10
9.4507 -13.9063 -1.47101 0.538035 10
9.45062 -13.9062 -0.881162 0.539354 10
9.45055 -13.9061 -0.29348 0.540017 10
9.45047 -13.9059 0.293477 0.540021 10
9.45039 -13.9058 0.88114 0.539368 10
9.43717 -13.8864 1.4689 0.273347 10
9.43727 -13.8865 2.06153 0.272343 10
9.43737 -13.8867 2.65927 0.271007 10
9.43747 -13.8868 3.26368 0.269341 10
9.43757 -13.887 3.87636 0.267347 10
9.43767 -13.8871 4.49901 0.265027 10
5.58936 -8.16305 -2.65089 0.0812406 4
6.21137 -9.07148 -2.53822 0.0695779 4
7.3764 -10.773 -2.53789 0.0625491 4
9.56252 -13.9657 -2.68079 0.344784 10
9.56263 -13.9659 -2.07825 0.346476 10
9.65082 -14.0947 -1.49449 0.53884 10
9.65074 -14.0946 -0.895227 0.540161 10
9.65066 -14.0944 -0.298164 0.540825 10
9.65058 -14.0943 0.298162 0.540829 10
9.6505 -14.0942 0.895205 0.540175 10
9.52145 -13.9057 1.47446 0.636096 10
9.52137 -13.9056 2.06928 0.633771 10
9.52129 -13.9055 2.66923 0.630675 10
9.52121 -13.9054 3.27583 0.62681 10
9.56362 -13.9673 3.90808 0.265177 10
9.56372 -13.9675 4.53583 0.262876 10
5.6178 -8.14347 -2.65088 0.0358415 4
6.24298 -9.04972 -2.53821 0.0659435 4
7.41393 -10.7471 -2.53789 0.0502156 4
9.69063 -14.0474 -2.70294 0.341959 10
9.69073 -14.0475 -2.09542 0.343637 10
9.69083 -14.0477 -1.49308 0.227813 10
9.69094 -14.0478 -0.894402 0.228367 10
9.69103 -14.048 -0.297895 0.228644 10
9.69113 -14.0481 0.297898 0.228641 10
9.69124 -14.0482 0.89443 0.22836 10
9.55577 -13.8519 1.47227 0.637038 10
9.55569 -13.8518 2.06622 0.634711 10
9.55561 -13.8516 2.66528 0.631609 10
9.55553 -13.8515 3.27098 0.627739 10
9.69174 -14.049 3.94037 0.263004 10
9.69185 -14.0491 4.57331 0.260722 10
5.64618 -8.12379 -2.65087 0.0340495 4
6.27452 -9.02785 -2.5382 0.0685399 4
7.45138 -10.7211 -2.53788 0.0568232 4
9.82087 -14.1304 -2.72549 0.339129 10
9.82098 -14.1305 -2.11291 0.340793 10
9.88731 -14.226 -1.5157 0.54043 10
9.88723 -14.2259 -0.90793 0.541756 10
9.88715 -14.2257 -0.302395 0.542421 10
9.88707 -14.2256 0.302392 0.542426 10
9.88698 -14.2255 0.907907 0.541769 10
9.58999 -13.7982 1.47012 0.637973 10
9.58991 -13.7981 2.06319 0.635642 10
9.58983 -13.798 2.66137 0.632536 10
9.58975 -13.7978 3.26619 0.62866 10
9.82201 -14.132 3.97325 0.260827 10
9.82212 -14.1322 4.61147 0.258564 10
5.67449 -8.10401 -2.65087 0.0525678 4
6.30597 -9.00586 -2.53819 0.0649053 4
7.48873 -10.695 -2.53787 0.0537399 4
9.87454 -14.1023 -2.72671 0.0595045 1
9.95341 -14.2149 -2.13071 0.337946 10
9.95352 -14.2151 -1.51823 0.22404 10
9.95362 -14.2153 -0.909465 0.224585 10
9.95373 -14.2154 -0.302912 0.224857 10
9.95383 -14.2155 0.302915 0.224854 10
9.95394 -14.2157 0.909493 0.224578 10
9.62412 -13.7447 1.46798 0.6389 10
9.62403 -13.7445 2.0602 0.636566 10
9.62395 -13.7444 2.65751 0.633455 10
9.62387 -13.7443 3.26145 0.629573 10
9.95447 -14.2165 4.00674 0.258648 10
9.95458 -14.2166 4.65033 0.256403 10
5.70273 -8.08414 -2.65086 0.104539 4
6.33735 -8.98377 -2.53819 0.0607516 4
7.52599 -10.6688 -2.53786 0.0625499 4
9.92367 -14.0677 -2.72669 0.0595047 1
10.0881 -14.3008 -2.14884 0.335094 10
10.1258 -14.3542 -1.53685 0.541994 10
10.1257 -14.3541 -0.920603 0.543324 10
10.1256 -14.354 -0.306616 0.543991 10
10.1255 -14.3538 0.306613 0.543995 10
10.1254 -14.3537 0.92058 0.543337 10
9.65814 -13.6913 1.46587 0.639819 10
9.65806 -13.6912 2.05724 0.637481 10
9.65798 -13.6911 2.65369 0.634367 10
9.65789 -13.6909 3.25676 0.630479 10
9.65781 -13.6908 3.86807 0.625824 10
10.0893 -14.3025 4.68991 0.254239 10
5.7309 -8.06416 -2.65085 0.0412182 4
6.36866 -8.96157 -2.53818 0.0768484 4
7.56316 -10.6424 -2.53785 0.0656336 4
9.97267 -14.0329 -2.72668 0.059505 1
10.2251 -14.3881 -2.16732 0.332238 10
10.3301 -14.5359 -1.56016 0.542766 10
10.3301 -14.5358 -0.934564 0.544098 10
10.33 -14.5357 -0.311266 0.544766 10
10.3299 -14.5356 0.311263 0.54477 10
10.3298 -14.5354 0.934541 0.544111 10
9.69207 -13.6381 1.46379 0.640731 10
9.69198 -13.6379 2.05432 0.63839 10
9.6919 -13.6378 2.64992 0.63527 10
9.69182 -13.6377 3.25213 0.631377 10
9.69174 -13.6376 3.86257 0.626715 10
10.1888 -14.337 4.71288 0.179539 10
5.759 -8.04409 -2.65085 0.114694 4
6.39988 -8.93926 -2.53817 0.0685406 4
7.60024 -10.6159 -2.53784 0.0599074 4
10.0216 -13.998 -2.72667 0.0595052 1
10.3645 -14.477 -2.18613 0.329378 10
10.3662 -14.4794 -1.55796 0.543532 10
10.3661 -14.4792 -0.933247 0.544865 10
10.366 -14.4791 -0.310827 0.545534 10
10.3659 -14.479 0.310824 0.545539 10
10.3658 -14.4789 0.933224 0.544878 10
10.3656 -14.4785 4.11097 0.25209 10
10.2388 -14.3014 4.71289 0.179539 10
5.78703 -8.02392 -2.65084 0.0298684 4
6.43595 -8.92367 -2.54011 0.234974 4
7.63722 -10.5893 -2.53783 0.0603481 4
10.0703 -13.9628 -2.72666 0.0595055 1
10.5063 -14.5674 -2.20531 0.326514 10
14.8211 -20.5499 0.442259 0.827069 10
11.7566 -16.3009 1.0533 0.0468534 10
10.5075 -14.5689 4.14703 0.249898 10
10.2887 -14.2656 4.7129 0.179538 10
5.81499 -8.00365 -2.65084 0.0633211 4
6.5074 -8.95667 -2.55595 0.271758 4
7.67411 -10.5625 -2.53783 0.0528598 4
10.1189 -13.9275 -2.72665 0.0595057 1
10.6506 -14.6593 -2.22485 0.323646 10
14.8722 -20.4698 0.441648 0.828212 10
11.8136 -16.26 1.05332 0.0468528 10
10.6518 -14.661 4.18378 0.247702 10
10.3384 -14.2297 4.71291 0.179538 10
5.84288 -7.98328 -2.65083 0.0800477 4
6.57972 -8.99005 -2.57202 0.19289 4
7.71091 -10.5356 -2.53782 0.072242 4
10.1675 -13.8921 -2.72664 0.059506 1
10.7976 -14.753 -2.24477 0.320774 10
14.9662 -20.4488 -2.21701 0.826295 10
14.9661 -20.4486 -1.32803 0.828321 10
14.966 -20.4484 -0.442313 0.829338 10
14.9231 -20.3898 0.441045 0.829345 10
11.8704 -16.2189 1.05333 0.0468522 10
10.7988 -14.7546 4.22124 0.245504 10
10.3881 -14.1935 4.71292 0.179538 10
5.87069 -7.96282 -2.65082 0.0830347 4
6.65293 -9.02382 -2.58831 0.272393 4
7.74761 -10.5086 -2.53781 0.0634322 4
10.2158 -13.8564 -2.72663 0.0595062 1
10.9471 -14.8483 -2.26508 0.317899 10
11.1704 -15.1511 -1.64687 0.0777305 10
14.9739 -20.3101 0.440449 0.830468 10
11.9271 -16.1775 1.05334 0.0468516 10
11.0591 -15.0003 1.63047 0.158806 10
11.0593 -15.0004 2.28828 0.158223 10
11.0594 -15.0006 2.95177 0.157447 10
11.0595 -15.0008 3.62266 0.156478 10
10.9484 -14.85 4.25943 0.243303 10
10.4376 -14.1572 4.71293 0.179537 10
5.89844 -7.94226 -2.65082 0.0800481 4
6.72705 -9.05799 -2.60483 0.256425 4
7.78422 -10.4815 -2.5378 0.0669565 4
10.2641 -13.8206 -2.72662 0.0595065 1
11.0994 -14.9454 -2.28578 0.315019 10
11.2231 -15.112 -1.64686 0.077731 10
15.0246 -20.2306 0.439859 0.83158 10
11.9837 -16.136 1.05336 0.0468511 10
11.1002 -14.9464 1.62882 0.157367 10
11.1003 -14.9466 2.28596 0.156789 10
11.1004 -14.9468 2.94878 0.15602 10
11.1006 -14.9469 3.61899 0.155061 10
11.1007 -14.9471 4.29837 0.241099 10
10.4987 -14.1366 4.71823 0.239006 10
5.92611 -7.9216 -2.65081 0.114696 4
6.8021 -9.09256 -2.62158 0.256718 4
7.82074 -10.4542 -2.53779 0.0621111 4
10.3123 -13.7847 -2.7266 0.0595067 1
11.2546 -15.0443 -2.3069 0.312136 10
11.2757 -15.0726 -1.64684 0.0777316 10
15.0751 -20.1513 0.439277 0.832683 10
12.0401 -16.0943 1.05337 0.0468505 10
11.1563 -14.9129 1.6294 0.646892 10
11.1562 -14.9128 2.28674 0.644528 10
11.1561 -14.9127 2.94972 0.641379 10
11.156 -14.9125 3.62007 0.637448 10
11.2558 -15.046 4.33809 0.238892 10
10.6455 -14.2301 4.76182 0.236818 10
5.7012 -7.56575 -2.53837 0.087217 4
6.8781 -9.12755 -2.63858 0.273325 4
7.85716 -10.4268 -2.53778 0.0678379 4
10.3603 -13.7485 -2.72659 0.0595069 1
11.4126 -15.145 -2.32843 0.309248 10
11.4127 -15.1452 -1.65912 0.310381 10
15.1255 -20.0723 0.438701 0.833776 10
12.0963 -16.0524 1.05338 0.0468499 10
11.1936 -14.8544 1.62726 0.647741 10
11.1935 -14.8543 2.28374 0.645374 10
11.1934 -14.8542 2.94586 0.64222 10
11.1933 -14.854 3.61533 0.638284 10
11.4139 -15.1467 4.37859 0.236682 10
10.7949 -14.3254 4.80629 0.234628 10
5.72756 -7.54578 -2.53837 0.0681011 4
6.94123 -9.14474 -2.65053 0.0830814 4
7.89347 -10.3993 -2.53778 0.0524204 4
9.68554 -12.7602 -2.53728 0.0444299 4
11.5736 -15.2476 -2.35041 0.306357 10
11.5737 -15.2478 -1.67477 0.30748 10
12.1594 -16.0194 -1.054 0.833827 10
12.1593 -16.0193 -0.351044 0.834851 10
12.1592 -16.0191 0.351041 0.834858 10
12.1524 -16.0102 1.05339 0.0468493 10
11.2308 -14.796 1.62515 0.648581 10
11.2307 -14.7959 2.28078 0.646211 10
11.2306 -14.7958 2.94204 0.643054 10
11.2305 -14.7957 3.61064 0.639113 10
11.5749 -15.2494 4.41992 0.234469 10
11.2303 -14.7954 4.97711 0.628901 10
5.75385 -7.52573 -2.53836 0.056751 4
6.97309 -9.12043 -2.65053 0.0690616 4
7.9297 -10.3716 -2.53777 0.0718029 4
9.72999 -12.7263 -2.53727 0.0364833 4
11.7376 -15.3522 -2.37283 0.303463 10
11.7378 -15.3523 -1.69075 0.304574 10
12.1995 -15.9564 -1.05265 0.834898 10
12.1994 -15.9562 -0.350594 0.835923 10
12.1994 -15.9561 0.350591 0.83593 10
12.1993 -15.956 1.05262 0.834918 10
11.2679 -14.7378 1.62307 0.649414 10
11.2678 -14.7377 2.27785 0.647041 10
11.2677 -14.7376 2.93827 0.64388 10
11.2676 -14.7374 3.60601 0.639934 10
11.739 -15.354 4.46209 0.232253 10
11.2674 -14.7372 4.97073 0.629709 10
5.78007 -7.50558 -2.53836 0.0890097 4
7.00487 -9.09601 -2.65052 0.0758122 4
7.96583 -10.3438 -2.53776 0.0537422 4
9.77431 -12.6922 -2.53726 0.0534609 4
11.9048 -15.4588 -2.39571 0.300564 10
11.905 -15.4589 -1.70705 0.301665 10
12.2396 -15.8935 -1.05131 0.835958 10
12.2395 -15.8934 -0.350149 0.836985 10
12.2394 -15.8932 0.350146 0.836992 10
12.2393 -15.8931 1.05128 0.835979 10
11.3049 -14.6797 1.62101 0.650239 10
11.3048 -14.6796 2.27496 0.647863 10
11.3047 -14.6795 2.93454 0.644697 10
11.3046 -14.6794 3.60144 0.640747 10
11.9063 -15.4606 4.50512 0.230034 10
11.3044 -14.6791 4.96442 0.630508 10
5.80622 -7.48534 -2.53835 0.0824387 4
7.03656 -9.07148 -2.65051 0.0264824 4
8.00186 -10.3159 -2.53775 0.0638742 4
9.81852 -12.658 -2.53725 0.051655 4
12.0753 -15.5674 -2.41907 0.297662 10
12.0755 -15.5676 -1.7237 0.298753 10
12.2796 -15.8308 -1.04999 0.837009 10
12.2795 -15.8306 -0.34971 0.838037 10
12.2794 -15.8305 0.349707 0.838044 10
12.2793 -15.8304 1.04997 0.837029 10
12.0762 -15.5685 1.7238 0.232927 10
12.2205 -15.7546 2.44815 0.414103 10
12.2204 -15.7545 3.15794 0.41208 10
11.8347 -15.2572 3.7533 0.132326 10
12.0768 -15.5693 4.54905 0.227813 10
12.0769 -15.5695 5.27976 0.225836 10
5.84192 -7.47732 -2.54253 0.0810535 4
7.06816 -9.04684 -2.65051 0.0488109 4
8.0378 -10.2879 -2.53774 0.0546236 4
9.8626 -12.6236 -2.53724 0.0462368 4
12.2492 -15.6782 -2.44292 0.294756 10
12.2493 -15.6784 -1.74069 0.295836 10
12.3195 -15.7682 -1.04869 0.838049 10
12.3194 -15.7681 -0.349276 0.839078 10
12.3193 -15.768 0.349272 0.839085 10
12.3192 -15.7678 1.04866 0.83807 10
12.2501 -15.6794 1.7408 0.230653 10
12.2994 -15.7425 2.45293 0.414618 10
12.2993 -15.7424 3.1641 0.412592 10
11.8879 -15.2158 3.75331 0.132326 10
12.2507 -15.6801 4.5939 0.225589 10
12.2508 -15.6803 5.33182 0.223631 10
5.91402 -7.51538 -2.56248 0.0463467 4
7.09968 -9.02208 -2.6505 0.0763321 4
8.07363 -10.2598 -2.53773 0.0673987 4
9.90657 -12.589 -2.53723 0.0502105 4
12.4265 -15.7912 -2.46727 0.291847 10
12.4266 -15.7914 -1.75805 0.292916 10
12.4268 -15.7916 -1.05312 0.293628 10
12.4269 -15.7918 -0.35076 0.293983 10
12.4271 -15.792 0.350764 0.293979 10
12.4272 -15.7922 1.05316 0.293618 10
12.4274 -15.7924 1.75815 0.228376 10
12.4275 -15.7926 2.46748 0.227537 10
12.4277 -15.7928 3.18293 0.226421 10
11.941 -15.1743 3.75333 0.132326 10
12.428 -15.7932 4.6397 0.223362 10
12.4282 -15.7934 5.38498 0.221423 10
5.98766 -7.55455 -2.58294 0.183651 4
7.13111 -8.99722 -2.65049 0.0566002 4
8.10937 -10.2315 -2.53773 0.054624 4
9.95041 -12.5543 -2.53722 0.0469596 4
12.6074 -15.9065 -2.49214 0.288934 10
12.6075 -15.9067 -1.77577 0.289992 10
12.6077 -15.9069 -1.06374 0.290698 10
12.6078 -15.9071 -0.354297 0.291049 10
12.608 -15.9073 0.354301 0.291045 10
12.6081 -15.9075 1.06378 0.226652 10
12.6083 -15.9077 1.77588 0.226097 10
12.6084 -15.9079 2.49236 0.225266 10
12.6086 -15.9081 3.21503 0.224161 10
11.9939 -15.1325 3.75334 0.132325 10
12.6089 -15.9085 4.68648 0.221132 10
12.6091 -15.9087 5.43928 0.219213 10
6.06205 -7.5938 -2.60358 0.267024 4
7.16245 -8.97225 -2.65048 0.132414 4
8.14501 -10.2031 -2.53772 0.0471354 4
9.99414 -12.5194 -2.53721 0.0444312 4
12.7919 -16.0242 -2.51756 0.286017 10
12.7921 -16.0244 -1.79388 0.287065 10
12.7922 -16.0246 -1.07459 0.287763 10
12.7924 -16.0248 -0.357909 0.288111 10
12.7926 -16.025 0.357913 0.288107 10
12.7927 -16.0252 1.07463 0.224364 10
12.7929 -16.0254 1.79399 0.223814 10
12.793 -16.0256 2.51777 0.222992 10
12.7932 -16.0258 3.24781 0.221898 10
12.0995 -15.1567 3.76979 0.220533 10
12.7935 -16.0262 4.73428 0.2189 10
12.7937 -16.0264 5.49475 0.217 10
6.13762 -7.63365 -2.62458 0.295798 4
7.19371 -8.94717 -2.65048 0.0275213 4
8.18055 -10.1746 -2.53771 0.0647563 4
10.0377 -12.4844 -2.5372 0.0480437 4
12.9803 -16.1442 -2.54352 0.283097 10
12.9805 -16.1444 -1.81238 0.284135 10
15.5735 -19.3695 0.433824 0.843149 10
12.9811 -16.1452 1.08571 0.222074 10
12.9813 -16.1455 1.81249 0.221529 10
12.8744 -16.0125 2.52276 0.652629 10
12.8743 -16.0124 3.25418 0.64944 10
12.2777 -15.2703 3.80868 0.218281 10
12.9819 -16.1463 4.78311 0.216665 10
12.9821 -16.1465 5.55143 0.214784 10
6.21439 -7.67414 -2.64594 0.278568 4
7.22487 -8.92198 -2.65047 0.024925 4
8.21599 -10.1459 -2.5377 0.0506598 4
10.0812 -12.4493 -2.53719 0.0502113 4
13.1726 -16.2668 -2.57006 0.280174 10
13.1728 -16.267 -1.83129 0.281201 10
15.6226 -19.2924 0.433315 0.844139 10
13.1734 -16.2678 1.09704 0.21978 10
13.1736 -16.268 1.8314 0.219242 10
12.915 -15.9487 2.5198 0.653395 10
12.9149 -15.9486 3.25036 0.650203 10
12.4595 -15.3863 3.84842 0.216027 10
13.1743 -16.2689 4.83302 0.214427 10
13.1744 -16.2691 5.60936 0.212566 10
6.29242 -7.71527 -2.66767 0.281059 4
7.25595 -8.89668 -2.65046 0.101778 4
8.25133 -10.1171 -2.53769 0.0453737 4
10.1246 -12.4139 -2.53718 0.032511 4
13.3689 -16.392 -2.59719 0.277247 10
13.3691 -16.3922 -1.85062 0.278263 10
13.695 -16.7917 -1.13558 0.557534 10
13.6948 -16.7915 -0.378217 0.558218 10
13.6947 -16.7914 0.378214 0.558223 10
13.3698 -16.393 1.10862 0.217484 10
13.37 -16.3932 1.85074 0.216951 10
12.9556 -15.8851 2.51688 0.654154 10
12.9555 -15.885 3.24659 0.650958 10
13.3705 -16.3939 4.11209 0.21377 10
13.3707 -16.3941 4.88405 0.212187 10
13.2413 -16.2355 5.61367 0.179531 10
6.37172 -7.75706 -2.6898 0.307731 4
7.28695 -8.87128 -2.65045 0.0913923 4
8.3067 -10.1127 -2.54385 0.209624 4
10.1678 -12.3785 -2.53717 0.0419032 4
13.5695 -16.5198 -2.62493 0.274317 10
13.5697 -16.52 -1.87039 0.275322 10
13.7377 -16.7246 -1.13428 0.558174 10
13.7376 -16.7245 -0.377784 0.558859 10
13.7375 -16.7243 0.377781 0.558863 10
13.5704 -16.5208 1.12046 0.215186 10
13.5706 -16.5211 1.87051 0.214658 10
12.996 -15.8216 2.514 0.654904 10
12.9959 -15.8215 3.24287 0.651704 10
13.5711 -16.5217 4.15602 0.211511 10
13.5713 -16.5219 4.93623 0.209944 10
13.2979 -16.1892 5.61368 0.179531 10
6.45233 -7.79952 -2.71232 0.30585 4
7.31785 -8.84576 -2.65045 0.0654288 4
8.40534 -10.1603 -2.56318 0.272987 4
10.2109 -12.3429 -2.53716 0.0426259 4
13.7744 -16.6504 -2.65331 0.271384 10
13.7746 -16.6506 -1.89061 0.272378 10
13.7804 -16.6576 -1.133 0.558806 10
13.7803 -16.6575 -0.377356 0.559493 10
13.7802 -16.6574 0.377353 0.559497 10
13.7753 -16.6515 1.13258 0.212884 10
13.7755 -16.6517 1.89073 0.212362 10
13.0364 -15.7583 2.51115 0.655647 10
13.0363 -15.7582 3.2392 0.652443 10
13.776 -16.6523 4.20095 0.209249 10
13.7762 -16.6526 4.98959 0.207699 10
13.3544 -16.1427 5.61369 0.17953 10
6.51617 -7.82096 -2.72766 0.0984149 1
7.34866 -8.82014 -2.65044 0.0586783 4
8.50546 -10.2086 -2.58283 0.301806 4
10.2539 -12.3071 -2.53715 0.044071 4
13.9837 -16.7838 -2.68233 0.268447 10
13.9839 -16.784 -1.91129 0.26943 10
14.0044 -16.8086 -1.14658 0.559433 10
14.0043 -16.8084 -0.381881 0.56012 10
14.0042 -16.8083 0.381877 0.560124 10
13.9847 -16.7849 1.14497 0.21058 10
13.9849 -16.7851 1.91142 0.210064 10
13.8829 -16.6628 2.66299 0.656382 10
13.8828 -16.6626 3.43506 0.653174 10
13.9854 -16.7858 4.24691 0.206984 10
13.9856 -16.7861 5.04419 0.205451 10
13.4107 -16.096 5.61371 0.17953 10
6.54342 -7.79815 -2.72766 0.0984152 1
7.0664 -8.42141 -2.53802 0.0732183 4
8.6071 -10.2575 -2.6028 0.222493 4
10.2967 -12.2712 -2.53714 0.0437099 4
14.1977 -16.9202 -2.71204 0.265507 10
14.1979 -16.9204 -1.93246 0.266479 10
14.2294 -16.9579 -1.16015 0.560052 10
14.2293 -16.9578 -0.386399 0.56074 10
14.2291 -16.9576 0.386396 0.560744 10
14.1987 -16.9213 1.15765 0.208274 10
14.1989 -16.9216 1.93258 0.207763 10
13.9255 -16.5958 2.66004 0.657108 10
13.9254 -16.5957 3.43126 0.653898 10
14.1995 -16.9223 4.29395 0.204717 10
14.1997 -16.9225 5.10005 0.2032 10
13.4668 -16.0492 5.61372 0.179529 10
6.57059 -7.77524 -2.72765 0.0984154 1
7.09574 -8.39667 -2.53801 0.0659486 4
8.71029 -10.3072 -2.62311 0.122591 4
10.3395 -12.2351 -2.53713 0.0505737 4
14.3278 -16.9546 -2.72555 0.0463763 1
14.4167 -17.0599 -1.95412 0.263525 10
14.4554 -17.1057 -1.1737 0.560664 10
14.4553 -17.1055 -0.390913 0.561353 10
14.4552 -17.1054 0.39091 0.561357 10
14.4175 -17.0608 1.17063 0.205965 10
14.4177 -17.0611 1.95425 0.20546 10
13.9681 -16.529 2.65714 0.657827 10
13.968 -16.5289 3.42751 0.654613 10
14.4183 -17.0618 4.34209 0.202447 10
14.4185 -17.062 5.15723 0.200948 10
13.6367 -16.1368 5.66099 0.199203 10
6.59767 -7.75224 -2.72764 0.0984156 1
7.12499 -8.37183 -2.53801 0.0773729 4
8.81507 -10.3577 -2.64376 0.257686 4
10.3821 -12.1989 -2.53713 0.0419041 4
14.3868 -16.9044 -2.72554 0.0463765 1
14.6405 -17.2025 -1.9763 0.260568 10
14.6824 -17.2518 -1.18724 0.56127 10
14.6823 -17.2517 -0.395422 0.561959 10
14.6822 -17.2515 0.395418 0.561964 10
14.6413 -17.2035 1.18391 0.203653 10
14.6415 -17.2037 1.97643 0.203154 10
14.0106 -16.4624 2.65427 0.658537 10
14.0105 -16.4623 3.42381 0.65532 10
14.6421 -17.2044 4.39137 0.200175 10
14.6423 -17.2047 5.21577 0.198692 10
13.8483 -16.2717 5.72525 0.196967 10
6.62468 -7.72915 -2.72764 0.0984158 1
7.15414 -8.34689 -2.538 0.0690646 4
8.87216 -10.3513 -2.65003 0.0546259 4
10.4246 -12.1626 -2.53712 0.0484066 4
14.4456 -16.854 -2.72552 0.0463767 1
14.8694 -17.3484 -1.99901 0.257607 10
14.9105 -17.3964 -1.20076 0.561869 10
14.9104 -17.3962 -0.399926 0.562559 10
14.9102 -17.3961 0.399922 0.562563 10
14.8702 -17.3494 1.19752 0.201339 10
14.8704 -17.3496 1.99915 0.200846 10
14.064 -16.4088 2.65353 0.200107 10
14.0642 -16.409 3.42294 0.199125 10
14.871 -17.3503 4.44184 0.1979 10
14.8713 -17.3506 5.27572 0.196435 10
14.0649 -16.4098 5.79105 0.194729 10
6.6516 -7.70596 -2.72763 0.0984161 1
7.20199 -8.34359 -2.54463 0.300088 4
8.90821 -10.3203 -2.65003 0.0497802 4
10.4669 -12.126 -2.53711 0.0458781 4
14.5043 -16.8034 -2.72551 0.046377 1
15.1036 -17.4977 -2.02227 0.254644 10
15.1395 -17.5393 -1.21427 0.562461 10
15.1394 -17.5392 -0.404425 0.563151 10
15.1393 -17.539 0.404421 0.563156 10
15.1045 -17.4987 1.21146 0.199023 10
15.0428 -17.4273 2.01414 0.0603726 10
14.5046 -16.8037 2.72556 0.659934 10
14.5044 -16.8036 3.51577 0.65671 10
15.1053 -17.4997 4.49355 0.195623 10
15.1055 -17.4999 5.33712 0.194174 10
14.5041 -16.8031 5.94771 0.642256 10
6.67844 -7.68267 -2.72763 0.0984163 1
7.29811 -8.39552 -2.56822 0.300377 4
8.94415 -10.2891 -2.65002 0.0863447 4
10.5091 -12.0894 -2.5371 0.0447945 4
14.5628 -16.7526 -2.7255 0.0463772 1
15.3434 -17.6505 -2.04611 0.251677 10
16.1085 -18.5308 -1.28679 0.852421 10
16.1084 -18.5306 -0.42858 0.853468 10
16.1083 -18.5305 0.428576 0.853474 10
15.3442 -17.6515 1.22574 0.196704 10
15.1037 -17.3748 2.01415 0.0603722 10
14.548 -16.7355 2.72273 0.660621 10
14.5479 -16.7354 3.51212 0.657393 10
15.3451 -17.6525 4.54652 0.193344 10
15.3453 -17.6528 5.40005 0.191912 10
14.5475 -16.735 5.94153 0.642924 10
6.7052 -7.6593 -2.72762 0.0984165 1
7.39601 -8.4484 -2.59228 0.276344 4
8.97999 -10.2578 -2.65001 0.0674019 4
10.5512 -12.0526 -2.53709 0.0458784 4
14.6211 -16.7016 -2.72548 0.0463774 1
15.5888 -17.807 -2.07054 0.248707 10
16.1565 -18.4555 -1.28547 0.853296 10
16.1564 -18.4553 -0.42814 0.854344 10
16.1563 -18.4552 0.428136 0.854351 10
15.5897 -17.808 1.24038 0.194383 10
15.1643 -17.3221 2.01416 0.0603718 10
15.4148 -17.6082 2.87343 0.661299 10
15.4147 -17.608 3.70651 0.658068 10
15.5906 -17.809 4.60082 0.191062 10
15.5909 -17.8093 5.46454 0.189647 10
15.4143 -17.6076 6.27039 0.643585 10
6.73189 -7.63583 -2.72761 0.0984167 1
7.49575 -8.50226 -2.61681 0.303157 4
9.01571 -10.2263 -2.65 0.0806182 4
10.5932 -12.0156 -2.53708 0.0433498 4
14.6792 -16.6503 -2.72547 0.0463777 1
15.8402 -17.9672 -2.09559 0.245734 10
16.2044 -18.3803 -1.28417 0.854161 10
16.2043 -18.3802 -0.427706 0.85521 10
16.2042 -18.38 0.427702 0.855217 10
15.8412 -17.9683 1.25538 0.192059 10
15.2248 -17.2692 2.01418 0.0603714 10
15.4605 -17.5365 2.87052 0.66197 10
15.4604 -17.5363 3.70276 0.658735 10
15.8421 -17.9693 4.65649 0.188778 10
15.8423 -17.9696 5.53066 0.18738 10
15.46 -17.5359 6.26404 0.644237 10
6.75848 -7.61227 -2.72761 0.0984169 1
7.59737 -8.55712 -2.64185 0.18162 4
9.05132 -10.1948 -2.64999 0.0819401 4
10.635 -11.9785 -2.53707 0.0281775 4
14.7372 -16.5989 -2.72546 0.0463779 1
16.0978 -18.1314 -2.12128 0.242758 10
16.2522 -18.3053 -1.28289 0.855016 10
16.2521 -18.3052 -0.427279 0.856066 10
16.252 -18.305 0.427275 0.856073 10
16.0987 -18.1325 1.27077 0.189733 10
15.2851 -17.216 2.01419 0.060371 10
15.5061 -17.4649 2.86765 0.662632 10
15.506 -17.4648 3.69906 0.659394 10
16.0997 -18.1335 4.71357 0.186492 10
16.0999 -18.1338 5.59846 0.18511 10
15.5056 -17.4644 6.25778 0.644881 10
6.78479 -7.58837 -2.72752 0.0257128 4
7.70093 -8.61302 -2.66739 0.310367 4
9.08683 -10.1631 -2.64998 0.0546269 4
10.6768 -11.9413 -2.53706 0.0509364 4
14.795 -16.5473 -2.72544 0.0463781 1
16.3618 -18.2996 -2.14764 0.23978 10
16.362 -18.2999 -1.2865 0.240362 10
16.3623 -18.3002 -0.428493 0.240652 10
16.3625 -18.3005 0.428499 0.240648 10
16.3627 -18.3007 1.28656 0.187405 10
15.4755 -17.3084 2.0313 0.186945 10
15.5516 -17.3935 2.86482 0.663286 10
15.5515 -17.3934 3.69541 0.660045 10
16.3637 -18.3018 4.77214 0.184203 10
16.364 -18.3021 5.66802 0.182838 10
15.5511 -17.3929 6.25161 0.645518 10
6.79152 -7.54275 -2.71962 0.0208738 4
7.8065 -8.67 -2.69345 0.20192 4
9.12222 -10.1313 -2.64998 0.0916325 4
10.7183 -11.9039 -2.53705 0.0458791 4
13.8214 -15.3502 -2.53621 0.0430733 4
16.6324 -18.4721 -2.17468 0.236798 10
16.6326 -18.4724 -1.3027 0.237373 10
16.6329 -18.4727 -0.433889 0.237659 10
16.6331 -18.473 0.433895 0.237655 10
16.5138 -18.3404 1.2934 0.667991 10
16.5137 -18.3403 2.15916 0.666368 10
16.5135 -18.3401 3.03021 0.663932 10
16.6341 -18.4741 3.93733 0.183038 10
16.5133 -18.3398 4.79705 0.656639 10
16.5131 -18.3397 5.69747 0.65179 10
16.513 -18.3395 6.61252 0.646147 10
6.79812 -7.49728 -2.71177 0.0261839 4
7.91413 -8.72807 -2.72006 0.288714 4
9.1575 -10.0993 -2.64997 0.0326001 4
10.7598 -11.8664 -2.53704 0.0552719 4
13.8749 -15.3018 -2.5362 0.0332201 4
16.9099 -18.649 -2.20244 0.233814 10
16.9101 -18.6493 -1.31933 0.234382 10
16.9104 -18.6496 -0.439427 0.234664 10
16.9107 -18.6499 0.439434 0.234661 10
16.5618 -18.2651 1.29215 0.668633 10
16.5617 -18.265 2.15708 0.667008 10
16.5615 -18.2648 3.0273 0.66457 10
16.9117 -18.651 3.9876 0.180731 10
16.5613 -18.2645 4.79244 0.65727 10
16.5611 -18.2644 5.692 0.652416 10
16.561 -18.2642 6.60617 0.646768 10
6.80457 -7.45196 -2.70395 0.0246067 4
7.96565 -8.72351 -2.72729 0.0855486 1
9.19267 -10.0673 -2.64996 0.0828222 4
10.8011 -11.8287 -2.53703 0.0447957 4
13.9281 -15.2532 -2.53619 0.0365985 4
17.1946 -18.8305 -2.23094 0.230827 10
17.1948 -18.8308 -1.33641 0.231387 10
17.1951 -18.831 -0.445114 0.231666 10
17.1954 -18.8313 0.445121 0.231663 10
16.6097 -18.19 1.29093 0.669267 10
16.6096 -18.1898 2.15504 0.66764 10
16.6094 -18.1897 3.02443 0.6652 10
17.1964 -18.8325 4.03921 0.178422 10
16.6092 -18.1894 4.78791 0.657893 10
16.609 -18.1892 5.68661 0.653035 10
16.6089 -18.1891 6.59992 0.647381 10
6.81089 -7.40679 -2.69617 0.0197995 4
7.99604 -8.69563 -2.72728 0.0855488 1
9.22773 -10.0351 -2.64995 0.0475788 4
10.8423 -11.7909 -2.53702 0.0415445 4
13.9812 -15.2045 -2.53618 0.0363172 4
17.4867 -19.0167 -2.26022 0.227837 10
17.487 -19.017 -1.35395 0.22839 10
17.4873 -19.0173 -0.450957 0.228665 10
17.4875 -19.0176 0.450963 0.228661 10
16.6575 -18.1149 1.28973 0.669892 10
16.6574 -18.1148 2.15303 0.668264 10
16.6573 -18.1146 3.02161 0.665822 10
17.4886 -19.0188 4.09223 0.17611 10
16.657 -18.1143 4.78343 0.658508 10
16.6568 -18.1142 5.6813 0.653645 10
16.6567 -18.114 6.59375 0.647986 10
6.81708 -7.36177 -2.68843 0.0235619 4
8.02632 -8.66764 -2.72727 0.085549 1
8.86982 -9.57853 -2.53755 0.0541872 4
10.8946 -11.7651 -2.53963 0.284763 4
14.0341 -15.1555 -2.53616 0.0413849 4
17.7867 -19.2079 -2.29031 0.224843 10
17.787 -19.2082 -1.37197 0.225389 10
17.7872 -19.2085 -0.45696 0.225661 10
17.7875 -19.2088 0.456967 0.225657 10
17.9906 -19.4281 1.38768 0.428041 10
17.9905 -19.4279 2.31655 0.427 10
17.9903 -19.4278 3.2511 0.42544 10
17.7886 -19.21 4.14671 0.173796 10
16.8241 -18.1684 4.81318 0.172727 10
17.9899 -19.4273 6.11281 0.417659 10
17.9897 -19.4272 7.09456 0.414043 10
6.82312 -7.3169 -2.68073 0.024276 4
8.05651 -8.63955 -2.72727 0.0855492 1
8.90317 -9.54748 -2.53754 0.060355 4
11.0394 -11.8383 -2.56373 0.217819 4
14.0869 -15.1063 -2.53615 0.0394144 4
18.0947 -19.4042 -2.32124 0.221848 10
18.095 -19.4045 -1.3905 0.222386 10
18.0953 -19.4048 -0.463131 0.222654 10
18.0956 -19.4051 0.463138 0.22265 10
18.0959 -19.4054 1.39057 0.110688 10
18.0961 -19.4057 2.32142 0.110416 10
18.0964 -19.4061 3.25802 0.11001 10
18.0967 -19.4064 4.20271 0.17148 10
18.097 -19.4067 5.15794 0.108796 10
18.0973 -19.407 6.12626 0.10799 10
18.0976 -19.4074 7.11036 0.107052 10
6.82903 -7.27218 -2.67306 0.0217696 4
8.0866 -8.61135 -2.72726 0.0855494 1
8.93642 -9.51632 -2.53754 0.0607957 4
11.1869 -11.9128 -2.58832 0.228181 4
14.1395 -15.057 -2.53614 0.03491 4
18.4112 -19.6059 -2.35304 0.218849 10
18.4115 -19.6062 -1.40955 0.21938 10
18.4118 -19.6066 -0.469477 0.219644 10
18.4121 -19.6069 0.469484 0.219641 10
18.1567 -19.3349 1.39005 0.67172 10
18.1566 -19.3348 2.3205 0.670088 10
18.1564 -19.3346 3.25665 0.667639 10
18.4133 -19.6081 4.2603 0.169162 10
18.1561 -19.3343 5.15552 0.660305 10
18.156 -19.3342 6.12323 0.655429 10
18.1558 -19.334 7.10666 0.649754 10
6.83481 -7.22761 -2.66543 0.0302322 4
8.11659 -8.58305 -2.72725 0.0855496 1
8.96955 -9.48504 -2.53753 0.048901 4
11.3372 -11.9888 -2.61341 0.287493 4
14.1919 -15.0075 -2.53613 0.0326579 4
18.7364 -19.8132 -2.38576 0.215848 10
18.7367 -19.8136 -1.42915 0.216372 10
18.7371 -19.8139 -0.476004 0.216632 10
18.7374 -19.8142 0.476012 0.216629 10
18.208 -19.2545 1.38882 0.672313 10
18.2079 -19.2543 2.31846 0.67068 10
18.2077 -19.2541 3.25378 0.668228 10
18.7386 -19.8155 4.31954 0.166842 10
18.2074 -19.2538 5.15097 0.660888 10
18.2073 -19.2537 6.11783 0.656007 10
18.2071 -19.2535 7.10039 0.650328 10
6.84045 -7.18319 -2.65783 0.020558 4
8.14648 -8.55464 -2.72725 0.0855498 1
9.0794 -9.53431 -2.55917 0.355925 4
11.4905 -12.0662 -2.63901 0.250989 4
14.2441 -14.9578 -2.53612 0.0394149 4
19.0709 -20.0264 -2.41943 0.212844 10
19.0712 -20.0267 -1.44932 0.213361 10
19.0715 -20.0271 -0.482722 0.213617 10
19.0718 -20.0274 0.48273 0.213614 10
18.2592 -19.1741 1.38762 0.672898 10
18.2591 -19.1739 2.31644 0.671263 10
18.259 -19.1738 3.25095 0.66881 10
19.0731 -20.0288 4.38051 0.16452 10
18.2587 -19.1735 5.1465 0.661463 10
18.2585 -19.1733 6.11251 0.656578 10
18.2584 -19.1732 7.09422 0.650893 10
6.8468 -7.13978 -2.6506 0.0609371 4
8.17627 -8.52613 -2.72724 0.0855501 1
9.21509 -9.60941 -2.58795 0.244895 4
11.5776 -12.073 -2.64933 0.042268 4
14.2962 -14.9079 -2.5361 0.0275906 4
19.4149 -20.2457 -2.45409 0.209837 10
19.2511 -20.0749 -1.45766 0.863727 10
19.251 -20.0748 -0.485488 0.864788 10
19.4159 -20.2467 0.489646 0.210596 10
18.3631 -19.1489 1.39042 0.164001 10
18.3634 -19.1492 2.32118 0.163598 10
18.3637 -19.1495 3.25768 0.162997 10
19.4172 -20.2481 4.44328 0.162196 10
18.3644 -19.1502 5.15742 0.161198 10
18.3647 -19.1505 6.12564 0.160003 10
18.365 -19.1509 7.10965 0.158614 10
6.87166 -7.11582 -2.65059 0.0388325 4
8.20596 -8.49752 -2.72723 0.0855503 1
9.35383 -9.68618 -2.6174 0.298563 4
11.6197 -12.0325 -2.64932 0.0332365 4
14.348 -14.8578 -2.53609 0.0413861 4
19.7689 -20.4713 -2.48979 0.206828 10
19.3048 -19.9907 -1.45643 0.864456 10
19.3047 -19.9906 -0.485079 0.865517 10
19.7699 -20.4724 0.49677 0.207576 10
19.7703 -20.4727 1.49155 0.161649 10
19.3042 -19.9901 2.43127 0.672405 10
19.304 -19.9899 3.41209 0.669948 10
19.7713 -20.4738 4.50792 0.15987 10
19.7717 -20.4742 5.53253 0.158886 10
19.3036 -19.9895 6.4155 0.657695 10
19.3034 -19.9893 7.44587 0.652001 10
6.89645 -7.09177 -2.65059 0.109926 4
8.20926 -8.44177 -2.71852 0.0113762 4
9.49575 -9.7647 -2.64756 0.265348 4
11.6615 -11.9918 -2.64931 0.0220373 4
14.3998 -14.8076 -2.53608 0.0405416 4
20.1334 -20.7036 -2.52658 0.203817 10
19.3584 -19.9067 -1.45522 0.865175 10
19.3582 -19.9065 -0.484676 0.866237 10
20.1345 -20.7047 0.50411 0.204553 10
20.1348 -20.7051 1.51359 0.159296 10
19.3578 -19.906 2.42925 0.672964 10
19.3576 -19.9059 3.40926 0.670504 10
20.1359 -20.7062 4.57454 0.157542 10
20.1362 -20.7065 5.61429 0.156572 10
19.3572 -19.9054 6.41018 0.658242 10
19.357 -19.9052 7.43969 0.652543 10
6.92114 -7.06764 -2.65058 0.12307 4
8.21082 -8.38461 -2.70933 0.0126253 4
9.64096 -9.84503 -2.67845 0.27671 4
11.7033 -11.951 -2.6493 0.0104768 4
14.4513 -14.7572 -2.53607 0.0329402 4
20.5088 -20.9429 -2.5645 0.200803 10
19.4119 -19.8228 -1.45403 0.865882 10
19.4117 -19.8226 -0.48428 0.866946 10
20.5099 -20.944 0.511677 0.201528 10
20.5103 -20.9444 1.53631 0.15694 10
19.4113 -19.8221 2.42726 0.673514 10
19.4111 -19.822 3.40647 0.671053 10
20.5114 -20.9455 4.64321 0.155212 10
20.2127 -20.6405 5.61548 0.132313 10
19.4106 -19.8215 6.40494 0.65878 10
19.4105 -19.8213 7.43361 0.653076 10
6.94576 -7.04343 -2.65058 0.117096 4
8.21224 -8.32771 -2.70019 0.0147205 4
9.78957 -9.92722 -2.71009 0.288085 4
11.7449 -11.91 -2.64929 0.0332368 4
14.5026 -14.7066 -2.53606 0.037445 4
20.8957 -21.1895 -2.60362 0.197786 10
20.3296 -20.6155 -1.51738 0.86658 10
20.3295 -20.6153 -0.505378 0.867644 10
20.8968 -21.1907 0.519481 0.198501 10
20.8972 -21.191 1.55974 0.154582 10
20.329 -20.6149 2.533 0.674057 10
20.3288 -20.6147 3.55488 0.671593 10
20.8983 -21.1922 4.71403 0.15288 10
20.2846 -20.5699 5.61549 0.132313 10
20.3283 -20.6142 6.68397 0.659311 10
20.8995 -21.1934 7.97548 0.149503 10
6.97029 -7.01912 -2.65057 0.0908092 4
8.21353 -8.27107 -2.6911 0.0123368 4
9.88469 -9.95394 -2.72679 0.0725776 1
11.7864 -11.8689 -2.64928 0.0455202 4
14.5538 -14.6558 -2.53605 0.0360375 4
21.2945 -21.4437 -2.64397 0.194767 10
20.3853 -20.5281 -1.51618 0.867267 10
20.3852 -20.528 -0.504977 0.868331 10
21.2957 -21.4449 0.527533 0.195471 10
21.2961 -21.4453 1.58392 0.152223 10
20.3847 -20.5275 2.531 0.674591 10
20.3845 -20.5273 3.55206 0.672126 10
21.2973 -21.4465 4.78711 0.150547 10
20.3564 -20.499 5.61551 0.132312 10
20.384 -20.5268 6.67868 0.659833 10
21.2985 -21.4477 8.09912 0.147221 10
6.99473 -6.99473 -2.65057 0.123668 4
8.21469 -8.21469 -2.68207 0.0119822 4
9.91935 -9.91935 -2.72678 0.0725778 1
11.8277 -11.8277 -2.64928 0.0310694 4
14.6048 -14.6048 -2.53604 0.0340668 4
21.706 -21.706 -2.68563 0.191746 10
21.7064 -21.7064 -1.60879 0.192211 10
21.7068 -21.7068 -0.535836 0.192442 10
21.7072 -21.7072 0.535846 0.192439 10
21.7076 -21.7076 1.60887 0.149861 10
21.708 -21.708 2.68588 0.149493 10
21.7084 -21.7084 3.76952 0.148943 10
21.7088 -21.7088 4.86254 0.148211 10
21.7092 -21.7092 5.96776 0.147299 10
21.7096 -21.7096 7.08813 0.146207 10
21.7101 -21.7101 8.22676 0.144937 10
7.01909 -6.97026 -2.65056 0.10455 4
8.21572 -8.15857 -2.67309 0.0118416 4
9.95388 -9.88463 -2.72677 0.0725781 1
11.8689 -11.7863 -2.64927 0.0559974 4
14.6557 -14.5537 -2.53602 0.0273099 4
21.9781 -21.8252 -2.70985 0.866485 10
21.9779 -21.825 -1.62325 0.868608 10
21.9777 -21.8248 -0.54064 0.869675 10
22.1318 -21.9779 0.544431 0.189404 10
21.9774 -21.8245 1.62322 0.677281 10
21.9772 -21.8243 2.70975 0.675635 10
21.977 -21.8241 3.80292 0.673165 10
21.9769 -21.824 4.90549 0.669876 10
21.9767 -21.8238 6.02031 0.665771 10
21.9765 -21.8236 7.15034 0.660854 10
22.0219 -21.8687 8.31595 0.179519 10
7.04337 -6.9457 -2.65055 0.0591458 4
8.21663 -8.1027 -2.66417 0.0139161 4
9.9883 -9.8498 -2.72677 0.0725783 1
11.9099 -11.7447 -2.64926 0.0527461 4
14.7063 -14.5024 -2.53601 0.0343487 4
22.0375 -21.7319 -2.70781 0.867139 10
22.0373 -21.7318 -1.62203 0.869265 10
22.0372 -21.7316 -0.540233 0.870331 10
22.5703 -22.2573 0.553302 0.186367 10
22.0368 -21.7312 1.62199 0.677793 10
22.0366 -21.7311 2.7077 0.676144 10
22.0365 -21.7309 3.80005 0.673673 10
22.0363 -21.7307 4.9018 0.670381 10
22.0361 -21.7306 6.01577 0.666273 10
22.0359 -21.7304 7.14496 0.661353 10
22.0982 -21.7917 8.31597 0.179519 10
7.06755 -6.92106 -2.65055 0.071692 4
8.21741 -8.04708 -2.6553 0.0130356 4
10.0226 -9.81485 -2.72676 0.0725785 1
11.4439 -11.2067 -2.53688 0.0513012 4
14.7568 -14.4509 -2.536 0.0346304 4
22.0968 -21.6388 -2.7058 0.867782 10
22.0967 -21.6387 -1.62083 0.86991 10
22.0965 -21.6385 -0.539833 0.870976 10
23.0233 -22.5461 0.562475 0.183328 10
22.0961 -21.6381 1.62079 0.678295 10
22.096 -21.638 2.7057 0.676647 10
22.0958 -21.6378 3.79724 0.674173 10
22.0956 -21.6376 4.89816 0.670878 10
22.0955 -21.6375 6.01132 0.666767 10
22.0953 -21.6373 7.13966 0.661843 10
22.1741 -21.7145 8.31598 0.179519 10
7.09165 -6.89633 -2.65054 0.0501845 4
8.22974 -8.00308 -2.65024 0.0259658 4
10.0568 -9.77977 -2.72675 0.0725787 1
11.4829 -11.1666 -2.53688 0.055998 4
14.8071 -14.3992 -2.53599 0.0309704 4
22.2161 -21.6042 -2.71115 0.179639 10
22.2165 -21.6046 -1.62408 0.180074 10
22.217 -21.6051 -0.54093 0.18029 10
23.4916 -22.8446 0.571963 0.180287 10
22.2178 -21.6059 1.62417 0.140398 10
22.2183 -21.6063 2.71142 0.140053 10
22.2187 -21.6068 3.80538 0.139537 10
22.2192 -21.6072 4.9088 0.138851 10
22.2196 -21.6077 6.02454 0.137996 10
22.2201 -21.6081 7.15558 0.136973 10
22.2498 -21.637 8.316 0.179518 10
7.11567 -6.87152 -2.65054 0.00477949 4
8.25761 -7.97428 -2.65023 0.0976317 4
10.0908 -9.74458 -2.72674 0.0725789 1
11.5218 -11.1264 -2.53687 0.0484113 4
14.8572 -14.3474 -2.53598 0.038854 4
22.3926 -21.6243 -2.72347 0.0331917 1
23.6245 -22.8139 -1.72117 0.871165 10
23.6243 -22.8137 -0.573253 0.872235 10
23.6241 -22.8135 0.573248 0.872241 10
23.6239 -22.8134 1.72113 0.679274 10
23.6237 -22.8132 2.8732 0.677623 10
22.6769 -21.8988 3.87073 0.137181 10
23.6234 -22.8128 5.2014 0.671848 10
23.6232 -22.8126 6.38346 0.66773 10
22.9204 -22.134 7.35617 0.156009 10
23.6228 -22.8123 8.79932 0.657061 10
7.1396 -6.84663 -2.65053 0.0244949 4
8.28537 -7.94539 -2.65023 0.0939967 4
11.6541 -11.1758 -2.55739 0.323891 4
14.9714 -14.357 -2.5469 0.188255 4
22.4678 -21.5458 -2.72345 0.0331919 1
23.6873 -22.7153 -1.71996 0.871778 10
23.6871 -22.7151 -0.57285 0.872848 10
23.6869 -22.715 0.572845 0.872855 10
23.6867 -22.7148 1.71992 0.679752 10
23.6866 -22.7146 2.87118 0.6781 10
24.4787 -23.4743 4.16428 0.134824 10
23.6862 -22.7142 5.19774 0.67232 10
23.686 -22.7141 6.37898 0.6682 10
23.1525 -22.2024 7.40575 0.132346 10
23.6856 -22.7137 8.79314 0.657523 10
7.16344 -6.82165 -2.65053 0.0292745 4
8.31304 -7.9164 -2.65022 0.103864 4
11.8563 -11.2906 -2.59311 0.312927 4
15.2089 -14.4833 -2.5787 0.291677 4
22.5427 -21.4672 -2.72343 0.0331921 1
23.75 -22.6169 -1.71877 0.87238 10
23.7499 -22.6167 -0.572455 0.873451 10
23.7497 -22.6165 0.57245 0.873458 10
23.7495 -22.6163 1.71873 0.680221 10
23.7493 -22.6162 2.8692 0.678568 10
43.673 -41.5893 7.40484 0.676088 10
23.7489 -22.6158 5.19416 0.672785 10
23.7487 -22.6156 6.37457 0.668661 10
43.672 -41.5883 13.9228 0.663723 10
23.7484 -22.6153 8.78708 0.657977 10
7.18719 -6.79659 -2.65052 0.0179232 4
8.3406 -7.88732 -2.65022 0.100229 4
12.0643 -11.4086 -2.62986 0.315365 4
15.4524 -14.6126 -2.61132 0.178358 4
21.0471 -19.9033 -2.53434 0.0253869 4
43.789 -41.4092 3.15849 0.680682 10
43.7886 -41.4088 5.27269 0.679028 10
43.7883 -41.4085 7.39982 0.676546 10
43.7879 -41.4082 9.54524 0.673241 10
43.7876 -41.4079 11.7145 0.669114 10
43.7872 -41.4075 13.9133 0.664173 10
43.7868 -41.4072 16.1479 0.658423 10
7.21086 -6.77145 -2.65052 0.0131437 4
8.36806 -7.85814 -2.65021 0.093478 4
12.2782 -11.53 -2.6677 0.302136 4
15.7021 -14.7452 -2.64479 0.25959 4
43.904 -41.2286 3.15639 0.681135 10
43.9037 -41.2283 5.26919 0.67948 10
43.9033 -41.228 7.3949 0.676996 10
43.903 -41.2277 9.53889 0.673688 10
43.9026 -41.2273 11.7067 0.66956 10
43.9023 -41.227 13.9041 0.664615 10
43.9019 -41.2267 16.1372 0.658861 10
7.23444 -6.74622 -2.65051 0.0143386 4
8.39542 -7.82886 -2.6502 0.109577 4
12.4983 -11.6548 -2.70667 0.244098 4
15.774 -14.7095 -2.64824 0.034913 4
47.5005 -44.295 -1.13369 0.875195 10
44.0189 -41.0483 3.15434 0.68158 10
44.0186 -41.048 5.26575 0.679923 10
44.0183 -41.0477 7.39008 0.677438 10
44.0179 -41.0474 9.53267 0.674128 10
44.0176 -41.047 11.6991 0.669996 10
44.0172 -41.0467 13.895 0.665049 10
44.0168 -41.0464 16.1266 0.65929 10
7.25793 -6.72092 -2.65051 0.0597443 4
8.42268 -7.79949 -2.6502 0.0311595 4
12.6288 -11.6944 -2.72608 0.0595182 1
15.8252 -14.6543 -2.64823 0.0174566 4
21.254 -19.6814 -2.53429 0.0243799 4
47.6244 -44.1006 -1.13296 0.875755 10
44.1337 -40.8683 3.15232 0.682016 10
44.1334 -40.868 5.26238 0.680358 10
44.133 -40.8676 7.38535 0.677872 10
44.1327 -40.8673 9.52657 0.674559 10
44.1323 -40.867 11.6916 0.670425 10
44.132 -40.8667 13.8861 0.665474 10
44.1316 -40.8663 16.1163 0.659712 10
7.28133 -6.69553 -2.6505 0.0227029 4
8.44983 -7.77002 -2.65019 0.0160991 4
12.6695 -11.6502 -2.72607 0.0595184 1
15.8762 -14.5989 -2.64822 0.0247772 4
21.3225 -19.607 -2.53428 0.0261935 4
44.2483 -40.6885 3.15034 0.682444 10
44.248 -40.6881 5.25909 0.680785 10
44.2476 -40.6878 7.38072 0.678297 10
44.2473 -40.6875 9.5206 0.674983 10
44.2469 -40.6872 11.6842 0.670846 10
44.2466 -40.6868 13.8774 0.665892 10
44.2462 -40.6865 16.1062 0.660126 10
7.30464 -6.67006 -2.6505 0.0173259 4
8.47689 -7.74046 -2.65019 0.0212924 4
10.0665 -9.19199 -2.64976 0.02291 4
12.71 -11.6059 -2.72606 0.0595186 1
15.927 -14.5433 -2.64821 0.0503993 4
44.3628 -40.5088 3.14841 0.682863 10
44.3625 -40.5085 5.25585 0.681204 10
44.3621 -40.5082 7.37619 0.678714 10
44.3618 -40.5079 9.51475 0.675398 10
44.3614 -40.5076 11.6771 0.671258 10
44.3611 -40.5072 13.8689 0.666301 10
44.3607 -40.5069 16.0963 0.660532 10
7.32787 -6.64451 -2.65049 0.0382366 4
8.50383 -7.71081 -2.65018 0.0197345 4
10.0985 -9.15677 -2.64976 0.0911995 4
12.7504 -11.5614 -2.72605 0.0595188 1
15.9776 -14.4876 -2.6482 0.0402633 4
21.4586 -19.4574 -2.53425 0.0267982 4
51.5121 -46.7083 -1.21374 0.877372 10
44.4772 -40.3294 3.14651 0.683275 10
44.4768 -40.3291 5.25269 0.681614 10
44.4765 -40.3288 7.37175 0.679123 10
44.4761 -40.3285 9.50902 0.675804 10
44.4758 -40.3282 11.67 0.671663 10
44.4754 -40.3279 13.8605 0.666702 10
44.475 -40.3275 16.0866 0.66093 10
8.53068 -7.68106 -2.65017 0.0088286 4
10.1304 -9.12144 -2.64975 0.0744578 4
12.7907 -11.5168 -2.72604 0.059519 1
16.028 -14.4316 -2.64819 0.0267485 4
21.5262 -19.3823 -2.53423 0.0288133 4
51.6952 -46.5466 -1.21422 0.877889 10
44.5914 -40.1503 3.14466 0.683678 10
44.591 -40.1499 5.24959 0.682016 10
44.5907 -40.1496 7.3674 0.679523 10
