VERSION 0.7
FIELDS x y z intensity label
SIZE 4 4 4 4 4
TYPE F F F F F
COUNT 1 1 1 1 1
WIDTH 1250
HEIGHT 1
VIEWPOINT 7.56045 49.1085 2.72706 0.877321 0.000461619 0.000768537 -0.479902
POINTS 1250
DATA ascii
-4.08786 10.7614 -2.65767 0.0806995 4
-4.65172 12.2458 -2.54629 0.0473621 4
-6.14039 16.1647 -2.73873 0.0591808 1
-7.60713 20.0259 -2.6303 0.405663 10
-7.60765 20.0273 -1.87432 0.407176 10
-7.60817 20.0286 -1.12284 0.408193 10
-7.60868 20.03 -0.374 0.408713 10
-7.60919 20.0313 0.374025 0.408735 10
-7.6097 20.0327 1.12306 0.408258 10
-7.61022 20.034 1.87495 0.407285 10
-7.61073 20.0354 2.63155 0.405815 10
-7.61126 20.0368 3.39477 0.40385 10
-7.61178 20.0382 4.16658 0.401394 10
-7.61232 20.0396 4.94905 0.398449 10
-7.61286 20.041 5.74436 0.395018 10
-3.65631 9.52503 -2.7338 0.0980906 1
-4.1255 10.7473 -2.65773 0.0693171 4
-4.69458 12.2298 -2.54636 0.0622706 4
-6.197 16.1438 -2.73883 0.0591787 1
-7.65722 19.9478 -2.62353 0.403751 10
-7.65774 19.9491 -1.86949 0.405257 10
-7.65825 19.9504 -1.11994 0.406269 10
-7.65877 19.9518 -0.373037 0.406787 10
-7.65928 19.9531 0.373061 0.406808 10
-7.6598 19.9545 1.12017 0.406334 10
-7.66031 19.9558 1.87012 0.405365 10
-7.66083 19.9572 2.62477 0.403902 10
-7.66136 19.9585 3.38602 0.401947 10
-7.66189 19.9599 4.15584 0.399503 10
-7.66243 19.9613 4.9363 0.396571 10
-7.66297 19.9627 5.72955 0.393157 10
-3.68962 9.51241 -2.73386 0.0980885 1
-4.16309 10.7331 -2.6578 0.113284 4
-4.73738 12.2137 -2.54644 0.0640228 4
-6.25355 16.1226 -2.73893 0.0591765 1
-7.70706 19.87 -2.61682 0.401834 10
-7.70758 19.8713 -1.86471 0.403333 10
-7.70809 19.8727 -1.11708 0.40434 10
-7.70861 19.874 -0.372083 0.404855 10
-7.70913 19.8753 0.372107 0.404877 10
-7.70964 19.8766 1.11731 0.404405 10
-7.71016 19.878 1.86534 0.403441 10
-7.71068 19.8793 2.61805 0.401985 10
-7.71121 19.8807 3.37736 0.400039 10
-7.71174 19.8821 4.14521 0.397606 10
-7.71228 19.8834 4.92367 0.394689 10
-7.71283 19.8849 5.7149 0.391291 10
-3.72288 9.49968 -2.73392 0.0980864 1
-4.19823 10.7126 -2.65635 0.186574 4
-4.78013 12.1975 -2.54651 0.0486734 4
-6.31002 16.1013 -2.73903 0.0591744 1
-7.75663 19.7926 -2.61018 0.399911 10
-7.75715 19.7939 -1.85998 0.401403 10
-7.75767 19.7953 -1.11425 0.402406 10
-7.75819 19.7966 -0.371139 0.402919 10
-7.75871 19.7979 0.371163 0.40294 10
-7.75923 19.7992 1.11447 0.402471 10
-7.75975 19.8006 1.8606 0.401512 10
-7.76027 19.8019 2.61141 0.400063 10
-7.7608 19.8032 3.36878 0.398127 10
-7.76133 19.8046 4.13469 0.395705 10
-7.76188 19.806 4.91117 0.392802 10
-7.76243 19.8074 5.70038 0.38942 10
-3.7561 9.48683 -2.73398 0.0980843 1
-4.22665 10.6753 -2.65073 0.140368 4
-4.82282 12.1811 -2.54659 0.0618266 4
-6.36642 16.0797 -2.73913 0.0591722 1
-7.80596 19.7156 -2.60361 0.397984 10
-7.80649 19.7169 -1.85529 0.399469 10
-7.80701 19.7182 -1.11144 0.400467 10
-7.80753 19.7196 -0.370203 0.400977 10
-7.80805 19.7209 0.370228 0.400999 10
-7.80857 19.7222 1.11166 0.400532 10
-7.80909 19.7235 1.85591 0.399577 10
-7.80962 19.7248 2.60483 0.398136 10
-7.81015 19.7262 3.36029 0.396209 10
-7.81069 19.7275 4.12426 0.393799 10
-7.81123 19.7289 4.89879 0.39091 10
-7.81178 19.7303 5.68601 0.387545 10
-3.78927 9.47386 -2.73404 0.0980822 1
-4.25493 10.6381 -2.64516 0.160564 4
-4.86545 12.1645 -2.54666 0.05744 4
-6.42274 16.058 -2.73923 0.0591701 1
-7.85504 19.639 -2.5971 0.396052 10
-7.85557 19.6403 -1.85065 0.39753 10
-7.85609 19.6416 -1.10866 0.398523 10
-7.85661 19.6429 -0.369277 0.399031 10
-7.85713 19.6442 0.369302 0.399053 10
-7.85766 19.6456 1.10888 0.398588 10
-7.85818 19.6469 1.85127 0.397638 10
-7.85871 19.6482 2.59831 0.396204 10
-7.85924 19.6495 3.35188 0.394286 10
-7.85978 19.6509 4.11394 0.391889 10
-7.86033 19.6522 4.88653 0.389014 10
-7.86088 19.6536 5.67178 0.385665 10
-3.8224 9.46078 -2.73409 0.0980801 1
-4.28309 10.601 -2.63965 0.126368 4
-4.90803 12.1478 -2.54674 0.0464768 4
-6.47898 16.0361 -2.73933 0.0591679 1
-7.90387 19.5628 -2.59065 0.394116 10
-7.9044 19.5641 -1.84606 0.395586 10
-7.90493 19.5654 -1.10591 0.396575 10
-7.90545 19.5667 -0.368361 0.39708 10
-7.90598 19.568 0.368385 0.397102 10
-7.9065 19.5693 1.10613 0.39664 10
-7.90703 19.5706 1.84667 0.395694 10
-7.90756 19.5719 2.59186 0.394267 10
-7.90809 19.5732 3.34356 0.392359 10
-7.90863 19.5746 4.10373 0.389973 10
-7.90918 19.5759 4.87439 0.387112 10
-7.90974 19.5773 5.65769 0.38378 10
-3.85549 9.44758 -2.73415 0.098078 1
-4.31112 10.5641 -2.63418 0.19013 4
-4.95055 12.131 -2.54681 0.0640134 4
-6.53516 16.0139 -2.73943 0.0591658 1
-7.95247 19.4869 -2.58427 0.392174 10
-7.953 19.4882 -1.84151 0.393637 10
-7.95353 19.4895 -1.10318 0.394621 10
-7.95406 19.4908 -0.367453 0.395124 10
-7.95458 19.4921 0.367477 0.395146 10
-7.95511 19.4934 1.1034 0.394686 10
-7.95564 19.4947 1.84212 0.393746 10
-7.95617 19.496 2.58547 0.392325 10
-7.9567 19.4973 3.33532 0.390427 10
-7.95725 19.4986 4.09361 0.388053 10
-7.9578 19.5 4.86237 0.385206 10
-7.95836 19.5014 5.64374 0.38189 10
-3.88852 9.43427 -2.73421 0.0980759 1
-4.33903 10.5273 -2.62877 0.163283 4
-4.99301 12.114 -2.54689 0.0662036 4
-6.59125 15.9916 -2.73953 0.0591637 1
-8.00082 19.4115 -2.57794 0.390228 10
-8.00136 19.4128 -1.83701 0.391684 10
-8.00189 19.414 -1.10048 0.392663 10
-8.00242 19.4153 -0.366554 0.393164 10
-8.00294 19.4166 0.366578 0.393185 10
-8.00347 19.4179 1.1007 0.392728 10
-8.004 19.4192 1.83761 0.391792 10
-8.00453 19.4205 2.57914 0.390379 10
-8.00507 19.4218 3.32715 0.38849 10
-8.00562 19.4231 4.08359 0.386128 10
-8.00617 19.4244 4.85047 0.383296 10
-8.00673 19.4258 5.62993 0.379996 10
-3.92151 9.42083 -2.73427 0.0980739 1
-4.36682 10.4906 -2.6234 0.175024 4
-5.03542 12.0968 -2.54696 0.0495417 4
-6.64728 15.9691 -2.73963 0.0591615 1
-8.04895 19.3364 -2.57169 0.388276 10
-8.04948 19.3376 -1.83255 0.389725 10
-8.05002 19.3389 -1.09781 0.3907 10
-8.05054 19.3402 -0.365664 0.391198 10
-8.05107 19.3415 0.365687 0.39122 10
-8.05161 19.3427 1.09803 0.390765 10
-8.05214 19.344 1.83315 0.389834 10
-8.05267 19.3453 2.57288 0.388428 10
-8.05321 19.3466 3.31907 0.386548 10
-8.05376 19.3479 4.07367 0.384198 10
-8.05431 19.3492 4.83869 0.38138 10
-8.05488 19.3506 5.61625 0.378097 10
-3.95446 9.40729 -2.73433 0.0980718 1
-4.39448 10.4541 -2.61808 0.185576 4
-5.07776 12.0795 -2.54704 0.0100834 4
-6.70322 15.9463 -2.73972 0.0591594 1
-8.09683 19.2616 -2.56549 0.386321 10
-8.09737 19.2629 -1.82813 0.387762 10
-8.0979 19.2642 -1.09516 0.388732 10
-8.10003 19.2692 1.82873 0.387871 10
-8.10057 19.2705 2.56667 0.386472 10
-8.10111 19.2718 3.31107 0.384602 10
-3.98725 9.39336 -2.73431 0.219617 4
-4.42203 10.4177 -2.61281 0.181093 4
-5.12004 12.0621 -2.54711 0.0131519 4
-6.75909 15.9234 -2.73982 0.0591573 1
-8.1445 19.1872 -2.55935 0.38436 10
-8.14503 19.1885 -1.82376 0.385795 10
-8.14557 19.1898 -1.09254 0.386759 10
-8.14771 19.1948 1.82435 0.385903 10
-8.14825 19.1961 2.56053 0.384511 10
-8.14879 19.1973 3.30315 0.382651 10
-4.0114 9.35931 -2.72845 0.174913 4
-4.44946 10.3814 -2.60759 0.147569 4
-5.16227 12.0445 -2.54719 0.0683878 4
-6.81487 15.9003 -2.73992 0.0591552 1
-8.19193 19.1132 -2.55328 0.382395 10
-8.19247 19.1145 -1.81943 0.383822 10
-8.193 19.1157 -1.08995 0.384782 10
-8.19515 19.1207 1.82002 0.383931 10
-8.19569 19.122 2.55445 0.382546 10
-8.19623 19.1233 3.2953 0.380696 10
-8.24809 19.2442 4.06981 0.015915 10
-8.24712 19.242 5.60948 0.0156583 10
-4.03546 9.32538 -2.72266 0.194167 4
-4.47677 10.3452 -2.60241 0.155587 4
-5.20443 12.0267 -2.54726 0.0469057 4
-6.87058 15.877 -2.74002 0.059153 1
-8.23914 19.0395 -2.54726 0.380425 10
-8.23968 19.0408 -1.81514 0.381845 10
-8.24022 19.042 -1.08738 0.3828 10
-8.24237 19.047 1.81573 0.381953 10
-8.24291 19.0482 2.54843 0.380576 10
-8.24346 19.0495 3.28753 0.378735 10
-4.0594 9.2916 -2.71691 0.158567 4
-4.50396 10.3092 -2.59729 0.167452 4
-5.6384 12.9058 -2.7376 0.072215 1
-6.9262 15.8535 -2.74012 0.0591509 1
-8.28612 18.9662 -2.5413 0.37845 10
-8.28666 18.9674 -1.81089 0.379863 10
-8.28721 18.9687 -1.08484 0.380813 10
-8.28936 18.9736 1.81148 0.379971 10
-8.28991 18.9749 2.54246 0.378602 10
-8.29046 18.9761 3.27984 0.37677 10
-4.08323 9.25794 -2.71122 0.0661108 4
-4.53103 10.2732 -2.59221 0.174292 4
-5.68358 12.8864 -2.73768 0.0722129 1
-6.98175 15.8298 -2.74022 0.0591488 1
-8.33289 18.8932 -2.5354 0.376471 10
-8.33343 18.8944 -1.80669 0.377877 10
-8.33397 18.8957 -1.08232 0.378822 10
-8.33614 18.9006 1.80728 0.377985 10
-8.33669 18.9018 2.53656 0.376623 10
-8.33724 18.9031 3.27222 0.374801 10
-4.10697 9.22441 -2.70558 0.156236 4
-4.558 10.2374 -2.58717 0.123754 4
-5.72869 12.8669 -2.73776 0.0722108 1
-7.03721 15.8058 -2.74031 0.0591467 1
-8.37944 18.8205 -2.52956 0.374487 10
-8.37999 18.8218 -1.80253 0.375886 10
-8.38053 18.823 -1.07983 0.376826 10
-8.38271 18.8279 1.80311 0.375994 10
-8.38326 18.8291 2.53071 0.374639 10
-8.38381 18.8303 3.26468 0.372827 10
-4.1306 9.19101 -2.7 0.0806917 4
-4.58485 10.2018 -2.58218 0.186792 4
-5.77374 12.8472 -2.73783 0.0722087 1
-7.09259 15.7817 -2.74041 0.0591446 1
-8.42578 18.7482 -2.52378 0.372499 10
-8.42633 18.7494 -1.79841 0.37389 10
-8.42687 18.7507 -1.07736 0.374826 10
-8.42905 18.7555 1.79899 0.373998 10
-8.4296 18.7567 2.52493 0.37265 10
-8.43016 18.758 3.25721 0.370848 10
-4.15413 9.15773 -2.69447 0.21414 4
-4.61159 10.1662 -2.57724 0.148824 4
-5.81872 12.8273 -2.73791 0.0722067 1
-7.1479 15.7575 -2.74051 0.0591425 1
-8.47191 18.6762 -2.51805 0.370506 10
-8.47246 18.6774 -1.79433 0.37189 10
-8.47301 18.6786 -1.07491 0.372821 10
-8.47519 18.6835 1.79491 0.371998 10
-8.47575 18.6847 2.5192 0.370657 10
-8.4763 18.6859 3.24982 0.368865 10
-4.17756 9.12459 -2.68899 0.224222 4
-4.63821 10.1307 -2.57234 0.164674 4
-5.86362 12.8073 -2.73799 0.0722046 1
-7.20311 15.733 -2.7406 0.0591404 1
-8.51782 18.6046 -2.51239 0.368509 10
-8.51838 18.6058 -1.79029 0.369885 10
-8.51893 18.607 -1.07249 0.370811 10
-8.52112 18.6118 1.79086 0.369994 10
-8.52167 18.613 2.51352 0.36866 10
-8.52223 18.6142 3.2425 0.366878 10
-4.20089 9.09156 -2.68356 0.218407 4
-4.66473 10.0954 -2.56749 0.138035 4
-5.90847 12.7871 -2.73807 0.0722025 1
-7.25824 15.7083 -2.7407 0.0591383 1
-8.56354 18.5332 -2.50677 0.366507 10
-8.5641 18.5344 -1.78629 0.367876 10
-8.56465 18.5356 -1.0701 0.368797 10
-8.56685 18.5404 1.78686 0.367984 10
-8.5674 18.5416 2.5079 0.366658 10
-8.56796 18.5428 3.23525 0.364886 10
-4.22412 9.05866 -2.67818 0.194977 4
-4.69114 10.0602 -2.56268 0.17851 4
-5.95324 12.7668 -2.73815 0.0722004 1
-7.31329 15.6834 -2.7408 0.0591362 1
-8.60905 18.4622 -2.50121 0.364501 10
-8.6096 18.4634 -1.78232 0.365862 10
-8.61016 18.4645 -1.06772 0.366778 10
-8.61236 18.4693 1.7829 0.365971 10
-8.61292 18.4705 2.50234 0.364652 10
-8.61348 18.4717 3.22807 0.362889 10
-4.24725 9.02587 -2.67286 0.214684 4
-4.71745 10.0251 -2.55792 0.162131 4
-5.99794 12.7463 -2.73823 0.0721983 1
-7.36825 15.6583 -2.7409 0.0591341 1
-8.65436 18.3914 -2.49571 0.36249 10
-8.65492 18.3926 -1.7784 0.363844 10
-8.65547 18.3938 -1.06537 0.364755 10
-8.65769 18.3985 1.77897 0.363952 10
-8.65825 18.3997 2.49683 0.362641 10
-8.65881 18.4009 3.22097 0.360888 10
-4.27029 8.99321 -2.66758 0.231269 4
-4.74364 9.99009 -2.5532 0.167767 4
-6.04257 12.7256 -2.73831 0.0721963 1
-7.42312 15.6331 -2.74099 0.0591321 1
-8.69947 18.321 -2.49026 0.360474 10
-8.70003 18.3222 -1.77452 0.361821 10
-8.70281 18.3281 1.77509 0.36193 10
-8.70337 18.3292 2.49138 0.360626 10
-8.70393 18.3304 3.21393 0.358883 10
-4.29323 8.96066 -2.66236 0.196412 4
-4.76973 9.95521 -2.54852 0.165604 4
-6.08712 12.7048 -2.73839 0.0721942 1
-7.47791 15.6076 -2.74109 0.05913 1
-8.74438 18.2509 -2.48487 0.358455 10
-8.74494 18.2521 -1.77068 0.359794 10
-8.7455 18.2533 -1.06074 0.360696 10
-8.74606 18.2544 -0.353317 0.361157 10
-8.74661 18.2556 0.353339 0.361179 10
-8.74717 18.2568 1.06095 0.360761 10
-8.74773 18.2579 1.77124 0.359903 10
-8.74829 18.2591 2.48598 0.358606 10
-8.74886 18.2603 3.20697 0.356873 10
-8.74943 18.2615 3.93607 0.354705 10
-8.75001 18.2627 4.67523 0.352105 10
-8.7506 18.2639 5.42651 0.349076 10
-4.31608 8.92823 -2.65718 0.167836 4
-4.80043 9.93016 -2.54638 0.0728952 4
-6.13161 12.6839 -2.73846 0.0721921 1
-7.53261 15.582 -2.74118 0.0591279 1
-8.78911 18.1811 -2.47953 0.356431 10
-8.78967 18.1823 -1.76687 0.357763 10
-8.79023 18.1835 -1.05846 0.358659 10
-8.79079 18.1846 -0.352557 0.359118 10
-8.79134 18.1858 0.352579 0.35914 10
-8.7919 18.1869 1.05867 0.358724 10
-8.79246 18.1881 1.76743 0.357871 10
-8.79303 18.1893 2.48063 0.356582 10
-8.79359 18.1904 3.20007 0.354859 10
-8.79417 18.1916 3.9276 0.352703 10
-8.79475 18.1928 4.66517 0.350118 10
-8.79535 18.194 5.41484 0.347106 10
-4.33883 8.89592 -2.65206 0.234562 4
-4.83517 9.91358 -2.54645 0.0682407 4
-6.17602 12.6627 -2.73854 0.0721901 1
-7.58722 15.5561 -2.74128 0.0591258 1
-8.83363 18.1116 -2.47424 0.354403 10
-8.8342 18.1128 -1.7631 0.355727 10
-8.83476 18.114 -1.05621 0.356619 10
-8.83532 18.1151 -0.351805 0.357075 10
-8.83588 18.1162 0.351827 0.357097 10
-8.83644 18.1174 1.05641 0.356684 10
-8.837 18.1185 1.76366 0.355836 10
-8.83756 18.1197 2.47534 0.354554 10
-8.83813 18.1209 3.19324 0.352841 10
-8.83871 18.1221 3.91922 0.350697 10
-8.8393 18.1233 4.65522 0.348127 10
-8.83989 18.1245 5.40328 0.345132 10
-4.36149 8.86372 -2.64698 0.184851 4
-4.86987 9.89688 -2.54651 0.0646203 4
-6.22037 12.6415 -2.73862 0.072188 1
-7.64175 15.5301 -2.74138 0.0591238 1
-8.87798 18.0424 -2.469 0.35237 10
-8.87854 18.0436 -1.75937 0.353687 10
-8.87911 18.0447 -1.05397 0.354573 10
-8.87967 18.0459 -0.35106 0.355028 10
-8.88023 18.047 0.351082 0.355049 10
-8.88079 18.0481 1.05417 0.354638 10
-8.88135 18.0493 1.75993 0.353795 10
-8.88192 18.0504 2.4701 0.352521 10
-8.88249 18.0516 3.18648 0.350818 10
-8.88307 18.0528 3.91092 0.348687 10
-8.88366 18.054 4.64536 0.346131 10
-8.88425 18.0552 5.39184 0.343154 10
-4.38406 8.83163 -2.64195 0.219417 4
-4.9045 9.88006 -2.54657 0.0615171 4
-6.26463 12.62 -2.7387 0.072186 1
-7.69617 15.5038 -2.74147 0.0591217 1
-8.92213 17.9735 -2.46382 0.350333 10
-8.9227 17.9747 -1.75568 0.351643 10
-8.92326 17.9758 -1.05176 0.352524 10
-8.92382 17.9769 -0.350323 0.352976 10
-8.92439 17.9781 0.350345 0.352997 10
-8.92495 17.9792 1.05196 0.352589 10
-8.92551 17.9803 1.75623 0.351751 10
-8.92608 17.9815 2.46491 0.350485 10
-8.92666 17.9826 3.17978 0.348791 10
-8.92724 17.9838 3.9027 0.346673 10
-8.92782 17.985 4.6356 0.344132 10
-8.92842 17.9862 5.38051 0.341172 10
-4.40654 8.79965 -2.63697 0.188975 4
-4.93908 9.86311 -2.54663 0.0599648 4
-6.30883 12.5984 -2.73878 0.0721839 1
-7.75052 15.4774 -2.74157 0.0591197 1
-8.9661 17.9049 -2.45869 0.348292 10
-8.96667 17.906 -1.75202 0.349594 10
-8.96724 17.9072 -1.04957 0.35047 10
-8.9678 17.9083 -0.349593 0.350919 10
-8.96837 17.9094 0.349615 0.350941 10
-8.96893 17.9105 1.04976 0.350535 10
-8.9695 17.9117 1.75257 0.349702 10
-8.97007 17.9128 2.45977 0.348443 10
-8.97064 17.914 3.17316 0.34676 10
-8.97122 17.9151 3.89457 0.344654 10
-8.97181 17.9163 4.62594 0.342128 10
-8.97241 17.9175 5.36929 0.339185 10
-4.42893 8.76779 -2.63204 0.200842 4
-4.97359 9.84604 -2.54669 0.0465233 4
-6.35294 12.5767 -2.73885 0.0721819 1
-7.80477 15.4508 -2.74166 0.0591176 1
-9.00988 17.8365 -2.4536 0.346247 10
-9.01046 17.8377 -1.7484 0.347541 10
-9.01102 17.8388 -1.0474 0.348412 10
-9.01159 17.8399 -0.348871 0.348859 10
-9.01216 17.841 0.348892 0.348881 10
-9.01272 17.8422 1.04759 0.348477 10
-9.01329 17.8433 1.74895 0.34765 10
-9.01386 17.8444 2.45469 0.346398 10
-9.01444 17.8456 3.1666 0.344724 10
-9.01502 17.8467 3.88652 0.342631 10
-9.01561 17.8479 4.61637 0.34012 10
-9.01622 17.8491 5.35819 0.337195 10
-4.45123 8.73603 -2.62715 0.166934 4
-5.00805 9.82886 -2.54675 0.0196427 4
-6.39698 12.5548 -2.73893 0.0721799 1
-7.85892 15.424 -2.74176 0.0591155 1
-9.05349 17.7685 -2.44857 0.344197 10
-9.05406 17.7696 -1.74481 0.345484 10
-9.05463 17.7707 -1.04525 0.34635 10
-9.0552 17.7718 -0.348155 0.346794 10
-9.05577 17.773 0.348177 0.346816 10
-9.05633 17.7741 1.04545 0.346415 10
-9.0569 17.7752 1.74536 0.345592 10
-9.05748 17.7763 2.44965 0.344348 10
-9.05806 17.7775 3.1601 0.342685 10
-9.05864 17.7786 3.87855 0.340604 10
-9.05923 17.7798 4.6069 0.338108 10
-9.05984 17.7809 5.3472 0.3352 10
-4.47344 8.70438 -2.62232 0.145989 4
-5.04245 9.81155 -2.54681 0.0408352 4
-6.44095 12.5327 -2.73901 0.0721778 1
-7.91299 15.397 -2.74185 0.0591135 1
-9.09692 17.7007 -2.44359 0.342143 10
-9.0975 17.7018 -1.74126 0.343423 10
-9.09807 17.7029 -1.04312 0.344284 10
-9.09864 17.704 -0.347447 0.344725 10
-9.09921 17.7051 0.347469 0.344747 10
-9.09978 17.7063 1.04332 0.344349 10
-9.10035 17.7074 1.74181 0.343531 10
-9.10092 17.7085 2.44467 0.342294 10
-9.1015 17.7096 3.15367 0.340641 10
-9.10209 17.7107 3.87065 0.338573 10
-9.10268 17.7119 4.59753 0.336092 10
-9.10329 17.7131 5.33632 0.333201 10
-4.49557 8.67283 -2.61752 0.225232 4
-5.07679 9.79412 -2.54687 0.0640942 4
-6.48484 12.5105 -2.73908 0.0721758 1
-7.96696 15.3698 -2.74195 0.0591115 1
-9.14017 17.6332 -2.43866 0.340085 10
-9.14075 17.6343 -1.73775 0.341357 10
-9.14132 17.6354 -1.04102 0.342213 10
-9.14189 17.6365 -0.346746 0.342652 10
-9.14246 17.6376 0.346767 0.342674 10
-9.14303 17.6387 1.04121 0.342278 10
-9.14361 17.6398 1.73829 0.341465 10
-9.14418 17.6409 2.43973 0.340237 10
-9.14476 17.6421 3.14731 0.338593 10
-9.14535 17.6432 3.86284 0.336537 10
-9.14595 17.6443 4.58825 0.334071 10
-9.14655 17.6455 5.32554 0.331198 10
-4.51761 8.64139 -2.61278 0.209259 4
-5.11107 9.77657 -2.54693 0.063059 4
-6.52866 12.4882 -2.73916 0.0721738 1
-8.02084 15.3425 -2.74204 0.0591094 1
-9.18326 17.566 -2.43378 0.338023 10
-9.18383 17.5671 -1.73427 0.339287 10
-9.18441 17.5682 -1.03893 0.340138 10
-9.18498 17.5692 -0.346052 0.340575 10
-9.18555 17.5703 0.346073 0.340597 10
-9.18612 17.5714 1.03913 0.340203 10
-9.1867 17.5725 1.73481 0.339396 10
-9.18728 17.5736 2.43485 0.338174 10
-9.18786 17.5748 3.141 0.336541 10
-9.18845 17.5759 3.8551 0.334498 10
-9.18905 17.577 4.57906 0.332047 10
-9.18965 17.5782 5.31488 0.329191 10
-4.53956 8.61005 -2.60808 0.198163 4
-5.14528 9.7589 -2.54699 0.06099 4
-6.57239 12.4657 -2.73924 0.0721718 1
-8.07462 15.3149 -2.74214 0.0591074 1
-9.22616 17.499 -2.42895 0.335957 10
-9.22674 17.5001 -1.73083 0.337214 10
-9.22731 17.5012 -1.03687 0.338059 10
-9.22789 17.5023 -0.345365 0.338494 10
-9.22846 17.5033 0.345386 0.338515 10
-9.22904 17.5044 1.03707 0.338125 10
-9.22961 17.5055 1.73137 0.337322 10
-9.23019 17.5066 2.43001 0.336108 10
-9.23078 17.5077 3.13476 0.334485 10
-9.23137 17.5089 3.84745 0.332454 10
-9.23197 17.51 4.56996 0.330019 10
-9.23258 17.5112 5.30432 0.327181 10
-4.56144 8.57882 -2.60343 0.211839 4
-5.17944 9.74111 -2.54705 0.0739099 4
-6.61605 12.443 -2.73932 0.0721697 1
-8.12832 15.2871 -2.74223 0.0591054 1
-9.2689 17.4323 -2.42417 0.333886 10
-9.26948 17.4334 -1.72742 0.335135 10
-9.27006 17.4344 -1.03483 0.335976 10
-9.27064 17.4355 -0.344685 0.336408 10
-9.27121 17.4366 0.344706 0.336429 10
-9.27179 17.4377 1.03502 0.336041 10
-9.27236 17.4388 1.72796 0.335244 10
-9.27295 17.4399 2.42523 0.334038 10
-9.27353 17.441 3.12859 0.332425 10
-9.27412 17.4421 3.83986 0.330407 10
-9.27473 17.4432 4.56096 0.327986 10
-9.27534 17.4444 5.29386 0.325166 10
-4.58323 8.54769 -2.59882 0.243815 4
-5.21353 9.7232 -2.54711 0.0837281 4
-6.65963 12.4202 -2.73939 0.0721677 1
-8.18191 15.2592 -2.74232 0.0591033 1
-9.31147 17.3658 -2.41943 0.331812 10
-9.31205 17.3669 -1.72405 0.333053 10
-9.31263 17.368 -1.03281 0.333889 10
-9.31321 17.3691 -0.344011 0.334318 10
-9.31378 17.3701 0.344032 0.33434 10
-9.31436 17.3712 1.033 0.333954 10
-9.31494 17.3723 1.72458 0.333162 10
-9.31552 17.3734 2.42049 0.331963 10
-9.31611 17.3745 3.12247 0.33036 10
-9.31671 17.3756 3.83236 0.328355 10
-9.31731 17.3767 4.55204 0.32595 10
-9.31792 17.3779 5.28352 0.323147 10
-4.60494 8.51665 -2.59425 0.222734 4
-5.24756 9.70516 -2.54717 0.0888944 4
-6.70313 12.3972 -2.73947 0.0721657 1
-8.23541 15.2311 -2.74242 0.0591013 1
-9.35388 17.2996 -2.41475 0.329733 10
-9.35446 17.3007 -1.72071 0.330967 10
-9.35504 17.3018 -1.03081 0.331798 10
-9.35562 17.3029 -0.343345 0.332224 10
-9.3562 17.3039 0.343366 0.332246 10
-9.35678 17.305 1.031 0.331863 10
-9.35736 17.3061 1.72124 0.331075 10
-9.35794 17.3071 2.4158 0.329885 10
-9.35853 17.3082 3.11642 0.328292 10
-9.35913 17.3093 3.82493 0.326299 10
-9.35973 17.3105 4.54322 0.323909 10
-9.36035 17.3116 5.27327 0.321124 10
-4.62656 8.48572 -2.58973 0.18823 4
-5.28153 9.68701 -2.54723 0.0697702 4
-6.74655 12.3741 -2.73954 0.0721637 1
-8.2888 15.2027 -2.74251 0.0590993 1
-9.39612 17.2337 -2.41011 0.327651 10
-9.3967 17.2348 -1.7174 0.328877 10
-9.39729 17.2358 -1.02883 0.329703 10
-9.39787 17.2369 -0.342685 0.330127 10
-9.39845 17.238 0.342706 0.330148 10
-9.39902 17.239 1.02902 0.329768 10
-9.39961 17.2401 1.71793 0.328985 10
-9.40019 17.2412 2.41115 0.327802 10
-9.40078 17.2423 3.11043 0.32622 10
-9.40138 17.2434 3.81758 0.32424 10
-9.40199 17.2445 4.53448 0.321865 10
-9.4026 17.2456 5.26314 0.319098 10
-4.64811 8.45489 -2.58526 0.228694 4
-5.31543 9.66875 -2.54729 0.0925079 4
-6.78989 12.3508 -2.73962 0.0721617 1
-8.3421 15.1742 -2.7426 0.0590973 1
-9.4382 17.168 -2.40552 0.325564 10
-9.43878 17.1691 -1.71413 0.326783 10
-9.43937 17.1702 -1.02687 0.327604 10
-9.43995 17.1712 -0.342032 0.328025 10
-9.44053 17.1723 0.342053 0.328047 10
-9.44111 17.1733 1.02706 0.327669 10
-9.4417 17.1744 1.71466 0.326891 10
-9.44228 17.1755 2.40656 0.325716 10
-9.44287 17.1765 3.1045 0.324144 10
-9.44347 17.1776 3.8103 0.322176 10
-9.44408 17.1787 4.52584 0.319817 10
-9.4447 17.1799 5.2531 0.317067 10
-4.66958 8.42414 -2.58083 0.244231 4
-5.34928 9.65036 -2.54735 0.0635654 4
-6.83315 12.3273 -2.7397 0.0721597 1
-8.39531 15.1455 -2.7427 0.0590953 1
-9.48012 17.1026 -2.40097 0.323474 10
-9.48071 17.1037 -1.71089 0.324685 10
-9.48129 17.1047 -1.02493 0.3255 10
-9.48188 17.1058 -0.341385 0.325919 10
-9.48246 17.1068 0.341406 0.325941 10
-9.48304 17.1079 1.02511 0.325565 10
-9.48363 17.1089 1.71141 0.324793 10
-9.48422 17.11 2.40201 0.323625 10
-9.48481 17.1111 3.09863 0.322063 10
-9.48541 17.1121 3.8031 0.320109 10
-9.48602 17.1132 4.51728 0.317764 10
-9.48664 17.1144 5.24317 0.315033 10
-4.69097 8.3935 -2.57644 0.233008 4
-5.38306 9.63185 -2.54741 0.0547787 4
-6.87633 12.3038 -2.73977 0.0721577 1
-8.44841 15.1167 -2.74279 0.0590933 1
-9.52188 17.0374 -2.39647 0.32138 10
-9.52247 17.0385 -1.70768 0.322583 10
-9.52306 17.0395 -1.023 0.323393 10
-9.52364 17.0406 -0.340745 0.323809 10
-9.5254 17.0437 1.70821 0.322691 10
-9.52599 17.0448 2.3975 0.321531 10
-9.52658 17.0458 3.09282 0.319979 10
-9.52719 17.0469 3.79596 0.318038 10
-9.52779 17.048 4.50881 0.315708 10
-4.71228 8.36295 -2.5721 0.218373 4
-5.41677 9.61322 -2.54747 0.0697637 4
-6.91943 12.28 -2.73985 0.0721557 1
-8.50142 15.0876 -2.74288 0.0590913 1
-9.56349 16.9725 -2.39202 0.319281 10
-9.56408 16.9735 -1.70451 0.320477 10
-9.56467 16.9746 -1.0211 0.321282 10
-9.56526 16.9756 -0.340112 0.321695 10
-9.56702 16.9787 1.70503 0.320585 10
-9.56761 16.9798 2.39304 0.319433 10
-9.5682 16.9808 3.08707 0.317891 10
-9.56881 16.9819 3.78891 0.315962 10
-9.56942 16.983 4.50042 0.313648 10
-4.73351 8.33249 -2.56779 0.208722 4
-5.45042 9.59448 -2.54752 0.0666615 4
-6.96244 12.2561 -2.73992 0.0721537 1
-8.55431 15.0583 -2.74298 0.0590893 1
-9.60494 16.9078 -2.38761 0.317179 10
-9.60554 16.9088 -1.70137 0.318367 10
-9.60613 16.9098 -1.01922 0.319167 10
-9.60671 16.9109 -0.339485 0.319578 10
-9.60848 16.914 1.70189 0.318475 10
-9.60907 16.915 2.38863 0.31733 10
-9.60967 16.9161 3.08138 0.315799 10
-9.61027 16.9171 3.78192 0.313883 10
-9.61089 16.9182 4.49213 0.311585 10
-9.66673 17.0165 5.24392 0.0167456 10
-4.75467 8.30212 -2.56354 0.204087 4
-5.48401 9.57562 -2.54758 0.0568419 4
-7.00538 12.2321 -2.74 0.0721518 1
-8.60712 15.0289 -2.74307 0.0590873 1
-9.64625 16.8433 -2.38324 0.315073 10
-9.64684 16.8443 -1.69826 0.316253 10
-9.64743 16.8454 -1.01736 0.317047 10
-9.64802 16.8464 -0.338865 0.317456 10
-9.64979 16.8495 1.69878 0.316361 10
-9.65038 16.8505 2.38427 0.315224 10
-9.65098 16.8516 3.07575 0.313703 10
-9.65159 16.8526 3.775 0.3118 10
-9.65221 16.8537 4.48391 0.309517 10
-4.77575 8.27185 -2.55932 0.197739 4
-5.51752 9.55664 -2.54764 0.0635581 4
-7.04822 12.2079 -2.74007 0.0721498 1
-8.65982 14.9992 -2.74316 0.0590853 1
-9.6874 16.7791 -2.37893 0.312963 10
-9.68799 16.7801 -1.69518 0.314135 10
-9.68859 16.7811 -1.01551 0.314925 10
-9.68917 16.7822 -0.338251 0.315331 10
-9.69095 16.7852 1.6957 0.314244 10
-9.69154 16.7863 2.37994 0.313114 10
-9.69215 16.7873 3.07017 0.311604 10
-9.69275 16.7883 3.76816 0.309714 10
-9.69337 16.7894 4.47578 0.307446 10
-4.79676 8.24166 -2.55515 0.243858 4
-5.55098 9.53754 -2.5477 0.0707907 4
-7.09099 12.1835 -2.74015 0.0721478 1
-8.71242 14.9694 -2.74325 0.0590833 1
-9.7284 16.7151 -2.37465 0.310849 10
-9.729 16.7161 -1.69213 0.312014 10
-9.72959 16.7171 -1.01369 0.312798 10
-9.73019 16.7181 -0.337643 0.313201 10
-9.73196 16.7212 1.69265 0.312122 10
-9.73256 16.7222 2.37567 0.311 10
-9.73316 16.7232 3.06465 0.3095 10
-9.73377 16.7243 3.76139 0.307623 10
-9.73439 16.7254 4.46774 0.305371 10
-4.8177 8.21157 -2.55101 0.256219 4
-5.58436 9.51832 -2.54776 0.0676888 4
-7.13367 12.159 -2.74022 0.0721459 1
-8.76491 14.9394 -2.74335 0.0590813 1
-9.76926 16.6513 -2.37042 0.308732 10
-9.76986 16.6523 -1.68912 0.309888 10
-9.77045 16.6533 -1.01188 0.310668 10
-9.77104 16.6543 -0.337041 0.311068 10
-9.77283 16.6574 1.68963 0.309997 10
-9.77342 16.6584 2.37143 0.308883 10
-9.77403 16.6594 3.05919 0.307393 10
-9.77464 16.6605 3.75469 0.305529 10
-9.77526 16.6615 4.45977 0.303292 10
-4.83856 8.18156 -2.54692 0.204019 4
-5.61768 9.49899 -2.54782 0.0656205 4
-7.17626 12.1344 -2.7403 0.0721439 1
-8.81729 14.9092 -2.74344 0.0590794 1
-9.80997 16.5878 -2.36624 0.30661 10
-9.81057 16.5888 -1.68614 0.307759 10
-9.81116 16.5898 -1.0101 0.308533 10
-9.81176 16.5908 -0.336446 0.308932 10
-9.81354 16.5938 1.68665 0.307868 10
-9.81414 16.5948 2.36725 0.306762 10
-9.81475 16.5958 3.05379 0.305282 10
-9.81536 16.5969 3.74805 0.303431 10
-9.81598 16.5979 4.4519 0.30121 10
-4.86604 8.16287 -2.54637 0.0874394 4
-5.65094 9.47954 -2.54788 0.0728526 4
-7.21877 12.1096 -2.74037 0.0721419 1
-8.86958 14.8789 -2.74353 0.0590774 1
-9.85054 16.5244 -2.3621 0.304485 10
-9.85114 16.5254 -1.68319 0.305626 10
-9.85174 16.5264 -1.00833 0.306395 10
-9.85233 16.5274 -0.335857 0.306791 10
-9.85412 16.5304 1.68369 0.305735 10
-9.85472 16.5315 2.3631 0.304637 10
-9.85533 16.5325 3.04844 0.303168 10
-9.85594 16.5335 3.74149 0.301329 10
-9.85657 16.5345 4.4441 0.299123 10
-4.8946 8.14599 -2.54642 0.0755414 4
-5.68412 9.45997 -2.54793 0.0718176 4
-7.26119 12.0847 -2.74044 0.07214 1
-8.92176 14.8483 -2.74362 0.0590754 1
-9.89096 16.4613 -2.358 0.302357 10
-9.89157 16.4623 -1.68026 0.30349 10
-9.89217 16.4633 -1.00658 0.304254 10
-9.89276 16.4643 -0.335274 0.304646 10
-9.89456 16.4673 1.68077 0.303598 10
-9.89516 16.4683 2.359 0.302508 10
-9.89577 16.4693 3.04315 0.301049 10
-9.89638 16.4704 3.73499 0.299224 10
-9.89701 16.4714 4.43638 0.297034 10
-4.92311 8.12901 -2.54647 0.0797036 4
-5.71724 9.44028 -2.54799 0.0542494 4
-7.30353 12.0596 -2.74052 0.072138 1
-8.97384 14.8176 -2.74371 0.0590735 1
-9.93125 16.3984 -2.35394 0.300224 10
-9.93186 16.3994 -1.67737 0.30135 10
-9.93246 16.4004 -1.00485 0.302108 10
-9.93306 16.4014 -0.334697 0.302498 10
-9.93485 16.4044 1.67788 0.301458 10
-9.93546 16.4054 2.35494 0.300376 10
-9.93607 16.4064 3.03791 0.298927 10
-9.93669 16.4074 3.72856 0.297115 10
-9.93731 16.4085 4.42874 0.29494 10
-4.95155 8.11194 -2.54652 0.0820812 4
-5.75029 9.42048 -2.54805 0.0754308 4
-7.34578 12.0343 -2.74059 0.0721361 1
-9.0258 14.7866 -2.7438 0.0590715 1
-9.9714 16.3358 -2.34993 0.298088 10
-9.97201 16.3368 -1.67451 0.299206 10
-9.97261 16.3378 -1.00313 0.299959 10
-9.97321 16.3387 -0.334127 0.300346 10
-9.97501 16.3417 1.67502 0.299314 10
-9.97562 16.3427 2.35092 0.29824 10
-9.97623 16.3437 3.03273 0.296802 10
-9.97685 16.3447 3.7222 0.295002 10
-9.97747 16.3457 4.42119 0.292844 10
-4.97993 8.09476 -2.54657 0.0695892 4
-5.78327 9.40057 -2.54811 0.0790456 4
-7.38794 12.0089 -2.74067 0.0721342 1
-9.07766 14.7555 -2.74389 0.0590695 1
-10.0114 16.2733 -2.34596 0.295948 10
-10.012 16.2743 -1.67168 0.297058 10
-10.0126 16.2753 -1.00144 0.297806 10
-10.0132 16.2763 -0.333562 0.298191 10
-10.015 16.2792 1.67219 0.297166 10
-10.0156 16.2802 2.34695 0.2961 10
-10.0163 16.2812 3.0276 0.294672 10
-10.0169 16.2822 3.71591 0.292886 10
-10.0175 16.2832 4.41371 0.290743 10
-5.00825 8.07749 -2.54662 0.0802937 4
-5.81618 9.38053 -2.54816 0.0604453 4
-7.43001 11.9834 -2.74074 0.0721322 1
-9.12942 14.7242 -2.74398 0.0590676 1
-10.0513 16.2111 -2.34203 0.293805 10
-10.0519 16.2121 -1.66888 0.294907 10
-10.0525 16.213 -0.999761 0.29565 10
-10.0531 16.214 -0.333003 0.296032 10
-10.0549 16.2169 1.66938 0.295015 10
-10.0555 16.2179 2.34301 0.293957 10
-10.0561 16.2189 3.02253 0.29254 10
-10.0568 16.2199 3.70968 0.290766 10
-10.0574 16.2209 4.40631 0.288639 10
-5.03652 8.06011 -2.54667 0.0743445 4
-5.84902 9.36038 -2.54822 0.0619938 4
-7.472 11.9577 -2.74081 0.0721303 1
-9.18106 14.6928 -2.74407 0.0590657 1
-10.091 16.149 -2.33814 0.291658 10
-10.0917 16.15 -1.66611 0.292752 10
-10.0923 16.151 -0.998101 0.293489 10
-10.0929 16.152 -0.33245 0.293869 10
-10.0947 16.1549 1.66661 0.29286 10
-10.0953 16.1558 2.33912 0.29181 10
-10.0959 16.1568 3.01751 0.290403 10
-10.0965 16.1578 3.70352 0.288643 10
-10.0972 16.1588 4.39899 0.286531 10
-5.06472 8.04264 -2.54672 0.0576902 4
-5.88179 9.34012 -2.54828 0.0666418 4
-7.51389 11.9319 -2.74089 0.0721284 1
-9.23259 14.6611 -2.74416 0.0590637 1
-10.1307 16.0872 -2.33429 0.289508 10
-10.1313 16.0882 -1.66337 0.290594 10
-10.1319 16.0891 -0.996459 0.291326 10
-10.1325 16.0901 -0.331903 0.291703 10
-10.1343 16.093 1.66387 0.290702 10
-10.1349 16.094 2.33527 0.289659 10
-10.1355 16.0949 3.01254 0.288263 10
-10.1362 16.0959 3.69742 0.286516 10
-10.1368 16.0969 4.39175 0.28442 10
-5.09286 8.02507 -2.54677 0.0517418 4
-5.91448 9.31974 -2.54834 0.0950528 4
-7.5557 11.9059 -2.74096 0.0721264 1
-9.28401 14.6293 -2.74425 0.0590618 1
-10.1701 16.0256 -2.33049 0.287354 10
-10.1708 16.0266 -1.66066 0.288432 10
-10.1714 16.0275 -0.994834 0.289159 10
-10.172 16.0285 -0.331362 0.289533 10
-10.1738 16.0313 1.66116 0.28854 10
-10.1744 16.0323 2.33146 0.287505 10
-10.175 16.0333 3.00763 0.28612 10
-10.1756 16.0343 3.69139 0.284386 10
-10.1763 16.0353 4.38459 0.282306 10
-5.12094 8.00739 -2.54682 0.0731508 4
-5.94712 9.29925 -2.54839 0.0759372 4
-7.59742 11.8797 -2.74103 0.0721245 1
-9.33533 14.5973 -2.74434 0.0590599 1
-10.2095 15.9642 -2.32672 0.285196 10
-10.2101 15.9651 -1.65798 0.286266 10
-10.2107 15.9661 -0.993226 0.286988 10
-10.2113 15.967 -0.330826 0.28736 10
-10.2132 15.9699 1.65847 0.286375 10
-10.2138 15.9708 2.32769 0.285348 10
-10.2144 15.9718 3.00276 0.283973 10
-10.215 15.9728 3.68542 0.282252 10
-10.2157 15.9738 4.3775 0.280188 10
-10.2737 16.0645 5.10945 0.0171841 10
-5.37727 8.3439 -2.6598 0.0707705 4
-5.97967 9.27864 -2.54845 0.0480409 4
-7.63904 11.8535 -2.74111 0.0721226 1
-9.38653 14.5651 -2.74443 0.0590579 1
-10.2487 15.9029 -2.323 0.283035 10
-10.2493 15.9039 -1.65532 0.284098 10
-10.25 15.9048 -0.991636 0.284814 10
-10.2506 15.9058 -0.330297 0.285183 10
-10.2524 15.9086 1.65581 0.284206 10
-10.253 15.9096 2.32397 0.283187 10
-10.2536 15.9105 2.99795 0.281823 10
-10.2543 15.9115 3.67952 0.280115 10
-10.2549 15.9125 4.37049 0.278066 10
-5.40647 8.32524 -2.65985 0.0469812 4
-6.01216 9.25791 -2.54851 0.0614703 4
-7.68057 11.827 -2.74118 0.0721207 1
-9.43763 14.5327 -2.74452 0.059056 1
-10.2878 15.8419 -2.31931 0.280871 10
-10.2885 15.8428 -1.6527 0.281925 10
-10.2891 15.8438 -0.990063 0.282636 10
-10.2897 15.8447 -0.329773 0.283002 10
-10.2915 15.8475 1.65319 0.282034 10
-10.2921 15.8485 2.32028 0.281022 10
-10.2928 15.8494 2.9932 0.279669 10
-10.2934 15.8504 3.67368 0.277974 10
-10.294 15.8514 4.36355 0.275941 10
-5.4356 8.30647 -2.6599 0.0582794 4
-6.04457 9.23708 -2.54856 0.051138 4
-7.72201 11.8005 -2.74125 0.0721188 1
-9.4886 14.5001 -2.74461 0.0590541 1
-10.3268 15.781 -2.31567 0.278703 10
-10.3274 15.782 -1.6501 0.27975 10
-10.328 15.7829 -0.988507 0.280455 10
-10.3287 15.7839 -0.329254 0.280819 10
-10.3305 15.7867 1.65059 0.279858 10
-10.3311 15.7876 2.31663 0.278855 10
-10.3317 15.7886 2.98849 0.277512 10
-10.3324 15.7895 3.66791 0.275831 10
-10.333 15.7905 4.35669 0.273813 10
-5.46467 8.28761 -2.65995 0.0558996 4
-6.07692 9.21612 -2.54862 0.0614675 4
-7.76336 11.7738 -2.74132 0.0721169 1
-9.53947 14.4674 -2.7447 0.0590522 1
-10.3657 15.7204 -2.31206 0.276532 10
-10.3663 15.7213 -1.64753 0.27757 10
-10.3669 15.7222 -0.986968 0.27827 10
-10.3675 15.7232 -0.328742 0.278631 10
-10.3694 15.726 1.64802 0.277678 10
-10.37 15.7269 2.31302 0.276683 10
-10.3706 15.7279 2.98384 0.275351 10
-10.3712 15.7288 3.66219 0.273683 10
-10.3719 15.7298 4.34991 0.271682 10
-5.49367 8.26864 -2.66 0.108824 4
-6.10918 9.19506 -2.54868 0.0857427 4
-7.80462 11.7469 -2.74139 0.072115 1
-9.59022 14.4344 -2.74479 0.0590503 1
-10.4044 15.6599 -2.3085 0.274357 10
-10.405 15.6608 -1.64499 0.275388 10
-10.4057 15.6618 -0.985446 0.276083 10
-10.4063 15.6627 -0.328235 0.276441 10
-10.4081 15.6655 1.64548 0.275496 10
-10.4087 15.6664 2.30945 0.274509 10
-10.4094 15.6674 2.97923 0.273187 10
-10.41 15.6683 3.65654 0.271533 10
-10.4106 15.6693 4.34319 0.269547 10
-5.5226 8.24957 -2.66005 0.0582761 4
-6.14137 9.17388 -2.54873 0.0821253 4
-7.84578 11.7199 -2.74147 0.0721131 1
-9.64085 14.4013 -2.74488 0.0590484 1
-10.443 15.5996 -2.30497 0.272179 10
-10.4437 15.6006 -1.64248 0.273202 10
-10.4443 15.6015 -0.98394 0.273891 10
-10.4449 15.6024 -0.327733 0.274247 10
-10.4467 15.6052 1.64296 0.27331 10
-10.4474 15.6061 2.30592 0.272331 10
-10.448 15.607 2.97468 0.27102 10
-10.4486 15.608 3.65095 0.269379 10
-10.4493 15.6089 4.33655 0.267409 10
-5.55147 8.23039 -2.66011 0.0636268 4
-6.1735 9.15259 -2.54879 0.071277 4
-7.88685 11.6927 -2.74154 0.0721112 1
-9.69138 14.3681 -2.74496 0.0590465 1
-10.4815 15.5395 -2.30148 0.269998 10
-10.4822 15.5405 -1.63999 0.271012 10
-10.4828 15.5414 -0.982451 0.271697 10
-10.4834 15.5423 -0.327237 0.27205 10
-10.4853 15.545 1.64047 0.271121 10
-10.4859 15.546 2.30243 0.27015 10
-10.4865 15.5469 2.97017 0.268849 10
-10.4871 15.5478 3.64542 0.267221 10
-10.4878 15.5488 4.32999 0.265268 10
-5.58027 8.21112 -2.66016 0.0927625 4
-6.20554 9.13118 -2.54884 0.0619786 4
-7.92782 11.6654 -2.74161 0.0721094 1
-9.74179 14.3346 -2.74505 0.0590446 1
-10.5199 15.4796 -2.29803 0.267814 10
-10.5206 15.4805 -1.63753 0.26882 10
-10.5212 15.4814 -0.980978 0.269499 10
-10.5218 15.4824 -0.326746 0.269849 10
-10.5237 15.4851 1.63801 0.268928 10
-10.5243 15.486 2.29898 0.267965 10
-10.5249 15.4869 2.96572 0.266675 10
-10.5255 15.4879 3.63996 0.265061 10
-10.5262 15.4888 4.32349 0.263123 10
-5.60901 8.19175 -2.66021 0.0915715 4
-6.23752 9.10966 -2.5489 0.0748892 4
-7.9687 11.638 -2.74168 0.0721075 1
-9.79208 14.301 -2.74514 0.0590427 1
-10.5582 15.4199 -2.29462 0.265626 10
-10.5588 15.4208 -1.6351 0.266624 10
-10.5595 15.4217 -0.979522 0.267297 10
-10.5601 15.4226 -0.326261 0.267645 10
-10.5619 15.4253 1.63558 0.266732 10
-10.5626 15.4262 2.29557 0.265777 10
-10.5632 15.4272 2.96132 0.264498 10
-10.5638 15.4281 3.63455 0.262897 10
-10.5645 15.429 4.31707 0.260975 10
-5.63767 8.17227 -2.66026 0.0749207 4
-6.26941 9.08804 -2.54896 0.0645582 4
-8.00948 11.6104 -2.74175 0.0721056 1
-9.84225 14.2672 -2.74523 0.0590408 1
-10.5964 15.3603 -2.29125 0.263435 10
-10.597 15.3612 -1.6327 0.264425 10
-10.5976 15.3621 -0.978082 0.265093 10
-10.5982 15.363 -0.325781 0.265438 10
-10.6001 15.3657 1.63318 0.264533 10
-10.6007 15.3666 2.29219 0.263586 10
-10.6014 15.3676 2.95696 0.262318 10
-10.602 15.3685 3.6292 0.26073 10
-10.6027 15.3694 4.31072 0.258825 10
-5.66627 8.1527 -2.66031 0.0225947 4
-6.30124 9.06629 -2.54901 0.0759188 4
-8.05017 11.5827 -2.74182 0.0721037 1
-9.89231 14.2332 -2.74531 0.059039 1
-10.6344 15.3009 -2.28791 0.26124 10
-10.635 15.3018 -1.63032 0.262222 10
-10.6357 15.3027 -0.976657 0.262885 10
-10.6363 15.3036 -0.325307 0.263228 10
-10.6382 15.3063 1.6308 0.262331 10
-10.6388 15.3072 2.28885 0.261392 10
-10.6394 15.3081 2.95265 0.260134 10
-10.6401 15.309 3.62392 0.25856 10
-10.6407 15.31 4.30444 0.25667 10
-5.6948 8.13302 -2.66036 0.12189 4
-6.33298 9.04444 -2.54907 0.0599074 4
-8.09076 11.5548 -2.74189 0.0721019 1
-9.94224 14.199 -2.7454 0.0590371 1
-10.6723 15.2417 -2.28461 0.259043 10
-10.673 15.2426 -1.62797 0.260017 10
-10.6736 15.2435 -0.975249 0.260674 10
-10.6742 15.2444 -0.324838 0.261014 10
-10.6761 15.2471 1.62845 0.260125 10
-10.6767 15.248 2.28555 0.259194 10
-10.6774 15.2489 2.9484 0.257948 10
-10.678 15.2498 3.61869 0.256387 10
-10.6787 15.2507 4.29823 0.254513 10
-5.72326 8.11324 -2.66041 0.151617 4
-6.36465 9.02247 -2.54912 0.038216 4
-8.13126 11.5268 -2.74196 0.0721 1
-9.99207 14.1647 -2.74549 0.0590352 1
-10.7102 15.1826 -2.28135 0.256842 10
-10.7108 15.1835 -1.62565 0.257808 10
-10.7114 15.1844 -0.973857 0.25846 10
-10.7121 15.1853 -0.324374 0.258797 10
-10.7139 15.188 1.62612 0.257917 10
-10.7146 15.1889 2.28229 0.256994 10
-10.7152 15.1898 2.94418 0.255758 10
-10.7159 15.1907 3.61352 0.25421 10
-10.7165 15.1916 4.29209 0.252353 10
-5.75165 8.09336 -2.66045 0.125453 4
-6.39625 9.00039 -2.54918 0.0733318 4
-8.17165 11.4986 -2.74203 0.0720982 1
-10.0418 14.1301 -2.74557 0.0590334 1
-10.7479 15.1238 -2.27813 0.254639 10
-10.7485 15.1247 -1.62335 0.255597 10
-10.7492 15.1255 -0.972481 0.256243 10
-10.7498 15.1264 -0.323916 0.256577 10
-10.7517 15.1291 1.62382 0.255705 10
-10.7523 15.13 2.27906 0.25479 10
-10.7529 15.1309 2.94002 0.253565 10
-10.7536 15.1318 3.60841 0.252031 10
-10.7542 15.1327 4.28602 0.25019 10
-5.77997 8.07339 -2.6605 0.0422133 4
-6.42776 8.97821 -2.54923 0.0387308 4
-8.21195 11.4703 -2.7421 0.0720963 1
-10.0913 14.0954 -2.74566 0.0590315 1
-10.7855 15.0651 -2.27494 0.252432 10
-10.7861 15.0659 -1.62108 0.253382 10
-10.7868 15.0668 -0.97112 0.254023 10
-10.7874 15.0677 -0.323463 0.254354 10
-10.7893 15.0703 1.62155 0.25349 10
-10.7899 15.0712 2.27587 0.252583 10
-10.7906 15.0721 2.93591 0.251369 10
-10.7912 15.073 3.60336 0.249848 10
-10.7919 15.0739 4.28003 0.248023 10
-5.80823 8.05331 -2.66055 0.0541034 4
-6.4592 8.95591 -2.54929 0.0666155 4
-8.25215 11.4419 -2.74217 0.0720945 1
-10.1408 14.0606 -2.74575 0.0590297 1
-10.823 15.0065 -2.27179 0.250222 10
-10.8237 15.0074 -1.61883 0.251163 10
-10.8243 15.0083 -0.969775 0.251799 10
-10.8249 15.0091 -0.323015 0.252128 10
-10.8256 15.01 0.323033 0.25215 10
-10.8262 15.0109 0.969944 0.251864 10
-10.8268 15.0118 1.6193 0.251272 10
-10.8275 15.0126 2.27272 0.250373 10
-10.8281 15.0135 2.93184 0.24917 10
-10.8287 15.0144 3.59837 0.247663 10
-10.8294 15.0153 4.27409 0.245854 10
-10.8301 15.0163 4.96089 0.243745 10
-5.83641 8.03314 -2.6606 0.0434008 4
-6.49056 8.9335 -2.54934 0.0805565 4
-8.29225 11.4133 -2.74224 0.0720927 1
-10.1901 14.0255 -2.74583 0.0590278 1
-10.8604 14.9481 -2.26868 0.248009 10
-10.8611 14.949 -1.61661 0.248943 10
-10.8617 14.9499 -0.968446 0.249573 10
-10.8623 14.9507 -0.322572 0.249899 10
-10.863 14.9516 0.32259 0.249921 10
-10.8636 14.9525 0.968614 0.249638 10
-10.8642 14.9533 1.61708 0.249051 10
-10.8649 14.9542 2.2696 0.24816 10
-10.8655 14.9551 2.92782 0.246968 10
-10.8662 14.956 3.59344 0.245474 10
-10.8668 14.9569 4.26823 0.243681 10
-10.8675 14.9578 4.95408 0.241592 10
-5.86453 8.01286 -2.66065 0.0618302 4
-6.52185 8.91098 -2.5494 0.0774565 4
-8.33225 11.3846 -2.74231 0.0720908 1
-10.2394 13.9903 -2.74592 0.059026 1
-10.8977 14.8899 -2.2656 0.245793 10
-10.8984 14.8908 -1.61442 0.246718 10
-10.899 14.8916 -0.967131 0.247343 10
-10.8996 14.8925 -0.322134 0.247666 10
-10.9003 14.8933 0.322152 0.247688 10
-10.9009 14.8942 0.9673 0.247408 10
-10.9015 14.8951 1.61489 0.246827 10
-10.9022 14.896 2.26652 0.245944 10
-10.9028 14.8968 2.92384 0.244762 10
-10.9035 14.8977 3.58856 0.243282 10
-10.9041 14.8986 4.26244 0.241506 10
-10.9048 14.8995 4.94736 0.239435 10
-5.89257 7.99249 -2.6607 0.032698 4
-6.55305 8.88834 -2.54945 0.0609312 4
-8.37215 11.3557 -2.74238 0.072089 1
-10.2884 13.9549 -2.746 0.0590241 1
-10.9349 14.8318 -2.26256 0.243574 10
-10.9356 14.8327 -1.61225 0.244491 10
-10.9362 14.8335 -0.965833 0.245111 10
-10.9369 14.8344 -0.321701 0.245431 10
-10.9375 14.8353 0.32172 0.245453 10
-10.9381 14.8361 0.966 0.245176 10
-10.9388 14.837 1.61272 0.2446 10
-10.9394 14.8378 2.26348 0.243725 10
-10.94 14.8387 2.91992 0.242554 10
-10.9407 14.8396 3.58374 0.241088 10
-10.9414 14.8405 4.25671 0.239328 10
-10.942 14.8414 4.94071 0.237276 10
-5.92054 7.97201 -2.66075 0.0653949 4
-6.58418 8.8656 -2.5495 0.0743551 4
-8.41195 11.3267 -2.74245 0.0720872 1
-10.3374 13.9193 -2.74609 0.0590223 1
-10.9721 14.7739 -2.25955 0.241352 10
-10.9727 14.7747 -1.61011 0.242261 10
-10.9733 14.7756 -0.964549 0.242875 10
-10.974 14.7765 -0.321274 0.243193 10
-10.9746 14.7773 0.321292 0.243214 10
-10.9752 14.7782 0.964716 0.24294 10
-10.9759 14.779 1.61057 0.242369 10
-10.9765 14.7799 2.26047 0.241503 10
-10.9772 14.7808 2.91603 0.240343 10
-10.9778 14.7816 3.57897 0.23889 10
-10.9785 14.7825 4.25105 0.237146 10
-10.9792 14.7834 4.93414 0.235113 10
-5.94844 7.95145 -2.6608 0.00951181 4
-6.61522 8.84276 -2.54956 0.0671247 4
-8.45165 11.2976 -2.74252 0.0720854 1
-10.3863 13.8836 -2.74617 0.0590205 1
-11.0091 14.7161 -2.25658 0.239127 10
-11.0097 14.717 -1.60799 0.240028 10
-11.0103 14.7178 -0.96328 0.240636 10
-11.011 14.7187 -0.320851 0.240952 10
-11.0116 14.7195 0.320869 0.240973 10
-11.0122 14.7204 0.963447 0.240701 10
-11.0129 14.7212 1.60846 0.240136 10
-11.0135 14.7221 2.25749 0.239279 10
-11.0142 14.723 2.9122 0.238129 10
-11.0148 14.7238 3.57426 0.23669 10
-11.0155 14.7247 4.24546 0.234962 10
-11.0162 14.7256 4.92764 0.232948 10
-5.97627 7.93078 -2.66085 0.0112951 4
-6.64619 8.81979 -2.54961 0.0733193 4
-8.49125 11.2683 -2.74259 0.0720836 1
-10.435 13.8477 -2.74626 0.0590186 1
-11.046 14.6585 -2.25364 0.236899 10
-11.0466 14.6594 -1.6059 0.237792 10
-11.0473 14.6602 -0.962027 0.238395 10
-11.0479 14.6611 -0.320434 0.238707 10
-11.0485 14.6619 0.320452 0.238729 10
-11.0492 14.6627 0.962193 0.23846 10
-11.0498 14.6636 1.60636 0.2379 10
-11.0505 14.6644 2.25455 0.237051 10
-11.0511 14.6653 2.90841 0.235912 10
-11.0518 14.6662 3.56961 0.234486 10
-11.0524 14.6671 4.23993 0.232775 10
-11.0531 14.668 4.92123 0.23078 10
-5.99866 7.90295 -2.65852 0.142544 4
-6.67708 8.79673 -2.54966 0.0867421 4
-8.53074 11.2388 -2.74266 0.0720818 1
-10.4836 13.8116 -2.74634 0.0590168 1
-11.0828 14.601 -2.25074 0.234669 10
-11.0834 14.6019 -1.60383 0.235553 10
-11.0841 14.6027 -0.960788 0.236151 10
-11.0847 14.6036 -0.320021 0.23646 10
-11.0854 14.6044 0.320039 0.236482 10
-11.086 14.6053 0.960955 0.236216 10
-11.0866 14.6061 1.60429 0.235661 10
-11.0873 14.607 2.25165 0.23482 10
-11.0879 14.6078 2.90466 0.233693 10
-11.0886 14.6087 3.56501 0.23228 10
-11.0893 14.6096 4.23447 0.230585 10
-11.0899 14.6104 4.91489 0.228609 10
-6.01978 7.87354 -2.65568 0.203551 4
-6.70788 8.77355 -2.54972 0.06299 4
-8.57013 11.2093 -2.74273 0.07208 1
-10.5321 13.7754 -2.74643 0.059015 1
-11.1195 14.5437 -2.24787 0.232435 10
-11.1202 14.5446 -1.60179 0.233311 10
-11.1208 14.5454 -0.959565 0.233903 10
-11.1214 14.5462 -0.319614 0.23421 10
-11.1221 14.5471 0.319632 0.234232 10
-11.1227 14.5479 0.959731 0.233968 10
-11.1234 14.5488 1.60225 0.23342 10
-11.124 14.5496 2.24878 0.232587 10
-11.1247 14.5505 2.90096 0.23147 10
-11.1253 14.5513 3.56047 0.230072 10
-11.126 14.5522 4.22907 0.228393 10
-11.1267 14.5531 4.90863 0.226436 10
-6.04084 7.84419 -2.65287 0.191127 4
-6.73861 8.75026 -2.54977 0.0320106 4
-8.60942 11.1796 -2.74279 0.0720782 1
-10.5804 13.7389 -2.74651 0.0590132 1
-11.1561 14.4865 -2.24504 0.230199 10
-11.1568 14.4874 -1.59977 0.231067 10
-11.1574 14.4882 -0.958356 0.231653 10
-11.1581 14.4891 -0.319211 0.231957 10
-11.1587 14.4899 0.319229 0.231979 10
-11.1594 14.4907 0.958521 0.231718 10
-11.16 14.4916 1.60023 0.231175 10
-11.1606 14.4924 2.24595 0.23035 10
-11.1613 14.4932 2.8973 0.229245 10
-11.162 14.4941 3.55598 0.22786 10
-11.1626 14.495 4.22374 0.226197 10
-11.1633 14.4959 4.90244 0.224259 10
-6.06184 7.81488 -2.6501 0.215526 4
-6.76925 8.72687 -2.54983 0.0635037 4
-8.64861 11.1497 -2.74286 0.0720764 1
-10.6286 13.7023 -2.74659 0.0590114 1
-11.1927 14.4295 -2.24225 0.227959 10
-11.1933 14.4304 -1.59778 0.228819 10
-11.194 14.4312 -0.957162 0.2294 10
-11.1946 14.432 -0.318813 0.229702 10
-11.1953 14.4328 0.318831 0.229724 10
-11.1959 14.4337 0.957327 0.229465 10
-11.1965 14.4345 1.59824 0.228928 10
-11.1972 14.4353 2.24315 0.228111 10
-11.1978 14.4362 2.89369 0.227016 10
-11.1985 14.437 3.55155 0.225645 10
-11.1992 14.4379 4.21848 0.223999 10
-11.1999 14.4388 4.89633 0.22208 10
-6.08279 7.78561 -2.64736 0.178932 4
-6.79982 8.70337 -2.54988 0.0459488 4
-8.68769 11.1197 -2.74293 0.0720746 1
-10.6767 13.6656 -2.74668 0.0590096 1
-11.2291 14.3726 -2.23948 0.225717 10
-11.2298 14.3735 -1.59581 0.226569 10
-11.2304 14.3743 -0.955982 0.227145 10
-11.2311 14.3751 -0.31842 0.227443 10
-11.2317 14.3759 0.318438 0.227465 10
-11.2324 14.3768 0.956147 0.22721 10
-11.233 14.3776 1.59627 0.226677 10
-11.2336 14.3784 2.24038 0.225869 10
-11.2343 14.3793 2.89013 0.224785 10
-11.235 14.3801 3.54717 0.223428 10
-11.2356 14.381 4.21328 0.221798 10
-11.2363 14.3818 4.89029 0.219898 10
-6.10368 7.75639 -2.64465 0.20338 4
-6.8303 8.67976 -2.54993 0.0283948 4
-8.72667 11.0896 -2.743 0.0720728 1
-10.7247 13.6286 -2.74676 0.0590078 1
-11.2655 14.3159 -2.23675 0.223473 10
-11.2661 14.3167 -1.59386 0.224316 10
-11.2668 14.3175 -0.954817 0.224886 10
-11.2674 14.3183 -0.318032 0.225182 10
-11.2681 14.3192 0.31805 0.225204 10
-11.2687 14.32 0.954981 0.224951 10
-11.2694 14.3208 1.59432 0.224424 10
-11.27 14.3216 2.23765 0.223624 10
-11.2707 14.3225 2.8866 0.222552 10
-11.2713 14.3233 3.54285 0.221208 10
-11.272 14.3242 4.20814 0.219595 10
-11.2727 14.325 4.88433 0.217714 10
-6.12452 7.72722 -2.64198 0.141011 4
-6.8607 8.65604 -2.54998 0.0717598 4
-8.76554 11.0594 -2.74307 0.0720711 1
-10.7725 13.5915 -2.74684 0.0590061 1
-11.3018 14.2593 -2.23406 0.221225 10
-11.3024 14.2601 -1.59194 0.22206 10
-11.3031 14.2609 -0.953667 0.222625 10
-11.3037 14.2617 -0.317649 0.222918 10
-11.3043 14.2625 0.317667 0.22294 10
-11.305 14.2633 0.95383 0.22269 10
-11.3056 14.2642 1.5924 0.222169 10
-10.6764 13.4703 2.11045 0.0948665 10
-10.677 13.4711 2.72251 0.0944115 10
-10.6777 13.4719 3.34144 0.0938416 10
-10.6783 13.4727 3.96892 0.0931573 10
-10.679 13.4735 4.60666 0.0923595 10
-6.1453 7.69809 -2.63934 0.199704 4
-6.89101 8.63222 -2.55004 0.0573034 4
-8.80431 11.029 -2.74313 0.0720693 1
-10.8202 13.5542 -2.74693 0.0590043 1
-11.3379 14.2028 -2.2314 0.218975 10
-11.3386 14.2036 -1.59005 0.219802 10
-11.3392 14.2044 -0.95253 0.220361 10
