VERSION 0.7
FIELDS x y z intensity label
SIZE 4 4 4 4 4
TYPE F F F F F
COUNT 1 1 1 1 1
WIDTH 1251
HEIGHT 1
VIEWPOINT 10.0669 53.9769 2.72886 0.7314 0.000444424 0.000485239 -0.681949
POINTS 1251
DATA ascii
9.02699 -3.9438 -2.63954 0.022788 4
10.4694 -4.57395 -2.63765 0.0568529 4
12.4225 -5.42727 -2.63509 0.0159427 4
15.2245 -6.65144 -2.63141 0.0185425 4
20.165 -8.80988 -2.70193 0.0467634 1
26.2322 -11.4606 -2.50449 0.0254749 4
29.4502 -12.8665 -1.68429 0.298101 10
30.4346 -13.2966 0.579725 0.298459 10
30.4356 -13.297 4.07811 0.231005 10
29.4528 -12.8676 7.42032 0.226767 10
9.04063 -3.91223 -2.63952 0.0167913 4
10.4852 -4.53734 -2.63762 0.0276443 4
12.4413 -5.38382 -2.63506 0.0155 4
15.2475 -6.59817 -2.63138 0.0225421 4
20.1953 -8.7393 -2.70189 0.0467641 1
26.2715 -11.3687 -2.50443 0.0293477 4
30.7829 -13.321 0.58547 0.29553 10
30.784 -13.3214 4.11852 0.228738 10
29.7899 -12.8912 7.49387 0.224542 10
9.05417 -3.88062 -2.6395 0.0329831 4
10.5009 -4.50068 -2.6376 0.0182558 4
15.2702 -6.54483 -2.63135 0.0207245 4
20.1744 -8.64677 -2.69504 0.0145664 4
31.1903 -13.3682 -1.77842 0.839509 10
31.1887 -13.3675 -0.592298 0.840574 10
31.1382 -13.3459 0.591338 0.292597 10
31.1857 -13.3662 1.77817 0.417929 10
31.1842 -13.3656 2.96829 0.416931 10
31.1393 -13.3463 4.1598 0.226468 10
31.1811 -13.3643 5.3731 0.413411 10
31.1796 -13.3636 6.59391 0.410895 10
31.1403 -13.3468 7.82182 0.222313 10
31.1764 -13.3622 9.08864 0.404364 10
9.0676 -3.84897 -2.63948 0.0167915 4
10.5164 -4.46396 -2.63758 0.0453791 4
12.4783 -5.29673 -2.63501 0.0403007 4
15.2928 -6.49142 -2.63132 0.0156344 4
20.0054 -8.4918 -2.66849 0.0148644 4
26.3491 -11.1845 -2.50433 0.0264956 4
31.2292 -13.256 -1.77799 0.840524 10
31.2276 -13.2553 -0.592154 0.841591 10
31.2261 -13.2547 0.592125 0.841631 10
31.2246 -13.2541 1.77773 0.655463 10
31.2231 -13.2534 2.96757 0.653896 10
31.5018 -13.3717 4.20197 0.224196 10
31.22 -13.2521 5.3718 0.648377 10
31.2185 -13.2515 6.59231 0.64443 10
31.5029 -13.3722 7.90111 0.220082 10
31.2153 -13.2501 9.08644 0.634187 10
9.08092 -3.81727 -2.63946 0.0407797 4
10.5319 -4.42719 -2.63756 0.0203425 4
12.4966 -5.2531 -2.63499 0.0256864 4
19.8393 -8.33966 -2.64243 0.0155248 4
26.3874 -11.0923 -2.50428 0.024458 4
31.2379 -13.1312 -1.77587 0.841529 10
31.2364 -13.1306 -0.591447 0.842597 10
31.2349 -13.1299 0.591418 0.842637 10
31.2334 -13.1293 1.77561 0.656246 10
31.2318 -13.1287 2.96403 0.654678 10
31.8717 -13.3976 4.24505 0.22192 10
31.2288 -13.1274 5.36539 0.649152 10
31.2272 -13.1267 6.58444 0.6452 10
31.8728 -13.3981 7.98212 0.217849 10
31.224 -13.1254 9.07559 0.634945 10
9.09413 -3.78552 -2.63945 0.0125938 4
10.5472 -4.39036 -2.63754 0.0255587 4
12.5148 -5.20939 -2.63496 0.0341012 4
19.7409 -8.21734 -2.62549 0.0150458 4
31.2466 -13.0067 -1.77377 0.842524 10
31.2451 -13.0061 -0.590749 0.843592 10
31.2436 -13.0055 0.59072 0.843633 10
31.2421 -13.0048 1.77352 0.657022 10
31.2406 -13.0042 2.96053 0.655451 10
32.2493 -13.4241 4.28908 0.219642 10
31.2375 -13.0029 5.35905 0.649918 10
31.2359 -13.0023 6.57667 0.645962 10
32.2505 -13.4246 8.06491 0.215613 10
31.2328 -13.0009 9.06488 0.635695 10
9.10723 -3.75373 -2.63943 0.0299855 4
10.5623 -4.35349 -2.63752 0.0312967 4
12.5328 -5.16563 -2.63494 0.0106291 4
15.3594 -6.3307 -2.63123 0.0181802 4
19.7692 -8.14827 -2.62545 0.052803 4
26.4631 -10.9073 -2.50418 0.026701 4
72.4684 -29.8693 -1.36817 0.844578 10
57.2047 -23.5781 3.24264 0.657789 10
57.2019 -23.5769 5.41295 0.656217 10
57.1991 -23.5758 7.59634 0.653845 10
57.1963 -23.5746 9.79833 0.650677 10
57.1935 -23.5734 12.0246 0.646717 10
57.1906 -23.5723 14.281 0.641968 10
57.1876 -23.571 16.574 0.636437 10
9.12021 -3.72189 -2.63941 0.0191908 4
10.5774 -4.31656 -2.6375 0.0552912 4
12.5506 -5.1218 -2.63491 0.0310017 4
15.3813 -6.27698 -2.6312 0.0112718 4
19.7972 -8.07909 -2.62541 0.0564943 4
26.5005 -10.8147 -2.50412 0.0277207 4
57.2206 -23.3513 3.2389 0.658548 10
57.2178 -23.3502 5.4067 0.656975 10
57.215 -23.349 7.58758 0.6546 10
57.2122 -23.3479 9.78703 0.651429 10
57.2094 -23.3467 12.0107 0.647463 10
57.2065 -23.3455 14.2646 0.642709 10
57.2036 -23.3443 16.5548 0.637171 10
9.13309 -3.69001 -2.63939 0.0461782 4
10.5923 -4.27958 -2.63748 0.0777212 4
12.5683 -5.07792 -2.63489 0.0558035 4
15.4029 -6.22318 -2.63117 0.0141809 4
19.825 -8.00983 -2.62538 0.054224 4
26.5376 -10.7219 -2.50407 0.0267021 4
62.1553 -25.1124 -1.17013 0.846518 10
57.2364 -23.125 3.23521 0.6593 10
57.2337 -23.1239 5.40054 0.657724 10
57.2309 -23.1228 7.57894 0.655347 10
57.2281 -23.1217 9.77588 0.652172 10
57.2252 -23.1205 11.997 0.648202 10
57.2224 -23.1193 14.2483 0.643442 10
57.2194 -23.1182 16.536 0.637898 10
9.14585 -3.65808 -2.63938 0.0539749 4
10.6071 -4.24254 -2.63746 0.0114757 4
12.5858 -5.03397 -2.63487 0.015944 4
15.4244 -6.16931 -2.63114 0.0338163 4
26.5743 -10.629 -2.50403 0.0291487 4
62.1725 -24.8672 -1.16881 0.847472 10
57.2523 -22.8993 3.23157 0.660043 10
57.2495 -22.8982 5.39446 0.658466 10
57.2467 -22.8971 7.5704 0.656086 10
57.2439 -22.8959 9.76487 0.652907 10
57.2411 -22.8948 11.9835 0.648932 10
57.2382 -22.8937 14.2323 0.644167 10
57.2353 -22.8925 16.5174 0.638617 10
9.15851 -3.62611 -2.63936 0.0227896 4
10.6218 -4.20546 -2.63744 0.00625952 4
12.6032 -4.98996 -2.63484 0.012401 4
15.4456 -6.11536 -2.63112 0.015272 4
19.8799 -7.87101 -2.6253 0.0246996 4
26.6107 -10.5359 -2.50398 0.0293531 4
62.6845 -24.8186 -1.1768 0.269016 10
57.268 -22.674 3.22797 0.660778 10
57.2653 -22.6729 5.38846 0.659199 10
57.2625 -22.6718 7.56198 0.656817 10
57.2597 -22.6707 9.75401 0.653634 10
57.2569 -22.6696 11.9702 0.649655 10
57.254 -22.6685 14.2165 0.644885 10
57.2511 -22.6673 16.499 0.639328 10
9.17105 -3.5941 -2.63934 0.0431805 4
10.6363 -4.16833 -2.63742 0.033906 4
12.6204 -4.9459 -2.63482 0.0376462 4
15.4667 -6.06135 -2.63109 0.0258173 4
19.907 -7.80146 -2.62526 0.0173183 4
26.6775 -10.4548 -2.50681 0.213114 4
57.2838 -22.4493 3.22442 0.661506 10
57.281 -22.4482 5.38253 0.659925 10
57.2783 -22.4471 7.55367 0.65754 10
57.2755 -22.446 9.74329 0.654353 10
57.2726 -22.4449 11.957 0.65037 10
57.2697 -22.4438 14.2008 0.645594 10
57.2668 -22.4426 16.4809 0.640032 10
9.18348 -3.56204 -2.63933 0.0485784 4
10.6507 -4.13114 -2.6374 0.0370361 4
12.6375 -4.90177 -2.6348 0.00841512 4
15.4876 -6.00726 -2.63106 0.00909069 4
19.9338 -7.73181 -2.62523 0.0201577 4
26.9647 -10.4589 -2.53035 0.238544 4
72.9398 -28.2915 -1.36559 0.561628 10
57.2995 -22.225 3.22092 0.662225 10
57.2968 -22.224 5.37669 0.660642 10
57.294 -22.2229 7.54546 0.658254 10
57.2912 -22.2218 9.7327 0.655065 10
57.2883 -22.2207 11.9441 0.651077 10
57.2855 -22.2196 14.1854 0.646296 10
57.2826 -22.2184 16.463 0.640728 10
9.1958 -3.52994 -2.63931 0.0383831 4
10.665 -4.09391 -2.63738 0.0156492 4
12.6544 -4.85758 -2.63477 0.0155017 4
15.5083 -5.95309 -2.63103 0.0141816 4
27.2573 -10.4631 -2.55437 0.238786 4
57.715 -22.1547 -1.07909 0.171813 10
57.7157 -22.155 1.07911 0.171811 10
57.3152 -22.0012 3.21746 0.662936 10
57.3124 -22.0002 5.37092 0.661352 10
57.3097 -21.9991 7.53737 0.658961 10
57.3069 -21.9981 9.72227 0.655768 10
57.304 -21.997 11.9312 0.651776 10
57.3012 -21.9959 14.1702 0.64699 10
57.2983 -21.9947 16.4453 0.641415 10
9.20801 -3.4978 -2.63929 0.0365842 4
10.6791 -4.05663 -2.63736 0.0255605 4
12.6712 -4.81334 -2.63475 0.014616 4
15.5289 -5.89886 -2.631 0.0359999 4
19.9867 -7.59225 -2.62516 0.0337863 4
27.5555 -10.4674 -2.57887 0.239025 4
57.6879 -21.9136 -1.07715 0.562827 10
57.6851 -21.9125 1.0771 0.562854 10
57.3308 -21.7779 3.21406 0.663639 10
57.3281 -21.7769 5.36523 0.662053 10
57.3253 -21.7759 7.52939 0.65966 10
57.3225 -21.7748 9.71197 0.656463 10
57.3197 -21.7737 11.9186 0.652467 10
57.3168 -21.7726 14.1552 0.647676 10
57.3139 -21.7715 16.4279 0.642095 10
9.22011 -3.46561 -2.63928 0.0275882 4
10.6932 -4.0193 -2.63735 0.0151277 4
15.5492 -5.84456 -2.63098 0.0232729 4
20.0129 -7.52234 -2.62512 0.0190228 4
27.8594 -10.4717 -2.60388 0.260658 4
57.7036 -21.6894 -1.07602 0.563417 10
57.7008 -21.6883 1.07597 0.563444 10
57.3465 -21.5551 3.21069 0.664334 10
57.3437 -21.5541 5.35962 0.662746 10
57.3409 -21.553 7.52151 0.660351 10
57.3381 -21.552 9.70181 0.657151 10
57.3353 -21.5509 11.9061 0.65315 10
57.3325 -21.5499 14.1404 0.648354 10
57.3296 -21.5488 16.4107 0.642768 10
9.23209 -3.43339 -2.63926 0.0191919 4
10.7071 -3.98192 -2.63733 0.0349505 4
12.7043 -4.72468 -2.63471 0.0181596 4
15.5693 -5.79019 -2.63095 0.0116366 4
20.0387 -7.45234 -2.62509 0.0176034 4
28.011 -10.4172 -2.61463 0.0277255 4
73.0194 -27.1557 -1.35985 0.563999 10
57.362 -21.3328 3.20738 0.665021 10
57.3593 -21.3317 5.35408 0.663431 10
57.3565 -21.3307 7.51374 0.661033 10
57.3537 -21.3297 9.69179 0.65783 10
57.3509 -21.3286 11.8938 0.653825 10
57.3481 -21.3276 14.1258 0.649024 10
57.3451 -21.3265 16.3938 0.643432 10
9.24397 -3.40112 -2.63925 0.0269888 4
10.7208 -3.94449 -2.63731 0.0453838 4
12.7206 -4.68027 -2.63469 0.0580225 4
15.5893 -5.73575 -2.63092 0.00981845 4
20.0644 -7.38225 -2.62505 0.020159 4
28.0467 -10.3192 -2.61458 0.0342498 4
73.0392 -26.8732 -1.35846 0.564575 10
57.4724 -21.1457 3.2094 0.193289 10
57.4732 -21.146 5.35779 0.192815 10
57.3721 -21.1088 7.50608 0.661708 10
57.4747 -21.1466 9.69969 0.191163 10
57.4755 -21.1469 11.9043 0.189988 10
57.4762 -21.1471 14.1391 0.188581 10
57.477 -21.1474 16.4103 0.186944 10
9.25572 -3.36881 -2.63923 0.0347858 4
10.7344 -3.90702 -2.63729 0.0506007 4
12.7367 -4.6358 -2.63466 0.0314476 4
15.6091 -5.68124 -2.6309 0.0418198 4
57.7422 -21.0165 5.376 0.664777 10
57.3876 -20.8874 7.49853 0.662375 10
57.7338 -21.0134 11.9425 0.655152 10
57.728 -21.0113 16.4609 0.644737 10
9.26737 -3.33646 -2.63921 0.0281887 4
10.7479 -3.8695 -2.63727 0.0339079 4
12.7528 -4.59127 -2.63464 0.0230322 4
15.6286 -5.62666 -2.63087 0.0338198 4
20.1149 -7.24181 -2.62498 0.0147647 4
26.924 -9.69324 -2.50355 0.0301735 4
57.7934 -20.8069 -1.07217 0.160001 10
57.7941 -20.8072 1.07219 0.159999 10
57.7578 -20.7941 5.37066 0.665438 10
57.4031 -20.6664 7.49108 0.663033 10
57.7494 -20.7911 11.9307 0.655803 10
57.7436 -20.789 16.4445 0.645378 10
9.27891 -3.30407 -2.6392 0.0767696 4
10.7613 -3.83193 -2.63725 0.0166933 4
12.7686 -4.54669 -2.63462 0.0124021 4
15.648 -5.57202 -2.63084 0.0130917 4
20.1398 -7.17146 -2.62495 0.0457145 4
57.7734 -20.5722 5.3654 0.666091 10
57.4186 -20.4458 7.48374 0.663683 10
57.765 -20.5692 11.919 0.656446 10
57.7592 -20.5671 16.4284 0.646011 10
9.29033 -3.27164 -2.63918 0.0251902 4
10.7745 -3.79432 -2.63724 0.0151284 4
12.7843 -4.50206 -2.6346 0.0190462 4
15.6672 -5.51731 -2.63082 0.019274 4
27.2189 -9.58528 -2.52469 0.30324 4
57.7972 -20.3536 -1.06958 0.858118 10
57.7944 -20.3526 1.06953 0.858159 10
57.7009 -20.3197 3.206 0.183976 10
57.7889 -20.3507 5.36021 0.666736 10
57.7025 -20.3203 7.51145 0.18285 10
57.7033 -20.3205 9.68944 0.181953 10
57.7805 -20.3477 11.9075 0.657082 10
57.7049 -20.3211 14.1242 0.179494 10
57.7747 -20.3457 16.4125 0.646636 10
9.30164 -3.23918 -2.63917 0.0329873 4
10.7877 -3.75666 -2.63722 0.041212 4
12.7998 -4.45737 -2.63458 0.0296768 4
15.6862 -5.46253 -2.63079 0.0203652 4
27.5668 -9.59976 -2.55383 0.288345 4
57.8126 -20.1325 -1.06856 0.858937 10
57.8099 -20.1315 1.06851 0.858978 10
57.8072 -20.1306 3.20798 0.668972 10
57.8044 -20.1296 5.3551 0.667372 10
57.8016 -20.1287 7.51517 0.66496 10
57.7988 -20.1277 9.69363 0.661738 10
57.796 -20.1267 11.8961 0.657709 10
57.7931 -20.1257 14.1285 0.652879 10
57.7902 -20.1247 16.3969 0.647253 10
9.31284 -3.20667 -2.63915 0.0125952 4
10.8006 -3.71896 -2.6372 0.00939014 4
12.8152 -4.41263 -2.63456 0.0132882 4
15.7051 -5.40769 -2.63077 0.0250931 4
27.9227 -9.61457 -2.58369 0.329838 4
57.8226 -19.9099 3.20497 0.669602 10
57.8199 -19.909 5.35006 0.668001 10
57.8171 -19.908 7.5081 0.665586 10
57.8143 -19.9071 9.68451 0.662361 10
57.8115 -19.9061 11.8849 0.658328 10
57.8086 -19.9051 14.1152 0.653494 10
57.8057 -19.9041 16.3815 0.647863 10
9.32392 -3.17412 -2.63914 0.0425841 4
10.8135 -3.68121 -2.63718 0.0266056 4
12.8304 -4.36783 -2.63454 0.0190466 4
15.7237 -5.35278 -2.63074 0.0189109 4
28.2871 -9.62971 -2.61427 0.264977 4
57.8381 -19.6897 3.20199 0.670224 10
57.8353 -19.6887 5.3451 0.668621 10
57.8325 -19.6878 7.50113 0.666204 10
57.8297 -19.6868 9.67553 0.662976 10
57.8269 -19.6859 11.8739 0.658939 10
57.8241 -19.6849 14.1021 0.6541 10
57.8211 -19.6839 16.3663 0.648464 10
9.33489 -3.14154 -2.63912 0.0323881 4
10.8262 -3.64342 -2.63717 0.0239973 4
12.8455 -4.32299 -2.63452 0.00797306 4
20.2606 -6.81845 -2.62479 0.0377665 4
28.6601 -9.6452 -2.64562 0.25217 4
57.8535 -19.4699 3.19906 0.670837 10
57.8507 -19.4689 5.34021 0.669233 10
57.8479 -19.468 7.49427 0.666814 10
57.8451 -19.4671 9.66668 0.663583 10
57.8423 -19.4661 11.863 0.659543 10
57.8395 -19.4651 14.0892 0.654699 10
57.8366 -19.4642 16.3513 0.649058 10
9.34575 -3.10892 -2.63911 0.0209924 4
10.8388 -3.60558 -2.63715 0.0161722 4
12.8604 -4.27809 -2.6345 0.0310066 4
15.7604 -5.24278 -2.63069 0.0138198 4
29.0422 -9.66106 -2.67776 0.202348 4
57.8688 -19.2504 3.19618 0.671443 10
57.8661 -19.2495 5.33539 0.669837 10
57.8633 -19.2486 7.48752 0.667416 10
57.8605 -19.2477 9.65796 0.664181 10
57.8577 -19.2467 11.8523 0.660138 10
57.8549 -19.2458 14.0765 0.65529 10
57.852 -19.2448 16.3366 0.649643 10
9.35649 -3.07626 -2.63909 0.0401857 4
10.8512 -3.5677 -2.63713 0.0208675 4
12.8752 -4.23314 -2.63448 0.0221477 4
15.7784 -5.18769 -2.63067 0.0178204 4
29.2091 -9.60347 -2.69004 0.033591 1
62.4756 -20.5409 -1.14795 0.862877 10
57.8842 -19.0314 3.19334 0.67204 10
57.8814 -19.0305 5.33065 0.670433 10
57.8787 -19.0296 7.48086 0.66801 10
57.8759 -19.0286 9.64938 0.664772 10
57.8731 -19.0277 11.8418 0.660725 10
57.8702 -19.0268 14.064 0.655873 10
57.8673 -19.0258 16.3221 0.650221 10
9.36712 -3.04356 -2.63908 0.00479831 4
10.8635 -3.52978 -2.63712 0.0344316 4
12.8898 -4.18814 -2.63446 0.0261345 4
15.7963 -5.13253 -2.63064 0.0120016 4
20.3302 -6.60568 -2.62469 0.0221496 4
29.2419 -9.50129 -2.69 0.0335916 1
62.9214 -20.4444 -1.15482 0.215211 10
57.8995 -18.8127 3.19054 0.672629 10
57.8968 -18.8118 5.32598 0.671021 10
57.894 -18.8109 7.47431 0.668595 10
57.8912 -18.81 9.64093 0.665355 10
57.8884 -18.8091 11.8314 0.661304 10
57.8856 -18.8082 14.0517 0.656447 10
57.8826 -18.8072 16.3078 0.650791 10
9.37764 -3.01083 -2.63906 0.0407859 4
10.8757 -3.49182 -2.6371 0.0234763 4
12.9042 -4.14309 -2.63444 0.0434102 4
15.814 -5.07732 -2.63062 0.0130928 4
20.3529 -6.5346 -2.62466 0.0252735 4
29.2745 -9.399 -2.68995 0.0335921 1
57.9148 -18.5944 3.18779 0.67321 10
57.9121 -18.5935 5.32139 0.6716 10
57.9093 -18.5927 7.46786 0.669173 10
57.9065 -18.5918 9.63261 0.665929 10
57.9037 -18.5909 11.8212 0.661875 10
57.9009 -18.5899 14.0395 0.657014 10
57.898 -18.589 16.2937 0.651353 10
9.38804 -2.97806 -2.63905 0.0341883 4
10.8878 -3.45381 -2.63708 0.0109557 4
12.9185 -4.09799 -2.63442 0.00974522 4
15.8315 -5.02204 -2.6306 0.0156387 4
29.1998 -9.26272 -2.6801 0.0314605 4
57.9301 -18.3765 3.18508 0.673783 10
57.9273 -18.3756 5.31686 0.672172 10
57.9246 -18.3748 7.46151 0.669742 10
57.9218 -18.3739 9.62443 0.666496 10
57.919 -18.373 11.8112 0.662438 10
57.9161 -18.3721 14.0276 0.657573 10
57.9132 -18.3712 16.2799 0.651907 10
9.39833 -2.94526 -2.63904 0.0299899 4
10.8997 -3.41576 -2.63707 0.0902543 4
12.9326 -4.05284 -2.6344 0.0358804 4
15.8488 -4.9667 -2.63057 0.0316414 4
20.3975 -6.3922 -2.6246 0.0244222 4
67.1324 -21.038 -1.22799 0.86584 10
57.7497 -18.0977 3.17167 0.160541 10
57.9426 -18.1581 5.31241 0.672735 10
57.7525 -18.0985 9.58573 0.158774 10
57.9342 -18.1555 11.8013 0.662993 10
57.7543 -18.0991 13.973 0.156628 10
57.9285 -18.1537 16.2662 0.652453 10
9.40851 -2.91242 -2.63902 0.0479842 4
10.9115 -3.37767 -2.63705 0.0892114 4
12.9466 -4.00765 -2.63438 0.0243634 4
15.8659 -4.91131 -2.63055 0.031278 4
20.4195 -6.32089 -2.62457 0.0428813 4
67.15 -20.7864 -1.22698 0.866554 10
57.9578 -17.9409 5.30803 0.67329 10
57.9495 -17.9384 11.7916 0.66354 10
57.9437 -17.9366 16.2528 0.652991 10
9.41856 -2.87955 -2.63901 0.0299903 4
10.9232 -3.33955 -2.63703 0.103298 4
12.9604 -3.9624 -2.63436 0.00753056 4
15.8828 -4.85585 -2.63053 0.0167303 4
20.4412 -6.24951 -2.62454 0.0204469 4
28.5712 -8.73511 -2.61387 0.0367061 4
57.973 -17.7241 5.30373 0.673837 10
57.9647 -17.7216 11.782 0.664078 10
57.9589 -17.7198 16.2396 0.653521 10
9.42851 -2.84664 -2.639 0.0263916 4
10.9347 -3.30138 -2.63702 0.082952 4
12.9741 -3.91711 -2.63434 0.0177191 4
15.8995 -4.80034 -2.6305 0.016003 4
28.6011 -8.63519 -2.61383 0.0411931 4
57.9882 -17.5077 5.29949 0.674375 10
57.9798 -17.5052 11.7726 0.664609 10
57.9741 -17.5034 16.2267 0.654043 10
9.43834 -2.81369 -2.63898 0.0173945 4
10.9461 -3.26317 -2.637 0.0975604 4
12.9876 -3.87177 -2.63432 0.0066447 4
15.916 -4.74477 -2.63048 0.0229136 4
58.0033 -17.2915 5.29533 0.674905 10
57.995 -17.2891 11.7633 0.665132 10
57.9893 -17.2874 16.2139 0.654557 10
9.44806 -2.78072 -2.63897 0.0197939 4
10.9573 -3.22492 -2.63699 0.0245207 4
13.0009 -3.82639 -2.63431 0.0079737 4
15.9323 -4.68915 -2.63046 0.0101839 4
20.5048 -6.03491 -2.62446 0.0178916 4
57.6676 -16.9725 3.15041 0.677046 10
58.0185 -17.0758 5.29123 0.675427 10
57.6622 -16.9709 7.3803 0.672986 10
57.6594 -16.9701 9.51967 0.669724 10
58.0101 -17.0733 11.7543 0.665646 10
57.6538 -16.9684 13.8749 0.660757 10
58.0044 -17.0716 16.2014 0.655064 10
9.45766 -2.74771 -2.63896 0.0251923 4
10.9685 -3.18663 -2.63697 0.0208688 4
13.0141 -3.78096 -2.63429 0.00930271 4
15.9485 -4.63347 -2.63044 0.0309156 4
20.5256 -5.96323 -2.62443 0.0164719 4
58.0417 -16.8627 -1.05501 0.574636 10
58.039 -16.8619 1.05496 0.574663 10
58.0363 -16.8611 3.16732 0.677562 10
58.0335 -16.8603 5.28721 0.675941 10
58.0308 -16.8595 7.4199 0.673498 10
58.028 -16.8587 9.57076 0.670233 10
58.0252 -16.8579 11.7453 0.666152 10
58.0224 -16.8571 13.9494 0.66126 10
58.0195 -16.8562 16.1891 0.655562 10
9.46715 -2.71466 -2.63894 0.0221933 4
13.0272 -3.73548 -2.63427 0.00930278 4
15.9644 -4.57773 -2.63041 0.0109115 4
58.0568 -16.6475 -1.05422 0.575066 10
58.0541 -16.6467 1.05417 0.575093 10
58.0513 -16.646 3.16495 0.678068 10
58.0486 -16.6452 5.28326 0.676447 10
58.0459 -16.6444 7.41436 0.674001 10
58.0431 -16.6436 9.5636 0.670735 10
58.0403 -16.6428 11.7365 0.666651 10
58.0375 -16.642 13.939 0.661755 10
58.0346 -16.6412 16.177 0.656052 10
9.47652 -2.68159 -2.63893 0.0221934 4
10.9903 -3.10995 -2.63694 0.0229559 4
13.04 -3.68996 -2.63425 0.0239216 4
15.9802 -4.52194 -2.63039 0.0149125 4
20.5663 -5.81967 -2.62437 0.0156202 4
58.0664 -16.4311 3.16262 0.678567 10
58.0637 -16.4304 5.27938 0.676944 10
58.0609 -16.4296 7.40891 0.674497 10
58.0582 -16.4288 9.55658 0.671228 10
58.0554 -16.428 11.7279 0.667141 10
58.0525 -16.4272 13.9287 0.662241 10
58.0496 -16.4264 16.1651 0.656534 10
9.48578 -2.64848 -2.63892 0.0143958 4
11.001 -3.07155 -2.63693 0.0391296 4
13.0527 -3.64439 -2.63424 0.0252507 4
15.9957 -4.46609 -2.63037 0.0123666 4
58.0814 -16.2166 3.16034 0.679057 10
58.0787 -16.2159 5.27557 0.677433 10
58.076 -16.2151 7.40356 0.674984 10
58.0732 -16.2143 9.54968 0.671713 10
58.0704 -16.2136 11.7195 0.667623 10
58.0676 -16.2128 13.9187 0.662719 10
58.0647 -16.212 16.1534 0.657009 10
9.49492 -2.61534 -2.63891 0.0497858 4
11.0116 -3.03311 -2.63691 0.0297387 4
13.0653 -3.59878 -2.63422 0.0292379 4
16.0111 -4.41019 -2.63035 0.0221872 4
58.0964 -16.0024 3.1581 0.679539 10
58.0937 -16.0017 5.27182 0.677914 10
58.091 -16.0009 7.39831 0.675463 10
58.0882 -16.0002 9.5429 0.67219 10
58.0854 -15.9994 11.7111 0.668097 10
58.0826 -15.9986 13.9088 0.66319 10
58.0797 -15.9978 16.142 0.657475 10
9.50395 -2.58217 -2.63889 0.0299916 4
11.0221 -2.99464 -2.6369 0.00521734 4
13.0777 -3.55314 -2.6342 0.0420851 4
16.0263 -4.35425 -2.63033 0.0221874 4
28.8277 -7.83231 -2.61353 0.0381387 4
58.1169 -15.79 -1.05121 0.576715 10
58.1142 -15.7893 1.05116 0.576742 10
58.1114 -15.7885 3.1559 0.680013 10
58.1087 -15.7878 5.26815 0.678387 10
58.106 -15.7871 7.39316 0.675934 10
58.1032 -15.7863 9.53626 0.672658 10
58.1004 -15.7855 11.703 0.668562 10
58.0976 -15.7848 13.8991 0.663652 10
58.0947 -15.784 16.1307 0.657933 10
9.51286 -2.54897 -2.63888 0.0677812 4
11.0324 -2.95613 -2.63689 0.0208695 4
13.0899 -3.50744 -2.63419 0.0119611 4
58.1318 -15.5764 -1.05049 0.873713 10
58.1291 -15.5757 1.05044 0.873754 10
58.1264 -15.5749 3.15374 0.680479 10
58.1237 -15.5742 5.26455 0.678851 10
58.1209 -15.5735 7.3881 0.676397 10
58.1182 -15.5727 9.52973 0.673119 10
58.1154 -15.572 11.695 0.66902 10
58.1125 -15.5712 13.8896 0.664106 10
58.1097 -15.5705 16.1197 0.658383 10
9.52166 -2.51573 -2.63887 0.032991 4
11.0426 -2.91759 -2.63687 0.026087 4
13.102 -3.46171 -2.63417 0.0141762 4
16.056 -4.24219 -2.63029 0.0149131 4
58.1468 -15.3631 -1.04978 0.8743 10
58.1441 -15.3623 1.04973 0.874341 10
57.7871 -15.268 3.13241 0.680936 10
57.7843 -15.2673 5.22895 0.679307 10
57.7816 -15.2666 7.33815 0.676851 10
57.7789 -15.2658 9.4653 0.673571 10
57.7761 -15.2651 11.6159 0.669469 10
57.7733 -15.2644 13.7957 0.664552 10
57.7704 -15.2636 16.0107 0.658826 10
9.53034 -2.48247 -2.63886 0.0443881 4
11.0527 -2.87901 -2.63686 0.0240001 4
13.1139 -3.41593 -2.63415 0.0124043 4
20.6824 -5.38736 -2.62422 0.0207335 4
58.6293 -15.2718 -1.05753 0.163612 10
58.6304 -15.2721 1.05755 0.163609 10
58.6316 -15.2724 3.17529 0.12741 10
58.6328 -15.2727 5.30087 0.127097 10
58.6339 -15.273 7.43957 0.126629 10
58.6351 -15.2733 9.59678 0.126006 10
58.6363 -15.2736 11.7781 0.125231 10
58.6375 -15.2739 13.9893 0.124302 10
58.6387 -15.2743 16.2365 0.123222 10
9.5389 -2.44918 -2.63885 0.0101973 4
11.0626 -2.8404 -2.63685 0.0313047 4
13.1257 -3.37011 -2.63414 0.0146194 4
20.7009 -5.31508 -2.62419 0.0178935 4
41.0664 -10.5441 -0.740068 0.860494 8
59.9464 -15.3916 1.08031 0.578279 10
59.471 -15.2696 3.21784 0.681825 10
59.4682 -15.2688 5.37155 0.680195 10
59.4654 -15.2681 7.53826 0.677735 10
59.4625 -15.2674 9.72342 0.67445 10
59.7432 -15.3395 11.9896 0.131574 10
59.4568 -15.2659 14.1719 0.66542 10
59.4539 -15.2652 16.4473 0.659686 10
9.54735 -2.41585 -2.63883 0.0341912 4
11.0724 -2.80175 -2.63683 0.0276526 4
13.1373 -3.32425 -2.63412 0.0256948 4
41.0769 -10.3941 -0.739598 0.86104 8
62.7984 -15.8905 1.1307 0.876038 10
59.4862 -15.0523 3.2158 0.682258 10
59.4834 -15.0516 5.36814 0.680626 10
59.4806 -15.0509 7.53348 0.678165 10
59.4778 -15.0502 9.71726 0.674878 10
59.7968 -15.1309 11.9897 0.131573 10
59.472 -15.0487 14.1629 0.665842 10
59.4691 -15.048 16.4369 0.660104 10
9.55569 -2.3825 -2.63882 0.0347911 4
11.0821 -2.76307 -2.63682 0.0448705 4
13.1488 -3.27836 -2.63411 0.0155056 4
16.1132 -4.01748 -2.63021 0.0203697 4
20.7371 -5.17034 -2.62414 0.0213021 4
41.0874 -10.2442 -0.739139 0.861575 8
62.8145 -15.6614 1.13 0.876583 10
61.3929 -15.307 3.31596 0.682682 10
61.39 -15.3063 5.53536 0.681049 10
61.3842 -15.3048 10.0199 0.675297 10
60.2713 -15.0273 12.0742 0.11821 10
61.3783 -15.3033 14.6041 0.666256 10
61.3753 -15.3026 16.9489 0.660514 10
9.56391 -2.34912 -2.63881 0.0263934 4
11.0916 -2.72435 -2.63681 0.0140873 4
13.1601 -3.23242 -2.63409 0.0389857 4
16.127 -3.96118 -2.63019 0.0236436 4
41.0979 -10.0946 -0.738689 0.8621 8
63.4188 -15.5772 3.42243 0.683097 10
63.4159 -15.5764 5.71308 0.681464 10
63.4099 -15.575 10.3417 0.675709 10
63.4006 -15.5727 17.4931 0.660917 10
9.57201 -2.31571 -2.6388 0.0197951 4
11.101 -2.68561 -2.63679 0.0240007 4
13.1712 -3.18645 -2.63407 0.0305685 4
41.1084 -9.94517 -0.738249 0.862614 8
63.435 -15.3466 3.42039 0.683505 10
63.432 -15.3458 5.70968 0.68187 10
63.4261 -15.3444 10.3355 0.676112 10
64.483 -15.6001 12.8958 0.131571 10
63.4168 -15.3422 17.4827 0.661311 10
9.57999 -2.28228 -2.63879 0.0167959 4
11.1102 -2.64683 -2.63678 0.0417406 4
13.1821 -3.14043 -2.63406 0.0070884 4
16.1541 -3.84845 -2.63016 0.0192789 4
67.48 -16.076 -1.21083 0.878111 10
64.6343 -15.3981 3.48214 0.683904 10
64.6252 -15.3959 10.5221 0.676506 10
64.5375 -15.375 12.8959 0.13157 10
64.6157 -15.3937 17.7983 0.661697 10
9.58786 -2.24881 -2.63878 0.0347917 4
11.1193 -2.60802 -2.63677 0.0135658 4
13.193 -3.09438 -2.63405 0.0115187 4
16.1673 -3.79201 -2.63014 0.0134589 4
67.8727 -15.9194 -1.21687 0.142187 10
67.7307 -15.8861 1.21433 0.685097 10
66.4258 -15.58 3.5757 0.684294 10
66.4227 -15.5793 5.96894 0.682658 10
67.7212 -15.8839 8.54078 0.680189 10
66.4165 -15.5779 10.8048 0.676893 10
66.4133 -15.5771 13.2598 0.672771 10
67.7115 -15.8816 16.0567 0.667829 10
66.2674 -15.5429 18.2382 0.178789 10
9.59561 -2.21532 -2.63877 0.0239944 4
11.1283 -2.56918 -2.63676 0.0240011 4
13.2036 -3.04829 -2.63403 0.0279109 4
16.1803 -3.73552 -2.63012 0.0174603 4
67.7479 -15.6408 1.21365 0.68548 10
67.7447 -15.6401 3.64374 0.684677 10
67.7416 -15.6394 6.08251 0.683039 10
67.7384 -15.6387 8.53601 0.680569 10
67.7352 -15.6379 11.0104 0.677271 10
67.732 -15.6372 13.5121 0.673146 10
67.7287 -15.6364 16.0477 0.668202 10
9.60325 -2.18181 -2.63876 0.0383912 4
11.1372 -2.5303 -2.63674 0.0485241 4
13.2141 -3.00217 -2.63402 0.0163922 4
16.1932 -3.679 -2.6301 0.00909399 4
20.8397 -4.73467 -2.624 0.0167586 4
70.9653 -16.1229 -1.27027 0.879584 10
69.6563 -15.8255 3.74356 0.685051 10
69.6531 -15.8248 6.24915 0.683412 10
69.6498 -15.8241 8.76986 0.680941 10
69.6432 -15.8226 13.8822 0.673514 10
69.6398 -15.8218 16.4873 0.668567 10
9.61077 -2.14826 -2.63875 0.0539878 4
11.1459 -2.4914 -2.63673 0.0365237 4
16.2058 -3.62243 -2.63009 0.0130954 4
70.9833 -15.8666 -1.26959 0.880054 10
70.9767 -15.8652 3.81152 0.685416 10
70.9734 -15.8644 6.3626 0.683777 10
70.9633 -15.8622 14.1343 0.673874 10
70.9599 -15.8614 16.7867 0.668924 10
9.61817 -2.11469 -2.63874 0.0155965 4
11.1545 -2.45247 -2.63672 0.0151313 4
13.2346 -2.90981 -2.63399 0.0283544 4
16.2182 -3.56581 -2.63007 0.0360127 4
20.8719 -4.58898 -2.62396 0.0258484 4
72.1859 -15.8711 -1.29011 0.880513 10
74.1965 -16.3132 1.32604 0.686579 10
72.1759 -15.8689 6.46539 0.684133 10
74.1862 -16.3109 9.32648 0.68166 10
74.1827 -16.3101 12.03 0.678356 10
72.1657 -15.8667 14.3626 0.674225 10
72.1622 -15.8659 17.0579 0.669273 10
9.62546 -2.0811 -2.63873 0.0185959 4
11.1629 -2.41351 -2.63671 0.0318281 4
13.2446 -2.86358 -2.63397 0.0256963 4
16.2305 -3.50915 -2.63005 0.0141869 4
74.2187 -16.0467 -1.32543 0.880962 10
74.2153 -16.0459 1.32536 0.686929 10
74.2084 -16.0444 6.6424 0.684482 10
74.2049 -16.0437 9.32174 0.682007 10
74.2014 -16.0429 12.0239 0.678701 10
74.1978 -16.0421 14.7558 0.674568 10
74.1943 -16.0414 17.5249 0.669614 10
9.63263 -2.04748 -2.63872 0.037192 4
11.1712 -2.37452 -2.6367 0.0417419 4
13.2544 -2.81732 -2.63396 0.0518359 4
16.2425 -3.45246 -2.63004 0.0210986 4
20.9031 -4.44309 -2.62391 0.0323821 4
76.1339 -16.1828 -1.35861 0.881398 10
76.1304 -16.182 1.35855 0.687269 10
76.1233 -16.1805 6.80871 0.684821 10
76.1197 -16.1798 9.55513 0.682345 10
76.1162 -16.179 12.3249 0.679038 10
76.1088 -16.1774 17.9637 0.669946 10
9.63968 -2.01384 -2.63871 0.0173963 4
11.1794 -2.3355 -2.63669 0.074614 4
13.2641 -2.77102 -2.63395 0.0230383 4
16.2544 -3.39572 -2.63002 0.0385597 4
20.9183 -4.37006 -2.62389 0.025565 4
9.64662 -1.98017 -2.6387 0.0251948 4
11.1874 -2.29645 -2.63667 0.0349592 4
13.2737 -2.72469 -2.63393 0.0146205 4
16.266 -3.33894 -2.63 0.0396513 4
9.65344 -1.94648 -2.63869 0.0287941 4
11.1953 -2.25738 -2.63666 0.07618 4
13.283 -2.67833 -2.63392 0.0314564 4
16.2775 -3.28212 -2.62999 0.0156423 4
20.948 -4.22386 -2.62385 0.0178958 4
9.66014 -1.91276 -2.63868 0.00719856 4
11.2031 -2.21827 -2.63665 0.0276545 4
13.2922 -2.63193 -2.63391 0.0119624 4
16.2888 -3.22526 -2.62997 0.0120047 4
9.66672 -1.87902 -2.63867 0.025195 4
11.2107 -2.17915 -2.63664 0.0234803 4
13.3013 -2.58551 -2.6339 0.0150638 4
20.9766 -4.07745 -2.62381 0.0568128 4
9.67319 -1.84526 -2.63866 0.0191963 4
11.2182 -2.13999 -2.63663 0.0250458 4
13.3101 -2.53905 -2.63388 0.0101903 4
16.3107 -3.11143 -2.62994 0.0109135 4
20.9906 -4.00417 -2.62379 0.0457347 4
9.67954 -1.81148 -2.63865 0.0293944 4
11.2256 -2.10081 -2.63662 0.0125229 4
13.3189 -2.49256 -2.63387 0.0287987 4
16.3214 -3.05446 -2.62993 0.0152789 4
9.68578 -1.77767 -2.63864 0.0251953 4
11.2328 -2.0616 -2.63661 0.0213934 4
13.3274 -2.44604 -2.63386 0.0146209 4
9.69189 -1.74385 -2.63864 0.0377931 4
11.2399 -2.02237 -2.6366 0.0313076 4
13.3358 -2.39949 -2.63385 0.0141779 4
16.3421 -2.94041 -2.6299 0.0225548 4
21.0309 -3.78406 -2.62374 0.0213054 4
9.69789 -1.71 -2.63863 0.0137975 4
11.2468 -1.98312 -2.63659 0.0109577 4
13.3441 -2.35292 -2.63384 0.021267 4
16.3522 -2.88333 -2.62989 0.0145516 4
9.70377 -1.67613 -2.63862 0.0251955 4
11.2537 -1.94385 -2.63658 0.0349604 4
13.3521 -2.30632 -2.63383 0.0141781 4
16.3621 -2.82622 -2.62987 0.0196448 4
9.70953 -1.64225 -2.63861 0.0155973 4
11.2603 -1.90454 -2.63657 0.0245245 4
13.3601 -2.25969 -2.63382 0.020381 4
16.3717 -2.76908 -2.62986 0.0134604 4
9.71517 -1.60834 -2.6386 0.0209964 4
11.2669 -1.86522 -2.63656 0.0375696 4
13.3678 -2.21303 -2.6338 0.0141782 4
16.3812 -2.7119 -2.62984 0.0200087 4
9.7207 -1.57441 -2.6386 0.00959838 4
11.2733 -1.82587 -2.63656 0.0187849 4
13.3754 -2.16634 -2.63379 0.0274703 4
16.3905 -2.65469 -2.62983 0.0160071 4
9.72611 -1.54047 -2.63859 0.0197967 4
11.2795 -1.7865 -2.63655 0.0401789 4
13.3828 -2.11963 -2.63378 0.0159506 4
16.3996 -2.59744 -2.62982 0.0225555 4
21.1047 -3.34266 -2.62364 0.0150564 4
29.4946 -4.67149 -2.61261 0.0391721 4
9.7314 -1.5065 -2.63858 0.0293952 4
11.2857 -1.74711 -2.63654 0.0412226 4
13.3901 -2.0729 -2.63377 0.0110768 4
16.4085 -2.54017 -2.62981 0.0134606 4
29.5105 -4.56847 -2.61259 0.044069 4
9.73657 -1.47252 -2.63857 0.0239962 4
11.2917 -1.7077 -2.63653 0.029743 4
13.3972 -2.02613 -2.63376 0.00620304 4
16.4172 -2.48287 -2.62979 0.0152797 4
9.74163 -1.43852 -2.63857 0.0155975 4
11.2975 -1.66828 -2.63652 0.0579208 4
13.4041 -1.97935 -2.63375 0.023483 4
21.1382 -3.12142 -2.62359 0.022443 4
9.74657 -1.4045 -2.63856 0.00959851 4
11.3032 -1.62882 -2.63651 0.0370485 4
13.4109 -1.93254 -2.63374 0.0217108 4
16.434 -2.36817 -2.62977 0.0196455 4
9.75138 -1.37047 -2.63855 0.0659899 4
11.3088 -1.58935 -2.63651 0.0292215 4
13.4175 -1.88571 -2.63373 0.0137355 4
16.4421 -2.31078 -2.62976 0.0145523 4
9.75608 -1.33642 -2.63855 0.00899865 4
11.3143 -1.54986 -2.6365 0.0407014 4
13.424 -1.83886 -2.63373 0.00841854 4
9.76067 -1.30235 -2.63854 0.040794 4
11.3196 -1.51036 -2.63649 0.0344398 4
13.4303 -1.79198 -2.63372 0.0301296 4
16.4577 -2.19592 -2.62974 0.0334705 4
21.1793 -2.82592 -2.62353 0.0193184 4
9.76513 -1.26827 -2.63853 0.0257963 4
11.3248 -1.47083 -2.63648 0.025569 4
13.4364 -1.74509 -2.63371 0.0261419 4
16.4652 -2.13845 -2.62973 0.036745 4
9.76947 -1.23417 -2.63853 0.0551921 4
11.3298 -1.43129 -2.63648 0.0589654 4
13.4424 -1.69817 -2.6337 0.0128495 4
16.4725 -2.08096 -2.62972 0.0130973 4
9.7737 -1.20006 -2.63852 0.021597 4
11.3347 -1.39172 -2.63647 0.0135673 4
13.4482 -1.65123 -2.63369 0.0341177 4
16.4796 -2.02344 -2.62971 0.0149164 4
21.2074 -2.60394 -2.62349 0.0207392 4
9.77781 -1.16593 -2.63852 0.0527927 4
11.3394 -1.35215 -2.63646 0.0380929 4
13.4538 -1.60427 -2.63368 0.0292438 4
16.4865 -1.96589 -2.6297 0.0105507 4
21.2162 -2.52988 -2.62348 0.0213075 4
9.7818 -1.13179 -2.63851 0.0341953 4
11.3441 -1.31256 -2.63646 0.0375712 4
13.4593 -1.5573 -2.63368 0.0194959 4
16.4932 -1.90833 -2.62969 0.0301968 4
21.2248 -2.4558 -2.62347 0.0241486 4
23.3749 -2.70458 -2.05869 0.279855 6
9.78567 -1.09764 -2.63851 0.0257965 4
11.3486 -1.27295 -2.63645 0.0287003 4
13.4646 -1.5103 -2.63367 0.0265854 4
16.4997 -1.85074 -2.62968 0.0221929 4
21.2332 -2.38169 -2.62346 0.035797 4
23.124 -2.59378 -2.03578 0.332972 6
9.78942 -1.06347 -2.6385 0.0257966 4
11.3529 -1.23332 -2.63644 0.0250476 4
13.4698 -1.46329 -2.63366 0.023927 4
16.506 -1.79312 -2.62967 0.0298332 4
21.2413 -2.30754 -2.62344 0.0167621 4
23.0403 -2.50298 -2.02762 0.216551 6
9.79305 -1.02929 -2.63849 0.0197974 4
11.3571 -1.19368 -2.63644 0.00678373 4
13.4748 -1.41626 -2.63365 0.0208254 4
22.9895 -2.4163 -2.0224 0.201263 6
9.79657 -0.9951 -2.63849 0.0293962 4
11.3612 -1.15403 -2.63643 0.0224385 4
13.4796 -1.36921 -2.63365 0.00841879 4
21.2567 -2.15918 -2.62342 0.0218762 4
22.9461 -2.33079 -2.01786 0.183225 6
9.79996 -0.960896 -2.63848 0.0575927 4
11.3651 -1.11436 -2.63643 0.0297442 4
13.4842 -1.32214 -2.63364 0.0385493 4
16.5237 -1.62016 -2.62964 0.0196464 4
21.264 -2.08496 -2.62341 0.0272743 4
22.9108 -2.24643 -2.01405 0.161231 6
9.80324 -0.92668 -2.63848 0.0485939 4
11.3689 -1.07468 -2.63642 0.0271351 4
13.4887 -1.27506 -2.63363 0.0341184 4
22.9154 -2.16614 -2.01377 0.0193137 6
9.8064 -0.892452 -2.63848 0.0233971 4
11.3726 -1.03499 -2.63642 0.00417464 4
13.4931 -1.22797 -2.63363 0.0177239 4
16.5345 -1.50476 -2.62963 0.0465696 4
21.2779 -1.93644 -2.62339 0.0471622 4
9.80944 -0.858217 -2.63847 0.0407951 4
11.3761 -0.995282 -2.63641 0.0229606 4
13.4973 -1.18086 -2.63362 0.00620338 4
16.5396 -1.44703 -2.62962 0.0138254 4
21.2844 -1.86215 -2.62338 0.017899 4
9.81236 -0.823969 -2.63847 0.0173979 4
11.3795 -0.955564 -2.63641 0.0135676 4
13.5013 -1.13374 -2.63362 0.0203826 4
16.5445 -1.38928 -2.62961 0.0138254 4
9.81516 -0.789711 -2.63846 0.0311963 4
11.3827 -0.915834 -2.6364 0.0172205 4
13.5051 -1.0866 -2.63361 0.0305739 4
16.5492 -1.33152 -2.62961 0.0185552 4
9.81784 -0.755443 -2.63846 0.0317963 4
11.3858 -0.876094 -2.6364 0.0146113 4
16.5537 -1.27374 -2.6296 0.0556659 4
21.3025 -1.63914 -2.62336 0.0213085 4
9.82041 -0.721167 -2.63846 0.0161981 4
11.3888 -0.836343 -2.63639 0.0193079 4
13.5123 -0.992284 -2.6336 0.0283585 4
16.558 -1.21595 -2.62959 0.0163723 4
9.82285 -0.686881 -2.63845 0.0293967 4
11.3916 -0.796582 -2.63639 0.0219171 4
13.5157 -0.945109 -2.6336 0.00797585 4
16.5621 -1.15814 -2.62959 0.0196469 4
9.82517 -0.652588 -2.63845 0.0539939 4
11.3943 -0.756811 -2.63638 0.0276573 4
13.5189 -0.897922 -2.63359 0.00576035 4
16.566 -1.10032 -2.62958 0.0160086 4
9.82738 -0.618287 -2.63844 0.0509943 4
11.3969 -0.717032 -2.63638 0.0099149 4
13.5219 -0.850725 -2.63359 0.0664657 4
16.5697 -1.04248 -2.62958 0.0232853 4
9.82947 -0.583978 -2.63844 0.0389957 4
11.3993 -0.677243 -2.63638 0.0349631 4
13.5248 -0.803518 -2.63358 0.008419 4
16.5732 -0.984632 -2.62957 0.00909583 4
21.3276 -1.26709 -2.62332 0.0190359 4
22.9671 -1.3645 -2.01291 0.135018 6
9.83143 -0.549664 -2.63844 0.0347962 4
11.4016 -0.63745 -2.63637 0.0245264 4
13.5275 -0.756305 -2.63358 0.025257 4
16.5765 -0.926776 -2.62957 0.0105512 4
21.3319 -1.19264 -2.62331 0.0187518 4
23.0124 -1.2866 -2.01647 0.156616 6
9.83328 -0.515342 -2.63844 0.0767917 4
11.4037 -0.597646 -2.63637 0.00678391 4
13.53 -0.709079 -2.63357 0.0194967 4
16.5796 -0.868905 -2.62956 0.0200109 4
21.3358 -1.11817 -2.62331 0.0247184 4
23.0653 -1.2088 -2.02072 0.178534 6
9.83501 -0.481014 -2.63843 0.037196 4
11.4057 -0.557835 -2.63637 0.0589679 4
13.5324 -0.661845 -2.63357 0.0469694 4
16.5826 -0.811024 -2.62956 0.0185556 4
21.3396 -1.04368 -2.6233 0.033242 4
23.1255 -1.13103 -2.02563 0.206305 6
24.654 -1.20579 -1.29361 0.26983 6
9.83662 -0.44668 -2.63843 0.0113988 4
11.4076 -0.518017 -2.63636 0.0208736 4
13.5346 -0.614603 -2.63357 0.0252571 4
16.5853 -0.753134 -2.62955 0.0160088 4
23.2238 -1.05459 -2.03391 0.0497747 6
9.83811 -0.41234 -2.63843 0.0257973 4
11.4093 -0.478193 -2.63636 0.0266139 4
13.5366 -0.567354 -2.63356 0.0217123 4
16.5878 -0.695235 -2.62955 0.0141896 4
21.3462 -0.894675 -2.62329 0.0133537 4
23.4682 -0.983609 -2.055 0.280803 6
9.83948 -0.377995 -2.63843 0.0569941 4
11.4109 -0.438364 -2.63636 0.0266139 4
13.5385 -0.520098 -2.63356 0.0239279 4
16.5901 -0.637327 -2.62955 0.0247409 4
9.84074 -0.343646 -2.63842 0.0263973 4
11.4124 -0.398529 -2.63636 0.032876 4
13.5402 -0.472836 -2.63356 0.0194968 4
16.5922 -0.579412 -2.62954 0.0141897 4
21.3519 -0.745625 -2.62328 0.0264233 4
9.84187 -0.309293 -2.63842 0.0077992 4
11.4137 -0.358689 -2.63635 0.0114805 4
13.5418 -0.425568 -2.63355 0.0248141 4
16.5941 -0.52149 -2.62954 0.0116428 4
51.2409 -1.61031 -0.894855 0.606795 8
9.84288 -0.274939 -2.63842 0.0353964 4
11.4148 -0.318848 -2.63635 0.0213955 4
13.5432 -0.378298 -2.63355 0.0314608 4
16.5958 -0.463565 -2.62954 0.0276517 4
51.2534 -1.43165 -0.89498 0.651271 8
9.84377 -0.240579 -2.63842 0.0305969 4
11.4159 -0.279 -2.63635 0.0161771 4
13.5444 -0.331021 -2.63355 0.0155089 4
16.5973 -0.405632 -2.62953 0.0294709 4
21.3584 -0.521993 -2.62327 0.0142062 4
51.2659 -1.25292 -0.895117 0.699152 8
9.84455 -0.206216 -2.63842 0.0935906 4
11.4168 -0.239149 -2.63635 0.0229611 4
13.5455 -0.283739 -2.63355 0.0456404 4
16.5986 -0.347693 -2.62953 0.0145536 4
21.3601 -0.447434 -2.62327 0.0142062 4
29.8498 -0.62527 -2.6121 0.0369352 4
9.84521 -0.17185 -2.63842 0.0815918 4
11.4175 -0.199295 -2.63635 0.0297451 4
13.5464 -0.236454 -2.63355 0.0243711 4
16.5997 -0.28975 -2.62953 0.0116429 4
29.8518 -0.521069 -2.61209 0.0402002 4
41.6015 -0.726162 -0.726267 0.692061 8
9.84574 -0.137483 -2.63842 0.0233977 4
11.4182 -0.159439 -2.63635 0.0187864 4
13.5471 -0.189167 -2.63354 0.0420956 4
9.84616 -0.103113 -2.63841 0.0263974 4
11.4186 -0.119581 -2.63635 0.0177427 4
13.5477 -0.141877 -2.63354 0.0110778 4
16.6013 -0.173856 -2.62953 0.0221942 4
21.3636 -0.223729 -2.62326 0.0142062 4
30.0152 -0.314332 -2.62613 0.0835147 4
9.84645 -0.0687429 -2.63841 0.0713929 4
11.419 -0.0797215 -2.63634 0.00574028 4
13.5481 -0.0945857 -2.63354 0.0181676 4
16.6018 -0.115905 -2.62952 0.00836831 4
21.3642 -0.149154 -2.62326 0.0241506 4
30.2707 -0.211334 -2.64841 0.0947194 4
9.84663 -0.0343716 -2.63841 0.0191981 4
11.4192 -0.039861 -2.63634 0.0506189 4
13.5483 -0.0472931 -2.63354 0.0194969 4
16.6021 -0.0579528 -2.62952 0.0261965 4
30.5301 -0.106572 -2.67106 0.0909666 4
9.84669 0 -2.63841 0.00959905 4
11.4193 0 -2.63634 0.063665 4
13.5484 0 -2.63354 0.0261436 4
16.6021 0 -2.62952 0.04548 4
21.3647 0 -2.62326 0.0576773 4
30.7233 0 -2.68794 0.0336173 1
9.84663 0.0343693 -2.63841 0.0221978 4
11.4192 0.0398582 -2.63634 0.0125243 4
13.5483 0.0472899 -2.63354 0.0155089 4
16.602 0.0579488 -2.62952 0.0127344 4
21.3646 0.0745722 -2.62325 0.0576773 4
30.7231 0.107238 -2.68794 0.0336173 1
9.84645 0.0687405 -2.63841 0.0143986 4
11.419 0.0797187 -2.63634 0.0866262 4
13.5481 0.0945823 -2.63354 0.0363352 4
16.6017 0.115901 -2.62952 0.0120067 4
21.3642 0.149149 -2.62325 0.0579614 4
30.7225 0.214481 -2.68794 0.0336173 1
9.84615 0.103111 -2.63841 0.0473953 4
11.4186 0.119578 -2.63634 0.0276578 4
13.5476 0.141874 -2.63354 0.0500717 4
16.6012 0.173851 -2.62952 0.0156451 4
21.3774 0.223869 -2.62496 0.0993645 4
30.7216 0.321722 -2.68794 0.0336173 1
9.84573 0.13748 -2.63841 0.0521949 4
11.4181 0.159436 -2.63634 0.016699 4
13.5471 0.189163 -2.63354 0.0194969 4
16.6005 0.2318 -2.62952 0.00945984 4
21.5052 0.300286 -2.64076 0.106344 4
29.7949 0.416038 -2.60697 0.259225 4
9.84519 0.171847 -2.63841 0.0533947 4
11.4175 0.199292 -2.63634 0.0360073 4
13.5463 0.236451 -2.63354 0.0443112 4
16.5996 0.289746 -2.62952 0.0174643 4
21.6342 0.377623 -2.65674 0.0825414 4
28.9067 0.504566 -2.5294 0.288641 4
9.84453 0.206213 -2.63841 0.00959905 4
11.4168 0.239146 -2.63634 0.0208738 4
13.5454 0.283735 -2.63354 0.0225987 4
16.5985 0.347688 -2.62952 0.0582144 4
21.7644 0.455898 -2.67292 0.0937158 4
28.5832 0.59873 -2.50125 0.0271404 4
73.7637 1.54512 1.28783 0.691145 10
73.7569 1.54498 6.4543 0.688683 10
73.7534 1.54491 9.05777 0.686193 10
73.75 1.54484 11.6834 0.682867 10
73.7465 1.54476 14.338 0.678708 10
73.7429 1.54469 17.0286 0.673723 10
9.84375 0.240576 -2.63841 0.0269973 4
11.4159 0.278997 -2.63634 0.0485315 4
13.5444 0.331016 -2.63354 0.023928 4
16.5972 0.405626 -2.62952 0.065855 4
21.896 0.535125 -2.68929 0.0881037 4
74.6889 1.82535 -1.30409 0.886082 10
73.7817 1.80318 1.28825 0.690921 10
72.5734 1.77365 3.80455 0.690111 10
72.5701 1.77357 6.35095 0.68846 10
73.7715 1.80293 9.06071 0.68597 10
72.5598 1.77332 14.1084 0.678488 10
72.5564 1.77324 16.756 0.673504 10
9.84286 0.274936 -2.63841 0.029997 4
11.4148 0.318844 -2.63634 0.0302669 4
13.5431 0.378294 -2.63354 0.0327903 4
16.5957 0.46356 -2.62953 0.0662188 4
21.9766 0.613862 -2.69944 0.0468066 1
24.7901 0.692451 0.432882 0.163035 5
9.84184 0.30929 -2.63842 0.0287971 4
11.4136 0.358685 -2.63635 0.0422693 4
13.5417 0.425563 -2.63354 0.0292454 4
16.594 0.521483 -2.62953 0.0163728 4
21.9743 0.690567 -2.69944 0.0468065 1
24.8346 0.780452 0.433702 0.28281 5
67.8472 2.13217 3.55748 0.689638 10
67.8377 2.13187 10.7497 0.682177 10
67.8279 2.13156 18.1834 0.667243 10
9.8407 0.343643 -2.63842 0.0533946 4
11.4123 0.398525 -2.63635 0.00417475 4
13.5402 0.47283 -2.63355 0.015952 4
16.6314 0.580779 -2.63577 0.0472794 4
21.9718 0.767268 -2.69944 0.0468065 1
66.8753 2.33532 -1.16802 0.584668 10
25.5471 0.89212 0.446198 0.503897 5
64.4273 2.24984 3.37855 0.689389 10
64.4243 2.24973 5.63983 0.68774 10
64.4213 2.24963 7.91477 0.685253 10
64.4183 2.24952 10.2091 0.681931 10
64.4153 2.24942 12.5287 0.677779 10
64.4122 2.24931 14.8798 0.6728 10
64.409 2.2492 17.2689 0.667002 10
9.83945 0.377992 -2.63842 0.0119988 4
11.4109 0.438359 -2.63635 0.0161771 4
13.5384 0.520092 -2.63355 0.0762151 4
16.7069 0.641813 -2.64807 0.100739 4
21.969 0.843961 -2.69945 0.0468065 1
29.8344 1.14612 -2.6121 0.0344864 4
65.8061 2.528 -1.1495 0.584449 10
25.5619 0.981985 0.446513 0.829147 5
62.9958 2.42004 3.30391 0.689131 10
62.9929 2.41993 5.51523 0.687483 10
62.987 2.41971 9.98352 0.681677 10
61.6496 2.36833 11.9923 0.131544 10
62.981 2.41947 14.551 0.672549 10
62.9779 2.41936 16.8873 0.666753 10
9.83808 0.412336 -2.63842 0.00719927 4
11.4093 0.478188 -2.63635 0.0318324 4
13.5366 0.567348 -2.63355 0.0695684 4
16.7829 0.70341 -2.66049 0.111565 4
21.966 0.920644 -2.69945 0.0468064 1
64.103 2.6867 -1.1199 0.884483 10
25.1993 1.05616 0.440241 0.419045 5
60.7191 2.54488 3.18495 0.688866 10
60.7163 2.54476 5.31665 0.687218 10
60.7135 2.54464 7.46122 0.684733 10
60.7106 2.54452 9.62406 0.681414 10
61.6409 2.58351 11.9923 0.131544 10
60.7048 2.54428 14.0271 0.67229 10
60.7019 2.54415 16.2793 0.666496 10
9.83658 0.446675 -2.63842 0.0569942 4
11.4075 0.518012 -2.63635 0.0140897 4
13.5345 0.614597 -2.63355 0.0841909 4
16.8594 0.765578 -2.67302 0.115414 4
21.5805 0.979963 -2.65248 0.266689 4
25.0963 1.13961 -2.19791 0.101919 5
25.0919 1.13941 -0.438432 0.149674 5
25.0115 1.13576 0.437027 0.963303 5
60.7341 2.75791 3.18622 0.688591 10
60.7312 2.75778 5.31877 0.686944 10
60.7284 2.75765 7.46419 0.68446 10
60.7256 2.75752 9.6279 0.681142 10
60.7197 2.75726 14.0327 0.672022 10
60.7168 2.75713 16.2858 0.666231 10
9.83497 0.481009 -2.63842 0.0503948 4
11.4057 0.557829 -2.63635 0.0360071 4
13.5323 0.661838 -2.63355 0.0810891 4
16.9363 0.828323 -2.68566 0.127779 4
21.1091 1.03241 -2.59497 0.266575 4
25.1067 1.22792 -2.19918 0.0636871 5
25.0911 1.22716 -0.43849 0.0524533 5
25.0176 1.22356 0.437206 0.962909 5
59.0592 2.88847 3.09886 0.688309 10
59.0565 2.88834 5.17294 0.686662 10
59.0537 2.8882 7.25955 0.684179 10
59.0509 2.88807 9.36393 0.680863 10
59.0481 2.88793 11.4915 0.676717 10
59.0453 2.88779 13.648 0.671746 10
59.0424 2.88765 15.8393 0.665957 10
9.83324 0.515338 -2.63842 0.0125987 4
11.4037 0.59764 -2.63636 0.0537497 4
13.5299 0.709072 -2.63356 0.0793166 4
17.0138 0.891653 -2.69842 0.111491 4
20.6577 1.08262 -2.53993 0.254064 4
59.4414 3.11519 -1.03898 0.883394 10
59.4387 3.11505 1.03893 0.883435 10
59.5038 3.11846 3.12274 0.439217 10
59.4332 3.11476 5.20686 0.686372 10
59.4983 3.11817 7.31549 0.436582 10
59.0655 3.09549 9.36789 0.680575 10
59.4248 3.11432 11.5669 0.676431 10
59.4898 3.11772 13.7531 0.428649 10
59.419 3.11401 15.9431 0.665676 10
9.83139 0.549659 -2.63843 0.0635934 4
11.4015 0.637443 -2.63636 0.0146116 4
13.5274 0.756297 -2.63356 0.0615921 4
17.0578 0.953678 -2.70591 0.0599384 1
20.4265 1.14202 -2.51198 0.0230138 4
28.5453 1.59593 -2.50129 0.030609 4
75.2165 4.20526 -1.31496 0.583251 10
24.6643 1.37895 0.431189 0.154973 5
59.4478 3.32365 5.20913 0.686073 10
59.08 3.30308 9.37197 0.680279 10
59.4394 3.32318 11.5719 0.676136 10
59.4336 3.32285 15.9501 0.665386 10
9.82942 0.583975 -2.63843 0.0161983 4
11.3992 0.677239 -2.63636 0.08506 4
13.5668 0.806015 -2.64176 0.0959609 4
17.0544 1.01322 -2.70591 0.0599383 1
20.4224 1.21332 -2.51198 0.0218773 4
28.5396 1.69556 -2.50129 0.0287724 4
75.2351 4.46979 -1.31555 0.58299 10
24.6129 1.46227 0.430376 0.807467 5
59.4624 3.53272 5.21146 0.685766 10
59.0946 3.51086 9.37616 0.679975 10
59.454 3.53222 11.5771 0.675834 10
59.4482 3.53188 15.9572 0.665088 10
9.82733 0.618281 -2.63843 0.0509946 4
11.3968 0.717024 -2.63636 0.111152 4
13.6154 0.856606 -2.6518 0.0798079 4
17.0508 1.07274 -2.70592 0.0599383 1
21.3229 1.34152 -2.62329 0.0147743 4
28.5336 1.79518 -2.5013 0.0295885 4
75.2536 4.73454 -1.31615 0.582721 10
25.3643 1.59578 0.44361 0.513638 5
59.4771 3.74197 5.21386 0.685451 10
59.1091 3.71882 9.38048 0.679662 10
59.4687 3.74144 11.5824 0.675523 10
59.4629 3.74108 15.9645 0.664783 10
9.82512 0.652582 -2.63843 0.046795 4
11.3943 0.756803 -2.63637 0.0913219 4
13.6642 0.907574 -2.66191 0.125626 4
17.0469 1.13225 -2.70592 0.0599382 1
21.3181 1.41594 -2.6233 0.0539827 4
28.5272 1.89477 -2.50131 0.0275478 4
75.2722 4.99956 -1.31678 0.582446 10
25.3299 1.68241 0.443109 0.817306 5
59.4918 3.95143 5.21632 0.685127 10
59.1237 3.92698 9.38491 0.679341 10
59.4833 3.95087 11.5879 0.675204 10
59.4776 3.95048 15.9721 0.664469 10
9.82279 0.686875 -2.63844 0.0131986 4
11.3916 0.796573 -2.63637 0.0981057 4
13.7132 0.958919 -2.67209 0.122202 4
17.0429 1.19175 -2.70593 0.0599381 1
21.3131 1.49035 -2.62331 0.0235819 4
28.5205 1.99435 -2.50132 0.0269356 4
75.2908 5.26483 -1.31741 0.582164 10
59.5065 4.16109 5.21885 0.684795 10
59.1383 4.13534 9.38946 0.679012 10
59.498 4.1605 11.5935 0.674877 10
59.4922 4.16009 15.9798 0.664147 10
9.82034 0.72116 -2.63844 0.0149984 4
11.3887 0.836334 -2.63637 0.103846 4
13.7624 1.01064 -2.68234 0.104355 4
17.0387 1.25124 -2.70593 0.059938 1
21.3078 1.56474 -2.62331 0.0437542 4
28.5135 2.0939 -2.50132 0.0259152 4
59.5294 4.37156 -1.04189 0.581874 10
59.5267 4.37136 1.04184 0.581901 10
59.5239 4.37116 3.12792 0.686096 10
59.5212 4.37095 5.22145 0.684455 10
59.5184 4.37075 7.32761 0.68198 10
59.5156 4.37054 9.45172 0.678674 10
59.5127 4.37033 11.5992 0.674542 10
59.5098 4.37012 13.7759 0.669587 10
59.5069 4.36991 15.9878 0.663817 10
9.81778 0.755436 -2.63844 0.035996 4
11.3857 0.876084 -2.63638 0.0198298 4
13.8118 1.06275 -2.69267 0.112811 4
16.8942 1.29994 -2.68369 0.281144 4
21.3022 1.63912 -2.62332 0.0576759 4
28.5061 2.19342 -2.50133 0.0244867 4
59.5386 4.58124 3.12951 0.685746 10
59.5359 4.58103 5.22411 0.684106 10
59.5331 4.58082 7.33135 0.681633 10
59.5303 4.5806 9.45654 0.678328 10
59.5274 4.58038 11.6052 0.674198 10
59.5246 4.58016 13.7829 0.669246 10
59.5216 4.57993 15.9959 0.663479 10
9.81509 0.789703 -2.63844 0.118787 4
11.3835 0.915892 -2.63658 0.1199 4
13.8613 1.11525 -2.70307 0.108543 4
16.6022 1.33578 -2.63802 0.26886 4
21.2964 1.71347 -2.62332 0.0357987 4
28.4984 2.29292 -2.50134 0.0302002 4
59.5534 4.79155 3.13115 0.685388 10
59.5506 4.79132 5.22684 0.683749 10
59.5478 4.7911 7.33518 0.681277 10
59.545 4.79087 9.46148 0.677974 10
59.5422 4.79064 11.6112 0.673846 10
59.5393 4.79041 13.7901 0.668897 10
