VERSION 0.7
FIELDS x y z intensity label
SIZE 4 4 4 4 4
TYPE F F F F F
COUNT 1 1 1 1 1
WIDTH 1249
HEIGHT 1
VIEWPOINT 10.0663 53.9751 2.72836 0.731373 0.00068354 0.000607594 -0.681977
POINTS 1249
DATA ascii
12.9115 -17.0103 4.15109 0.449067 10
12.9102 -17.0086 4.92981 0.445792 10
12.9089 -17.0068 5.72103 0.441974 10
6.15488 -8.05025 -2.71528 0.098807 1
6.88619 -9.00677 -2.61749 0.159202 4
7.88123 -10.3082 -2.52225 0.0673275 4
10.3795 -13.5758 -2.70664 0.0599112 1
12.9308 -16.9127 -2.61403 0.58415 10
12.9295 -16.9111 -1.86241 0.586355 10
12.9531 -16.942 -1.11767 0.666798 10
12.9531 -16.942 -0.372253 0.667613 10
12.9531 -16.9419 0.372252 0.667614 10
12.9245 -16.9045 1.1152 0.458483 10
12.9232 -16.9029 1.86151 0.45741 10
12.922 -16.9013 2.61225 0.455779 10
12.9207 -16.8996 3.36931 0.453593 10
12.9194 -16.8979 4.13464 0.450854 10
12.9181 -16.8962 4.91028 0.447566 10
12.9168 -16.8945 5.69836 0.443733 10
6.18283 -8.02858 -2.71523 0.0988087 1
6.93529 -9.00567 -2.62419 0.134185 4
7.91697 -10.2804 -2.52219 0.0677721 4
10.4265 -13.5391 -2.70656 0.0599129 1
12.9386 -16.8011 -2.60373 0.58646 10
12.9373 -16.7994 -1.85508 0.588673 10
13.0525 -16.949 -1.12113 0.664742 10
13.0524 -16.9489 -0.373405 0.665554 10
13.0524 -16.9489 0.373404 0.665555 10
12.9323 -16.793 1.11081 0.460295 10
12.9311 -16.7913 1.85418 0.459217 10
12.9298 -16.7897 2.60197 0.45758 10
12.9285 -16.7881 3.35605 0.455385 10
12.9273 -16.7864 4.11837 0.452635 10
12.926 -16.7847 4.89096 0.449334 10
12.9246 -16.783 5.67594 0.445485 10
6.21071 -8.00681 -2.71518 0.0988104 1
6.98464 -9.00454 -2.63095 0.175634 4
7.95262 -10.2525 -2.52213 0.0420817 4
10.4734 -13.5022 -2.70648 0.0599147 1
12.9463 -16.6903 -2.59355 0.588763 10
12.945 -16.6886 -1.84782 0.590984 10
13.1524 -16.956 -1.12462 0.662677 10
13.1524 -16.9559 -0.374568 0.663487 10
13.1523 -16.9559 0.374567 0.663488 10
12.9401 -16.6822 1.10647 0.462101 10
12.9388 -16.6806 1.84694 0.461019 10
12.9376 -16.679 2.5918 0.459375 10
12.9363 -16.6774 3.34294 0.457171 10
12.935 -16.6758 4.10228 0.454411 10
12.9337 -16.6741 4.87185 0.451096 10
12.9324 -16.6724 5.65377 0.447233 10
6.23852 -7.98494 -2.71514 0.0988121 1
7.03088 -8.99912 -2.63652 0.0521709 4
7.98817 -10.2244 -2.52207 0.054929 4
10.5201 -13.4652 -2.7064 0.0599164 1
12.954 -16.5803 -2.58348 0.591058 10
12.9527 -16.5787 -1.84065 0.593288 10
13.2529 -16.963 -1.12815 0.660605 10
13.2529 -16.963 -0.375743 0.661412 10
13.2529 -16.9629 0.375742 0.661413 10
12.9478 -16.5724 1.10217 0.463902 10
12.9465 -16.5708 1.83977 0.462816 10
12.9453 -16.5692 2.58174 0.461165 10
12.944 -16.5676 3.32997 0.458952 10
12.9427 -16.566 4.08636 0.456181 10
12.9415 -16.5643 4.85294 0.452854 10
12.9401 -16.5626 5.63183 0.448974 10
6.26624 -7.96298 -2.71509 0.0988138 1
7.06211 -8.97434 -2.63647 0.0980833 4
8.02362 -10.1962 -2.52201 0.0469566 4
10.5668 -13.428 -2.70633 0.0599181 1
12.9616 -16.4712 -2.57351 0.593347 10
12.9603 -16.4697 -1.83355 0.595585 10
13.3541 -16.9701 -1.13171 0.658524 10
13.3541 -16.97 -0.37693 0.659329 10
13.3541 -16.97 0.376929 0.65933 10
12.9554 -16.4634 1.09792 0.465697 10
12.9542 -16.4618 1.83268 0.464606 10
12.9529 -16.4602 2.57179 0.462949 10
12.9517 -16.4586 3.31713 0.460728 10
12.9504 -16.457 4.07062 0.457946 10
12.9491 -16.4554 4.83425 0.454605 10
12.9478 -16.4537 5.61014 0.450711 10
6.29389 -7.94092 -2.71504 0.0988155 1
7.09325 -8.94945 -2.63642 0.133041 4
8.05897 -10.1679 -2.52195 0.0606906 4
10.6133 -13.3906 -2.70625 0.0599199 1
12.9691 -16.363 -2.56366 0.595628 10
12.9679 -16.3614 -1.82653 0.597875 10
13.456 -16.9772 -1.13531 0.656436 10
13.4559 -16.9772 -0.378129 0.657238 10
13.4559 -16.9771 0.378128 0.657239 10
12.963 -16.3552 1.09372 0.467487 10
12.9617 -16.3537 1.82566 0.466392 10
12.9605 -16.3521 2.56195 0.464728 10
12.9593 -16.3505 3.30444 0.462498 10
12.958 -16.3489 4.05504 0.459705 10
12.9567 -16.3473 4.81575 0.456351 10
12.9554 -16.3457 5.58867 0.452442 10
6.32147 -7.91876 -2.715 0.0988172 1
7.1243 -8.92446 -2.63637 0.0469566 4
8.09423 -10.1395 -2.52189 0.057591 4
10.6597 -13.3531 -2.70617 0.0599216 1
12.9766 -16.2556 -2.55391 0.597902 10
12.9754 -16.254 -1.81958 0.600157 10
17.2881 -21.6564 -1.45225 0.601681 10
17.2865 -21.6544 -0.483645 0.602471 10
17.2848 -21.6523 0.483599 0.602528 10
12.9705 -16.2479 1.08956 0.469271 10
12.9693 -16.2463 1.81872 0.468171 10
12.968 -16.2448 2.55221 0.466501 10
12.9668 -16.2432 3.29188 0.464262 10
12.9655 -16.2416 4.03963 0.461458 10
12.9643 -16.24 4.79745 0.458091 10
12.963 -16.2384 5.56744 0.454167 10
6.34896 -7.89652 -2.71495 0.0988189 1
7.15527 -8.89936 -2.63631 0.0840019 4
8.12938 -10.1109 -2.52184 0.0606934 4
10.7059 -13.3154 -2.70609 0.0599233 1
12.9841 -16.1489 -2.54426 0.600168 10
12.9828 -16.1474 -1.81271 0.602432 10
17.4023 -21.6441 -1.45549 0.652234 10
17.4023 -21.6441 -0.484769 0.653031 10
17.4022 -21.644 0.484767 0.653033 10
12.978 -16.1413 1.08545 0.471049 10
12.9767 -16.1398 1.81186 0.469945 10
12.9755 -16.1383 2.54258 0.468268 10
12.9743 -16.1367 3.27946 0.466021 10
12.973 -16.1352 4.02439 0.463206 10
12.9717 -16.1336 4.77935 0.459826 10
12.9704 -16.132 5.54644 0.455887 10
6.37638 -7.87417 -2.71491 0.0988205 1
7.18615 -8.87416 -2.63626 0.058959 4
8.16443 -10.0822 -2.52178 0.0544925 4
10.752 -13.2776 -2.70601 0.059925 1
12.9915 -16.0431 -2.53472 0.602427 10
12.9902 -16.0416 -1.80592 0.604699 10
17.5345 -21.6534 -1.46022 0.650122 10
17.5345 -21.6533 -0.486344 0.650916 10
17.5345 -21.6533 0.486342 0.650918 10
12.9854 -16.0356 1.08138 0.472821 10
12.9841 -16.0341 1.80507 0.471713 10
12.9829 -16.0326 2.53305 0.470029 10
12.9817 -16.0311 3.26717 0.467774 10
12.9804 -16.0295 4.00931 0.464948 10
12.9792 -16.0279 4.76145 0.461556 10
12.9779 -16.0263 5.52566 0.457601 10
6.40372 -7.85174 -2.71486 0.0988222 1
7.21694 -8.84885 -2.63621 0.0829616 4
8.19938 -10.0534 -2.52172 0.0629115 4
10.798 -13.2396 -2.70594 0.0599268 1
12.9988 -15.9381 -2.52528 0.604679 10
12.9976 -15.9366 -1.79919 0.606959 10
17.6676 -21.6627 -1.465 0.648002 10
17.6676 -21.6626 -0.487935 0.648793 10
17.6676 -21.6626 0.487934 0.648795 10
13.001 -15.9409 1.07804 0.0354366 10
12.9915 -15.9292 1.79835 0.473475 10
12.9903 -15.9277 2.52363 0.471785 10
12.989 -15.9262 3.25501 0.469521 10
12.9878 -15.9246 3.99439 0.466684 10
12.9865 -15.9231 4.74373 0.463279 10
12.9852 -15.9215 5.50511 0.45931 10
6.43098 -7.8292 -2.71481 0.0988239 1
7.24765 -8.82343 -2.63616 0.0866157 4
8.23424 -10.0245 -2.52166 0.0598116 4
10.8438 -13.2015 -2.70586 0.0599285 1
13.0061 -15.8339 -2.51594 0.606924 10
13.0049 -15.8324 -1.79254 0.609212 10
17.8016 -21.6721 -1.46983 0.645873 10
17.8016 -21.672 -0.489543 0.646663 10
17.8015 -21.672 0.489542 0.646664 10
13.0578 -15.8968 1.07814 0.0354335 10
12.9988 -15.825 1.7917 0.475231 10
12.9976 -15.8235 2.5143 0.473535 10
12.9964 -15.822 3.24298 0.471262 10
12.9951 -15.8205 3.97963 0.468415 10
12.9939 -15.819 4.72621 0.464997 10
12.9926 -15.8174 5.48477 0.461013 10
6.45816 -7.80657 -2.71477 0.0988255 1
7.27826 -8.79791 -2.63611 0.109576 4
8.26899 -9.99549 -2.5216 0.0496226 4
10.8895 -13.1632 -2.70578 0.0599302 1
13.0133 -15.7304 -2.5067 0.609161 10
13.0121 -15.7289 -1.78595 0.611457 10
21.6864 -26.2144 -1.78301 0.643737 10
21.6864 -26.2143 -0.593854 0.644524 10
21.6863 -26.2143 0.593852 0.644525 10
13.1143 -15.8525 1.07824 0.0354303 10
13.0061 -15.7216 1.78513 0.476982 10
13.0048 -15.7202 2.50507 0.47528 10
13.0036 -15.7187 3.23108 0.472998 10
13.0024 -15.7172 3.96503 0.47014 10
13.0011 -15.7157 4.70887 0.46671 10
12.9998 -15.7141 5.46465 0.46271 10
6.48526 -7.78385 -2.71472 0.0988272 1
7.30878 -8.77228 -2.63606 0.0380915 4
8.30364 -9.96634 -2.52154 0.0633589 4
10.9351 -13.1247 -2.70571 0.0599318 1
13.0205 -15.6277 -2.49756 0.61139 10
13.0193 -15.6262 -1.77944 0.613695 10
21.8506 -26.2259 -1.78897 0.641593 10
21.8505 -26.2258 -0.595839 0.642377 10
21.8505 -26.2257 0.595837 0.642378 10
13.1708 -15.808 1.07833 0.0354272 10
13.0133 -15.619 1.77862 0.478727 10
13.012 -15.6175 2.49594 0.477018 10
13.0108 -15.6161 3.21931 0.474728 10
13.0096 -15.6146 3.95058 0.47186 10
13.0083 -15.6131 4.69171 0.468416 10
13.007 -15.6115 5.44474 0.464402 10
6.51228 -7.76104 -2.71468 0.0988289 1
7.33922 -8.74654 -2.63601 0.0824463 4
8.33819 -9.93706 -2.52148 0.0398771 4
10.9805 -13.0861 -2.70563 0.0599335 1
13.0276 -15.5257 -2.48852 0.613613 10
13.0264 -15.5242 -1.773 0.615925 10
22.0158 -26.2374 -1.79499 0.639441 10
22.0158 -26.2374 -0.597844 0.640223 10
22.0157 -26.2373 0.597842 0.640224 10
13.227 -15.7633 1.07843 0.0458303 10
13.0204 -15.5171 1.77218 0.480466 10
13.0192 -15.5157 2.48691 0.478751 10
13.018 -15.5142 3.20766 0.476452 10
13.0167 -15.5127 3.93629 0.473573 10
13.0155 -15.5112 4.67473 0.470117 10
13.0142 -15.5097 5.42504 0.466089 10
6.53923 -7.73813 -2.71463 0.0988305 1
7.36956 -8.7207 -2.63596 0.0240038 4
8.37263 -9.90767 -2.52143 0.0580447 4
11.0258 -13.0473 -2.70555 0.0599352 1
13.0347 -15.4244 -2.47957 0.615827 10
13.0335 -15.423 -1.76662 0.618148 10
22.1822 -26.2491 -1.80108 0.637282 10
22.1821 -26.249 -0.59987 0.63806 10
22.1821 -26.2489 0.599868 0.638062 10
13.2831 -15.7185 1.07852 0.0458263 10
13.0275 -15.4159 1.76581 0.482199 10
12.6931 -15.0203 2.41459 0.480478 10
12.6919 -15.0189 3.11438 0.478171 10
12.6907 -15.0174 3.82182 0.475281 10
13.0226 -15.4102 4.65794 0.471813 10
13.0213 -15.4087 5.40555 0.467769 10
6.55355 -7.7004 -2.7094 0.109492 4
7.08578 -8.32576 -2.52404 0.0626198 4
8.40697 -9.87816 -2.52137 0.0496272 4
11.071 -13.0084 -2.70548 0.0599369 1
13.0417 -15.3239 -2.47071 0.618035 10
13.0405 -15.3225 -1.76031 0.620364 10
22.513 -26.4527 -1.82043 0.635114 10
22.6255 -26.5849 -0.609347 0.411344 10
22.6235 -26.5825 0.609291 0.411382 10
13.3391 -15.6734 1.07861 0.0458223 10
13.0345 -15.3155 1.75951 0.483927 10
12.7152 -14.9404 2.40887 0.492195 10
12.7152 -14.9403 3.10728 0.489787 10
12.6976 -14.9196 3.80819 0.476983 10
13.0296 -15.3098 4.64132 0.473502 10
13.0284 -15.3083 5.38626 0.469444 10
6.55794 -7.65128 -2.70016 0.146413 4
7.11466 -8.30082 -2.52399 0.0641865 4
8.44121 -9.84853 -2.52131 0.0545025 4
11.116 -12.9693 -2.7054 0.0599386 1
13.0487 -15.2241 -2.46195 0.620234 10
13.0475 -15.2227 -1.75407 0.622571 10
22.6828 -26.4645 -1.82668 0.632939 10
22.6828 -26.4645 -0.608398 0.418583 10
22.6827 -26.4644 0.608396 0.418584 10
13.3949 -15.6281 1.07871 0.0458183 10
13.0415 -15.2158 1.75327 0.485648 10
12.8112 -14.9471 2.41715 0.490509 10
12.8112 -14.947 3.11796 0.48811 10
12.7044 -14.8225 3.79469 0.478679 10
13.0366 -15.2101 4.62487 0.475186 10
13.0354 -15.2087 5.36718 0.471113 10
6.56214 -7.60231 -2.69095 0.12246 4
7.14346 -8.27578 -2.52394 0.0720155 4
8.47534 -9.81878 -2.52126 0.0584918 4
11.1609 -12.9301 -2.70533 0.0599402 1
13.0556 -15.125 -2.45328 0.622426 10
13.0544 -15.1236 -1.74789 0.624772 10
22.8539 -26.4765 -1.833 0.630756 10
22.9 -26.5299 -0.611737 0.414266 10
22.898 -26.5275 0.611681 0.414304 10
13.4505 -15.5826 1.0788 0.0458144 10
13.0485 -15.1168 1.7471 0.487363 10
12.9078 -14.9538 2.42551 0.488818 10
12.9078 -14.9538 3.12875 0.486426 10
12.7112 -14.7261 3.78134 0.48037 10
13.0436 -15.1112 4.6086 0.476864 10
13.0423 -15.1097 5.3483 0.472776 10
6.56616 -7.5535 -2.68177 0.124081 4
7.17217 -8.25064 -2.5239 0.079323 4
8.50937 -9.78892 -2.5212 0.0655832 4
11.2057 -12.8907 -2.70525 0.0599419 1
13.0624 -15.0266 -2.4447 0.624611 10
13.0613 -15.0253 -1.74178 0.626964 10
23.0262 -26.4886 -1.83939 0.628566 10
23.1626 -26.6455 -0.616263 0.41572 10
23.1605 -26.6431 0.616207 0.415757 10
13.506 -15.5369 1.07889 0.0458104 10
13.0553 -15.0185 1.74099 0.489073 10
13.0051 -14.9606 2.43396 0.48712 10
13.0051 -14.9606 3.13966 0.484737 10
12.7491 -14.6662 3.77737 0.131538 10
13.0505 -15.0129 4.59249 0.478536 10
13.0493 -15.0115 5.32961 0.474434 10
6.56999 -7.50484 -2.67261 0.107238 4
7.20079 -8.22539 -2.52385 0.061059 4
8.5433 -9.75893 -2.52114 0.060267 4
11.2503 -12.8511 -2.70518 0.0599435 1
13.0693 -14.9289 -2.43621 0.626788 10
13.0681 -14.9276 -1.73573 0.629149 10
23.1996 -26.5007 -1.84585 0.626368 10
23.1996 -26.5006 -0.614781 0.414237 10
23.1995 -26.5006 0.614779 0.414238 10
13.5613 -15.491 1.07899 0.0458065 10
13.0622 -14.9208 1.73495 0.490777 10
13.075 -14.9355 2.43728 0.309881 10
13.075 -14.9354 3.14393 0.308365 10
12.8005 -14.6219 3.77746 0.131535 10
13.0574 -14.9153 4.57656 0.480202 10
13.0561 -14.9139 5.31112 0.476086 10
6.57364 -7.45633 -2.6635 0.117651 4
7.22932 -8.20005 -2.5238 0.0558413 4
8.57712 -9.72884 -2.52109 0.05628 4
11.2948 -12.8114 -2.7051 0.0599452 1
13.076 -14.8319 -2.42781 0.628957 10
13.0749 -14.8305 -1.72975 0.631326 10
23.3743 -26.5129 -1.85237 0.624162 10
23.4375 -26.5847 -0.618625 0.418612 10
23.4354 -26.5823 0.618569 0.418649 10
13.6165 -15.4448 1.07908 0.0458025 10
13.069 -14.8239 1.72897 0.492474 10
13.1304 -14.8936 2.4379 0.313263 10
13.1292 -14.8922 3.14446 0.311758 10
12.8518 -14.5775 3.77754 0.131532 10
13.0642 -14.8184 4.56079 0.481863 10
13.0629 -14.817 5.29282 0.477732 10
6.57711 -7.40798 -2.65441 0.109622 4
7.27332 -8.19214 -2.52916 0.176449 4
8.61084 -9.69862 -2.52103 0.052736 4
11.3391 -12.7716 -2.70503 0.0599468 1
13.0828 -14.7355 -2.41949 0.631119 10
13.0816 -14.7342 -1.72382 0.633496 10
23.5502 -26.5252 -1.85896 0.621948 10
23.7005 -26.6945 -0.623102 0.42005 10
23.6984 -26.6921 0.623046 0.420088 10
13.6715 -15.3985 1.07917 0.0457986 10
13.0757 -14.7276 1.72305 0.494166 10
12.9029 -14.5329 3.77763 0.131529 10
13.0709 -14.7222 4.54518 0.483517 10
13.0697 -14.7208 5.27471 0.479372 10
6.5804 -7.35978 -2.64535 0.0989835 4
7.32541 -8.19303 -2.53732 0.169133 4
8.64445 -9.66829 -2.52097 0.0567257 4
11.3833 -12.7316 -2.70496 0.0599484 1
13.0895 -14.6398 -2.41126 0.633273 10
13.0883 -14.6384 -1.71796 0.635658 10
23.7274 -26.5376 -1.86563 0.619727 10
23.7273 -26.5376 -0.621369 0.409846 10
23.7273 -26.5375 0.621367 0.409847 10
13.7263 -15.352 1.07926 0.0457947 10
13.0824 -14.6319 1.71719 0.495852 10
12.9538 -14.4881 3.77771 0.131526 10
13.0777 -14.6266 4.52974 0.485166 10
13.0764 -14.6252 5.25678 0.481007 10
6.58674 -7.31532 -2.63762 0.0270003 4
7.37783 -8.19391 -2.54555 0.132917 4
8.67795 -9.63784 -2.52092 0.0598292 4
11.4274 -12.6914 -2.70488 0.0599501 1
13.0961 -14.5447 -2.40312 0.635419 10
13.0949 -14.5434 -1.71216 0.637812 10
23.9058 -26.5501 -1.87236 0.617499 10
23.9758 -26.6279 -0.625438 0.422911 10
23.9737 -26.6255 0.625382 0.422949 10
13.781 -15.3053 1.07936 0.0457908 10
13.0891 -14.5369 1.7114 0.497531 10
13.0046 -14.4431 3.7778 0.131523 10
13.0843 -14.5316 4.51445 0.486809 10
13.0831 -14.5303 5.23905 0.482635 10
6.61213 -7.29217 -2.63758 0.0216006 4
7.43059 -8.1948 -2.55387 0.197907 4
8.71135 -9.60728 -2.52086 0.0500803 4
11.4713 -12.6511 -2.70481 0.0599517 1
13.1027 -14.4503 -2.39506 0.637557 10
13.1015 -14.449 -1.70642 0.639958 10
24.0856 -26.5627 -1.87916 0.615263 10
24.2392 -26.7321 -0.629871 0.424334 10
24.2371 -26.7298 0.629815 0.424372 10
13.8355 -15.2584 1.07945 0.045787 10
13.0957 -14.4426 1.70566 0.499205 10
13.0552 -14.3979 3.77788 0.13152 10
13.091 -14.4373 4.49932 0.488445 10
13.0897 -14.436 5.22149 0.484258 10
6.63744 -7.26893 -2.63754 0.045602 4
7.48367 -8.19567 -2.56227 0.17882 4
8.74464 -9.5766 -2.52081 0.0540702 4
11.5151 -12.6106 -2.70474 0.0599533 1
13.1092 -14.3565 -2.38708 0.639688 10
13.1081 -14.3552 -1.70073 0.642097 10
24.2666 -26.5754 -1.88604 0.613019 10
24.2666 -26.5753 -0.628168 0.40541 10
24.2665 -26.5753 0.628166 0.405411 10
13.8898 -15.2113 1.07954 0.0457831 10
13.1023 -14.3488 1.69998 0.500872 10
13.1639 -14.4163 2.39703 0.318604 10
13.1627 -14.415 3.09175 0.317074 10
13.0988 -14.345 3.77596 0.315156 10
13.0975 -14.3436 4.48435 0.490076 10
13.0963 -14.3423 5.20412 0.485875 10
6.66267 -7.2456 -2.6375 0.00960057 4
7.53711 -8.19654 -2.57075 0.0922896 4
8.77782 -9.54581 -2.52075 0.0598331 4
11.5587 -12.57 -2.70467 0.0599549 1
13.1157 -14.2633 -2.37918 0.641811 10
13.1146 -14.262 -1.69511 0.644228 10
24.449 -26.5882 -1.89299 0.610768 10
24.5149 -26.6598 -0.632184 0.427165 10
24.5128 -26.6575 0.632128 0.427202 10
13.944 -15.164 1.07963 0.0457793 10
13.1088 -14.2557 1.69436 0.502533 10
13.1053 -14.2519 3.76348 0.316201 10
13.1041 -14.2506 4.46953 0.491701 10
13.1029 -14.2493 5.18692 0.487485 10
6.68781 -7.22218 -2.63745 0.0492037 4
7.59089 -8.19741 -2.57932 0.191576 4
8.8109 -9.5149 -2.5207 0.0496404 4
11.6022 -12.5293 -2.70459 0.0599565 1
13.1222 -14.1707 -2.37137 0.643926 10
13.1211 -14.1695 -1.68954 0.64635 10
24.6328 -26.601 -1.90002 0.608509 10
24.7787 -26.7586 -0.636573 0.428572 10
24.7765 -26.7562 0.636517 0.428609 10
13.998 -15.1165 1.07972 0.0457754 10
13.1153 -14.1632 1.6888 0.504189 10
12.7787 -13.7998 2.30929 0.502387 10
12.7776 -13.7985 2.97858 0.499972 10
12.7764 -13.7973 3.65519 0.496949 10
13.1106 -14.1581 4.45486 0.49332 10
13.1094 -14.1568 5.1699 0.48909 10
6.71288 -7.19868 -2.63741 0.0306028 4
7.64501 -8.19828 -2.58797 0.174014 4
8.84386 -9.48388 -2.52064 0.0593925 4
11.6456 -12.4884 -2.70452 0.0599581 1
13.1286 -14.0787 -2.36363 0.646033 10
13.1275 -14.0775 -1.68403 0.648465 10
24.8179 -26.614 -1.90712 0.606244 10
24.8179 -26.6139 -0.635189 0.400929 10
24.8178 -26.6138 0.635187 0.40093 10
14.0519 -15.0688 1.07981 0.0457716 10
13.1217 -14.0713 1.68329 0.505838 10
12.817 -13.7446 2.30753 0.469821 10
12.817 -13.7445 2.97656 0.467523 10
12.8169 -13.7445 3.65303 0.464655 10
13.117 -14.0663 4.44034 0.494933 10
13.1158 -14.065 5.15305 0.490689 10
6.73786 -7.17509 -2.63737 0.0306033 4
7.6995 -8.19914 -2.59671 0.195098 4
8.87672 -9.45275 -2.52059 0.0642694 4
11.6888 -12.4473 -2.70445 0.0599597 1
13.135 -13.9874 -2.35598 0.648133 10
13.1339 -13.9861 -1.67858 0.650573 10
13.1327 -13.9849 -1.00542 0.430808 10
13.1316 -13.9837 -0.334838 0.431371 10
13.1304 -13.9825 0.334809 0.431408 10
13.1293 -13.9813 1.00516 0.43092 10
13.1281 -13.98 1.67784 0.507481 10
12.9133 -13.7513 2.31621 0.46806 10
12.9133 -13.7513 2.98776 0.46577 10
12.9133 -13.7512 3.66678 0.462913 10
13.1234 -13.9751 4.42597 0.49654 10
13.1222 -13.9738 5.13638 0.492282 10
6.76276 -7.15142 -2.63733 0.0228028 4
7.75435 -8.19999 -2.60554 0.182764 4
8.90947 -9.42151 -2.52053 0.0571788 4
11.7319 -12.4061 -2.70438 0.0599613 1
13.1414 -13.8966 -2.3484 0.650224 10
13.1402 -13.8954 -1.67318 0.652672 10
13.2237 -13.9837 -1.00864 0.397431 10
13.2237 -13.9836 -0.33594 0.397917 10
13.2236 -13.9836 0.335939 0.397918 10
13.2236 -13.9836 1.00863 0.397434 10
13.1345 -13.8893 1.67245 0.509117 10
13.0104 -13.7581 2.32499 0.466292 10
13.0103 -13.7581 2.99909 0.464011 10
13.0103 -13.758 3.68068 0.461165 10
13.1298 -13.8844 4.41175 0.498141 10
13.1286 -13.8831 5.11987 0.493869 10
6.78757 -7.12766 -2.63729 0.0402055 4
7.80956 -8.20084 -2.61445 0.153982 4
8.94212 -9.39015 -2.52048 0.0549638 4
11.7748 -12.3647 -2.70431 0.0599629 1
13.1477 -13.8064 -2.3409 0.652308 10
13.1465 -13.8052 -1.66783 0.654763 10
25.3817 -26.6534 -1.92889 0.599402 10
25.3817 -26.6534 -0.642439 0.396404 10
25.3816 -26.6533 0.642437 0.396405 10
14.2124 -14.9245 1.08008 0.0457603 10
13.1408 -13.7992 1.66711 0.510748 10
13.1082 -13.7649 2.33387 0.464519 10
13.1081 -13.7649 3.01054 0.462247 10
13.1081 -13.7649 3.69473 0.459411 10
13.1361 -13.7943 4.39767 0.499736 10
13.1349 -13.7931 5.10354 0.49545 10
6.81231 -7.10381 -2.63725 0.0312048 4
7.86514 -8.20169 -2.62346 0.112769 4
8.97465 -9.35867 -2.52042 0.048316 4
11.8176 -12.3232 -2.70424 0.0599644 1
13.1539 -13.7168 -2.33347 0.654383 10
13.1528 -13.7156 -1.66254 0.656846 10
13.1516 -13.7144 -0.995817 0.434962 10
13.1505 -13.7132 -0.331641 0.43553 10
13.1494 -13.712 0.331612 0.435567 10
13.1482 -13.7108 0.995559 0.435074 10
13.1471 -13.7097 1.66182 0.512372 10
13.1459 -13.7085 2.33206 0.51054 10
13.1448 -13.7073 3.00795 0.508086 10
13.1436 -13.706 3.69123 0.505013 10
13.1424 -13.7048 4.38373 0.501325 10
13.1412 -13.7036 5.08736 0.497025 10
6.83696 -7.07988 -2.63721 0.0114019 4
7.92109 -8.20253 -2.63256 0.156431 4
9.00707 -9.32709 -2.52037 0.0585123 4
11.8602 -12.2816 -2.70417 0.059966 1
13.1601 -13.6277 -2.32612 0.656451 10
13.159 -13.6265 -1.65731 0.658921 10
13.2439 -13.7144 -0.999169 0.392883 10
13.2438 -13.7144 -0.332785 0.393363 10
13.2438 -13.7144 0.332784 0.393364 10
13.2438 -13.7143 0.999163 0.392886 10
13.1533 -13.6207 1.65659 0.51399 10
13.1522 -13.6195 2.32472 0.512152 10
13.151 -13.6183 2.99848 0.50969 10
13.1499 -13.6171 3.67962 0.506607 10
13.1487 -13.6159 4.36994 0.502907 10
13.1475 -13.6146 5.07136 0.498594 10
6.86152 -7.05586 -2.63717 0.0588108 4
7.97743 -8.20337 -2.64175 0.16328 4
9.03938 -9.2954 -2.52032 0.0598434 4
11.9027 -12.2398 -2.7041 0.0599675 1
13.1663 -13.5392 -2.31885 0.65851 10
13.1652 -13.538 -1.65212 0.660988 10
25.9586 -26.6938 -1.95138 0.592494 10
14.3715 -14.7785 1.08034 0.0457491 10
13.1595 -13.5322 1.65141 0.515602 10
13.1584 -13.5311 2.31745 0.513758 10
13.1572 -13.5299 2.98911 0.511288 10
13.1561 -13.5287 3.66812 0.508196 10
13.1549 -13.5275 4.35628 0.504484 10
13.1537 -13.5263 5.05551 0.500157 10
6.886 -7.03176 -2.63712 0.0432086 4
8.03415 -8.2042 -2.65103 0.153804 4
9.07158 -9.26359 -2.52026 0.0434428 4
11.945 -12.1979 -2.70403 0.0599691 1
13.1725 -13.4513 -2.31165 0.660562 10
13.1713 -13.4501 -1.64699 0.663048 10
13.1702 -13.449 -0.986504 0.439068 10
13.1691 -13.4478 -0.328539 0.439641 10
13.1679 -13.4467 0.328511 0.439679 10
13.1668 -13.4455 0.986251 0.439181 10
13.1657 -13.4444 1.64629 0.517208 10
13.1645 -13.4432 2.31026 0.515358 10
13.1634 -13.442 2.97983 0.51288 10
13.1622 -13.4408 3.65673 0.509778 10
13.1611 -13.4396 4.34276 0.506054 10
13.1599 -13.4384 5.03982 0.501714 10
6.9104 -7.00757 -2.63708 0.023405 4
8.09126 -8.20503 -2.66041 0.187974 4
9.10367 -9.23168 -2.52021 0.0434437 4
11.9872 -12.1558 -2.70396 0.0599706 1
13.1786 -13.3639 -2.30452 0.662606 10
13.1774 -13.3627 -1.64191 0.665099 10
13.2583 -13.4448 -0.989586 0.388292 10
13.2583 -13.4447 -0.329593 0.388766 10
13.2583 -13.4447 0.329592 0.388767 10
13.2583 -13.4447 0.989579 0.388294 10
13.1718 -13.357 1.64121 0.518807 10
13.1707 -13.3559 2.30314 0.516951 10
13.1695 -13.3547 2.97065 0.514466 10
13.1684 -13.3535 3.64546 0.511353 10
13.1672 -13.3524 4.32938 0.507618 10
13.166 -13.3511 5.02429 0.503264 10
6.93472 -6.9833 -2.63704 0.114626 4
8.14877 -8.20586 -2.66988 0.169779 4
9.15979 -9.22396 -2.52682 0.206194 4
12.0293 -12.1136 -2.70389 0.0599722 1
13.1846 -13.277 -2.29746 0.664641 10
13.1835 -13.2759 -1.63689 0.667142 10
21.9487 -22.1024 -1.63245 0.668829 10
21.9468 -22.1006 -0.543662 0.669702 10
21.9449 -22.0987 0.543616 0.669759 10
14.5289 -14.6307 1.0806 0.045738 10
13.1779 -13.2702 1.63619 0.5204 10
13.1768 -13.2691 2.29609 0.518538 10
13.1756 -13.2679 2.96156 0.516045 10
13.1745 -13.2668 3.63431 0.512923 10
13.1733 -13.2656 4.31613 0.509176 10
13.1721 -13.2644 5.00892 0.504809 10
6.95894 -6.95895 -2.637 0.127831 4
8.20668 -8.20668 -2.67945 0.170244 4
9.22264 -9.22264 -2.53526 0.19506 4
12.0712 -12.0712 -2.70382 0.0599737 1
13.1907 -13.1907 -2.29047 0.666668 10
13.1895 -13.1895 -1.63191 0.669176 10
13.1884 -13.1884 -0.977469 0.443126 10
13.1873 -13.1873 -0.325531 0.443704 10
13.1862 -13.1862 0.325503 0.443742 10
13.1851 -13.1851 0.977221 0.443239 10
13.1839 -13.1839 1.63122 0.521986 10
13.1828 -13.1828 2.28911 0.520119 10
13.1817 -13.1817 2.95256 0.517618 10
13.1805 -13.1805 3.62326 0.514486 10
13.1794 -13.1794 4.30302 0.510728 10
13.1782 -13.1782 4.9937 0.506347 10
6.98309 -6.93451 -2.63696 0.104427 4
8.26499 -8.20749 -2.68912 0.164555 4
9.2859 -9.22129 -2.54379 0.185536 4
12.1129 -12.0287 -2.70375 0.0599752 1
13.1966 -13.1048 -2.28356 0.668688 10
13.1955 -13.1037 -1.62698 0.671203 10
13.267 -13.1747 -0.979881 0.383658 10
13.267 -13.1747 -0.326361 0.384127 10
13.267 -13.1747 0.32636 0.384128 10
13.2669 -13.1746 0.979875 0.383661 10
13.1899 -13.0982 1.62629 0.523567 10
13.1888 -13.0971 2.2822 0.521693 10
13.1877 -13.0959 2.94365 0.519185 10
13.1865 -13.0948 3.61233 0.516044 10
13.1854 -13.0937 4.29004 0.512274 10
13.1842 -13.0925 4.97864 0.507879 10
7.00715 -6.90999 -2.63692 0.11043 4
8.32372 -8.2083 -2.69889 0.172356 4
9.34956 -9.21992 -2.55239 0.221204 4
12.1545 -11.986 -2.70368 0.0599768 1
13.2026 -13.0195 -2.27671 0.670699 10
13.2015 -13.0184 -1.6221 0.673221 10
13.3671 -13.1817 -0.983867 0.382104 10
13.367 -13.1817 -0.327688 0.382571 10
17.5865 -17.3427 0.431128 0.675861 10
14.6849 -14.4812 1.08086 0.0457271 10
13.1959 -13.0129 1.62142 0.52514 10
13.1948 -13.0118 2.27536 0.523262 10
13.1937 -13.0107 2.93483 0.520745 10
13.1925 -13.0096 3.60151 0.517594 10
13.1914 -13.0085 4.27718 0.513813 10
13.1902 -13.0073 4.96372 0.509405 10
7.03112 -6.88538 -2.63689 0.126037 4
8.38286 -8.20911 -2.70876 0.15574 4
9.41364 -9.21852 -2.56109 0.25873 4
12.196 -11.9432 -2.70361 0.0599783 1
13.2085 -12.9347 -2.26993 0.672702 10
13.2074 -12.9336 -1.61727 0.446008 10
13.2063 -12.9326 -0.968704 0.447136 10
13.2052 -12.9315 -0.322612 0.447719 10
13.2041 -12.9304 0.322585 0.447756 10
13.203 -12.9293 0.96846 0.447248 10
13.2019 -12.9282 1.61659 0.526708 10
13.2007 -12.9271 2.26859 0.524823 10
13.1996 -12.926 2.92609 0.522299 10
13.1985 -12.9249 3.59079 0.519139 10
13.1973 -12.9238 4.26446 0.515346 10
13.1961 -12.9226 4.94896 0.510925 10
7.055 -6.86069 -2.63685 0.122437 4
8.41883 -8.18696 -2.71113 0.0860088 1
9.47813 -9.21709 -2.56986 0.254332 4
12.2373 -11.9003 -2.70354 0.0599798 1
13.2144 -12.8505 -2.26322 0.674696 10
13.2698 -12.9043 -1.61938 0.378057 10
13.2697 -12.9042 -0.970047 0.378982 10
13.2697 -12.9042 -0.323086 0.379445 10
13.2697 -12.9042 0.323085 0.379446 10
13.2696 -12.9042 0.97004 0.378985 10
13.2078 -12.844 1.61182 0.528269 10
13.2066 -12.8429 2.26189 0.526378 10
13.2055 -12.8418 2.91745 0.523847 10
13.2044 -12.8407 3.58018 0.520677 10
13.2032 -12.8396 4.25186 0.516873 10
13.2021 -12.8384 4.93434 0.512439 10
7.0788 -6.83592 -2.63681 0.103833 4
8.44721 -8.15738 -2.71109 0.0860103 1
9.54306 -9.21563 -2.57873 0.28199 4
12.2785 -11.8572 -2.70348 0.0599813 1
13.2203 -12.7667 -2.25658 0.676683 10
13.3352 -12.8777 -1.62188 0.078853 10
13.37 -12.9113 -0.974077 0.377414 10
13.37 -12.9112 -0.324428 0.377875 10
13.3699 -12.9112 0.324427 0.377876 10
13.3699 -12.9112 0.97407 0.377417 10
13.2136 -12.7603 1.60709 0.529823 10
13.2125 -12.7592 2.25525 0.527927 10
13.2114 -12.7581 2.90889 0.525388 10
13.2103 -12.757 3.56968 0.522209 10
13.2091 -12.7559 4.23939 0.518393 10
13.2079 -12.7548 4.91987 0.513946 10
7.10252 -6.81107 -2.63677 0.12004 4
8.47549 -8.1277 -2.71104 0.0860118 1
9.60841 -9.21414 -2.58768 0.179435 4
12.3195 -11.814 -2.70341 0.0599828 1
13.2261 -12.6834 -2.25 0.678661 10
13.225 -12.6823 -1.60307 0.449959 10
13.2239 -12.6812 -0.960199 0.451096 10
13.2228 -12.6802 -0.31978 0.451684 10
13.2217 -12.6791 0.319753 0.451721 10
13.2206 -12.6781 0.95996 0.451209 10
13.2195 -12.677 1.60241 0.531371 10
13.2184 -12.676 2.24868 0.52947 10
13.2172 -12.6749 2.90042 0.526923 10
13.2161 -12.6738 3.55929 0.523734 10
13.215 -12.6727 4.22705 0.519907 10
13.2138 -12.6716 4.90554 0.515447 10
7.12615 -6.78614 -2.63673 0.0222078 4
8.50366 -8.09793 -2.71099 0.0860132 1
9.6742 -9.21262 -2.59672 0.181578 4
12.3603 -11.7706 -2.70334 0.0599842 1
13.2319 -12.6005 -2.24349 0.680631 10
13.2664 -12.6334 -1.60274 0.373351 10
13.2663 -12.6334 -0.960074 0.374264 10
13.2663 -12.6333 -0.319764 0.374722 10
13.2663 -12.6333 0.319763 0.374723 10
13.2662 -12.6333 0.960067 0.374267 10
13.2253 -12.5943 1.59777 0.532913 10
13.2242 -12.5932 2.24218 0.531006 10
13.223 -12.5921 2.89203 0.528452 10
13.2219 -12.5911 3.54899 0.525253 10
13.2208 -12.59 4.21482 0.521415 10
13.2196 -12.5889 4.89136 0.516942 10
7.14969 -6.76112 -2.63669 0.0912332 4
8.53173 -8.06806 -2.71095 0.0860147 1
9.74043 -9.21107 -2.60586 0.261981 4
12.401 -11.7271 -2.70328 0.0599857 1
13.2376 -12.5182 -2.23704 0.682593 10
13.3669 -12.6404 -1.60954 0.371773 10
13.3668 -12.6404 -0.964149 0.372683 10
13.3668 -12.6404 -0.321121 0.373138 10
13.3668 -12.6403 0.32112 0.373139 10
13.3667 -12.6403 0.964142 0.372685 10
12.8926 -12.1919 1.55243 0.534448 10
12.8915 -12.1909 2.17856 0.532535 10
12.8905 -12.1899 2.80996 0.529974 10
12.8894 -12.1889 3.44829 0.526766 10
12.8883 -12.1878 4.09523 0.522917 10
12.8871 -12.1867 4.75257 0.518431 10
7.17314 -6.73603 -2.63665 0.0204077 4
8.5597 -8.03809 -2.7109 0.0860161 1
9.80711 -9.2095 -2.61508 0.196115 4
11.5773 -10.8718 -2.51543 0.0557123 4
13.2433 -12.4363 -2.23065 0.684546 10
13.2422 -12.4353 -1.58929 0.68712 10
13.2411 -12.4343 -0.951946 0.688856 10
13.24 -12.4332 -0.317031 0.689753 10
13.239 -12.4322 0.317005 0.68981 10
13.2379 -12.4312 0.951711 0.689026 10
12.8982 -12.1122 1.548 0.535977 10
12.8971 -12.1112 2.17234 0.534058 10
12.8961 -12.1102 2.80195 0.531489 10
12.895 -12.1092 3.43846 0.528272 10
12.8938 -12.1081 4.08355 0.524412 10
12.8927 -12.1071 4.73902 0.519913 10
7.1965 -6.71085 -2.63661 0.0378149 4
8.58756 -8.00803 -2.71086 0.0860176 1
9.87425 -9.20789 -2.62439 0.232492 4
11.6149 -10.8311 -2.51536 0.0484309 4
13.249 -12.3549 -2.22433 0.686491 10
13.2479 -12.3539 -1.58479 0.689072 10
13.2468 -12.3529 -0.949249 0.690813 10
13.2457 -12.3518 -0.316133 0.691713 10
13.2447 -12.3508 0.316107 0.691769 10
13.2436 -12.3498 0.949015 0.690983 10
12.9427 -12.0693 1.54828 0.435121 10
12.9427 -12.0692 2.1729 0.433528 10
12.9426 -12.0692 2.8029 0.431408 10
12.9426 -12.0692 3.43991 0.428761 10
12.9426 -12.0692 4.08562 0.425592 10
12.9425 -12.0691 4.74182 0.421905 10
7.21978 -6.68559 -2.63658 0.0186076 4
8.61532 -7.97787 -2.71081 0.086019 1
9.93205 -9.19718 -2.63121 0.106864 4
11.6524 -10.7902 -2.5153 0.0509811 4
13.2547 -12.274 -2.21808 0.688428 10
13.2536 -12.2729 -1.58033 0.691016 10
13.2525 -12.2719 -0.946579 0.692761 10
13.2514 -12.2709 -0.315244 0.693663 10
13.2503 -12.2699 0.315218 0.69372 10
13.2492 -12.2689 0.946346 0.692932 10
13.0411 -12.0762 1.55499 0.433242 10
13.041 -12.0761 2.18233 0.431657 10
13.041 -12.0761 2.81506 0.429545 10
13.041 -12.0761 3.45482 0.42691 10
13.0409 -12.076 4.10333 0.423755 10
13.0409 -12.076 4.76238 0.420084 10
7.24297 -6.66025 -2.63654 0.0144061 4
8.64297 -7.94762 -2.71077 0.0860205 1
9.9639 -9.16228 -2.63116 0.0793739 4
11.6897 -10.7492 -2.51524 0.0466124 4
13.2603 -12.1935 -2.21188 0.690356 10
13.2592 -12.1925 -1.57592 0.692951 10
13.2581 -12.1915 -0.943936 0.694701 10
13.257 -12.1905 -0.314364 0.695606 10
13.2559 -12.1895 0.314338 0.695663 10
13.2549 -12.1885 0.943704 0.694872 10
13.1403 -12.0831 1.56178 0.431359 10
13.1402 -12.0831 2.19185 0.42978 10
13.1402 -12.083 2.82735 0.427677 10
13.1402 -12.083 3.46991 0.425054 10
13.1401 -12.083 4.12125 0.421913 10
13.1401 -12.0829 4.78317 0.418257 10
7.26607 -6.63483 -2.6365 0.0324141 4
8.67052 -7.91727 -2.71072 0.0860219 1
9.99562 -9.12726 -2.6311 0.0514388 4
11.7268 -10.7081 -2.51518 0.0484344 4
13.2659 -12.1134 -2.20575 0.692276 10
13.2648 -12.1124 -1.57155 0.694878 10
13.2637 -12.1114 -0.941319 0.696633 10
13.2626 -12.1104 -0.313492 0.69754 10
13.2615 -12.1095 0.313467 0.697597 10
13.2605 -12.1085 0.941088 0.696804 10
13.2403 -12.0901 1.56865 0.42947 10
13.2403 -12.0901 2.2015 0.427898 10
13.2403 -12.09 2.83979 0.425805 10
13.2402 -12.09 3.48517 0.423193 10
13.2402 -12.09 4.13938 0.420065 10
13.2402 -12.09 4.80421 0.416426 10
7.28908 -6.60934 -2.63646 0.0306138 4
8.69796 -7.88683 -2.71068 0.0860233 1
10.0272 -9.09213 -2.63105 0.0199551 4
11.7639 -10.6668 -2.51512 0.0560833 4
13.3415 -12.0973 -2.21129 0.546359 10
13.3415 -12.0973 -1.57562 0.548369 10
13.3414 -12.0973 -0.943833 0.549711 10
13.3414 -12.0973 -0.314355 0.550382 10
13.3414 -12.0972 0.314354 0.550384 10
13.3413 -12.0972 0.943826 0.549715 10
13.3413 -12.0972 1.5756 0.427575 10
13.3413 -12.0971 2.21125 0.42601 10
13.3412 -12.0971 2.85237 0.423927 10
13.3412 -12.0971 3.50061 0.421326 10
13.3412 -12.097 4.15771 0.418212 10
13.3411 -12.097 4.8255 0.414589 10
7.312 -6.58376 -2.63643 0.0384178 4
8.69649 -7.83036 -2.70168 0.0170179 4
10.0587 -9.0569 -2.631 0.0966733 4
11.8007 -10.6254 -2.51506 0.0444306 4
13.4434 -12.1045 -2.22116 0.543932 10
13.4434 -12.1045 -1.58265 0.545933 10
13.4433 -12.1044 -0.948045 0.547269 10
13.4433 -12.1044 -0.315757 0.547937 10
13.4432 -12.1044 0.315756 0.547939 10
13.4432 -12.1043 0.948037 0.547273 10
13.4432 -12.1043 1.58263 0.425676 10
13.4431 -12.1043 2.22112 0.424118 10
13.4431 -12.1042 2.86509 0.422043 10
13.4431 -12.1042 3.51623 0.419454 10
13.443 -12.1042 4.17627 0.416354 10
13.443 -12.1041 4.84703 0.412747 10
7.33484 -6.5581 -2.63639 0.0456218 4
8.68512 -7.7654 -2.68972 0.0240109 4
10.0901 -9.02156 -2.63095 0.0603111 4
11.8375 -10.5839 -2.515 0.0466169 4
13.5462 -12.1117 -2.23114 0.541498 10
13.5461 -12.1116 -1.58977 0.54349 10
13.5461 -12.1116 -0.952306 0.54482 10
13.5461 -12.1116 -0.317177 0.545486 10
13.546 -12.1116 0.317175 0.545487 10
13.546 -12.1115 0.952299 0.544824 10
13.546 -12.1115 1.58975 0.423771 10
13.5459 -12.1115 2.2311 0.42222 10
13.5459 -12.1114 2.87797 0.420155 10
13.5459 -12.1114 3.53204 0.417578 10
13.5458 -12.1114 4.19504 0.414491 10
13.5458 -12.1113 4.86881 0.4109 10
7.35758 -6.53237 -2.63635 0.0132065 4
8.67364 -7.70082 -2.67782 0.0229716 4
10.1213 -8.98611 -2.6309 0.00709556 4
11.8741 -10.5423 -2.51494 0.05026 4
13.6499 -12.1189 -2.24124 0.539058 10
13.6498 -12.1189 -1.59696 0.541041 10
13.6498 -12.1189 -0.956617 0.542364 10
13.6498 -12.1188 -0.318612 0.543027 10
13.6497 -12.1188 0.318611 0.543029 10
13.6497 -12.1188 0.95661 0.542368 10
13.6497 -12.1187 1.59694 0.421861 10
13.6496 -12.1187 2.2412 0.420317 10
13.6496 -12.1187 2.891 0.418261 10
13.6496 -12.1187 3.54803 0.415696 10
13.6495 -12.1186 4.21403 0.412623 10
13.6495 -12.1186 4.89085 0.409049 10
7.38024 -6.50656 -2.63631 0.0354179 4
8.66206 -7.63663 -2.666 0.0206509 4
10.1524 -8.95055 -2.63085 0.0971224 4
11.9105 -10.5005 -2.51488 0.0542675 4
13.7545 -12.1263 -2.25146 0.536611 10
13.7545 -12.1262 -1.60425 0.538585 10
13.7545 -12.1262 -0.960979 0.539902 10
13.7544 -12.1262 -0.320065 0.540562 10
13.7544 -12.1261 0.320064 0.540564 10
13.7544 -12.1261 0.960972 0.539906 10
13.7543 -12.1261 1.60423 0.419946 10
13.7543 -12.126 2.25142 0.418409 10
13.7543 -12.126 2.90418 0.416363 10
13.7542 -12.126 3.56421 0.413809 10
13.7542 -12.1259 4.23324 0.41075 10
13.7541 -12.1259 4.91316 0.407192 10
7.4028 -6.48066 -2.63628 0.0414216 4
8.65038 -7.57283 -2.65425 0.0251416 4
10.1834 -8.91489 -2.6308 0.0177396 4
11.9468 -10.4587 -2.51482 0.054633 4
13.8602 -12.1336 -2.2618 0.534157 10
13.9399 -12.2035 -1.62089 0.078901 10
13.9768 -12.2358 -0.973525 0.467681 10
13.9757 -12.2348 -0.324219 0.468289 10
13.9746 -12.2338 0.324192 0.468327 10
13.9735 -12.2328 0.973291 0.467794 10
13.8599 -12.1335 1.61159 0.418026 10
13.8599 -12.1334 2.26176 0.416496 10
13.8599 -12.1334 2.91752 0.414459 10
13.8598 -12.1334 3.58058 0.411917 10
13.8598 -12.1333 4.25269 0.408872 10
13.8598 -12.1333 4.93572 0.40533 10
7.42528 -6.45469 -2.63624 0.0312167 4
8.63859 -7.50941 -2.64257 0.0233794 4
9.78078 -8.5023 -2.5191 0.0638637 4
11.983 -10.4166 -2.51477 0.0309594 4
13.9667 -12.1411 -2.27227 0.531697 10
13.9818 -12.1542 -1.62082 0.0789043 10
13.9825 -12.1548 -0.970958 0.468917 10
13.9814 -12.1538 -0.323364 0.469527 10
13.9803 -12.1529 0.323338 0.469564 10
13.9791 -12.1519 0.970725 0.46903 10
13.9665 -12.1409 1.61905 0.416101 10
13.9665 -12.1409 2.27223 0.414578 10
13.9665 -12.1409 2.93102 0.41255 10
13.9664 -12.1408 3.59714 0.41002 10
13.9664 -12.1408 4.27237 0.406989 10
13.9664 -12.1408 4.95856 0.403463 10
7.44766 -6.42865 -2.63621 0.0180099 4
8.6362 -7.45457 -2.63387 0.0224561 4
9.81021 -8.46795 -2.51906 0.0660825 4
12.019 -10.3745 -2.51471 0.0265893 4
14.0743 -12.1486 -2.28286 0.529231 10
14.0743 -12.1486 -1.62662 0.531178 10
14.2434 -12.2946 -0.98609 0.470148 10
14.2423 -12.2936 -0.328403 0.470759 10
14.2411 -12.2926 0.328377 0.470796 10
14.24 -12.2916 0.985854 0.47026 10
14.0741 -12.1485 1.6266 0.414171 10
14.0741 -12.1484 2.28281 0.412655 10
14.074 -12.1484 2.94468 0.410637 10
14.074 -12.1484 3.61391 0.408118 10
14.074 -12.1483 4.29227 0.405102 10
14.0739 -12.1483 4.98167 0.401592 10
7.46995 -6.40252 -2.63617 0.0660371 4
8.66203 -7.42426 -2.63382 0.0626693 4
9.83953 -8.4335 -2.51901 0.0660837 4
12.0548 -10.3323 -2.51465 0.0131128 4
14.1829 -12.1562 -2.29357 0.526758 10
14.1829 -12.1562 -1.63425 0.528695 10
14.2491 -12.213 -0.983527 0.471373 10
14.248 -12.212 -0.32755 0.471985 10
14.2468 -12.211 0.327524 0.472023 10
14.2457 -12.21 0.983293 0.471485 10
14.1827 -12.1561 1.63423 0.412236 10
14.1827 -12.156 2.29353 0.410727 10
14.1826 -12.156 2.95851 0.408718 10
14.1826 -12.156 3.63087 0.406211 10
14.1826 -12.1559 4.31243 0.403209 10
14.1825 -12.1559 5.00505 0.399715 10
7.49215 -6.37632 -2.63613 0.138079 4
8.68775 -7.39386 -2.63378 0.103406 4
9.86872 -8.39894 -2.51896 0.0581016 4
12.0906 -10.2899 -2.51459 0.0316901 4
14.2925 -12.1639 -2.30442 0.524278 10
14.2925 -12.1639 -1.64198 0.526207 10
14.2925 -12.1638 -0.983583 0.348424 10
14.2924 -12.1638 -0.327594 0.34885 10
14.2924 -12.1638 0.327593 0.34885 10
14.2924 -12.1638 0.983576 0.348426 10
14.2923 -12.1637 1.64196 0.410295 10
14.2923 -12.1637 2.30438 0.408794 10
14.2922 -12.1637 2.9725 0.406794 10
14.2922 -12.1636 3.64804 0.404299 10
14.2922 -12.1636 4.33282 0.401311 10
14.2921 -12.1636 5.02872 0.397834 10
7.51426 -6.35004 -2.6361 0.0960566 4
8.71337 -7.36337 -2.63374 0.102363 4
9.91361 -8.37766 -2.52294 0.198537 4
12.1261 -10.2474 -2.51453 0.0495396 4
14.4032 -12.1717 -2.3154 0.521793 10
14.4032 -12.1716 -1.6498 0.523712 10
14.516 -12.267 -0.996014 0.473805 10
14.5149 -12.266 -0.331709 0.474421 10
14.5137 -12.265 0.331682 0.474458 10
14.5126 -12.2641 0.995778 0.473918 10
14.403 -12.1715 1.64978 0.40835 10
14.4029 -12.1714 2.31536 0.406856 10
14.4029 -12.1714 2.98666 0.404865 10
14.4029 -12.1714 3.66542 0.402382 10
14.4028 -12.1713 4.35346 0.399408 10
14.4028 -12.1713 5.05268 0.395948 10
7.53628 -6.32369 -2.63606 0.121273 4
8.73888 -7.3328 -2.6337 0.104976 4
9.98573 -8.37902 -2.53383 0.242186 4
12.1616 -10.2048 -2.51448 0.0491765 4
14.5149 -12.1795 -2.32651 0.5193 10
14.5149 -12.1794 -1.65772 0.521211 10
14.5217 -12.1852 -0.993482 0.475013 10
14.5206 -12.1842 -0.330866 0.47563 10
14.5194 -12.1833 0.330839 0.475667 10
14.5183 -12.1823 0.993247 0.475125 10
14.5147 -12.1793 1.6577 0.4064 10
14.5147 -12.1793 2.32647 0.404912 10
14.5146 -12.1792 3.00099 0.402932 10
14.5146 -12.1792 3.68301 0.40046 10
14.5145 -12.1792 4.37435 0.397501 10
14.5145 -12.1791 5.07693 0.394057 10
7.55821 -6.29726 -2.63603 0.100262 4
8.76429 -7.30213 -2.63366 0.0903539 4
10.0584 -8.38038 -2.54485 0.25028 4
12.1968 -10.162 -2.51442 0.0393421 4
14.6277 -12.1874 -2.33776 0.516802 10
14.6277 -12.1873 -1.66574 0.518703 10
14.7832 -12.3169 -1.00842 0.476215 10
14.782 -12.3159 -0.335841 0.476833 10
14.7809 -12.315 0.335815 0.476871 10
14.7797 -12.314 1.00818 0.476327 10
14.5797 -12.1473 1.66027 0.56095 10
14.5785 -12.1464 2.32989 0.55894 10
14.5773 -12.1454 3.00517 0.556249 10
14.5761 -12.1444 3.68785 0.55288 10
14.6273 -12.187 4.3955 0.395588 10
14.5737 -12.1424 5.08279 0.544127 10
7.58004 -6.27076 -2.63599 0.0984619 4
8.78959 -7.27138 -2.63362 0.0997564 4
10.1318 -8.38175 -2.55599 0.220684 4
12.2319 -10.1191 -2.51436 0.0473573 4
14.7416 -12.1953 -2.34914 0.514297 10
14.7416 -12.1953 -1.67385 0.516189 10
14.789 -12.2345 -1.0059 0.477411 10
14.7878 -12.2335 -0.335 0.478031 10
14.7866 -12.2326 0.334974 0.478068 10
14.7855 -12.2316 1.00566 0.477523 10
14.5854 -12.0661 1.65611 0.562358 10
14.5842 -12.0651 2.32405 0.560343 10
14.583 -12.0641 2.99764 0.557645 10
14.5819 -12.0632 3.67862 0.554268 10
14.7412 -12.195 4.41691 0.393671 10
14.5794 -12.0612 5.07006 0.545493 10
7.60178 -6.24418 -2.63596 0.121278 4
8.81478 -7.24054 -2.63358 0.099758 4
10.2058 -8.38312 -2.56725 0.223084 4
12.2669 -10.0762 -2.51431 0.0513656 4
14.8567 -12.2034 -2.36067 0.511786 10
14.8566 -12.2034 -1.68206 0.513669 10
14.8566 -12.2033 -1.00759 0.340122 10
14.8565 -12.2033 -0.33559 0.340537 10
14.8565 -12.2033 0.335589 0.340538 10
14.8565 -12.2032 1.00758 0.340124 10
14.591 -11.9852 1.65199 0.56376 10
14.5899 -11.9843 2.31828 0.56174 10
14.5887 -11.9833 2.99019 0.559035 10
14.5875 -11.9823 3.66948 0.555649 10
14.8563 -12.2031 4.43858 0.391749 10
14.5851 -11.9804 5.05746 0.546852 10
7.62343 -6.21752 -2.63592 0.117077 4
8.83987 -7.20962 -2.63354 0.0245482 4
10.2804 -8.38449 -2.57865 0.104218 4
12.3017 -10.0331 -2.51425 0.0448093 4
14.9728 -12.2115 -2.37234 0.509269 10
14.9728 -12.2115 -1.69038 0.511142 10
15.0565 -12.2798 -1.01824 0.479785 10
15.0553 -12.2788 -0.33911 0.480408 10
15.0541 -12.2778 0.339083 0.480445 10
15.0529 -12.2769 1.018 0.479898 10
14.5967 -11.9047 1.64791 0.565155 10
14.5955 -11.9038 2.31256 0.563129 10
14.5943 -11.9029 2.98282 0.560418 10
14.5932 -11.9019 3.66042 0.557023 10
14.9724 -12.2112 4.46052 0.389822 10
14.5908 -11.8999 5.04499 0.548204 10
7.64499 -6.19079 -2.63589 0.102669 4
8.86484 -7.17861 -2.6335 0.0349947 4
10.3557 -8.38586 -2.59017 0.0949595 4
12.3364 -9.98983 -2.51419 0.0564682 4
15.0901 -12.2197 -2.38415 0.506746 10
15.0901 -12.2197 -1.69879 0.50861 10
15.09 -12.2197 -1.01761 0.336772 10
15.09 -12.2196 -0.338928 0.337184 10
15.0899 -12.2196 0.338927 0.337184 10
15.0899 -12.2196 1.01761 0.336774 10
14.6023 -11.8247 1.64388 0.566542 10
14.602 -11.8245 2.30703 0.395123 10
14.602 -11.8245 2.97592 0.39319 10
14.6019 -11.8244 3.65225 0.390779 10
15.0897 -12.2194 4.48273 0.387891 10
14.6019 -11.8244 5.03452 0.38453 10
8.88971 -7.14752 -2.63346 0.0308167 4
10.4316 -8.38724 -2.60183 0.241742 4
12.3709 -9.94649 -2.51414 0.0448113 4
15.2086 -12.228 -2.39611 0.504216 10
15.2085 -12.228 -1.70732 0.506071 10
15.3243 -12.321 -1.0305 0.482136 10
15.3231 -12.3201 -0.343196 0.482762 10
15.3219 -12.3191 0.343169 0.482799 10
15.3207 -12.3182 1.03026 0.482249 10
14.7167 -11.8325 1.6521 0.394595 10
14.7167 -11.8325 2.31861 0.393151 10
14.7166 -11.8325 2.99085 0.391228 10
14.7166 -11.8324 3.67057 0.388828 10
15.2082 -12.2277 4.50521 0.385954 10
7.68782 -6.13711 -2.63582 0.0552384 4
8.91447 -7.11633 -2.63342 0.0261162 4
10.5082 -8.38861 -2.61362 0.303333 4
12.4053 -9.90303 -2.51408 0.0455409 4
15.3283 -12.2364 -2.40822 0.50168 10
15.3282 -12.2364 -1.71595 0.503526 10
15.3301 -12.2379 -1.02802 0.483303 10
15.3289 -12.2369 -0.342367 0.48393 10
15.3281 -12.2363 0.342349 0.333814 10
15.3281 -12.2362 1.02788 0.333408 10
15.2034 -12.1367 3.78141 0.131398 10
15.3279 -12.2361 4.52799 0.384013 10
7.7091 -6.11016 -2.63578 0.0210149 4
8.93913 -7.08506 -2.63338 0.0276836 4
10.5855 -8.38999 -2.62554 0.260032 4
12.4395 -9.85945 -2.51403 0.0466349 4
15.4492 -12.2449 -2.42049 0.499138 10
15.4491 -12.2448 -1.72468 0.500974 10
15.5923 -12.3583 -1.0427 0.484464 10
15.5911 -12.3574 -0.347259 0.485092 10
15.5899 -12.3564 0.347232 0.48513 10
15.5887 -12.3555 1.04246 0.484576 10
15.5584 -12.3315 1.73689 0.364301 10
15.5572 -12.3305 2.43742 0.362995 10
15.556 -12.3295 3.14387 0.361247 10
15.246 -12.0838 3.78148 0.131395 10
15.4487 -12.2445 4.55104 0.382068 10
15.5522 -12.3265 5.31739 0.353373 10
7.73028 -6.08313 -2.63575 0.00720519 4
8.96367 -7.05371 -2.63334 0.0323851 4
10.6635 -8.39137 -2.6376 0.256775 4
12.4736 -9.81576 -2.51397 0.0470003 4
15.5713 -12.2534 -2.43291 0.49659 10
15.5713 -12.2534 -1.73353 0.498417 10
15.5982 -12.2746 -1.04022 0.485619 10
15.597 -12.2736 -0.346433 0.486249 10
15.5958 -12.2727 0.346406 0.486286 10
15.5946 -12.2717 1.03998 0.485731 10
15.2883 -12.0307 3.78154 0.131393 10
15.5709 -12.2531 4.5744 0.380117 10
7.75137 -6.05603 -2.63572 0.0636467 4
8.9881 -7.02228 -2.6333 0.0188045 4
10.7422 -8.39275 -2.64981 0.26502 4
12.5075 -9.77195 -2.51392 0.0517378 4
15.6947 -12.262 -2.44548 0.494036 10
15.6947 -12.262 -1.74249 0.495854 10
22.2737 -17.4021 0.49338 0.737953 10
16.2915 -12.7283 1.08349 0.0456163 10
15.3305 -11.9775 3.78161 0.131391 10
15.6943 -12.2617 4.59804 0.378162 10
7.77236 -6.02886 -2.63568 0.0240179 4
9.01243 -6.99076 -2.63326 0.0229837 4
10.8217 -8.39414 -2.66216 0.248276 4
12.5413 -9.72802 -2.51387 0.0462736 4
15.8194 -12.2708 -2.45822 0.491476 10
15.8193 -12.2707 -1.75157 0.493284 10
22.282 -17.2837 0.492225 0.739685 10
16.3369 -12.6722 1.08356 0.0456132 10
15.3725 -11.9241 3.78168 0.131388 10
15.8189 -12.2704 4.62199 0.376203 10
7.79326 -6.00162 -2.63565 0.0546415 4
9.03664 -6.95915 -2.63322 0.0266405 4
10.9018 -8.39552 -2.67465 0.244955 4
12.5749 -9.68397 -2.51381 0.0535619 4
15.9454 -12.2796 -2.47112 0.48891 10
15.9453 -12.2796 -1.76076 0.490709 10
22.2903 -17.1658 0.49108 0.741409 10
16.3821 -12.6159 1.08363 0.0456101 10
15.4295 -11.8823 3.78548 0.377025 10
15.9449 -12.2792 4.64625 0.374239 10
7.81406 -5.9743 -2.63562 0.0216167 4
9.06075 -6.92747 -2.63318 0.0193277 4
10.9827 -8.39691 -2.68729 0.210689 4
12.6084 -9.63982 -2.51376 0.0393524 4
16.0727 -12.2885 -2.48419 0.486338 10
16.0726 -12.2885 -1.77008 0.488127 10
22.2985 -17.0485 0.489947 0.743124 10
16.4272 -12.5595 1.08371 0.0456071 10
15.5527 -11.891 3.8055 0.375042 10
16.0722 -12.2882 4.67082 0.37227 10
7.83477 -5.94692 -2.63558 0.0114089 4
9.08474 -6.8957 -2.63314 0.0120147 4
11.0644 -8.39831 -2.70008 0.259564 4
12.6417 -9.59554 -2.51371 0.0539285 4
16.2014 -12.2975 -2.49743 0.48376 10
16.2013 -12.2975 -1.77951 0.48554 10
22.3067 -16.9317 0.488825 0.744829 10
16.472 -12.5029 1.08378 0.045604 10
15.6772 -11.8997 3.82578 0.373054 10
16.2009 -12.2972 4.69571 0.370297 10
7.85538 -5.91946 -2.63555 0.0222177 4
9.10863 -6.86384 -2.63311 0.00679102 4
11.1187 -8.37853 -2.70618 0.0730882 1
12.6748 -9.55116 -2.51365 0.0579379 4
16.3314 -12.3066 -2.51084 0.481176 10
16.3314 -12.3066 -1.78906 0.482947 10
22.3148 -16.8154 0.487714 0.746526 10
16.5166 -12.4462 1.08385 0.0352469 10
16.4301 -12.381 1.79988 0.240392 10
16.43 -12.3809 2.526 0.239512 10
16.43 -12.3809 3.25838 0.23834 10
15.8031 -11.9085 3.84632 0.371061 10
16.331 -12.3063 4.72092 0.368319 10
16.4298 -12.3808 5.51236 0.233091 10
7.8759 -5.89193 -2.63552 0.0168136 4
9.1324 -6.83191 -2.63307 0.0083583 4
11.1477 -8.33953 -2.70614 0.0730895 1
12.7078 -9.50666 -2.5136 0.0466428 4
16.4629 -12.3158 -2.52443 0.478587 10
16.4628 -12.3158 -1.79874 0.480347 10
22.3229 -16.6997 0.486614 0.748213 10
16.5611 -12.3893 1.08392 0.0352445 10
16.4626 -12.3156 1.79872 0.239098 10
16.4626 -12.3156 2.52438 0.238223 10
16.4625 -12.3155 3.25628 0.237058 10
15.9303 -11.9174 3.86713 0.369064 10
16.4529 -12.3083 4.74371 0.155083 10
16.4624 -12.3154 5.50881 0.231836 10
7.89632 -5.86433 -2.63548 0.0330271 4
9.15606 -6.79989 -2.63303 0.015672 4
11.1765 -8.30043 -2.70609 0.0730907 1
12.7618 -9.47771 -2.51771 0.145689 4
16.5958 -12.3251 -2.53819 0.475991 10
16.5957 -12.3251 -1.80855 0.477742 10
22.331 -16.5844 0.485525 0.749892 10
16.6053 -12.3322 1.08399 0.0352422 10
16.4968 -12.2516 1.79777 0.582652 10
16.4955 -12.2507 2.52286 0.580563 10
16.4943 -12.2497 3.25408 0.577766 10
16.0589 -11.9264 3.88822 0.367063 10
16.496 -12.251 4.74378 0.155081 10
16.4904 -12.2468 5.50384 0.56517 10
7.91665 -5.83666 -2.63545 0.0462385 4
9.17961 -6.76779 -2.63299 0.0193291 4
11.2052 -8.26122 -2.70605 0.0730919 1
12.8533 -9.47631 -2.52924 0.228877 4
16.7301 -12.3345 -2.55214 0.47339 10
16.7301 -12.3345 -1.81849 0.475132 10
22.339 -16.4697 0.484447 0.751561 10
16.7299 -12.3343 1.08931 0.371376 10
