VERSION 0.7
FIELDS x y z intensity label
SIZE 4 4 4 4 4
TYPE F F F F F
COUNT 1 1 1 1 1
WIDTH 1283
HEIGHT 1
VIEWPOINT 8.06905 48.9879 2.72893 0.731355 0.00039703 0.000508597 -0.681997
POINTS 1283
DATA ascii
11.5863 29.2636 1.64947 0.660711 10
11.5862 29.2634 2.75358 0.659105 10
11.5861 29.2632 3.86445 0.656696 10
11.586 29.263 4.98486 0.653487 10
11.586 29.2628 6.11771 0.649482 10
11.5859 29.2625 7.26604 0.644685 10
11.5858 29.2623 8.43301 0.639103 10
3.44998 8.80331 -2.53351 0.0915381 4
4.00272 10.2137 -2.53264 0.064502 4
4.75188 12.1254 -2.53146 0.0450261 4
6.2629 15.981 -2.71858 0.0596606 1
8.0703 20.593 -2.71573 0.0465269 1
11.3049 28.8467 -2.71064 0.0333365 1
11.4717 29.2723 -1.6477 0.848292 10
11.4716 29.2721 -0.548782 0.849333 10
11.4715 29.2719 0.548778 0.84934 10
11.4714 29.2717 1.64766 0.661439 10
11.4714 29.2715 2.75056 0.659831 10
11.4713 29.2712 3.86019 0.657419 10
11.4712 29.271 4.97937 0.654207 10
11.4711 29.2708 6.11098 0.650197 10
11.471 29.2706 7.25804 0.645395 10
11.4709 29.2703 8.42373 0.639807 10
3.41928 8.81543 -2.53355 0.081366 4
3.96712 10.2278 -2.53268 0.0764647 4
4.70962 12.1421 -2.53151 0.0670964 4
6.20724 16.0032 -2.71865 0.0596591 1
7.99863 20.6217 -2.71582 0.0465254 1
11.2047 28.8873 -2.71077 0.033335 1
11.3571 29.2803 -1.64591 0.849215 10
11.357 29.2801 -0.548186 0.850257 10
11.3569 29.2799 0.548181 0.850263 10
11.3568 29.2797 1.64587 0.662158 10
11.3568 29.2795 2.74757 0.660549 10
11.3567 29.2793 3.856 0.658134 10
11.3566 29.279 4.97396 0.654918 10
11.3565 29.2788 6.10434 0.650904 10
11.3564 29.2786 7.25016 0.646097 10
11.3563 29.2784 8.41458 0.640503 10
3.38854 8.82744 -2.53359 0.0765786 4
3.93146 10.2418 -2.53273 0.0494151 4
4.6673 12.1587 -2.53157 0.0732748 4
6.15149 16.0252 -2.71872 0.0596575 1
7.92686 20.6502 -2.71591 0.0465238 1
11.1043 28.9276 -2.71089 0.0333335 1
11.2427 29.2883 -1.64414 0.850127 10
11.2427 29.2881 -0.547598 0.851171 10
11.2426 29.2879 0.547593 0.851177 10
11.2425 29.2877 1.6441 0.66287 10
11.2424 29.2875 2.74462 0.661258 10
11.2423 29.2873 3.85186 0.658841 10
11.2422 29.287 4.96863 0.655622 10
11.2422 29.2868 6.09779 0.651603 10
11.2421 29.2866 7.24238 0.646791 10
11.242 29.2864 8.40555 0.641191 10
3.35776 8.83935 -2.53362 0.0747826 4
3.89575 10.2556 -2.53277 0.0733411 4
4.62493 12.1752 -2.53162 0.0529686 4
6.09567 16.047 -2.71879 0.059656 1
7.85499 20.6784 -2.716 0.0465223 1
11.0037 28.9675 -2.71102 0.0333319 1
11.1682 29.4004 -1.64823 0.256881 10
11.1665 29.3959 -0.54888 0.257234 10
11.1647 29.3914 0.548795 0.257273 10
11.1284 29.2957 1.64236 0.663573 10
11.1283 29.2955 2.74171 0.66196 10
11.1282 29.2952 3.84778 0.659541 10
11.1281 29.295 4.96336 0.656317 10
11.128 29.2948 6.09133 0.652295 10
11.128 29.2946 7.2347 0.647477 10
11.1279 29.2943 8.39664 0.641871 10
3.32693 8.85115 -2.53366 0.0693972 4
3.86 10.2694 -2.53282 0.0639773 4
4.5825 12.1915 -2.53167 0.0379601 4
6.03978 16.0686 -2.71886 0.0596545 1
7.78302 20.7064 -2.71609 0.0465208 1
10.9031 29.0071 -2.71114 0.0333304 1
11.195 29.7838 -1.66753 0.253909 10
11.0145 29.3036 1.64064 0.664268 10
11.0144 29.3034 2.73884 0.662654 10
11.0144 29.3032 3.84375 0.660231 10
11.0143 29.303 4.95816 0.657005 10
11.0142 29.3028 6.08495 0.652978 10
11.0141 29.3025 7.22713 0.648156 10
11.014 29.3023 8.38785 0.642544 10
3.29606 8.86285 -2.5337 0.064012 4
3.8242 10.2829 -2.53286 0.0722983 4
4.54001 12.2077 -2.53172 0.0353109 4
5.9838 16.09 -2.71892 0.059653 1
7.71094 20.7341 -2.71618 0.0465193 1
10.8022 29.0463 -2.71127 0.0333289 1
11.2225 30.1763 -1.6873 0.250933 10
11.4352 30.7483 -0.572627 0.563989 10
11.4351 30.748 0.572622 0.563993 10
10.9009 29.3116 1.63895 0.664955 10
10.9008 29.3114 2.73601 0.663339 10
10.9007 29.3111 3.83978 0.660914 10
10.9006 29.3109 4.95304 0.657685 10
10.9006 29.3107 6.07867 0.653654 10
10.9005 29.3105 7.21966 0.648826 10
10.9004 29.3102 8.37918 0.643208 10
3.26516 8.87443 -2.53374 0.0795651 4
3.78835 10.2964 -2.53291 0.0676159 4
1.40973 3.83152 -0.793582 0.0150222 9
5.92776 16.1112 -2.71899 0.0596514 1
7.63878 20.7616 -2.71627 0.0465177 1
10.7013 29.0852 -2.71139 0.0333273 1
11.2506 30.5782 -1.70757 0.247955 10
11.3162 30.7566 -0.572043 0.564565 10
11.3161 30.7563 0.572038 0.564569 10
10.7998 29.3529 1.63914 0.193426 10
10.798 29.3482 2.73591 0.192985 10
10.7963 29.3435 3.83905 0.19231 10
10.7945 29.3387 4.95133 0.191399 10
10.7928 29.3339 6.07562 0.190256 10
10.791 29.329 7.2149 0.188881 10
10.7892 29.324 8.37231 0.187276 10
3.23421 8.88591 -2.53378 0.0652065 4
1.42276 3.909 -0.960382 0.0406511 9
1.41335 3.88314 -0.803248 0.0137813 9
5.87163 16.1322 -2.71906 0.0596499 1
7.5665 20.7888 -2.71636 0.0465162 1
10.6002 29.1237 -2.71152 0.0333258 1
11.2794 30.99 -1.72835 0.244973 10
11.2936 31.0288 -0.57637 0.565134 10
11.2935 31.0286 0.576365 0.565139 10
11.274 30.975 1.72751 0.191101 10
11.1225 30.5589 2.84514 0.664686 10
10.8239 29.7383 3.88574 0.189999 10
11.2685 30.9598 5.21825 0.1891 10
11.1223 30.5582 6.32113 0.654981 10
10.9161 29.9917 7.36849 0.155769 10
11.2628 30.9442 8.82359 0.185027 10
3.20322 8.89728 -2.53382 0.0849466 4
1.4173 3.9367 -0.965967 0.0155889 9
1.41706 3.93603 -0.81316 0.0125662 9
5.81543 16.153 -2.71913 0.0596484 1
7.49414 20.8158 -2.71645 0.0465146 1
10.4989 29.1619 -2.71164 0.0333242 1
11.309 31.4118 -1.74966 0.241989 10
11.3642 31.5652 -0.585593 0.565697 10
11.3641 31.565 0.585588 0.565701 10
11.3034 31.3964 1.74881 0.188774 10
11.0049 30.5671 2.84231 0.665347 10
11.2997 31.3861 4.09587 0.187686 10
11.2978 31.3809 5.28254 0.186799 10
11.0046 30.5665 6.31485 0.655632 10
10.8466 30.1276 7.39254 0.184342 10
11.292 31.3648 8.93224 0.182776 10
1.42294 3.99608 -1.1366 0.0395198 9
1.42111 3.99094 -0.978052 0.0112906 9
1.42086 3.99025 -0.823332 0.00930818 9
5.75916 16.1736 -2.7192 0.0596468 1
7.42168 20.8425 -2.71654 0.0465131 1
10.3975 29.1997 -2.71177 0.0333227 1
11.3392 31.8443 -1.77153 0.239001 10
11.3374 31.839 -0.589934 0.158085 10
11.3368 31.8375 0.589907 0.566256 10
11.3336 31.8285 1.77065 0.186445 10
10.8874 30.5754 2.83953 0.666 10
11.3298 31.8178 4.14703 0.185371 10
11.3279 31.8125 5.34851 0.184495 10
10.8871 30.5747 6.30865 0.656276 10
10.8754 30.5418 7.48482 0.182069 10
11.322 31.796 9.04372 0.180523 10
1.42527 4.04726 -1.14974 0.0120552 9
1.42501 4.04654 -0.990453 0.0131764 9
1.42476 4.04583 -0.83377 0.0142981 9
5.70282 16.194 -2.71927 0.0596453 1
7.34913 20.869 -2.71663 0.0465116 1
10.296 29.2372 -2.7119 0.0333211 1
11.3703 32.2876 -1.79398 0.236011 10
11.4009 32.3746 -0.599117 0.5668 10
11.4008 32.3744 0.599113 0.566804 10
11.3645 32.2714 1.79308 0.184114 10
11.3626 32.2659 2.99283 0.183696 10
11.3607 32.2605 4.19953 0.183054 10
11.3588 32.255 5.4162 0.182189 10
11.3568 32.2494 6.64599 0.181102 10
11.3548 32.2437 7.89215 0.179795 10
11.3528 32.238 9.15813 0.178268 10
1.41712 4.06943 -1.15462 0.0840702 9
1.41711 4.0694 -0.99483 0.0848058 9
1.4171 4.06936 -0.837594 0.0594352 9
1.41709 4.06933 -0.682481 0.0710157 9
7.27647 20.8952 -2.71672 0.04651 1
10.1944 29.2743 -2.71202 0.0333196 1
11.4021 32.7424 -1.81702 0.233018 10
11.4611 32.9117 -0.608313 0.567342 10
11.3982 32.7312 0.604977 0.154154 10
11.3963 32.7257 1.8161 0.18178 10
11.3943 32.7201 3.03125 0.181367 10
11.3924 32.7145 4.25343 0.180734 10
11.3904 32.7088 5.48571 0.179881 10
11.3884 32.7031 6.73126 0.178808 10
11.3864 32.6973 7.99339 0.177517 10
11.3844 32.6915 9.27559 0.176011 10
1.40159 4.07051 -1.15354 0.0914668 9
1.40158 4.07048 -0.993894 0.0848858 9
1.40157 4.07045 -0.836806 0.055773 9
1.40156 4.07042 -0.681839 0.0486354 9
7.20373 20.9212 -2.71681 0.0465085 1
10.0926 29.3111 -2.71215 0.033318 1
11.4347 33.2089 -1.84069 0.230022 10
11.4328 33.2032 -0.612959 0.152147 10
11.4308 33.1975 0.612853 0.152173 10
11.4289 33.1918 1.83974 0.179444 10
11.2846 32.773 3.03248 0.667911 10
11.4249 33.1803 4.30877 0.178412 10
11.4229 33.1745 5.55708 0.17757 10
11.2844 32.7722 6.73733 0.658159 10
11.4188 33.1626 8.09736 0.175238 10
11.2842 32.7717 9.28713 0.647641 10
1.38609 4.0716 -1.15247 0.0732414 9
1.38608 4.07157 -0.992971 0.0591058 9
1.38607 4.07154 -0.836029 0.11165 9
1.38605 4.0715 -0.681206 0.101106 9
7.1309 20.9469 -2.7169 0.0465069 1
9.99072 29.3475 -2.71228 0.0333165 1
11.4683 33.6878 -1.865 0.227023 10
11.4663 33.6819 -0.621054 0.22734 10
11.4643 33.676 0.620945 0.22738 10
11.4623 33.6702 1.86403 0.177106 10
11.1598 32.7817 3.02966 0.668531 10
11.4583 33.6584 4.36564 0.176089 10
11.4546 33.6476 5.6296 0.108224 10
11.1596 32.781 6.73108 0.65877 10
11.4521 33.6402 8.20416 0.172957 10
11.1594 32.7805 9.27851 0.648243 10
1.37603 4.0888 -1.15597 0.0238379 9
1.37577 4.08803 -0.995809 0.0202027 9
1.37552 4.08728 -0.83827 0.0222957 9
1.37527 4.08653 -0.682912 0.0156086 9
7.05797 20.9723 -2.71699 0.0465053 1
9.88867 29.3836 -2.7124 0.0333149 1
11.5027 34.1796 -1.88999 0.224021 10
25.8148 76.7073 -1.41272 0.861321 10
17.0564 50.6819 0.933409 0.140406 3
11.4308 33.9659 1.87818 0.670774 10
11.0392 32.8024 3.02799 0.17437 10
11.4306 33.9654 4.40026 0.666698 10
11.3368 33.6865 5.62945 0.108227 10
11.0349 32.7897 6.72492 0.659374 10
11.4304 33.9646 8.27349 0.654504 10
11.0348 32.7892 9.27002 0.648837 10
3.08804 9.28298 -2.62138 0.114868 4
3.46361 10.412 -2.53331 0.0904869 4
4.11207 12.3613 -2.53226 0.0582508 4
1.44559 4.34559 -0.725358 0.0115494 9
6.98496 20.9975 -2.71708 0.0465038 1
9.78651 29.4193 -2.71253 0.0333133 1
11.538 34.6846 -1.91568 0.221017 10
14.2351 42.7923 -0.787187 0.569439 10
14.235 42.792 0.787181 0.569443 10
11.302 33.9749 1.87648 0.67138 10
11.3019 33.9747 3.13255 0.669748 10
11.3018 33.9744 4.39629 0.6673 10
11.2188 33.725 5.6293 0.108229 10
11.3016 33.9739 6.95966 0.659969 10
11.3015 33.9736 8.26603 0.655095 10
11.3014 33.9734 9.5936 0.649423 10
3.08002 9.36792 -2.64232 0.110814 4
3.4273 10.4242 -2.53336 0.0624036 4
4.06898 12.3759 -2.53231 0.0538367 4
4.99077 15.1795 -2.53081 0.0474222 4
6.91185 21.0225 -2.71717 0.0465022 1
9.6842 29.4547 -2.71266 0.0333118 1
11.5744 35.2037 -1.94211 0.21801 10
25.2334 76.7479 -1.41019 0.862866 10
16.2267 49.3538 0.906841 0.516833 3
11.1733 33.9839 1.87481 0.671978 10
11.1733 33.9837 3.12976 0.670344 10
11.1732 33.9834 4.39238 0.667894 10
11.1037 33.7721 5.63067 0.168307 10
11.173 33.9829 6.95347 0.660557 10
11.1729 33.9826 8.25868 0.655678 10
11.1728 33.9824 9.58507 0.650001 10
3.05207 9.3933 -2.64645 0.0759629 4
3.39096 10.4363 -2.5334 0.0525221 4
4.02584 12.3903 -2.53236 0.0600134 4
4.93788 15.1972 -2.53087 0.0383711 4
6.83866 21.0472 -2.71727 0.0465007 1
9.58178 29.4897 -2.71279 0.0333102 1
11.6117 35.7372 -1.96929 0.215 10
11.733 36.1106 -0.66275 0.570445 10
11.733 36.1103 0.662744 0.57045 10
11.1456 34.3026 1.89024 0.167732 10
11.1435 34.2962 3.15494 0.167353 10
11.1415 34.2899 4.42693 0.166772 10
11.1394 34.2834 5.7094 0.165986 10
11.1373 34.2769 7.00564 0.164999 10
11.1351 34.2704 8.3191 0.163811 10
11.1329 34.2637 9.65339 0.162423 10
3.01931 9.40404 -2.64649 0.0538312 4
3.35457 10.4483 -2.53345 0.0478411 4
3.98265 12.4045 -2.53242 0.0710438 4
4.88493 15.2148 -2.53094 0.0499536 4
6.76537 21.0717 -2.71736 0.0464991 1
9.47922 29.5243 -2.71291 0.0333086 1
11.6501 36.2859 -1.99727 0.211988 10
11.6819 36.3848 -0.66703 0.570938 10
11.6818 36.3845 0.667025 0.570943 10
11.1824 34.829 1.91708 0.165383 10
11.1803 34.8225 3.19974 0.16501 10
11.1782 34.8159 4.48978 0.164437 10
11.176 34.8093 5.79044 0.163663 10
11.1739 34.8026 7.10506 0.16269 10
11.1717 34.7958 8.43714 0.161519 10
11.1695 34.7889 9.79034 0.160151 10
2.98651 9.41467 -2.64653 0.0622039 4
3.31814 10.4601 -2.53349 0.0540802 4
3.93941 12.4186 -2.53247 0.0697185 4
4.83192 15.2321 -2.53101 0.0347494 4
6.69201 21.0959 -2.71745 0.0464975 1
9.37656 29.5586 -2.71304 0.0333071 1
11.6896 36.8504 -2.02609 0.208973 10
11.713 36.9239 -0.676161 0.571425 10
11.7129 36.9237 0.676155 0.571429 10
11.2202 35.3705 1.94472 0.163032 10
11.2181 35.3638 3.24587 0.162665 10
11.2159 35.3571 4.55449 0.162101 10
11.2138 35.3502 5.87388 0.161338 10
11.2116 35.3433 7.20743 0.16038 10
11.2094 35.3364 8.55867 0.159225 10
11.2071 35.3293 9.93133 0.157877 10
2.95368 9.42518 -2.64658 0.0436617 4
3.28166 10.4718 -2.53354 0.0306796 4
3.89612 12.4325 -2.53253 0.0498609 4
4.77885 15.2493 -2.53107 0.0528466 4
6.61856 21.1198 -2.71754 0.046496 1
9.27376 29.5926 -2.71317 0.0333055 1
11.7303 37.4314 -2.05577 0.205956 10
11.7403 37.4634 -0.685284 0.571904 10
11.7402 37.4631 0.685278 0.571908 10
11.2591 35.9279 1.9732 0.16068 10
11.257 35.921 3.29338 0.160319 10
11.2548 35.914 4.62115 0.159763 10
11.2526 35.907 5.95983 0.159012 10
11.2504 35.8999 7.31287 0.158067 10
11.2481 35.8927 8.68386 0.15693 10
11.2458 35.8854 10.0766 0.155602 10
2.9208 9.43558 -2.64662 0.117825 4
3.24515 10.4834 -2.53358 0.0457586 4
3.85278 12.4463 -2.53258 0.0555959 4
4.72571 15.2663 -2.53114 0.0423486 4
6.54501 21.1435 -2.71763 0.0464944 1
9.17084 29.6262 -2.7133 0.0333039 1
11.7722 38.0298 -2.08636 0.202937 10
11.7699 38.0224 -0.694754 0.203224 10
11.7676 38.015 0.694618 0.203263 10
11.2992 36.502 2.00254 0.158325 10
11.297 36.4948 3.34236 0.15797 10
11.2948 36.4876 4.68986 0.157422 10
11.2926 36.4804 6.04842 0.156683 10
11.2903 36.4731 7.42155 0.155752 10
11.288 36.4656 8.81288 0.154632 10
11.2857 36.4581 10.2263 0.153324 10
2.88789 9.44586 -2.64666 0.061603 4
3.22594 10.5516 -2.54732 0.0602265 4
3.8094 12.46 -2.53263 0.0653018 4
4.67252 15.2831 -2.53121 0.0539297 4
6.47139 21.1669 -2.71772 0.0464928 1
9.0678 29.6594 -2.71343 0.0333023 1
11.8153 38.6462 -2.1179 0.199914 10
13.1071 42.8712 -0.782512 0.572841 10
13.107 42.8709 0.782505 0.572845 10
11.3406 37.0933 2.0328 0.155968 10
11.3383 37.0859 3.39284 0.155619 10
11.336 37.0785 4.76068 0.15508 10
11.3338 37.071 6.13975 0.154352 10
11.3314 37.0635 7.53359 0.153436 10
11.3291 37.0558 8.9459 0.152333 10
11.3267 37.048 10.3806 0.151045 10
2.85495 9.45604 -2.6467 0.061602 4
3.21801 10.6586 -2.57043 0.0919854 4
3.76596 12.4734 -2.53269 0.0547111 4
4.61926 15.2997 -2.53127 0.0510328 4
6.39767 21.1901 -2.71782 0.0464912 1
8.96464 29.6923 -2.71356 0.0333007 1
11.8598 39.2816 -2.15044 0.196889 10
23.2142 76.8891 -1.40194 0.867943 10
15.2374 50.4688 0.920211 0.507111 3
11.3831 37.7028 2.06401 0.15361 10
11.4529 37.9337 3.46673 0.674288 10
11.8479 39.242 5.03313 0.152736 10
11.4527 37.9332 6.27588 0.668541 10
11.843 39.2259 7.96468 0.151118 10
11.8405 39.2177 9.45777 0.150032 10
11.4524 37.9323 10.6171 0.653825 10
2.82197 9.46609 -2.64674 0.0771508 4
3.20992 10.7674 -2.59397 0.0911505 4
3.72248 12.4868 -2.53274 0.0630929 4
4.56595 15.3161 -2.53134 0.0506695 4
6.32389 21.213 -2.71791 0.0464897 1
8.86137 29.7248 -2.71369 0.0332992 1
11.9057 39.9367 -2.18402 0.193862 10
22.9276 76.9092 -1.40084 0.868626 10
15.1515 50.8248 0.925731 0.177141 3
11.8984 39.9123 2.18268 0.151249 10
11.8959 39.9041 3.64299 0.150912 10
11.8935 39.8959 5.11164 0.15039 10
11.891 39.8876 6.59233 0.149685 10
11.8885 39.8792 8.08886 0.148798 10
11.886 39.8707 9.60521 0.147729 10
11.8834 39.8621 11.1455 0.14648 10
2.78895 9.47603 -2.64678 0.0442564 4
3.20166 10.8783 -2.61797 0.0889361 4
3.67894 12.5 -2.5328 0.0608855 4
4.51257 15.3324 -2.53141 0.0434299 4
6.25001 21.2357 -2.718 0.0464881 1
8.75796 29.757 -2.71381 0.0332976 1
11.953 40.6128 -2.2187 0.190832 10
12.1072 41.1367 -0.748498 0.574194 10
12.1071 41.1364 0.748492 0.574198 10
11.8122 40.1343 2.19255 0.676987 10
11.8121 40.134 3.66018 0.675341 10
11.9406 40.5706 5.19271 0.148042 10
11.8119 40.1334 6.62609 0.669585 10
11.9355 40.5534 8.2171 0.146475 10
11.8117 40.1328 9.65834 0.660566 10
11.9303 40.5357 11.3222 0.144195 10
2.7559 9.48586 -2.64682 0.0705699 4
3.19323 10.9912 -2.64244 0.0819653 4
3.63537 12.513 -2.53285 0.0635314 4
4.45914 15.3485 -2.53147 0.0492192 4
6.17606 21.2581 -2.71809 0.0464865 1
8.65446 29.7888 -2.71394 0.033296 1
12.0018 41.3106 -2.25451 0.187801 10
12.0315 41.4127 -0.75275 0.574631 10
12.0314 41.4124 0.752744 0.574636 10
11.6631 40.1447 2.19089 0.677503 10
11.663 40.1444 3.6574 0.675856 10
11.9892 41.2669 5.27645 0.145692 10
11.6629 40.1438 6.62105 0.670094 10
11.984 41.2491 8.34955 0.144152 10
11.6627 40.1432 9.65099 0.661069 10
11.9787 41.2309 11.5046 0.141909 10
2.72281 9.49557 -2.64686 0.0113628 4
3.15926 11.0177 -2.64613 0.0327554 4
3.59174 12.5259 -2.53291 0.0560299 4
4.40565 15.3643 -2.53154 0.0445133 4
6.10202 21.2803 -2.71819 0.0464849 1
8.55082 29.8203 -2.71407 0.0332944 1
12.0523 42.0313 -2.29154 0.184766 10
12.0497 42.0223 -0.763062 0.122218 10
12.0471 42.0133 0.762898 0.122244 10
11.8524 41.3344 2.25354 0.67801 10
11.8523 41.3341 3.76199 0.676362 10
12.0394 41.9862 5.36301 0.143341 10
11.8522 41.3335 6.8104 0.670596 10
12.0341 41.9678 8.48647 0.141826 10
11.852 41.3328 9.92699 0.661563 10
12.0287 41.9489 11.6932 0.13962 10
2.68969 9.50516 -2.64691 0.0322937 4
3.12084 11.0288 -2.64618 0.12426 4
3.54807 12.5386 -2.53296 0.0432348 4
4.35211 15.38 -2.53161 0.0517498 4
6.02791 21.3022 -2.71828 0.0464833 1
8.44709 29.8514 -2.7142 0.0332928 1
12.1044 42.7761 -2.32982 0.18173 10
12.1018 42.7668 -0.775808 0.181991 10
12.1001 42.7609 0.775701 0.871259 10
11.6995 41.3451 2.25188 0.678509 10
11.6994 41.3448 3.75923 0.676859 10
12.0912 42.7294 5.45252 0.140988 10
11.6992 41.3442 6.80539 0.671089 10
12.0858 42.7104 8.62804 0.139499 10
11.699 41.3435 9.91969 0.66205 10
12.0803 42.6908 11.8881 0.137331 10
3.08238 11.0398 -2.64623 0.0639487 4
3.50436 12.5512 -2.53302 0.0652919 4
4.29852 15.3955 -2.53167 0.0568147 4
5.95372 21.3238 -2.71837 0.0464817 1
8.34324 29.8821 -2.71433 0.0332912 1
21.5013 77.0089 -1.39561 0.871883 10
19.0798 68.3362 1.23843 0.679823 10
11.9915 42.9486 2.33693 0.678999 10
11.9914 42.9483 3.9012 0.677349 10
11.9913 42.9479 5.47503 0.674873 10
11.9912 42.9476 7.0624 0.671575 10
11.9911 42.9473 8.6674 0.667458 10
11.991 42.947 10.2943 0.662529 10
11.9909 42.9467 11.9476 0.656792 10
2.62335 9.52401 -2.64699 0.144121 4
3.04388 11.0507 -2.64628 0.0785047 4
3.4606 12.5636 -2.53307 0.0472033 4
4.24486 15.4109 -2.53174 0.0448716 4
5.87945 21.3452 -2.71847 0.0464801 1
8.23927 29.9125 -2.71446 0.0332896 1
21.2173 77.0288 -1.39462 0.872502 10
18.8278 68.3538 1.23755 0.680306 10
11.8331 42.9597 2.33527 0.679482 10
11.833 42.9593 3.89843 0.67783 10
11.8329 42.959 5.47115 0.675352 10
11.8328 42.9587 7.05738 0.672052 10
11.8327 42.9584 8.66124 0.667933 10
11.8326 42.9581 10.287 0.663 10
11.8325 42.9577 11.9392 0.657259 10
2.59013 9.53326 -2.64703 0.0992684 4
3.00534 11.0615 -2.64632 0.0691453 4
3.4168 12.5759 -2.53313 0.0507314 4
4.19115 15.426 -2.53181 0.0470416 4
5.80511 21.3663 -2.71856 0.0464786 1
8.1352 29.9425 -2.71459 0.033288 1
20.9337 77.0486 -1.39364 0.873111 10
18.5761 68.3714 1.23669 0.68078 10
18.576 68.3709 3.71306 0.679956 10
18.5758 68.3704 6.19848 0.678303 10
18.5757 68.3699 8.69909 0.675823 10
18.5756 68.3694 11.2212 0.672521 10
18.5754 68.3689 13.7713 0.668399 10
18.5753 68.3684 16.3563 0.663462 10
18.5752 68.3679 18.9832 0.657717 10
2.55688 9.54239 -2.64707 0.0813271 4
2.96677 11.0721 -2.64637 0.0940982 4
3.37662 12.6017 -2.53593 0.0833115 4
4.13739 15.4409 -2.53188 0.0502969 4
5.33267 19.9018 -2.52984 0.0318799 4
8.03101 29.9721 -2.71473 0.0332864 1
20.6504 77.0684 -1.39269 0.873709 10
18.3248 68.389 1.23584 0.681247 10
18.3246 68.3885 3.71052 0.680422 10
18.3245 68.388 6.19424 0.678768 10
18.3244 68.3875 8.69314 0.676286 10
18.3242 68.387 11.2135 0.672981 10
18.3241 68.3865 13.7619 0.668857 10
18.324 68.386 16.3451 0.663917 10
18.3238 68.3854 18.9702 0.658168 10
2.52359 9.55141 -2.64711 0.0568085 4
2.92815 11.0826 -2.64642 0.0426294 4
3.36867 12.7499 -2.56338 0.0704748 4
4.08358 15.4557 -2.53194 0.0452299 4
5.26335 19.921 -2.52992 0.0369569 4
7.92673 30.0014 -2.71486 0.0332848 1
18.0738 68.4065 1.23501 0.681705 10
18.0912 68.4725 3.71163 0.43466 10
18.0734 68.405 8.6873 0.676741 10
18.0733 68.4045 11.206 0.673434 10
18.073 68.4035 16.3341 0.664363 10
18.0729 68.403 18.9575 0.65861 10
2.38461 9.15468 -2.53484 0.0627873 4
2.8895 11.093 -2.64647 0.109691 4
3.36054 12.9013 -2.59144 0.0750285 4
4.0297 15.4703 -2.53201 0.0405249 4
5.19396 19.9399 -2.53001 0.0355451 4
7.82233 30.0304 -2.71499 0.0332832 1
17.8231 68.424 1.2342 0.682155 10
17.8403 68.49 3.70918 0.434947 10
17.8227 68.4226 8.68157 0.677188 10
17.8226 68.4221 11.1986 0.673878 10
17.8223 68.4211 16.3233 0.664801 10
17.8222 68.4205 18.945 0.659045 10
2.35268 9.16309 -2.53488 0.0986642 4
2.85082 11.1032 -2.64652 0.0431476 4
3.35221 13.056 -2.62014 0.0771282 4
3.97579 15.4847 -2.53208 0.0376292 4
5.1245 19.9586 -2.5301 0.0361081 4
7.71783 30.0589 -2.71512 0.0332816 1
17.5729 68.442 -1.23341 0.57825 10
17.5728 68.4416 1.2334 0.682596 10
17.5898 68.5076 3.70678 0.435228 10
17.5724 68.4401 8.67595 0.677626 10
17.5723 68.4396 11.1914 0.674314 10
17.572 68.4386 16.3128 0.665232 10
17.5719 68.438 18.9327 0.659471 10
2.32072 9.17139 -2.53492 0.066373 4
2.81209 11.1133 -2.64657 0.0732977 4
3.33881 13.1948 -2.64566 0.0383752 4
3.92181 15.4989 -2.53215 0.051377 4
5.05497 19.9771 -2.53018 0.0414664 4
7.61322 30.0872 -2.71525 0.03328 1
17.3229 68.4595 -1.23263 0.578617 10
17.3228 68.459 1.23262 0.683029 10
17.3395 68.5251 3.70443 0.435505 10
17.3224 68.4576 8.67045 0.678056 10
17.3223 68.457 11.1843 0.674742 10
17.322 68.456 16.3024 0.665654 10
17.3219 68.4555 18.9207 0.65989 10
2.28873 9.17958 -2.53496 0.0717535 4
2.77333 11.1232 -2.64662 0.0582212 4
3.2928 13.2067 -2.64571 0.0613108 4
3.86779 15.5129 -2.53222 0.0546318 4
4.98539 19.9953 -2.53027 0.0293358 4
7.50852 30.115 -2.71538 0.0332784 1
17.0732 68.477 -1.23186 0.578977 10
17.0731 68.4765 1.23185 0.683454 10
17.073 68.476 3.69854 0.682626 10
17.0729 68.4755 6.17423 0.680967 10
17.0727 68.475 8.66506 0.678478 10
17.0726 68.4745 11.1773 0.675162 10
17.0725 68.474 13.7175 0.671024 10
17.0724 68.4735 16.2923 0.666068 10
17.0722 68.473 18.909 0.6603 10
2.25671 9.18766 -2.535 0.0890925 4
2.73454 11.133 -2.64666 0.096687 4
3.24676 13.2184 -2.64577 0.0229359 4
3.81373 15.5267 -2.53228 0.0506507 4
4.91573 20.0133 -2.53036 0.0383608 4
7.40372 30.1425 -2.71551 0.0332768 1
16.8239 68.4944 -1.23111 0.57933 10
16.8237 68.4939 1.2311 0.68387 10
16.8236 68.4934 3.69629 0.683042 10
16.8235 68.493 6.17047 0.681382 10
16.8234 68.4925 8.65979 0.678891 10
16.8233 68.492 11.1705 0.675573 10
16.8231 68.4914 13.7091 0.671432 10
16.823 68.4909 16.2824 0.666474 10
16.8229 68.4904 18.8974 0.660703 10
2.23697 9.24652 -2.54907 0.078424 4
2.69571 11.1427 -2.64671 0.0842097 4
3.20066 13.23 -2.64583 0.0344031 4
3.7596 15.5403 -2.53235 0.049564 4
4.84601 20.031 -2.53045 0.0332825 4
7.2988 30.1696 -2.71564 0.0332752 1
16.5748 68.5118 -1.23038 0.579676 10
16.5746 68.5114 1.23037 0.684279 10
16.5745 68.5109 3.69408 0.68345 10
16.5744 68.5104 6.16679 0.681788 10
16.5743 68.5099 8.65462 0.679296 10
16.5742 68.5094 11.1638 0.675977 10
16.574 68.5089 13.7009 0.671833 10
16.5739 68.5084 16.2727 0.666871 10
16.5738 68.5078 18.8862 0.661097 10
2.23476 9.38053 -2.58385 0.0736334 4
2.65685 11.1523 -2.64676 0.0561388 4
3.15453 13.2413 -2.64589 0.063071 4
3.70544 15.5538 -2.53242 0.0423272 4
4.77623 20.0485 -2.53053 0.043717 4
7.1938 30.1964 -2.71578 0.0332735 1
18.3978 77.2259 -1.38571 0.87811 10
16.3259 68.5287 1.22965 0.684678 10
16.3258 68.5283 3.69192 0.683849 10
16.3256 68.5278 6.16319 0.682187 10
16.3255 68.5273 8.64957 0.679693 10
16.3254 68.5268 11.1573 0.676371 10
16.3253 68.5263 13.6929 0.672226 10
16.3252 68.5257 16.2632 0.667261 10
16.325 68.5252 18.8751 0.661483 10
2.23248 9.51822 -2.61961 0.0752596 4
2.61795 11.1617 -2.64681 0.0374251 4
3.10836 13.2526 -2.64594 0.0352837 4
3.65122 15.567 -2.53249 0.0325585 4
4.70637 20.0657 -2.53062 0.031306 4
7.08869 30.2228 -2.71591 0.0332719 1
16.0775 68.5466 -1.22896 0.878612 10
16.0773 68.5461 1.22895 0.68507 10
16.0772 68.5456 3.68981 0.68424 10
16.0771 68.5452 6.15967 0.682577 10
16.077 68.5447 8.64463 0.680082 10
16.0769 68.5442 11.1509 0.676758 10
16.0768 68.5436 13.6851 0.67261 10
16.0766 68.5431 16.2539 0.667643 10
16.0765 68.5426 18.8644 0.661861 10
2.23013 9.65973 -2.6564 0.0731794 4
2.4696 10.697 -2.53456 0.0202716 4
3.06215 13.2636 -2.646 0.103203 4
3.59695 15.5801 -2.53256 0.0444954 4
4.63647 20.0827 -2.53071 0.0414578 4
6.9835 30.2488 -2.71604 0.0332703 1
15.8293 68.564 -1.22827 0.879104 10
15.8291 68.5635 1.22826 0.685453 10
15.747 68.2079 3.66865 0.684623 10
15.7469 68.2074 6.12434 0.682958 10
15.8288 68.562 8.63979 0.680462 10
15.7467 68.2064 11.087 0.677137 10
15.7466 68.2059 13.6066 0.672986 10
15.8285 68.5605 16.2448 0.668016 10
15.8283 68.56 18.8538 0.662232 10
2.22769 9.80524 -2.69426 0.0680574 4
2.43229 10.7057 -2.5346 0.0556159 4
3.0159 13.2745 -2.64606 0.0344001 4
3.58109 15.7623 -2.56012 0.0652063 4
4.56649 20.0995 -2.5308 0.03497 4
6.87819 30.2745 -2.71617 0.0332687 1
16.5363 72.785 -1.30284 0.879584 10
15.5812 68.5808 1.22759 0.685828 10
15.5962 68.647 3.68932 0.437289 10
15.5808 68.5793 8.63507 0.680834 10
15.5 68.2236 11.0809 0.677507 10
15.5805 68.5778 16.2359 0.668381 10
15.5804 68.5773 18.8435 0.662594 10
2.21805 9.92296 -2.72446 0.0984946 1
2.39495 10.7144 -2.53465 0.0519765 4
2.96961 13.2853 -2.64612 0.0436607 4
3.57377 15.9881 -2.59476 0.058531 4
4.49646 20.116 -2.53089 0.0389169 4
6.77281 30.2998 -2.71631 0.0332671 1
16.2735 72.8033 -1.30215 0.880054 10
15.3335 68.5982 1.22693 0.686194 10
15.3332 68.5967 8.63046 0.681198 10
15.2537 68.2409 11.075 0.677869 10
15.3328 68.5952 16.2272 0.668738 10
15.3327 68.5947 18.8335 0.662948 10
2.18343 9.9308 -2.72451 0.098493 1
2.35757 10.7229 -2.5347 0.0738052 4
2.92328 13.2958 -2.64618 0.0793813 4
3.56623 16.2201 -2.63038 0.0758711 4
4.42637 20.1323 -2.53097 0.0360955 4
6.66732 30.3247 -2.71644 0.0332654 1
17.0007 77.3236 -1.38193 0.880514 10
15.0079 68.26 1.21994 0.686552 10
15.0078 68.2596 3.66278 0.685721 10
15.0077 68.2591 6.11453 0.684054 10
15.0076 68.2586 8.58128 0.681553 10
15.0075 68.2581 11.0692 0.678223 10
15.0074 68.2576 13.5848 0.674065 10
15.0854 68.6125 16.2188 0.669087 10
15.0853 68.6119 18.8236 0.663294 10
2.14878 9.93852 -2.72455 0.0984914 1
2.34448 10.8436 -2.5613 0.0734504 4
2.87691 13.3063 -2.64624 0.0807026 4
3.52917 16.3231 -2.64506 0.0665551 4
4.35622 20.1483 -2.53106 0.0406061 4
6.56175 30.3493 -2.71657 0.0332638 1
16.6837 77.1654 -1.37805 0.880962 10
14.7621 68.2772 1.21932 0.644249 10
14.7666 68.298 8.5797 0.493177 10
14.7616 68.2753 11.0636 0.678568 10
14.7662 68.2965 16.1318 0.484156 10
14.7613 68.2737 18.7166 0.663631 10
2.11412 9.94612 -2.72459 0.0984898 1
2.34354 11.0255 -2.6023 0.0653862 4
2.83051 13.3165 -2.64629 0.0881976 4
3.47227 16.3357 -2.64513 0.0622128 4
4.28602 20.1641 -2.53115 0.0439884 4
6.4561 30.3735 -2.7167 0.0332622 1
16.4062 77.1848 -1.37736 0.8814 10
14.5164 68.2944 1.21871 0.644569 10
14.9698 70.4275 3.77341 0.829903 10
14.9697 70.427 6.29921 0.827886 10
14.5209 68.3152 8.57544 0.493422 10
14.516 68.2925 11.0581 0.678905 10
14.9694 70.4254 13.9951 0.815797 10
14.5205 68.3137 16.1238 0.484397 10
14.5157 68.2909 18.7073 0.663961 10
2.07942 9.9536 -2.72464 0.0984882 1
2.34256 11.2132 -2.64466 0.0670573 4
2.78407 13.3266 -2.64635 0.039688 4
3.41532 16.3482 -2.6452 0.0701684 4
4.21575 20.1796 -2.53124 0.0383475 4
5.90929 28.2862 -2.52815 0.0266504 4
14.271 68.3116 1.21812 0.644881 10
14.7168 70.4452 3.77158 0.830306 10
14.2754 68.3323 8.57129 0.493661 10
14.2706 68.3096 11.0528 0.679234 10
14.2751 68.3308 16.116 0.484631 10
14.2703 68.3081 18.6982 0.664283 10
2.04469 9.96095 -2.72468 0.0984867 1
2.34154 11.4071 -2.68844 0.0610625 4
2.62145 12.7707 -2.53413 0.0427739 4
3.35833 16.3605 -2.64527 0.058231 4
4.14543 20.1949 -2.53133 0.0383461 4
14.0259 68.3287 1.21755 0.645186 10
14.464 70.4628 3.7698 0.830698 10
14.0302 68.3495 8.56725 0.493894 10
14.0255 68.3268 11.0475 0.679555 10
14.0298 68.348 16.1084 0.48486 10
14.0252 68.3252 18.6894 0.664596 10
2.00994 9.96819 -2.72472 0.0984851 1
2.33226 11.5667 -2.72413 0.0856164 1
2.57691 12.78 -2.53418 0.0648209 4
4.07505 20.21 -2.53142 0.0414462 4
5.71224 28.3295 -2.5284 0.0254366 4
13.7809 68.3458 1.21699 0.645482 10
14.2114 70.4805 3.76807 0.831079 10
13.7851 68.3666 8.56331 0.494121 10
13.7805 68.3439 11.0425 0.679867 10
13.7848 68.3651 16.101 0.485083 10
13.7802 68.3424 18.6808 0.664902 10
1.97517 9.97531 -2.72477 0.0984835 1
2.29191 11.575 -2.72418 0.0856148 1
2.53234 12.7892 -2.53424 0.0683471 4
4.00462 20.2248 -2.53151 0.0383434 4
5.6136 28.3507 -2.52852 0.0308857 4
13.5362 68.363 1.21645 0.645771 10
13.959 70.4981 3.76638 0.831451 10
13.9721 70.5644 6.29344 0.82943 10
13.5404 68.3837 8.55948 0.494342 10
13.5359 68.361 11.0375 0.680171 10
13.9718 70.5629 13.9823 0.817319 10
13.5401 68.3822 16.0938 0.4853 10
13.5356 68.3595 18.6725 0.665199 10
1.94036 9.9823 -2.72481 0.0984819 1
2.25153 11.5831 -2.72423 0.0856132 1
2.49007 12.8103 -2.53668 0.050486 4
3.18707 16.3961 -2.64549 0.0235075 4
3.93413 20.2394 -2.5316 0.0304481 4
5.51486 28.3715 -2.52864 0.0296731 4
13.361 68.7366 -1.22226 0.583526 10
13.2917 68.3801 1.21592 0.646052 10
13.7069 70.5158 3.76475 0.68799 10
13.7068 70.5153 6.28475 0.686317 10
13.2958 68.4008 8.55576 0.494557 10
13.2914 68.3781 11.0327 0.680467 10
13.7065 70.5137 13.963 0.676296 10
13.2955 68.3993 16.0868 0.485511 10
13.2911 68.3766 18.6644 0.665488 10
1.90554 9.98918 -2.72486 0.0984803 1
2.21113 11.5912 -2.72428 0.0856116 1
2.49165 13.0617 -2.58471 0.0460086 4
3.12991 16.4075 -2.64556 0.0650958 4
3.91022 20.4981 -2.56223 0.0496117 4
5.41607 28.392 -2.52877 0.030479 4
13.1155 68.7538 -1.22174 0.583773 10
13.0475 68.3971 1.2154 0.646325 10
13.455 70.5334 3.76315 0.688281 10
13.4549 70.5329 6.2821 0.686607 10
13.0514 68.4179 8.55215 0.494766 10
13.0471 68.3952 11.0281 0.680754 10
13.4546 70.5314 13.9571 0.676582 10
13.0511 68.4164 16.08 0.485716 10
13.0468 68.3937 18.6565 0.66577 10
1.86953 9.98977 -2.72322 0.0653996 4
2.1707 11.599 -2.72433 0.08561 1
2.49328 13.3227 -2.63463 0.052081 4
3.0727 16.4188 -2.64563 0.0506287 4
3.9063 20.8732 -2.6074 0.0525026 4
5.31718 28.4121 -2.52889 0.0270462 4
12.8701 68.7709 -1.22124 0.584013 10
12.8034 68.4142 1.21491 0.64659 10
13.2033 70.551 3.76161 0.688563 10
13.2032 70.5505 6.27953 0.686889 10
12.8073 68.435 8.54864 0.494969 10
12.803 68.4123 11.0236 0.681033 10
13.2029 70.549 13.9514 0.676859 10
12.807 68.4335 16.0734 0.485915 10
12.8027 68.4107 18.6488 0.666043 10
1.82987 9.97015 -2.71611 0.0623193 4
2.13024 11.6067 -2.72439 0.0856084 1
2.49496 13.5939 -2.68653 0.0537232 4
3.01545 16.4299 -2.64571 0.0553284 4
3.88731 21.1803 -2.64405 0.0242432 4
5.21824 28.4319 -2.52902 0.0262376 4
15.11 82.3277 -1.46104 0.584245 10
12.5595 68.4313 1.21442 0.646847 10
12.9518 70.5686 3.76012 0.43974 10
12.5633 68.4521 8.54524 0.495166 10
12.5591 68.4293 11.0192 0.681304 10
12.563 68.4506 16.067 0.486109 10
12.5589 68.4278 18.6414 0.666308 10
1.79038 9.95049 -2.70904 0.077695 4
2.08975 11.6143 -2.72444 0.0856068 1
2.48134 13.7907 -2.72369 0.0726338 1
2.83265 15.7432 -2.53352 0.0448401 4
3.81349 21.1945 -2.64414 0.0445382 4
5.11922 28.4514 -2.52914 0.0304745 4
12.3158 68.4483 1.21395 0.647096 10
12.7005 70.5862 3.75867 0.439909 10
12.3196 68.4691 8.54195 0.495356 10
12.3155 68.4463 11.0149 0.681567 10
12.3193 68.4676 16.0608 0.486296 10
12.3152 68.4448 18.6342 0.666564 10
1.75107 9.9308 -2.702 0.074629 4
2.04923 11.6218 -2.72449 0.0856052 1
2.43324 13.7996 -2.72375 0.0726321 1
2.77775 15.7534 -2.53359 0.0433925 4
3.73961 21.2084 -2.64423 0.0411541 4
5.02011 28.4705 -2.52927 0.0242169 4
12.0723 68.4653 1.2135 0.647338 10
12.4493 70.6037 3.75727 0.440074 10
12.461 70.6701 6.27821 0.439004 10
12.076 68.4861 8.53876 0.495541 10
12.0719 68.4634 11.0108 0.681821 10
12.4608 70.6685 13.9485 0.432594 10
12.0757 68.4846 16.0548 0.486477 10
12.0717 68.4618 18.6273 0.666813 10
1.71195 9.91109 -2.69499 0.0726384 4
2.00869 11.6291 -2.72454 0.0856036 1
2.38511 13.8083 -2.72381 0.0726305 1
2.72283 15.7635 -2.53366 0.0368826 4
4.92095 28.4892 -2.52939 0.0322876 4
11.829 68.4824 1.21306 0.647571 10
12.1984 70.6213 3.75591 0.440232 10
11.8326 68.5032 8.53569 0.49572 10
11.8286 68.4804 11.0068 0.682067 10
11.8323 68.5017 16.049 0.486653 10
11.8284 68.4789 18.6206 0.667054 10
1.673 9.89135 -2.68802 0.0821356 4
1.96438 11.6141 -2.71941 0.0550396 4
2.33695 13.8169 -2.72387 0.0726289 1
2.7013 15.9711 -2.56549 0.0354042 4
3.59171 21.2355 -2.64442 0.0625724 4
4.82171 28.5077 -2.52952 0.0280485 4
11.5858 68.4994 1.21264 0.690685 10
11.5857 68.4989 3.64086 0.689848 10
11.5856 68.4984 6.07795 0.688171 10
11.5856 68.4979 8.52994 0.685656 10
11.5855 68.4974 11.003 0.682305 10
11.5854 68.4969 13.5035 0.678123 10
11.5853 68.4964 16.0382 0.673114 10
11.5852 68.4959 18.6141 0.667286 10
1.63423 9.87158 -2.68108 0.0741133 4
1.918 11.5857 -2.71117 0.0556787 4
2.28876 13.8252 -2.72393 0.0726273 1
2.70818 16.3587 -2.62624 0.0504502 4
3.51769 21.2486 -2.64452 0.0479141 4
4.72241 28.5257 -2.52965 0.0284507 4
11.402 68.8736 -1.21856 0.886112 10
11.4019 68.8731 1.21855 0.690917 10
11.4018 68.8726 3.65859 0.69008 10
11.4017 68.8721 6.10754 0.688403 10
11.4016 68.8716 8.57147 0.685886 10
11.4016 68.8711 11.0566 0.682534 10
11.4015 68.8706 13.5693 0.678351 10
11.4014 68.8701 16.1163 0.673341 10
11.4013 68.8696 18.7047 0.66751 10
1.59564 9.85178 -2.67418 0.0616454 4
1.87187 11.5573 -2.70298 0.0463818 4
2.24053 13.8335 -2.72399 0.0726256 1
2.71537 16.7652 -2.68995 0.0415106 4
3.44362 21.2615 -2.64461 0.0360752 4
4.62303 28.5435 -2.52977 0.0258263 4
11.1578 68.8907 -1.21816 0.886399 10
11.1578 68.8902 1.21815 0.691141 10
11.1577 68.8897 3.6574 0.690304 10
11.1576 68.8892 6.10556 0.688626 10
11.1575 68.8887 8.56869 0.686108 10
11.1574 68.8882 11.053 0.682755 10
11.1574 68.8877 13.5649 0.67857 10
11.1573 68.8872 16.1111 0.673559 10
11.1572 68.8867 18.6987 0.667727 10
1.55723 9.83196 -2.66731 0.0761516 4
1.826 11.5289 -2.69484 0.0517438 4
2.19228 13.8415 -2.72405 0.072624 1
2.68954 16.981 -2.72306 0.0595624 1
3.3695 21.2742 -2.6447 0.0276191 4
4.5236 28.5608 -2.5299 0.0250179 4
11.5829 73.1314 -1.29242 0.886675 10
10.9138 68.9072 1.21777 0.691356 10
10.9138 68.9067 3.65626 0.690519 10
10.9137 68.9062 6.10366 0.68884 10
10.9136 68.9057 8.56602 0.686322 10
10.9135 68.9053 11.0496 0.682968 10
10.9134 68.9047 13.5607 0.678782 10
10.9134 68.9042 16.1061 0.673769 10
10.9133 68.9037 18.6928 0.667935 10
1.519 9.81212 -2.66047 0.0769006 4
1.78038 11.5006 -2.68674 0.0652318 4
2.1433 13.8448 -2.72322 0.0506054 4
2.63032 16.9908 -2.72313 0.0595608 1
3.15552 20.3834 -2.53258 0.0346636 4
4.50098 29.0745 -2.57399 0.0350465 4
11.9966 77.4931 -1.36876 0.88694 10
10.6701 68.9243 1.21741 0.691563 10
10.67 68.9238 3.65517 0.690725 10
10.6699 68.9233 6.10183 0.689046 10
10.6698 68.9228 8.56346 0.686527 10
10.6698 68.9223 11.0463 0.683172 10
10.6697 68.9218 13.5566 0.678985 10
10.6696 68.9213 16.1013 0.67397 10
10.6695 68.9208 18.6872 0.668134 10
1.48094 9.79225 -2.65366 0.0549114 4
1.73501 11.4722 -2.67869 0.0654279 4
2.0874 13.8023 -2.7134 0.0483891 4
2.57106 17.0003 -2.72321 0.0595591 1
3.08446 20.395 -2.53267 0.0405803 4
4.50998 29.8208 -2.63865 0.0291522 4
11.7226 77.5123 -1.36837 0.887195 10
10.4264 68.9413 1.21706 0.691762 10
10.4263 68.9408 3.65412 0.690924 10
10.4263 68.9403 6.10008 0.689244 10
10.4262 68.9398 8.561 0.686725 10
10.4261 68.9393 11.0431 0.683369 10
10.426 68.9388 13.5527 0.67918 10
10.4259 68.9383 16.0966 0.674164 10
10.4259 68.9378 18.6819 0.668326 10
1.44392 9.77822 -2.64848 0.042435 4
1.68989 11.4439 -2.67068 0.0699351 4
2.03188 13.7598 -2.70365 0.0698353 4
2.51178 17.0097 -2.72328 0.0595575 1
3.02414 20.4794 -2.54183 0.0395865 4
12.1609 82.3535 -1.45307 0.887438 10
10.1829 68.9583 1.21672 0.691952 10
10.1828 68.9578 3.65312 0.691114 10
10.1828 68.9574 6.09841 0.689433 10
10.1827 68.9569 8.55865 0.686913 10
10.1826 68.9564 11.0401 0.683556 10
10.1825 68.9559 13.549 0.679366 10
10.1825 68.9554 16.0922 0.674349 10
10.1824 68.9548 18.6768 0.66851 10
1.4098 9.78336 -2.64852 0.0759036 4
1.64501 11.4156 -2.66272 0.0614963 4
1.97673 13.7175 -2.69396 0.0535717 4
2.45245 17.0188 -2.72336 0.0595558 1
3.04275 21.1152 -2.6194 0.0322183 4
9.88802 68.6181 1.2101 0.692133 10
9.94909 69.0419 3.65571 0.441309 10
9.94902 69.0414 6.10273 0.440236 10
9.94895 69.0409 8.56472 0.438627 10
9.88774 68.6161 10.98 0.683736 10
9.9488 69.0399 13.5586 0.433808 10
9.94873 69.0394 16.1036 0.430604 10
9.939 68.9719 18.6719 0.668685 10
1.37567 9.78838 -2.64856 0.121324 4
1.60039 11.3873 -2.65481 0.0722808 4
1.92195 13.6754 -2.68434 0.0497213 4
2.3931 17.0277 -2.72343 0.0595542 1
9.64604 68.635 1.2098 0.692306 10
9.64576 68.633 10.9772 0.683907 10
9.69577 68.9889 18.6672 0.668853 10
1.34151 9.79328 -2.64861 0.11176 4
1.55671 11.3643 -2.64815 0.0280546 4
1.86753 13.6333 -2.67479 0.0373227 4
2.32718 16.9888 -2.7159 0.0501172 4
3.00876 21.9645 -2.72209 0.0464183 1
9.40414 68.6519 1.20951 0.692471 10
9.40387 68.65 10.9746 0.68407 10
9.45262 69.0059 18.6627 0.669012 10
1.30734 9.79806 -2.64865 0.118332 4
1.51707 11.3699 -2.6482 0.0997479 4
1.81348 13.5914 -2.66531 0.0578118 4
2.25786 16.9218 -2.70391 0.041456 4
2.93218 21.9756 -2.72218 0.0464167 1
9.16239 68.6688 1.20924 0.692628 10
9.16213 68.6669 10.9721 0.684224 10
9.20963 69.0229 18.6585 0.669163 10
1.27315 9.80273 -2.64869 0.108768 4
1.47739 11.3753 -2.64825 0.0846802 4
1.75978 13.5496 -2.65589 0.0555654 4
2.1891 16.8552 -2.69202 0.0370126 4
2.85555 21.9865 -2.72228 0.046415 1
3.72585 28.6875 -2.53091 0.0274281 4
8.92071 68.6857 1.20898 0.692775 10
8.96671 69.0398 18.6545 0.669306 10
1.23895 9.80727 -2.64874 0.118926 4
1.43771 11.3806 -2.6483 0.0940296 4
1.70721 13.5139 -2.64772 0.0171893 4
2.12093 16.7889 -2.68023 0.0348519 4
2.77889 21.9971 -2.72238 0.0464134 1
3.62588 28.7017 -2.53104 0.02904 4
8.67917 68.7026 1.20874 0.692915 10
8.72391 69.0568 18.6508 0.66944 10
1.20473 9.8117 -2.64878 0.117729 4
1.398 11.3858 -2.64835 0.0872745 4
1.66006 13.5201 -2.64778 0.0863853 4
2.05333 16.7229 -2.66855 0.0460059 4
2.69882 21.9801 -2.71908 0.0305865 4
8.43772 68.7195 1.20851 0.693046 10
8.48122 69.0738 18.6473 0.669567 10
1.17049 9.81601 -2.64882 0.0185255 4
1.35827 11.3908 -2.64841 0.096104 4
1.61289 13.5261 -2.64784 0.086824 4
1.98627 16.6574 -2.65696 0.0458717 4
2.60713 21.864 -2.70358 0.0315309 4
3.68144 30.8735 -2.72021 0.0332192 1
8.23906 69.0948 -1.2146 0.587207 10
8.19632 68.7364 1.2083 0.693168 10
8.23858 69.0908 18.644 0.669685 10
1.13624 9.82019 -2.64887 0.0239035 4
1.31853 11.3957 -2.64846 0.100258 4
1.56571 13.532 -2.6479 0.0890257 4
1.92096 16.6023 -2.64709 0.021686 4
2.51646 21.749 -2.68826 0.0252654 4
3.57384 30.8877 -2.72035 0.0332176 1
7.99652 69.1117 -1.2144 0.587303 10
7.95504 68.7533 1.2081 0.693283 10
7.99606 69.1077 18.6409 0.669796 10
1.10197 9.82426 -2.64891 0.0968077 4
1.27877 11.4004 -2.64851 0.0119476 4
1.51849 13.5377 -2.64796 0.0885829 4
1.86304 16.6094 -2.64717 0.0625264 4
2.42676 21.635 -2.67311 0.0342238 4
3.46616 30.9015 -2.72049 0.0332159 1
7.75403 69.1287 -1.21421 0.587393 10
7.71364 68.7687 8.49668 0.688339 10
7.71359 68.7682 10.9601 0.684975 10
7.71353 68.7677 13.4509 0.680777 10
7.71347 68.7672 15.9757 0.675749 10
7.75358 69.1247 18.6381 0.669898 10
1.06769 9.82821 -2.64896 0.017927 4
1.23899 11.4051 -2.64856 0.00883067 4
1.47126 13.5432 -2.64802 0.0929879 4
1.80511 16.6163 -2.64724 0.0581877 4
2.33805 21.522 -2.65812 0.0349382 4
3.35845 30.915 -2.72062 0.0332142 1
8.99016 82.7557 -1.45301 0.587475 10
7.51158 69.1451 1.21403 0.693485 10
7.51153 69.1447 3.64504 0.692645 10
7.51148 69.1442 6.08492 0.690962 10
7.51142 69.1437 8.53973 0.688436 10
7.51137 69.1432 11.0156 0.685071 10
7.51131 69.1427 13.519 0.680872 10
7.51126 69.1422 16.0566 0.675844 10
7.5112 69.1416 18.6354 0.669991 10
1.03339 9.83204 -2.649 0.0495974 4
1.19919 11.4095 -2.64861 0.0155832 4
1.42401 13.5485 -2.64808 0.0105766 4
1.74714 16.6229 -2.64731 0.0704738 4
8.7001 82.776 -1.45282 0.58755 10
7.26923 69.1621 1.21388 0.693574 10
7.26917 69.1616 3.64457 0.692734 10
7.26912 69.1611 6.08414 0.69105 10
7.26907 69.1606 8.53863 0.688524 10
7.26902 69.1601 11.0142 0.685159 10
7.26897 69.1596 13.5173 0.680959 10
7.26891 69.1591 16.0546 0.67593 10
7.26886 69.1586 18.6331 0.670077 10
0.99908 9.83575 -2.64904 0.0561696 4
1.15938 11.4139 -2.64866 0.0254521 4
1.37674 13.5537 -2.64814 0.00793226 4
1.68915 16.6294 -2.64739 0.0726402 4
2.17794 21.4414 -2.64622 0.0602766 4
8.41015 82.7962 -1.45265 0.587618 10
7.02696 69.179 1.21374 0.693654 10
7.02691 69.1786 3.64415 0.692814 10
7.02686 69.1781 6.08344 0.69113 10
7.02681 69.1776 8.53764 0.688604 10
7.02676 69.1771 11.0129 0.685238 10
7.02671 69.1766 13.5158 0.681038 10
7.02666 69.176 16.0527 0.676008 10
7.02661 69.1755 18.6309 0.670155 10
0.964755 9.83934 -2.64909 0.023304 4
1.11955 11.4181 -2.64871 0.0535004 4
1.32945 13.5588 -2.6482 0.0211522 4
1.63114 16.6356 -2.64746 0.0213216 4
2.10315 21.4496 -2.64631 0.0425301 4
6.78477 69.1965 -1.21362 0.889714 10
6.78472 69.196 1.21361 0.693726 10
6.78467 69.1955 3.64377 0.692886 10
6.78462 69.195 6.08281 0.691202 10
6.78457 69.1945 8.53676 0.688675 10
6.78452 69.194 11.0118 0.685309 10
6.78447 69.1935 13.5143 0.681109 10
6.78442 69.193 16.0511 0.676078 10
6.78437 69.1925 18.629 0.670224 10
0.930421 9.84281 -2.64913 0.0436196 4
1.07971 11.4221 -2.64876 0.01766 4
1.28214 13.5636 -2.64826 0.0180671 4
1.57311 16.6417 -2.64754 0.0166232 4
2.02834 21.4576 -2.64641 0.0504147 4
6.5426 69.2134 -1.21351 0.889796 10
6.54255 69.2129 1.2135 0.69379 10
6.54251 69.2124 3.64344 0.692949 10
6.54246 69.2119 6.08225 0.691265 10
6.54241 69.2114 8.53598 0.688738 10
6.54237 69.2109 11.0108 0.685372 10
6.54232 69.2104 13.5131 0.681171 10
6.54227 69.2099 16.0496 0.67614 10
6.54222 69.2094 18.6273 0.670286 10
0.896074 9.84616 -2.64917 0.0185231 4
1.03985 11.426 -2.64881 0.0114268 4
1.23482 13.5683 -2.64832 0.0193886 4
1.51505 16.6475 -2.64761 0.019875 4
2.73956 30.1025 -2.64452 0.0397084 4
6.92054 76.0437 -1.33283 0.58778 10
6.30043 69.2298 1.2134 0.693845 10
6.30039 69.2293 3.64315 0.693004 10
6.30034 69.2289 6.08177 0.691319 10
6.3003 69.2284 8.5353 0.688792 10
6.30025 69.2279 11.0099 0.685426 10
6.30021 69.2274 13.512 0.681225 10
6.30016 69.2269 16.0483 0.676194 10
6.30011 69.2263 18.6258 0.670339 10
0.861711 9.84939 -2.64922 0.0250954 4
0.99998 11.4298 -2.64886 0.0207757 4
1.18747 13.5729 -2.64838 0.0123379 4
2.63459 30.1134 -2.64465 0.0386986 4
6.46626 73.9097 1.29502 0.693891 10
6.1681 70.5017 3.70895 0.693051 10
6.16806 70.5012 6.19161 0.691366 10
6.46612 73.9081 9.10944 0.688839 10
6.05809 69.2443 13.5111 0.681271 10
6.05805 69.2438 16.0472 0.676239 10
6.058 69.2433 18.6245 0.670384 10
0.82734 9.8525 -2.64926 0.02629 4
1.14012 13.5772 -2.64844 0.0211503 4
1.39887 16.6587 -2.64776 0.0144537 4
1.80373 21.48 -2.64669 0.029288 4
0.792954 9.85549 -2.64931 0.0412268 4
0.920196 11.437 -2.64896 0.0358366 4
1.09274 13.5815 -2.6485 0.0176248 4
1.34075 16.6639 -2.64783 0.0289067 4
0.758562 9.85836 -2.64935 0.0292765 4
0.880287 11.4403 -2.64901 0.0249294 4
1.04535 13.5855 -2.64856 0.0233524 4
1.28261 16.6689 -2.64791 0.0180662 4
0.724155 9.86112 -2.64939 0.0143393 4
0.840361 11.4435 -2.64906 0.0373933 4
0.99794 13.5894 -2.64862 0.0321639 4
0.689742 9.86375 -2.64944 0.0352501 4
0.800428 11.4466 -2.64912 0.0332379 4
0.950523 13.5931 -2.64868 0.0356878 4
1.16627 16.6784 -2.64805 0.023846 4
1.50386 21.5062 -2.64708 0.0171761 4
0.655315 9.86626 -2.64948 0.0101566 4
0.760479 11.4496 -2.64917 0.0363532 4
0.903086 13.5966 -2.64874 0.0484639 4
1.10807 16.6829 -2.64813 0.0321551 4
1.42883 21.5121 -2.64717 0.0411085 4
0.620884 9.86865 -2.64952 0.0274822 4
0.720524 11.4524 -2.64922 0.0233695 4
0.855642 13.6 -2.6488 0.0259937 4
1.04987 16.6871 -2.6482 0.0162577 4
1.89874 30.1795 -2.64559 0.0290137 4
0.586444 9.87092 -2.64957 0.0388329 4
0.680559 11.455 -2.64927 0.0664719 4
0.808185 13.6032 -2.64886 0.0264336 4
0.991641 16.6911 -2.64828 0.0148122 4
0.551991 9.87307 -2.64961 0.0657162 4
0.640578 11.4576 -2.64932 0.0181756 4
0.76071 13.6063 -2.64892 0.035244 4
0.933394 16.695 -2.64835 0.0148118 4
1.20361 21.5282 -2.64746 0.0408225 4
0.517535 9.8751 -2.64966 0.0304679 4
0.600594 11.46 -2.64937 0.0436205 4
0.713229 13.6092 -2.64898 0.0378865 4
0.87514 16.6986 -2.64843 0.0101151 4
0.483066 9.87701 -2.6497 0.0585452 4
0.560595 11.4622 -2.64942 0.029599 4
0.665732 13.6119 -2.64904 0.014097 4
0.816864 16.702 -2.6485 0.0260094 4
1.05337 21.5376 -2.64765 0.0329371 4
0.448596 9.8788 -2.64974 0.0400251 4
0.520594 11.4643 -2.64947 0.0591969 4
0.61823 13.6144 -2.6491 0.0418494 4
0.758583 16.7052 -2.64858 0.0115594 4
0.978219 21.542 -2.64775 0.0149197 4
0.414114 9.88047 -2.64979 0.0501799 4
0.480579 11.4663 -2.64952 0.023886 4
0.570713 13.6168 -2.64917 0.023347 4
0.700282 16.7083 -2.64865 0.0126428 4
0.903045 21.546 -2.64784 0.0154821 4
0.37963 9.88202 -2.64983 0.0185185 4
0.440562 11.4681 -2.64958 0.0264818 4
0.523193 13.619 -2.64923 0.0224655 4
0.641977 16.7111 -2.64872 0.00903029 4
0.827864 21.5498 -2.64794 0.0242076 4
0.345141 9.88345 -2.64988 0.0406205 4
0.400538 11.4698 -2.64963 0.0233659 4
0.475664 13.6211 -2.64929 0.0185006 4
0.58366 16.7137 -2.6488 0.0155317 4
0.752668 21.5534 -2.64804 0.0374359 4
0.310642 9.88476 -2.64992 0.0442039 4
0.360503 11.4714 -2.64968 0.0529616 4
0.428121 13.623 -2.64935 0.0193811 4
0.525325 16.7161 -2.64887 0.0122805 4
0.950274 30.2381 -2.6468 0.0302087 4
0.276143 9.88595 -2.64997 0.0226989 4
0.320467 11.4728 -2.64973 0.0166151 4
0.380577 13.6247 -2.64941 0.02819 4
0.466989 16.7183 -2.64895 0.0111966 4
0.602223 21.5597 -2.64823 0.0593865 4
0.241634 9.88702 -2.65001 0.0238932 4
0.28042 11.474 -2.64978 0.0493251 4
0.333019 13.6263 -2.64947 0.0242253 4
0.408635 16.7203 -2.64902 0.0108351 4
0.526975 21.5624 -2.64832 0.0151979 4
0.207126 9.88797 -2.65005 0.0728731 4
0.240373 11.4752 -2.64983 0.0259601 4
0.285462 13.6277 -2.64953 0.0158562 4
0.350282 16.7221 -2.6491 0.0278094 4
0.451726 21.5649 -2.64842 0.0160416 4
0.172609 9.8888 -2.6501 0.0226978 4
0.200317 11.4762 -2.64988 0.0103838 4
0.237893 13.6289 -2.64959 0.0101301 4
0.291912 16.7237 -2.64917 0.0184187 4
0.376456 21.5672 -2.64852 0.0236394 4
0.138094 9.8895 -2.65014 0.0531597 4
0.160262 11.477 -2.64994 0.043092 4
0.190325 13.63 -2.64965 0.0114512 4
0.233544 16.7251 -2.64925 0.0108342 4
0.301185 21.5691 -2.64861 0.0180103 4
0.120198 11.4777 -2.64999 0.0311502 4
0.142746 13.6309 -2.64971 0.0154147 4
0.175162 16.7262 -2.64932 0.0270847 4
0.225896 21.5708 -2.64871 0.0242005 4
0.0690515 9.89056 -2.65023 0.0376287 4
0.0801364 11.4783 -2.65004 0.00986405 4
0.0951697 13.6316 -2.64978 0.0726674 4
0.116782 16.7272 -2.6494 0.0328619 4
0.150608 21.5723 -2.64881 0.0137882 4
0.0345293 9.89091 -2.65028 0.0364335 4
0.0400724 11.4787 -2.65009 0.0321873 4
0.04759 13.6321 -2.64984 0.0383147 4
0.0583977 16.728 -2.64947 0.0299721 4
7.4676e-07 9.89113 -2.65032 0.0238904 4
8.66642e-07 11.479 -2.65014 0.0218039 4
1.02923e-06 13.6325 -2.6499 0.0149732 4
1.26297e-06 16.7286 -2.64955 0.0220271 4
1.62882e-06 21.5744 -2.649 0.0140685 4
-0.0345242 9.89124 -2.65036 0.016723 4
-0.0400668 11.4792 -2.65019 0.0467217 4
-0.0475837 13.6328 -2.64996 0.0246612 4
