VERSION 0.7
FIELDS x y z intensity label
SIZE 4 4 4 4 4
TYPE F F F F F
COUNT 1 1 1 1 1
WIDTH 1219
HEIGHT 1
VIEWPOINT 5.32314 46.0012 2.72819 0.809227 0.00045346 0.000904816 -0.587495
POINTS 1219
DATA ascii
-26.3274 -15.2001 3.73268 0.506467 10
-26.3299 -15.2016 4.81539 0.503966 10
-26.3325 -15.2031 5.91035 0.500851 10
-26.3351 -15.2046 7.02049 0.497125 10
-26.3377 -15.2061 8.14891 0.492794 10
-8.61065 -5.01152 -2.66954 0.0337892 4
-10.0051 -5.82309 -2.67259 0.0514634 4
-11.9016 -6.92691 -2.67674 0.0165622 4
-14.9707 -8.71316 -2.74349 0.180126 4
-18.1458 -10.5611 -2.57791 0.0393028 4
-26.3618 -15.3429 -2.66855 0.510055 10
-26.3643 -15.3444 -1.59868 0.51128 10
-26.3668 -15.3458 -0.532509 0.511881 10
-26.3693 -15.3473 0.532559 0.511859 10
-26.3718 -15.3487 1.59913 0.511213 10
-26.3743 -15.3502 2.66981 0.509944 10
-26.3768 -15.3516 3.74726 0.508054 10
-26.3793 -15.3531 4.83419 0.505545 10
-26.3819 -15.3546 5.93343 0.50242 10
-26.3845 -15.3561 7.04791 0.498683 10
-26.3871 -15.3577 8.18074 0.494338 10
-9.98458 -5.85792 -2.67256 0.0138953 4
-11.8772 -6.96832 -2.67671 0.0130756 4
-14.9946 -8.79729 -2.75348 0.228982 4
-18.1085 -10.6242 -2.57786 0.03875 4
-26.4115 -15.4955 -2.67904 0.511642 10
-26.414 -15.497 -1.60496 0.51287 10
-26.4165 -15.4985 -0.534602 0.513473 10
-26.419 -15.4999 0.534652 0.513451 10
-26.4215 -15.5014 1.60541 0.512803 10
-26.424 -15.5029 2.68031 0.51153 10
-26.4265 -15.5044 3.76199 0.509634 10
-26.4291 -15.5059 4.85321 0.507118 10
-26.4317 -15.5074 5.95677 0.503983 10
-26.4343 -15.5089 7.07564 0.500234 10
-26.4369 -15.5105 8.21292 0.495876 10
-8.57529 -5.07141 -2.66949 0.129824 4
-9.96396 -5.89267 -2.67253 0.0761676 4
-11.8527 -7.00965 -2.67667 0.0209213 4
-15.0024 -8.87238 -2.76057 0.0587369 1
-18.0709 -10.6871 -2.5778 0.0343222 4
-26.4616 -15.6493 -2.68964 0.513222 10
-26.4641 -15.6508 -1.61131 0.514454 10
-26.4666 -15.6523 -0.536719 0.515059 10
-26.4691 -15.6538 0.536769 0.515037 10
-26.4716 -15.6553 1.61177 0.514387 10
-26.4742 -15.6568 2.69092 0.51311 10
-26.4767 -15.6583 3.77689 0.511209 10
-26.4793 -15.6598 4.87243 0.508684 10
-26.4819 -15.6613 5.98037 0.50554 10
-26.4845 -15.6629 7.10367 0.50178 10
-26.4872 -15.6645 8.24546 0.497408 10
-8.55745 -5.10127 -2.66946 0.107299 4
-9.94322 -5.92735 -2.6725 0.0216154 4
-14.9711 -8.92455 -2.76053 0.0587378 1
-18.0331 -10.7499 -2.57775 0.026019 4
-26.512 -15.8043 -2.70036 0.514796 10
-26.5146 -15.8059 -1.61774 0.516031 10
-26.5171 -15.8074 -0.538859 0.516639 10
-26.5196 -15.8089 0.53891 0.516616 10
-26.5222 -15.8104 1.6182 0.515964 10
-26.5247 -15.8119 2.70165 0.514684 10
-26.5273 -15.8134 3.79196 0.512777 10
-26.5298 -15.815 4.89186 0.510245 10
-26.5325 -15.8165 6.00422 0.507091 10
-26.5351 -15.8181 7.13201 0.503319 10
-26.5378 -15.8197 8.27836 0.498934 10
-8.53951 -5.13106 -2.66944 0.117378 4
-9.92236 -5.96195 -2.67247 0.0272768 4
-11.8031 -7.09203 -2.6766 0.0392284 4
-14.9396 -8.9766 -2.76048 0.0587388 1
-17.9951 -10.8125 -2.5777 0.0362613 4
-26.5629 -15.9606 -2.7112 0.516363 10
-26.5655 -15.9621 -1.62423 0.517603 10
-26.568 -15.9637 -0.541022 0.518212 10
-26.5706 -15.9652 0.541073 0.518189 10
-26.5731 -15.9667 1.6247 0.517536 10
-26.5757 -15.9683 2.7125 0.516252 10
-26.5782 -15.9698 3.80719 0.514338 10
-26.5808 -15.9714 4.91151 0.511799 10
-26.5835 -15.9729 6.02835 0.508635 10
-26.5861 -15.9745 7.16067 0.504852 10
-26.5888 -15.9762 8.31162 0.500454 10
-8.52147 -5.16078 -2.66941 0.110265 4
-9.90137 -5.99649 -2.67244 0.0211012 4
-14.9079 -9.02855 -2.76044 0.0587398 1
-17.9568 -10.875 -2.57764 0.0357085 4
-26.6142 -16.1181 -2.72216 0.517924 10
-26.6168 -16.1197 -1.6308 0.519168 10
-26.6245 -16.1243 1.63127 0.519101 10
-26.627 -16.1259 2.72347 0.517813 10
-26.6349 -16.1306 6.05274 0.510174 10
-26.6375 -16.1323 7.18964 0.506379 10
-26.6403 -16.1339 8.34526 0.501968 10
-8.50331 -5.19044 -2.66939 0.0948524 4
-9.88027 -6.03094 -2.67241 0.0149254 4
-11.753 -7.17407 -2.67653 0.0200506 4
-14.876 -9.08038 -2.76039 0.0587408 1
-17.9184 -10.9374 -2.57758 0.0334947 4
-26.6659 -16.2769 -2.73325 0.519479 10
-26.6685 -16.2785 -1.63744 0.520727 10
-26.6762 -16.2832 1.63791 0.52066 10
-26.6788 -16.2848 2.73457 0.519368 10
-26.6867 -16.2896 6.0774 0.511706 10
-26.6894 -16.2913 7.21894 0.5079 10
-26.6921 -16.2929 8.37927 0.503476 10
-8.48506 -5.22004 -2.66936 0.11916 4
-9.85904 -6.06532 -2.67238 0.0360273 4
-11.7277 -7.21495 -2.67649 0.0126408 4
-14.844 -9.13209 -2.76034 0.0587418 1
-17.8797 -10.9996 -2.57753 0.040416 4
-26.718 -16.437 -2.74445 0.521028 10
-26.7206 -16.4386 -1.64415 0.522279 10
-26.7284 -16.4434 1.64463 0.522212 10
-26.731 -16.445 2.74579 0.520917 10
-26.7389 -16.4499 6.10234 0.513232 10
-26.7417 -16.4516 7.24856 0.509415 10
-26.7444 -16.4533 8.41366 0.504977 10
-8.4667 -5.24958 -2.66933 0.10849 4
-9.8377 -6.09963 -2.67235 0.0283075 4
-11.7023 -7.25574 -2.67645 0.0152563 4
-14.8118 -9.18369 -2.7603 0.0587428 1
-17.8408 -11.0617 -2.57747 0.0390327 4
-26.7706 -16.5985 -2.75579 0.52257 10
-26.7732 -16.6001 -1.65094 0.523825 10
-26.781 -16.6049 1.65142 0.523758 10
-26.7836 -16.6066 2.75713 0.522459 10
-26.7916 -16.6115 6.12755 0.514752 10
-26.7944 -16.6132 7.27852 0.510923 10
-26.7971 -16.6149 8.44844 0.506473 10
-8.44824 -5.27905 -2.66931 0.110269 4
-9.81623 -6.13386 -2.67232 0.034484 4
-11.6767 -7.29644 -2.67642 0.0187438 4
-14.7794 -9.23518 -2.76025 0.0587438 1
-17.8017 -11.1237 -2.57741 0.0365421 4
-26.8236 -16.7612 -2.76725 0.524106 10
-26.8262 -16.7629 -1.65781 0.525365 10
-26.8341 -16.7678 1.6583 0.525298 10
-26.8367 -16.7694 2.7686 0.523995 10
-26.8448 -16.7745 6.15306 0.516265 10
-26.8475 -16.7762 7.30882 0.512426 10
-26.8503 -16.7779 8.48361 0.507962 10
-8.42967 -5.30845 -2.66928 0.0195641 4
-9.79464 -6.16801 -2.67229 0.00617632 4
-11.651 -7.33705 -2.67638 0.00958997 4
-14.6008 -9.19462 -2.73288 0.00883882 4
-17.7623 -11.1855 -2.57735 0.0293451 4
-26.877 -16.9254 -2.77884 0.525636 10
-26.8797 -16.927 -1.66475 0.526898 10
-26.8876 -16.932 1.66524 0.526831 10
-26.8902 -16.9337 2.7802 0.525524 10
-26.8983 -16.9388 6.17885 0.517772 10
-26.9011 -16.9405 7.33946 0.513922 10
-8.41101 -5.33779 -2.66925 0.00652143 4
-9.77293 -6.20209 -2.67225 0.0391172 4
-11.6252 -7.37757 -2.67634 0.0091542 4
-14.3694 -9.11913 -2.69551 0.0114506 4
-17.7228 -11.2472 -2.57729 0.034329 4
-26.8968 -17.0692 -2.78703 0.032414 1
-26.9336 -17.0926 -1.67178 0.528425 10
-26.9415 -17.0976 1.67227 0.528358 10
-26.9442 -17.0993 2.79194 0.527047 10
-26.9523 -17.1045 6.20494 0.519273 10
-26.9551 -17.1062 7.37045 0.515411 10
-8.39223 -5.36706 -2.66922 0.013043 4
-9.7511 -6.23609 -2.67222 0.0355147 4
-11.5992 -7.418 -2.6763 0.0584133 4
-14.2667 -9.12391 -2.68219 0.00998491 4
-17.683 -11.3087 -2.57724 0.0343298 4
-26.8362 -17.1625 -2.78694 0.032415 1
-26.9879 -17.2595 -1.67888 0.529945 10
-26.9906 -17.2612 -0.559228 0.530569 10
-26.9933 -17.2629 0.559283 0.530547 10
-26.9959 -17.2646 1.67938 0.529878 10
-26.9986 -17.2663 2.80381 0.528564 10
-27.0013 -17.2681 3.93535 0.526606 10
-27.0041 -17.2698 5.07687 0.524006 10
-27.0068 -17.2716 6.23132 0.520768 10
-27.0096 -17.2734 7.4018 0.516895 10
-27.0125 -17.2752 8.59154 0.512392 10
-8.37336 -5.39626 -2.66919 0.0391294 4
-9.72916 -6.27001 -2.67219 0.0324269 4
-11.5731 -7.45833 -2.67626 0.00784668 4
-14.2345 -9.17349 -2.68214 0.0627634 4
-17.643 -11.3701 -2.57718 0.0351612 4
-26.7753 -17.2555 -2.78685 0.0324161 1
-27.0428 -17.4279 -1.68607 0.531459 10
-27.0454 -17.4296 -0.561621 0.532085 10
-27.0481 -17.4313 0.561677 0.532063 10
-27.0508 -17.4331 1.68657 0.531392 10
-27.0535 -17.4348 2.81581 0.530074 10
-27.0562 -17.4366 3.9522 0.528111 10
-27.059 -17.4383 5.09861 0.525503 10
-27.0618 -17.4401 6.25801 0.522256 10
-27.0646 -17.4419 7.4335 0.518372 10
-27.0674 -17.4438 8.62834 0.513857 10
-8.35438 -5.4254 -2.66917 0.0237151 4
-9.70709 -6.30386 -2.67216 0.0180151 4
-11.5468 -7.49858 -2.67622 0.105496 4
-14.2021 -9.22296 -2.68209 0.0666873 4
-17.6028 -11.4314 -2.57712 0.0299015 4
-26.714 -17.3483 -2.78676 0.0324172 1
-27.0981 -17.5977 -1.69333 0.532967 10
-27.1008 -17.5994 -0.564042 0.533594 10
-27.1035 -17.6012 0.564098 0.533572 10
-27.1062 -17.603 1.69384 0.5329 10
-27.1089 -17.6047 2.82795 0.531578 10
-27.1116 -17.6065 3.96925 0.529609 10
-27.1144 -17.6083 5.1206 0.526994 10
-27.1172 -17.6101 6.285 0.523738 10
-27.12 -17.6119 7.46556 0.519843 10
-27.1229 -17.6138 8.66557 0.515315 10
-8.3353 -5.45447 -2.66914 0.0272726 4
-9.68491 -6.33763 -2.67212 0.0102945 4
-11.5204 -7.53873 -2.67618 0.0161298 4
-14.1696 -9.27231 -2.68205 0.0666886 4
-17.5624 -11.4925 -2.57705 0.0340553 4
-26.6524 -17.4408 -2.78666 0.0324182 1
-27.1538 -17.769 -1.70068 0.534468 10
-27.1566 -17.7708 -0.566491 0.535097 10
-27.1593 -17.7725 0.566548 0.535075 10
-27.162 -17.7743 1.7012 0.534401 10
-27.1647 -17.7761 2.84023 0.533075 10
-27.1675 -17.7779 3.98649 0.531101 10
-27.1703 -17.7797 5.14284 0.528479 10
-27.1731 -17.7816 6.31231 0.525213 10
-27.1759 -17.7834 7.498 0.521307 10
-27.1788 -17.7853 8.70322 0.516767 10
-8.31613 -5.48347 -2.66911 0.0195653 4
-9.66261 -6.37131 -2.67209 0.0128683 4
-14.1369 -9.32154 -2.682 0.0756055 4
-17.5217 -11.5534 -2.57699 0.0390399 4
-26.5904 -17.5332 -2.78657 0.0324193 1
-27.2101 -17.9417 -1.70812 0.535962 10
-27.2128 -17.9436 -0.568968 0.536593 10
-27.2156 -17.9454 0.569025 0.536571 10
-27.2183 -17.9472 1.70864 0.535895 10
-27.2211 -17.949 2.85266 0.534566 10
-27.2239 -17.9508 4.00392 0.532586 10
-27.2266 -17.9527 5.16534 0.529957 10
-27.2295 -17.9545 6.33992 0.526682 10
-27.2323 -17.9564 7.53081 0.522766 10
-27.2352 -17.9583 8.74131 0.518212 10
-8.29685 -5.51241 -2.66908 0.0403169 4
-9.64019 -6.40492 -2.67206 0.0180158 4
-11.4671 -7.61874 -2.6761 0.0309526 4
-14.104 -9.37066 -2.68195 0.00891591 4
-17.4809 -11.6143 -2.57693 0.0335032 4
-26.5282 -17.6253 -2.78648 0.0324204 1
-27.2669 -18.116 -1.71564 0.53745 10
-27.2696 -18.1179 -0.571474 0.538083 10
-27.2724 -18.1197 0.571531 0.538061 10
-27.2751 -18.1215 1.71616 0.537383 10
-27.2779 -18.1234 2.86522 0.53605 10
-27.2807 -18.1252 4.02157 0.534065 10
-27.2835 -18.1271 5.1881 0.531428 10
-27.2864 -18.129 6.36786 0.528145 10
-27.2892 -18.1309 7.564 0.524217 10
-27.2922 -18.1329 8.77984 0.519651 10
-8.27746 -5.54128 -2.66905 0.0124509 4
-9.61765 -6.43845 -2.67202 0.0128686 4
-11.4403 -7.65861 -2.67606 0.0231058 4
-14.0709 -9.41966 -2.6819 0.014979 4
-17.4398 -11.6749 -2.57687 0.0251972 4
-26.4656 -17.7172 -2.78638 0.0324215 1
-27.3241 -18.2919 -1.72325 0.538931 10
-27.3269 -18.2938 -0.574009 0.539566 10
-27.3297 -18.2956 0.574067 0.539544 10
-27.3324 -18.2975 1.72378 0.538864 10
-27.3352 -18.2993 2.87794 0.537528 10
-27.338 -18.3012 4.03941 0.535537 10
-27.3409 -18.3031 5.21113 0.532894 10
-27.3437 -18.305 6.39613 0.529601 10
-27.3466 -18.307 7.59758 0.525663 10
-27.3496 -18.309 8.81882 0.521084 10
-8.25798 -5.57007 -2.66902 0.0177873 4
-9.59499 -6.4719 -2.67199 0.02059 4
-11.4133 -7.69838 -2.67602 0.0296457 4
-14.0377 -9.46854 -2.68185 0.0363783 4
-17.3985 -11.7354 -2.57681 0.013845 4
-26.4027 -17.8088 -2.78629 0.0324226 1
-27.3819 -18.4693 -1.73095 0.540406 10
-27.3847 -18.4712 -0.576574 0.541043 10
-27.3875 -18.4731 0.576632 0.541021 10
-27.3903 -18.475 1.73148 0.540339 10
-27.3931 -18.4769 2.8908 0.538999 10
-27.3959 -18.4788 4.05747 0.537003 10
-27.3988 -18.4807 5.23443 0.534352 10
-27.4016 -18.4826 6.42473 0.531051 10
-27.4046 -18.4846 7.63155 0.527102 10
-27.4075 -18.4866 8.85826 0.522511 10
-8.23839 -5.5988 -2.66899 0.0385395 4
-9.57222 -6.50527 -2.67195 0.0350035 4
-11.3862 -7.73805 -2.67598 0.0143871 4
-14.0043 -9.5173 -2.6818 0.0189028 4
-17.357 -11.7958 -2.57674 0.0329518 4
-26.3395 -17.9003 -2.78619 0.0324237 1
-27.4402 -18.6483 -1.73874 0.541874 10
-27.4486 -18.6541 1.73928 0.541807 10
-27.4515 -18.656 2.90382 0.540464 10
-27.4601 -18.6618 6.45366 0.532494 10
-27.463 -18.6638 7.66592 0.528534 10
-8.21871 -5.62746 -2.66896 0.0237169 4
-9.54933 -6.53856 -2.67192 0.0154429 4
-11.3589 -7.77763 -2.67594 0.021799 4
-13.9707 -9.56595 -2.68175 0.0146232 4
-17.3153 -11.856 -2.57668 0.034891 4
-26.2759 -17.9915 -2.78609 0.0324249 1
-27.499 -18.829 -1.74662 0.543336 10
-27.5075 -18.8348 1.74716 0.543269 10
-27.5103 -18.8367 2.91698 0.541922 10
-27.519 -18.8427 6.48293 0.533931 10
-27.522 -18.8447 7.7007 0.529961 10
-8.19892 -5.65606 -2.66893 0.0361686 4
-9.52632 -6.57177 -2.67188 0.0185318 4
-11.3315 -7.81711 -2.6759 0.0418547 4
-13.937 -9.61447 -2.68169 0.0135535 4
-17.2734 -11.9161 -2.57662 0.0407072 4
-26.212 -18.0825 -2.786 0.032426 1
-27.5583 -19.0112 -1.7546 0.544791 10
-27.5669 -19.0171 1.75514 0.544724 10
-27.5698 -19.0191 2.93031 0.543374 10
-27.5785 -19.0251 6.51255 0.535361 10
-27.5815 -19.0272 7.73589 0.53138 10
-8.17904 -5.68458 -2.6689 0.0154163 4
-9.5032 -6.60489 -2.67185 0.00772167 4
-11.304 -7.85649 -2.67586 0.0331355 4
-13.9031 -9.66288 -2.68164 0.0171205 4
-17.2313 -11.976 -2.57655 0.0390466 4
-26.1478 -18.1732 -2.7859 0.0324272 1
-27.6182 -19.1952 -1.76266 0.546239 10
-27.6269 -19.2012 1.76321 0.546172 10
-27.6298 -19.2032 2.94379 0.544819 10
-27.6385 -19.2093 6.54252 0.536784 10
-27.6415 -19.2114 7.77149 0.532793 10
-8.15905 -5.71303 -2.66887 0.020753 4
-9.47996 -6.63794 -2.67181 0.0252244 4
-11.2763 -7.89578 -2.67581 0.039676 4
-13.869 -9.71116 -2.68159 0.0149807 4
-17.1889 -12.0358 -2.57649 0.0357244 4
-26.0833 -18.2637 -2.7858 0.0324283 1
-27.6787 -19.3808 -1.77083 0.547681 10
-27.6874 -19.3869 1.77139 0.547614 10
-27.6903 -19.3889 2.95743 0.546257 10
-27.6991 -19.3951 6.57285 0.538202 10
-27.7022 -19.3973 7.80752 0.5342 10
-8.13897 -5.74141 -2.66884 0.0278686 4
-9.4566 -6.6709 -2.67178 0.0180177 4
-11.2485 -7.93497 -2.67577 0.064093 4
-13.8347 -9.75932 -2.68154 0.014981 4
-17.1464 -12.0954 -2.57642 0.0240938 4
-26.0184 -18.354 -2.7857 0.0324295 1
-27.7397 -19.5682 -1.77909 0.549116 10
-27.7485 -19.5744 1.77965 0.549049 10
-27.7514 -19.5764 2.97124 0.547688 10
-27.7603 -19.5827 6.60355 0.539612 10
-27.7633 -19.5849 7.84398 0.5356 10
-8.11878 -5.76971 -2.66881 0.0296478 4
-9.43313 -6.70378 -2.67174 0.0422135 4
-11.2206 -7.97405 -2.67573 0.0257248 4
-13.8003 -9.80736 -2.68148 0.0178349 4
-17.1036 -12.1549 -2.57636 0.037111 4
-25.9533 -18.444 -2.7856 0.0324306 1
-27.8013 -19.7574 -1.78746 0.550545 10
-27.8101 -19.7636 1.78802 0.550478 10
-27.8131 -19.7657 2.98521 0.549113 10
-27.822 -19.7721 6.63461 0.541016 10
-27.8251 -19.7743 7.88088 0.536994 10
-8.09849 -5.79795 -2.66878 0.0504018 4
-9.40955 -6.73657 -2.6717 0.0622914 4
-11.1925 -8.01304 -2.67569 0.0148247 4
-13.7657 -9.85528 -2.68143 0.0267529 4
-17.1269 -12.2617 -2.5863 0.161706 4
-25.8878 -18.5338 -2.7855 0.0324318 1
-27.8635 -19.9483 -1.79592 0.551966 10
-27.8723 -19.9546 1.79649 0.551899 10
-27.8753 -19.9568 2.99935 0.550531 10
-27.8843 -19.9632 6.66605 0.542414 10
-27.8874 -19.9654 7.91823 0.538381 10
-8.07811 -5.82612 -2.66875 0.0106735 4
-9.38585 -6.76928 -2.67167 0.0334628 4
-11.1643 -8.05193 -2.67564 0.0122088 4
-13.7309 -9.90307 -2.68138 0.021046 4
-17.1556 -12.373 -2.59714 0.177645 4
-25.822 -18.6234 -2.78539 0.032433 1
-27.9263 -20.141 -1.80449 0.553381 10
-27.9352 -20.1475 1.80506 0.553314 10
-27.9382 -20.1496 3.01366 0.551943 10
-27.9473 -20.1562 6.69787 0.543805 10
-27.9504 -20.1584 7.95603 0.539761 10
-8.05763 -5.85421 -2.66871 0.0130455 4
-9.36203 -6.80191 -2.67163 0.0355226 4
-11.1359 -8.09072 -2.6756 0.0161333 4
-13.696 -9.95074 -2.68132 0.0274674 4
-17.1845 -12.4853 -2.6081 0.183262 4
-25.7559 -18.7127 -2.78529 0.0324342 1
-27.9896 -20.3356 -1.81316 0.554789 10
-27.9986 -20.3422 1.81374 0.554722 10
-28.0016 -20.3444 3.02815 0.553348 10
-28.0108 -20.351 6.73007 0.545189 10
-28.0139 -20.3533 7.99429 0.541135 10
-8.03705 -5.88223 -2.66868 0.0177895 4
-9.3381 -6.83446 -2.67159 0.0344934 4
-11.1074 -8.12941 -2.67555 0.0265986 4
-13.6609 -9.99828 -2.68127 0.0249709 4
-17.2137 -12.5985 -2.61918 0.160943 4
-25.6895 -18.8018 -2.78519 0.0324354 1
-28.0536 -20.5321 -1.82193 0.556191 10
-28.0626 -20.5387 1.82252 0.556124 10
-28.0657 -20.541 3.04281 0.554746 10
-28.0749 -20.5477 6.76267 0.546566 10
-28.0781 -20.55 8.03302 0.542503 10
-8.01637 -5.91018 -2.66865 0.0207547 4
-9.31406 -6.86691 -2.67156 0.0226527 4
-11.0788 -8.168 -2.67551 0.0156978 4
-13.6257 -10.0457 -2.68121 0.0371003 4
-17.2431 -12.7127 -2.63039 0.160257 4
-25.6227 -18.8907 -2.78508 0.0324366 1
-28.1182 -20.7305 -1.83082 0.557585 10
-28.1273 -20.7372 1.83141 0.557519 10
-28.1304 -20.7395 3.05766 0.556137 10
-28.1397 -20.7464 6.79568 0.547937 10
-28.1428 -20.7487 8.07223 0.543864 10
-7.99559 -5.93805 -2.66862 0.0183829 4
-9.2899 -6.89929 -2.67152 0.0293459 4
-11.05 -8.20648 -2.67546 0.0218028 4
-13.5902 -10.093 -2.68116 0.0367443 4
-17.2727 -12.8278 -2.64172 0.165852 4
-25.5557 -18.9793 -2.78498 0.0324378 1
-28.1834 -20.9309 -1.83981 0.558973 10
-28.1865 -20.9331 -0.612838 0.559633 10
-28.1896 -20.9354 0.612904 0.55961 10
-28.1926 -20.9377 1.84041 0.558906 10
-28.1957 -20.94 3.07268 0.557521 10
-28.1988 -20.9423 4.31278 0.555457 10
-28.2019 -20.9446 5.56383 0.552716 10
-28.2051 -20.9469 6.82908 0.549301 10
-28.2083 -20.9493 8.11191 0.545218 10
-28.2115 -20.9517 9.4159 0.54047 10
-7.97472 -5.96585 -2.66859 0.0498125 4
-9.26563 -6.93158 -2.67148 0.0478809 4
-11.0211 -8.24486 -2.67542 0.00654096 4
-17.3025 -12.9439 -2.65318 0.175144 4
-25.4883 -19.0677 -2.78487 0.0324391 1
-28.2493 -21.1332 -1.84892 0.560354 10
-28.2524 -21.1355 -0.615872 0.561015 10
-28.2555 -21.1378 0.615938 0.560993 10
-28.2586 -21.1401 1.84952 0.560287 10
-28.2617 -21.1424 3.0879 0.558899 10
-28.2648 -21.1448 4.33414 0.55683 10
-28.2679 -21.1471 5.59139 0.554082 10
-28.2711 -21.1495 6.86291 0.550659 10
-28.2743 -21.1519 8.1521 0.546565 10
-28.2776 -21.1544 9.46255 0.541806 10
-7.95375 -5.99358 -2.66855 0.0296506 4
-9.24125 -6.96378 -2.67144 0.0226537 4
-10.9921 -8.28314 -2.67537 0.0113379 4
-13.5189 -10.1872 -2.68105 0.0249729 4
-17.3326 -13.061 -2.66476 0.139506 4
-25.4206 -19.1558 -2.78477 0.0324403 1
-28.3159 -21.3375 -1.85813 0.561728 10
-28.319 -21.3399 -0.618942 0.562391 10
-28.3221 -21.3422 0.61901 0.562369 10
-28.3252 -21.3445 1.85874 0.561661 10
-28.3283 -21.3469 3.1033 0.56027 10
-28.3314 -21.3493 4.35576 0.558195 10
-28.3346 -21.3516 5.61928 0.555441 10
-28.3378 -21.3541 6.89715 0.55201 10
-28.341 -21.3565 8.19278 0.547906 10
-28.3443 -21.359 9.50977 0.543135 10
-7.93268 -6.02123 -2.66852 0.0124534 4
-9.21675 -6.99589 -2.6714 0.0180202 4
-10.9629 -8.32132 -2.67533 0.0348863 4
-13.483 -10.2341 -2.68099 0.01213 4
-17.3629 -13.1791 -2.67648 0.164938 4
-25.3526 -19.2437 -2.78466 0.0324415 1
-28.3831 -21.5439 -1.86747 0.563096 10
-28.3862 -21.5463 -0.622052 0.56376 10
-28.3893 -21.5487 0.62212 0.563738 10
-28.3925 -21.551 1.86808 0.563029 10
-28.3956 -21.5534 3.11889 0.561634 10
-28.3987 -21.5558 4.37765 0.559554 10
-28.4019 -21.5582 5.64753 0.556793 10
-28.4052 -21.5607 6.93182 0.553354 10
-28.4084 -21.5632 8.23397 0.54924 10
-28.4118 -21.5657 9.55759 0.544457 10
-7.91152 -6.04881 -2.66849 0.0124536 4
-9.19214 -7.02792 -2.67137 0.0252287 4
-10.9336 -8.35939 -2.67528 0.0161352 4
-13.4469 -10.2809 -2.68093 0.0228334 4
-17.3934 -13.2983 -2.68832 0.161742 4
-25.2843 -19.3313 -2.78455 0.0324428 1
-28.451 -21.7524 -1.87692 0.564456 10
-28.4541 -21.7548 -0.6252 0.565123 10
-28.4572 -21.7572 0.625269 0.5651 10
-28.4604 -21.7596 1.87754 0.564389 10
-28.4668 -21.7645 4.39982 0.560907 10
-28.47 -21.7669 5.67613 0.558139 10
-28.2867 -21.6268 6.9213 0.405246 10
-28.4799 -21.7745 9.60601 0.545773 10
-7.89026 -6.07631 -2.66845 0.0219423 4
-9.16742 -7.05986 -2.67133 0.02111 4
-10.9042 -8.39736 -2.67524 0.018316 4
-13.4106 -10.3276 -2.68088 0.0410296 4
-17.3562 -13.366 -2.68976 0.0415543 4
-25.2157 -19.4187 -2.78445 0.0324441 1
-28.5195 -21.963 -1.88649 0.56581 10
-28.5227 -21.9654 -0.628389 0.566478 10
-28.5259 -21.9679 0.628458 0.566456 10
-28.529 -21.9703 1.88712 0.565743 10
-28.5355 -21.9753 4.42226 0.562252 10
-28.5387 -21.9777 5.70509 0.559478 10
-28.1372 -21.6686 6.90318 0.403365 10
-28.5487 -21.9854 9.65504 0.547083 10
-7.8689 -6.10374 -2.66842 0.0225356 4
-9.14258 -7.09171 -2.67129 0.0283187 4
-10.8746 -8.43523 -2.67519 0.0152636 4
-17.3089 -13.4262 -2.68968 0.0440488 4
-25.1468 -19.5058 -2.78434 0.0324453 1
-28.5888 -22.1757 -1.89618 0.567157 10
-28.592 -22.1782 -0.631617 0.567826 10
-28.5952 -22.1807 0.631687 0.567804 10
-28.5984 -22.1832 1.89682 0.56709 10
-28.6049 -22.1882 4.44499 0.563591 10
-28.6081 -22.1907 5.73442 0.56081 10
-27.9884 -21.7101 6.88523 0.40148 10
-28.6182 -22.1985 9.70469 0.548385 10
-7.84744 -6.13109 -2.66839 0.0130471 4
-9.11764 -7.12348 -2.67125 0.0231702 4
-10.8449 -8.47299 -2.67514 0.0218055 4
-16.5289 -12.9138 -2.57546 0.037955 4
-25.0775 -19.5927 -2.78423 0.0324466 1
-28.6685 -22.3983 1.90664 0.56843 10
-27.8405 -21.7513 6.86746 0.39959 10
-7.8259 -6.15837 -2.66835 0.0249084 4
-9.09258 -7.15516 -2.67121 0.0272897 4
-13.3009 -10.4667 -2.6807 0.0181969 4
-16.4832 -12.971 -2.57539 0.0326921 4
-25.008 -19.6794 -2.78412 0.0324479 1
-28.7393 -22.6156 1.91658 0.569763 10
-27.6932 -21.7924 6.84987 0.397695 10
-7.80425 -6.18557 -2.66832 0.0112682 4
-9.06742 -7.18674 -2.67117 0.0154473 4
-10.7851 -8.54819 -2.67505 0.00828637 4
-13.264 -10.5129 -2.68065 0.014986 4
-16.4374 -13.0281 -2.57531 0.0410048 4
-24.9382 -19.7657 -2.78401 0.0324492 1
-28.8108 -22.8352 1.92666 0.571088 10
-27.5498 -21.8357 6.83321 0.298372 10
-7.78251 -6.2127 -2.66828 0.0664241 4
-9.04214 -7.21825 -2.67113 0.0355292 4
-10.755 -8.58563 -2.675 0.0157008 4
-13.2269 -10.5589 -2.68059 0.00999089 4
-16.4721 -13.1495 -2.58793 0.187234 4
-24.868 -19.8519 -2.78389 0.0324505 1
-28.8831 -23.0571 1.93687 0.572407 10
-28.8931 -23.0651 5.85554 0.566069 10
-27.4263 -21.8941 6.82148 0.296262 10
-7.76068 -6.23974 -2.66825 0.0355848 4
-9.01675 -7.24965 -2.67109 0.0324402 4
-10.7248 -8.62297 -2.67495 0.0335828 4
-13.1897 -10.6048 -2.68053 0.0110616 4
-16.5077 -13.2725 -2.60078 0.174824 4
-24.7976 -19.9378 -2.78378 0.0324518 1
-28.9562 -23.2814 1.9472 0.573719 10
-28.9663 -23.2895 5.8868 0.567367 10
-27.3039 -21.9529 6.81007 0.13214 10
-7.73875 -6.26671 -2.66821 0.0243166 4
-8.99125 -7.28097 -2.67105 0.0319258 4
-10.6945 -8.66019 -2.6749 0.020499 4
-13.1523 -10.6505 -2.68047 0.00927766 4
-16.5436 -13.3967 -2.61379 0.200619 4
-24.7268 -20.0234 -2.78367 0.0324531 1
-29.03 -23.5081 1.95768 0.575025 10
-29.0402 -23.5163 5.91847 0.568658 10
-27.2276 -22.0485 6.81019 0.132137 10
-7.71672 -6.2936 -2.66818 0.0225376 4
-8.96565 -7.3122 -2.67101 0.0484043 4
-10.664 -8.69732 -2.67486 0.0257332 4
-13.1147 -10.6961 -2.68041 0.0149873 4
-16.5798 -13.5222 -2.62696 0.166765 4
-24.6558 -20.1088 -2.78355 0.0324544 1
-29.1047 -23.7372 1.96829 0.576323 10
-29.115 -23.7456 5.95056 0.569941 10
-27.151 -22.1438 6.81032 0.132135 10
-7.6946 -6.32042 -2.66814 0.0237241 4
-8.93993 -7.34334 -2.67097 0.0169933 4
-10.6333 -8.73433 -2.67481 0.0218082 4
-13.077 -10.7416 -2.68035 0.0185562 4
-16.6164 -13.6489 -2.64029 0.14204 4
-24.5844 -20.1939 -2.78344 0.0324558 1
-29.1802 -23.9689 1.97904 0.577614 10
-29.1905 -23.9774 5.98308 0.571218 10
-27.074 -22.2388 6.81044 0.132132 10
-7.67239 -6.34716 -2.66811 0.0604974 4
-8.9141 -7.37439 -2.67093 0.092692 4
-10.6026 -8.77123 -2.67476 0.0270427 4
-13.0391 -10.7869 -2.68029 0.0235526 4
-16.6534 -13.7769 -2.65379 0.145069 4
-24.5128 -20.2787 -2.78332 0.0324571 1
-29.2565 -24.2031 1.98993 0.578898 10
-29.2669 -24.2117 6.01602 0.572488 10
-26.9967 -22.3336 6.81056 0.13213 10
-7.65009 -6.37381 -2.66807 0.0652432 4
-8.88817 -7.40534 -2.67088 0.0154489 4
-10.5717 -8.80802 -2.67471 0.0161387 4
-13.0011 -10.8321 -2.68023 0.00999223 4
-16.6908 -13.9062 -2.66746 0.0535001 4
-24.4408 -20.3633 -2.78321 0.0324585 1
-29.3336 -24.4399 2.00097 0.580174 10
-29.3441 -24.4486 6.0494 0.573751 10
-26.9191 -22.4281 6.81068 0.132128 10
-7.62769 -6.40039 -2.66804 0.00830379 4
-8.86213 -7.43621 -2.67084 0.0303833 4
-10.5407 -8.84471 -2.67466 0.0235542 4
-12.9629 -10.8772 -2.68016 0.0221262 4
-16.7285 -14.0369 -2.68131 0.141105 4
-24.3686 -20.4477 -2.78309 0.0324598 1
-29.4012 -24.6705 -2.01144 0.581511 10
-29.4047 -24.6734 -0.670014 0.582198 10
-29.4081 -24.6764 0.670093 0.582176 10
-29.4187 -24.6852 4.71534 0.577858 10
-29.4222 -24.6882 6.08323 0.575007 10
-26.8411 -22.5224 6.81081 0.132125 10
-29.4332 -24.6974 10.2952 0.56227 10
-7.6052 -6.42689 -2.668 0.0213529 4
-8.83598 -7.46698 -2.6708 0.0200842 4
-10.5096 -8.88128 -2.67461 0.0187565 4
-16.7666 -14.1688 -2.69532 0.153916 4
-24.296 -20.5317 -2.78298 0.0324612 1
-29.48 -24.9125 -2.02276 0.582774 10
-29.4835 -24.9155 -0.673787 0.583462 10
-29.487 -24.9184 0.673867 0.58344 10
-29.4976 -24.9274 4.74191 0.579113 10
-29.5012 -24.9304 6.11751 0.576256 10
-26.7628 -22.6163 6.81093 0.132123 10
-29.5122 -24.9398 10.3533 0.563491 10
-7.58262 -6.45331 -2.66796 0.0201669 4
-8.80972 -7.49766 -2.67076 0.00669484 4
-10.4783 -8.91774 -2.67456 0.0287895 4
-12.8861 -10.9669 -2.68004 0.0121343 4
-16.805 -14.3022 -2.70952 0.155559 4
-24.2232 -20.6155 -2.78286 0.0324626 1
-29.5597 -25.1572 -2.03425 0.58403 10
-29.5632 -25.1602 -0.677612 0.58472 10
-29.5667 -25.1633 0.677693 0.584697 10
-29.5775 -25.1724 4.76884 0.580361 10
-29.5811 -25.1755 6.15226 0.577498 10
-26.6842 -22.71 6.81106 0.13212 10
-29.5922 -25.1849 10.4121 0.564706 10
-7.55994 -6.47965 -2.66793 0.0379617 4
-8.78335 -7.52824 -2.67071 0.0128749 4
-10.4469 -8.95409 -2.67451 0.0318436 4
-12.8474 -11.0116 -2.67998 0.0149897 4
-16.8439 -14.437 -2.72389 0.157175 4
-24.15 -20.6991 -2.78274 0.032464 1
-29.6403 -25.4048 -2.04588 0.585278 10
-29.6438 -25.4078 -0.681489 0.58597 10
-29.6474 -25.4109 0.681571 0.585947 10
-29.6582 -25.4202 4.79614 0.581602 10
-29.6619 -25.4233 6.18748 0.578733 10
-26.6053 -22.8035 6.81119 0.132118 10
-29.6731 -25.4329 10.4717 0.565913 10
-7.53717 -6.50591 -2.66789 0.0219469 4
-8.75688 -7.55874 -2.67067 0.0360503 4
-10.4154 -8.99033 -2.67446 0.0126504 4
-12.8086 -11.0561 -2.67992 0.0142763 4
-16.8832 -14.5732 -2.73845 0.147856 4
-24.0766 -20.7824 -2.78262 0.0324653 1
-29.7218 -25.6552 -2.05768 0.58652 10
-29.7254 -25.6583 -0.685419 0.587213 10
-29.729 -25.6614 0.685502 0.58719 10
-29.7399 -25.6708 4.82381 0.582835 10
-29.7436 -25.674 6.22318 0.57996 10
-26.526 -22.8966 6.81132 0.132115 10
-29.7549 -25.6837 10.5322 0.567114 10
-7.51431 -6.53209 -2.66785 0.0320311 4
-8.7303 -7.58914 -2.67063 0.0463511 4
-16.9229 -14.7108 -2.7532 0.133804 4
-24.0029 -20.8654 -2.7825 0.0324667 1
-29.8043 -25.9085 -2.06964 0.587754 10
-29.8079 -25.9116 -0.689403 0.588448 10
-29.8116 -25.9148 0.689487 0.588426 10
-29.8225 -25.9243 4.85186 0.584062 10
-29.8262 -25.9276 6.25938 0.581181 10
-26.4464 -22.9895 6.81144 0.132113 10
-29.8377 -25.9375 10.5935 0.568308 10
-7.49136 -6.55819 -2.66781 0.0314384 4
-8.70362 -7.61944 -2.67058 0.0401716 4
-10.352 -9.06248 -2.67435 0.020067 4
-12.7305 -11.1447 -2.67979 0.00928002 4
-16.9525 -14.8408 -2.76643 0.0456617 1
-23.9289 -20.9481 -2.78238 0.0324682 1
-45.2522 -39.6153 -1.04979 0.30069 10
-44.1507 -38.651 1.02424 0.354904 10
-44.2148 -38.7071 7.21529 0.224826 10
-32.2944 -28.2716 6.79803 0.108526 10
-26.3665 -23.0821 6.81157 0.13211 10
-32.5661 -28.5095 11.5974 0.178767 10
-7.46832 -6.58421 -2.66778 0.0278797 4
-8.67683 -7.64965 -2.67054 0.0406873 4
-10.3201 -9.09838 -2.6743 0.0178861 4
-12.6912 -11.1888 -2.67972 0.0253422 4
-16.9001 -14.8994 -2.76635 0.0456631 1
-23.8545 -21.0306 -2.78226 0.0324696 1
-45.4908 -40.1055 -1.05857 0.298925 10
-43.9245 -38.7246 1.02212 0.35282 10
-43.6159 -38.4525 7.13941 0.350113 10
-32.1963 -28.3849 6.79818 0.108524 10
-26.2863 -23.1745 6.8117 0.132108 10
-32.4669 -28.6234 11.5976 0.178765 10
-7.44518 -6.61014 -2.66774 0.00771151 4
-8.64993 -7.67976 -2.6705 0.0118459 4
-10.2881 -9.13417 -2.67425 0.0218128 4
-16.8475 -14.9579 -2.76626 0.0456645 1
-23.78 -21.1128 -2.78214 0.032471 1
-45.4924 -40.39 -1.06188 0.507303 10
-43.6993 -38.798 1.02003 0.350732 10
-43.7042 -38.8024 7.17601 0.348041 10
-32.0978 -28.4977 6.79834 0.108521 10
-26.2057 -23.2665 6.81183 0.132105 10
-32.3672 -28.7369 11.5977 0.178762 10
-7.42196 -6.636 -2.6677 0.0438969 4
-8.62293 -7.70979 -2.67045 0.0247222 4
-10.2559 -9.16985 -2.6742 0.0261758 4
-12.6122 -11.2766 -2.6796 0.0135641 4
-16.7946 -15.0161 -2.76618 0.0456659 1
-23.7051 -21.1948 -2.78201 0.0324724 1
-43.5757 -38.9612 -1.02031 0.508337 10
-43.4749 -38.8711 1.01795 0.34864 10
-43.4799 -38.8755 7.1614 0.345963 10
-31.9989 -28.6103 6.7985 0.108519 10
-26.1249 -23.3583 6.81196 0.132103 10
-32.2671 -28.8502 11.5979 0.17876 10
-7.39864 -6.66177 -2.66766 0.0266945 4
-8.59582 -7.73971 -2.67041 0.0169968 4
-10.2236 -9.20541 -2.67414 0.0362106 4
-12.5724 -11.3203 -2.67953 0.0235592 4
-16.7416 -15.0742 -2.76609 0.0456674 1
-23.6299 -21.2764 -2.78189 0.0324739 1
-43.3005 -38.9879 -1.01705 0.509365 10
-43.2515 -38.9438 1.0159 0.346543 10
-43.2564 -38.9482 7.14695 0.343882 10
-31.8996 -28.7225 6.79867 0.108516 10
-26.0437 -23.4498 6.8121 0.1321 10
-32.1667 -28.963 11.5981 0.178757 10
-7.37524 -6.68746 -2.66763 0.0444914 4
-8.56861 -7.76954 -2.67037 0.0257532 4
-10.1913 -9.24086 -2.67409 0.0209415 4
-12.5325 -11.3638 -2.67947 0.010709 4
-16.6883 -15.132 -2.766 0.0456688 1
-23.5544 -21.3578 -2.78177 0.0324753 1
-43.0274 -39.0148 -1.01382 0.291828 10
-43.029 -39.0163 1.01386 0.344442 10
-43.0339 -39.0207 7.13264 0.341796 10
-31.7999 -28.8343 6.79883 0.108514 10
-25.9622 -23.541 6.81223 0.132098 10
-32.0659 -29.0755 11.5982 0.178755 10
-7.35174 -6.71306 -2.66759 0.00415259 4
-8.54129 -7.79927 -2.67032 0.0453264 4
-10.1587 -9.27619 -2.67404 0.0082895 4
-12.4925 -11.4072 -2.6794 0.014636 4
-23.4787 -21.439 -2.78164 0.0324768 1
-42.8058 -39.087 -1.01181 0.290044 10
-42.8074 -39.0885 1.01185 0.342337 10
-42.8122 -39.0929 7.11848 0.339707 10
-31.6998 -28.9459 6.79899 0.108511 10
-25.8803 -23.632 6.81236 0.132095 10
-31.9646 -29.1877 11.5984 0.178752 10
-7.32816 -6.73859 -2.66755 0.0189835 4
-8.51387 -7.8289 -2.67028 0.0159675 4
-10.1261 -9.31141 -2.67398 0.0301046 4
-12.4523 -11.4505 -2.67933 0.0299867 4
-16.1132 -14.8168 -2.68775 0.0169114 4
-23.4026 -21.5198 -2.78152 0.0324782 1
-42.585 -39.1589 -1.00982 0.288257 10
-42.5866 -39.1604 1.00986 0.340228 10
-42.5914 -39.1648 7.10445 0.337613 10
-31.5993 -29.057 6.79915 0.108508 10
-25.7982 -23.7226 6.8125 0.132092 10
-31.863 -29.2995 11.5986 0.178749 10
-7.30449 -6.76403 -2.66751 0.0409339 4
-8.48635 -7.85844 -2.67023 0.0283299 4
-10.0933 -9.34651 -2.67393 0.0148344 4
-12.4119 -11.4936 -2.67927 0.0299874 4
-16.0608 -14.8725 -2.68767 0.0629344 4
-23.3263 -21.6004 -2.78139 0.0324797 1
-46.2972 -42.8717 -1.10139 0.433695 10
-42.3667 -39.232 1.00788 0.338114 10
-42.3715 -39.2364 7.09057 0.335515 10
-31.4984 -29.1679 6.79932 0.108506 10
-25.7157 -23.813 6.81263 0.13209 10
-31.761 -29.411 11.5987 0.178747 10
-7.28073 -6.78939 -2.66747 0.0533928 4
-8.45872 -7.88788 -2.67018 0.00566608 4
-10.0604 -9.3815 -2.67388 0.017889 4
-12.3714 -11.5365 -2.6792 0.0199921 4
-16.0083 -14.928 -2.68758 0.0521236 4
-23.2497 -21.6807 -2.78126 0.0324812 1
-46.1711 -43.0553 -1.10196 0.778791 10
-42.1477 -39.3034 1.00593 0.335997 10
-42.1524 -39.3078 7.07683 0.333413 10
-31.3972 -29.2784 6.79949 0.108503 10
-25.633 -23.9031 6.81277 0.132087 10
-31.6586 -29.5221 11.5989 0.178744 10
-7.25687 -6.81466 -2.66743 0.0166113 4
-8.43099 -7.91723 -2.67014 0.0406935 4
-10.0274 -9.41636 -2.67382 0.0423235 4
-12.3308 -11.5794 -2.67913 0.0214207 4
-15.9556 -14.9833 -2.68749 0.0540661 4
-23.1728 -21.7607 -2.78114 0.0324827 1
-42.0405 -39.4787 -1.00666 0.515402 10
-41.9295 -39.3744 1.004 0.333875 10
-41.9342 -39.3788 7.06323 0.331306 10
-31.2956 -29.3885 6.79965 0.1085 10
-25.5499 -23.9929 6.8129 0.132085 10
-31.5558 -29.6329 11.5991 0.178742 10
-7.23294 -6.83985 -2.66739 0.028477 4
-8.40316 -7.94647 -2.67009 0.0484209 4
-9.99428 -9.45111 -2.67377 0.015708 4
-12.29 -11.6221 -2.67907 0.0142808 4
-15.9027 -15.0384 -2.68741 0.0144181 4
-23.0957 -21.8405 -2.78101 0.0324842 1
-41.7606 -39.491 -1.00325 0.516386 10
-41.7122 -39.4452 1.00208 0.331749 10
-41.5545 -39.2962 7.02234 0.605023 10
-31.1936 -29.4983 6.79982 0.108498 10
-25.4665 -24.0825 6.81304 0.132082 10
-31.4526 -29.7433 11.5992 0.178739 10
-7.20891 -6.86495 -2.66735 0.00355968 4
-8.37522 -7.97562 -2.67005 0.049452 4
-9.96102 -9.48575 -2.67371 0.0349074 4
-12.249 -11.6646 -2.679 0.0253491 4
-15.8495 -15.0933 -2.68732 0.015805 4
-23.0182 -21.92 -2.78088 0.0324857 1
-41.4941 -39.5143 -1.00015 0.279271 10
-41.4956 -39.5157 1.00019 0.329619 10
-41.5558 -39.573 7.04585 0.208803 10
-31.0912 -29.6077 6.79999 0.108495 10
-25.3828 -24.1717 6.81318 0.132079 10
-31.3491 -29.8533 11.5994 0.178736 10
-7.18479 -6.88997 -2.66731 0.039157 4
-8.34719 -8.00466 -2.67 0.0406956 4
-9.92764 -9.52026 -2.67366 0.023563 4
-12.2079 -11.707 -2.67893 0.0121393 4
-41.2784 -39.5845 -0.998277 0.277463 10
-41.2799 -39.586 0.998314 0.327486 10
-30.9884 -29.7168 6.80016 0.108492 10
-25.2988 -24.2606 6.81332 0.132077 10
-31.2451 -29.963 11.5996 0.178734 10
-7.16059 -6.9149 -2.66727 0.0243252 4
-8.31905 -8.03361 -2.66995 0.0128786 4
-9.89415 -9.55466 -2.6736 0.0331634 4
-12.1667 -11.7492 -2.67886 0.0174953 4
-47.175 -45.5564 -1.14472 0.519301 10
-41.065 -39.656 0.996458 0.325348 10
-41.1245 -39.7135 7.01957 0.206096 10
-30.8853 -29.8256 6.80033 0.10849 10
-25.2144 -24.3493 6.81346 0.132074 10
-31.1408 -30.0723 11.5997 0.178731 10
-7.1363 -6.93975 -2.66723 0.052211 4
-8.29081 -8.06246 -2.66991 0.00824243 4
-9.86053 -9.58894 -2.67354 0.0178912 4
-12.1253 -11.7913 -2.67879 0.0289216 4
-21.2014 -20.6175 -2.58733 0.0287943 4
-40.8494 -39.7243 -0.994585 0.414576 10
-40.8509 -39.7257 0.994621 0.323206 10
-30.7818 -29.9339 6.8005 0.108487 10
-25.1298 -24.4377 6.8136 0.132071 10
-31.0361 -30.1813 11.5999 0.178728 10
-7.11193 -6.96451 -2.66719 0.0261059 4
-8.26247 -8.09121 -2.66986 0.0412129 4
-9.82679 -9.6231 -2.67349 0.00654569 4
-12.0837 -11.8333 -2.67872 0.0524887 4
-40.6361 -39.7938 -0.992767 0.411824 10
-40.3474 -39.5111 0.985715 0.321061 10
-40.3519 -39.5155 6.93461 0.318586 10
-30.6779 -30.042 6.80067 0.108484 10
-25.0449 -24.5257 6.81374 0.132068 10
-30.9311 -30.2899 11.6001 0.178726 10
-7.08746 -6.98919 -2.66715 0.0397527 4
-8.23403 -8.11986 -2.66981 0.0231827 4
-9.79293 -9.65714 -2.67343 0.0536758 4
-12.042 -11.8751 -2.67865 0.0099981 4
-21.055 -20.763 -2.58708 0.0270219 4
-40.759 -40.1938 -0.999193 0.790521 10
-40.1364 -39.5798 0.983928 0.318911 10
-40.1408 -39.5842 6.92204 0.316452 10
-30.5736 -30.1496 6.80084 0.108481 10
-25.0066 -24.6598 6.8267 0.351504 10
-30.8256 -30.3982 11.6003 0.178723 10
-7.06292 -7.01378 -2.66711 0.04806 4
-8.20549 -8.1484 -2.66976 0.0211224 4
-9.75895 -9.69106 -2.67338 0.040585 4
-12.0002 -11.9167 -2.67858 0.0324947 4
-15.5269 -15.4189 -2.68678 0.0185815 4
-47.6762 -47.3445 -1.17281 0.406305 10
-39.9261 -39.6483 0.98216 0.316758 10
-39.9305 -39.6527 6.9096 0.314314 10
-30.4689 -30.2569 6.80102 0.108479 10
-24.9738 -24.8001 6.84135 0.353508 10
-30.7198 -30.506 11.6004 0.17872 10
-7.03828 -7.03828 -2.66707 0.0409406 4
-8.17685 -8.17685 -2.66972 0.00824302 4
-9.72486 -9.72486 -2.67332 0.0113466 4
-47.6761 -47.6761 -1.17689 0.793357 10
-39.7166 -39.7166 0.980411 0.3146 10
-39.7209 -39.7209 6.89729 0.312172 10
-30.3639 -30.3639 6.80119 0.108476 10
-24.941 -24.941 6.85615 0.355508 10
-39.727 -39.727 15.054 0.303625 10
-7.01356 -7.0627 -2.66703 0.0148338 4
-8.14811 -8.20519 -2.66967 0.0618238 4
-9.69065 -9.75853 -2.67326 0.0161474 4
-11.9161 -11.9996 -2.67844 0.0189265 4
-48.171 -48.5085 -1.19328 0.264717 10
-39.5078 -39.7846 0.978679 0.312439 10
-39.5121 -39.7889 6.8851 0.310027 10
-30.2585 -30.4705 6.80137 0.108473 10
-24.9178 -25.0923 6.87381 0.4308 10
-39.5181 -39.795 15.0274 0.301537 10
-6.98876 -7.08703 -2.66699 0.0462822 4
-8.11927 -8.23344 -2.66962 0.0180323 4
-9.65632 -9.79209 -2.6732 0.0135292 4
-15.363 -15.579 -2.68651 0.0177513 4
-20.759 -21.0509 -2.58659 0.0264352 4
-48.3412 -49.0209 -1.20173 0.262883 10
-39.2997 -39.8523 0.976965 0.310274 10
-39.3041 -39.8567 6.87305 0.307878 10
-30.1527 -30.5767 6.80154 0.10847 10
-24.9025 -25.2527 6.89388 0.432605 10
-39.31 -39.8627 15.0011 0.299446 10
-6.96387 -7.11127 -2.66694 0.036789 4
-8.09034 -8.26158 -2.66957 0.0520369 4
-9.62187 -9.82553 -2.67315 0.00916514 4
-11.8314 -12.0818 -2.6783 0.00857093 4
-15.308 -15.632 -2.68641 0.0144234 4
-48.5078 -49.5346 -1.21016 0.261045 10
-39.0924 -39.9199 0.97527 0.308105 10
-39.0967 -39.9242 6.86112 0.305725 10
-30.0466 -30.6826 6.80172 0.108467 10
-24.8872 -25.414 6.91415 0.434405 10
-39.1026 -39.9303 14.9751 0.29735 10
-6.93889 -7.13542 -2.6669 0.0735791 4
-8.0613 -8.28962 -2.66952 0.0221547 4
-9.5873 -9.85884 -2.67309 0.0183307 4
-11.7888 -12.1227 -2.67823 0.0242849 4
-20.6096 -21.1933 -2.58633 0.025254 4
-48.6709 -50.0494 -1.21858 0.259205 10
-38.8858 -39.9872 0.973591 0.305933 10
-38.8901 -39.9915 6.84931 0.303568 10
-29.9401 -30.7881 6.8019 0.108465 10
-24.8718 -25.5762 6.93463 0.4362 10
-38.8959 -39.9976 14.9493 0.295252 10
-6.91383 -7.15948 -2.66686 0.0296695 4
-8.03217 -8.31755 -2.66947 0.0139114 4
-9.55262 -9.89203 -2.67303 0.0322976 4
-20.5344 -21.264 -2.58621 0.027031 4
-48.8304 -50.5653 -1.22699 0.257361 10
-38.6799 -40.0542 0.971931 0.303757 10
-38.6841 -40.0586 6.83763 0.301408 10
-38.6856 -40.0601 8.82044 0.299889 10
-24.8575 -25.7407 6.95566 0.50179 10
-38.69 -40.0646 14.9238 0.293149 10
-6.88869 -7.18346 -2.66682 0.00712078 4
-8.00294 -8.34539 -2.66942 0.00566769 4
-9.51783 -9.9251 -2.67297 0.0401547 4
-11.7033 -12.2041 -2.67809 0.0200004 4
-20.4591 -21.3345 -2.58608 0.0258484 4
-42.3465 -44.1586 -1.06793 0.386835 10
-38.4747 -40.1211 0.970288 0.301577 10
-38.4789 -40.1254 6.82607 0.299244 10
-38.4803 -40.1269 8.80552 0.297736 10
-24.8646 -25.9286 6.98293 0.503356 10
-38.4847 -40.1315 14.8986 0.291043 10
-6.86346 -7.20735 -2.66677 0.0356045 4
-7.97361 -8.37312 -2.66938 0.0221559 4
-9.48291 -9.95804 -2.67291 0.0371002 4
-11.6603 -12.2445 -2.67801 0.0253584 4
-15.0861 -15.842 -2.68604 0.0149803 4
-42.1214 -44.2319 -1.06614 0.384035 10
-38.2702 -40.1877 0.968662 0.299393 10
-38.2744 -40.192 6.81463 0.297076 10
-38.2758 -40.1935 8.79077 0.295579 10
-24.8718 -26.1179 7.01051 0.504916 10
-38.2801 -40.1981 14.8736 0.288934 10
-6.83816 -7.23115 -2.66673 0.0154289 4
-7.94419 -8.40074 -2.66933 0.0365838 4
-9.44789 -9.99086 -2.67285 0.024443 4
-11.6172 -12.2848 -2.67794 0.014644 4
-20.3076 -21.4747 -2.58582 0.0355205 4
-42.2035 -44.6289 -1.07216 0.804314 10
-27.5507 -29.134 0.699908 0.683923 10
-27.5117 -29.0928 4.91642 0.678806 10
-27.4985 -29.0788 6.33883 0.675443 10
-24.879 -26.3088 7.03839 0.506469 10
-27.4822 -29.0616 10.7174 0.602202 10
-6.81276 -7.25485 -2.66669 0.056969 4
-7.91467 -8.42827 -2.66928 0.0190651 4
-9.41275 -10.0236 -2.67279 0.0266261 4
-11.5739 -12.325 -2.67787 0.01393 4
-14.9741 -15.9458 -2.68585 0.0249689 4
-20.2315 -21.5444 -2.5857 0.0278257 4
-27.2423 -29.0101 -2.08562 0.486022 10
-27.2426 -29.0105 -0.694652 0.486567 10
-27.243 -29.0108 0.69466 0.486519 10
-27.2441 -29.012 4.88666 0.482839 10
-27.2444 -29.0124 6.30357 0.480428 10
-24.8863 -26.5012 7.06657 0.508016 10
-27.2464 -29.0145 10.6649 0.281505 10
-6.78729 -7.27847 -2.66665 0.0213637 4
-7.88505 -8.45568 -2.66923 0.0154585 4
-9.37749 -10.0561 -2.67273 0.0165871 4
-11.5305 -12.3649 -2.67779 0.0182167 4
-20.1887 -21.6497 -2.58986 0.0311629 4
-27.0949 -29.0557 -2.08209 0.0593084 10
-27.0963 -29.0572 -0.693503 0.0593478 10
-27.0977 -29.0587 0.693539 0.059315 10
-27.102 -29.0633 4.87935 0.0587836 10
-27.1034 -29.0649 6.29439 0.0584628 10
-24.9095 -26.7122 7.09961 0.558532 10
-27.1079 -29.0696 10.6504 0.0570751 10
-6.76173 -7.302 -2.6666 0.0290789 4
-7.85534 -8.48299 -2.66918 0.0360705 4
-9.34213 -10.0886 -2.67267 0.0200796 4
-11.4869 -12.4048 -2.67772 0.0175028 4
-20.2466 -21.8643 -2.60707 0.0910506 4
-26.9917 -29.1483 -2.08196 0.180152 10
-26.9935 -29.1503 -0.693471 0.18039 10
-26.9953 -29.1523 0.693517 0.180409 10
-27.0008 -29.1582 4.87943 0.179147 10
-27.0027 -29.1602 6.29459 0.178289 10
-24.9456 -26.9387 7.13663 0.559843 10
-27.0084 -29.1664 10.6512 0.174418 10
-6.73609 -7.32544 -2.66656 0.0100888 4
-7.82553 -8.5102 -2.66912 0.0128826 4
-9.30664 -10.1209 -2.67261 0.0397235 4
-11.4433 -12.4444 -2.67765 0.0210754 4
-14.8047 -16.1 -2.68556 0.0213645 4
-20.3053 -22.0819 -2.62453 0.125718 4
-26.9286 -29.2846 -2.08497 0.397418 10
-26.9309 -29.2872 -0.694486 0.397905 10
-26.9333 -29.2897 0.694546 0.397907 10
-26.9403 -29.2974 4.88694 0.395008 10
-26.9427 -29.2999 6.30441 0.393077 10
-24.9819 -27.1677 7.17413 0.561147 10
-26.95 -29.3079 10.6685 0.384423 10
-6.71037 -7.34879 -2.66652 0.0219582 4
-7.79563 -8.5373 -2.66907 0.0463781 4
-9.27105 -10.1531 -2.67255 0.0222631 4
-11.3994 -12.484 -2.67757 0.0107166 4
-14.7479 -16.151 -2.68547 0.0152609 4
-20.3648 -22.3023 -2.64227 0.122179 4
-26.9523 -29.5165 -2.09477 0.663994 10
-26.9584 -29.5232 -0.697848 0.664775 10
-26.9645 -29.5299 0.698005 0.664745 10
-26.9829 -29.5501 4.91336 0.659803 10
-26.9892 -29.5569 6.33939 0.656544 10
-25.0187 -27.399 7.21212 0.562445 10
-27.0084 -29.5779 10.7324 0.641988 10
-6.68457 -7.37205 -2.66647 0.0421368 4
-7.76563 -8.5643 -2.66902 0.0324653 4
-9.23534 -10.1852 -2.67249 0.0148424 4
-11.3555 -12.5233 -2.6775 0.0596573 4
-14.6909 -16.2018 -2.68537 0.0241409 4
-20.425 -22.5256 -2.66027 0.0785222 4
-37.1701 -40.9929 -0.965887 0.536427 10
-37.1223 -40.9402 0.964644 0.284007 10
-37.1276 -40.9461 8.75429 0.28038 10
-25.0811 -27.6606 7.25789 0.606695 10
-37.1318 -40.9506 14.8119 0.27407 10
-6.65868 -7.39521 -2.66643 0.0308612 4
-7.73554 -8.59119 -2.66897 0.0340119 4
-9.19952 -10.2171 -2.67243 0.0362338 4
-11.3114 -12.5625 -2.67742 0.0157185 4
-20.486 -22.7521 -2.67854 0.117866 4
-43.7737 -48.6156 -1.14189 0.361465 10
-36.6619 -40.7172 6.72741 0.279607 10
-36.9269 -41.0114 8.74066 0.278195 10
-36.931 -41.016 14.7888 0.271933 10
-6.63272 -7.41829 -2.66638 0.0278943 4
-7.70536 -8.61797 -2.66892 0.0237058 4
-9.16359 -10.2489 -2.67237 0.0353615 4
-11.2671 -12.6016 -2.67735 0.0164335 4
-14.5764 -16.3028 -2.68517 0.0235876 4
-20.5479 -22.9816 -2.6971 0.139058 4
-36.7202 -41.0693 -0.961623 0.358624 10
-36.7215 -41.0707 0.961656 0.358568 10
-36.6959 -41.0421 6.7599 0.63046 10
-36.7267 -41.0766 8.72717 0.276006 10
-36.7308 -41.0812 14.766 0.269793 10
-6.60667 -7.44127 -2.66634 0.0160246 4
-7.67508 -8.64465 -2.66887 0.0242216 4
-9.12755 -10.2806 -2.67231 0.0117874 4
-11.2228 -12.6405 -2.67727 0.0157194 4
-14.5189 -16.353 -2.68508 0.0172057 4
-36.5207 -41.1342 -0.960154 0.355778 10
-36.522 -41.1357 0.960187 0.355722 10
-36.5259 -41.1401 6.75499 0.275205 10
-36.5272 -41.1416 8.71383 0.273814 10
-36.5299 -41.1446 12.7026 0.270034 10
-36.5313 -41.1462 14.7434 0.267649 10
-6.58055 -7.46416 -2.66629 0.080718 4
-7.64471 -8.67122 -2.66882 0.0231913 4
-9.09139 -10.3122 -2.67225 0.0331802 4
-11.1782 -12.6792 -2.67719 0.0189353 4
-19.5359 -22.1591 -2.58451 0.026259 4
-36.5727 -41.4836 -0.965322 0.817128 10
-25.5739 -29.0079 2.02669 0.659162 10
-36.327 -41.2049 6.74476 0.272999 10
-36.3283 -41.2064 8.70064 0.271619 10
-36.331 -41.2094 12.6834 0.267868 10
-36.3323 -41.211 14.7211 0.265502 10
-6.55434 -7.48696 -2.66625 0.0575719 4
-7.61425 -8.69768 -2.66876 0.0468989 4
-9.05513 -10.3436 -2.67218 0.0135344 4
-19.4574 -22.226 -2.58437 0.0292221 4
-26.146 -29.8663 2.08027 0.683739 10
-36.1287 -41.2695 6.73465 0.27079 10
-36.13 -41.2709 8.6876 0.26942 10
-36.1327 -41.274 12.6644 0.265699 10
-36.134 -41.2755 14.699 0.263352 10
-6.52806 -7.50967 -2.6662 0.0243349 4
-7.58369 -8.72404 -2.66871 0.0566921 4
-9.01876 -10.3749 -2.67212 0.0100419 4
-11.0888 -12.7562 -2.67704 0.0192937 4
-14.3452 -16.5023 -2.68478 0.016375 4
-19.4916 -22.4225 -2.5993 0.112314 4
-35.9284 -41.3309 2.87006 0.270311 10
-35.9297 -41.3324 4.7914 0.269608 10
-35.931 -41.3339 6.72465 0.268577 10
-35.9323 -41.3353 8.67469 0.267219 10
-35.9336 -41.3368 10.6466 0.265535 10
-35.9349 -41.3384 12.6455 0.263527 10
-35.9363 -41.3399 14.6772 0.261199 10
-6.50169 -7.53228 -2.66616 0.0575739 4
-7.55304 -8.75028 -2.66866 0.0283466 4
-8.98228 -10.4061 -2.67206 0.0218306 4
-11.0439 -12.7945 -2.67696 0.0732466 4
-19.5634 -22.6644 -2.61941 0.128668 4
-35.7313 -41.3951 2.86584 0.268081 10
-35.7326 -41.3966 4.78435 0.267384 10
-35.7338 -41.398 6.71476 0.266361 10
-35.7351 -41.3995 8.66194 0.265013 10
-35.7364 -41.401 10.6309 0.263343 10
-35.7378 -41.4026 12.6269 0.261352 10
-35.7391 -41.4041 14.6556 0.259042 10
-6.47525 -7.5548 -2.66611 0.0350198 4
-7.52231 -8.77642 -2.66861 0.0144313 4
-8.94569 -10.4371 -2.672 0.0104789 4
-10.9989 -12.8326 -2.67689 0.0582417 4
-19.6363 -22.91 -2.63986 0.118681 4
-35.5348 -41.4591 2.86167 0.265848 10
-35.536 -41.4606 4.77738 0.265157 10
-35.5373 -41.4621 6.70498 0.264142 10
-35.5386 -41.4636 8.64932 0.262805 10
-35.5399 -41.4651 10.6154 0.261148 10
-35.5412 -41.4666 12.6086 0.259173 10
-35.5425 -41.4681 14.6342 0.256882 10
-6.44873 -7.57723 -2.66607 0.0320525 4
-7.49147 -8.80245 -2.66855 0.0268015 4
-8.90899 -10.468 -2.67193 0.00698613 4
-10.9537 -12.8705 -2.67681 0.0664617 4
-19.7103 -23.1595 -2.66066 0.120429 4
-47.9506 -56.3418 -1.2914 0.338613 10
-35.3388 -41.5229 2.85754 0.263612 10
-35.3401 -41.5244 4.77049 0.262926 10
-35.3413 -41.5259 6.69531 0.261919 10
-35.3426 -41.5274 8.63685 0.260594 10
-35.3438 -41.5289 10.6001 0.25895 10
-35.3451 -41.5304 12.5904 0.256992 10
-35.3465 -41.532 14.6131 0.25472 10
-6.42213 -7.59956 -2.66602 0.00712291 4
-7.46055 -8.82837 -2.6685 0.0164936 4
-8.87219 -10.4988 -2.67187 0.0117894 4
-10.9084 -12.9083 -2.67673 0.0117919 4
-19.7854 -23.4129 -2.68182 0.135409 4
-47.6855 -56.4281 -1.28955 0.335738 10
-35.1434 -41.5866 2.85346 0.261373 10
-35.1446 -41.5881 4.76368 0.260692 10
-35.1459 -41.5895 6.68575 0.259694 10
-35.1471 -41.591 8.62452 0.258379 10
-35.1484 -41.5925 10.585 0.256749 10
-35.1497 -41.594 12.5724 0.254807 10
-35.151 -41.5956 14.5923 0.252554 10
-6.39545 -7.6218 -2.66598 0.0421446 4
-7.42954 -8.85418 -2.66845 0.0242254 4
-8.83528 -10.5295 -2.67181 0.0187761 4
-10.8629 -12.9459 -2.67665 0.0185818 4
-19.8618 -23.6703 -2.70335 0.143988 4
-38.1896 -45.5126 -1.03705 0.332858 10
-34.9485 -41.65 2.84943 0.259131 10
-34.9498 -41.6515 4.75695 0.258455 10
-34.951 -41.653 6.6763 0.257465 10
-34.9523 -41.6545 8.61232 0.256161 10
-34.9535 -41.656 10.57 0.254545 10
-34.9548 -41.6575 12.5546 0.252619 10
-34.9561 -41.6591 14.5716 0.250385 10
-6.3687 -7.64395 -2.66593 0.027899 4
-7.39844 -8.87988 -2.66839 0.0113398 4
-8.79826 -10.56 -2.67174 0.0218332 4
-10.8174 -12.9834 -2.67657 0.0600352 4
-19.9393 -23.9319 -2.72526 0.125412 4
-37.9773 -45.5817 -1.0356 0.329975 10
-34.5061 -41.4155 2.82512 0.256885 10
-34.7555 -41.7148 4.75029 0.256215 10
-34.5086 -41.4184 6.61936 0.255233 10
-34.7579 -41.7178 8.60027 0.25394 10
-34.511 -41.4214 10.4799 0.252338 10
-34.7605 -41.7208 12.537 0.250428 10
-34.5136 -41.4245 14.4473 0.248213 10
-6.34187 -7.666 -2.66588 0.0284931 4
-7.36725 -8.90548 -2.66834 0.0268036 4
-8.76113 -10.5904 -2.67168 0.00655012 4
-13.9341 -16.8434 -2.68407 0.0235974 4
-20.0182 -24.1978 -2.74756 0.111437 4
-38.0366 -45.9783 -1.04158 0.82781 10
-34.5619 -41.7781 2.84161 0.411514 10
-34.5617 -41.7779 4.74371 0.253972 10
