VERSION 0.7
FIELDS x y z intensity label
SIZE 4 4 4 4 4
TYPE F F F F F
COUNT 1 1 1 1 1
WIDTH 1218
HEIGHT 1
VIEWPOINT 1.54835 44.1424 2.72719 0.877428 -8.84291e-05 0.000681256 -0.479708
POINTS 1218
DATA ascii
-32.6721 -9.86428 4.19048 0.517616 10
-32.673 -9.86455 5.40561 0.515052 10
-32.6739 -9.86483 6.63432 0.51186 10
-32.6757 -9.86538 9.14578 0.503611 10
-9.50277 -2.90529 -2.6626 0.0172293 4
-11.0377 -3.37456 -2.66469 0.015995 4
-13.1236 -4.01227 -2.66752 0.0153017 4
-16.1308 -4.93168 -2.6716 0.0433039 4
-19.9722 -6.1061 -2.56432 0.0369924 4
-30.2535 -9.24942 -2.76778 0.0326276 1
-32.767 -10.0179 -1.79571 0.522494 10
-32.7679 -10.0182 -0.5981 0.523101 10
-32.7688 -10.0184 0.598116 0.52307 10
-32.7697 -10.0187 1.79586 0.522402 10
-32.7715 -10.0192 4.20769 0.519159 10
-32.7724 -10.0195 5.4278 0.516587 10
-32.7733 -10.0198 6.66156 0.513386 10
-32.7751 -10.0204 9.18334 0.505111 10
-9.49263 -2.93846 -2.66262 0.0136646 4
-11.0259 -3.41309 -2.6647 0.0185747 4
-13.1096 -4.05809 -2.66754 0.0362866 4
-16.1136 -4.988 -2.67163 0.017894 4
-19.951 -6.17586 -2.56435 0.0303167 4
-30.2216 -9.35514 -2.76783 0.032627 1
-32.8699 -10.1749 1.80328 0.523947 10
-32.8735 -10.176 6.6891 0.514904 10
-9.48236 -2.97159 -2.66263 0.0196056 4
-11.014 -3.45158 -2.66472 0.0190906 4
-13.0954 -4.10386 -2.66756 0.0135527 4
-16.0963 -5.04427 -2.67165 0.0182517 4
-19.9997 -6.26752 -2.57341 0.219374 4
-30.1893 -9.46074 -2.76788 0.0326264 1
-32.9709 -10.3324 1.81079 0.525486 10
-32.9745 -10.3336 6.71696 0.516417 10
-9.47199 -3.00469 -2.66265 0.0665398 4
-11.002 -3.49003 -2.66474 0.0510798 4
-13.0811 -4.14958 -2.66758 0.028854 4
-16.0787 -5.10047 -2.67168 0.00894682 4
-20.0565 -6.36229 -2.58356 0.166837 4
-30.1566 -9.56624 -2.76793 0.0326258 1
-33.0727 -10.4913 1.81838 0.527019 10
-33.0764 -10.4924 6.74513 0.517923 10
-9.46149 -3.03775 -2.66266 0.0273287 4
-10.9898 -3.52844 -2.66476 0.0196063 4
-13.0667 -4.19525 -2.6676 0.0187987 4
-16.061 -5.15662 -2.67171 0.0132412 4
-20.1137 -6.4578 -2.59382 0.141177 4
-30.1236 -9.67162 -2.76797 0.0326252 1
-33.1754 -10.6515 1.82607 0.528545 10
-33.1791 -10.6527 6.77362 0.519423 10
-9.45089 -3.07078 -2.66268 0.0522806 4
-10.9775 -3.5668 -2.66477 0.0149626 4
-13.052 -4.24086 -2.66762 0.0227331 4
-16.043 -5.2127 -2.67173 0.0193248 4
-20.1714 -6.55407 -2.60419 0.180162 4
-30.0901 -9.77687 -2.76802 0.0326247 1
-33.279 -10.813 1.83383 0.530064 10
-33.2827 -10.8142 6.80244 0.520917 10
-9.44016 -3.10377 -2.66269 0.0291107 4
-10.965 -3.60512 -2.66479 0.0159944 4
-13.0373 -4.28643 -2.66764 0.0139895 4
-16.0249 -5.26872 -2.67176 0.0178931 4
-20.2295 -6.65111 -2.61468 0.154639 4
-30.0563 -9.88202 -2.76807 0.0326241 1
-33.3835 -10.9759 1.84169 0.531577 10
-33.3643 -10.9696 6.82689 0.131833 10
-9.42932 -3.13672 -2.66271 0.0867374 4
-10.9525 -3.6434 -2.66481 0.0170262 4
-13.0223 -4.33195 -2.66766 0.0358478 4
-16.0066 -5.32467 -2.67178 0.0125251 4
-20.2881 -6.74894 -2.62528 0.154015 4
-30.0222 -9.98704 -2.76812 0.0326236 1
-33.4888 -11.1402 1.84964 0.533084 10
-33.3255 -11.0859 6.82684 0.131834 10
-9.41837 -3.16963 -2.66272 0.105154 4
-10.9397 -3.68163 -2.66483 0.0144463 4
-13.0072 -4.37741 -2.66769 0.0349732 4
-15.988 -5.38056 -2.67181 0.0121671 4
-20.3471 -6.84756 -2.63599 0.146153 4
-29.9876 -10.0919 -2.76816 0.032623 1
-33.5951 -11.306 1.85768 0.534584 10
-33.2864 -11.2021 6.82679 0.131835 10
-9.4073 -3.2025 -2.66274 0.0231693 4
-10.9269 -3.71982 -2.66484 0.0211534 4
-12.992 -4.42282 -2.6677 0.0144263 4
-15.9693 -5.43639 -2.67183 0.019324 4
-20.4066 -6.94698 -2.64683 0.190231 4
-29.9527 -10.1967 -2.76821 0.0326225 1
-33.7023 -11.4732 1.86581 0.536078 10
-33.2468 -11.3181 6.82674 0.131836 10
-9.39611 -3.23534 -2.66275 0.00712899 4
-10.9139 -3.75796 -2.66486 0.0113506 4
-12.9765 -4.46818 -2.66772 0.0301639 4
-15.9504 -5.49215 -2.67186 0.0168189 4
-20.4666 -7.04721 -2.65778 0.198058 4
-29.9174 -10.3014 -2.76825 0.0326219 1
-33.8105 -11.6419 1.87403 0.537565 10
-33.2069 -11.434 6.82669 0.131837 10
-9.38481 -3.26814 -2.66276 0.0124757 4
-10.9008 -3.79606 -2.66488 0.0170257 4
-12.961 -4.51348 -2.66774 0.0454641 4
-15.9312 -5.54784 -2.67188 0.02326 4
-20.5271 -7.14828 -2.66886 0.187231 4
-29.8818 -10.4059 -2.7683 0.0326214 1
-33.9196 -11.8121 1.88235 0.539045 10
-33.1665 -11.5498 6.82664 0.131838 10
-9.37339 -3.30089 -2.66278 0.0273275 4
-10.8875 -3.83411 -2.66489 0.0268283 4
-12.9452 -4.55873 -2.66776 0.0869932 4
-15.9119 -5.60347 -2.6719 0.0393627 4
-20.588 -7.25019 -2.68006 0.185025 4
-29.8262 -10.5035 -2.76653 0.203858 10
-34.0297 -11.9837 1.89077 0.540519 10
-33.1258 -11.6654 6.82659 0.131839 10
-9.36186 -3.33361 -2.66279 0.0184163 4
-10.8742 -3.87211 -2.66491 0.0268281 4
-12.9293 -4.60392 -2.66778 0.0961728 4
-15.8924 -5.65903 -2.67193 0.00930384 4
-20.6495 -7.35295 -2.69138 0.174326 4
-29.7657 -10.5991 -2.76433 0.0975467 10
-34.1408 -12.157 1.89929 0.541987 10
-33.0846 -11.7809 6.82654 0.13184 10
-9.35021 -3.36628 -2.66281 0.0142577 4
-10.8606 -3.91007 -2.66492 0.0273439 4
-12.9133 -4.64905 -2.6678 0.0834949 4
-15.8727 -5.71451 -2.67195 0.0264799 4
-20.7114 -7.45658 -2.70284 0.196167 4
-29.7112 -10.6967 -2.76272 0.0955301 10
-34.2499 -12.3307 -1.90775 0.543539 10
-34.2509 -12.3311 -0.635417 0.544172 10
-34.2519 -12.3314 0.635435 0.544141 10
-34.2529 -12.3318 1.90791 0.543447 10
-34.2548 -12.3325 4.47024 0.540075 10
-34.2558 -12.3329 5.7665 0.537401 10
-33.0431 -11.8962 6.8265 0.131841 10
-9.33845 -3.39892 -2.66282 0.0148517 4
-10.847 -3.94798 -2.66494 0.025796 4
-12.897 -4.69413 -2.66782 0.0869914 4
-15.8528 -5.76993 -2.67197 0.00894585 4
-20.7739 -7.56109 -2.71442 0.196736 4
-29.6567 -10.7942 -2.76115 0.0935122 10
-34.363 -12.5071 -1.91647 0.544993 10
-34.364 -12.5075 -0.638322 0.545628 10
-34.365 -12.5078 0.638339 0.545597 10
-34.366 -12.5082 1.91663 0.544901 10
-34.368 -12.5089 4.49068 0.541521 10
-34.369 -12.5093 5.79286 0.53884 10
-33.0011 -12.0114 6.82645 0.131842 10
-9.32658 -3.43151 -2.66283 0.0326735 4
-10.8332 -3.98584 -2.66495 0.0273436 4
-12.8807 -4.73916 -2.66784 0.0891765 4
-15.8327 -5.82528 -2.67199 0.0257638 4
-20.8369 -7.66649 -2.72613 0.209883 4
-29.6023 -10.8915 -2.7596 0.0914931 10
-34.4771 -12.6851 -1.92529 0.546441 10
-34.4781 -12.6855 -0.64126 0.547077 10
-34.4791 -12.6858 0.641278 0.547046 10
-34.4801 -12.6862 1.92546 0.546349 10
-34.4821 -12.687 4.51135 0.542959 10
-34.4832 -12.6873 5.81954 0.540271 10
-32.9588 -12.1265 6.8264 0.131842 10
-9.31459 -3.46406 -2.66284 0.0267328 4
-10.8193 -4.02365 -2.66497 0.0113501 4
-12.8641 -4.78412 -2.66785 0.0166112 4
-15.8124 -5.88056 -2.67202 0.0135975 4
-20.9005 -7.77281 -2.73797 0.196436 4
-29.548 -10.9888 -2.7581 0.089473 10
-34.5923 -12.8648 -1.93422 0.547882 10
-34.5933 -12.8651 -0.644234 0.548519 10
-34.5943 -12.8655 0.644252 0.548489 10
-34.5953 -12.8659 1.93439 0.54779 10
-34.5974 -12.8666 4.53228 0.544391 10
-34.5984 -12.867 5.84653 0.541696 10
-32.916 -12.2414 6.82636 0.131843 10
-9.30248 -3.49657 -2.66286 0.0291089 4
-10.8052 -4.06142 -2.66498 0.0149614 4
-12.8474 -4.82903 -2.66787 0.0266652 4
-15.7919 -5.93577 -2.67204 0.012166 4
-20.9645 -7.88005 -2.74995 0.201129 4
-29.4937 -11.086 -2.75663 0.0874517 10
-34.7086 -13.0461 -1.94325 0.549316 10
-34.7096 -13.0465 -0.647244 0.549955 10
-34.7106 -13.0469 0.647262 0.549925 10
-34.7116 -13.0472 1.94342 0.549224 10
-34.7147 -13.0484 5.87384 0.543115 10
-32.8729 -12.3561 6.82631 0.131844 10
-9.29027 -3.52904 -2.66287 0.0142573 4
-10.791 -4.09913 -2.665 0.0118659 4
-12.8306 -4.87388 -2.66789 0.026665 4
-20.9864 -7.97197 -2.75645 0.0458104 1
-29.4395 -11.183 -2.75519 0.0854294 10
-34.8259 -13.2291 -1.9524 0.550744 10
-34.827 -13.2295 -0.650289 0.551385 10
-34.828 -13.2299 0.650308 0.551354 10
-34.829 -13.2303 1.95257 0.550652 10
-34.8321 -13.2315 5.90149 0.544527 10
-32.8293 -12.4707 6.82627 0.131845 10
-9.27794 -3.56147 -2.66288 0.0261383 4
-10.7767 -4.1368 -2.66501 0.0294066 4
-12.8136 -4.91867 -2.66791 0.0292876 4
-20.9586 -8.04526 -2.75648 0.0458099 1
-29.3854 -11.28 -2.75379 0.083406 10
-34.9444 -13.4139 -1.96165 0.552164 10
-34.9454 -13.4143 -0.653372 0.552807 10
-34.9465 -13.4147 0.65339 0.552777 10
-34.9475 -13.4151 1.96182 0.552072 10
-34.9506 -13.4163 5.92947 0.545932 10
-32.7854 -12.5851 6.82623 0.131846 10
-9.26549 -3.59385 -2.6629 0.0261382 4
-10.7623 -4.17441 -2.66503 0.0144453 4
-12.7964 -4.9634 -2.66792 0.0358443 4
-15.7292 -6.10096 -2.6721 0.0246893 4
-20.9306 -8.11846 -2.75651 0.0458094 1
-32.741 -12.6994 6.82618 0.131847 10
-9.25293 -3.62618 -2.66291 0.0207917 4
-10.7477 -4.21198 -2.66504 0.00670669 4
-12.7791 -5.00807 -2.66794 0.00830533 4
-15.708 -6.15588 -2.67212 0.0157438 4
-20.9024 -8.19155 -2.75654 0.045809 1
-32.6963 -12.8135 6.82614 0.131848 10
-9.24026 -3.65848 -2.66292 0.0498997 4
-10.733 -4.24949 -2.66506 0.035081 4
-12.7616 -5.05267 -2.66796 0.0187962 4
-15.6865 -6.21072 -2.67214 0.0150281 4
-20.8739 -8.26454 -2.75656 0.0458085 1
-29.2742 -11.5905 -2.7546 0.0302362 10
-32.6512 -12.9275 6.8261 0.131848 10
-9.22747 -3.69072 -2.66293 0.029108 4
-10.7181 -4.28695 -2.66507 0.0366285 4
-12.744 -5.09722 -2.66797 0.0183589 4
-15.6648 -6.26548 -2.67216 0.035423 4
-20.8451 -8.33744 -2.75659 0.0458081 1
-29.239 -11.6948 -2.75511 0.0322779 10
-32.6057 -13.0413 6.82606 0.131849 10
-9.21458 -3.72293 -2.66294 0.0481172 4
-10.7032 -4.32436 -2.66508 0.0211515 4
-12.7262 -5.14171 -2.66799 0.02273 4
-15.643 -6.32017 -2.67218 0.0271932 4
-29.2038 -11.7991 -2.75566 0.0343194 10
-32.5597 -13.155 6.82602 0.13185 10
-9.20156 -3.75509 -2.66295 0.0213853 4
-10.6881 -4.36172 -2.6651 0.0304374 4
-12.7082 -5.18613 -2.66801 0.0266638 4
-15.6209 -6.37479 -2.6722 0.0186057 4
-20.1998 -8.24338 -2.6788 0.053109 4
-29.1686 -11.9035 -2.75624 0.0363604 10
-52.4628 -21.4097 0.989059 0.567547 10
-52.4692 -21.4123 8.97566 0.560522 10
-32.5134 -13.2685 6.82597 0.131851 10
-9.18844 -3.7872 -2.66297 0.017227 4
-10.6728 -4.39902 -2.66511 0.00980183 4
-12.6901 -5.23049 -2.66802 0.0323461 4
-15.5987 -6.42932 -2.67222 0.0164588 4
-20.1711 -8.31392 -2.67883 0.0528305 4
-29.1333 -12.0079 -2.75685 0.0384009 10
-52.6056 -21.6825 -0.993173 0.509671 10
-52.6085 -21.6836 0.993227 0.397384 10
-52.62 -21.6884 9.01437 0.392504 10
-32.4667 -13.3818 6.82594 0.131852 10
-9.1752 -3.81927 -2.66298 0.0124747 4
-10.6575 -4.43627 -2.66512 0.0314689 4
-12.6719 -5.27479 -2.66804 0.0681887 4
-15.5763 -6.48378 -2.67224 0.0135963 4
-20.1421 -8.38436 -2.67885 0.0461567 4
-29.0981 -12.1124 -2.7575 0.040441 10
-52.5443 -21.8721 -0.993451 0.731491 10
-52.405 -21.8141 0.990817 0.395396 10
-52.4165 -21.8189 8.99249 0.390539 10
-32.4196 -13.495 6.8259 0.131852 10
-9.16185 -3.85129 -2.66299 0.0285134 4
-10.642 -4.47347 -2.66514 0.0082541 4
-12.6534 -5.31902 -2.66805 0.0170471 4
-29.0779 -12.2232 -2.75962 0.145847 10
-52.7334 -22.1671 -0.998484 0.733257 10
-52.2025 -21.9439 0.988431 0.393403 10
-52.214 -21.9487 8.97083 0.38857 10
-32.3721 -13.608 6.82586 0.131853 10
-9.14839 -3.88326 -2.663 0.0190089 4
-10.6263 -4.51061 -2.66515 0.0350797 4
-12.6349 -5.36318 -2.66807 0.0738702 4
-15.5309 -6.59245 -2.67228 0.0296968 4
-20.0835 -8.52492 -2.6789 0.0152926 4
-29.0613 -12.3358 -2.76211 0.147826 10
-53.4027 -22.6681 -1.01265 0.331585 10
-52.001 -22.0731 0.986068 0.391405 10
-52.0124 -22.0779 8.94939 0.386597 10
-32.3243 -13.7208 6.82582 0.131854 10
-9.13482 -3.91519 -2.66301 0.00712829 4
-10.6106 -4.54769 -2.66516 0.0273414 4
-12.6161 -5.40728 -2.66808 0.017484 4
-15.5079 -6.64667 -2.6723 0.0218252 4
-29.0447 -12.4486 -2.76464 0.149804 10
-53.4966 -22.9286 -1.01594 0.329888 10
-51.8005 -22.2017 0.983729 0.389402 10
-51.4532 -22.0528 6.87348 0.570143 10
-51.8118 -22.2065 8.92815 0.384618 10
-32.276 -13.8335 6.82578 0.131854 10
-9.12113 -3.94706 -2.66302 0.0457397 4
-10.5947 -4.58473 -2.66517 0.0180556 4
-12.5973 -5.45132 -2.6681 0.00786775 4
-15.4847 -6.70081 -2.67232 0.0203939 4
-29.028 -12.5616 -2.76722 0.151779 10
-53.6086 -23.1985 -1.0196 0.487798 10
-51.6009 -22.3297 0.981413 0.387394 10
-51.6093 -22.3333 6.9047 0.384529 10
-51.6121 -22.3345 8.90712 0.382635 10
-32.2273 -13.946 6.82575 0.131855 10
-10.5787 -4.6217 -2.66519 0.0144444 4
-12.5782 -5.49529 -2.66811 0.0257886 4
-15.4613 -6.75487 -2.67233 0.0175315 4
-29.0044 -12.6717 -2.76916 0.0326113 1
-51.5296 -22.5127 -0.981546 0.488941 10
-51.4022 -22.4571 0.979119 0.385382 10
-51.4105 -22.4607 6.88856 0.382532 10
-51.4134 -22.4619 8.8863 0.380647 10
-32.1783 -14.0583 6.82571 0.131856 10
-9.09342 -4.01068 -2.66304 0.0118803 4
-10.5625 -4.65862 -2.6652 0.04746 4
-12.559 -5.53919 -2.66813 0.00830475 4
-15.4377 -6.80884 -2.67235 0.0372094 4
-28.9603 -12.773 -2.76919 0.0326109 1
-51.2741 -22.6146 -0.978178 0.490078 10
-51.2128 -22.5875 6.87258 0.380529 10
-51.2155 -22.5887 8.86569 0.378655 10
-32.1288 -14.1705 6.82567 0.131857 10
-9.0794 -4.04241 -2.66305 0.0249486 4
-10.5462 -4.69548 -2.66521 0.0061904 4
-12.5397 -5.58303 -2.66814 0.024477 4
-15.4139 -6.86273 -2.67237 0.00894452 4
-28.9159 -12.8742 -2.76922 0.0326105 1
-51.0174 -22.7144 -0.974787 0.491208 10
-51.019 -22.7151 0.974817 0.491182 10
-51.0159 -22.7137 6.85676 0.378522 10
-51.0186 -22.715 8.84527 0.376658 10
-32.079 -14.2825 6.82564 0.131857 10
-9.06527 -4.07409 -2.66306 0.0219785 4
-10.5298 -4.73229 -2.66522 0.0154759 4
-12.5202 -5.62679 -2.66815 0.0406492 4
-15.39 -6.91654 -2.67239 0.0254023 4
-28.8711 -12.9752 -2.76926 0.0326101 1
-50.809 -22.8345 -0.972322 0.321345 10
-50.8117 -22.8357 0.972373 0.321335 10
-50.8199 -22.8394 6.84109 0.376511 10
-50.8227 -22.8406 8.82506 0.374656 10
-32.0288 -14.3943 6.8256 0.131858 10
-50.8312 -22.8444 14.9324 0.366364 10
-9.05103 -4.10573 -2.66307 0.0100982 4
-10.5133 -4.76904 -2.66523 0.0278566 4
-12.5005 -5.67049 -2.66817 0.030596 4
-15.3659 -6.97026 -2.6724 0.0178888 4
-28.826 -13.076 -2.76929 0.0326098 1
-50.614 -22.9595 -0.970118 0.319625 10
-50.6166 -22.9607 0.970168 0.319614 10
-50.6248 -22.9644 6.82558 0.374495 10
-50.6275 -22.9657 8.80505 0.37265 10
-31.9782 -14.506 6.82557 0.131859 10
-50.636 -22.9695 14.8986 0.364402 10
-9.03667 -4.13731 -2.66308 0.0362345 4
-10.4966 -4.80573 -2.66524 0.0928548 4
-12.4807 -5.71412 -2.66818 0.00699333 4
-15.3415 -7.0239 -2.67242 0.0228975 4
-28.7805 -13.1767 -2.76932 0.0326094 1
-50.4306 -23.0889 6.81022 0.372474 10
-50.4333 -23.0902 8.78523 0.370639 10
-31.9272 -14.6174 6.82554 0.131859 10
-50.4417 -23.094 14.865 0.362436 10
-9.02221 -4.16884 -2.66309 0.0302943 4
-10.4798 -4.84235 -2.66525 0.054681 4
-12.4608 -5.75768 -2.66819 0.0170462 4
-15.317 -7.07745 -2.67243 0.0114487 4
-26.7376 -12.3545 -2.57689 0.0306811 4
-55.2655 -25.5362 -1.06267 0.478667 10
-50.2373 -23.2129 6.79501 0.370449 10
-50.24 -23.2141 8.76562 0.368624 10
-31.8759 -14.7287 6.8255 0.13186 10
-50.2483 -23.218 14.8318 0.360465 10
-9.00763 -4.20033 -2.6631 0.0106921 4
-10.4629 -4.87893 -2.66526 0.0283721 4
-12.4406 -5.80117 -2.66821 0.0371517 4
-15.2923 -7.13091 -2.67245 0.0271905 4
-19.7753 -9.22139 -2.67912 0.0189057 4
-50.1709 -23.3951 -0.966268 0.496771 10
-50.1725 -23.3958 0.966299 0.496745 10
-49.6586 -23.1562 6.72763 0.368419 10
-50.0475 -23.3375 8.74619 0.366604 10
-31.8241 -14.8398 6.82547 0.13186 10
-50.0558 -23.3414 14.799 0.35849 10
-8.99295 -4.23176 -2.66311 0.0172261 4
-10.4458 -4.91544 -2.66527 0.02115 4
-12.4204 -5.84459 -2.66822 0.0590054 4
-15.2674 -7.18429 -2.67247 0.0135952 4
-19.7432 -9.29043 -2.67914 0.0169594 4
-49.9077 -23.4848 -0.962772 0.497866 10
-49.9093 -23.4855 0.962803 0.49784 10
-49.659 -23.3678 6.73871 0.583287 10
-49.8558 -23.4604 8.72696 0.36458 10
-31.772 -14.9507 6.82544 0.131861 10
-49.8641 -23.4643 14.7664 0.35651 10
-8.97815 -4.26314 -2.66312 0.01782 4
-10.4287 -4.95189 -2.66529 0.0361096 4
-12.4 -5.88793 -2.66823 0.0187942 4
-15.2423 -7.23758 -2.67248 0.0153839 4
-26.6077 -12.6342 -2.57697 0.0265235 4
-49.6518 -23.5764 -0.959418 0.310964 10
-49.6545 -23.5777 0.959468 0.310954 10
-49.7342 -23.6155 6.76005 0.232592 10
-49.665 -23.5827 8.70791 0.362551 10
-31.7194 -15.0615 6.82541 0.131862 10
-49.6732 -23.5866 14.7342 0.354526 10
-8.96324 -4.29447 -2.66313 0.0736558 4
-10.4114 -4.98828 -2.6653 0.030951 4
-12.3794 -5.93121 -2.66824 0.0222907 4
-15.217 -7.29079 -2.6725 0.019677 4
-26.5637 -12.7272 -2.577 0.0281067 4
-49.4619 -23.6982 -0.957341 0.309221 10
-49.4645 -23.6994 0.957391 0.30921 10
-49.475 -23.7045 8.68906 0.360518 10
-31.6665 -15.172 6.82538 0.131862 10
-49.1013 -23.5254 14.5888 0.352538 10
-8.94823 -4.32574 -2.66313 0.0291058 4
-10.3939 -5.02461 -2.66531 0.0257924 4
-12.3587 -5.97441 -2.66826 0.0118009 4
-15.1916 -7.3439 -2.67251 0.0182458 4
-26.5193 -12.8199 -2.57702 0.0261271 4
-56.3075 -27.2201 -1.09167 0.307473 10
-49.3545 -23.8589 6.73092 0.22998 10
-49.2859 -23.8257 8.67039 0.35848 10
-31.6132 -15.2824 6.82535 0.131863 10
-48.9136 -23.6457 14.5575 0.350545 10
-8.9331 -4.35696 -2.66314 0.0190078 4
-10.3764 -5.06089 -2.66532 0.0407518 4
-12.3378 -6.01754 -2.66827 0.0231647 4
-15.1659 -7.39692 -2.67252 0.0243277 4
-19.6121 -9.56546 -2.67922 0.0216851 4
-49.0846 -23.9401 -0.953249 0.462847 10
-49.0872 -23.9414 0.953298 0.462831 10
-49.0975 -23.9465 8.65191 0.356439 10
-31.5595 -15.3926 6.82532 0.131863 10
-48.7266 -23.7656 14.5264 0.348548 10
-8.91787 -4.38813 -2.66315 0.0487074 4
-10.3587 -5.09709 -2.66533 0.0386883 4
-12.3168 -6.0606 -2.66828 0.0157344 4
-15.1401 -7.44986 -2.67254 0.0332715 4
-26.4297 -13.005 -2.57707 0.0316686 4
-48.8971 -24.0604 -0.951234 0.46019 10
-48.8997 -24.0616 0.951283 0.460175 10
-48.5299 -23.8797 6.64104 0.356148 10
-48.5325 -23.881 8.56698 0.354392 10
-31.5055 -15.5026 6.82529 0.131864 10
-48.5405 -23.8849 14.4957 0.346547 10
-8.90252 -4.41925 -2.66316 0.0356395 4
-10.3408 -5.13324 -2.66533 0.0273396 4
-12.2956 -6.10358 -2.66829 0.0257869 4
-15.1141 -7.5027 -2.67255 0.027905 4
-19.5451 -9.70228 -2.67925 0.0372534 4
-49.0819 -24.3645 -0.956477 0.763491 10
-49.0836 -24.3653 0.956509 0.763451 10
-48.3446 -23.9985 6.6271 0.354087 10
-48.3472 -23.9998 8.54901 0.352342 10
-31.4511 -15.6124 6.82526 0.131865 10
-48.3551 -24.0037 14.4653 0.344542 10
-8.88707 -4.45031 -2.66317 0.0356393 4
-10.3229 -5.16932 -2.66534 0.0232128 4
-12.2743 -6.14649 -2.6683 0.0192308 4
-15.0879 -7.55545 -2.67257 0.0160989 4
-19.5113 -9.77051 -2.67927 0.0419793 4
-48.1601 -24.1168 6.61331 0.352022 10
-48.1627 -24.1181 8.53121 0.350287 10
-31.3962 -15.7221 6.82523 0.131865 10
-48.1705 -24.122 14.4352 0.342532 10
-8.8715 -4.48132 -2.66318 0.0338573 4
-10.3048 -5.20534 -2.66535 0.00876926 4
-12.2528 -6.18932 -2.66831 0.0227272 4
-15.0615 -7.6081 -2.67258 0.0171721 4
-19.4772 -9.83862 -2.67929 0.0183485 4
-26.2928 -13.2814 -2.57714 0.0277092 4
-47.9763 -24.2346 6.59965 0.349953 10
-47.9789 -24.2359 8.51359 0.348228 10
-31.341 -15.8315 6.8252 0.131866 10
-47.9867 -24.2398 14.4053 0.340519 10
-8.85583 -4.51227 -2.66318 0.0196015 4
-10.2866 -5.2413 -2.66536 0.00670588 4
-12.2311 -6.23208 -2.66832 0.0270977 4
-15.0349 -7.66067 -2.67259 0.0218228 4
-33.3402 -16.9877 -1.96103 0.645426 10
-33.3425 -16.9888 -0.653189 0.646184 10
-33.3448 -16.99 0.653233 0.646155 10
-33.3471 -16.9912 1.96143 0.645339 10
-33.3517 -16.9935 4.59601 0.641343 10
-33.354 -16.9947 5.92898 0.638182 10
-31.2855 -15.9407 6.82518 0.131866 10
-33.3612 -16.9984 10.0326 0.624026 10
-8.84005 -4.54317 -2.66319 0.00890976 4
-10.2683 -5.27719 -2.66537 0.0154751 4
-12.2094 -6.27476 -2.66833 0.0201047 4
-15.0082 -7.71314 -2.67261 0.0118057 4
-33.1541 -17.0389 -1.95356 0.344071 10
-33.1558 -17.0398 -0.650693 0.344479 10
-33.1575 -17.0406 0.650726 0.344467 10
-33.1592 -17.0415 1.95387 0.344035 10
-33.1627 -17.0433 4.57813 0.341916 10
-33.1645 -17.0442 5.90582 0.34023 10
-31.2295 -16.0498 6.82515 0.131867 10
-33.1698 -17.047 9.99288 0.332697 10
-8.82417 -4.57401 -2.6632 0.0635561 4
-10.2499 -5.31302 -2.66538 0.0211492 4
-12.1874 -6.31736 -2.66834 0.0262234 4
-14.9812 -7.76552 -2.67262 0.066541 4
-26.153 -13.5564 -2.57721 0.0326565 4
-33.0507 -17.1318 -1.95098 0.118236 10
-33.0523 -17.1327 -0.649831 0.11838 10
-33.0539 -17.1335 0.649862 0.118379 10
-33.0555 -17.1343 1.95127 0.118234 10
-33.0588 -17.136 4.57201 0.117488 10
-33.0604 -17.1369 5.89791 0.116936 10
-31.1732 -16.1586 6.82513 0.131867 10
-33.0655 -17.1395 9.9794 0.114358 10
-8.80817 -4.6048 -2.6632 0.061774 4
-10.2313 -5.34878 -2.66539 0.0175383 4
-12.1653 -6.35989 -2.66835 0.0354015 4
-14.9541 -7.81781 -2.67263 0.0719069 4
-19.3384 -10.1099 -2.67935 0.032804 4
-32.993 -17.2483 -1.95112 0.122186 10
-32.9946 -17.2491 -0.649876 0.122324 10
-32.9961 -17.2499 0.649905 0.122314 10
-32.9976 -17.2507 1.95139 0.122154 10
-33.0007 -17.2523 4.57228 0.121369 10
-33.0022 -17.2531 5.89824 0.120784 10
-31.1165 -16.2673 6.8251 0.131868 10
-33.007 -17.2556 9.97988 0.118091 10
-8.79206 -4.63553 -2.66321 0.00950367 4
-10.2126 -5.38448 -2.6654 0.0422981 4
-12.1431 -6.40234 -2.66836 0.0148598 4
-14.9268 -7.86999 -2.67264 0.0751263 4
-19.3031 -10.1774 -2.67937 0.0216839 4
-26.0581 -13.7389 -2.57725 0.0271143 4
-32.9816 -17.3892 -1.95402 0.347544 10
-32.983 -17.39 -0.650841 0.347948 10
-32.9845 -17.3907 0.650869 0.347927 10
-32.9859 -17.3915 1.95428 0.347483 10
-32.9888 -17.393 4.57902 0.345325 10
-32.9903 -17.3938 5.90691 0.343614 10
-31.0594 -16.3758 6.82508 0.131868 10
-32.9948 -17.3962 9.99447 0.33598 10
-8.77585 -4.6662 -2.66322 0.0106916 4
-10.1937 -5.42011 -2.6654 0.0159907 4
-12.1207 -6.44471 -2.66837 0.0240379 4
-14.8993 -7.92208 -2.67265 0.0683288 4
-19.2675 -10.2447 -2.67938 0.0183478 4
-33.0755 -17.5865 -1.96321 0.646763 10
-33.0764 -17.587 -0.65389 0.647519 10
-33.0773 -17.5875 0.653908 0.647487 10
-33.0783 -17.588 1.96338 0.646666 10
-33.0802 -17.589 4.6002 0.642662 10
-33.0811 -17.5895 5.93414 0.639484 10
-31.0019 -16.484 6.82505 0.131869 10
-33.0841 -17.5911 10.0401 0.625296 10
-8.75953 -4.69682 -2.66323 0.026135 4
-10.1748 -5.45568 -2.66541 0.0294022 4
-12.0982 -6.487 -2.66838 0.0196673 4
-19.2318 -10.312 -2.6794 0.0269656 4
-25.9857 -13.9334 -2.57965 0.0811724 4
-47.0618 -25.2343 -2.79859 0.432808 10
-59.1409 -31.7111 -1.17134 0.28622 10
-46.7106 -25.046 6.5078 0.33535 10
-46.7131 -25.0473 8.39509 0.333697 10
-30.9901 -16.6167 6.83517 0.578987 10
-46.7206 -25.0513 14.2048 0.326308 10
-8.74311 -4.72738 -2.66323 0.0196012 4
-12.0755 -6.52921 -2.66839 0.0345269 4
-14.8437 -8.02597 -2.67268 0.0196757 4
-26.0832 -14.1031 -2.5942 0.0745081 4
-46.8825 -25.3493 -2.79317 0.430095 10
-47.0154 -25.4211 -0.932936 0.514545 10
-47.017 -25.422 0.932969 0.514519 10
-46.5327 -25.1601 6.4952 0.333248 10
-46.5351 -25.1614 8.37884 0.331605 10
-31.1149 -16.8237 6.87561 0.580185 10
-46.5425 -25.1654 14.1773 0.324262 10
-8.72657 -4.75788 -2.66324 0.0273228 4
-10.1365 -5.52661 -2.66543 0.0330128 4
-12.0527 -6.57135 -2.6684 0.0384602 4
-14.8157 -8.07777 -2.67269 0.0196756 4
-26.1817 -14.2747 -2.60894 0.142 4
-46.7039 -25.4638 -2.78781 0.427377 10
-46.7317 -25.4789 -0.929067 0.515535 10
-46.7334 -25.4799 0.9291 0.515508 10
-46.3554 -25.2738 6.48273 0.331141 10
-46.3578 -25.2751 8.36275 0.329508 10
-31.2794 -17.0541 6.92508 0.627693 10
-46.3652 -25.2791 14.1501 0.322211 10
-8.70993 -4.78832 -2.66324 0.0326685 4
-10.1172 -5.56197 -2.66543 0.0330127 4
-12.0297 -6.6134 -2.66841 0.0201041 4
-14.7875 -8.12947 -2.6727 0.0100166 4
-26.2814 -14.4483 -2.62388 0.154492 4
-46.526 -25.5779 -2.7825 0.424653 10
-46.5284 -25.5792 -0.926795 0.280826 10
-46.5308 -25.5805 0.926841 0.280816 10
-46.1788 -25.387 6.47038 0.32903 10
-46.1812 -25.3883 8.34682 0.327408 10
-31.5026 -17.3187 6.98784 0.628542 10
-46.1885 -25.3924 14.1231 0.320157 10
-8.69318 -4.81871 -2.66325 0.0124734 4
-10.0977 -5.59727 -2.66544 0.0185696 4
-12.0066 -6.65537 -2.66842 0.0126743 4
-14.759 -8.18107 -2.67271 0.0218219 4
-19.0863 -10.5797 -2.67945 0.0169574 4
-26.3822 -14.6239 -2.63902 0.133261 4
-46.3488 -25.6915 -2.77725 0.421924 10
-45.9981 -25.4972 2.75624 0.328944 10
-46.0028 -25.4998 6.45816 0.326916 10
-46.0052 -25.5011 8.33106 0.325303 10
-31.73 -17.5882 7.05184 0.629383 10
-46.0125 -25.5052 14.0964 0.318099 10
-8.67633 -4.84904 -2.66326 0.0267286 4
-10.0782 -5.63249 -2.66545 0.0103164 4
-11.9833 -6.69726 -2.66842 0.0244744 4
-14.7304 -8.23257 -2.67272 0.0193176 4
-19.0493 -10.6463 -2.67947 0.0144554 4
-26.484 -14.8014 -2.65437 0.141593 4
-46.1722 -25.8048 -2.77205 0.41919 10
-46.0402 -25.731 2.76413 0.611212 10
-46.0436 -25.7329 6.47646 0.607426 10
-46.0454 -25.7339 8.35455 0.604422 10
-32.2381 -18.0172 7.1787 0.665493 10
-46.0507 -25.7369 14.1356 0.59101 10
-8.65937 -4.8793 -2.66326 0.0231648 4
-10.0585 -5.66765 -2.66545 0.0211486 4
-11.9599 -6.73907 -2.66843 0.0388968 4
-14.7017 -8.28397 -2.67273 0.0110897 4
-19.0121 -10.7128 -2.67948 0.0239069 4
-26.5871 -14.9811 -2.66992 0.117642 4
-45.9963 -25.9176 -2.7669 0.416451 10
-46.0816 -25.9656 -0.92326 0.519431 10
-46.0833 -25.9666 0.923293 0.519404 10
-46.0056 -25.9228 4.61995 0.323873 10
-46.0745 -25.9616 6.49351 0.205989 10
-46.0103 -25.9255 8.36456 0.321083 10
-46.092 -25.9715 10.2838 0.384177 10
-46.0152 -25.9282 12.1938 0.316729 10
-46.0956 -25.9735 14.1771 0.377992 10
-8.6423 -4.90951 -2.66327 0.0285104 4
-10.0386 -5.70274 -2.66546 0.0128955 4
-11.9364 -6.7808 -2.66844 0.0249113 4
-14.6727 -8.33526 -2.67274 0.0143093 4
-18.9747 -10.7791 -2.67949 0.0289106 4
-26.6913 -15.1628 -2.68569 0.131945 4
-45.821 -26.03 -2.76181 0.413707 10
-45.8233 -26.0313 -0.919901 0.273587 10
-45.8257 -26.0326 0.919947 0.273577 10
-45.8303 -26.0352 4.61145 0.321738 10
-45.8989 -26.0742 6.48155 0.204631 10
-45.835 -26.0379 8.34916 0.318967 10
-45.8398 -26.0406 12.1714 0.314641 10
-8.62513 -4.93965 -2.66327 0.0267285 4
-10.0187 -5.73776 -2.66547 0.0165061 4
-11.9127 -6.82244 -2.66845 0.0384595 4
-14.6436 -8.38646 -2.67274 0.0121628 4
-45.6464 -26.1419 -2.75677 0.410958 10
-60.8735 -34.8625 -1.22447 0.789281 10
-45.301 -25.9441 2.73591 0.320393 10
-45.6556 -26.1472 4.60303 0.3196 10
-45.3056 -25.9467 6.41052 0.318417 10
-45.6603 -26.1499 8.33391 0.316847 10
-45.3103 -25.9494 10.1495 0.31489 10
-45.6651 -26.1526 12.1492 0.31255 10
-45.3151 -25.9522 13.9924 0.309829 10
-8.60785 -4.96974 -2.66328 0.0302922 4
-9.99863 -5.77271 -2.66547 0.0361071 4
-14.6143 -8.43755 -2.67275 0.0239679 4
-18.8992 -10.9114 -2.67951 0.0358599 4
-45.4724 -26.2535 -2.75178 0.408203 10
-45.4747 -26.2548 -0.91656 0.408686 10
-45.477 -26.2562 0.916605 0.408671 10
-45.3215 -26.1664 2.74265 0.615715 10
-45.4816 -26.2588 4.59469 0.317457 10
-45.325 -26.1684 6.42615 0.611902 10
-45.4862 -26.2615 8.31882 0.314723 10
-45.3285 -26.1704 10.174 0.605108 10
-45.491 -26.2642 12.1271 0.310454 10
-45.3322 -26.1725 14.0258 0.595366 10
-8.59047 -4.99977 -2.66328 0.0766213 4
-9.97844 -5.80759 -2.66548 0.00825304 4
-11.8648 -6.90547 -2.66846 0.0135482 4
-14.5848 -8.48854 -2.67276 0.0107318 4
-25.4987 -14.8406 -2.58117 0.096174 4
-45.299 -26.3647 -2.74684 0.405445 10
-45.3013 -26.366 -0.914915 0.405924 10
-45.3036 -26.3673 0.91496 0.405908 10
-45.3059 -26.3686 2.74725 0.316094 10
-45.3082 -26.37 4.58645 0.315311 10
-45.3105 -26.3713 6.4371 0.314145 10
-45.3128 -26.3727 8.30389 0.312595 10
-45.3151 -26.374 10.1916 0.310664 10
-45.3175 -26.3754 12.1054 0.308355 10
-45.3199 -26.3768 14.0504 0.305671 10
-9.95813 -5.8424 -2.66548 0.0154744 4
-11.8407 -6.94687 -2.66847 0.0633703 4
-25.611 -15.0259 -2.59784 0.13756 4
-45.1263 -26.4754 -2.74195 0.402681 10
-45.2964 -26.5752 -0.916684 0.793546 10
-45.2982 -26.5763 0.916718 0.793507 10
-45.1331 -26.4794 2.74236 0.313939 10
-45.1354 -26.4808 4.57828 0.313161 10
-45.1377 -26.4821 6.42565 0.312002 10
-45.14 -26.4834 8.28911 0.310463 10
-45.1423 -26.4848 10.1735 0.308546 10
-45.1447 -26.4862 12.0838 0.306252 10
-45.1471 -26.4876 14.0254 0.303586 10
-8.55538 -5.05964 -2.66329 0.0184128 4
-9.9377 -5.87714 -2.66549 0.0232116 4
-11.8164 -6.98817 -2.66847 0.0270962 4
-14.5252 -8.5902 -2.67278 0.0125204 4
-25.7247 -15.2135 -2.61474 0.141887 4
-44.9542 -26.5858 -2.73711 0.399912 10
-53.9769 -31.9219 -1.0946 0.400384 10
-44.9609 -26.5898 2.73752 0.31178 10
-44.9632 -26.5911 4.57021 0.311008 10
-44.9655 -26.5925 6.41431 0.309857 10
-44.9678 -26.5938 8.27448 0.308328 10
-44.9701 -26.5952 10.1555 0.306424 10
-44.9724 -26.5966 12.0625 0.304146 10
-44.9748 -26.598 14.0007 0.301498 10
-8.53768 -5.08948 -2.6633 0.0623658 4
-9.91714 -5.9118 -2.66549 0.0469389 4
-11.7919 -7.02939 -2.66848 0.0113629 4
-25.8399 -15.4037 -2.63191 0.151327 4
-44.7826 -26.6958 -2.73233 0.397138 10
-54.1615 -32.2867 -1.10062 0.796342 10
-44.7894 -26.6998 2.73274 0.309617 10
-44.7916 -26.7012 4.56221 0.30885 10
-44.7939 -26.7025 6.40309 0.307707 10
-44.7961 -26.7039 8.26 0.306189 10
-44.7985 -26.7052 10.1378 0.304297 10
-44.8008 -26.7066 12.0414 0.302036 10
-44.8032 -26.708 13.9762 0.299406 10
-8.51988 -5.11926 -2.6633 0.0397953 4
-9.89646 -5.94639 -2.6655 0.0252747 4
-11.7673 -7.07053 -2.66849 0.0122369 4
-14.465 -8.69145 -2.67279 0.0178862 4
-18.7062 -11.2398 -2.67956 0.0191805 4
-25.9567 -15.5963 -2.64932 0.122531 4
-44.6117 -26.8054 -2.72759 0.394359 10
-59.5909 -35.8058 -1.21349 0.260792 10
-44.6184 -26.8094 2.728 0.307451 10
-44.6206 -26.8108 4.5543 0.306689 10
-44.6229 -26.8121 6.39198 0.305553 10
-44.6251 -26.8135 8.24568 0.304046 10
-44.6274 -26.8149 10.1202 0.302168 10
-44.6298 -26.8163 12.0205 0.299922 10
-44.6321 -26.8177 13.9519 0.29731 10
-8.50197 -5.14898 -2.66331 0.0617717 4
-9.87566 -5.98091 -2.6655 0.021664 4
-11.7426 -7.11158 -2.66849 0.0104888 4
-26.0749 -15.7915 -2.667 0.0951245 4
-44.4414 -26.9146 -2.7229 0.391576 10
-59.3634 -35.9517 -1.2114 0.258951 10
-44.448 -26.9187 2.72331 0.30528 10
-44.4502 -26.92 4.54647 0.304524 10
-44.4525 -26.9214 6.381 0.303396 10
-44.4547 -26.9227 8.23151 0.301899 10
-44.457 -26.9241 10.1028 0.300034 10
-44.4593 -26.9255 11.9999 0.297804 10
-44.4617 -26.9269 13.9279 0.295211 10
-8.48396 -5.17863 -2.66331 0.0617716 4
-9.85474 -6.01536 -2.66551 0.0165059 4
-11.7177 -7.15254 -2.6685 0.0240367 4
-14.404 -8.79227 -2.67281 0.0121625 4
-18.6274 -11.3702 -2.67958 0.0194584 4
-26.1948 -15.9893 -2.68495 0.110745 4
-44.2716 -27.0235 -2.71826 0.388787 10
-59.1366 -36.0971 -1.20934 0.257107 10
-44.2782 -27.0275 2.71867 0.303106 10
-44.2804 -27.0289 4.53873 0.302355 10
-44.2826 -27.0302 6.37012 0.301235 10
-44.2849 -27.0316 8.21748 0.299749 10
-44.2872 -27.033 10.0856 0.297897 10
-44.2895 -27.0344 11.9794 0.295683 10
-44.2918 -27.0358 13.9042 0.293108 10
-8.46584 -5.20822 -2.66331 0.109288 4
-9.8337 -6.04973 -2.66551 0.0185691 4
-11.6927 -7.19341 -2.6685 0.0380217 4
-14.3733 -8.84251 -2.67281 0.00965847 4
-26.3162 -16.1898 -2.70318 0.0444029 4
-44.1024 -27.132 -2.71367 0.385994 10
-58.9106 -36.242 -1.2073 0.25526 10
-44.109 -27.136 2.71408 0.300928 10
-44.1112 -27.1374 4.53106 0.300183 10
-44.1134 -27.1387 6.35937 0.299071 10
-44.1156 -27.1401 8.2036 0.297595 10
-44.1179 -27.1415 10.0685 0.295757 10
-44.1202 -27.1429 11.9592 0.293558 10
-44.1225 -27.1443 13.8807 0.291001 10
-8.44762 -5.23775 -2.66332 0.105724 4
-9.81254 -6.08403 -2.66552 0.0273378 4
-11.6676 -7.23419 -2.66851 0.00699248 4
-14.3424 -8.89265 -2.67282 0.0203901 4
-26.4393 -16.393 -2.72168 0.132303 4
-43.9338 -27.2401 -2.70913 0.383197 10
-58.6854 -36.3865 -1.20528 0.25341 10
-43.9403 -27.2442 2.70954 0.298747 10
-43.9425 -27.2455 4.52348 0.298007 10
-43.9447 -27.2469 6.34872 0.296903 10
-43.9469 -27.2482 8.18987 0.295438 10
-43.9492 -27.2496 10.0517 0.293612 10
-43.9515 -27.2511 11.9391 0.291429 10
-43.9538 -27.2525 13.8575 0.288891 10
-8.4293 -5.26721 -2.66332 0.131264 4
-9.79126 -6.11825 -2.66552 0.0567387 4
-11.6423 -7.27489 -2.66851 0.0174812 4
-14.3113 -8.94268 -2.67283 0.0286176 4
-18.5075 -11.5648 -2.67961 0.0175124 4
-26.564 -16.599 -2.74047 0.133387 4
-43.7657 -27.3479 -2.70464 0.380394 10
-58.4609 -36.5304 -1.20328 0.251556 10
-43.4344 -27.1408 2.68417 0.296562 10
-43.7744 -27.3533 4.51598 0.295827 10
-43.4388 -27.1436 6.28928 0.294731 10
-43.7788 -27.356 8.17629 0.293277 10
-43.4432 -27.1463 9.95757 0.291465 10
-43.7833 -27.3588 11.9193 0.289297 10
-43.4477 -27.1491 13.7277 0.286778 10
-8.41087 -5.29661 -2.66332 0.127106 4
-9.76986 -6.15241 -2.66552 0.00567386 4
-11.6168 -7.3155 -2.66852 0.030592 4
-14.28 -8.9926 -2.67283 0.0282598 4
-26.6905 -16.8079 -2.75955 0.143338 4
-43.5982 -27.4553 -2.7002 0.377587 10
-47.9746 -30.2112 -0.989608 0.378032 10
-43.4515 -27.3629 2.69111 0.627479 10
-43.6069 -27.4607 4.50855 0.293643 10
-43.4551 -27.3651 6.30543 0.623594 10
-43.6112 -27.4635 8.16284 0.291112 10
-43.4588 -27.3674 9.98298 0.616672 10
-43.6157 -27.4663 11.8997 0.287162 10
-43.4625 -27.3698 13.7625 0.606745 10
-8.39234 -5.32594 -2.66333 0.110475 4
-9.74833 -6.18648 -2.66553 0.00928449 4
-11.5912 -7.35602 -2.66852 0.0135479 4
-14.2486 -9.04241 -2.67284 0.0289752 4
-26.7335 -16.9656 -2.77011 0.0326001 1
-43.4313 -27.5623 -2.6958 0.374775 10
-47.7909 -30.329 -0.987997 0.375217 10
-43.5008 -27.6064 2.70011 0.401224 10
-43.4399 -27.5678 4.50121 0.291456 10
-43.5049 -27.609 6.3266 0.185371 10
-43.4442 -27.5705 8.14954 0.288944 10
-43.5093 -27.6118 10.0167 0.183316 10
-43.4487 -27.5734 11.8804 0.285023 10
-43.5138 -27.6147 13.8092 0.180368 10
-8.37371 -5.35521 -2.66333 0.125324 4
-9.72669 -6.22048 -2.66553 0.0180531 4
-11.5655 -7.39644 -2.66853 0.0266587 4
-14.2169 -9.09211 -2.67284 0.0110892 4
-26.6742 -17.0589 -2.77012 0.0326 1
-43.2649 -27.669 -2.69145 0.371959 10
-47.8972 -30.6316 -0.9924 0.808438 10
-43.2734 -27.6745 4.49394 0.289266 10
-43.2777 -27.6773 8.13639 0.286772 10
-43.2822 -27.6801 11.8612 0.28288 10
-8.35497 -5.38441 -2.66333 0.109881 4
-9.70493 -6.2544 -2.66554 0.0232112 4
-11.5396 -7.43678 -2.66853 0.00786648 4
-14.1851 -9.1417 -2.67285 0.0243247 4
-18.3444 -11.8222 -2.67963 0.0186241 4
-26.6146 -17.1519 -2.77013 0.0325999 1
-43.099 -27.7754 -2.68714 0.369139 10
-57.2376 -36.8871 -1.18859 0.369573 10
-43.1075 -27.7809 4.48675 0.287072 10
-43.1118 -27.7836 8.12337 0.284597 10
-43.1162 -27.7865 11.8422 0.280734 10
-8.33613 -5.41355 -2.66334 0.0332613 4
-9.68305 -6.28825 -2.66554 0.0123793 4
-11.5136 -7.47703 -2.66853 0.0305918 4
-18.3031 -11.8862 -2.67964 0.0289089 4
-26.5547 -17.2448 -2.77014 0.0325998 1
-42.9336 -27.8814 -2.68289 0.366313 10
-57.3323 -37.232 -1.19324 0.811018 10
-42.9421 -27.8869 4.47964 0.284874 10
-42.9464 -27.8897 8.1105 0.282418 10
-42.9507 -27.8925 11.8234 0.278585 10
-8.32513 -5.44781 -2.66588 0.0375855 4
-9.66105 -6.32202 -2.66554 0.0299165 4
-11.4875 -7.51718 -2.66854 0.0323399 4
-14.121 -9.24054 -2.67286 0.0110892 4
-42.7688 -27.9871 -2.67867 0.363484 10
-42.7709 -27.9885 -0.89221 0.240373 10
-42.773 -27.9899 0.892253 0.240363 10
-42.7772 -27.9926 4.47261 0.282673 10
-42.7815 -27.9954 8.09776 0.280236 10
-42.7858 -27.9983 11.8049 0.276432 10
-8.32056 -5.4864 -2.67053 0.0938001 4
-9.63894 -6.35571 -2.66554 0.0371377 4
-11.4612 -7.55724 -2.66854 0.0196661 4
-14.0887 -9.28978 -2.67286 0.0186012 4
-18.2197 -12.0137 -2.67965 0.0202918 4
-25.6873 -16.9377 -2.69193 0.0375982 4
-42.6045 -28.0925 -2.67451 0.36065 10
-42.4128 -27.9661 2.66247 0.633506 10
-42.6129 -28.098 4.46565 0.280469 10
-42.4164 -27.9685 6.23836 0.629585 10
-42.6171 -28.1008 8.08517 0.27805 10
-42.4202 -27.9709 9.87682 0.622597 10
-42.6214 -28.1036 11.7865 0.274276 10
-42.424 -27.9735 13.6162 0.612575 10
-8.31589 -5.52506 -2.67521 0.075658 4
-9.6167 -6.38932 -2.66555 0.0381693 4
-11.4347 -7.59721 -2.66854 0.00568132 4
-14.0562 -9.33892 -2.67286 0.032552 4
-18.1777 -12.0772 -2.67966 0.0305766 4
-25.6281 -17.0273 -2.69193 0.0397749 4
-42.4407 -28.1975 -2.67039 0.357811 10
-42.5228 -28.252 -0.891126 0.538205 10
-42.5246 -28.2533 0.891164 0.538179 10
-42.4469 -28.2017 2.67078 0.278954 10
-42.449 -28.203 4.45877 0.278261 10
-42.4511 -28.2044 6.2579 0.27723 10
-42.4532 -28.2058 8.07271 0.275861 10
-42.4554 -28.2073 9.90788 0.274156 10
-42.4575 -28.2087 11.7683 0.272117 10
-42.4597 -28.2102 13.6592 0.269746 10
-8.31113 -5.56381 -2.67991 0.0658043 4
-9.59435 -6.42285 -2.66555 0.0139266 4
-11.4081 -7.63709 -2.66855 0.0314657 4
-14.0235 -9.38794 -2.67287 0.02504 4
-42.2774 -28.3022 -2.66631 0.354968 10
-42.2794 -28.3036 -0.888092 0.234741 10
-42.2815 -28.305 0.888135 0.234731 10
-42.2836 -28.3064 2.6667 0.276737 10
-42.2857 -28.3078 4.45197 0.27605 10
-42.2877 -28.3092 6.24835 0.275027 10
-42.2898 -28.3106 8.06038 0.273669 10
-42.292 -28.312 9.89275 0.271977 10
-42.2941 -28.3134 11.7504 0.269954 10
-42.2963 -28.3149 13.6384 0.267602 10
-8.30627 -5.60265 -2.68463 0.101519 4
-9.57188 -6.45631 -2.66555 0.0376534 4
-11.3814 -7.67687 -2.66855 0.0122367 4
-13.9907 -9.43684 -2.67287 0.0318365 4
-42.1146 -28.4066 -2.66228 0.352121 10
-42.1207 -28.4108 2.66267 0.274517 10
-42.1228 -28.4122 4.44523 0.273835 10
-42.1249 -28.4136 6.2389 0.27282 10
-42.127 -28.415 8.04819 0.271473 10
-42.1291 -28.4164 9.87779 0.269795 10
-42.1312 -28.4179 11.7326 0.267788 10
-42.1334 -28.4193 13.6177 0.265455 10
-8.30131 -5.64157 -2.68938 0.0976137 4
-9.54929 -6.48969 -2.66555 0.041264 4
-11.3546 -7.71656 -2.66855 0.0205401 4
-13.9577 -9.48563 -2.67287 0.0243245 4
-41.9523 -28.5107 -2.6583 0.349269 10
-50.3724 -34.2331 -1.06308 0.34968 10
-41.9584 -28.5149 2.65868 0.272294 10
-41.9604 -28.5163 4.43858 0.271618 10
-41.9625 -28.5177 6.22956 0.270611 10
-41.9646 -28.5191 8.03614 0.269274 10
-41.9667 -28.5205 9.863 0.267609 10
-41.9688 -28.522 11.715 0.265619 10
-41.971 -28.5234 13.5973 0.263304 10
-8.29626 -5.68057 -2.69415 0.0996724 4
-9.52658 -6.52299 -2.66555 0.0108318 4
-11.3276 -7.75616 -2.66855 0.0231622 4
-13.9245 -9.53431 -2.67287 0.010016 4
-18.0074 -12.3299 -2.67967 0.0164001 4
-41.7904 -28.6145 -2.65435 0.346414 10
-41.795 -28.6176 -0.884162 0.541457 10
-41.7968 -28.6189 0.884201 0.54143 10
-41.7965 -28.6187 2.65474 0.270067 10
-41.7986 -28.6201 4.43199 0.269396 10
-41.8006 -28.6215 6.22032 0.268398 10
-41.8027 -28.6229 8.02422 0.267072 10
-41.8048 -28.6243 9.84837 0.265421 10
-41.8069 -28.6258 11.6976 0.263446 10
-41.809 -28.6272 13.5772 0.261151 10
-8.29111 -5.71965 -2.69894 0.0935553 4
-9.50376 -6.55621 -2.66556 0.0371376 4
-11.3004 -7.79565 -2.66855 0.0179179 4
-41.6291 -28.718 -2.65046 0.343554 10
-41.6311 -28.7194 -0.88281 0.227193 10
-41.6331 -28.7207 0.882852 0.227182 10
-41.6351 -28.7221 2.65084 0.267837 10
-41.6371 -28.7235 4.42548 0.267172 10
-41.6392 -28.7249 6.21118 0.266181 10
-41.6412 -28.7264 8.01243 0.264866 10
-41.6433 -28.7278 9.8339 0.263229 10
-41.6454 -28.7293 11.6805 0.26127 10
-41.6476 -28.7307 13.5572 0.258994 10
-8.28586 -5.75882 -2.70376 0.0844944 4
-9.48082 -6.58934 -2.66556 0.00773699 4
-11.2732 -7.83505 -2.66856 0.0218511 4
-13.8576 -9.6313 -2.67288 0.0157393 4
-41.4682 -28.8211 -2.6466 0.34069 10
-41.4742 -28.8253 2.64699 0.265604 10
-41.4762 -28.8267 4.41905 0.264944 10
-41.4783 -28.8281 6.20215 0.263962 10
-41.4803 -28.8295 8.00078 0.262658 10
-41.4824 -28.831 9.8196 0.261033 10
-41.4845 -28.8324 11.6635 0.259091 10
-41.4866 -28.8339 13.5375 0.256834 10
-8.28051 -5.79807 -2.7086 0.0984006 4
-9.45777 -6.6224 -2.66556 0.0273374 4
-11.2458 -7.87436 -2.66856 0.0345247 4
-13.8239 -9.67962 -2.67288 0.0153816 4
-41.3077 -28.924 -2.64279 0.337821 10
-41.3097 -28.9254 -0.880257 0.338218 10
-41.3117 -28.9268 0.880299 0.338202 10
-40.9949 -28.7049 2.62278 0.263367 10
-40.9969 -28.7063 4.37863 0.262713 10
-40.9989 -28.7077 6.14542 0.261739 10
-41.0009 -28.7092 7.9276 0.260445 10
-41.003 -28.7106 9.72978 0.258835 10
-41.005 -28.712 11.5568 0.256909 10
-41.0071 -28.7135 13.4137 0.25467 10
-8.27506 -5.83741 -2.71347 0.0797609 4
-9.4346 -6.65537 -2.66556 0.0371375 4
-11.2182 -7.91357 -2.66856 0.0471983 4
-13.7901 -9.72782 -2.67288 0.0182433 4
-17.8336 -12.5802 -2.67968 0.0177899 4
-41.1478 -29.0266 -2.63902 0.334949 10
-41.1498 -29.028 -0.879002 0.335342 10
-41.1518 -29.0294 0.879044 0.335327 10
-41.0551 -28.9612 2.63308 0.642026 10
-41.0571 -28.9626 4.39582 0.64043 10
-41.059 -28.9639 6.16954 0.638053 10
-41.0609 -28.9653 7.9587 0.634899 10
-41.0629 -28.9667 9.76793 0.630971 10
-41.0648 -28.9681 11.6021 0.626275 10
-41.0669 -28.9695 13.4662 0.620816 10
-8.26951 -5.87683 -2.71836 0.0914126 4
-9.41131 -6.68827 -2.66556 0.100065 4
-11.1905 -7.95269 -2.66856 0.0253472 4
-13.756 -9.7759 -2.67288 0.0139508 4
-17.7896 -12.6424 -2.67968 0.0264068 4
-41.3028 -29.3524 -2.65552 0.824697 10
-41.3048 -29.3538 -0.884496 0.825664 10
-41.3067 -29.3551 0.884537 0.825624 10
-41.3086 -29.3565 2.65589 0.642934 10
-41.3105 -29.3579 4.43391 0.641335 10
-41.3125 -29.3592 6.22299 0.638955 10
-41.3145 -29.3606 8.02766 0.635797 10
-41.3164 -29.3621 9.85257 0.631864 10
-41.3184 -29.3635 11.7026 0.627161 10
-41.3205 -29.3649 13.5829 0.621694 10
-8.26386 -5.91634 -2.72327 0.102286 4
-9.38791 -6.72108 -2.66556 0.114507 4
-11.1627 -7.9917 -2.66856 0.0550647 4
-13.7218 -9.82386 -2.67288 0.0286169 4
-17.7453 -12.7044 -2.67968 0.0252949 4
-41.5606 -29.7545 -2.67876 0.825851 10
-41.6977 -29.8526 -0.895137 0.217695 10
-41.6997 -29.8541 0.895179 0.217684 10
-41.5665 -29.7587 2.67914 0.643834 10
-41.5685 -29.7601 4.47272 0.642233 10
-41.5704 -29.7615 6.27746 0.639849 10
-41.5724 -29.7629 8.09793 0.636687 10
-41.5745 -29.7644 9.93881 0.632748 10
-41.5765 -29.7659 11.805 0.628039 10
-41.5786 -29.7673 13.7018 0.622564 10
-8.25811 -5.95594 -2.72821 0.0991623 4
-9.36439 -6.75381 -2.66556 0.0902648 4
-11.1347 -8.03062 -2.66856 0.0253472 4
-41.823 -30.1637 -2.70244 0.826995 10
-41.825 -30.1651 -0.900124 0.546892 10
-41.827 -30.1666 0.900166 0.546865 10
-41.8275 -30.1669 2.70273 0.25439 10
-41.831 -30.1694 4.51226 0.643123 10
-41.8315 -30.1698 6.33275 0.252816 10
-41.835 -30.1723 8.16953 0.637569 10
-41.8357 -30.1728 10.0264 0.25001 10
-41.8378 -30.1743 11.9091 0.24815 10
-41.8399 -30.1759 13.8225 0.245987 10
-8.25226 -5.99562 -2.73318 0.0923833 4
-9.34076 -6.78646 -2.66556 0.0840752 4
-11.1066 -8.06944 -2.66856 0.019666 4
-17.6562 -12.828 -2.67968 0.0208475 4
-42.0901 -30.5802 -2.72658 0.828129 10
-42.0921 -30.5817 -0.908164 0.547642 10
-42.0941 -30.5831 0.908206 0.547615 10
-41.6648 -30.2712 2.69903 0.252137 10
-42.0981 -30.5861 4.55257 0.644005 10
-41.6688 -30.2742 6.32408 0.250577 10
-42.0961 -30.5846 8.24132 0.109523 10
-41.6729 -30.2771 10.0126 0.247796 10
-41.675 -30.2787 11.8927 0.245952 10
-41.6771 -30.2802 13.8036 0.243808 10
-8.24631 -6.03538 -2.73817 0.0900194 4
-9.31701 -6.81902 -2.66556 0.0928438 4
-11.0784 -8.10816 -2.66856 0.0471983 4
-42.3619 -31.0042 -2.75118 0.829253 10
-42.381 -31.0182 -0.916728 0.211964 10
-42.383 -31.0197 0.916771 0.211954 10
-41.5622 -30.4189 2.69924 0.646486 10
-42.3701 -31.0102 4.59366 0.644879 10
-41.5663 -30.4219 6.32459 0.642486 10
-41.9891 -30.7314 8.24132 0.109523 10
-41.5704 -30.4249 10.0135 0.635355 10
-41.5725 -30.4265 11.8937 0.630626 10
-41.5746 -30.428 13.8047 0.625129 10
-8.23295 -6.06985 -2.74075 0.0978469 1
-9.29315 -6.8515 -2.66556 0.104191 4
-11.05 -8.14678 -2.66856 0.020977 4
-13.5833 -10.0145 -2.67288 0.0225358 4
-42.6387 -31.436 -2.77627 0.830367 10
-42.6471 -31.4421 4.63556 0.645745 10
-41.8816 -30.8778 8.24133 0.109523 10
-8.21171 -6.09855 -2.74075 0.0978469 1
-9.26918 -6.8839 -2.66556 0.0670538 4
-11.0215 -8.1853 -2.66856 0.0117996 4
-13.5483 -10.0618 -2.67288 0.0100159 4
-17.5209 -13.0122 -2.67968 0.0202915 4
-42.8276 -31.8066 2.79578 0.245362 10
-42.8317 -31.8096 6.55077 0.243844 10
-42.1168 -31.2787 8.30904 0.64102 10
-42.8359 -31.8128 10.3715 0.241137 10
-42.8381 -31.8143 12.319 0.239342 10
-42.8402 -31.816 14.2984 0.237255 10
-8.19037 -6.12718 -2.74075 0.0978469 1
-9.26117 -6.92824 -2.6702 0.0932772 4
-10.9929 -8.22372 -2.66856 0.0301545 4
-13.5131 -10.1091 -2.67288 0.0125199 4
-43.8874 -32.8319 -0.956697 0.31219 10
-43.8895 -32.8335 0.956742 0.312175 10
-42.6602 -31.9139 2.79211 0.243098 10
-42.6643 -31.917 6.54217 0.241593 10
-42.6664 -31.9185 8.4394 0.240398 10
-42.6685 -31.9201 10.3579 0.238911 10
-42.6706 -31.9217 12.3029 0.237132 10
-42.6728 -31.9233 14.2796 0.235065 10
-8.16893 -6.15573 -2.74075 0.0978469 1
-9.25616 -6.97501 -2.67575 0.0989419 4
-10.9641 -8.26204 -2.66856 0.02054 4
-13.4777 -10.1562 -2.67288 0.0132353 4
-43.7156 -32.9421 -0.955454 0.309279 10
-43.7177 -32.9436 0.955498 0.309264 10
-43.662 -32.9017 2.86517 0.414891 10
-43.5091 -32.7865 4.76632 0.648296 10
-43.6664 -32.905 6.7134 0.412324 10
-43.5135 -32.7898 8.62955 0.642698 10
-43.6709 -32.9084 10.6291 0.407748 10
-43.5181 -32.7932 12.5801 0.633969 10
-43.1541 -32.519 14.4786 0.180567 10
-8.14739 -6.1842 -2.74075 0.0978469 1
-9.25103 -7.02191 -2.68134 0.0422225 4
-10.9352 -8.30026 -2.66856 0.0179179 4
-43.8008 -33.2466 -0.959845 0.835699 10
-43.803 -33.2482 0.959892 0.835659 10
-43.8052 -33.2499 2.88217 0.650749 10
-43.8074 -33.2516 4.81168 0.649131 10
-43.8096 -33.2533 6.75322 0.646723 10
-43.8119 -33.255 8.71169 0.643526 10
-43.8142 -33.2568 10.6921 0.639546 10
-43.8165 -33.2585 12.6999 0.634786 10
-43.0404 -32.6694 14.4786 0.180567 10
-7.56104 -5.78085 -2.55027 0.0332611 4
-9.24579 -7.06894 -2.68696 0.0538022 4
-10.9061 -8.33837 -2.66855 0.0458873 4
-13.4065 -10.25 -2.67288 0.0114468 4
-17.3375 -13.2555 -2.67967 0.0177899 4
-43.8846 -33.5523 2.89508 0.236287 10
-44.1114 -33.7257 4.85798 0.649958 10
-43.8888 -33.5555 6.78345 0.234824 10
-44.116 -33.7292 8.79551 0.644346 10
-43.8931 -33.5588 10.7399 0.232216 10
-43.8953 -33.5605 12.7566 0.230487 10
-44.1231 -33.7346 14.8823 0.630054 10
-7.54081 -5.80721 -2.55027 0.0338551 4
-9.24045 -7.1161 -2.69261 0.0582173 4
-10.877 -8.37638 -2.66855 0.00611831 4
-13.3706 -10.2967 -2.67288 0.0125199 4
-17.2911 -13.3159 -2.67967 0.017234 4
-44.6423 -34.3792 -0.983522 0.198503 10
-44.4167 -34.2055 0.978552 0.653225 10
-43.7122 -33.6629 2.89144 0.234011 10
-44.4213 -34.209 4.90523 0.650777 10
-43.7163 -33.6661 6.77491 0.232561 10
-44.426 -34.2126 8.88107 0.645158 10
-43.7206 -33.6694 10.7264 0.229979 10
-43.7228 -33.6711 12.7405 0.228266 10
-44.4332 -34.2181 15.0271 0.630848 10
-7.52049 -5.83349 -2.55027 0.0671162 4
-9.23499 -7.16339 -2.69829 0.0613223 4
-10.8476 -8.4143 -2.66855 0.0139847 4
-13.3345 -10.3433 -2.67287 0.0239668 4
-17.2445 -13.3762 -2.67967 0.0158441 4
-44.7303 -34.6964 -0.988124 0.554089 10
-44.7327 -34.6982 0.988175 0.654039 10
-44.5463 -34.5536 2.95458 0.231732 10
-44.7373 -34.7018 4.95347 0.651588 10
-44.5505 -34.5569 6.92284 0.230296 10
-44.7421 -34.7055 8.96843 0.645962 10
-44.2108 -34.2934 10.876 0.133376 10
-43.8958 -34.0491 12.8255 0.637189 10
-44.7494 -34.7112 15.1749 0.631635 10
-7.50008 -5.8597 -2.55027 0.035043 4
-9.22941 -7.21081 -2.704 0.0940437 4
-10.8182 -8.4521 -2.66855 0.0131107 4
-13.2983 -10.3898 -2.67287 0.0193165 4
-17.1976 -13.4363 -2.67967 0.0308544 4
-45.1932 -35.3088 -1.00107 0.194634 10
-45.0549 -35.2007 0.998001 0.654845 10
-44.3707 -34.6662 2.95094 0.229451 10
-45.0596 -35.2044 5.00273 0.652391 10
-44.375 -34.6695 6.91432 0.228029 10
-45.0645 -35.2082 9.05763 0.646758 10
-44.2097 -34.5404 10.9053 0.642758 10
-44.3815 -34.6746 13.0027 0.223816 10
-45.0719 -35.214 15.3259 0.632413 10
-7.47957 -5.88584 -2.55027 0.011285 4
-9.22373 -7.25836 -2.70974 0.0636342 4
-10.7886 -8.48981 -2.66855 0.0148588 4
-13.262 -10.4362 -2.67287 0.0279017 4
-45.464 -35.7767 -1.00982 0.192697 10
-45.3836 -35.7134 1.00804 0.655643 10
-44.6947 -35.1713 2.98063 0.227166 10
-45.3884 -35.7172 5.05305 0.653186 10
-44.699 -35.1746 6.9839 0.225758 10
