VERSION 0.7
FIELDS x y z intensity label
SIZE 4 4 4 4 4
TYPE F F F F F
COUNT 1 1 1 1 1
WIDTH 1246
HEIGHT 1
VIEWPOINT 11.0457 5.11697 2.72726 0.999997 -8.15312e-05 0.000873568 -0.00247802
POINTS 1246
DATA ascii
0.483516 9.88621 -2.65217 0.00522829 4
0.560055 11.4512 -2.64687 0.101813 4
0.665049 13.5979 -2.64633 0.0286458 4
1.08261 22.1356 -2.72116 0.0464055 1
1.41427 28.917 -2.53293 0.329359 4
0.448924 9.88604 -2.65169 0.00888466 4
0.520096 11.4533 -2.64694 0.0924604 4
0.617601 13.6006 -2.64641 0.0224752 4
0.763823 16.8206 -2.66687 0.00923086 4
1.00319 22.0918 -2.71533 0.01691 4
1.37102 30.192 -2.64418 0.367513 4
0.480122 11.4554 -2.64701 0.105444 4
0.570137 13.6031 -2.64649 0.0832878 4
0.920814 21.97 -2.69994 0.0190892 4
1.30156 31.0543 -2.71929 0.0332101 1
0.379771 9.88569 -2.65082 0.00706851 4
0.440147 11.4573 -2.64708 0.100766 4
0.522669 13.6054 -2.64657 0.0749127 4
0.64128 16.6929 -2.64585 0.00831164 4
0.839366 21.8492 -2.68473 0.0173634 4
1.19324 31.0608 -2.71948 0.0332078 1
0.345214 9.88552 -2.65043 0.00403651 4
0.400163 11.4591 -2.64715 0.0145432 4
0.475192 13.6076 -2.64666 0.0683006 4
0.583032 16.6957 -2.64595 0.0711882 4
0.758821 21.7296 -2.66968 0.0192544 4
1.08489 31.067 -2.71966 0.0332055 1
0.31066 9.88535 -2.65008 0.00351903 4
0.360168 11.4607 -2.64722 0.0327213 4
0.427699 13.6096 -2.64674 0.0735861 4
0.524766 16.6983 -2.64605 0.0776898 4
0.679152 21.6109 -2.6548 0.022595 4
0.975479 31.0402 -2.717 0.0317379 4
0.276121 9.88518 -2.64976 0.00628189 4
0.320171 11.4622 -2.64729 0.0311623 4
0.380205 13.6114 -2.64682 0.0123374 4
0.466496 16.7006 -2.64615 0.0794935 4
0.601513 21.5343 -2.64511 0.0152067 4
0.860241 30.7968 -2.69542 0.0308464 4
1.1936 42.7311 -0.746166 0.634852 9
0.241585 9.88501 -2.64947 0.00689416 4
0.280163 11.4635 -2.64735 0.020255 4
0.332697 13.6131 -2.6469 0.0211492 4
0.408208 16.7028 -2.64625 0.0653989 4
0.526361 21.5373 -2.64524 0.0509682 4
1.04431 42.7304 -0.746085 0.64276 9
0.240155 11.4647 -2.64742 0.0296026 4
0.285188 13.6146 -2.64699 0.0348069 4
0.349919 16.7048 -2.64636 0.00831004 4
0.451206 21.5401 -2.64537 0.0577236 4
0.635124 30.3202 -2.65325 0.0317631 4
0.895069 42.7296 -0.746013 0.619304 9
1.34606 64.2596 5.62322 0.683469 10
1.33969 63.9554 10.1318 0.67764 10
1.33324 63.6474 14.6974 0.66851 10
1.28848 61.5105 16.4853 0.177492 10
0.237666 13.6159 -2.64707 0.0317218 4
0.291613 16.7065 -2.64646 0.00830972 4
0.527387 30.214 -2.64378 0.0400972 4
0.745835 42.7289 -0.74595 0.662476 9
1.07372 61.5133 16.4849 0.177496 10
0.160118 11.4667 -2.64756 0.0124636 4
0.190145 13.6171 -2.64715 0.0308396 4
0.233307 16.7081 -2.64656 0.0368504 4
0.300846 21.5448 -2.64563 0.0233687 4
0.421952 30.2177 -2.64397 0.034453 4
0.858982 61.5152 16.4846 0.1775 10
0.120091 11.4675 -2.64763 0.0332354 4
0.142613 13.6181 -2.64723 0.0145382 4
0.174986 16.7094 -2.64666 0.0158956 4
0.225644 21.5468 -2.64576 0.0284352 4
0.644218 61.5165 16.4842 0.177504 10
0.0800658 11.4682 -2.6477 0.023368 4
0.0950814 13.6189 -2.64732 0.0488998 4
0.116666 16.7106 -2.64676 0.0151725 4
0.150443 21.5485 -2.64589 0.0230849 4
0.429484 61.5169 16.4838 0.177508 10
0.0400374 11.4687 -2.64777 0.0186939 4
0.0475463 13.6196 -2.6474 0.0317178 4
0.0583402 16.7115 -2.64686 0.0303439 4
0.214756 61.5167 16.4834 0.177512 10
8.65891e-07 11.4691 -2.64784 0.0233668 4
1.02829e-06 13.6201 -2.64748 0.0308358 4
1.26174e-06 16.7123 -2.64697 0.0119204 4
4.6443e-06 61.5156 16.4831 0.177516 10
-0.0400323 11.4693 -2.64791 0.0114235 4
-0.0475407 13.6205 -2.64757 0.0114529 4
-0.0583342 16.7128 -2.64707 0.0288967 4
-0.0752253 21.5521 -2.64629 0.0137926 4
-0.214707 61.5139 16.4827 0.17752 10
-0.0800726 11.4694 -2.64798 0.0347888 4
-0.0950913 13.6206 -2.64765 0.0176193 4
-0.116681 16.7132 -2.64717 0.0108359 4
-0.150469 21.5528 -2.64642 0.0140733 4
-0.429436 61.5113 16.4823 0.177524 10
-0.120108 11.4693 -2.64805 0.0202496 4
-0.142637 13.6207 -2.64773 0.0101308 4
-0.175024 16.7133 -2.64727 0.0195038 4
-0.225708 21.5532 -2.64655 0.0202646 4
-0.654524 62.5015 5.46847 0.338659 10
-0.654563 62.5053 9.90041 0.335843 10
-0.654604 62.5091 14.4322 0.331392 10
-0.64412 61.5081 16.4819 0.177528 10
-0.160151 11.4692 -2.64812 0.0269988 4
-0.190191 13.6205 -2.64782 0.0079282 4
-0.300962 21.5534 -2.64668 0.0140719 4
-0.854847 61.2198 -1.0687 0.14297 10
-0.854832 61.2187 1.06868 0.142929 10
-0.871732 62.429 5.46236 0.124689 10
-0.858816 61.504 16.4816 0.177532 10
-0.200187 11.4688 -2.64819 0.0591881 4
-0.237739 13.6202 -2.6479 0.0167368 4
-0.291723 16.713 -2.64748 0.0119181 4
-0.381681 21.8667 -1.91338 0.326646 6
-1.06933 61.2623 -1.0695 0.145311 10
-1.06931 61.2612 1.06948 0.145271 10
-1.09106 62.5075 5.46953 0.349124 10
-1.09097 62.5023 9.9009 0.346074 10
-1.09088 62.4969 14.4308 0.341338 10
-1.07346 61.4993 16.4812 0.177537 10
-0.240229 11.4684 -2.64826 0.0311508 4
-0.285293 13.6197 -2.64798 0.00880856 4
-0.451471 21.5529 -2.64694 0.0261712 4
-0.451292 21.5444 -1.8853 0.276036 6
-1.28416 61.305 -1.07032 0.147652 10
-1.28414 61.3039 1.0703 0.147611 10
-1.28812 61.4937 16.4808 0.177541 10
-0.280265 11.4678 -2.64833 0.0726833 4
-0.332841 13.619 -2.64807 0.0167357 4
-0.408426 16.7118 -2.64768 0.020223 4
-0.526723 21.5523 -2.64708 0.0160396 4
-0.525 21.4817 -1.87997 0.152492 6
-0.586744 24.0082 -1.25859 0.520535 6
-1.4993 61.3477 -1.07115 0.14999 10
-1.49927 61.3465 1.07113 0.14995 10
-1.50271 61.4875 16.4804 0.177545 10
-0.320299 11.467 -2.6484 0.0155746 4
-0.380387 13.6182 -2.64815 0.0281856 4
-0.466773 16.7109 -2.64778 0.0285278 4
-0.599363 21.4578 -1.87804 0.120339 6
-0.619249 22.1697 -1.16232 0.0669039 6
-1.71578 61.4267 -1.07263 0.255953 10
-1.71573 61.4249 1.07259 0.255915 10
-1.71728 61.4804 16.4801 0.177549 10
-0.360337 11.4661 -2.64847 0.0192081 4
-0.427938 13.6172 -2.64823 0.0356713 4
-0.525126 16.7098 -2.64788 0.0137217 4
-0.673471 21.4302 -1.87583 0.110013 6
-1.93293 61.507 -1.07414 0.258174 10
-1.93288 61.5053 1.07411 0.258136 10
-0.400367 11.4651 -2.64854 0.0062295 4
-0.475481 13.6161 -2.64831 0.0251013 4
-0.58347 16.7085 -2.64799 0.0126379 4
-0.747514 21.4062 -1.87394 0.0853425 6
-2.15104 61.5983 -1.07586 0.348753 10
-2.15096 61.5959 1.07581 0.348718 10
-2.11419 60.543 11.7755 0.109273 10
-0.4404 11.4639 -2.64861 0.0129778 4
-0.523027 13.6148 -2.6484 0.0255408 4
-0.64182 16.707 -2.64809 0.0180535 4
-0.821644 21.388 -1.87259 0.0598165 6
-2.37096 61.7179 -1.07809 0.350814 10
-2.37087 61.7155 1.07804 0.350779 10
-2.32887 60.6222 11.7925 0.110205 10
-0.480425 11.4626 -2.64868 0.0238785 4
-0.570563 13.6133 -2.64848 0.02554 4
-0.700158 16.7053 -2.64819 0.0216634 4
-0.903005 21.5451 -2.64773 0.0323526 4
-0.895838 21.3742 -1.87164 0.047013 6
-2.59185 61.84 -1.08037 0.401655 10
-2.59173 61.8371 1.08032 0.401622 10
-2.5444 60.7077 11.8108 0.147766 10
-0.448721 9.88159 -2.65049 0.00482741 4
-0.520451 11.4612 -2.64875 0.0192061 4
-0.7585 16.7034 -2.64829 0.0180521 4
-0.970081 21.3628 -1.87093 0.0358864 6
-2.81483 61.9872 -1.08311 0.403595 10
-2.81469 61.9843 1.08305 0.403562 10
-2.76207 60.8254 11.8355 0.148631 10
-0.48328 9.88142 -2.65088 0.00543693 4
-0.560467 11.4596 -2.64882 0.0134958 4
-0.66563 13.6098 -2.64865 0.0246578 4
-0.816829 16.7013 -2.64839 0.0234668 4
-1.0535 21.5405 -2.648 0.0168779 4
-1.04439 21.3541 -1.87048 0.0180002 6
-3.0389 62.135 -1.08587 0.404733 10
-3.03876 62.1321 1.08582 0.4047 10
-2.98063 60.9436 11.8604 0.149494 10
-0.517855 9.88124 -2.65131 0.00501129 4
-0.600484 11.4579 -2.64889 0.0238766 4
-0.713159 13.6079 -2.64873 0.0180524 4
-3.26413 62.2832 -1.08865 0.406665 10
-3.26398 62.2803 1.0886 0.406632 10
-3.20083 61.0754 11.8881 0.170982 10
-0.552437 9.88107 -2.65176 0.00743539 4
-0.640491 11.456 -2.64896 0.00622851 4
-0.760676 13.6057 -2.64881 0.0308203 4
-1.20398 21.5347 -2.64826 0.0182826 4
-3.4903 62.4286 -1.0914 0.369859 10
-3.49015 62.426 1.09135 0.369825 10
-3.4228 61.2214 11.9188 0.171793 10
-0.587031 9.8809 -2.65225 0.00598568 4
-0.680491 11.454 -2.64903 0.0228373 4
-0.808187 13.6034 -2.6489 0.0189319 4
-0.99179 16.6938 -2.6487 0.0184103 4
-1.268 21.3429 -1.87056 0.0147951 6
-3.7165 62.5562 -1.09385 0.371874 10
-3.71635 62.5536 1.0938 0.37184 10
-3.64593 61.3682 11.9498 0.172891 10
-0.621642 9.88073 -2.65277 0.0132521 4
-0.720491 11.4519 -2.64911 0.0389261 4
-0.855698 13.6009 -2.64898 0.026856 4
-1.0501 16.6909 -2.6488 0.012634 4
-1.35442 21.5279 -2.64853 0.0210932 4
-1.34282 21.3435 -1.871 0.0259751 6
-3.94273 62.668 -1.09604 0.317351 10
-3.9426 62.6659 1.096 0.317314 10
-3.87027 61.5162 11.9812 0.173697 10
-0.656263 9.88056 -2.65332 0.00399288 4
-0.760479 11.4496 -2.64917 0.0290641 4
-0.903194 13.5983 -2.64906 0.0132074 4
-1.1084 16.6878 -2.64891 0.0454808 4
-1.42963 21.5242 -2.64866 0.0194048 4
-1.4178 21.346 -1.87165 0.0386041 6
-4.16906 62.7685 -1.09804 0.319473 10
-4.16892 62.7664 1.098 0.319436 10
-4.09499 61.6533 12.0106 0.158444 10
-0.690904 9.88039 -2.65391 0.00494524 4
-0.800465 11.4472 -2.64925 0.0373671 4
-0.950689 13.5955 -2.64915 0.0246531 4
-1.16669 16.6844 -2.64901 0.0234614 4
-1.49301 21.351 -1.87253 0.0515696 6
-4.39466 62.8466 -1.09967 0.252708 10
-4.39455 62.845 1.09964 0.252669 10
-4.31965 61.7739 12.0369 0.13548 10
-0.725556 9.88021 -2.65452 0.0058219 4
-0.840439 11.4446 -2.64932 0.0275056 4
-1.22497 16.6809 -2.64911 0.0216558 4
-1.56848 21.3587 -1.87368 0.0621603 6
-4.62041 62.9183 -1.1012 0.254933 10
-4.6203 62.9166 1.10117 0.254895 10
-4.5437 61.8736 12.0594 0.136369 10
-0.760229 9.88004 -2.65518 0.0173844 4
-0.880409 11.4419 -2.64939 0.0150498 4
-1.04565 13.5894 -2.64931 0.0308145 4
-1.28324 16.6772 -2.64921 0.0205722 4
-1.64427 21.3692 -1.87509 0.076669 6
-4.84549 62.9727 -1.10244 0.185807 10
-4.8454 62.9716 1.10242 0.185767 10
-0.794914 9.87987 -2.65586 0.0037119 4
-0.920366 11.4391 -2.64946 0.0321747 4
-1.09311 13.5861 -2.6494 0.0171675 4
-1.34149 16.6732 -2.64932 0.0310376 4
-1.72038 21.3823 -1.87676 0.0881554 6
-5.07027 63.0177 -1.10353 0.188112 10
-5.07018 63.0165 1.10351 0.188071 10
-0.829618 9.8797 -2.65657 0.00917678 4
-0.960313 11.4361 -2.64953 0.00830292 4
-1.14056 13.5826 -2.64948 0.0303723 4
-1.39974 16.6691 -2.64942 0.01624 4
-1.80551 21.5013 -2.64932 0.0182753 4
-1.797 21.4 -1.87885 0.11344 6
-5.29532 63.0605 -1.1046 0.124353 10
-5.29525 63.0598 1.10459 0.124312 10
-0.864346 9.87953 -2.65732 0.00810609 4
-1.00026 11.433 -2.6496 0.0337297 4
-1.188 13.579 -2.64957 0.00924346 4
-1.45798 16.6648 -2.64952 0.0129915 4
-1.88065 21.4959 -2.64945 0.0373923 4
-1.87437 21.4241 -1.88153 0.135979 6
-1.89924 21.7084 -1.14204 0.297981 6
-5.51901 63.0826 -1.10532 0.126708 10
-5.51894 63.0819 1.1053 0.126667 10
-0.899089 9.87936 -2.65811 0.0220776 4
-1.04018 11.4297 -2.64967 0.0243885 4
-1.23543 13.5752 -2.64965 0.0149651 4
-1.51619 16.6602 -2.64962 0.0165996 4
-1.95576 21.4903 -2.64958 0.0182735 4
-1.95291 21.4589 -1.88517 0.347497 6
-5.74296 63.1047 -1.10605 0.129062 10
-5.74289 63.104 1.10604 0.12902 10
-0.933857 9.87918 -2.65892 0.0143803 4
-1.08011 11.4263 -2.64974 0.0721259 4
-1.28285 13.5712 -2.64973 0.0308096 4
-1.5744 16.6555 -2.64972 0.0227333 4
-2.03008 21.476 -1.88728 0.170252 6
-0.968643 9.87901 -2.65977 0.00622415 4
-1.12001 11.4228 -2.64981 0.0347648 4
-1.33026 13.5671 -2.64982 0.0294883 4
-1.63259 16.6505 -2.64983 0.01732 4
-2.11419 21.5622 -1.8955 0.314196 6
-1.00346 9.87884 -2.66065 0.027978 4
-1.15991 11.4191 -2.64988 0.0622637 4
-1.37766 13.5628 -2.6499 0.0171643 4
-1.69077 16.6453 -2.64993 0.0173193 4
-2.18103 21.4719 -2.64998 0.0148977 4
-1.03829 9.87867 -2.66156 0.00445909 4
-1.1998 11.4153 -2.64995 0.0321687 4
-1.42503 13.5583 -2.64998 0.0105623 4
-1.74893 16.64 -2.65003 0.0126282 4
-2.25608 21.4652 -2.65011 0.022767 4
-1.07315 9.87849 -2.66251 0.00968909 4
-1.23967 11.4114 -2.65002 0.0658922 4
-1.4724 13.5537 -2.65007 0.021564 4
-1.80708 16.6344 -2.65014 0.0187611 4
-1.10803 9.87832 -2.66349 0.00548382 4
-1.27953 11.4073 -2.65009 0.0238658 4
-1.51975 13.5489 -2.65015 0.0250839 4
-1.8652 16.6287 -2.65024 0.0169565 4
-2.40612 21.4511 -2.65038 0.0224837 4
-1.14294 9.87815 -2.6645 0.0184618 4
-1.31937 11.403 -2.65016 0.0555125 4
-1.56708 13.5439 -2.65023 0.00924113 4
-1.92331 16.6227 -2.65034 0.0259749 4
-1.17788 9.87797 -2.66555 0.00507775 4
-1.35921 11.3987 -2.65023 0.0140075 4
-1.6144 13.5388 -2.65032 0.0272825 4
-1.9814 16.6165 -2.65044 0.0151515 4
-2.55607 21.4359 -2.65064 0.0165801 4
-7.77913 65.2378 5.748 0.581987 10
-7.78764 65.3092 10.4172 0.577024 10
-7.79637 65.3823 15.2016 0.56925 10
-1.21284 9.8778 -2.66663 0.0177896 4
-1.39902 11.3941 -2.6503 0.0150447 4
-1.6617 13.5335 -2.6504 0.0202412 4
-2.03946 16.6101 -2.65055 0.0147901 4
-3.69301 30.0772 -2.65118 0.0371723 4
-7.7691 63.2744 5.57736 0.581751 10
-7.77735 63.3416 10.1077 0.57679 10
-7.7858 63.4104 14.7494 0.569019 10
-1.24783 9.87763 -2.66774 0.00888807 4
-1.43883 11.3895 -2.65037 0.0212695 4
-1.70899 13.528 -2.65048 0.00616017 4
-2.09752 16.6036 -2.65065 0.00829659 4
-2.70593 21.4196 -2.6509 0.0188264 4
-1.28285 9.87745 -2.66888 0.0116363 4
-1.47861 11.3847 -2.65044 0.0217877 4
-1.75625 13.5224 -2.65057 0.0158399 4
-2.15554 16.5968 -2.65075 0.0119033 4
-2.78082 21.4111 -2.65104 0.0255689 4
-1.31791 9.87728 -2.67006 0.0153776 4
-1.51839 11.3798 -2.65051 0.0306057 4
-1.8035 13.5166 -2.65065 0.0202393 4
-2.21355 16.5898 -2.65085 0.0245271 4
-1.35299 9.87711 -2.67128 0.0099444 4
-1.55814 11.3747 -2.65058 0.0285299 4
-1.85073 13.5107 -2.65073 0.0224385 4
-2.27153 16.5826 -2.65095 0.0288544 4
-1.38811 9.87693 -2.67253 0.028218 4
-1.59788 11.3695 -2.65065 0.0165988 4
-1.89794 13.5046 -2.65082 0.0153985 4
-2.3295 16.5752 -2.65106 0.0173119 4
-1.42326 9.87676 -2.67381 0.0412581 4
-1.6376 11.3642 -2.65072 0.0695056 4
-1.94513 13.4983 -2.6509 0.0171578 4
-2.38743 16.5676 -2.65116 0.0108195 4
-1.45844 9.87659 -2.67512 0.0135707 4
-1.6773 11.3587 -2.65079 0.0311211 4
-1.9923 13.4918 -2.65099 0.0281555 4
-2.44534 16.5598 -2.65126 0.032818 4
-1.49367 9.87641 -2.67647 0.014225 4
-1.71699 11.353 -2.65086 0.0197095 4
-2.03945 13.4852 -2.65107 0.0184764 4
-2.50323 16.5518 -2.65136 0.0212768 4
-3.22958 21.3546 -2.65183 0.0193816 4
-1.52892 9.87624 -2.67785 0.0152255 4
-1.75665 11.3473 -2.65093 0.0679441 4
-2.08657 13.4784 -2.65115 0.00967783 4
-2.56109 16.5436 -2.65147 0.0129819 4
-1.56421 9.87606 -2.67927 0.0281104 4
-1.7963 11.3414 -2.651 0.0197085 4
-2.13368 13.4715 -2.65124 0.0224343 4
-2.61892 16.5352 -2.65157 0.016948 4
-1.59954 9.87589 -2.68072 0.0142009 4
-1.83592 11.3353 -2.65107 0.0456394 4
-2.18075 13.4644 -2.65132 0.0193545 4
-2.67673 16.5266 -2.65167 0.019832 4
-1.63491 9.87571 -2.68221 0.0092052 4
-1.87553 11.3292 -2.65114 0.0248936 4
-2.22781 13.4571 -2.6514 0.0294706 4
-2.73451 16.5178 -2.65177 0.0274032 4
-3.52812 21.3117 -2.65236 0.0266795 4
-1.67032 9.87554 -2.68372 0.0155541 4
-1.91511 11.3228 -2.65121 0.0160767 4
-2.27484 13.4497 -2.65149 0.0325486 4
-2.79226 16.5088 -2.65188 0.0173066 4
-1.70577 9.87536 -2.68528 0.0269659 4
-1.95468 11.3164 -2.65128 0.0197064 4
-2.32185 13.4421 -2.65157 0.0197925 4
-2.84998 16.4996 -2.65198 0.0237956 4
-1.74126 9.87519 -2.68687 0.0131972 4
-1.99422 11.3098 -2.65135 0.0280031 4
-2.36883 13.4343 -2.65165 0.0219909 4
-2.90766 16.4902 -2.65208 0.0234342 4
-3.75166 21.2767 -2.65275 0.0168477 4
-1.77679 9.87501 -2.68849 0.0215447 4
-2.03374 11.3031 -2.65142 0.0248909 4
-2.41579 13.4264 -2.65174 0.040462 4
-2.96532 16.4806 -2.65218 0.0122574 4
-3.82609 21.2646 -2.65289 0.0202162 4
-11.3476 63.0677 -1.11853 0.118187 10
-11.3476 63.0673 1.11852 0.118143 10
-2.07324 11.2962 -2.65149 0.0347427 4
-2.46272 13.4183 -2.65182 0.0299058 4
-3.02295 16.4708 -2.65229 0.0104545 4
-11.5749 63.0666 -1.11922 0.120546 10
-11.5748 63.0662 1.11921 0.120502 10
-1.84764 9.87281 -2.69134 0.124105 4
-2.11271 11.2892 -2.65156 0.0352603 4
-2.50962 13.41 -2.6519 0.0233082 4
-3.08054 16.4608 -2.65239 0.0162218 4
-3.97485 21.2394 -2.65315 0.0221795 4
-11.8024 63.0654 -1.11992 0.122901 10
-11.8023 63.0651 1.11992 0.122859 10
-1.88214 9.86652 -2.6914 0.115153 4
-2.15217 11.282 -2.65163 0.0165926 4
-3.13811 16.4505 -2.65249 0.0299191 4
-4.04917 21.2265 -2.65328 0.0140369 4
-12.0302 63.0643 -1.12064 0.125257 10
-12.0301 63.0639 1.12063 0.125215 10
-1.91661 9.86012 -2.69146 0.112763 4
-2.19159 11.2748 -2.6517 0.0212588 4
-2.60334 13.393 -2.65207 0.0620047 4
-3.19563 16.4401 -2.65259 0.0212669 4
-4.12344 21.2133 -2.65341 0.0154399 4
-12.2582 63.0632 -1.12137 0.127613 10
-12.2582 63.0628 1.12137 0.127571 10
-1.95106 9.85359 -2.69152 0.115744 4
-2.23099 11.2673 -2.65177 0.0228137 4
-2.65016 13.3843 -2.65215 0.0105537 4
-3.25313 16.4295 -2.6527 0.0223475 4
-12.4866 63.062 -1.12212 0.129966 10
-12.4866 63.0617 1.12212 0.129924 10
-1.98549 9.84695 -2.69158 0.13006 4
-2.27037 11.2598 -2.65184 0.0445892 4
-2.69695 13.3754 -2.65224 0.0123122 4
-3.31058 16.4187 -2.6528 0.0158589 4
-12.7153 63.0609 -1.12289 0.132317 10
-12.7152 63.0605 1.12288 0.132275 10
-2.0199 9.84018 -2.69164 0.121108 4
-2.30972 11.2521 -2.65191 0.044588 4
-2.74371 13.3663 -2.65232 0.0153898 4
-3.36801 16.4076 -2.6529 0.0284728 4
-4.34601 21.1721 -2.65381 0.016841 4
-12.9443 63.0598 -1.12366 0.134667 10
-12.9442 63.0594 1.12366 0.134625 10
-2.05428 9.83329 -2.69171 0.115736 4
-2.34905 11.2443 -2.65198 0.0181458 4
-3.42539 16.3964 -2.653 0.0302737 4
-13.1736 63.0586 -1.12446 0.137014 10
-13.1736 63.0583 1.12445 0.136972 10
-2.08864 9.82629 -2.69177 0.118716 4
-2.38834 11.2363 -2.65205 0.0456225 4
-2.83713 13.3477 -2.65248 0.0197856 4
-3.48273 16.385 -2.6531 0.0129739 4
-6.31138 29.6928 -2.65582 0.0403167 4
-13.4033 63.0575 -1.12526 0.13936 10
-13.4032 63.0571 1.12526 0.139319 10
-2.12298 9.81916 -2.69183 0.119907 4
-2.42762 11.2282 -2.65212 0.0311055 4
-2.8838 13.3381 -2.65257 0.01319 4
-3.54005 16.3734 -2.65321 0.0634257 4
-4.56816 21.1286 -2.65421 0.0235738 4
-13.6333 63.0564 -1.12608 0.141705 10
-13.6332 63.056 1.12608 0.141663 10
-13.6331 63.0556 3.38096 0.121189 10
-13.633 63.0553 5.64409 0.120857 10
-2.15729 9.81191 -2.69189 0.113939 4
-2.46686 11.2199 -2.65219 0.0393992 4
-2.93043 13.3284 -2.65265 0.0237413 4
-3.59731 16.3615 -2.65331 0.0580179 4
-4.64211 21.1136 -2.65434 0.0218889 4
-13.8636 63.0552 -1.12692 0.144048 10
-13.8635 63.0549 1.12691 0.144006 10
-13.8634 63.0545 3.38348 0.123193 10
-13.8633 63.0541 5.64828 0.122857 10
-13.8633 63.0538 7.92695 0.122371 10
-2.19158 9.80454 -2.69195 0.131832 4
-2.50608 11.2115 -2.65226 0.0139967 4
-3.65455 16.3495 -2.65341 0.0619795 4
-4.71602 21.0983 -2.65447 0.0202041 4
-14.0943 63.0541 -1.12777 0.146389 10
-14.0942 63.0537 1.12777 0.146347 10
-14.0941 63.0534 3.38603 0.125197 10
-14.094 63.053 5.65255 0.124856 10
-14.0939 63.0526 7.93294 0.124362 10
-14.0939 63.0523 10.2329 0.123718 10
-2.22583 9.79706 -2.69201 0.118109 4
-2.54526 11.203 -2.65233 0.0388788 4
-3.02359 13.3084 -2.65282 0.0259379 4
-3.71173 16.3373 -2.65351 0.070625 4
-4.78987 21.0827 -2.6546 0.0246927 4
-14.3253 63.0529 -1.12864 0.148728 10
-14.3252 63.0526 1.12863 0.148686 10
-14.3251 63.0522 3.38864 0.127199 10
-14.325 63.0519 5.6569 0.126853 10
-14.3249 63.0515 7.93904 0.126352 10
-14.3248 63.0511 10.2408 0.125697 10
-14.3248 63.0508 12.5682 0.12489 10
-2.26007 9.78945 -2.69207 0.108562 4
-2.58442 11.1944 -2.6524 0.0207348 4
-3.07013 13.2982 -2.6529 0.00703379 4
-3.76889 16.3248 -2.65361 0.0216191 4
-4.86368 21.0669 -2.65473 0.014871 4
-14.5567 63.0518 -1.12952 0.151066 10
-14.5566 63.0514 1.12952 0.151024 10
-14.5565 63.0511 3.39129 0.129199 10
-14.5564 63.0507 5.66132 0.128848 10
-14.5563 63.0503 7.94524 0.12834 10
-14.5562 63.05 10.2488 0.127676 10
-14.5562 63.0496 12.578 0.126856 10
-2.29428 9.78172 -2.69213 0.110946 4
-2.62355 11.1856 -2.65247 0.014514 4
-3.11662 13.2878 -2.65298 0.0180235 4
-3.82599 16.3122 -2.65372 0.0302656 4
-4.93743 21.0508 -2.65486 0.0415246 4
-14.7884 63.0506 -1.13042 0.153401 10
-14.7883 63.0503 1.13041 0.153359 10
-14.7882 63.0499 3.39398 0.131197 10
-14.7881 63.0496 5.66582 0.130842 10
-14.788 63.0492 7.95156 0.130326 10
-14.788 63.0488 10.257 0.129652 10
-14.7879 63.0485 12.588 0.12882 10
-14.7878 63.0481 14.9508 0.127832 10
-2.32846 9.77387 -2.69219 0.113926 4
-2.66265 11.1766 -2.65254 0.0316189 4
-3.16309 13.2773 -2.65307 0.0101104 4
-15.0212 63.0527 -1.13139 0.188333 10
-15.0211 63.0521 1.13138 0.188292 10
-15.6484 65.6853 5.90754 0.15504 10
-15.6482 65.6845 10.6946 0.153633 10
-15.6481 65.6838 15.5887 0.151476 10
-15.0202 63.0481 17.3665 0.181621 10
-2.36262 9.76591 -2.69226 0.125256 4
-2.70172 11.1676 -2.65261 0.0564978 4
-3.20952 13.2666 -2.65315 0.0197807 4
-3.94008 16.2864 -2.65392 0.0122494 4
-5.08477 21.0179 -2.65513 0.0235657 4
-15.2566 63.0631 -1.13252 0.190636 10
-15.2564 63.0625 1.13251 0.190594 10
-15.8906 65.6841 5.91239 0.157364 10
-15.8905 65.6833 10.7033 0.155936 10
-15.8903 65.6825 15.6015 0.153749 10
-15.2554 63.0585 17.3839 0.183845 10
-2.39675 9.75782 -2.69232 0.125253 4
-2.74075 11.1584 -2.65268 0.0228059 4
-3.2559 13.2557 -2.65323 0.0272525 4
-3.99706 16.2731 -2.65402 0.00900657 4
-15.4923 63.0735 -1.13368 0.192935 10
-15.4922 63.0729 1.13367 0.192894 10
-16.1332 65.6829 5.91731 0.159685 10
-16.1331 65.6821 10.7122 0.158238 10
-16.1329 65.6813 15.6145 0.156019 10
-15.4912 63.0689 17.4016 0.186067 10
-2.43085 9.74962 -2.69238 0.114514 4
-2.77976 11.149 -2.65275 0.0253968 4
-3.30226 13.2447 -2.65331 0.0351634 4
-4.054 16.2597 -2.65412 0.0353044 4
-5.2319 20.984 -2.65539 0.0311373 4
-15.7286 63.0839 -1.13484 0.195233 10
-15.7284 63.0833 1.13483 0.195192 10
-16.3763 65.6817 5.92232 0.162005 10
-16.3761 65.6809 10.7213 0.160537 10
-16.3759 65.6801 15.6277 0.158288 10
-15.7274 63.0793 17.4195 0.188286 10
-2.46492 9.74129 -2.69244 0.116301 4
-2.81873 11.1395 -2.65282 0.0456093 4
-3.34858 13.2335 -2.6534 0.0167021 4
-4.11088 16.2461 -2.65422 0.0208936 4
-5.30538 20.9667 -2.65552 0.0196351 4
-15.9647 63.0921 -1.13599 0.151981 10
-15.9647 63.0918 1.13598 0.151939 10
-16.6197 65.6805 5.9274 0.164322 10
-16.6195 65.6797 10.7305 0.162835 10
-16.6193 65.6789 15.6411 0.160555 10
-15.9641 63.0898 17.4377 0.190503 10
-2.49897 9.73285 -2.6925 0.111527 4
-2.85768 11.1299 -2.65289 0.0310965 4
-3.39486 13.2221 -2.65348 0.014504 4
-16.1978 63.0864 -1.13689 0.154316 10
-16.1978 63.0861 1.13689 0.154274 10
-16.8636 65.6793 5.93257 0.166638 10
-16.8634 65.6785 10.7399 0.165131 10
-16.8632 65.6777 15.6547 0.162819 10
-16.1972 63.0841 17.4516 0.148747 10
-2.53298 9.72429 -2.69256 0.122856 4
-2.89659 11.1202 -2.65296 0.0580452 4
-3.4411 13.2106 -2.65356 0.0153826 4
-4.22453 16.2182 -2.65443 0.039983 4
-16.4313 63.0806 -1.13782 0.156649 10
-16.4312 63.0804 1.13781 0.156607 10
-17.1078 65.6781 5.93782 0.168951 10
-17.1076 65.6773 10.7494 0.167424 10
-17.1074 65.6765 15.6686 0.165082 10
-16.4307 63.0783 17.4658 0.151001 10
-2.56697 9.71561 -2.69262 0.122257 4
-2.93547 11.1103 -2.65303 0.0217664 4
-4.28128 16.204 -2.65453 0.0252136 4
-7.7619 29.3776 -2.6584 0.0406783 4
-16.6651 63.0749 -1.13876 0.15898 10
-16.665 63.0746 1.13875 0.158939 10
-17.3526 65.6768 5.94315 0.171263 10
-17.3524 65.6761 10.759 0.169716 10
-17.3522 65.6753 15.6826 0.167343 10
-16.6645 63.0726 17.4802 0.153253 10
-2.60093 9.70681 -2.69268 0.127621 4
-2.97431 11.1003 -2.6531 0.0305758 4
-3.53346 13.1871 -2.65373 0.0312027 4
-4.33798 16.1896 -2.65463 0.0212506 4
-7.86494 29.3524 -2.65859 0.0368684 4
-17.5977 65.6756 5.94856 0.173572 10
-17.5975 65.6749 10.7688 0.172006 10
-17.5973 65.6741 15.6969 0.169602 10
-2.63485 9.69789 -2.69274 0.114499 4
-3.01311 11.0901 -2.65317 0.0461216 4
-3.57958 13.1751 -2.65381 0.0237309 4
-4.39463 16.1749 -2.65473 0.0313345 4
-7.97594 29.3564 -2.66146 0.0660677 4
-17.8433 65.6744 5.95406 0.175879 10
-17.8431 65.6736 10.7788 0.174293 10
-17.8429 65.6729 15.7114 0.171858 10
-2.66875 9.68885 -2.6928 0.0310094 4
-3.05189 11.0798 -2.65324 0.0238375 4
-3.62566 13.1629 -2.65389 0.0364741 4
-4.45124 16.1601 -2.65483 0.0385363 4
-8.21313 29.8176 -2.70585 0.05815 4
-18.0894 65.6732 5.95964 0.178184 10
-18.0892 65.6724 10.7889 0.176578 10
-18.089 65.6716 15.7261 0.174113 10
-2.70262 9.67969 -2.69286 0.0435314 4
-3.09062 11.0694 -2.65331 0.0290188 4
-3.6717 13.1506 -2.65398 0.0237294 4
-4.50779 16.1451 -2.65493 0.0230489 4
-5.81806 20.838 -2.65644 0.0140203 4
-8.41108 30.1251 -2.73641 0.0330024 1
-18.3359 65.672 5.9653 0.180487 10
-18.3357 65.6712 10.7991 0.178862 10
-18.3355 65.6704 15.7411 0.176365 10
-2.73645 9.67041 -2.69292 0.0113298 4
-3.12933 11.0588 -2.65338 0.0150272 4
-3.7177 13.1381 -2.65406 0.0254864 4
-4.5643 16.1299 -2.65504 0.0244885 4
-5.89106 20.8186 -2.65657 0.0249548 4
-8.51678 30.0977 -2.7366 0.0330001 1
-18.5829 65.6707 5.97104 0.182787 10
-18.5827 65.67 10.8095 0.181143 10
-18.5825 65.6692 15.7562 0.178615 10
-2.77025 9.66102 -2.69299 0.0321999 4
-3.16799 11.0481 -2.65345 0.0533711 4
-3.76365 13.1254 -2.65414 0.0145004 4
-8.62238 30.0698 -2.73679 0.0329978 1
-18.8304 65.6695 5.97687 0.185086 10
-18.8302 65.6687 10.8201 0.183421 10
-18.83 65.668 15.7716 0.180863 10
-2.80402 9.65151 -2.69305 0.0286215 4
-3.20662 11.0373 -2.65352 0.0186535 4
-3.80957 13.1126 -2.65422 0.0184545 4
-4.67715 16.0989 -2.65524 0.0144039 4
-8.72685 30.038 -2.73665 0.286658 4
-19.0784 65.6683 5.98278 0.187382 10
-19.0782 65.6675 10.8308 0.185698 10
-19.0779 65.6667 15.7872 0.183109 10
-2.83776 9.64188 -2.69311 0.0363723 4
-3.24521 11.0263 -2.65359 0.015026 4
-3.85543 13.0996 -2.6543 0.0158176 4
-4.73349 16.083 -2.65534 0.0169239 4
-6.10964 20.7588 -2.65696 0.0213066 4
-8.73512 29.6794 -2.70674 0.306672 4
-19.3269 65.667 5.98878 0.189676 10
-19.3266 65.6663 10.8416 0.187972 10
-19.3264 65.6655 15.803 0.185353 10
-2.87146 9.63213 -2.69317 0.0226576 4
-3.28377 11.0152 -2.65366 0.01658 4
-3.90126 13.0865 -2.65439 0.0333918 4
-4.78979 16.067 -2.65544 0.00972189 4
-6.18237 20.7384 -2.65709 0.0269123 4
-8.74321 29.3285 -2.6775 0.348956 4
-19.5758 65.6658 5.99486 0.191968 10
-19.5756 65.665 10.8526 0.190244 10
-19.5754 65.6643 15.8191 0.187594 10
-2.90513 9.62227 -2.69323 0.0107323 4
-3.32229 11.004 -2.65372 0.0435214 4
-3.94703 13.0732 -2.65447 0.0158167 4
-4.84603 16.0508 -2.65554 0.0471674 4
-8.7511 28.9851 -2.64892 0.233067 4
-19.8253 65.6646 6.00103 0.194257 10
-19.8251 65.6638 10.8638 0.192514 10
-19.8248 65.663 15.8354 0.189833 10
-2.93877 9.61228 -2.69329 0.026234 4
-3.36076 10.9926 -2.65379 0.0155429 4
-3.99276 13.0598 -2.65455 0.0149375 4
-4.90221 16.0344 -2.65564 0.0100812 4
-6.32762 20.6967 -2.65735 0.0137351 4
-8.75883 28.6489 -2.62097 0.246989 4
-19.0855 62.4259 -1.13944 0.15413 10
-19.086 62.4275 1.13946 0.154168 10
-20.0753 65.6633 6.00729 0.196543 10
-20.075 65.6626 10.8751 0.194781 10
-20.0748 65.6618 15.8519 0.19207 10
-19.0896 62.4392 17.495 0.149202 10
-2.97237 9.60218 -2.69335 0.0220599 4
-4.03846 13.0461 -2.65463 0.0241629 4
-4.95834 16.0178 -2.65574 0.0273622 4
-8.76638 28.3196 -2.59364 0.141561 4
-19.287 62.3063 -1.13847 0.197289 10
-19.2876 62.3082 1.13851 0.197326 10
-20.3258 65.6621 6.01363 0.198828 10
-20.3256 65.6613 10.8866 0.197046 10
-20.3253 65.6605 15.8686 0.194305 10
-19.2918 62.3218 17.4808 0.190887 10
-3.00594 9.59196 -2.69341 0.011924 4
-3.4376 10.9694 -2.65393 0.0202048 4
-4.08409 13.0324 -2.65472 0.0206476 4
-5.01441 16.001 -2.65584 0.0194408 4
-8.77376 27.9971 -2.56689 0.26463 4
-19.4841 62.1738 -1.13729 0.194994 10
-19.4847 62.1757 1.13732 0.195031 10
-20.5768 65.6609 6.02005 0.20111 10
-20.5766 65.6601 10.8982 0.199309 10
-20.5764 65.6593 15.8856 0.196536 10
-19.4889 62.1893 17.4627 0.18867 10
-3.03947 9.58163 -2.69347 0.0310017 4
-3.47597 10.9576 -2.654 0.0274571 4
-4.12969 13.0184 -2.6548 0.0123003 4
-5.07043 15.984 -2.65594 0.00972005 4
-6.54497 20.6324 -2.65774 0.0159753 4
-8.80615 27.7605 -2.548 0.0298286 4
-19.6807 62.0416 -1.13612 0.192696 10
-19.6813 62.0435 1.13615 0.192733 10
-20.8285 65.6596 6.02657 0.20339 10
-20.8282 65.6588 10.91 0.201569 10
-20.828 65.658 15.9027 0.198766 10
-19.6856 62.057 17.4447 0.186448 10
-3.07297 9.57117 -2.69353 0.0286163 4
-3.51428 10.9457 -2.65407 0.0891036 4
-4.17524 13.0043 -2.65488 0.00614997 4
-5.12639 15.9668 -2.65605 0.0161995 4
-8.90361 27.7315 -2.54818 0.0250223 4
-19.8769 61.9093 -1.13496 0.191344 10
-19.8775 61.9112 1.135 0.191381 10
-21.0806 65.6583 6.03317 0.205667 10
-21.0803 65.6576 10.922 0.203827 10
-21.0801 65.6568 15.9202 0.200993 10
-19.8818 61.9248 17.4269 0.185141 10
-3.10643 9.5606 -2.69359 0.0369619 4
-3.55256 10.9337 -2.65414 0.084439 4
-4.22074 12.9901 -2.65496 0.0311882 4
-5.18229 15.9494 -2.65615 0.0323977 4
-6.6895 20.5882 -2.658 0.0142923 4
-9.40007 28.9304 -2.66134 0.0342281 4
-20.0727 61.7773 -1.13382 0.189042 10
-20.0733 61.7792 1.13385 0.189079 10
-21.3333 65.6571 6.03986 0.207941 10
-21.333 65.6563 10.9341 0.206082 10
-21.3328 65.6555 15.9378 0.203218 10
-20.0777 61.7927 17.4094 0.18292 10
-3.13985 9.54991 -2.69365 0.0321919 4
-3.5908 10.9215 -2.65421 0.0963513 4
-4.26618 12.9757 -2.65504 0.0166918 4
-5.23813 15.9319 -2.65625 0.0107988 4
-6.76166 20.5657 -2.65813 0.0238193 4
-9.50164 28.8994 -2.66152 0.0272205 4
-20.2727 61.6598 -1.13296 0.12989 10
-20.2732 61.6613 1.13298 0.129929 10
-21.5865 65.6558 6.04664 0.210213 10
-21.5863 65.6551 10.9464 0.208334 10
-21.586 65.6543 15.9557 0.205441 10
-3.17324 9.53911 -2.69371 0.0375564 4
-3.629 10.9092 -2.65428 0.112407 4
-4.31159 12.9611 -2.65513 0.0351395 4
-5.29391 15.9141 -2.65635 0.0165576 4
-9.60313 28.8681 -2.66171 0.0282193 4
-20.4742 61.5476 -1.1322 0.127537 10
-20.4747 61.5491 1.13223 0.127576 10
-21.8404 65.6546 6.05351 0.212483 10
-21.8401 65.6538 10.9588 0.210585 10
-21.8399 65.653 15.9738 0.20766 10
-3.20659 9.52818 -2.69377 0.0292099 4
-3.66715 10.8967 -2.65434 0.102562 4
-4.35694 12.9464 -2.65521 0.0421661 4
-5.34963 15.8961 -2.65645 0.0212361 4
-9.62279 28.5936 -2.63948 0.228344 4
-22.0948 65.6533 6.06047 0.21475 10
-22.0945 65.6525 10.9714 0.212832 10
-22.0942 65.6517 15.9922 0.209878 10
-3.2399 9.51715 -2.69383 0.0262287 4
-3.70525 10.8841 -2.65441 0.0279708 4
-4.40223 12.9315 -2.65529 0.0166902 4
-5.40529 15.8779 -2.65655 0.0377916 4
-9.63696 28.3084 -2.61624 0.170196 4
-22.3498 65.652 6.06751 0.217014 10
-22.3495 65.6513 10.9842 0.215077 10
-22.3492 65.6505 16.0108 0.212092 10
-3.27317 9.50599 -2.69389 0.0232477 4
-3.74332 10.8714 -2.65448 0.0196826 4
-4.44749 12.9164 -2.65537 0.0241562 4
-5.46089 15.8596 -2.65665 0.0143963 4
-7.04952 20.4733 -2.65865 0.0350215 4
-9.65086 28.0281 -2.59344 0.21248 4
-21.5375 62.5495 5.78769 0.533489 10
-21.5414 62.5607 10.4796 0.528983 10
-21.5453 62.5722 15.2783 0.521887 10
-3.30641 9.49472 -2.69395 0.04411 4
-3.78135 10.8586 -2.65455 0.0145026 4
-4.49268 12.9012 -2.65545 0.0122973 4
-5.51642 15.841 -2.65675 0.0183545 4
-9.6645 27.7527 -2.57106 0.190141 4
-21.7163 62.3606 5.7772 0.131525 10
-21.7174 62.364 10.4593 0.130465 10
-3.33961 9.48333 -2.69401 0.0101331 4
-3.81933 10.8456 -2.65462 0.0466143 4
-4.53783 12.8859 -2.65553 0.0426001 4
-5.57189 15.8223 -2.65685 0.0259113 4
-12.2922 34.9056 1.93944 0.22693 10
-12.2945 34.9122 3.23828 0.226335 10
-12.2968 34.9188 4.54557 0.225463 10
-12.2992 34.9254 5.86462 0.224317 10
-12.3015 34.9321 7.19885 0.222898 10
-12.3039 34.9389 8.55184 0.221207 10
-12.3064 34.9459 9.92736 0.219246 10
-3.37276 9.47183 -2.69407 0.0321869 4
-3.85726 10.8325 -2.65469 0.00466131 4
-4.58292 12.8703 -2.65561 0.0232756 4
-7.26458 20.4013 -2.65904 0.0224105 4
-12.2834 34.4959 -1.91905 0.294136 10
-12.2857 34.5023 -0.639282 0.294441 10
-12.288 34.5087 0.639399 0.294387 10
-12.2903 34.5151 1.92011 0.229215 10
-12.2925 34.5215 3.206 0.228614 10
-12.2948 34.5279 4.50025 0.227734 10
-12.2971 34.5344 5.80613 0.226577 10
-12.2995 34.541 7.12704 0.225143 10
-12.3019 34.5476 8.46652 0.223436 10
-12.3043 34.5544 9.8283 0.221456 10
-3.40588 9.4602 -2.69413 0.0232456 4
-3.89515 10.8192 -2.65476 0.0155373 4
-4.62796 12.8547 -2.6557 0.0272272 4
-5.68265 15.7842 -2.65705 0.0140342 4
-9.87276 27.4226 -2.54992 0.0258053 4
-12.2816 34.1134 -1.90014 0.297063 10
-12.3065 34.1826 -0.634149 0.838926 10
-12.3064 34.1824 0.634145 0.838931 10
-11.9829 33.2838 1.85393 0.653332 10
-11.9828 33.2836 3.0949 0.651743 10
-12.2928 34.1447 4.45587 0.230002 10
-11.9827 33.2832 5.60277 0.646185 10
-11.9826 33.283 6.87606 0.642224 10
-12.2998 34.164 8.38298 0.225662 10
-11.9825 33.2825 9.47839 0.631959 10
-3.43896 9.44847 -2.69419 0.022053 4
-3.93299 10.8058 -2.65482 0.0279664 4
-4.67295 12.8388 -2.65578 0.0417179 4
-5.73792 15.7648 -2.65715 0.0251887 4
-9.9691 27.3899 -2.55009 0.0270037 4
-12.2798 33.7384 -1.88163 0.299986 10
-12.3431 33.9124 -0.629932 0.553443 10
-12.343 33.9122 0.629928 0.553447 10
-12.1141 33.2831 1.85624 0.65252 10
-12.114 33.2829 3.09875 0.650932 10
-12.2909 33.769 4.41241 0.232267 10
-12.1138 33.2825 5.60974 0.645382 10
-12.1138 33.2823 6.88462 0.641425 10
-12.2978 33.7879 8.30118 0.227886 10
-12.1136 33.2819 9.49018 0.631173 10
-3.47199 9.43662 -2.69425 0.108475 4
-3.97079 10.7923 -2.65489 0.0212332 4
-4.71787 12.8228 -2.65586 0.0272256 4
-5.79313 15.7453 -2.65725 0.0133135 4
-10.0653 27.3568 -2.55027 0.028002 4
-12.278 33.3706 -1.8635 0.302905 10
-12.2802 33.3766 -0.620772 0.200285 10
-12.2824 33.3825 0.620882 0.200249 10
-12.2455 33.2825 1.85857 0.651699 10
-12.2455 33.2823 3.10265 0.650114 10
-12.289 33.4006 4.36985 0.234529 10
-12.2453 33.2819 5.6168 0.644571 10
-12.2453 33.2817 6.89328 0.640619 10
-12.2958 33.4191 8.22106 0.230107 10
-12.2451 33.2812 9.50213 0.63038 10
-3.50499 9.42465 -2.69431 0.118008 4
-4.00854 10.7786 -2.65496 0.0165719 4
-4.76275 12.8067 -2.65594 0.0136124 4
-5.84828 15.7256 -2.65735 0.01907 4
-7.55018 20.3018 -2.65955 0.0198854 4
-10.1615 27.3233 -2.55044 0.0260001 4
-12.2762 33.0097 -1.84573 0.305821 10
-12.3107 33.1025 -0.616471 0.552045 10
-12.3106 33.1023 0.616466 0.552048 10
-12.3511 33.2112 1.85699 0.152142 10
-12.3533 33.2172 3.10059 0.151744 10
-12.2871 33.0391 4.32815 0.236789 10
-12.3578 33.2291 5.61515 0.150395 10
-12.3601 33.2352 6.89256 0.149444 10
-12.2939 33.0573 8.14257 0.232325 10
-12.3647 33.2477 9.50481 0.146999 10
-3.53795 9.41256 -2.69437 0.109066 4
-4.04624 10.7649 -2.65503 0.0139821 4
-5.90335 15.7056 -2.65745 0.0284241 4
-12.2745 32.6558 -1.82832 0.308733 10
-12.3409 32.8324 -0.612238 0.551336 10
-12.3408 32.8322 0.612234 0.551339 10
-12.2853 32.6846 4.28729 0.239046 10
-12.292 32.7024 8.06566 0.23454 10
-3.57086 9.40036 -2.69443 0.116215 4
-4.0839 10.751 -2.6551 0.0512665 4
-4.85234 12.7739 -2.6561 0.026784 4
-5.95837 15.6855 -2.65755 0.0176295 4
-7.69247 20.2506 -2.65981 0.0610508 4
-10.3534 27.2554 -2.55079 0.0263965 4
-12.2728 32.3084 -1.81126 0.311641 10
-12.2749 32.314 -0.603367 0.206062 10
-12.2771 32.3196 0.603471 0.206027 10
-11.9143 31.3648 1.75836 0.242864 10
-11.9164 31.3702 2.93588 0.242229 10
-12.2835 32.3366 4.24725 0.2413 10
-11.9207 31.3813 5.31684 0.240076 10
-11.9228 31.387 6.52636 0.23856 10
-12.2902 32.3541 7.99028 0.236753 10
-11.9272 31.3985 8.99976 0.234658 10
-3.60373 9.38805 -2.69449 0.105485 4
-4.12151 10.7369 -2.65517 0.05489 4
-4.89705 12.7573 -2.65618 0.0188799 4
-6.01331 15.6652 -2.65764 0.0161897 4
-7.76348 20.2246 -2.65994 0.0604878 4
-10.4491 27.221 -2.55096 0.0273945 4
-12.2711 31.9674 -1.79453 0.314546 10
-12.3958 32.2921 -0.603762 0.549898 10
-12.3957 32.2919 0.603758 0.549901 10
-12.0393 31.3635 1.76063 0.648339 10
-12.0392 31.3633 2.93915 0.646762 10
-12.2818 31.9951 4.208 0.24355 10
-12.0391 31.3629 5.3208 0.641247 10
-12.039 31.3627 6.53001 0.637316 10
-12.2883 32.0122 7.9164 0.238962 10
-12.0389 31.3623 9.00137 0.62713 10
-3.63656 9.37562 -2.69455 0.114422 4
-4.15907 10.7227 -2.65523 0.0491927 4
-4.9417 12.7405 -2.65626 0.0171232 4
-6.06818 15.6447 -2.65774 0.0287806 4
-7.83442 20.1983 -2.66007 0.0548844 4
-12.2695 31.6327 -1.77814 0.317446 10
-13.3961 34.5372 -0.646608 0.549168 10
-13.396 34.537 0.646604 0.549172 10
-12.1648 31.3628 1.76297 0.647479 10
-12.1648 31.3627 2.94305 0.645904 10
-12.28 31.6598 4.16951 0.245798 10
-12.1646 31.3623 5.32787 0.640397 10
-12.1646 31.3621 6.53868 0.636471 10
-12.2865 31.6766 7.84396 0.241169 10
-12.1644 31.3617 9.01333 0.626298 10
-3.66935 9.36308 -2.69461 0.106077 4
-4.19658 10.7084 -2.6553 0.0471202 4
-4.98629 12.7235 -2.65634 0.0228302 4
-6.12298 15.624 -2.65784 0.0453278 4
-7.90525 20.1718 -2.66019 0.0254808 4
-10.6404 27.151 -2.55131 0.0259912 4
-12.2679 31.304 -1.76206 0.320343 10
-23.9367 61.0792 -1.14509 0.276724 10
-23.9365 61.0787 1.14508 0.276682 10
-12.2741 31.3199 1.76295 0.249648 10
-12.2762 31.3253 2.94355 0.248997 10
-12.2783 31.3306 4.13178 0.248043 10
-12.2805 31.336 5.33066 0.246786 10
-12.2826 31.3415 6.5433 0.245229 10
-12.2848 31.3471 7.77294 0.243373 10
-12.287 31.3527 9.02302 0.24122 10
-3.70209 9.35041 -2.69466 0.116801 4
-4.23405 10.694 -2.65537 0.00880245 4
-5.03083 12.7064 -2.65642 0.0386345 4
-6.17772 15.6031 -2.65794 0.0154684 4
-8.05254 20.3384 -2.68585 0.0835314 4
-10.7358 27.1156 -2.55148 0.0253897 4
-12.2663 30.9812 -1.74629 0.323236 10
-13.6737 34.5358 -0.648354 0.54769 10
-13.6736 34.5356 0.64835 0.547693 10
-12.2725 30.9968 1.74717 0.251904 10
-12.2746 31.0021 2.91718 0.251248 10
-12.2767 31.0073 4.09477 0.250285 10
-12.2788 31.0126 5.2829 0.249017 10
-12.2809 31.018 6.48466 0.247446 10
-12.2831 31.0234 7.70328 0.245574 10
-12.2852 31.029 8.94214 0.243402 10
-3.73479 9.33764 -2.69472 0.00715091 4
-4.27146 10.6794 -2.65544 0.101484 4
-5.07531 12.6892 -2.6565 0.0109754 4
-6.23237 15.582 -2.65804 0.0453245 4
-8.21692 20.5438 -2.71674 0.0908073 4
-12.2648 30.6642 -1.73082 0.326125 10
-24.4314 61.0828 -1.14833 0.251691 10
-24.4312 61.0825 1.14832 0.251649 10
-12.2709 30.6795 1.73168 0.254157 10
-12.2919 30.732 2.89579 0.41066 10
-12.275 30.6898 4.05847 0.252524 10
-12.2771 30.695 5.23606 0.251245 10
-12.2917 30.7315 6.43369 0.404662 10
-12.2814 30.7056 7.63495 0.247771 10
-12.2835 30.711 8.86281 0.245581 10
-3.76744 9.32475 -2.69478 0.0125138 4
-4.30882 10.6647 -2.6555 0.0295126 4
-5.11972 12.6718 -2.65658 0.0311691 4
-6.28696 15.5608 -2.65814 0.0276972 4
-8.35309 20.6746 -2.73789 0.046122 1
-10.9263 27.0436 -2.55182 0.0251864 4
-12.2633 30.3527 -1.71564 0.329009 10
-13.9528 34.5344 -0.650141 0.546184 10
-13.9527 34.5342 0.650137 0.546188 10
-12.2693 30.3677 1.71649 0.256406 10
-12.2734 30.3778 4.02285 0.254759 10
-12.2755 30.3829 5.19011 0.25347 10
-12.2797 30.3933 7.56792 0.249966 10
-12.2818 30.3987 8.78499 0.247756 10
-3.80005 9.31175 -2.69484 0.0232394 4
-4.34613 10.6499 -2.65557 0.0217456 4
-5.16408 12.6542 -2.65667 0.00658483 4
-6.34148 15.5393 -2.65824 0.0215815 4
-8.42562 20.6464 -2.73802 0.0461198 1
-11.0214 27.0071 -2.552 0.0305814 4
-12.2618 30.0466 -1.70075 0.331891 10
-24.9264 61.0804 -1.15152 0.256141 10
-24.9263 61.08 1.15152 0.256099 10
-12.2678 30.0613 1.70158 0.258652 10
-11.9668 29.3236 2.77089 0.641498 10
-12.2718 30.0712 3.9879 0.256992 10
-12.2739 30.0762 5.14501 0.255691 10
-11.9665 29.3231 6.15619 0.632129 10
-11.9665 29.3229 7.31174 0.627459 10
-12.2802 30.0917 8.70861 0.249929 10
-3.83262 9.29863 -2.6949 0.0613746 4
-4.38339 10.6349 -2.65564 0.0129435 4
-5.20838 12.6365 -2.65675 0.035118 4
-6.39591 15.5177 -2.65834 0.0316516 4
-8.49804 20.6178 -2.73815 0.0461176 1
-11.1164 26.9703 -2.55217 0.028181 4
-12.2603 29.7458 -1.68614 0.334767 10
-12.2623 29.7506 -0.56168 0.335121 10
-12.2643 29.7554 0.56177 0.335067 10
-12.2663 29.7602 1.68696 0.260895 10
-12.0861 29.323 2.7748 0.640593 10
-11.9057 28.8854 3.83613 0.259221 10
-12.2723 29.7749 5.10075 0.25791 10
-12.0859 29.3225 6.16488 0.631237 10
-12.0858 29.3223 7.32207 0.626574 10
-12.2786 29.7901 8.63367 0.252099 10
-3.86514 9.2854 -2.69496 0.0303887 4
-4.4206 10.6198 -2.65571 0.0191558 4
-5.25262 12.6186 -2.65683 0.0263377 4
-6.45028 15.4958 -2.65844 0.00971094 4
-8.57037 20.589 -2.73828 0.0461154 1
-12.0485 28.9447 -2.74296 0.0329235 1
-12.2589 29.45 -1.67179 0.33764 10
-12.2807 29.5026 -0.557804 0.823399 10
-12.2807 29.5024 0.5578 0.823404 10
-12.2648 29.4643 1.67259 0.263135 10
-12.2058 29.3224 2.77876 0.63968 10
-11.9042 28.598 3.80346 0.261448 10
-12.2708 29.4786 5.05731 0.260125 10
-12.2055 29.3219 6.17368 0.630338 10
-12.2055 29.3217 7.33252 0.625682 10
-12.277 29.4935 8.56009 0.254265 10
-3.89761 9.27205 -2.69502 0.0291964 4
-4.45775 10.6046 -2.65577 0.0170845 4
-5.29679 12.6006 -2.65691 0.0298485 4
-6.50457 15.4738 -2.65853 0.0179826 4
-8.6426 20.5599 -2.73841 0.0461132 1
-12.1503 28.9044 -2.74314 0.0329213 1
-12.3029 29.2675 -1.66385 0.0461248 10
-12.4015 29.502 -0.558607 0.822215 10
-12.4014 29.5018 0.558604 0.82222 10
-12.2633 29.1733 1.6585 0.265372 10
-12.3132 29.2919 2.77992 0.407772 10
-11.9028 28.3156 3.7714 0.263671 10
-12.2693 29.1874 5.01466 0.262337 10
-12.313 29.2914 6.17626 0.401817 10
-12.2733 29.1971 7.31202 0.165159 10
-12.2754 29.202 8.48788 0.256429 10
-3.93004 9.25859 -2.69508 0.0399207 4
-4.49486 10.5892 -2.65584 0.0207079 4
-5.34091 12.5824 -2.65699 0.0294087 4
-8.68262 20.455 -2.72845 0.273838 4
-12.2519 28.8637 -2.74333 0.0329191 1
-12.4064 29.2277 -1.66404 0.0461196 10
-12.5226 29.5014 -0.55942 0.82102 10
-12.5225 29.5012 0.559417 0.821025 10
-12.2619 28.8872 1.64465 0.267606 10
-11.9378 28.1238 2.673 0.637832 10
-11.9378 28.1236 3.75136 0.6355 10
-12.2678 28.901 4.97279 0.264547 10
-11.9376 28.1233 5.93871 0.628516 10
-11.9375 28.1231 7.05344 0.623873 10
-12.2739 28.9154 8.41696 0.258589 10
-3.96242 9.24502 -2.69514 0.0113205 4
-4.53191 10.5737 -2.65591 0.0388264 4
-5.38495 12.564 -2.65707 0.0193126 4
-6.61293 15.4291 -2.65873 0.0222967 4
-8.68856 20.2719 -2.70807 0.216058 4
-12.2528 28.5878 -2.72116 0.345444 10
-14.7997 34.5304 -1.96887 0.818811 10
-26.1764 61.0742 -1.15984 0.267213 10
-26.1762 61.0738 1.15984 0.267171 10
-12.2605 28.6058 1.63106 0.269836 10
-12.0536 28.1232 2.67693 0.636896 10
-12.0535 28.123 3.75687 0.634567 10
-12.2663 28.6194 4.93167 0.266752 10
-12.0534 28.1227 5.94743 0.627594 10
-12.0533 28.1225 7.0638 0.622958 10
-12.2723 28.6335 8.34733 0.260746 10
-3.99476 9.23133 -2.6952 0.0160867 4
-4.56891 10.5581 -2.65598 0.0264013 4
-5.42895 12.5456 -2.65715 0.0237011 4
-8.6944 20.0916 -2.68801 0.278722 4
-12.2514 28.3114 -2.6989 0.348293 10
-12.2533 28.3158 -1.61696 0.230583 10
-12.2553 28.3202 -0.538631 0.230828 10
-12.2572 28.3246 0.538714 0.230792 10
-12.2591 28.329 1.61771 0.272063 10
-11.9107 27.5239 2.62383 0.635952 10
-11.9106 27.5237 3.68235 0.633627 10
-12.2649 28.3424 4.89128 0.268955 10
-11.9104 27.5234 5.82945 0.626664 10
-11.9104 27.5232 6.92368 0.622035 10
-12.2708 28.3562 8.27893 0.262901 10
-4.02704 9.21753 -2.69525 0.0244275 4
-4.60585 10.5424 -2.65604 0.0103532 4
-5.47287 12.5269 -2.65723 0.0364284 4
-6.72098 15.3837 -2.65893 0.031285 4
-8.70014 19.9138 -2.66828 0.270662 4
-12.2501 28.0394 -2.67703 0.351138 10
-12.252 28.0438 -1.60385 0.232466 10
-12.2539 28.0481 -0.534266 0.232714 10
-12.2558 28.0524 0.534348 0.232678 10
-12.2577 28.0568 1.6046 0.274286 10
-12.0247 27.5233 2.62776 0.635001 10
-12.0246 27.5232 3.68786 0.632679 10
-12.2634 28.0699 4.85161 0.271154 10
-12.0244 27.5228 5.83819 0.625727 10
-12.0244 27.5227 6.93405 0.621104 10
-12.2694 28.0835 8.21176 0.265051 10
-4.05928 9.20362 -2.69531 0.0202565 4
-4.64274 10.5265 -2.65611 0.0258823 4
-5.51672 12.5081 -2.65731 0.0153609 4
-6.77489 15.3607 -2.65903 0.0269688 4
-8.70579 19.7387 -2.64887 0.106571 4
-12.2488 27.7719 -2.65555 0.353978 10
-12.2507 27.7761 -1.59098 0.234347 10
-12.2526 27.7804 -0.529978 0.234597 10
-12.2545 27.7846 0.530058 0.234561 10
-12.2563 27.7889 1.59171 0.276506 10
-12.139 27.5228 2.63173 0.634042 10
-12.1389 27.5226 3.69344 0.631723 10
-12.262 27.8018 4.81264 0.27335 10
-12.1388 27.5223 5.84702 0.624781 10
-12.1387 27.5221 6.94454 0.620166 10
-12.2679 27.8151 8.14576 0.267199 10
-4.09147 9.18959 -2.69537 0.020256 4
-4.67957 10.5105 -2.65618 0.0305404 4
-5.56052 12.4891 -2.65739 0.0416926 4
-6.82872 15.3376 -2.65912 0.00934886 4
-8.71135 19.566 -2.62976 0.239403 4
-12.2476 27.5085 -2.63444 0.356815 10
-12.2494 27.5127 -1.57833 0.236225 10
-12.2513 27.5169 -0.525763 0.236478 10
-12.2532 27.521 0.525843 0.236442 10
-12.255 27.5252 1.57905 0.278723 10
-12.2537 27.5222 2.63575 0.633075 10
-12.2536 27.522 3.69908 0.63076 10
-12.2607 27.5379 4.77434 0.275543 10
-11.8982 26.7238 5.68618 0.273809 10
-12.2534 27.5215 6.95515 0.61922 10
-12.2665 27.551 8.0809 0.269343 10
-4.12361 9.17546 -2.69543 0.0226386 4
-4.71635 10.4944 -2.65624 0.0248458 4
-5.60425 12.47 -2.65747 0.0197485 4
-6.88247 15.3142 -2.65922 0.0133037 4
-8.71682 19.3958 -2.61096 0.20677 4
-12.2463 27.2493 -2.6137 0.359647 10
-12.3286 27.4325 -1.57619 0.536773 10
-12.3286 27.4323 -0.524967 0.537431 10
-12.3285 27.4322 0.524964 0.537434 10
-12.2537 27.2658 1.56661 0.280937 10
-12.3283 27.4318 2.6312 0.403521 10
-12.3257 27.4259 3.69192 0.178198 10
-12.2593 27.2782 4.73671 0.277732 10
-11.8969 26.4718 5.64136 0.275985 10
-12.3314 27.4387 6.94505 0.174853 10
-12.2651 27.2911 8.01718 0.271484 10
-4.15571 9.1612 -2.69549 0.0381274 4
-4.75308 10.4781 -2.65631 0.0248451 4
-5.64791 12.4508 -2.65754 0.0254529 4
-6.93614 15.2906 -2.65932 0.0215727 4
-8.7222 19.228 -2.59245 0.0738616 4
-12.2451 26.9942 -2.59331 0.362474 10
-12.3215 27.1625 -1.56314 0.535939 10
-12.3214 27.1624 -0.520621 0.536596 10
-12.3213 27.1622 0.520617 0.536599 10
-12.2524 27.0103 1.55438 0.283147 10
-11.941 26.3238 2.5289 0.631118 10
-11.9409 26.3236 3.54913 0.62881 10
-12.258 27.0226 4.69971 0.279918 10
-11.9408 26.3233 5.61855 0.6219 10
-11.9407 26.3231 6.67319 0.617306 10
-12.2637 27.0352 7.95454 0.273622 10
-4.18775 9.14684 -2.69555 0.0256163 4
-4.78974 10.4617 -2.65638 0.0274325 4
-5.69151 12.4313 -2.65762 0.0447607 4
-6.98972 15.2669 -2.65942 0.0136622 4
-8.7275 19.0625 -2.57423 0.251474 4
-12.2439 26.743 -2.57327 0.365297 10
-12.3124 26.8926 -1.55007 0.535098 10
-12.3123 26.8924 -0.516267 0.535754 10
-12.3122 26.8923 0.516264 0.535757 10
-12.2511 26.7588 1.54236 0.285354 10
-12.0517 26.3232 2.53288 0.630128 10
-12.0516 26.3231 3.5547 0.627824 10
-12.2567 26.7709 4.66336 0.2821 10
-12.0515 26.3227 5.62738 0.620925 10
-12.0514 26.3226 6.68368 0.616338 10
-12.2624 26.7834 7.89298 0.275756 10
-4.21975 9.13237 -2.69561 0.03336 4
-4.82635 10.4452 -2.65645 0.0134571 4
-5.73504 12.4118 -2.6577 0.0223797 4
-7.04324 15.243 -2.65951 0.0337947 4
-8.73271 18.8993 -2.55629 0.247283 4
-12.2427 26.4956 -2.55356 0.368116 10
-12.3014 26.6226 -1.53698 0.534251 10
-12.3013 26.6225 -0.511906 0.534906 10
-12.3012 26.6223 0.511903 0.534909 10
-12.2499 26.5112 1.53054 0.287557 10
-12.1628 26.3227 2.53689 0.62913 10
-12.1627 26.3225 3.56034 0.62683 10
-12.2554 26.5231 4.62761 0.284279 10
-12.1626 26.3222 5.63631 0.619941 10
-12.1625 26.322 6.69428 0.615362 10
-12.261 26.5353 7.83244 0.277887 10
-4.25169 9.11778 -2.69566 0.0166796 4
-4.8629 10.4285 -2.65651 0.0232906 4
-5.7785 12.392 -2.65778 0.020185 4
-7.09666 15.2188 -2.65961 0.0111447 4
-8.77505 18.8182 -2.54944 0.0358104 4
-12.2415 26.252 -2.53419 0.37093 10
-12.4141 26.6221 -1.53944 0.533397 10
-12.414 26.6219 -0.512726 0.534051 10
-12.4139 26.6217 0.512722 0.534054 10
-12.2487 26.2674 1.51893 0.289756 10
-12.2505 26.2712 2.53604 0.289008 10
-12.2523 26.2751 3.55969 0.287907 10
-12.2541 26.279 4.59247 0.286455 10
