VERSION 0.7
FIELDS x y z intensity label
SIZE 4 4 4 4 4
TYPE F F F F F
COUNT 1 1 1 1 1
WIDTH 1219
HEIGHT 1
VIEWPOINT 1.58397 10.9105 2.72879 0.879836 -0.00034904 0.000599241 0.475277
POINTS 1219
DATA ascii
-19.8572 -10.4695 -2.75629 0.04584 1
-24.7236 -13.0353 -2.44526 0.0842091 10
-24.7302 -13.0388 -1.46516 0.0843924 10
-24.7368 -13.0422 -0.488121 0.0844729 10
-24.7434 -13.0457 0.48825 0.0844504 10
-22.7587 -11.9993 1.34836 0.689977 10
-21.5866 -11.3813 2.135 0.688267 10
-21.5875 -11.3818 2.99646 0.685717 10
-21.41 -11.2882 3.83347 0.0649757 10
-22.7626 -12.0013 5.00191 0.678116 10
-21.4218 -11.2945 5.59092 0.0640641 10
-21.5912 -11.3838 6.54022 0.667211 10
-8.53734 -4.53939 -2.59084 0.0772505 4
-9.7622 -5.19065 -2.55256 0.0753489 4
-11.6065 -6.17129 -2.55517 0.059912 4
-14.2652 -7.58494 -2.55891 0.0400966 4
-19.8202 -10.5386 -2.75624 0.0458408 1
-25.6155 -13.62 -2.53816 0.081127 10
-25.579 -13.6006 -1.51826 0.885312 10
-25.5801 -13.6012 -0.505695 0.886355 10
-25.6368 -13.6313 0.506815 0.081357 10
-22.7093 -12.0747 1.34792 0.690203 10
-22.7102 -12.0752 2.25029 0.688491 10
-22.7112 -12.0757 3.15826 0.685941 10
-25.6653 -13.6465 4.60389 0.0625931 10
-22.7131 -12.0768 5.00028 0.678337 10
-22.7141 -12.0773 5.93915 0.673293 10
-22.7151 -12.0778 6.89338 0.667428 10
-8.52138 -4.56912 -2.59082 0.0641779 4
-9.74393 -5.22465 -2.55254 0.0655439 4
-11.5848 -6.2117 -2.55514 0.059038 4
-14.2384 -7.63459 -2.55888 0.0440353 4
-19.783 -10.6075 -2.75619 0.0458416 1
-26.5778 -14.2509 -2.63843 0.078043 10
-25.5234 -13.6855 -1.51778 0.88559 10
-25.5244 -13.6861 -0.505536 0.886634 10
-26.6008 -14.2632 0.526854 0.0782617 10
-24.3587 -13.061 1.44852 0.69042 10
-24.3597 -13.0615 2.41823 0.688708 10
-24.3607 -13.0621 3.39397 0.686157 10
-26.6316 -14.2798 4.78613 0.0602097 10
-24.3628 -13.0632 5.37345 0.67855 10
-24.3638 -13.0638 6.3824 0.673505 10
-24.067 -12.9046 7.31727 0.180479 10
-8.50531 -4.5988 -2.5908 0.077846 4
-9.72554 -5.25858 -2.55252 0.0598674 4
-11.5629 -6.25203 -2.55511 0.0555401 4
-14.2115 -7.68414 -2.55884 0.0529863 4
-19.7455 -10.6763 -2.75614 0.0458424 1
-27.6193 -14.9337 -2.74698 0.0749592 10
-25.4678 -13.7704 -1.51732 0.885858 10
-25.4688 -13.7709 -0.505384 0.886902 10
-27.6441 -14.9471 0.548548 0.0751665 10
-24.3056 -13.142 1.44808 0.690628 10
-24.3066 -13.1425 2.4175 0.688916 10
-24.3076 -13.1431 3.39294 0.686364 10
-27.6775 -14.9652 4.98345 0.0578257 10
-24.3097 -13.1442 5.37183 0.678755 10
-24.3107 -13.1448 6.38047 0.673708 10
-24.022 -12.9887 7.31733 0.180478 10
-8.48913 -4.62842 -2.59077 0.0707157 4
-9.70703 -5.29244 -2.55249 0.0722544 4
-11.5409 -6.29228 -2.55508 0.05729 4
-14.1844 -7.73359 -2.55881 0.0479747 4
-19.7077 -10.745 -2.75609 0.0458432 1
-27.7726 -15.1421 -2.76747 0.0326503 1
-25.4122 -13.8552 -1.51688 0.886114 10
-25.4132 -13.8557 -0.505237 0.887159 10
-28.7772 -15.6898 0.572115 0.0720702 10
-28.2696 -15.4131 1.68744 0.690829 10
-25.4164 -13.8575 2.53268 0.689115 10
-25.4175 -13.8581 3.55459 0.686563 10
-28.2731 -15.415 5.10035 0.683174 10
-25.4196 -13.8592 5.62776 0.678952 10
-25.4207 -13.8598 6.68446 0.673903 10
-28.2768 -15.417 8.62972 0.668034 10
-8.47285 -4.65799 -2.59075 0.0843841 4
-9.68841 -5.32625 -2.55247 0.0743196 4
-11.5187 -6.33246 -2.55505 0.0533546 4
-14.1571 -7.78295 -2.55877 0.0522717 4
-19.6697 -10.8135 -2.75605 0.045844 1
-27.7189 -15.2386 -2.7674 0.0326512 1
-26.4113 -14.5197 -1.57954 0.88636 10
-26.4124 -14.5203 -0.526106 0.887405 10
-29.8942 -16.4345 0.59546 0.887368 10
-28.2078 -15.5073 1.68697 0.691021 10
-26.4157 -14.5221 2.63729 0.689307 10
-26.4168 -14.5228 3.70142 0.686753 10
-28.2113 -15.5093 5.09894 0.683363 10
-26.4191 -14.524 5.86021 0.679141 10
-26.4202 -14.5246 6.96056 0.674091 10
-28.215 -15.5113 8.62733 0.66822 10
-8.45647 -4.6875 -2.59073 0.0760652 4
-9.66966 -5.35998 -2.55244 0.0510952 4
-11.4964 -6.37255 -2.55502 0.063414 4
-14.1297 -7.83221 -2.55874 0.04726 4
-18.268 -10.1261 -2.56458 0.0367338 4
-27.6649 -15.3349 -2.76733 0.032652 1
-28.1425 -15.5996 -1.68632 0.886596 10
-28.1437 -15.6003 -0.561672 0.88764 10
-29.8288 -16.5343 0.595302 0.887603 10
-28.146 -15.6016 1.68653 0.691204 10
-28.1472 -15.6022 2.81557 0.68949 10
-28.1495 -15.6035 5.09759 0.683545 10
-28.1507 -15.6042 6.25638 0.679321 10
-28.152 -15.6049 7.43111 0.67427 10
-28.1532 -15.6056 8.62504 0.668397 10
-8.43999 -4.71695 -2.59071 0.0689346 4
-9.6508 -5.39365 -2.55242 0.0557407 4
-11.4739 -6.41257 -2.55499 0.0529185 4
-14.1021 -7.88137 -2.5587 0.0515571 4
-18.2322 -10.1896 -2.56453 0.0328384 4
-27.6104 -15.431 -2.76726 0.0326528 1
-29.7609 -16.6328 -1.78676 0.88682 10
-29.7621 -16.6335 -0.595127 0.887865 10
-29.7633 -16.6342 0.595151 0.887828 10
-29.7646 -16.6348 1.78698 0.691378 10
-29.7658 -16.6355 2.98328 0.689664 10
-29.7683 -16.6369 5.40121 0.683718 10
-29.7696 -16.6377 6.62902 0.679493 10
-29.7722 -16.6391 9.13877 0.668566 10
-8.4234 -4.74634 -2.59069 0.0695295 4
-9.63182 -5.42725 -2.55239 0.0598703 4
-11.4514 -6.45251 -2.55496 0.0551059 4
-14.0743 -7.93044 -2.55866 0.0418907 4
-18.1962 -10.253 -2.56448 0.0359003 4
-27.5557 -15.5268 -2.76719 0.0326537 1
-29.7854 -16.7832 -1.79174 0.0596489 10
-29.7966 -16.7895 -0.596985 0.0596991 10
-8.40671 -4.77568 -2.59067 0.0796327 4
-9.61272 -5.46079 -2.55237 0.0609031 4
-11.4286 -6.49237 -2.55493 0.0533571 4
-14.0463 -7.9794 -2.55863 0.0504844 4
-18.16 -10.3163 -2.56443 0.0370141 4
-27.5006 -15.6225 -2.76711 0.0326545 1
-8.38992 -4.80495 -2.59065 0.0635879 4
-9.59351 -5.49425 -2.55234 0.0769038 4
-11.4058 -6.53214 -2.5549 0.0520457 4
-14.0182 -8.02827 -2.55859 0.0440402 4
-18.1235 -10.3794 -2.56439 0.0386847 4
-27.4452 -15.718 -2.76704 0.0326554 1
-8.37302 -4.83417 -2.59062 0.0742855 4
-9.57418 -5.52765 -2.55232 0.0557429 4
-11.3828 -6.57184 -2.55487 0.057732 4
-13.9898 -8.07704 -2.55855 0.0479795 4
-18.0868 -10.4424 -2.56434 0.0384071 4
-27.3894 -15.8133 -2.76697 0.0326562 1
-8.35603 -4.86332 -2.5906 0.067749 4
-9.55473 -5.56098 -2.55229 0.0732924 4
-11.3596 -6.61145 -2.55484 0.0629811 4
-13.9614 -8.1257 -2.55852 0.0544253 4
-18.0499 -10.5053 -2.56429 0.0375728 4
-25.4349 -14.8035 -2.57472 0.0293387 4
-8.33893 -4.89242 -2.59058 0.066561 4
-9.53516 -5.59425 -2.55227 0.0562602 4
-11.3363 -6.65098 -2.55481 0.0516101 4
-13.9327 -8.17426 -2.55848 0.0497712 4
-18.0128 -10.568 -2.56424 0.0342337 4
-25.3824 -14.8918 -2.57465 0.0273571 4
-8.32173 -4.92145 -2.59056 0.0683445 4
-9.51548 -5.62744 -2.55224 0.0758746 4
-11.3129 -6.69044 -2.55478 0.0520481 4
-13.9039 -8.22273 -2.55844 0.0433267 4
-17.9755 -10.6307 -2.56419 0.0359043 4
-25.3296 -14.9799 -2.57458 0.0279526 4
-8.30443 -4.95043 -2.59053 0.0980603 4
-9.49568 -5.66056 -2.55222 0.0572937 4
-11.2894 -6.7298 -2.55475 0.0463628 4
-13.8749 -8.27109 -2.5584 0.0515631 4
-17.9379 -10.6931 -2.56414 0.0334 4
-25.2764 -15.0678 -2.57451 0.0259708 4
-8.28702 -4.97934 -2.59051 0.0778546 4
-9.47577 -5.69362 -2.55219 0.0800055 4
-11.2657 -6.76909 -2.55472 0.049425 4
-13.8457 -8.31935 -2.55836 0.0526381 4
-17.9001 -10.7555 -2.56409 0.0356274 4
-25.223 -15.1555 -2.57444 0.0261698 4
-8.26952 -5.0082 -2.59049 0.0927132 4
-9.45574 -5.7266 -2.55216 0.0593595 4
-11.2418 -6.80829 -2.55469 0.0594857 4
-13.8164 -8.3675 -2.55833 0.0429705 4
-17.8621 -10.8177 -2.56404 0.0361847 4
-8.25191 -5.03699 -2.59046 0.079639 4
-9.43559 -5.75951 -2.55214 0.079491 4
-11.2178 -6.8474 -2.55466 0.0629857 4
-13.7869 -8.41555 -2.55829 0.0504911 4
-17.8239 -10.8798 -2.56399 0.034237 4
-25.1152 -15.3304 -2.5743 0.0273608 4
-8.2342 -5.06571 -2.59044 0.0534893 4
-9.41534 -5.79235 -2.55211 0.057296 4
-11.1937 -6.88643 -2.55462 0.069985 4
-13.7572 -8.46349 -2.55825 0.0522824 4
-17.7855 -10.9417 -2.56394 0.0398048 4
-25.0608 -15.4175 -2.57423 0.0253789 4
-8.2164 -5.09438 -2.59042 0.0855837 4
-9.39496 -5.82512 -2.55208 0.0727822 4
-11.1695 -6.92538 -2.55459 0.0437411 4
-13.7274 -8.51133 -2.55821 0.0372428 4
-17.7468 -11.0035 -2.56389 0.0336816 4
-8.19849 -5.12298 -2.59039 0.0725091 4
-9.37447 -5.85782 -2.55206 0.0634915 4
-11.1451 -6.96424 -2.55456 0.0643003 4
-13.6974 -8.55907 -2.55817 0.0508516 4
-17.7079 -11.0651 -2.56384 0.0384145 4
-24.9512 -15.5912 -2.57408 0.0277597 4
-8.18048 -5.15152 -2.59037 0.0736984 4
-9.35387 -5.89044 -2.55203 0.0691704 4
-11.1206 -7.00301 -2.55453 0.0577398 4
-13.6672 -8.6067 -2.55813 0.0433319 4
-17.6688 -11.1267 -2.56379 0.0386937 4
-24.8959 -15.6778 -2.57401 0.0271656 4
-8.16238 -5.18 -2.59035 0.0689443 4
-9.33315 -5.923 -2.552 0.0526526 4
-11.0959 -7.0417 -2.5545 0.0559908 4
-13.6369 -8.65422 -2.55809 0.047272 4
-17.6295 -11.188 -2.56374 0.0353539 4
-24.8403 -15.7642 -2.57394 0.0273647 4
-8.14417 -5.20841 -2.59032 0.0826151 4
-9.31231 -5.95547 -2.55198 0.0562667 4
-11.0711 -7.0803 -2.55446 0.0682397 4
-13.6064 -8.70163 -2.55805 0.0519283 4
-17.59 -11.2493 -2.56369 0.0350762 4
-24.7844 -15.8503 -2.57386 0.0251841 4
-8.15761 -5.25722 -2.60042 0.0444344 4
-9.29137 -5.98788 -2.55195 0.0567835 4
-11.0462 -7.11881 -2.55443 0.0625538 4
-13.5757 -8.74893 -2.55801 0.0504966 4
-17.5503 -11.3104 -2.56363 0.0423151 4
-8.29497 -5.38682 -2.65018 0.0405582 4
-9.45584 -6.1407 -2.60299 0.20922 4
-11.1844 -7.26321 -2.59222 0.257375 4
-13.645 -8.86119 -2.57689 0.266018 4
-17.5103 -11.3714 -2.56358 0.0406456 4
-24.6718 -16.022 -2.57372 0.0345062 4
-8.43759 -5.52141 -2.70189 0.0411081 4
-9.64799 -6.31347 -2.66194 0.291186 4
-11.4591 -7.4986 -2.66194 0.268013 4
-14.0634 -9.20283 -2.66195 0.312103 4
-18.141 -11.8711 -2.66196 0.269816 4
-25.4599 -16.6605 -2.66198 0.287147 4
-8.42242 -5.55356 -2.70322 0.0552769 4
-9.63676 -6.35427 -2.66494 0.065045 4
-11.4568 -7.55435 -2.66752 0.0411209 4
-14.0801 -9.28412 -2.67123 0.0207727 4
-18.2022 -12.0021 -2.67707 0.0242213 4
-8.4029 -5.58287 -2.7032 0.0879684 4
-9.61441 -6.3878 -2.66491 0.0289092 4
-11.4302 -7.59419 -2.66748 0.0848676 4
-14.0474 -9.33307 -2.67119 0.0770033 4
-18.1598 -12.0653 -2.67701 0.0217161 4
-25.5861 -16.9994 -2.68753 0.0275678 4
-8.38328 -5.61211 -2.70317 0.0505229 4
-9.59195 -6.42125 -2.66488 0.0526567 4
-11.4035 -7.63395 -2.66745 0.0341225 4
-14.0145 -9.38189 -2.67114 0.0515752 4
-18.1172 -12.1284 -2.67695 0.0317396 4
-25.5259 -17.0881 -2.68745 0.0364936 4
-8.36356 -5.64129 -2.70314 0.141465 4
-9.56937 -6.45462 -2.66485 0.0289099 4
-11.3766 -7.6736 -2.66741 0.0354354 4
-13.9814 -9.4306 -2.6711 0.0702007 4
-25.4653 -17.1766 -2.68737 0.0325279 4
-8.34373 -5.67039 -2.70312 0.0921317 4
-9.54667 -6.48791 -2.66482 0.0717592 4
-11.3496 -7.71316 -2.66738 0.0533725 4
-13.9482 -9.47919 -2.67106 0.0411898 4
-18.0313 -12.254 -2.67684 0.0342468 4
-8.32381 -5.69943 -2.70309 0.0796501 4
-9.52386 -6.52112 -2.66479 0.0800202 4
-11.3224 -7.75263 -2.66734 0.0231867 4
-13.9148 -9.52767 -2.67101 0.0265052 4
-17.988 -12.3166 -2.67678 0.0451065 4
-25.0658 -17.1629 -2.65779 0.194588 4
-8.30378 -5.72839 -2.70307 0.0653851 4
-9.50093 -6.55425 -2.66476 0.0733096 4
-11.2951 -7.792 -2.6673 0.0551239 4
-13.8812 -9.57602 -2.67097 0.0605332 4
-17.9445 -12.3791 -2.67673 0.0464997 4
-24.209 -16.7007 -2.5731 0.0273735 4
-36.0233 -24.8508 -0.763894 0.713432 9
-8.28365 -5.75729 -2.70304 0.0439868 4
-9.47789 -6.5873 -2.66473 0.0325251 4
-11.2677 -7.83127 -2.66727 0.0402497 4
-13.8475 -9.62425 -2.67092 0.0254315 4
-17.9008 -12.4414 -2.67667 0.0281232 4
-24.1499 -16.7846 -2.57303 0.0253907 4
-35.9395 -24.9786 -0.763961 0.713368 9
-8.26342 -5.78611 -2.70301 0.0903521 4
-9.45472 -6.62027 -2.6647 0.00567905 4
-11.2402 -7.87045 -2.66723 0.0328127 4
-13.8136 -9.67237 -2.67088 0.0605352 4
-17.3092 -12.12 -2.59451 0.223985 4
-25.8885 -18.1273 -2.76499 0.0326796 1
-35.8557 -25.1064 -0.764038 0.701539 9
-8.2431 -5.81486 -2.70299 0.0939196 4
-9.43145 -6.65315 -2.66467 0.0340747 4
-11.2125 -7.90953 -2.66719 0.0188129 4
-13.7795 -9.72036 -2.67083 0.0257906 4
-17.0569 -12.0323 -2.56298 0.0378705 4
-25.8243 -18.217 -2.76491 0.0326806 1
-8.22266 -5.84354 -2.70296 0.0463658 4
-9.40806 -6.68596 -2.66464 0.0650524 4
-11.1846 -7.94851 -2.66716 0.0463766 4
-13.5097 -9.60087 -2.62503 0.120412 4
-17.0145 -12.0915 -2.56293 0.0311881 4
-25.7597 -18.3065 -2.76482 0.0326816 1
-47.6049 -33.831 -1.01941 0.320527 10
-47.6062 -33.8319 1.01943 0.320497 10
-8.20214 -5.87215 -2.70293 0.0570662 4
-9.38455 -6.71868 -2.66461 0.0820909 4
-11.1567 -7.98739 -2.66712 0.0061253 4
-13.1536 -9.41703 -2.56219 0.244179 4
-18.2385 -13.0575 -2.75416 0.0458754 1
-8.1815 -5.90068 -2.7029 0.0766835 4
-9.36093 -6.75132 -2.66458 0.0521464 4
-11.041 -7.96304 -2.6461 0.223021 4
-13.096 -9.4451 -2.55738 0.0444194 4
-18.1924 -13.1208 -2.7541 0.0458764 1
-25.3466 -18.2805 -2.73411 0.0323902 4
-47.3642 -34.1601 -1.01933 0.369242 10
-47.3669 -34.1621 1.01939 0.369243 10
-8.16077 -5.92915 -2.70288 0.0826288 4
-9.3372 -6.78387 -2.66454 0.0815765 4
-10.7958 -7.84359 -2.59387 0.22134 4
-13.0627 -9.49059 -2.55733 0.0365392 4
-18.1461 -13.1839 -2.75404 0.0458774 1
-8.13994 -5.95754 -2.70285 0.0630125 4
-9.30538 -6.8105 -2.66223 0.202457 4
-10.6022 -7.7596 -2.55384 0.060818 4
-14.0017 -10.2477 -2.74816 0.0590153 1
-18.0996 -13.2469 -2.75398 0.0458785 1
-24.8734 -18.2046 -2.69672 0.0289491 4
-8.11901 -5.98585 -2.70282 0.0754969 4
-9.12593 -6.72822 -2.6176 0.245109 4
-10.5749 -7.79646 -2.55381 0.0625691 4
-13.9656 -10.2964 -2.74811 0.0590163 1
-18.0505 -13.308 -2.75356 0.0197809 4
-24.7146 -18.2211 -2.68637 0.0373019 4
-8.09799 -6.01409 -2.70279 0.0636083 4
-8.95234 -6.64859 -2.57445 0.229241 4
-10.5474 -7.83321 -2.55377 0.0503185 4
-13.9294 -10.3449 -2.74807 0.0590174 1
-17.9148 -13.3047 -2.73993 0.0196213 4
-24.65 -18.3067 -2.68629 0.0351205 4
-7.96835 -5.96109 -2.66646 0.0510996 4
-8.84901 -6.61991 -2.55136 0.0542148 4
-10.5199 -7.86987 -2.55373 0.0621333 4
-13.8929 -10.3932 -2.74802 0.0590184 1
-7.83359 -5.90303 -2.62824 0.0622111 4
-8.82575 -6.65067 -2.55133 0.0573135 4
-11.2753 -8.49656 -2.74431 0.0720844 1
-13.8563 -10.4415 -2.74797 0.0590195 1
-17.6469 -13.2979 -2.71309 0.0187114 4
-7.70256 -5.84656 -2.59111 0.0626453 4
-8.80237 -6.68136 -2.5513 0.061445 4
-11.2454 -8.53574 -2.74427 0.0720854 1
-13.8195 -10.4896 -2.74792 0.0590205 1
-17.5146 -13.2943 -2.69987 0.0189925 4
-7.67795 -5.87023 -2.58971 0.0772843 4
-8.77889 -6.71196 -2.55127 0.0748708 4
-11.2154 -8.57482 -2.74423 0.0720865 1
-13.7611 -10.5211 -2.74358 0.00967133 4
-17.3834 -13.2906 -2.68677 0.020008 4
-7.65733 -5.89694 -2.58968 0.0796631 4
-9.40879 -7.24574 -2.74166 0.0850646 1
-11.1852 -8.61379 -2.74419 0.0720875 1
-7.63662 -5.92357 -2.58965 0.0921486 4
-9.38332 -7.27845 -2.74163 0.0850656 1
-11.1549 -8.65265 -2.74414 0.0720886 1
-13.5831 -10.5361 -2.72269 0.00930491 4
-17.2193 -13.3567 -2.67576 0.0479091 4
-7.61581 -5.95012 -2.58962 0.0760977 4
-9.35774 -7.31107 -2.74159 0.0850667 1
-11.1245 -8.69141 -2.7441 0.0720896 1
-17.1722 -13.4164 -2.6757 0.0487459 4
-8.0352 -6.32308 -2.73972 0.0979412 1
-9.33205 -7.3436 -2.74156 0.0850678 1
-11.0939 -8.73006 -2.74406 0.0720907 1
-13.4071 -10.5504 -2.70212 0.00907048 4
-17.1249 -13.4759 -2.67564 0.0467971 4
-8.01299 -6.35102 -2.73969 0.0979422 1
-9.30624 -7.37603 -2.74153 0.0850688 1
-17.0773 -13.5353 -2.67558 0.0169922 4
-7.99069 -6.37888 -2.73966 0.0979433 1
-9.28032 -7.40838 -2.74149 0.0850699 1
-13.2332 -10.5639 -2.68187 0.00988974 4
-7.96829 -6.40666 -2.73963 0.0979443 1
-9.25429 -7.44064 -2.74146 0.085071 1
-16.9816 -13.6536 -2.67545 0.0139287 4
-48.9291 -39.34 16.8226 0.133944 10
-7.94579 -6.43437 -2.7396 0.0979454 1
-9.22814 -7.4728 -2.74142 0.085072 1
-13.1006 -10.6086 -2.66993 0.074173 4
-16.9334 -13.7124 -2.67538 0.0247937 4
-48.7007 -39.4371 16.7913 0.133069 10
-7.92319 -6.462 -2.73957 0.0979465 1
-9.20188 -7.50487 -2.74139 0.0850731 1
-13.0632 -10.6541 -2.66988 0.0630661 4
-48.4734 -39.534 16.7604 0.131832 10
-7.9005 -6.48954 -2.73954 0.0979476 1
-9.15186 -7.51742 -2.73428 0.0138689 4
-13.0257 -10.6994 -2.66983 0.0763258 4
-48.2471 -39.6306 16.7299 0.130953 10
-7.87771 -6.51701 -2.73951 0.0979487 1
-9.10176 -7.52963 -2.72715 0.014276 4
-12.988 -10.7446 -2.66978 0.0770439 4
-16.7877 -13.888 -2.67519 0.0259099 4
-7.85483 -6.54439 -2.73948 0.0979497 1
-9.05181 -7.54168 -2.72006 0.0125735 4
-12.9502 -10.7897 -2.66973 0.0164841 4
-16.7387 -13.9462 -2.67512 0.019224 4
-7.83185 -6.5717 -2.73945 0.0979508 1
-9.00202 -7.55359 -2.713 0.0129809 4
-12.9122 -10.8346 -2.66968 0.00967564 4
-16.6895 -14.0042 -2.67506 0.0169955 4
-7.80877 -6.59892 -2.73941 0.0979519 1
-8.95239 -7.56535 -2.70599 0.0124271 4
-10.4766 -8.85341 -2.66622 0.0280109 4
-12.8741 -10.8794 -2.66963 0.0107509 4
-7.7856 -6.62606 -2.73938 0.0979531 1
-8.90292 -7.57697 -2.69901 0.0103275 4
-10.4455 -8.88979 -2.66618 0.090599 4
-12.8358 -10.9241 -2.66958 0.0179185 4
-16.5905 -14.1196 -2.67493 0.0189467 4
-7.76234 -6.65313 -2.73935 0.0979542 1
-8.85359 -7.58845 -2.69207 0.0124753 4
-10.4142 -8.92606 -2.66613 0.0752816 4
-12.7973 -10.9686 -2.66953 0.018994 4
-16.5407 -14.1771 -2.67486 0.0189472 4
-7.73898 -6.68011 -2.73932 0.0979553 1
-8.80443 -7.59978 -2.68517 0.0134694 4
-10.3828 -8.96222 -2.66609 0.080535 4
-12.7587 -11.013 -2.66948 0.0107515 4
-6.57287 -5.67355 -0.75965 0.864194 8
-6.5716 -5.67245 -0.454961 0.866269 8
-7.71553 -6.707 -2.73929 0.0979564 1
-8.75542 -7.61097 -2.67831 0.0148565 4
-10.3513 -8.99826 -2.66605 0.0967311 4
-12.7199 -11.0573 -2.66942 0.0154108 4
-16.4405 -14.2915 -2.67473 0.0208987 4
-6.38493 -5.55033 -0.740164 0.863788 8
-6.38373 -5.54929 -0.443293 0.865863 8
-48.4235 -42.0939 -1.11995 0.461352 10
-48.424 -42.0944 1.11996 0.461319 10
-48.425 -42.0952 5.6136 0.459556 10
-48.4259 -42.096 10.1627 0.455566 10
-48.4269 -42.0969 14.814 0.449357 10
-7.69198 -6.73382 -2.73926 0.0979575 1
-8.70656 -7.62202 -2.67149 0.00788177 4
-10.3197 -9.0342 -2.66601 0.0884162 4
-12.681 -11.1014 -2.66937 0.0161279 4
-6.20639 -5.43328 -0.721661 0.863372 8
-6.20525 -5.43229 -0.432213 0.865446 8
-6.16291 -5.43334 -2.20147 0.0765301 8
-6.16319 -5.43358 -1.8969 0.0772137 8
-6.16346 -5.43382 -1.59717 0.0778032 8
-6.16372 -5.43405 -1.30146 0.078298 8
-6.03764 -5.3229 -0.988293 0.859822 8
-6.03656 -5.32194 -0.704069 0.862946 8
-6.03548 -5.32099 -0.421679 0.865019 8
-48.1311 -42.4333 -1.12001 0.423919 10
-48.134 -42.4359 1.12008 0.42392 10
-48.14 -42.4411 5.61477 0.422365 10
-48.146 -42.4464 10.1659 0.41876 10
-48.1522 -42.4518 14.8202 0.413115 10
-6.14702 -5.45758 -2.20259 0.0783962 8
-6.1473 -5.45782 -1.89786 0.0790962 8
-6.14756 -5.45806 -1.59798 0.0796997 8
-6.14783 -5.45829 -1.30212 0.0802062 8
-6.14809 -5.45853 -1.00948 0.080615 8
-5.87482 -5.21591 -0.687325 0.862509 8
-5.8738 -5.215 -0.411652 0.864581 8
-7.58518 -6.78194 -2.72637 0.0858456 4
-8.60068 -7.6899 -2.66356 0.103299 4
-10.224 -9.14133 -2.66588 0.017509 4
-12.5633 -11.2329 -2.66922 0.0394262 4
-5.82716 -5.21008 -0.683872 0.0884406 8
-5.8274 -5.2103 -0.409673 0.0952967 8
-7.54482 -6.79339 -2.72037 0.0802131 4
-8.57367 -7.71976 -2.66353 0.0810912 4
-10.1919 -9.17682 -2.66584 0.0210111 4
-12.5238 -11.2765 -2.66916 0.00967752 4
-7.50456 -6.80471 -2.7144 0.0797412 4
-8.54655 -7.74954 -2.66349 0.104852 4
-10.1596 -9.21219 -2.66579 0.0175096 4
-12.4841 -11.3199 -2.66911 0.018997 4
-7.46438 -6.81592 -2.70846 0.0864134 4
-8.51933 -7.77922 -2.66346 0.0991715 4
-12.4443 -11.3632 -2.66906 0.0143376 4
-16.0836 -14.6863 -2.67425 0.0186728 4
-7.4243 -6.82699 -2.70254 0.0703238 4
-8.49201 -7.8088 -2.66342 0.0898754 4
-10.0947 -9.28259 -2.66571 0.0205744 4
-12.4043 -11.4063 -2.669 0.0118288 4
-16.0318 -14.742 -2.67418 0.0153289 4
-7.39855 -6.85113 -2.70186 0.116556 4
-8.46458 -7.83829 -2.66338 0.0263432 4
-10.0621 -9.31762 -2.66566 0.040274 4
-12.3641 -11.4493 -2.66895 0.0125459 4
-15.9798 -14.7975 -2.67411 0.0203461 4
-49.2281 -45.5858 -1.17111 0.67669 10
-49.2207 -45.5788 1.17093 0.676661 10
-49.2056 -45.5649 5.86719 0.674133 10
-49.1905 -45.5509 10.6184 0.668319 10
-49.175 -45.5365 15.4729 0.65925 10
-7.3745 -6.87683 -2.70183 0.126667 4
-8.43706 -7.86768 -2.66335 0.0222112 4
-10.0294 -9.35253 -2.66562 0.0280171 4
-12.3238 -11.4922 -2.66889 0.0304693 4
-48.0721 -44.8279 -1.14733 0.676288 10
-48.0649 -44.8212 1.14715 0.67626 10
-48.0505 -44.8078 5.74808 0.673732 10
-48.036 -44.7943 10.4028 0.667922 10
-48.0212 -44.7805 15.159 0.658859 10
-7.35037 -6.90245 -2.7018 0.111802 4
-8.40942 -7.89697 -2.66331 0.0222115 4
-9.99649 -9.38733 -2.66557 0.0240776 4
-15.8753 -14.9079 -2.67397 0.0181173 4
-46.9619 -44.1002 -1.1245 0.675878 10
-46.9551 -44.0938 1.12433 0.67585 10
-46.9414 -44.0809 5.63376 0.673324 10
-46.9275 -44.0678 10.196 0.667517 10
-46.9133 -44.0545 14.8577 0.658459 10
-7.32614 -6.92798 -2.70176 0.110019 4
-8.38169 -7.92617 -2.66327 0.013947 4
-9.9635 -9.422 -2.66553 0.020138 4
-12.2428 -11.5775 -2.66879 0.0132637 4
-15.8227 -14.9628 -2.6739 0.0256437 4
-45.9338 -43.4374 -1.1035 0.120974 10
-45.9357 -43.4392 1.10355 0.120991 10
-45.9376 -43.441 3.31348 0.120861 10
-45.9396 -43.4429 5.5317 0.120584 10
-45.9415 -43.4447 7.7637 0.120159 10
-45.9435 -43.4466 10.0151 0.119589 10
-7.30182 -6.95343 -2.70173 0.114778 4
-8.35385 -7.95527 -2.66323 0.0413249 4
-9.93038 -9.45657 -2.66549 0.0337098 4
-12.2021 -11.6199 -2.66873 0.0215091 4
-15.77 -15.0176 -2.67383 0.0242506 4
-45.8108 -43.625 -1.1042 0.123331 10
-45.8127 -43.6269 1.10425 0.123348 10
-45.8146 -43.6287 3.31557 0.123215 10
-45.8166 -43.6305 5.53519 0.122932 10
-45.8185 -43.6324 7.76861 0.122499 10
-45.8205 -43.6343 10.0215 0.121917 10
-45.8225 -43.6362 12.2995 0.121186 10
-7.27742 -6.97879 -2.7017 0.117753 4
-9.89714 -9.49102 -2.66544 0.0161985 4
-12.1612 -11.6622 -2.66868 0.0315473 4
-15.7171 -15.0721 -2.67376 0.014495 4
-45.6877 -43.8129 -1.10491 0.125686 10
-45.6896 -43.8147 1.10496 0.125704 10
-45.6915 -43.8166 3.31771 0.125568 10
-45.6934 -43.8184 5.53876 0.125279 10
-45.6954 -43.8203 7.77361 0.124837 10
-45.6973 -43.8222 10.0279 0.124244 10
-45.6993 -43.8241 12.3075 0.123499 10
-45.7013 -43.826 14.6184 0.122604 10
-7.25293 -7.00407 -2.70167 0.0208151 4
-8.29788 -8.01317 -2.66316 0.0387432 4
-9.86379 -9.52535 -2.6654 0.0302085 4
-12.1202 -11.7043 -2.66862 0.0103965 4
-15.6639 -15.1265 -2.67369 0.0340084 4
-45.5644 -44.001 -1.10564 0.12804 10
-45.5663 -44.0028 1.10568 0.128056 10
-45.5682 -44.0047 3.31989 0.127919 10
-45.5701 -44.0065 5.5424 0.127624 10
-45.5721 -44.0084 7.77872 0.127174 10
-45.574 -44.0103 10.0345 0.126569 10
-45.576 -44.0122 12.3156 0.12581 10
-45.578 -44.0141 14.628 0.124898 10
-7.22834 -7.02926 -2.70163 0.0338993 4
-8.26974 -8.04197 -2.66312 0.0144643 4
-9.83031 -9.55956 -2.66535 0.0109453 4
-12.079 -11.7463 -2.66857 0.0218689 4
-45.4409 -44.1893 -1.10638 0.130393 10
-45.4428 -44.1912 1.10642 0.130408 10
-45.4447 -44.193 3.32211 0.130268 10
-45.4466 -44.1949 5.54611 0.129968 10
-45.4486 -44.1968 7.78393 0.129509 10
-45.4505 -44.1987 10.0412 0.128893 10
-45.4525 -44.2006 12.3238 0.12812 10
-45.4545 -44.2026 14.6378 0.12719 10
-7.20368 -7.05436 -2.7016 0.0374681 4
-8.2415 -8.07067 -2.66308 0.0103318 4
-9.79672 -9.59365 -2.66531 0.045971 4
-12.0377 -11.7881 -2.66851 0.0143406 4
-15.5571 -15.2347 -2.67354 0.0217443 4
-42.5267 -41.6452 -1.03896 0.430413 10
-42.5271 -41.6456 1.03897 0.43038 10
-45.3211 -44.3817 3.32438 0.132616 10
-45.323 -44.3835 5.54989 0.13231 10
-45.3249 -44.3854 7.78924 0.131843 10
-45.3269 -44.3873 10.0481 0.131215 10
-45.3288 -44.3893 12.3322 0.130428 10
-45.3308 -44.3912 14.6478 0.129481 10
-7.17892 -7.07937 -2.70157 0.0874267 4
-8.21316 -8.09928 -2.66305 0.0309959 4
-9.763 -9.62763 -2.66526 0.0376531 4
-11.9962 -11.8299 -2.66846 0.0175676 4
-15.5034 -15.2885 -2.67347 0.0211873 4
-45.1973 -44.5706 3.32669 0.134963 10
-45.1992 -44.5724 5.55375 0.134651 10
-45.2011 -44.5743 7.79465 0.134175 10
-45.2031 -44.5763 10.0551 0.133536 10
-45.205 -44.5782 12.3408 0.132734 10
-45.207 -44.5802 14.658 0.13177 10
-7.15408 -7.1043 -2.70153 0.0279531 4
-8.18472 -8.12778 -2.66301 0.0180812 4
-9.72917 -9.66149 -2.66522 0.0275835 4
-11.9546 -11.8714 -2.6684 0.0107559 4
-15.4496 -15.3421 -2.6734 0.0432121 4
-42.2378 -41.9439 -1.03903 0.455174 10
-42.2405 -41.9466 1.03909 0.455175 10
-45.0733 -44.7597 3.32904 0.137307 10
-45.0752 -44.7616 5.55768 0.13699 10
-45.0771 -44.7635 7.80017 0.136506 10
-45.0791 -44.7654 10.0622 0.135855 10
-45.081 -44.7674 12.3495 0.135039 10
-45.083 -44.7694 14.6683 0.134058 10
-7.12914 -7.12914 -2.7015 0.0975397 4
-8.15618 -8.15618 -2.66297 0.0222143 4
-9.69522 -9.69522 -2.66517 0.0328381 4
-11.9128 -11.9128 -2.66834 0.0114732 4
-44.9453 -44.9453 -1.10948 0.139786 10
-44.9472 -44.9472 1.10953 0.139804 10
-44.9491 -44.9491 3.33144 0.13965 10
-44.9529 -44.9529 7.80579 0.138834 10
-44.9568 -44.9568 12.3584 0.137342 10
-7.10413 -7.1539 -2.70147 0.0529338 4
-8.12755 -8.18448 -2.66293 0.0413296 4
-9.66116 -9.72884 -2.66513 0.0214546 4
-11.8709 -11.9541 -2.66829 0.0136247 4
-15.3412 -15.4487 -2.67325 0.0223042 4
-44.821 -45.135 -1.1103 0.14213 10
-44.8229 -45.1369 1.11034 0.142148 10
-44.8248 -45.1388 3.33388 0.141992 10
-44.8286 -45.1426 7.81151 0.141161 10
-44.8325 -45.1466 12.3675 0.139643 10
-7.07902 -7.17856 -2.70143 0.0273594 4
-8.09881 -8.21269 -2.66289 0.0134323 4
-9.62697 -9.76234 -2.66508 0.0070057 4
-11.8289 -11.9952 -2.66823 0.010398 4
-15.2868 -15.5017 -2.67318 0.0158922 4
-44.6965 -45.325 -1.11113 0.144473 10
-44.6984 -45.3269 1.11117 0.14449 10
-44.7002 -45.3288 3.33637 0.144331 10
-44.7041 -45.3326 7.81734 0.143487 10
-44.7079 -45.3366 12.3767 0.141943 10
-7.05384 -7.20314 -2.7014 0.0898113 4
-8.06998 -8.24079 -2.66285 0.0139491 4
-9.59267 -9.79571 -2.66503 0.0245204 4
-44.5718 -45.5152 -1.11197 0.146813 10
-44.5737 -45.5171 1.11201 0.146831 10
-44.5755 -45.519 3.3389 0.146669 10
-44.5793 -45.5229 7.82327 0.14581 10
-44.5832 -45.5269 12.3861 0.144241 10
-7.02856 -7.22763 -2.70136 0.01368 4
-9.55825 -9.82896 -2.66499 0.0188285 4
-11.7443 -12.077 -2.66812 0.0369324 4
-44.4469 -45.7057 -1.11283 0.149152 10
-44.4488 -45.7076 1.11287 0.14917 10
-44.4506 -45.7096 3.34147 0.149005 10
-44.4544 -45.7135 7.8293 0.148132 10
-44.4583 -45.7175 12.3957 0.146537 10
-7.0032 -7.25202 -2.70133 0.0196281 4
-8.01202 -8.29668 -2.66278 0.0506317 4
-9.52372 -9.8621 -2.66494 0.01445 4
-44.3218 -45.8965 -1.1137 0.151489 10
-44.3237 -45.8985 1.11374 0.151507 10
-44.3255 -45.9004 3.34409 0.151339 10
-44.3293 -45.9044 7.83544 0.150452 10
-44.3332 -45.9083 12.4054 0.148832 10
-6.97775 -7.27633 -2.7013 0.0255764 4
-7.98289 -8.32448 -2.66274 0.0506325 4
-9.48907 -9.89511 -2.66489 0.0148882 4
-11.6592 -12.1581 -2.668 0.012909 4
-44.1965 -46.0877 -1.11459 0.153825 10
-44.1984 -46.0896 1.11463 0.153842 10
-44.2002 -46.0916 3.34676 0.153672 10
-44.204 -46.0955 7.84169 0.15277 10
-44.2079 -46.0995 12.4153 0.151125 10
-6.95223 -7.30056 -2.70126 0.036878 4
-7.95366 -8.35217 -2.6627 0.0180833 4
-9.45431 -9.928 -2.66485 0.0310905 4
-11.6165 -12.1985 -2.66795 0.0197225 4
-15.0119 -15.764 -2.67281 0.0264907 4
-44.071 -46.2791 -1.11549 0.156158 10
-44.0729 -46.2811 1.11553 0.156175 10
-44.0747 -46.283 3.34947 0.156002 10
-44.0785 -46.287 7.84804 0.155087 10
-44.0824 -46.291 12.4253 0.153416 10
-6.92661 -7.32469 -2.70123 0.0208185 4
-7.92434 -8.37976 -2.66266 0.0180836 4
-9.41943 -9.96076 -2.6648 0.022333 4
-14.9563 -15.8159 -2.67274 0.03904 4
-43.9453 -46.4709 -1.11641 0.15849 10
-43.9472 -46.4728 1.11645 0.158507 10
-43.949 -46.4748 3.35222 0.158331 10
-43.9528 -46.4788 7.8545 0.157401 10
-43.9566 -46.4828 12.4355 0.155704 10
-6.90091 -7.34873 -2.70119 0.0190343 4
-9.38443 -9.99341 -2.66475 0.0227713 4
-11.5305 -12.2788 -2.66783 0.0179303 4
-43.8194 -46.6629 -1.11734 0.160819 10
-43.8213 -46.6649 1.11738 0.160836 10
-43.8231 -46.6669 3.35503 0.160658 10
-43.8269 -46.6709 7.86106 0.159714 10
-43.8307 -46.675 12.4459 0.157992 10
-43.8347 -46.6792 17.158 0.1555 10
-6.87513 -7.37267 -2.70116 0.0255777 4
-7.86542 -8.43462 -2.66258 0.0160173 4
-9.34933 -10.0259 -2.66471 0.00832044 4
-11.4873 -12.3187 -2.66777 0.0444681 4
-43.6933 -46.8553 -1.11829 0.163147 10
-43.6952 -46.8573 1.11833 0.163164 10
-43.697 -46.8593 3.35787 0.162982 10
-43.6989 -46.8613 5.60581 0.162602 10
-43.6284 -46.7858 7.85471 0.283494 10
-43.6237 -46.7807 10.131 0.282094 10
-43.7046 -46.8674 12.4565 0.160277 10
-43.7065 -46.8695 14.7954 0.159109 10
-43.7085 -46.8716 17.1726 0.157748 10
-6.84927 -7.39653 -2.70112 0.022009 4
-7.83581 -8.4619 -2.66254 0.0124007 4
-9.31411 -10.0583 -2.66466 0.0153274 4
-11.444 -12.3584 -2.66771 0.0150621 4
-14.7886 -15.9703 -2.67251 0.020916 4
-43.567 -47.048 -1.11925 0.165472 10
-43.5688 -47.05 1.1193 0.165489 10
-43.5707 -47.052 3.36076 0.165305 10
-43.5725 -47.054 5.61064 0.164919 10
-43.5782 -47.0602 12.4672 0.16256 10
-43.5802 -47.0623 14.8082 0.161376 10
-43.5822 -47.0644 17.1874 0.159995 10
-6.82332 -7.4203 -2.70109 0.0321216 4
-7.80611 -8.48907 -2.6625 0.0289354 4
-9.27878 -10.0906 -2.66461 0.0468589 4
-11.4006 -12.398 -2.66766 0.0225936 4
-43.4404 -47.2411 -1.12023 0.167796 10
-43.4423 -47.2431 1.12027 0.167813 10
-43.4441 -47.2451 3.3637 0.167626 10
-43.446 -47.2471 5.61555 0.167235 10
-43.4517 -47.2533 12.4781 0.164841 10
-43.4536 -47.2554 14.8211 0.16364 10
-43.4556 -47.2576 17.2024 0.16224 10
-6.79728 -7.44397 -2.70105 0.0446139 4
-7.77631 -8.51614 -2.66246 0.026869 4
-9.24333 -10.1227 -2.66456 0.0144521 4
-11.357 -12.4375 -2.6676 0.0100418 4
-43.3136 -47.4345 -1.12122 0.170117 10
-43.3155 -47.4365 1.12127 0.170135 10
-43.3173 -47.4385 3.36669 0.169945 10
-43.3192 -47.4406 5.62053 0.169548 10
-43.3211 -47.4426 7.88839 0.168944 10
-43.3229 -47.4447 10.176 0.168135 10
-43.3249 -47.4468 12.4892 0.16712 10
-43.3268 -47.4489 14.8343 0.165902 10
-43.3288 -47.451 17.2177 0.164482 10
-6.77117 -7.46756 -2.70102 0.0261739 4
-7.74642 -8.54311 -2.66242 0.0144681 4
-9.20778 -10.1548 -2.66452 0.0275908 4
-11.3132 -12.4768 -2.66754 0.0175736 4
-14.6193 -16.1229 -2.67228 0.0147819 4
-43.1866 -47.6282 -1.12223 0.172437 10
-43.1885 -47.6302 1.12228 0.172454 10
-43.1903 -47.6323 3.36972 0.172261 10
-43.1922 -47.6343 5.62559 0.171859 10
-43.194 -47.6364 7.89549 0.171247 10
-43.1959 -47.6385 10.1851 0.170426 10
-43.1978 -47.6406 12.5004 0.169398 10
-43.1998 -47.6427 14.8476 0.168163 10
-43.2017 -47.6449 17.2332 0.166723 10
-6.74498 -7.49105 -2.70098 0.0333126 4
-7.71643 -8.56996 -2.66238 0.0242862 4
-9.17211 -10.1867 -2.66447 0.0210219 4
-11.2694 -12.5159 -2.66748 0.0200846 4
-43.0594 -47.8223 -1.12326 0.174754 10
-43.0612 -47.8244 1.1233 0.174771 10
-43.0631 -47.8264 3.3728 0.174576 10
-43.0649 -47.8285 5.63073 0.174167 10
-43.0668 -47.8305 7.9027 0.173547 10
-43.0687 -47.8326 10.1944 0.172715 10
-43.0706 -47.8347 12.5119 0.171673 10
-43.0725 -47.8369 14.8612 0.170421 10
-43.0745 -47.839 17.2489 0.168962 10
-6.7187 -7.51445 -2.70095 0.0523491 4
-7.68635 -8.59672 -2.66234 0.0346213 4
-9.13633 -10.2184 -2.66442 0.0188325 4
-11.2254 -12.5549 -2.66742 0.0100425 4
-42.9319 -48.0168 -1.1243 0.177069 10
-42.9338 -48.0188 1.12434 0.177087 10
-42.9356 -48.0209 3.37592 0.176888 10
-42.9375 -48.0229 5.63594 0.176474 10
-42.9393 -48.025 7.91002 0.175845 10
-42.9412 -48.0271 10.2039 0.175002 10
-42.9431 -48.0292 12.5235 0.173946 10
-42.945 -48.0314 14.8749 0.172677 10
-42.947 -48.0336 17.2649 0.171199 10
-6.69234 -7.53776 -2.70091 0.0107079 4
-7.65618 -8.62336 -2.6623 0.0227367 4
-9.10044 -10.2501 -2.66437 0.0512428 4
-11.1812 -12.5937 -2.66736 0.0125534 4
-42.8042 -48.2116 -1.12535 0.179382 10
-42.8061 -48.2136 1.1254 0.1794 10
-42.8079 -48.2157 3.37909 0.179198 10
-42.8116 -48.2199 7.91745 0.178141 10
-42.8154 -48.2241 12.5352 0.176217 10
-42.8192 -48.2285 17.2811 0.173433 10
-6.6659 -7.56098 -2.70088 0.0523505 4
-7.62592 -8.6499 -2.66226 0.0263543 4
-9.06444 -10.2816 -2.66432 0.0157673 4
-11.1369 -12.6324 -2.6673 0.0129124 4
-14.3911 -16.3235 -2.67198 0.0178519 4
-42.6763 -48.4068 -1.12642 0.181693 10
-42.6781 -48.4088 1.12647 0.181711 10
-42.68 -48.4109 3.38231 0.181507 10
-42.6836 -48.4151 7.92499 0.180436 10
-42.6874 -48.4193 12.5472 0.178485 10
-42.6913 -48.4237 17.2976 0.175666 10
-6.63938 -7.5841 -2.70084 0.0148725 4
-7.59556 -8.67634 -2.66222 0.0284217 4
-9.02833 -10.313 -2.66427 0.0188335 4
-14.3337 -16.3732 -2.6719 0.0496521 4
-42.5481 -48.6023 -1.12751 0.184002 10
-42.5499 -48.6044 1.12756 0.184019 10
-42.5518 -48.6065 3.38558 0.183812 10
-42.5554 -48.6107 7.93265 0.182727 10
-42.5592 -48.615 12.5593 0.180752 10
-42.5631 -48.6194 17.3143 0.177896 10
-6.61277 -7.60712 -2.7008 0.0267708 4
-7.56511 -8.70266 -2.66217 0.015503 4
-8.99211 -10.3442 -2.66423 0.0122639 4
-11.048 -12.7092 -2.66718 0.0225977 4
-14.276 -16.4227 -2.67182 0.0616485 4
-20.0982 -23.1203 -2.68019 0.0292342 4
-42.4197 -48.7982 -1.12862 0.186308 10
-42.4215 -48.8003 1.12866 0.186326 10
-42.4233 -48.8024 3.38889 0.186116 10
-42.427 -48.8067 7.94041 0.185017 10
-42.4307 -48.811 12.5716 0.183016 10
-42.4346 -48.8154 17.3312 0.180124 10
-6.58609 -7.63006 -2.70077 0.127907 4
-7.53457 -8.72888 -2.66213 0.025322 4
-8.95578 -10.3754 -2.66418 0.0363544 4
-11.0033 -12.7474 -2.66712 0.0247504 4
-14.2182 -16.4719 -2.67174 0.0557921 4
-42.291 -48.9946 -1.12973 0.188612 10
-42.2928 -48.9967 1.12978 0.18863 10
-42.2946 -48.9988 3.39225 0.188417 10
-42.2983 -49.003 7.94829 0.187304 10
-42.302 -49.0073 12.5841 0.185278 10
-42.3059 -49.0118 17.3484 0.18235 10
-6.55933 -7.6529 -2.70073 0.0904283 4
-7.50394 -8.75499 -2.66209 0.066665 4
-8.91935 -10.4064 -2.66413 0.0236527 4
-10.9585 -12.7855 -2.66706 0.041969 4
-42.162 -49.1913 -1.13087 0.190914 10
-42.1638 -49.1934 1.13092 0.190932 10
-42.1657 -49.1955 3.39566 0.190716 10
-42.1675 -49.1976 5.6689 0.190269 10
-42.1693 -49.1998 7.95628 0.189589 10
-42.1712 -49.2019 10.2636 0.188679 10
-42.173 -49.2041 12.5967 0.187538 10
-42.1749 -49.2063 14.9619 0.18617 10
-41.7352 -48.6933 17.184 0.272771 10
-6.53249 -7.67565 -2.7007 0.12791 4
-7.47322 -8.781 -2.66205 0.00775186 4
-8.8828 -10.4373 -2.66408 0.0127026 4
-42.0328 -49.3884 -1.13202 0.193214 10
-42.0346 -49.3905 1.13207 0.193231 10
-42.0364 -49.3926 3.39912 0.193013 10
-42.0383 -49.3948 5.67467 0.19256 10
-42.0401 -49.3969 7.96438 0.191872 10
-42.0419 -49.3991 10.274 0.19095 10
-42.0438 -49.4013 12.6095 0.189796 10
-42.0457 -49.4035 14.9772 0.18841 10
-6.50557 -7.6983 -2.70066 0.113038 4
-7.4424 -8.80689 -2.66201 0.0330751 4
-8.84615 -10.468 -2.66403 0.0245296 4
-10.8685 -12.8611 -2.66694 0.010403 4
-41.9033 -49.5859 -1.13319 0.195511 10
-41.9052 -49.588 1.13324 0.195528 10
-41.907 -49.5902 3.40263 0.195307 10
-41.9088 -49.5923 5.68053 0.194849 10
-41.9106 -49.5945 7.9726 0.194152 10
-41.9124 -49.5967 10.2846 0.19322 10
-41.9143 -49.5989 12.6225 0.192051 10
-41.9162 -49.6011 14.9926 0.190649 10
-6.47857 -7.72086 -2.70062 0.136838 4
-7.4115 -8.83268 -2.66197 0.100777 4
-8.80939 -10.4986 -2.66398 0.00876075 4
-10.8233 -12.8987 -2.66688 0.0100445 4
-41.7736 -49.7838 -1.13437 0.197806 10
-41.7754 -49.786 1.13442 0.197823 10
-41.7772 -49.7881 3.40618 0.197599 10
-41.779 -49.7903 5.68646 0.197135 10
-41.7808 -49.7925 7.98093 0.19643 10
-41.7827 -49.7947 10.2954 0.195486 10
-41.7845 -49.7969 12.6357 0.194304 10
-41.7864 -49.7991 15.0083 0.192885 10
-41.7884 -49.8014 17.4197 0.191232 10
-6.45149 -7.74332 -2.70059 0.113636 4
-7.38051 -8.85836 -2.66192 0.039278 4
-8.77253 -10.5291 -2.66393 0.0262827 4
-10.7779 -12.9361 -2.66682 0.0247532 4
-13.9265 -16.7151 -2.67135 0.0304112 4
-41.6436 -49.9822 -1.13557 0.200098 10
-41.6454 -49.9843 1.13562 0.200115 10
-41.6472 -49.9865 3.40978 0.199889 10
-41.649 -49.9887 5.69248 0.199419 10
-41.6508 -49.9908 7.98937 0.198706 10
-41.6527 -49.993 10.3063 0.197751 10
-41.6545 -49.9953 12.6491 0.196555 10
-41.6564 -49.9975 15.0242 0.195119 10
-41.6583 -49.9998 17.4381 0.193446 10
-6.42434 -7.76569 -2.70055 0.0356978 4
-7.34942 -8.88393 -2.66188 0.00568506 4
-8.73556 -10.5595 -2.66388 0.0205885 4
-13.8676 -16.7631 -2.67127 0.0298541 4
-41.5133 -50.1809 -1.13679 0.202388 10
-41.5151 -50.1831 1.13684 0.202405 10
-41.5169 -50.1853 3.41344 0.202176 10
-41.5187 -50.1875 5.69858 0.201701 10
-41.5205 -50.1897 7.99794 0.200979 10
-41.5223 -50.1919 10.3173 0.200013 10
-41.5242 -50.1941 12.6627 0.198803 10
-41.5261 -50.1964 15.0403 0.197351 10
-41.528 -50.1987 17.4568 0.195658 10
-6.3971 -7.78796 -2.70051 0.0291536 4
-7.31825 -8.90938 -2.66184 0.0160218 4
-8.69848 -10.5897 -2.66383 0.0258457 4
-10.6869 -13.0104 -2.66669 0.0111215 4
-41.3827 -50.3801 -1.13802 0.204675 10
-41.3845 -50.3823 1.13807 0.204692 10
-41.3863 -50.3845 3.41714 0.20446 10
-41.3899 -50.3889 8.00661 0.203249 10
-41.3936 -50.3934 12.6764 0.201048 10
-41.3974 -50.398 17.4758 0.197868 10
-6.36979 -7.81014 -2.70048 0.0922218 4
-7.28699 -8.93474 -2.6618 0.0217073 4
-8.6613 -10.6198 -2.66378 0.0162086 4
-10.6411 -13.0473 -2.66663 0.0283426 4
-41.2519 -50.5798 -1.13927 0.20696 10
-41.2536 -50.5819 1.13932 0.206977 10
-41.2554 -50.5841 3.42089 0.206742 10
-41.259 -50.5886 8.01541 0.205517 10
-41.2627 -50.5931 12.6903 0.203291 10
-41.2665 -50.5977 17.495 0.200076 10
-6.3424 -7.83221 -2.70044 0.0237995 4
-7.25565 -8.95997 -2.66176 0.0315277 4
-8.62402 -10.6498 -2.66373 0.033294 4
-10.5953 -13.0841 -2.66657 0.014351 4
-13.6901 -16.9059 -2.67103 0.015905 4
-41.1207 -50.7798 -1.14054 0.209242 10
-41.1225 -50.782 1.14059 0.209259 10
-41.1243 -50.7842 3.4247 0.209022 10
-41.1279 -50.7887 8.02432 0.207783 10
-41.1315 -50.7932 12.7044 0.205532 10
-41.1353 -50.7979 17.5144 0.202281 10
-6.31494 -7.8542 -2.7004 0.0309398 4
-8.58663 -10.6796 -2.66368 0.024971 4
-10.5493 -13.1207 -2.66651 0.031573 4
-40.9893 -50.9803 -1.14182 0.211522 10
-40.991 -50.9826 1.14187 0.211539 10
-40.9928 -50.9848 3.42855 0.211299 10
-40.9964 -50.9892 8.03335 0.210046 10
-41.0001 -50.9938 12.7187 0.20777 10
-41.0038 -50.9985 17.5341 0.204483 10
-6.2874 -7.87609 -2.70037 0.0136851 4
-7.19269 -9.01012 -2.66167 0.0273938 4
-8.54913 -10.7093 -2.66363 0.0293524 4
-10.5032 -13.1571 -2.66645 0.00861101 4
-40.8575 -51.1813 -1.14312 0.213799 10
-40.8593 -51.1835 1.14317 0.213817 10
-40.8611 -51.1858 3.43245 0.213573 10
-40.8647 -51.1903 8.04249 0.212307 10
-40.8683 -51.1948 12.7332 0.210006 10
-40.8721 -51.1995 17.5541 0.206683 10
-6.25978 -7.89788 -2.70033 0.0541461 4
-7.16108 -9.03503 -2.66163 0.0191243 4
-8.51153 -10.7389 -2.66358 0.0473152 4
-10.4569 -13.1934 -2.66638 0.0111228 4
-40.7255 -51.3828 -1.14444 0.216074 10
-40.7272 -51.385 1.14449 0.216091 10
-40.729 -51.3872 3.43641 0.215845 10
-40.7326 -51.3917 8.05176 0.214565 10
-40.7362 -51.3963 12.7479 0.21224 10
-40.74 -51.4011 17.5743 0.208881 10
-6.23209 -7.91957 -2.70029 0.0410564 4
-7.12938 -9.05982 -2.66159 0.0196415 4
-8.47383 -10.7683 -2.66353 0.0153339 4
-10.4106 -13.2295 -2.66632 0.0154288 4
-40.5931 -51.5847 -1.14577 0.218346 10
-40.5949 -51.5869 1.14582 0.218363 10
-40.5967 -51.5892 3.44041 0.218115 10
-40.6002 -51.5937 8.06115 0.216821 10
-40.6039 -51.5983 12.7627 0.21447 10
-40.6076 -51.6031 17.5948 0.211076 10
-6.20432 -7.94116 -2.70025 0.0553377 4
-7.0976 -9.08451 -2.66154 0.0346316 4
-8.43603 -10.7976 -2.66347 0.0302303 4
-10.3641 -13.2654 -2.66626 0.019735 4
-40.4605 -51.787 -1.14712 0.220615 10
-40.4622 -51.7893 1.14717 0.220633 10
-40.464 -51.7915 3.44447 0.220381 10
-40.4676 -51.7961 8.07065 0.219073 10
-40.4712 -51.8007 12.7778 0.216698 10
-40.4749 -51.8055 17.6156 0.213268 10
-6.17647 -7.96266 -2.70022 0.0255866 4
-7.0685 -9.11266 -2.66254 0.0138639 4
-8.39813 -10.8268 -2.66342 0.023659 4
-10.3175 -13.3012 -2.66619 0.022606 4
-18.7636 -24.1899 -2.67839 0.0368161 4
-40.3275 -51.9899 -1.14849 0.222882 10
-40.3292 -51.9922 1.14854 0.2229 10
-40.331 -51.9944 3.44858 0.222645 10
-40.3346 -51.999 8.08028 0.221324 10
-40.3382 -52.0037 12.793 0.218924 10
-40.3419 -52.0085 17.6366 0.215458 10
-6.14856 -7.98406 -2.70018 0.0190415 4
-7.04514 -9.14829 -2.66575 0.0479112 4
-8.36012 -10.8558 -2.66337 0.0289171 4
-10.2708 -13.3368 -2.66613 0.0229654 4
-18.6783 -24.2542 -2.67827 0.0376137 4
-40.1942 -52.1932 -1.14988 0.225146 10
-40.196 -52.1955 1.14993 0.225164 10
-40.1977 -52.1978 3.45274 0.224907 10
-40.2013 -52.2024 8.09003 0.223571 10
-40.2049 -52.2071 12.8085 0.221146 10
-40.2086 -52.2119 17.6579 0.217645 10
-6.12056 -8.00536 -2.70014 0.0517697 4
-7.02171 -9.18402 -2.66901 0.0282911 4
-8.32202 -10.8847 -2.66332 0.0170877 4
-10.2239 -13.3723 -2.66607 0.0190187 4
-40.0606 -52.3971 -1.15128 0.227407 10
-40.0623 -52.3993 1.15133 0.227424 10
-40.0641 -52.4016 3.45695 0.227164 10
-40.0659 -52.404 5.77123 0.226628 10
-40.0676 -52.4063 8.0999 0.225815 10
-40.0694 -52.4086 10.4488 0.224727 10
-40.0712 -52.411 12.8241 0.223366 10
-40.0731 -52.4134 15.2321 0.221732 10
-40.075 -52.4158 17.6794 0.21983 10
-6.0925 -8.02657 -2.7001 0.00833087 4
-6.99823 -9.21983 -2.6723 0.0330836 4
-8.28381 -10.9135 -2.66327 0.0162117 4
-10.1769 -13.4076 -2.666 0.0283493 4
-18.7572 -24.7117 -2.71427 0.0850443 4
-39.9266 -52.6014 -1.1527 0.229665 10
-39.9284 -52.6037 1.15275 0.229683 10
-39.9301 -52.606 3.46122 0.22942 10
-39.9319 -52.6083 5.77835 0.228878 10
-39.9337 -52.6107 8.1099 0.228057 10
-39.9355 -52.613 10.4617 0.226959 10
-39.9373 -52.6154 12.8399 0.225583 10
-39.9391 -52.6178 15.2509 0.223933 10
-39.941 -52.6203 17.7012 0.222012 10
-6.06436 -8.04767 -2.70006 0.119014 4
-6.97469 -9.25573 -2.67563 0.0455572 4
-8.24551 -10.9422 -2.66322 0.0267279 4
-10.1298 -13.4427 -2.66594 0.0118424 4
-13.0878 -17.3681 -2.67022 0.0198175 4
-18.9558 -25.1552 -2.75569 0.0327899 1
-39.7924 -52.8062 -1.15414 0.231921 10
-39.7941 -52.8086 1.15419 0.231938 10
-39.7959 -52.8109 3.46554 0.231673 10
-39.7976 -52.8132 5.78556 0.231126 10
-39.7994 -52.8155 8.12002 0.230297 10
-39.8012 -52.8179 10.4748 0.229187 10
-39.803 -52.8203 12.856 0.227798 10
-39.8048 -52.8227 15.2699 0.226131 10
-39.8067 -52.8252 17.7233 0.224191 10
-6.03614 -8.06868 -2.70003 0.111875 4
-6.9511 -9.29172 -2.67901 0.0368 4
-8.2071 -10.9707 -2.66317 0.0289193 4
-10.0826 -13.4777 -2.66588 0.0114838 4
-18.8671 -25.2201 -2.75557 0.0327913 1
-39.6577 -53.0116 -1.15559 0.234174 10
-39.6595 -53.0139 1.15564 0.234191 10
-39.663 -53.0186 5.79286 0.23337 10
-39.6665 -53.0233 10.488 0.231412 10
-39.6701 -53.0282 15.2892 0.228327 10
-6.00785 -8.08958 -2.69999 0.119017 4
-6.92744 -9.32781 -2.68242 0.0332836 4
-8.16859 -10.999 -2.66311 0.0302344 4
-10.0352 -13.5124 -2.66581 0.0376821 4
-12.9654 -17.4579 -2.67005 0.028472 4
-18.7781 -25.2847 -2.75545 0.0327927 1
-39.5228 -53.2175 -1.15707 0.236424 10
-39.5245 -53.2198 1.15712 0.236441 10
-39.528 -53.2245 5.80025 0.235612 10
-39.5315 -53.2293 10.5014 0.233635 10
-39.5352 -53.2341 15.3087 0.23052 10
-5.9795 -8.11039 -2.69995 0.12497 4
-6.90372 -9.36398 -2.68588 0.0609489 4
-8.12999 -11.0273 -2.66306 0.0166512 4
-9.98776 -13.5471 -2.66575 0.066035 4
-18.6889 -25.349 -2.75533 0.0327942 1
-39.3875 -53.4239 -1.15856 0.238671 10
-39.3892 -53.4262 1.15861 0.238689 10
-39.3927 -53.431 5.80772 0.237851 10
-39.3962 -53.4357 10.5149 0.235855 10
-39.3998 -53.4406 15.3284 0.23271 10
-5.95107 -8.1311 -2.69991 0.0993824 4
-6.87994 -9.40025 -2.68937 0.0386486 4
-8.09129 -11.0553 -2.66301 0.0254154 4
-9.94017 -13.5815 -2.66568 0.0742912 4
-12.8424 -17.5469 -2.66988 0.0170284 4
-18.4403 -25.1955 -2.73164 0.247307 4
-39.2536 -53.6332 1.16012 0.240934 10
-5.92256 -8.1517 -2.69987 0.106525 4
-6.8561 -9.43661 -2.69291 0.0222905 4
-8.0525 -11.0833 -2.66296 0.0262923 4
-9.89246 -13.6158 -2.66562 0.0663971 4
-18.1958 -25.0443 -2.70834 0.235117 4
-39.1176 -53.8407 1.16165 0.243176 10
-5.89399 -8.17221 -2.69983 0.130332 4
-6.8322 -9.47307 -2.6965 0.0313334 4
-8.0136 -11.1111 -2.6629 0.0311132 4
-9.84463 -13.6499 -2.66555 0.0150743 4
-12.7188 -17.635 -2.66972 0.0195421 4
-17.9553 -24.8957 -2.68547 0.242686 4
-38.9812 -54.0487 1.16319 0.245414 10
-5.86534 -8.19262 -2.69979 0.11605 4
-6.80823 -9.50963 -2.70012 0.0202685 4
-7.97461 -11.1388 -2.66285 0.0398783 4
-12.6568 -17.6788 -2.66963 0.015355 4
-17.7189 -24.7495 -2.66302 0.267964 4
-38.8444 -54.2573 1.16476 0.247649 10
-5.83662 -8.21292 -2.69976 0.120813 4
-6.77749 -9.53686 -2.70112 0.100298 4
-7.93552 -11.1664 -2.6628 0.0333056 4
-9.74862 -13.7176 -2.66542 0.0301501 4
-12.5946 -17.7223 -2.66955 0.0226144 4
-17.4864 -24.6057 -2.64096 0.198724 4
-38.7073 -54.4665 1.16634 0.249882 10
-5.80783 -8.23313 -2.69972 0.123791 4
-6.74405 -9.5603 -2.70107 0.109089 4
-7.89633 -11.1938 -2.66274 0.0521506 4
-9.70044 -13.7513 -2.66536 0.0136397 4
-17.2576 -24.4643 -2.6193 0.149323 4
-38.5698 -54.6762 1.16794 0.252111 10
-5.77897 -8.25323 -2.69968 0.1351 4
-6.71052 -9.58362 -2.70103 0.0925461 4
-7.85705 -11.221 -2.66269 0.0118327 4
-9.65215 -13.7847 -2.66529 0.0186653 4
-12.4698 -17.8086 -2.66938 0.0159148 4
-17.0326 -24.3251 -2.59801 0.282523 4
-38.432 -54.8865 1.16956 0.254337 10
-38.4354 -54.8914 5.86262 0.253443 10
-38.4424 -54.9015 15.4733 0.24796 10
-5.75005 -8.27323 -2.69964 0.128556 4
-6.67692 -9.60682 -2.70098 0.0915136 4
-7.81768 -11.2482 -2.66264 0.0267337 4
-9.60373 -13.818 -2.66523 0.0330239 4
-12.4071 -17.8515 -2.66929 0.0256879 4
-16.8112 -24.1881 -2.57711 0.0999155 4
-38.2937 -55.0975 1.1712 0.256561 10
-38.2971 -55.1024 5.87083 0.255658 10
-38.3042 -55.1125 15.495 0.250126 10
-5.72105 -8.29313 -2.6996 0.112488 4
-6.64323 -9.62991 -2.70094 0.100822 4
-7.77821 -11.2752 -2.66258 0.0188455 4
-12.3443 -17.8941 -2.66921 0.0150782 4
-38.1551 -55.309 1.17286 0.258781 10
-38.1585 -55.3139 5.87914 0.25787 10
-38.1655 -55.324 15.5169 0.25229 10
-35.8097 -51.9091 16.8976 0.214245 10
-5.69198 -8.31293 -2.69956 0.0136892 4
-6.60946 -9.65288 -2.70089 0.0930679 4
-7.73865 -11.302 -2.66253 0.0219138 4
-12.2814 -17.9365 -2.66912 0.0161956 4
-38.0144 -55.5186 -1.17448 0.26098 10
-38.0161 -55.521 1.17453 0.260997 10
-38.0195 -55.526 5.88755 0.260078 10
-38.0229 -55.5311 10.6595 0.257892 10
-38.0265 -55.5362 15.5391 0.25445 10
-35.586 -51.972 16.8775 0.212054 10
-5.66285 -8.33263 -2.69952 0.00714229 4
-6.57562 -9.67572 -2.70085 0.103928 4
-7.699 -11.3287 -2.66248 0.0127103 4
-12.2183 -17.9787 -2.66904 0.0156376 4
-17.194 -25.3002 -2.67626 0.0296754 4
-37.8749 -55.7313 -1.17618 0.263194 10
-37.8766 -55.7337 1.17623 0.263211 10
-37.88 -55.7388 5.89605 0.262284 10
-37.8835 -55.7438 10.6748 0.260079 10
-37.887 -55.749 15.5616 0.256607 10
-5.63365 -8.35222 -2.69948 0.0214272 4
-6.54169 -9.69845 -2.7008 0.107032 4
-7.65925 -11.3553 -2.66242 0.0539101 4
-9.40894 -13.9493 -2.66496 0.0100518 4
-37.7351 -55.9446 -1.17789 0.265404 10
-37.7368 -55.9471 1.17794 0.265421 10
-37.7402 -55.9521 5.90465 0.264486 10
-37.7436 -55.9572 10.6904 0.262263 10
-37.7471 -55.9624 15.5843 0.258761 10
-5.60437 -8.37171 -2.69944 0.0488071 4
-6.50768 -9.72106 -2.70075 0.107034 4
-7.61941 -11.3817 -2.66237 0.0179704 4
-9.35995 -13.9817 -2.6649 0.0412851 4
-16.9081 -25.2571 -2.65914 0.204633 4
-37.5949 -56.1585 -1.17963 0.267611 10
-37.5966 -56.161 1.17968 0.267629 10
-37.5999 -56.1661 5.91334 0.266685 10
-37.6034 -56.1712 10.7062 0.264443 10
-37.6069 -56.1765 15.6072 0.260912 10
-5.57503 -8.3911 -2.6994 0.0249991 4
-6.4736 -9.74355 -2.70071 0.0630836 4
-7.57948 -11.408 -2.66231 0.019724 4
-9.31086 -14.014 -2.66483 0.0531334 4
-16.7 -25.1355 -2.64019 0.275157 4
-37.4542 -56.3731 -1.18138 0.269815 10
-37.4559 -56.3756 1.18143 0.269833 10
-37.4593 -56.3807 5.92213 0.268881 10
-37.4627 -56.3859 10.7221 0.26662 10
-37.4662 -56.3911 15.6304 0.26306 10
-5.54563 -8.41038 -2.69936 0.0577369 4
