VERSION 0.7
FIELDS x y z intensity label
SIZE 4 4 4 4 4
TYPE F F F F F
COUNT 1 1 1 1 1
WIDTH 1273
HEIGHT 1
VIEWPOINT 1.37151 15.9435 2.7294 0.825763 -0.000322934 0.000833308 0.564016
POINTS 1273
DATA ascii
2.94897 5.36416 -1.18986 0.670445 10
2.94877 5.36379 -0.969455 0.674632 10
2.94857 5.36342 -0.751501 0.677996 10
2.94837 5.36306 -0.535437 0.680534 10
2.94817 5.36269 -0.320718 0.682244 10
2.94797 5.36233 -0.106812 0.683122 10
2.94777 5.36197 0.106805 0.683168 10
2.94758 5.36162 0.320653 0.682381 10
2.94738 5.36125 0.535257 0.680763 10
2.94718 5.36089 0.751147 0.678316 10
2.94698 5.36053 0.968866 0.675042 10
2.61029 4.7481 1.05321 0.169437 10
2.94657 5.35978 1.41207 0.519314 10
2.94636 5.3594 1.63875 0.51485 10
2.93923 5.39094 -1.64524 0.6577 10
2.93902 5.39055 -1.41746 0.663497 10
2.93882 5.39017 -1.19335 0.668486 10
2.93861 5.3898 -0.972297 0.67266 10
2.93841 5.38943 -0.753703 0.676015 10
2.93821 5.38906 -0.537006 0.678546 10
2.93801 5.3887 -0.321657 0.68025 10
2.93782 5.38834 -0.107125 0.681126 10
2.93762 5.38797 0.107118 0.681172 10
2.93742 5.38761 0.321593 0.680388 10
2.93722 5.38725 0.536825 0.678774 10
2.93702 5.38688 0.753347 0.676334 10
2.93682 5.38651 0.971704 0.67307 10
2.59897 4.76684 1.05535 0.668986 10
2.93641 5.38576 1.4162 0.517797 10
2.9362 5.38538 1.64355 0.513346 10
2.92902 5.41711 -1.6501 0.655764 10
2.92881 5.41672 -1.42165 0.661544 10
2.9286 5.41634 -1.19688 0.666518 10
2.9284 5.41596 -0.975167 0.67068 10
2.9282 5.41559 -0.755928 0.674025 10
2.928 5.41522 -0.538591 0.676549 10
2.9278 5.41485 -0.322607 0.678249 10
2.9276 5.41449 -0.107441 0.679122 10
2.92741 5.41412 0.107434 0.679168 10
2.92721 5.41376 0.322541 0.678386 10
2.92701 5.41339 0.538408 0.676778 10
2.92681 5.41302 0.755569 0.674345 10
2.92661 5.41265 0.974571 0.671091 10
2.58993 4.78997 1.05846 0.667019 10
2.9262 5.41189 1.42038 0.516274 10
2.92599 5.4115 1.6484 0.511837 10
2.91875 5.44344 -1.65501 0.65382 10
2.91854 5.44305 -1.42587 0.659583 10
2.91833 5.44266 -1.20043 0.664543 10
2.91813 5.44228 -0.978066 0.668692 10
2.91792 5.44191 -0.758175 0.672028 10
2.91773 5.44154 -0.540192 0.674544 10
2.91753 5.44117 -0.323566 0.676239 10
2.91733 5.4408 -0.10776 0.677109 10
2.91713 5.44043 0.107753 0.677155 10
2.91693 5.44006 0.3235 0.676376 10
2.91674 5.43969 0.540008 0.674773 10
2.91654 5.43932 0.757814 0.672347 10
2.91634 5.43894 0.977466 0.669103 10
2.58084 4.81324 1.06161 0.665043 10
2.91593 5.43818 1.4246 0.514745 10
2.91572 5.43779 1.65329 0.510321 10
2.90841 5.46992 -1.65996 0.651868 10
2.9082 5.46953 -1.43014 0.657614 10
2.90799 5.46914 -1.20403 0.662559 10
2.90779 5.46876 -0.980994 0.666697 10
2.90759 5.46838 -0.760445 0.670022 10
2.90739 5.468 -0.541808 0.672531 10
2.90719 5.46763 -0.324534 0.674221 10
2.907 5.46726 -0.108083 0.675089 10
2.9068 5.46689 0.108075 0.675135 10
2.9066 5.46652 0.324468 0.674358 10
2.9064 5.46615 0.541624 0.67276 10
2.9062 5.46577 0.760082 0.670342 10
2.906 5.46539 0.980391 0.667107 10
2.57169 4.83665 1.06478 0.663059 10
2.90559 5.46462 1.42886 0.51321 10
2.90538 5.46423 1.65824 0.508799 10
2.89801 5.49657 -1.66497 0.649908 10
2.8978 5.49617 -1.43445 0.655637 10
2.8976 5.49578 -1.20766 0.660567 10
2.89739 5.4954 -0.983952 0.664692 10
2.89719 5.49502 -0.762737 0.668008 10
2.89699 5.49464 -0.543442 0.67051 10
2.89679 5.49426 -0.325512 0.672194 10
2.8966 5.49389 -0.108409 0.67306 10
2.8964 5.49351 0.108401 0.673106 10
2.8962 5.49314 0.325446 0.672332 10
2.89601 5.49276 0.543257 0.670738 10
2.89581 5.49239 0.762373 0.668328 10
2.89561 5.49201 0.983345 0.665103 10
2.56249 4.8602 1.06799 0.661067 10
2.8952 5.49123 1.43316 0.511668 10
2.89499 5.49083 1.66323 0.507271 10
2.88755 5.52338 -1.67003 0.64794 10
2.88734 5.52297 -1.43881 0.653652 10
2.88714 5.52258 -1.21133 0.658567 10
2.88693 5.52219 -0.98694 0.66268 10
2.88673 5.52181 -0.765053 0.665986 10
2.88653 5.52143 -0.545092 0.66848 10
2.88634 5.52105 -0.326501 0.67016 10
2.88614 5.52067 -0.108738 0.671023 10
2.88594 5.52029 0.10873 0.671069 10
2.88574 5.51992 0.326434 0.670297 10
2.88555 5.51954 0.544905 0.668709 10
2.88535 5.51916 0.764686 0.666305 10
2.88515 5.51877 0.986329 0.663091 10
2.55323 4.88388 1.07123 0.659068 10
2.88474 5.51799 1.43751 0.510121 10
2.88453 5.51759 1.66828 0.505736 10
2.87446 5.54539 -1.67364 0.56737 10
2.87462 5.5457 -1.44211 0.572297 10
2.87478 5.54601 -1.21426 0.576528 10
2.87494 5.54632 -0.989452 0.580055 10
2.8751 5.54662 -0.767096 0.582877 10
2.87525 5.54692 -0.546615 0.584988 10
2.87541 5.54722 -0.327453 0.586386 10
2.87556 5.54752 -0.109068 0.58707 10
2.87542 5.54724 0.109063 0.669024 10
2.87522 5.54686 0.327431 0.668255 10
2.87502 5.54648 0.546571 0.666671 10
2.87482 5.54609 0.767023 0.664275 10
2.87462 5.54571 0.989343 0.66107 10
2.54392 4.90772 1.07451 0.65706 10
2.87422 5.54492 1.44191 0.508567 10
2.87401 5.54452 1.67338 0.504196 10
2.84379 5.53342 -1.66702 0.569623 10
2.84395 5.53373 -1.43641 0.57457 10
2.84411 5.53404 -1.20945 0.578817 10
2.84427 5.53434 -0.985538 0.582359 10
2.84442 5.53464 -0.764062 0.585191 10
2.84457 5.53494 -0.544452 0.587311 10
2.84473 5.53524 -0.326157 0.588715 10
2.84488 5.53553 -0.108637 0.589408 10
2.86483 5.57435 0.109398 0.66697 10
2.86463 5.57397 0.328439 0.666204 10
2.86443 5.57359 0.548253 0.664625 10
2.86424 5.5732 0.769384 0.662237 10
2.86404 5.57281 0.992388 0.659042 10
2.53455 4.9317 1.07781 0.655044 10
2.84596 5.53763 1.43742 0.447688 10
2.84612 5.53795 1.66839 0.443783 10
2.81337 5.52154 -1.66047 0.571868 10
2.81353 5.52186 -1.43077 0.576835 10
2.81368 5.52216 -1.2047 0.581099 10
2.81384 5.52246 -0.981668 0.584655 10
2.81399 5.52276 -0.761061 0.587499 10
2.81414 5.52306 -0.542314 0.589627 10
2.81429 5.52335 -0.324876 0.591042 10
2.81444 5.52365 -0.10821 0.591732 10
2.85418 5.60163 0.109737 0.664909 10
2.85398 5.60124 0.329458 0.664145 10
2.85378 5.60086 0.549953 0.662571 10
2.85358 5.60047 0.771769 0.660191 10
2.85338 5.60007 0.995464 0.657006 10
2.52512 4.95583 1.08115 0.65302 10
2.8155 5.52574 1.43177 0.449454 10
2.81566 5.52605 1.66183 0.445534 10
2.78318 5.50976 -1.654 0.574107 10
2.78334 5.51007 -1.42518 0.579093 10
2.78349 5.51037 -1.20001 0.583374 10
2.78364 5.51067 -0.977839 0.586944 10
2.78379 5.51097 -0.758092 0.5898 10
2.78394 5.51127 -0.540198 0.591942 10
2.78409 5.51156 -0.323609 0.593357 10
2.78424 5.51185 -0.107788 0.594049 10
2.84346 5.62908 0.11008 0.662839 10
2.84326 5.62869 0.330486 0.662078 10
2.84306 5.6283 0.55167 0.660509 10
2.84286 5.62791 0.774178 0.658136 10
2.84266 5.62751 0.998571 0.654961 10
2.51563 4.98011 1.08453 0.650988 10
2.78528 5.51393 1.42618 0.451215 10
2.78544 5.51424 1.65534 0.447279 10
2.75323 5.49807 -1.64759 0.576339 10
2.75338 5.49838 -1.41967 0.581345 10
2.75354 5.49868 -1.19536 0.585642 10
2.75368 5.49898 -0.974052 0.589226 10
2.75383 5.49927 -0.755156 0.592099 10
2.75398 5.49957 -0.538106 0.594243 10
2.75413 5.49986 -0.322355 0.595664 10
2.75427 5.50015 -0.10737 0.596359 10
2.83267 5.6567 0.110426 0.660762 10
2.83247 5.65631 0.331525 0.660003 10
2.83227 5.65592 0.553404 0.658439 10
2.83208 5.65552 0.776612 0.656074 10
2.83188 5.65512 1.00171 0.652909 10
2.50609 5.00454 1.08794 0.648948 10
2.7553 5.50221 1.42066 0.45297 10
2.75546 5.50252 1.64893 0.449019 10
2.72351 5.48647 -1.64126 0.578563 10
2.72366 5.48677 -1.41421 0.583589 10
2.72381 5.48707 -1.19076 0.587909 10
2.72395 5.48737 -0.970306 0.591507 10
2.7241 5.48767 -0.752252 0.594385 10
2.72424 5.48796 -0.536036 0.596538 10
2.72439 5.48825 -0.321115 0.597964 10
2.72453 5.48854 -0.106957 0.598662 10
2.82181 5.6845 0.110776 0.658676 10
2.82161 5.68411 0.332575 0.657919 10
2.82142 5.68371 0.555156 0.656361 10
2.82122 5.68331 0.779071 0.654003 10
2.82102 5.68291 1.00488 0.650848 10
2.49648 5.02913 1.09138 0.646901 10
2.72555 5.49059 1.41519 0.45472 10
2.7257 5.49089 1.64258 0.450754 10
2.69401 5.47496 -1.63499 0.580781 10
2.69416 5.47526 -1.40881 0.585832 10
2.69431 5.47556 -1.18621 0.590163 10
2.69446 5.47586 -0.9666 0.593775 10
2.6946 5.47615 -0.749379 0.596663 10
2.69474 5.47644 -0.533989 0.598825 10
2.69488 5.47673 -0.319889 0.600257 10
2.69502 5.47701 -0.106549 0.600958 10
2.81089 5.71247 0.111129 0.656582 10
2.81069 5.71207 0.333635 0.655828 10
2.81049 5.71167 0.556926 0.654275 10
2.8103 5.71127 0.781554 0.651925 10
2.8101 5.71087 1.00808 0.64878 10
2.48681 5.05387 1.09486 0.644845 10
2.69603 5.47905 1.40978 0.456464 10
2.69618 5.47936 1.63631 0.452483 10
2.66474 5.46353 -1.62879 0.582998 10
2.66489 5.46383 -1.40346 0.588062 10
2.66503 5.46413 -1.18172 0.592409 10
2.66518 5.46442 -0.962934 0.596035 10
2.66532 5.46471 -0.746536 0.598935 10
2.66546 5.465 -0.531964 0.601105 10
2.6656 5.46529 -0.318676 0.602543 10
2.66574 5.46557 -0.106144 0.603246 10
2.79989 5.74063 0.111486 0.654481 10
2.79969 5.74023 0.334707 0.653729 10
2.7995 5.73982 0.558715 0.652181 10
2.7993 5.73942 0.784064 0.649838 10
2.7991 5.73901 1.01132 0.646704 10
2.47708 5.07877 1.09838 0.642781 10
2.66673 5.4676 1.40443 0.458203 10
2.66687 5.4679 1.6301 0.454207 10
2.63569 5.45219 -1.62266 0.585201 10
2.63584 5.45249 -1.39818 0.590284 10
2.63598 5.45279 -1.17727 0.594649 10
2.63612 5.45308 -0.959308 0.598288 10
2.63626 5.45337 -0.743725 0.601199 10
2.6364 5.45366 -0.52996 0.603377 10
2.63654 5.45394 -0.317475 0.60482 10
2.63668 5.45422 -0.105745 0.605527 10
2.78883 5.76896 0.111847 0.652371 10
2.78863 5.76856 0.335789 0.651622 10
2.78843 5.76815 0.560521 0.650079 10
2.78824 5.76774 0.786599 0.647744 10
2.78804 5.76733 1.01459 0.64462 10
2.46729 5.10383 1.10193 0.64071 10
2.63765 5.45624 1.39914 0.459936 10
2.6378 5.45654 1.62395 0.455925 10
2.60686 5.44094 -1.61659 0.587397 10
2.60701 5.44124 -1.39295 0.5925 10
2.60715 5.44153 -1.17286 0.59688 10
2.60729 5.44182 -0.955721 0.600534 10
2.60742 5.44211 -0.740944 0.603456 10
2.60756 5.4424 -0.527978 0.605642 10
2.6077 5.44268 -0.316288 0.607091 10
2.60783 5.44296 -0.105349 0.6078 10
2.77769 5.79748 0.112211 0.650253 10
2.77749 5.79707 0.336882 0.649507 10
2.7773 5.79666 0.562346 0.647969 10
2.7771 5.79625 0.789159 0.645642 10
2.7769 5.79583 1.01789 0.642528 10
2.45743 5.12906 1.10551 0.638631 10
2.60879 5.44496 1.39391 0.461663 10
2.60894 5.44526 1.61788 0.457637 10
2.57824 5.42977 -1.61059 0.589586 10
2.57839 5.43007 -1.38778 0.594708 10
2.57852 5.43036 -1.16851 0.599105 10
2.57866 5.43065 -0.952172 0.602773 10
2.5788 5.43093 -0.738192 0.605705 10
2.57893 5.43122 -0.526017 0.6079 10
2.57906 5.4315 -0.315113 0.609354 10
2.5792 5.43178 -0.104958 0.610066 10
2.76648 5.82618 0.112579 0.648128 10
2.76628 5.82577 0.337987 0.647384 10
2.76608 5.82536 0.56419 0.645851 10
2.76589 5.82494 0.791747 0.643532 10
2.76569 5.82452 1.02123 0.640428 10
2.44751 5.15445 1.10914 0.636545 10
2.58014 5.43377 1.38873 0.463385 10
2.58029 5.43407 1.61186 0.459344 10
2.54984 5.41868 -1.60465 0.591768 10
2.54998 5.41898 -1.38266 0.596909 10
2.55012 5.41927 -1.1642 0.601323 10
2.55025 5.41956 -0.94866 0.605004 10
2.55038 5.41984 -0.73547 0.607947 10
2.55052 5.42012 -0.524077 0.610151 10
2.55065 5.4204 -0.313951 0.61161 10
2.55078 5.42068 -0.104571 0.612325 10
2.75519 5.85508 0.112951 0.645994 10
2.755 5.85466 0.339103 0.645253 10
2.7548 5.85425 0.566053 0.643726 10
2.7546 5.85383 0.794361 0.641414 10
2.7544 5.8534 1.0246 0.638321 10
2.43753 5.18 1.1128 0.63445 10
2.55171 5.42266 1.3836 0.465101 10
2.55185 5.42296 1.60592 0.461046 10
2.53498 5.43629 -1.60723 0.621647 10
2.53479 5.43588 -1.38471 0.627129 10
2.5346 5.43547 -1.16577 0.631847 10
2.53442 5.43508 -0.949822 0.635795 10
2.53423 5.43468 -0.736278 0.638969 10
2.53405 5.43429 -0.524589 0.641364 10
2.53387 5.4339 -0.314219 0.642977 10
2.53369 5.43352 -0.104647 0.643807 10
2.74383 5.88417 0.113326 0.643853 10
2.74364 5.88375 0.340231 0.643114 10
2.74344 5.88333 0.567936 0.641592 10
2.74324 5.88291 0.797003 0.639288 10
2.74304 5.88248 1.02801 0.636205 10
2.42747 5.20573 1.1165 0.632348 10
2.53241 5.43077 1.38341 0.48944 10
2.53222 5.43036 1.60548 0.485235 10
2.52442 5.46335 -1.61262 0.619571 10
2.52423 5.46294 -1.38935 0.625035 10
2.52404 5.46253 -1.16968 0.629737 10
2.52386 5.46213 -0.953005 0.633672 10
2.52367 5.46173 -0.738745 0.636835 10
2.52349 5.46133 -0.526346 0.639222 10
2.52331 5.46094 -0.315271 0.640831 10
2.52313 5.46055 -0.104997 0.641658 10
2.7324 5.91345 0.113706 0.641704 10
2.7322 5.91302 0.341371 0.640968 10
2.73201 5.9126 0.569837 0.639451 10
2.73181 5.91217 0.799671 0.637155 10
2.73161 5.91174 1.03145 0.634083 10
2.41735 5.23163 1.12024 0.630238 10
2.52185 5.45778 1.38804 0.487807 10
2.52166 5.45737 1.61085 0.483617 10
2.51379 5.4906 -1.61806 0.617487 10
2.5136 5.49018 -1.39404 0.622933 10
2.51341 5.48977 -1.17363 0.627619 10
2.51323 5.48936 -0.95622 0.631541 10
2.51304 5.48896 -0.741237 0.634694 10
2.51286 5.48856 -0.528122 0.637073 10
2.51268 5.48817 -0.316335 0.638676 10
2.5125 5.48778 -0.105352 0.639501 10
2.72088 5.94293 0.114089 0.639547 10
2.72069 5.9425 0.342522 0.638813 10
2.72049 5.94207 0.571759 0.637302 10
2.7203 5.94164 0.802368 0.635013 10
2.7201 5.94121 1.03493 0.631952 10
2.40716 5.2577 1.12401 0.62812 10
2.51122 5.48498 1.39272 0.486168 10
2.51103 5.48456 1.61628 0.481992 10
2.50309 5.51803 -1.62356 0.615396 10
2.5029 5.5176 -1.39877 0.620823 10
2.50271 5.51719 -1.17761 0.625494 10
2.50252 5.51678 -0.959469 0.629403 10
2.50234 5.51638 -0.743756 0.632545 10
2.50216 5.51598 -0.529916 0.634916 10
2.50198 5.51558 -0.317409 0.636514 10
2.5018 5.51518 -0.105709 0.637336 10
2.70929 5.9726 0.114477 0.637382 10
2.7091 5.97217 0.343685 0.636651 10
2.7089 5.97174 0.5737 0.635145 10
2.70871 5.97131 0.805093 0.632865 10
2.70851 5.97087 1.03844 0.629813 10
2.39691 5.28395 1.12783 0.625995 10
2.50052 5.51236 1.39744 0.484524 10
2.50033 5.51194 1.62177 0.480361 10
2.73661 6.08923 -0.116528 0.635164 10
2.69762 6.00248 0.114868 0.63521 10
2.69743 6.00205 0.34486 0.634482 10
2.69723 6.00161 0.575662 0.63298 10
2.69704 6.00118 0.807845 0.630708 10
2.69684 6.00074 1.04199 0.627667 10
2.38658 5.31038 1.13169 0.623862 10
2.72469 6.11975 -0.11693 0.632984 10
2.68587 6.03257 0.115264 0.633029 10
2.68568 6.03213 0.346048 0.632304 10
2.68548 6.03169 0.577645 0.630808 10
2.68529 6.03125 0.810627 0.628544 10
2.68509 6.03081 1.04558 0.625513 10
2.37618 5.33699 1.13558 0.621721 10
2.67404 6.06286 0.115664 0.630841 10
2.67385 6.06242 0.347248 0.630119 10
2.67365 6.06198 0.579648 0.628628 10
2.67346 6.06154 0.813438 0.626372 10
2.67326 6.06109 1.04921 0.623352 10
2.36571 5.36378 1.13952 0.619573 10
2.66213 6.09337 0.116068 0.628646 10
2.66193 6.09293 0.348461 0.627925 10
2.66174 6.09248 0.581672 0.62644 10
2.66154 6.09203 0.816279 0.624192 10
2.66106 6.09091 1.05276 0.138973 10
2.35517 5.39077 1.1435 0.617417 10
2.65013 6.12409 0.116476 0.626442 10
2.64994 6.12364 0.349687 0.625725 10
2.64974 6.12319 0.583718 0.624245 10
2.64955 6.12274 0.819149 0.622005 10
2.63968 6.09993 1.05271 0.138978 10
2.34455 5.41794 1.14752 0.615254 10
2.63805 6.15503 0.116889 0.624231 10
2.63785 6.15457 0.350925 0.623516 10
2.63766 6.15412 0.585785 0.622042 10
2.63746 6.15367 0.82205 0.61981 10
2.61826 6.10887 1.05267 0.138984 10
2.33386 5.4453 1.15158 0.613083 10
2.62588 6.18618 0.117305 0.622013 10
2.62569 6.18573 0.352177 0.621301 10
2.62549 6.18527 0.587874 0.619832 10
2.6253 6.18481 0.824981 0.617607 10
2.59682 6.11773 1.05263 0.138989 10
2.32309 5.47286 1.15569 0.610905 10
2.61362 6.21757 0.117727 0.619786 10
2.61343 6.21711 0.353442 0.619077 10
2.61324 6.21664 0.589985 0.617613 10
2.61304 6.21618 0.827944 0.615397 10
2.57535 6.12652 1.05259 0.138994 10
2.31224 5.50061 1.15984 0.60872 10
2.64028 6.34287 -1.84093 0.596239 10
2.64008 6.34237 -1.58604 0.601499 10
2.63987 6.34188 -1.33527 0.606026 10
2.63967 6.34139 -1.08792 0.609815 10
2.63947 6.34092 -0.843325 0.61286 10
2.63927 6.34044 -0.600856 0.615159 10
2.63908 6.33997 -0.3599 0.616709 10
2.63888 6.3395 -0.11986 0.617507 10
2.60128 6.24917 0.118153 0.617553 10
2.60109 6.24871 0.35472 0.616846 10
2.60089 6.24824 0.592119 0.615388 10
2.6007 6.24777 0.830938 0.61318 10
2.55385 6.13524 1.05255 0.139 10
2.30132 5.52857 1.16403 0.606527 10
2.63749 6.33616 1.58449 0.299692 10
2.63728 6.33566 1.83884 0.297118 10
2.62767 6.3752 -1.84764 0.594074 10
2.62746 6.37469 -1.59182 0.599315 10
2.62726 6.3742 -1.34014 0.603826 10
2.62706 6.37371 -1.09188 0.607601 10
2.62686 6.37323 -0.846398 0.610636 10
2.62666 6.37275 -0.603045 0.612927 10
2.62646 6.37227 -0.361211 0.61447 10
2.62627 6.37179 -0.120297 0.615266 10
2.58885 6.28101 0.118583 0.615312 10
2.58865 6.28054 0.356012 0.614608 10
2.58846 6.28007 0.594275 0.613155 10
2.58827 6.2796 0.833964 0.610955 10
2.53232 6.14387 1.05251 0.139005 10
2.29032 5.55672 1.16827 0.604326 10
2.62488 6.36842 1.59026 0.298605 10
2.62467 6.36792 1.84553 0.29604 10
2.57632 6.31308 0.119018 0.613063 10
2.57613 6.31261 0.357318 0.612362 10
2.57594 6.31213 0.596455 0.610914 10
2.57574 6.31166 0.837022 0.608723 10
2.51076 6.15244 1.05247 0.139011 10
2.27923 5.58509 1.17255 0.602118 10
2.5637 6.34539 0.119458 0.610807 10
2.56351 6.34491 0.358637 0.610108 10
2.56332 6.34443 0.598658 0.608667 10
2.56312 6.34395 0.840113 0.606483 10
2.48918 6.16092 1.05243 0.139016 10
2.26807 5.61366 1.17688 0.599904 10
2.55099 6.37793 0.119902 0.608543 10
2.5508 6.37745 0.359971 0.607847 10
2.55061 6.37697 0.600884 0.606411 10
2.55041 6.37649 0.843238 0.604236 10
2.46756 6.16933 1.05239 0.139021 10
2.25682 5.64245 1.18126 0.597681 10
2.53819 6.41072 0.120351 0.606272 10
2.53799 6.41024 0.361319 0.605579 10
2.5378 6.40975 0.603135 0.604148 10
2.53761 6.40926 0.846396 0.601982 10
2.44591 6.17767 1.05235 0.139027 10
2.24549 5.67145 1.18568 0.595451 10
2.52528 6.44376 0.120805 0.603993 10
2.52509 6.44327 0.362683 0.603303 10
2.5249 6.44278 0.60541 0.601878 10
2.52471 6.44229 0.849588 0.59972 10
2.42424 6.18593 1.0523 0.139032 10
2.23407 5.70067 1.19015 0.593214 10
2.51228 6.47705 0.121264 0.601708 10
2.51209 6.47656 0.36406 0.60102 10
2.5119 6.47606 0.607709 0.599601 10
2.51171 6.47556 0.852814 0.597451 10
2.40254 6.19411 1.05226 0.139038 10
2.22256 5.73011 1.19467 0.59097 10
2.49918 6.51059 0.121728 0.599414 10
2.49899 6.5101 0.365453 0.59873 10
2.4988 6.5096 0.610034 0.597316 10
2.49861 6.50909 0.856076 0.595174 10
2.38081 6.20222 1.05222 0.139043 10
2.21097 5.75978 1.19924 0.588719 10
2.48598 6.54439 0.122197 0.597114 10
2.48579 6.54389 0.366861 0.596432 10
2.4856 6.54339 0.612384 0.595024 10
2.48541 6.54288 0.859374 0.592891 10
2.35905 6.21024 1.05218 0.139049 10
2.19929 5.78967 1.20386 0.58646 10
2.51116 6.68083 -1.64775 0.200452 10
2.47268 6.57845 0.122671 0.594806 10
2.47249 6.57794 0.368284 0.594128 10
2.4723 6.57744 0.614759 0.592725 10
2.47211 6.57693 0.862707 0.5906 10
2.33727 6.2182 1.05214 0.139054 10
2.18752 5.81979 1.20853 0.584195 10
2.49601 6.71155 -1.65317 0.577076 10
2.45927 6.61278 0.12315 0.592491 10
2.45908 6.61227 0.369723 0.591815 10
2.45889 6.61176 0.617161 0.590418 10
2.4587 6.61124 0.866077 0.588302 10
2.31546 6.22608 1.0521 0.139059 10
2.17565 5.85016 1.21325 0.581922 10
2.4823 6.74668 -1.65968 0.574814 10
2.44576 6.64738 0.123635 0.590169 10
2.44557 6.64686 0.371177 0.589496 10
2.44538 6.64634 0.619589 0.588105 10
2.44519 6.64582 0.869484 0.585997 10
2.29362 6.23388 1.05206 0.139065 10
2.1637 5.88075 1.21802 0.579642 10
2.46848 6.78209 -1.66626 0.572543 10
2.43214 6.68225 0.124125 0.58784 10
2.43195 6.68173 0.372648 0.587169 10
2.43176 6.68121 0.622044 0.585783 10
2.43157 6.68068 0.872929 0.583684 10
2.27176 6.2416 1.05202 0.13907 10
2.15164 5.91159 1.22284 0.577355 10
2.45455 6.81778 -1.67291 0.570266 10
2.41841 6.7174 0.12462 0.585503 10
2.41822 6.71687 0.374135 0.584836 10
2.41804 6.71635 0.624526 0.583456 10
2.41784 6.71582 0.876411 0.581365 10
2.24987 6.24925 1.05198 0.139076 10
2.1395 5.94268 1.22772 0.575061 10
2.44051 6.85376 -1.67964 0.567982 10
2.40458 6.75283 0.125121 0.583159 10
2.40439 6.7523 0.375639 0.582495 10
2.4042 6.75177 0.627035 0.58112 10
2.40401 6.75124 0.879933 0.579038 10
2.22795 6.25682 1.05193 0.139081 10
2.42636 6.89002 -1.68644 0.565692 10
2.39063 6.78855 0.125627 0.580809 10
2.39044 6.78801 0.377159 0.580147 10
2.39025 6.78748 0.629573 0.578778 10
2.39006 6.78693 0.883493 0.576704 10
2.20601 6.26431 1.05189 0.139087 10
2.41855 6.94514 -1.97055 0.65377 10
2.41209 6.92659 -1.69332 0.563394 10
2.41879 6.94582 -1.42965 0.664332 10
2.41891 6.94615 -1.16496 0.668402 10
2.41902 6.94648 -0.903158 0.671658 10
2.41913 6.94681 -0.643564 0.674095 10
2.37656 6.82456 0.126139 0.578451 10
2.37637 6.82402 0.378696 0.577792 10
2.37619 6.82348 0.632139 0.576429 10
2.376 6.82293 0.887094 0.574364 10
2.18405 6.27173 1.05185 0.139092 10
2.39791 6.96404 -1.97353 0.55618 10
2.39771 6.96345 -1.70027 0.561089 10
2.39751 6.96287 -1.43143 0.565315 10
2.39731 6.9623 -1.16626 0.568852 10
2.39712 6.96173 -0.904047 0.571697 10
2.39693 6.96117 -0.644116 0.573844 10
2.39673 6.96062 -0.38581 0.575293 10
2.39654 6.96007 -0.128489 0.57604 10
2.36239 6.86086 0.126657 0.576086 10
2.3622 6.86032 0.380251 0.57543 10
2.36201 6.85977 0.634733 0.574073 10
2.36182 6.85922 0.890735 0.572016 10
2.16206 6.27907 1.05181 0.139098 10
2.39539 6.95671 1.43017 0.281637 10
2.39519 6.95613 1.69849 0.279578 10
2.39499 6.95555 1.97112 0.277178 10
2.38129 6.99499 -1.97993 0.657655 10
2.38141 6.99533 -1.70602 0.663372 10
2.38152 6.99567 -1.43646 0.66828 10
2.38164 6.99601 -1.17051 0.672375 10
2.38175 6.99634 -0.907456 0.67565 10
2.38186 6.99666 -0.646627 0.678102 10
2.38197 6.99699 -0.387363 0.679727 10
2.38204 6.9972 -0.12902 0.573668 10
2.34809 6.89746 0.127181 0.573714 10
2.3479 6.89691 0.381822 0.573061 10
2.34771 6.89636 0.637357 0.57171 10
2.34753 6.8958 0.894416 0.569662 10
2.14004 6.28633 1.05177 0.139103 10
2.38089 6.99381 1.43608 0.280477 10
2.38069 6.99323 1.7055 0.278427 10
2.38049 6.99264 1.97927 0.276038 10
2.34996 6.98276 -1.97414 0.659586 10
2.35007 6.9831 -1.70102 0.665319 10
2.35019 6.98344 -1.43225 0.670242 10
2.3503 6.98377 -1.16708 0.674349 10
2.35041 6.9841 -0.904799 0.677634 10
2.35052 6.98442 -0.644733 0.680093 10
2.35063 6.98475 -0.386228 0.681724 10
2.35074 6.98507 -0.128644 0.682524 10
2.33368 6.93437 0.12771 0.571335 10
2.33349 6.93382 0.383412 0.570685 10
2.3333 6.93326 0.64001 0.569339 10
2.33311 6.9327 0.89814 0.5673 10
2.118 6.29351 1.05173 0.139109 10
2.35139 6.98702 1.43299 0.333444 10
2.35151 6.98736 1.70206 0.330963 10
2.35162 6.9877 1.97553 0.328079 10
2.32067 6.97617 -1.96997 0.549285 10
2.32047 6.97558 -1.69721 0.554134 10
2.32027 6.97499 -1.42885 0.558309 10
2.32008 6.97441 -1.16415 0.561803 10
2.31989 6.97384 -0.902415 0.564612 10
2.3197 6.97327 -0.642953 0.566734 10
2.31951 6.97271 -0.385113 0.568165 10
2.31958 6.9729 -0.12827 0.684514 10
2.31914 6.97159 0.128246 0.568949 10
2.31895 6.97103 0.38502 0.568302 10
2.31877 6.97046 0.642694 0.566962 10
2.31858 6.9699 0.901905 0.564932 10
2.09594 6.30062 1.05169 0.139114 10
2.32022 6.97485 1.42882 0.334417 10
2.32034 6.97518 1.69711 0.331928 10
2.32045 6.97552 1.96979 0.329036 10
2.29999 6.99545 -1.97314 0.663422 10
2.3001 6.99579 -1.70016 0.66919 10
2.30021 6.99613 -1.43153 0.674142 10
2.30032 6.99646 -1.16649 0.678272 10
2.30043 6.99678 -0.904339 0.681576 10
2.30053 6.99711 -0.644406 0.68405 10
2.30064 6.99743 -0.386032 0.68569 10
2.30074 6.99775 -0.128579 0.686496 10
2.30448 7.00912 0.128788 0.566556 10
2.3043 7.00855 0.386646 0.565912 10
2.30411 7.00799 0.645408 0.564578 10
2.30392 7.00741 0.905713 0.562556 10
2.07385 6.30765 1.05165 0.139119 10
2.30138 6.9997 1.43226 0.525369 10
2.30149 7.00003 1.70119 0.52146 10
2.3016 7.00037 1.97453 0.516915 10
2.26904 6.98337 -1.96748 0.665329 10
2.26915 6.98371 -1.69529 0.671113 10
2.26925 6.98404 -1.42742 0.676079 10
2.26936 6.98437 -1.16314 0.680221 10
2.26947 6.9847 -0.901748 0.683535 10
2.26957 6.98502 -0.642559 0.686016 10
2.26968 6.98534 -0.384926 0.687661 10
2.26978 6.98566 -0.12821 0.688469 10
2.2897 7.04697 0.129335 0.564157 10
2.28951 7.0464 0.38829 0.563515 10
2.28933 7.04582 0.648152 0.562187 10
2.28914 7.04524 0.909565 0.560174 10
2.05174 6.3146 1.0516 0.139125 10
2.27041 6.9876 1.42815 0.526879 10
2.27052 6.98793 1.69631 0.522959 10
2.27063 6.98827 1.96886 0.518402 10
2.23826 6.97136 -1.96189 0.667227 10
2.23837 6.9717 -1.69047 0.673028 10
2.23847 6.97203 -1.42336 0.678008 10
2.23858 6.97235 -1.15983 0.682163 10
2.23868 6.97268 -0.899181 0.685486 10
2.23878 6.973 -0.64073 0.687974 10
2.23889 6.97332 -0.38383 0.689624 10
2.23899 6.97363 -0.127845 0.690434 10
2.27479 7.08515 0.12989 0.56175 10
2.27461 7.08457 0.389954 0.561111 10
2.27442 7.08399 0.650929 0.559789 10
2.27423 7.0834 0.91346 0.557785 10
2.0296 6.32148 1.05156 0.13913 10
2.23961 6.97556 1.42408 0.528384 10
2.23971 6.97589 1.69148 0.524452 10
2.23982 6.97623 1.96326 0.519882 10
2.20766 6.95941 -1.95634 0.669117 10
2.20776 6.95975 -1.68569 0.674934 10
2.20787 6.96008 -1.41934 0.679929 10
2.20797 6.9604 -1.15656 0.684095 10
2.20807 6.96073 -0.896641 0.687428 10
2.20818 6.96105 -0.63892 0.689924 10
2.20828 6.96136 -0.382746 0.691578 10
2.20838 6.96168 -0.127484 0.69239 10
2.25975 7.12365 0.13045 0.559337 10
2.25957 7.12306 0.391636 0.558701 10
2.25938 7.12248 0.653737 0.557385 10
2.2592 7.12189 0.917401 0.555389 10
2.00745 6.32828 1.05152 0.139136 10
2.20898 6.9636 1.42006 0.529881 10
2.20909 6.96393 1.6867 0.525939 10
2.2092 6.96427 1.95771 0.521356 10
2.17723 6.94754 -1.95086 0.670999 10
2.17733 6.94787 -1.68096 0.676833 10
2.17744 6.9482 -1.41536 0.681842 10
2.17754 6.94852 -1.15331 0.68602 10
2.17764 6.94884 -0.894126 0.689362 10
2.17774 6.94916 -0.637128 0.691864 10
2.17784 6.94948 -0.381672 0.693524 10
2.17794 6.94979 -0.127126 0.694339 10
2.24459 7.16248 0.131017 0.556917 10
2.2444 7.16189 0.393338 0.556284 10
2.24422 7.1613 0.656577 0.554973 10
2.24403 7.1607 0.921386 0.552987 10
1.98585 6.33684 1.05179 0.550327 10
2.17853 6.9517 1.41607 0.531372 10
2.17864 6.95203 1.68197 0.527419 10
2.17874 6.95237 1.95221 0.522823 10
2.14697 6.93572 -1.94542 0.672873 10
2.14707 6.93606 -1.67628 0.678723 10
2.14717 6.93638 -1.41142 0.683746 10
2.14727 6.93671 -1.1501 0.687936 10
2.14737 6.93703 -0.891635 0.691288 10
2.14747 6.93734 -0.635353 0.693797 10
2.14756 6.93766 -0.380609 0.695461 10
2.14766 6.93797 -0.126772 0.696278 10
2.22929 7.20166 0.13159 0.554489 10
2.2291 7.20106 0.395059 0.55386 10
2.22892 7.20047 0.659451 0.552555 10
2.22873 7.19987 0.925419 0.550577 10
1.97231 6.37149 1.05639 0.547929 10
2.14825 6.93987 1.41213 0.532857 10
2.14835 6.9402 1.67728 0.528893 10
2.14845 6.94053 1.94677 0.524284 10
2.11688 6.92398 -1.94005 0.674739 10
2.11698 6.92431 -1.67165 0.680605 10
2.11708 6.92464 -1.40751 0.685642 10
2.11717 6.92496 -1.14692 0.689844 10
2.11727 6.92527 -0.889169 0.693205 10
2.11737 6.92559 -0.633596 0.695721 10
2.11746 6.9259 -0.379556 0.69739 10
2.11756 6.92621 -0.126422 0.698209 10
2.21385 7.24118 0.13217 0.552056 10
2.21367 7.24058 0.396801 0.551429 10
2.21348 7.23997 0.662357 0.55013 10
2.2133 7.23937 0.929497 0.548161 10
1.95865 6.40644 1.06104 0.545525 10
2.11814 6.92811 1.40822 0.534336 10
2.11824 6.92843 1.67264 0.53036 10
2.11834 6.92877 1.94139 0.525739 10
2.08695 6.9123 -1.93472 0.676597 10
2.08704 6.91263 -1.66706 0.682479 10
2.08714 6.91295 -1.40365 0.68753 10
2.08724 6.91327 -1.14377 0.691743 10
2.08733 6.91359 -0.886728 0.695113 10
2.08743 6.9139 -0.631856 0.697637 10
2.08752 6.91421 -0.378514 0.699311 10
2.08762 6.91452 -0.126074 0.700132 10
2.19828 7.28105 0.132757 0.549615 10
2.1981 7.28044 0.398563 0.548991 10
2.19791 7.27984 0.665298 0.547699 10
2.19773 7.27922 0.933624 0.545739 10
1.94487 6.44171 1.06575 0.543114 10
2.08819 6.91641 1.40435 0.535808 10
2.08828 6.91673 1.66805 0.531821 10
2.08838 6.91706 1.93605 0.527187 10
2.05718 6.90068 -1.92945 0.678446 10
2.05728 6.90101 -1.66251 0.684344 10
2.05738 6.90133 -1.39982 0.689409 10
2.05747 6.90165 -1.14065 0.693634 10
2.05757 6.90196 -0.88431 0.697014 10
2.05766 6.90228 -0.630133 0.699544 10
2.05775 6.90259 -0.377482 0.701222 10
2.05784 6.90289 -0.125731 0.702046 10
2.18257 7.32128 0.133351 0.547168 10
2.18239 7.32066 0.400345 0.546547 10
2.1822 7.32005 0.668273 0.545261 10
2.18202 7.31943 0.937798 0.543309 10
1.93097 6.47729 1.07052 0.540697 10
2.0584 6.90477 1.40052 0.537273 10
2.0585 6.9051 1.6635 0.533276 10
2.0586 6.90542 1.93077 0.528629 10
2.02758 6.88912 -1.92422 0.680287 10
2.02768 6.88945 -1.65801 0.686201 10
2.02777 6.88977 -1.39604 0.69128 10
2.02786 6.89009 -1.13757 0.695516 10
2.02796 6.8904 -0.881917 0.698905 10
2.02805 6.89071 -0.628428 0.701443 10
2.02814 6.89102 -0.37646 0.703126 10
2.02823 6.89133 -0.12539 0.703952 10
2.16672 7.36187 0.133952 0.544714 10
2.16653 7.36125 0.402149 0.544096 10
2.16635 7.36063 0.671283 0.542815 10
2.16617 7.36 0.942022 0.540873 10
1.91694 6.51319 1.07534 0.538272 10
2.02878 6.8932 1.39673 0.538732 10
2.02887 6.89352 1.65899 0.534724 10
2.02897 6.89385 1.92554 0.530065 10
1.99814 6.87763 -1.91905 0.682119 10
1.99823 6.87796 -1.65356 0.68805 10
1.99833 6.87828 -1.39228 0.693142 10
1.99842 6.87859 -1.13451 0.69739 10
1.99851 6.8789 -0.879547 0.700788 10
1.9986 6.87921 -0.626739 0.703333 10
1.99869 6.87952 -0.375448 0.70502 10
1.99878 6.87983 -0.125053 0.705849 10
2.15072 7.40283 0.13456 0.542254 10
2.15054 7.4022 0.403973 0.541639 10
2.15036 7.40157 0.674329 0.540364 10
2.15017 7.40094 0.946295 0.538431 10
1.90278 6.54942 1.08022 0.535842 10
1.99932 6.88169 1.39297 0.540184 10
1.99941 6.88201 1.65453 0.536165 10
1.9995 6.88233 1.92037 0.531494 10
1.97232 6.87831 -1.91731 0.521111 10
1.97215 6.87769 -1.65183 0.525714 10
1.97197 6.87708 -1.39064 0.529677 10
1.9718 6.87648 -1.13302 0.532994 10
1.97163 6.87589 -0.878276 0.535662 10
1.97146 6.8753 -0.625751 0.537677 10
1.97129 6.87471 -0.374808 0.539037 10
1.97112 6.87413 -0.124824 0.539741 10
2.13458 7.44416 0.135175 0.539786 10
2.1344 7.44353 0.40582 0.539175 10
2.13421 7.44289 0.67741 0.537906 10
2.13403 7.44226 0.950619 0.535982 10
1.8885 6.58598 1.08515 0.533405 10
1.97011 6.87059 1.38933 0.413386 10
1.9701 6.87056 1.65012 0.5376 10
1.97019 6.87088 1.91524 0.532916 10
1.95728 6.91687 -1.92614 0.518722 10
1.9571 6.91625 -1.65944 0.523304 10
1.95693 6.91563 -1.39705 0.527249 10
1.95676 6.91502 -1.13824 0.530551 10
1.95659 6.91442 -0.88232 0.533207 10
1.95642 6.91383 -0.628633 0.535213 10
1.95625 6.91323 -0.376533 0.536567 10
1.95608 6.91264 -0.125398 0.537267 10
2.11829 7.48587 0.135797 0.537313 10
2.11811 7.48523 0.407688 0.536704 10
2.11793 7.48459 0.680528 0.535441 10
2.11774 7.48395 0.954995 0.533526 10
1.87408 6.62287 1.09015 0.530961 10
1.95507 6.90907 1.39572 0.411492 10
1.9549 6.90845 1.65757 0.408486 10
1.95472 6.90783 1.92363 0.404983 10
1.94209 6.95579 -1.93508 0.516326 10
1.94192 6.95516 -1.66714 0.520887 10
1.94174 6.95454 -1.40353 0.524814 10
1.94157 6.95392 -1.14352 0.528101 10
1.9414 6.95331 -0.886413 0.530744 10
1.94123 6.95271 -0.631548 0.532742 10
1.94107 6.95212 -0.37828 0.53409 10
1.9409 6.95152 -0.12598 0.534787 10
2.10185 7.52796 0.136427 0.534833 10
2.10167 7.52732 0.409578 0.534227 10
2.10149 7.52667 0.683684 0.53297 10
2.10131 7.52602 0.959422 0.531064 10
1.85954 6.6601 1.0952 0.528511 10
1.93989 6.94791 1.40219 0.409594 10
1.93972 6.94729 1.66525 0.406602 10
1.93954 6.94665 1.93254 0.403115 10
2.08672 7.57579 -2.10552 0.513923 10
2.08653 7.57509 -1.81398 0.518463 10
2.08634 7.57441 -1.52715 0.522372 10
2.08616 7.57374 -1.24424 0.525644 10
2.08597 7.57307 -0.964486 0.528276 10
2.08579 7.57241 -0.687173 0.530264 10
2.08561 7.57176 -0.411597 0.531606 10
2.08543 7.57111 -0.137076 0.5323 10
2.08525 7.57046 0.137064 0.532346 10
2.08507 7.5698 0.411491 0.531743 10
2.08489 7.56915 0.686877 0.530492 10
2.08471 7.56849 0.963903 0.528595 10
1.84485 6.69768 1.10032 0.526054 10
2.08434 7.56716 1.52569 0.40769 10
2.08416 7.56648 1.81192 0.404712 10
2.08397 7.56579 2.10275 0.401242 10
2.06996 7.61873 -2.11544 0.511515 10
2.06977 7.61803 -1.82252 0.516034 10
2.06959 7.61734 -1.53434 0.519924 10
2.0694 7.61666 -1.25009 0.523181 10
2.06922 7.61599 -0.969026 0.525801 10
2.06904 7.61532 -0.690407 0.52778 10
2.06886 7.61466 -0.413534 0.529116 10
2.06868 7.614 -0.137721 0.529807 10
2.0685 7.61335 0.137709 0.529853 10
2.06832 7.61269 0.413427 0.529253 10
2.06814 7.61203 0.690108 0.528008 10
2.06796 7.61136 0.968437 0.52612 10
1.83003 6.73561 1.10549 0.523592 10
2.0676 7.61001 1.53286 0.405782 10
2.06741 7.60933 1.82044 0.402818 10
2.06722 7.60863 2.11263 0.399364 10
2.05305 7.66208 -2.12547 0.5091 10
2.05286 7.66137 -1.83116 0.513598 10
2.05267 7.66068 -1.54161 0.51747 10
2.05249 7.65999 -1.25602 0.520712 10
2.05231 7.65931 -0.973621 0.523319 10
2.05213 7.65864 -0.693681 0.525289 10
2.05195 7.65797 -0.415495 0.526619 10
2.05177 7.65731 -0.138374 0.527307 10
2.05159 7.65664 0.138362 0.527353 10
2.05141 7.65598 0.415387 0.526756 10
2.05123 7.65531 0.693379 0.525518 10
2.05105 7.65464 0.973027 0.523639 10
1.81506 6.77391 1.11073 0.521122 10
2.05069 7.65328 1.54012 0.403868 10
2.0505 7.65258 1.82906 0.400919 10
2.05031 7.65188 2.12264 0.397481 10
2.03597 7.70585 -2.13563 0.506679 10
2.03579 7.70513 -1.83991 0.511156 10
2.0356 7.70443 -1.54898 0.51501 10
2.03542 7.70374 -1.26202 0.518236 10
2.03523 7.70305 -0.978271 0.520832 10
2.03506 7.70237 -0.696994 0.522792 10
2.03488 7.7017 -0.417479 0.524116 10
2.0347 7.70102 -0.139035 0.524801 10
2.03452 7.70035 0.139022 0.524847 10
2.03434 7.69968 0.41737 0.524253 10
2.03417 7.699 0.696689 0.523021 10
2.03399 7.69832 0.977671 0.521151 10
1.79996 6.81257 1.11603 0.518647 10
2.03362 7.69695 1.54748 0.40195 10
2.03344 7.69625 1.83779 0.399014 10
2.03325 7.69553 2.13277 0.395593 10
2.01873 7.75004 -2.14591 0.504251 10
2.01854 7.74931 -1.84877 0.508707 10
2.01836 7.7486 -1.55643 0.512543 10
2.01818 7.7479 -1.2681 0.515754 10
2.018 7.74721 -0.982979 0.518337 10
2.01782 7.74652 -0.700348 0.520289 10
2.01764 7.74584 -0.419488 0.521606 10
2.01746 7.74516 -0.139703 0.522288 10
2.01729 7.74448 0.139691 0.522334 10
2.01711 7.7438 0.419378 0.521744 10
2.01693 7.74312 0.70004 0.520517 10
2.01675 7.74244 0.982373 0.518657 10
1.78471 6.8516 1.1214 0.516164 10
2.01639 7.74104 1.55492 0.400026 10
2.01621 7.74034 1.84663 0.397105 10
2.01602 7.73962 2.14302 0.3937 10
2.00133 7.79465 -2.15631 0.501818 10
2.00114 7.79392 -1.85773 0.506252 10
2.00096 7.7932 -1.56398 0.51007 10
2.00077 7.79249 -1.27424 0.513266 10
2.00059 7.79179 -0.987744 0.515837 10
2.00042 7.7911 -0.703742 0.517779 10
2.00024 7.79041 -0.421521 0.519091 10
2.00006 7.78972 -0.14038 0.51977 10
1.99989 7.78904 0.140368 0.519815 10
1.99971 7.78835 0.421409 0.519228 10
1.99953 7.78766 0.703431 0.518008 10
1.99935 7.78697 0.987132 0.516156 10
1.76931 6.891 1.12683 0.513676 10
1.99899 7.78556 1.56245 0.398098 10
1.99881 7.78485 1.85557 0.395191 10
1.99862 7.78412 2.1534 0.391803 10
1.98375 7.8397 -2.16685 0.499378 10
1.98356 7.83896 -1.86681 0.503791 10
1.98338 7.83824 -1.57162 0.507591 10
1.9832 7.83752 -1.28047 0.510771 10
1.98302 7.83682 -0.992568 0.51333 10
1.98284 7.83612 -0.707179 0.515263 10
1.98266 7.83542 -0.423579 0.516568 10
1.98249 7.83472 -0.141066 0.517244 10
1.98231 7.83403 0.141053 0.51729 10
1.98214 7.83333 0.423467 0.516706 10
1.98196 7.83264 0.706865 0.515492 10
1.98178 7.83194 0.99195 0.513649 10
1.75376 6.9308 1.13233 0.511182 10
1.98143 7.83052 1.57007 0.396165 10
1.98124 7.82979 1.86462 0.393272 10
1.98106 7.82906 2.16391 0.389901 10
1.966 7.88519 -2.17751 0.496933 10
1.96581 7.88445 -1.87599 0.501324 10
1.96563 7.88371 -1.57935 0.505105 10
1.96545 7.88299 -1.28677 0.508271 10
1.96527 7.88227 -0.99745 0.510817 10
1.9651 7.88157 -0.710657 0.512741 10
1.96492 7.88086 -0.425663 0.51404 10
1.96475 7.88016 -0.14176 0.514713 10
1.96457 7.87946 0.141747 0.514759 10
1.9644 7.87876 0.425549 0.514177 10
1.96422 7.87805 0.71034 0.512969 10
1.96404 7.87735 0.996827 0.511137 10
1.73806 6.97098 1.13789 0.508681 10
1.96369 7.87591 1.57779 0.394227 10
1.9635 7.87518 1.87379 0.391349 10
1.96332 7.87443 2.17454 0.387994 10
1.94808 7.93113 -2.18831 0.494481 10
1.94789 7.93038 -1.88529 0.498852 10
1.94771 7.92964 -1.58718 0.502614 10
1.94753 7.92891 -1.29314 0.505764 10
1.94735 7.92818 -1.00239 0.508298 10
1.94718 7.92747 -0.714179 0.510212 10
1.947 7.92676 -0.427772 0.511505 10
1.94683 7.92605 -0.142462 0.512175 10
1.94665 7.92534 0.142449 0.512221 10
1.94648 7.92463 0.427657 0.511643 10
1.9463 7.92392 0.713859 0.510441 10
1.94613 7.9232 1.00176 0.508618 10
1.72221 7.01155 1.14353 0.506174 10
1.94577 7.92175 1.5856 0.392285 10
1.94559 7.92101 1.88307 0.389421 10
1.9454 7.92026 2.18531 0.386083 10
1.92997 7.97754 -2.19924 0.492023 10
1.92979 7.97678 -1.89471 0.496372 10
1.9296 7.97603 -1.59511 0.500116 10
1.92943 7.97529 -1.2996 0.503251 10
1.92925 7.97456 -1.0074 0.505772 10
1.92907 7.97383 -0.717745 0.507678 10
1.9289 7.97311 -0.429907 0.508964 10
1.92873 7.9724 -0.143173 0.509631 10
1.92855 7.97168 0.14316 0.509677 10
1.92838 7.97097 0.429792 0.509102 10
1.92821 7.97025 0.717422 0.507906 10
1.92803 7.96952 1.00676 0.506092 10
1.70619 7.05254 1.14924 0.503661 10
1.92768 7.96805 1.59351 0.390337 10
1.92749 7.96731 1.89246 0.387488 10
1.92731 7.96655 2.19621 0.384166 10
1.91169 8.02441 -2.21031 0.48956 10
1.9115 8.02364 -1.90424 0.493887 10
1.91132 8.02288 -1.60313 0.497612 10
1.91114 8.02213 -1.30614 0.500732 10
1.91097 8.02139 -1.01247 0.503241 10
1.91079 8.02066 -0.721355 0.505137 10
1.91062 8.01993 -0.43207 0.506417 10
1.91045 8.01921 -0.143893 0.507081 10
1.91027 8.01848 0.14388 0.507127 10
1.9101 8.01776 0.431952 0.506555 10
1.90993 8.01703 0.721029 0.505365 10
1.90975 8.0163 1.01182 0.50356 10
1.69002 7.09394 1.15501 0.501142 10
1.9094 8.01482 1.60152 0.388385 10
1.90922 8.01406 1.90197 0.38555 10
1.90904 8.01329 2.20725 0.382245 10
1.89321 8.07175 -2.22151 0.48709 10
1.89303 8.07097 -1.9139 0.491396 10
1.89285 8.07021 -1.61126 0.495102 10
1.89267 8.06945 -1.31276 0.498206 10
1.8925 8.06871 -1.0176 0.500703 10
1.89232 8.06797 -0.725011 0.50259 10
1.89215 8.06723 -0.434259 0.503864 10
1.89198 8.0665 -0.144622 0.504524 10
1.89181 8.06577 0.144609 0.50457 10
1.89164 8.06503 0.434141 0.504001 10
1.89146 8.0643 0.724681 0.502818 10
1.89129 8.06356 1.01695 0.501022 10
1.67368 7.13575 1.16086 0.498616 10
1.89094 8.06206 1.60963 0.386428 10
1.89076 8.06129 1.9116 0.383607 10
1.89058 8.06052 2.21842 0.380319 10
1.87455 8.11958 -2.23286 0.484614 10
1.87437 8.11879 -1.92367 0.488898 10
1.87419 8.11802 -1.61949 0.492587 10
1.87402 8.11725 -1.31946 0.495675 10
1.87384 8.1165 -1.02279 0.498159 10
1.87367 8.11575 -0.728713 0.500036 10
1.8735 8.115 -0.436476 0.501305 10
1.87333 8.11426 -0.145361 0.501962 10
1.87316 8.11352 0.145347 0.502008 10
1.87299 8.11278 0.436357 0.501442 10
1.87281 8.11204 0.72838 0.500265 10
1.87264 8.11129 1.02214 0.498479 10
1.65717 7.17799 1.16679 0.496085 10
1.87229 8.10978 1.61785 0.384466 10
1.87211 8.109 1.92136 0.38166 10
1.87193 8.10822 2.22974 0.378389 10
1.8557 8.1679 -2.24436 0.482133 10
1.85552 8.1671 -1.93358 0.486395 10
1.85534 8.16632 -1.62782 0.490065 10
1.85517 8.16555 -1.32625 0.493137 10
1.85499 8.16479 -1.02806 0.495609 10
1.85482 8.16403 -0.732462 0.497477 10
1.85465 8.16328 -0.438722 0.498739 10
1.85448 8.16253 -0.146108 0.499393 10
1.85431 8.16178 0.146095 0.499439 10
1.85414 8.16103 0.438601 0.498876 10
1.85397 8.16028 0.732125 0.497706 10
1.8538 8.15952 1.02739 0.495929 10
1.6405 7.22067 1.17279 0.493548 10
1.85345 8.15799 1.62616 0.3825 10
1.85327 8.15721 1.93123 0.379708 10
1.85309 8.15641 2.2412 0.376454 10
1.83666 8.21672 -2.25599 0.479645 10
1.83648 8.21591 -1.9436 0.483886 10
1.8363 8.21512 -1.63626 0.487537 10
1.83612 8.21434 -1.33313 0.490594 10
1.83595 8.21357 -1.03339 0.493053 10
1.83578 8.2128 -0.736259 0.494912 10
1.83561 8.21204 -0.440996 0.496167 10
1.83544 8.21128 -0.146866 0.496818 10
1.83527 8.21053 0.146852 0.496864 10
1.8351 8.20977 0.440873 0.496305 10
1.83493 8.20901 0.735919 0.49514 10
1.83476 8.20825 1.03272 0.493373 10
1.62365 7.26378 1.17886 0.491004 10
1.83442 8.2067 1.63459 0.380529 10
1.83424 8.20591 1.94123 0.377752 10
1.83406 8.2051 2.25281 0.374515 10
1.81741 8.26605 -2.26778 0.477152 10
1.81723 8.26524 -1.95376 0.481371 10
1.81705 8.26443 -1.64481 0.485003 10
1.81688 8.26365 -1.34009 0.488044 10
1.81671 8.26287 -1.03878 0.490491 10
1.81654 8.26209 -0.740104 0.49234 10
1.81637 8.26132 -0.443299 0.493589 10
1.8162 8.26056 -0.147633 0.494237 10
1.81603 8.25979 0.147619 0.494283 10
1.81586 8.25903 0.443175 0.493727 10
1.81569 8.25826 0.739761 0.492569 10
1.81552 8.25748 1.03811 0.490811 10
1.60662 7.30735 1.18501 0.488455 10
1.81518 8.25592 1.64312 0.378553 10
1.815 8.25512 1.95136 0.375791 10
1.81483 8.2543 2.26456 0.372571 10
1.79796 8.3159 -2.27972 0.474653 10
1.79778 8.31507 -1.96404 0.47885 10
1.79761 8.31426 -1.65347 0.482463 10
1.79744 8.31347 -1.34715 0.485489 10
1.79726 8.31267 -1.04425 0.487923 10
1.7971 8.31189 -0.743999 0.489763 10
1.79693 8.31111 -0.445631 0.491006 10
1.79676 8.31034 -0.148409 0.491651 10
1.79659 8.30956 0.148395 0.491696 10
1.79642 8.30879 0.445507 0.491143 10
1.79626 8.30801 0.743652 0.489991 10
1.79609 8.30723 1.04357 0.488243 10
1.58942 7.35137 1.19125 0.485899 10
1.79575 8.30564 1.65176 0.376573 10
1.79557 8.30484 1.96162 0.373825 10
1.79539 8.30402 2.27647 0.370622 10
1.77831 8.36627 -2.29182 0.472148 10
1.77813 8.36544 -1.97446 0.476323 10
1.77796 8.36462 -1.66224 0.479918 10
1.77779 8.36381 -1.35429 0.482928 10
1.77762 8.36301 -1.04979 0.485349 10
1.77745 8.36222 -0.747944 0.48718 10
1.77728 8.36143 -0.447994 0.488416 10
1.77711 8.36065 -0.149196 0.489058 10
1.77695 8.35987 0.149182 0.489104 10
1.77678 8.35908 0.447868 0.488554 10
1.77661 8.3583 0.747593 0.487408 10
1.77645 8.35751 1.0491 0.485669 10
1.57204 7.39586 1.19756 0.483338 10
1.7761 8.3559 1.66051 0.374588 10
1.77593 8.35509 1.97202 0.371855 10
1.77575 8.35425 2.28853 0.368669 10
1.75844 8.41719 -2.30407 0.469637 10
1.75827 8.41634 -1.98501 0.473791 10
1.75809 8.41552 -1.67113 0.477366 10
1.75792 8.4147 -1.36153 0.48036 10
1.75775 8.41389 -1.0554 0.482769 10
1.75759 8.41309 -0.751941 0.48459 10
1.75742 8.4123 -0.450388 0.48582 10
1.75725 8.4115 -0.149993 0.486459 10
1.75709 8.41071 0.149979 0.486505 10
1.75692 8.40992 0.45026 0.485958 10
1.75676 8.40913 0.751586 0.484819 10
1.74916 8.37276 1.05024 0.108525 10
1.55447 7.44082 1.20395 0.480771 10
1.75625 8.4067 1.66938 0.372599 10
1.75608 8.40588 1.98255 0.36988 10
1.7559 8.40504 2.30074 0.366712 10
1.73837 8.46865 -2.31648 0.467121 10
1.73819 8.46779 -1.99571 0.471252 10
1.73802 8.46696 -1.68013 0.474809 10
1.73785 8.46613 -1.36886 0.477788 10
1.73768 8.46531 -1.06108 0.480184 10
1.73752 8.4645 -0.755989 0.481995 10
1.73735 8.4637 -0.452812 0.483219 10
1.73719 8.4629 -0.150801 0.483854 10
1.73702 8.4621 0.150786 0.4839 10
1.73686 8.4613 0.452684 0.483356 10
1.73669 8.46049 0.75563 0.482224 10
1.71984 8.37839 1.05019 0.108531 10
1.53671 7.48627 1.21043 0.478198 10
1.73619 8.45804 1.67836 0.370605 10
1.73602 8.45721 1.99321 0.367901 10
1.73584 8.45635 2.31312 0.36475 10
1.71807 8.52067 -2.32906 0.464599 10
1.71789 8.51981 -2.00654 0.468708 10
1.71772 8.51896 -1.68925 0.472246 10
1.71756 8.51813 -1.37629 0.475209 10
1.71739 8.5173 -1.06684 0.477592 10
1.71722 8.51648 -0.760091 0.479394 10
1.71706 8.51567 -0.455269 0.480611 10
1.7169 8.51485 -0.151619 0.481244 10
1.71673 8.51404 0.151604 0.481289 10
1.71657 8.51323 0.455139 0.480749 10
1.7164 8.51242 0.759729 0.479622 10
1.6905 8.38392 1.05013 0.108536 10
1.51876 7.53221 1.21699 0.475619 10
1.71591 8.50994 1.68746 0.368606 10
1.71574 8.5091 2.00402 0.365918 10
1.71556 8.50824 2.32566 0.362783 10
1.69755 8.57326 -2.3418 0.462071 10
1.69738 8.57238 -2.01751 0.466158 10
1.69721 8.57153 -1.69848 0.469677 10
1.69704 8.57068 -1.38382 0.472624 10
1.69688 8.56985 -1.07267 0.474995 10
1.69671 8.56902 -0.764247 0.476787 10
1.69655 8.5682 -0.457758 0.477998 10
1.69639 8.56737 -0.152447 0.478627 10
1.69623 8.56656 0.152433 0.478673 10
1.69606 8.56573 0.457627 0.478136 10
1.6959 8.56491 0.76388 0.477016 10
1.66114 8.38934 1.05008 0.108542 10
1.50061 7.57865 1.22364 0.473034 10
1.6954 8.5624 1.69668 0.366603 10
1.69523 8.56155 2.01496 0.36393 10
1.69506 8.56068 2.33836 0.360812 10
1.67681 8.62643 -2.35471 0.459538 10
1.67664 8.62555 -2.02864 0.463603 10
1.67647 8.62468 -1.70785 0.467103 10
1.6763 8.62382 -1.39144 0.470033 10
1.67614 8.62298 -1.07859 0.472392 10
1.67597 8.62214 -0.768458 0.474174 10
1.67581 8.62131 -0.46028 0.475379 10
1.67565 8.62048 -0.153287 0.476005 10
1.67549 8.61965 0.153272 0.476051 10
1.67533 8.61882 0.460147 0.475516 10
1.67517 8.61798 0.768088 0.474403 10
1.63176 8.39467 1.05003 0.108547 10
1.67484 8.6163 1.39023 0.366811 10
1.67467 8.61545 1.70602 0.364596 10
1.6745 8.61458 2.02606 0.361937 10
1.67433 8.6137 2.35123 0.358837 10
1.78333 9.34855 -2.5501 0.230337 10
2.06985 10.8505 -2.55022 0.200188 10
2.45854 12.8881 -2.55037 0.169794 10
2.59144 13.5848 -2.19042 0.139193 10
1.65517 8.67669 -1.08457 0.469783 10
1.65501 8.67584 -0.772725 0.471556 10
1.65485 8.675 -0.462836 0.472754 10
1.65469 8.67416 -0.154138 0.473377 10
1.65453 8.67332 0.154123 0.473423 10
1.65437 8.67248 0.462701 0.472892 10
1.6542 8.67164 0.77235 0.471784 10
1.60236 8.39988 1.04997 0.108553 10
1.65388 8.66994 1.39794 0.364787 10
1.65372 8.66907 1.71548 0.362584 10
1.65355 8.6682 2.0373 0.35994 10
1.65338 8.66731 2.36428 0.356857 10
1.75073 9.35493 -2.55016 0.230332 10
2.03202 10.858 -2.55029 0.200182 10
2.41361 12.897 -2.55045 0.169788 10
2.5441 13.5943 -2.19051 0.139188 10
2.82382 15.0889 -1.88485 0.467167 10
2.82354 15.0875 -1.3429 0.309741 10
2.82327 15.086 -0.80435 0.310529 10
2.82299 15.0845 -0.267873 0.310938 10
2.82272 15.0831 0.267846 0.310968 10
2.82244 15.0816 0.804115 0.310619 10
2.20696 11.7928 1.04965 0.0783369 10
1.57295 8.405 1.04992 0.108558 10
2.07071 11.0647 1.78291 0.362758 10
2.0705 11.0636 2.18789 0.360568 10
2.07029 11.0625 2.59832 0.357939 10
2.07008 11.0614 3.01534 0.354873 10
1.7181 9.36121 -2.55022 0.230327 10
1.99416 10.8653 -2.55036 0.200177 10
2.36866 12.9058 -2.55053 0.169783 10
2.49674 13.6036 -2.19059 0.139182 10
2.78676 15.1839 -1.89549 0.464547 10
2.81654 15.3461 -1.36503 0.498253 10
2.81665 15.3467 -0.817722 0.49945 10
2.81677 15.3474 -0.272364 0.500039 10
2.81689 15.348 0.272375 0.500018 10
2.817 15.3486 0.817824 0.499388 10
2.16563 11.7996 1.04957 0.0783425 10
1.54353 8.41001 1.04987 0.108564 10
2.04353 11.1343 1.79296 0.360725 10
2.04332 11.1332 2.20022 0.358547 10
2.04311 11.132 2.61296 0.355933 10
2.0429 11.1309 3.03233 0.352885 10
1.68546 9.36736 -2.55028 0.230321 10
1.95628 10.8725 -2.55042 0.200171 10
2.32367 12.9144 -2.55062 0.169777 10
2.44933 13.6128 -2.19068 0.139177 10
2.74929 15.2799 -1.90626 0.461921 10
2.75702 15.3229 -1.3621 0.499326 10
2.75714 15.3235 -0.815966 0.500525 10
2.75725 15.3241 -0.271779 0.501115 10
2.75736 15.3248 0.27179 0.501094 10
2.75748 15.3254 0.816068 0.500463 10
2.12428 11.8062 1.0495 0.078348 10
1.51409 8.41492 1.04981 0.108569 10
2.01604 11.2047 1.80314 0.358687 10
2.01584 11.2035 2.21271 0.356522 10
2.01563 11.2024 2.6278 0.353923 10
