VERSION 0.7
FIELDS x y z intensity label
SIZE 4 4 4 4 4
TYPE F F F F F
COUNT 1 1 1 1 1
WIDTH 1281
HEIGHT 1
VIEWPOINT 5.18239 11.022 2.72838 0.766203 -0.000518858 0.000738109 0.642598
POINTS 1281
DATA ascii
7.45681 10.9724 2.57872 0.475483 10
7.45613 10.9714 3.0625 0.472011 10
7.45544 10.9703 3.55406 0.467964 10
5.67432 8.41252 -2.71897 0.0986734 1
6.58225 9.75858 -2.71754 0.0858064 1
7.45246 11.0487 -2.59054 0.607037 10
7.45179 11.0477 -2.11063 0.61084 10
7.45112 11.0467 -1.63608 0.6139 10
7.45046 11.0458 -1.16566 0.616211 10
7.44981 11.0448 -0.698199 0.617771 10
7.44915 11.0438 -0.232524 0.618579 10
7.73814 11.4723 0.241544 0.618633 10
7.73746 11.4713 0.725158 0.617934 10
7.3024 10.8262 1.1425 0.616482 10
7.44653 11.0399 1.63507 0.47896 10
7.44587 11.039 2.10895 0.476658 10
7.4452 11.038 2.58801 0.473776 10
7.44452 11.0369 3.07354 0.470317 10
7.44382 11.0359 3.56687 0.466284 10
5.64504 8.43245 -2.71903 0.0986714 1
6.5483 9.78173 -2.71761 0.0858044 1
7.73011 11.5471 -2.70105 0.604841 10
7.72941 11.5461 -2.20066 0.60863 10
7.72872 11.545 -1.70587 0.611678 10
7.72803 11.544 -1.21539 0.613982 10
7.72735 11.543 -0.727982 0.615537 10
7.72667 11.542 -0.242442 0.616342 10
7.72599 11.5409 0.242421 0.616396 10
7.72531 11.5399 0.72779 0.615699 10
7.29093 10.8911 1.14664 0.614252 10
7.72394 11.5379 1.70481 0.477228 10
7.72325 11.5368 2.19891 0.474935 10
7.72255 11.5358 2.69841 0.472063 10
7.72184 11.5347 3.20464 0.468617 10
7.72112 11.5337 3.71901 0.464599 10
5.61568 8.45228 -2.71908 0.0986693 1
6.51427 9.80477 -2.71767 0.0858023 1
7.71788 11.6163 -2.71093 0.602636 10
7.71718 11.6153 -2.20871 0.606412 10
7.71649 11.6142 -1.71211 0.60945 10
7.7158 11.6132 -1.21983 0.611745 10
7.71511 11.6122 -0.730644 0.613294 10
7.71443 11.6112 -0.243329 0.614096 10
7.71375 11.6101 0.243307 0.614151 10
7.71307 11.6091 0.73045 0.613457 10
7.27938 10.9563 1.15084 0.612015 10
7.7117 11.607 1.71104 0.475491 10
7.71101 11.606 2.20694 0.473206 10
7.71031 11.6049 2.70827 0.470345 10
7.7096 11.6039 3.21635 0.46691 10
7.70887 11.6028 3.73259 0.462907 10
5.58626 8.472 -2.71914 0.0986673 1
6.48016 9.82768 -2.71774 0.0858003 1
7.69121 11.6643 -2.71584 0.0728287 1
7.70486 11.685 -2.21684 0.604187 10
7.70417 11.684 -1.71841 0.607214 10
7.70348 11.6829 -1.22432 0.6095 10
7.70279 11.6819 -0.733334 0.611044 10
7.70211 11.6809 -0.244224 0.611844 10
7.70143 11.6798 0.244203 0.611898 10
7.70074 11.6788 0.733139 0.611207 10
7.26774 11.0221 1.15507 0.609771 10
7.69937 11.6767 1.71734 0.473747 10
7.69868 11.6757 2.21506 0.471471 10
7.69797 11.6746 2.71823 0.46862 10
7.69726 11.6735 3.22818 0.465199 10
7.69654 11.6724 3.74633 0.461211 10
5.55677 8.49163 -2.71919 0.0986653 1
6.44597 9.85048 -2.7178 0.0857982 1
7.65066 11.6914 -2.71592 0.0728266 1
7.69245 11.7553 -2.22507 0.601954 10
7.69175 11.7542 -1.72478 0.60497 10
7.69106 11.7532 -1.22886 0.607248 10
7.69038 11.7521 -0.736053 0.608787 10
7.68969 11.7511 -0.24513 0.609584 10
7.68901 11.75 0.245108 0.609638 10
7.68832 11.749 0.735857 0.608949 10
7.25602 11.0884 1.15935 0.607519 10
7.68695 11.7469 1.72371 0.471998 10
7.68625 11.7458 2.22327 0.46973 10
7.68555 11.7448 2.7283 0.46689 10
7.68483 11.7437 3.24014 0.463481 10
7.68411 11.7425 3.76021 0.459508 10
5.5272 8.51115 -2.71925 0.0986632 1
6.4117 9.87315 -2.71787 0.0857962 1
7.61002 11.7184 -2.716 0.0728245 1
7.67995 11.8261 -2.23338 0.599715 10
7.67925 11.825 -1.73123 0.602719 10
7.67856 11.8239 -1.23345 0.604989 10
7.67787 11.8229 -0.738801 0.606522 10
7.67719 11.8218 -0.246045 0.607316 10
7.6765 11.8208 0.246023 0.607371 10
7.67581 11.8197 0.738604 0.606685 10
7.24421 11.1551 1.16368 0.60526 10
7.67444 11.8176 1.73014 0.470243 10
7.67374 11.8165 2.23157 0.467984 10
7.67303 11.8154 2.73849 0.465154 10
7.67232 11.8143 3.25223 0.461759 10
7.67159 11.8132 3.77424 0.4578 10
5.49757 8.53057 -2.71931 0.0986612 1
6.37735 9.89571 -2.71793 0.0857941 1
7.56928 11.7452 -2.71608 0.0728225 1
7.66735 11.8974 -2.24178 0.597467 10
7.66665 11.8963 -1.73774 0.600461 10
7.66596 11.8952 -1.23809 0.602722 10
7.66527 11.8942 -0.74158 0.60425 10
7.66458 11.8931 -0.24697 0.605041 10
7.66389 11.892 0.246948 0.605096 10
7.66321 11.891 0.74138 0.604412 10
7.23231 11.2224 1.16806 0.602993 10
7.66183 11.8888 1.73664 0.468482 10
7.66113 11.8877 2.23996 0.466231 10
7.66042 11.8866 2.74878 0.463413 10
7.6597 11.8855 3.26445 0.46003 10
7.65897 11.8844 3.78842 0.456087 10
5.46788 8.54988 -2.71936 0.0986592 1
6.34292 9.91815 -2.718 0.085792 1
7.52846 11.7719 -2.71615 0.0728204 1
7.65466 11.9693 -2.25027 0.595213 10
7.65396 11.9682 -1.74432 0.598195 10
7.65326 11.9671 -1.24278 0.600449 10
7.65257 11.966 -0.744388 0.601971 10
7.65188 11.9649 -0.247905 0.602759 10
7.6512 11.9638 0.247883 0.602813 10
7.65051 11.9628 0.744187 0.602133 10
7.22032 11.2901 1.17248 0.600719 10
7.64912 11.9606 1.74322 0.466715 10
7.64842 11.9595 2.24843 0.464473 10
7.64771 11.9584 2.75918 0.461666 10
7.64699 11.9573 3.27681 0.458296 10
7.64627 11.9561 3.80275 0.454368 10
5.43812 8.56909 -2.71942 0.0986571 1
6.30842 9.94047 -2.71807 0.08579 1
7.48754 11.7985 -2.71623 0.0728183 1
7.64187 12.0417 -2.25885 0.592951 10
7.64117 12.0405 -1.75097 0.595922 10
7.64047 12.0395 -1.24752 0.598168 10
7.63978 12.0384 -0.747226 0.599684 10
7.63909 12.0373 -0.248851 0.60047 10
7.6384 12.0362 0.248828 0.600524 10
7.63771 12.0351 0.747024 0.599846 10
7.20824 11.3584 1.17695 0.598438 10
7.63632 12.0329 1.74986 0.464943 10
7.63562 12.0318 2.257 0.46271 10
7.63491 12.0307 2.76969 0.459913 10
7.63419 12.0296 3.28929 0.456556 10
7.63346 12.0284 3.81724 0.452643 10
5.40828 8.5882 -2.71948 0.0986551 1
6.27383 9.96267 -2.71813 0.0857879 1
7.44652 11.8249 -2.71631 0.0728162 1
7.62899 12.1146 -2.26753 0.590682 10
7.62828 12.1135 -1.7577 0.593642 10
7.62758 12.1124 -1.25231 0.595879 10
7.62689 12.1113 -0.750096 0.59739 10
7.6262 12.1102 -0.249806 0.598173 10
7.62551 12.1091 0.249783 0.598227 10
7.62481 12.108 0.749892 0.597552 10
7.19607 11.4272 1.18146 0.596149 10
7.62342 12.1058 1.75658 0.463165 10
7.62272 12.1047 2.26567 0.460941 10
7.62201 12.1035 2.78032 0.458155 10
7.62129 12.1024 3.30192 0.454811 10
7.62055 12.1012 3.83189 0.450913 10
5.37838 8.60721 -2.71953 0.098653 1
6.23917 9.98475 -2.7182 0.0857858 1
7.40541 11.8511 -2.71639 0.0728141 1
7.616 12.1881 -2.2763 0.588406 10
7.61529 12.187 -1.7645 0.591355 10
7.61459 12.1859 -1.25715 0.593583 10
7.6139 12.1848 -0.752997 0.595088 10
7.61321 12.1837 -0.250772 0.595869 10
7.61251 12.1826 0.250749 0.595923 10
7.61182 12.1814 0.752791 0.595251 10
7.1838 11.4965 1.18603 0.593854 10
7.61043 12.1792 1.76337 0.461382 10
7.60972 12.1781 2.27442 0.459166 10
7.60901 12.177 2.79107 0.456391 10
7.60828 12.1758 3.31468 0.45306 10
7.60755 12.1746 3.84669 0.449177 10
5.34841 8.62611 -2.71959 0.0986509 1
6.20442 10.0067 -2.71826 0.0857837 1
7.36421 11.8772 -2.71646 0.072812 1
7.60291 12.2622 -2.28517 0.586123 10
7.60221 12.2611 -1.77137 0.58906 10
7.6015 12.26 -1.26205 0.59128 10
7.60081 12.2588 -0.75593 0.59278 10
7.60011 12.2577 -0.251749 0.593557 10
7.59942 12.2566 0.251726 0.593611 10
7.59872 12.2555 0.755722 0.592942 10
7.17144 11.5663 1.19065 0.591551 10
7.59733 12.2532 1.77023 0.459592 10
7.59662 12.2521 2.28328 0.457386 10
7.5959 12.2509 2.80193 0.454622 10
7.59518 12.2498 3.32758 0.451304 10
7.59444 12.2486 3.86166 0.447436 10
5.31838 8.64491 -2.71965 0.0986489 1
6.16961 10.0285 -2.71833 0.0857817 1
7.32292 11.9032 -2.71654 0.0728099 1
7.58972 12.3369 -2.29413 0.583832 10
7.58902 12.3358 -1.77832 0.586758 10
7.58831 12.3346 -1.267 0.58897 10
7.58761 12.3335 -0.758894 0.590464 10
7.58692 12.3324 -0.252736 0.591238 10
7.58622 12.3312 0.252713 0.591293 10
7.58553 12.3301 0.758685 0.590626 10
7.15898 11.6367 1.19532 0.58924 10
7.58413 12.3278 1.77717 0.457798 10
7.58342 12.3267 2.29223 0.4556 10
7.5827 12.3255 2.81291 0.452847 10
7.58197 12.3243 3.34062 0.449542 10
7.58124 12.3231 3.8768 0.445689 10
5.28828 8.6636 -2.7197 0.0986468 1
6.13471 10.0503 -2.71839 0.0857796 1
7.28153 11.9291 -2.71662 0.0728078 1
7.57643 12.4122 -2.3032 0.581534 10
7.57572 12.411 -1.78534 0.584449 10
7.57501 12.4099 -1.27201 0.586652 10
7.57431 12.4087 -0.761892 0.588141 10
7.57362 12.4076 -0.253734 0.588912 10
7.57292 12.4064 0.253711 0.588966 10
7.57222 12.4053 0.761681 0.588303 10
7.14642 11.7077 1.20004 0.586923 10
7.57082 12.403 1.78419 0.455997 10
7.57011 12.4018 2.30128 0.453808 10
7.56939 12.4007 2.82402 0.451066 10
7.56866 12.3995 3.3538 0.447774 10
7.56792 12.3983 3.8921 0.443937 10
5.25812 8.68219 -2.71976 0.0986447 1
6.09974 10.0719 -2.71846 0.0857775 1
7.24005 11.9547 -2.7167 0.0728057 1
7.56303 12.488 -2.31236 0.57923 10
7.56232 12.4869 -1.79245 0.582133 10
7.56161 12.4857 -1.27707 0.584328 10
7.56091 12.4845 -0.764922 0.58581 10
7.56021 12.4834 -0.254743 0.586579 10
7.55951 12.4822 0.25472 0.586633 10
7.55881 12.4811 0.76471 0.585973 10
7.13376 11.7792 1.20481 0.584598 10
7.55741 12.4788 1.79128 0.454192 10
7.5567 12.4776 2.31043 0.452011 10
7.55598 12.4764 2.83524 0.44928 10
7.55525 12.4752 3.36713 0.446002 10
7.55451 12.474 3.90756 0.44218 10
5.2279 8.70067 -2.71982 0.0986427 1
6.0647 10.0933 -2.71853 0.0857754 1
7.19849 11.9803 -2.71678 0.0728036 1
7.54952 12.5645 -2.32163 0.576918 10
7.54881 12.5633 -1.79963 0.57981 10
7.5481 12.5621 -1.28218 0.581996 10
7.5474 12.561 -0.767986 0.583473 10
7.5467 12.5598 -0.255764 0.584239 10
7.546 12.5586 0.25574 0.584293 10
7.5453 12.5575 0.767773 0.583636 10
7.12101 11.8513 1.20963 0.582267 10
7.54389 12.5551 1.79845 0.45238 10
7.54318 12.5539 2.31968 0.450209 10
7.54246 12.5527 2.84659 0.447489 10
7.54172 12.5515 3.38061 0.444224 10
7.54098 12.5503 3.9232 0.440417 10
5.1976 8.71905 -2.71987 0.0986406 1
6.02957 10.1147 -2.71859 0.0857733 1
7.15683 12.0057 -2.71686 0.0728015 1
7.53591 12.6416 -2.331 0.574599 10
7.53519 12.6404 -1.80689 0.57748 10
7.53448 12.6392 -1.28736 0.579657 10
7.53378 12.638 -0.771085 0.581128 10
7.53308 12.6369 -0.256796 0.581892 10
7.53238 12.6357 0.256771 0.581946 10
7.53167 12.6345 0.77087 0.581291 10
7.10814 11.924 1.21451 0.579928 10
7.53026 12.6321 1.80571 0.450563 10
7.52954 12.6309 2.32903 0.448401 10
7.52882 12.6297 2.85807 0.445692 10
7.52809 12.6285 3.39424 0.44244 10
7.52735 12.6272 3.93902 0.438649 10
5.16724 8.73733 -2.71993 0.0986385 1
5.99438 10.1359 -2.71866 0.0857712 1
7.11509 12.031 -2.71694 0.0727994 1
7.52218 12.7193 -2.34047 0.572273 10
7.52147 12.7181 -1.81423 0.575143 10
7.52076 12.7169 -1.29259 0.577312 10
7.52005 12.7157 -0.774218 0.578777 10
7.51935 12.7145 -0.257839 0.579537 10
7.51864 12.7133 0.257814 0.579592 10
7.51794 12.7121 0.774001 0.578939 10
7.09518 11.9973 1.21944 0.577582 10
7.51652 12.7097 1.81304 0.448741 10
7.51581 12.7085 2.33849 0.446587 10
7.51508 12.7073 2.86967 0.44389 10
7.51435 12.7061 3.40802 0.440651 10
7.5136 12.7048 3.95501 0.436875 10
5.13682 8.7555 -2.71999 0.0986364 1
5.9591 10.157 -2.71873 0.0857691 1
7.07325 12.0561 -2.71701 0.0727973 1
8.10225 13.8099 -2.53594 0.139941 10
10.2981 17.5527 -2.49874 0.672636 10
10.2983 17.553 -1.78048 0.675094 10
7.50621 12.794 -0.777386 0.576418 10
7.5055 12.7928 -0.258894 0.577176 10
7.5048 12.7916 0.258869 0.57723 10
7.50409 12.7904 0.777167 0.576581 10
7.08211 12.0712 1.22443 0.575229 10
7.50267 12.788 1.82046 0.446913 10
7.50195 12.7868 2.34805 0.444768 10
7.50123 12.7855 2.88141 0.442082 10
7.50049 12.7843 3.42196 0.438856 10
7.49974 12.783 3.97118 0.435096 10
5.10634 8.77356 -2.72005 0.0986343 1
5.92376 10.178 -2.71879 0.085767 1
7.03134 12.081 -2.71709 0.0727952 1
8.05428 13.8386 -2.53603 0.139936 10
10.2065 17.5365 -2.49135 0.674632 10
10.2067 17.5368 -1.77522 0.677097 10
10.2069 17.5372 -1.06342 0.678738 10
10.2071 17.5376 -0.354193 0.679551 10
10.2073 17.538 0.3542 0.679537 10
10.2076 17.5383 1.06349 0.678694 10
7.06893 12.1456 1.22948 0.572869 10
8.46976 14.5525 2.06742 0.44508 10
8.46894 14.5511 2.66659 0.442944 10
8.46812 14.5497 3.27231 0.440269 10
8.46729 14.5482 3.88618 0.437057 10
8.46644 14.5468 4.50991 0.433312 10
5.07578 8.79152 -2.7201 0.0986322 1
5.88834 10.1989 -2.71886 0.0857649 1
6.98932 12.1059 -2.71717 0.072793 1
8.00621 13.8672 -2.53612 0.139931 10
10.1154 17.5204 -2.48403 0.67662 10
10.1382 17.56 -1.77396 0.570232 10
10.1373 17.5583 -1.06254 0.57168 10
10.1363 17.5566 -0.35386 0.572431 10
10.1354 17.555 0.353827 0.572486 10
10.1344 17.5533 1.06224 0.571842 10
7.05564 12.2207 1.23458 0.570502 10
8.45383 14.6425 2.076 0.443241 10
8.45302 14.6411 2.67765 0.441114 10
8.45219 14.6396 3.28588 0.43845 10
8.45135 14.6382 3.9023 0.435252 10
8.45051 14.6367 4.52861 0.431523 10
5.04518 8.80937 -2.72016 0.0986301 1
5.85285 10.2196 -2.71893 0.0857628 1
6.94723 12.1305 -2.71725 0.0727909 1
7.95804 13.8955 -2.53621 0.139926 10
10.0248 17.5043 -2.47678 0.6786 10
10.119 17.6688 -1.78138 0.567858 10
10.118 17.6671 -1.06699 0.5693 10
10.1171 17.6654 -0.355339 0.570049 10
10.1161 17.6637 0.355305 0.570103 10
10.1152 17.6621 1.06668 0.569463 10
7.04224 12.2964 1.23973 0.568129 10
8.43777 14.7332 2.08467 0.441397 10
8.43696 14.7318 2.68884 0.439279 10
8.43613 14.7303 3.2996 0.436626 10
8.43529 14.7288 3.9186 0.433441 10
8.43444 14.7274 4.54752 0.429728 10
5.0145 8.82712 -2.72022 0.0986281 1
5.81728 10.2403 -2.71899 0.0857607 1
6.90504 12.1551 -2.71733 0.0727888 1
7.90977 13.9237 -2.5363 0.139921 10
9.93481 17.4884 -2.4696 0.680571 10
10.0996 17.7785 -1.78888 0.565477 10
10.0986 17.7768 -1.07148 0.566914 10
10.0977 17.7751 -0.356835 0.567659 10
10.0967 17.7734 0.356801 0.567714 10
10.0563 17.7023 1.06699 0.0463209 10
8.42239 14.8261 1.4918 0.441121 10
8.42158 14.8247 2.09345 0.439547 10
8.42076 14.8232 2.70015 0.437439 10
8.41993 14.8218 3.31349 0.434797 10
8.41909 14.8203 3.93508 0.431626 10
8.41824 14.8188 4.56665 0.427928 10
4.98376 8.84475 -2.72028 0.0986259 1
5.78164 10.2608 -2.71906 0.0857585 1
6.86277 12.1795 -2.71741 0.0727866 1
7.86141 13.9517 -2.53639 0.139916 10
9.84531 17.4726 -2.4625 0.682534 10
10.0801 17.8892 -1.79646 0.563089 10
10.1698 18.0486 -1.08571 0.453575 10
10.1701 18.0489 -0.361617 0.454119 10
10.1703 18.0493 0.361624 0.454109 10
9.99337 17.7354 1.06687 0.0463261 10
8.40607 14.9184 1.49812 0.439259 10
8.40525 14.9169 2.10232 0.437693 10
8.40443 14.9155 2.71159 0.435593 10
8.4036 14.914 3.32752 0.432963 10
8.40276 14.9125 3.95175 0.429805 10
8.40191 14.911 4.586 0.426123 10
4.95297 8.86228 -2.72034 0.0986238 1
5.74594 10.2811 -2.71913 0.0857564 1
6.82042 12.2037 -2.71749 0.0727845 1
7.81294 13.9796 -2.53648 0.139911 10
9.75632 17.4569 -2.45547 0.684488 10
10.0603 18.0008 -1.80413 0.560695 10
10.0779 18.0323 -1.08261 0.454874 10
10.0781 18.0327 -0.360584 0.455419 10
10.0783 18.0331 0.360591 0.455409 10
9.9303 17.7682 1.06675 0.0463312 10
8.3896 15.0114 1.50452 0.437392 10
8.38878 15.01 2.11129 0.435833 10
8.38796 15.0085 2.72316 0.433742 10
8.38713 15.007 3.34172 0.431123 10
8.38629 15.0055 3.96861 0.427979 10
8.38543 15.0039 4.60556 0.424313 10
4.9221 8.87971 -2.72039 0.0986217 1
5.71015 10.3014 -2.7192 0.0857543 1
6.77798 12.2278 -2.71757 0.0727824 1
7.76437 14.0073 -2.53657 0.139906 10
9.66783 17.4412 -2.44851 0.686435 10
10.0404 18.1134 -1.8119 0.558293 10
10.0395 18.1117 -1.08526 0.369705 10
10.0385 18.1099 -0.361425 0.370191 10
10.0375 18.1082 0.36139 0.370227 10
9.86712 17.8007 1.06663 0.0358152 10
8.37299 15.1053 1.51099 0.43552 10
8.37217 15.1038 2.12037 0.433967 10
8.37135 15.1023 2.73487 0.431886 10
8.37051 15.1008 3.35609 0.429278 10
8.36967 15.0993 3.98567 0.426147 10
8.36881 15.0977 4.62535 0.422498 10
4.89118 8.89703 -2.72045 0.0986196 1
5.6743 10.3215 -2.71926 0.0857522 1
6.73545 12.2517 -2.71765 0.0727802 1
7.71571 14.0348 -2.53667 0.139901 10
9.57985 17.4257 -2.44162 0.688373 10
10.0204 18.227 -1.81974 0.555885 10
10.0626 18.3038 -1.09466 0.457455 10
10.0628 18.3042 -0.364599 0.458004 10
10.063 18.3045 0.364606 0.457994 10
9.80383 17.8331 1.06651 0.0358192 10
8.35624 15.1999 1.51753 0.433642 10
8.35542 15.1984 2.12954 0.432096 10
8.35459 15.1969 2.74671 0.430024 10
8.35376 15.1954 3.37061 0.427428 10
8.35291 15.1939 4.00292 0.424311 10
8.35205 15.1923 4.64537 0.420677 10
4.8602 8.91424 -2.72051 0.0986175 1
5.63838 10.3415 -2.71933 0.08575 1
6.69284 12.2755 -2.71773 0.0727781 1
7.66695 14.0622 -2.53676 0.139896 10
9.49235 17.4102 -2.43479 0.690302 10
10.0001 18.3415 -1.82768 0.55347 10
9.99915 18.3397 -1.09472 0.366511 10
9.99817 18.3379 -0.364574 0.366994 10
9.9972 18.3362 0.364539 0.36703 10
9.74043 17.8652 1.06639 0.0358232 10
8.33934 15.2954 1.52415 0.431759 10
8.33852 15.2939 2.13883 0.43022 10
8.33769 15.2924 2.75869 0.428157 10
8.33685 15.2909 3.38531 0.425572 10
8.336 15.2893 4.02037 0.422469 10
8.33514 15.2877 4.66562 0.418851 10
4.82916 8.93134 -2.72057 0.0986154 1
5.60239 10.3614 -2.7194 0.0857479 1
6.65015 12.2992 -2.71781 0.0727759 1
7.6181 14.0894 -2.53685 0.139891 10
9.40535 17.3948 -2.42803 0.692223 10
9.97971 18.4571 -1.83572 0.551049 10
10.0432 18.5745 -1.10664 0.460014 10
10.0434 18.5749 -0.368587 0.460566 10
10.0436 18.5753 0.368594 0.460556 10
9.67693 17.8971 1.06628 0.0358272 10
8.32229 15.3918 1.53084 0.429871 10
8.32147 15.3902 2.14822 0.428339 10
8.32064 15.3887 2.7708 0.426285 10
8.3198 15.3871 3.40017 0.423712 10
8.31895 15.3856 4.03802 0.420622 10
8.31808 15.384 4.6861 0.417021 10
4.79805 8.94833 -2.72063 0.0986133 1
5.56632 10.3811 -2.71947 0.0857457 1
6.60737 12.3227 -2.71789 0.0727738 1
7.56914 14.1164 -2.53694 0.139886 10
9.31882 17.3795 -2.42134 0.694136 10
9.95911 18.5737 -1.84384 0.54862 10
9.95812 18.5718 -1.1044 0.3633 10
9.95714 18.57 -0.367797 0.363779 10
9.95616 18.5682 0.36776 0.363815 10
9.61332 17.9288 1.06616 0.0336063 10
8.3051 15.4889 1.53762 0.427977 10
8.30427 15.4874 2.15773 0.426452 10
8.30344 15.4858 2.78306 0.424408 10
8.3026 15.4843 3.41521 0.421846 10
8.30174 15.4827 4.05588 0.41877 10
8.30088 15.4811 4.70682 0.415184 10
4.76689 8.96522 -2.72069 0.0986111 1
5.53019 10.4008 -2.71954 0.0857436 1
6.56451 12.346 -2.71797 0.0727716 1
7.52009 14.1432 -2.53703 0.139881 10
9.23277 17.3643 -2.41472 0.69604 10
9.93832 18.6913 -1.85206 0.546185 10
10.0198 18.8446 -1.11853 0.462551 10
10.0201 18.845 -0.372548 0.463106 10
10.0203 18.8454 0.372555 0.463096 10
9.54962 17.9602 1.06604 0.03361 10
8.28775 15.587 1.54447 0.426079 10
8.28692 15.5854 2.16734 0.424561 10
8.28609 15.5839 2.79545 0.422525 10
8.28524 15.5823 3.43043 0.419975 10
8.28439 15.5807 4.07394 0.416913 10
8.28352 15.579 4.72779 0.413344 10
4.73567 8.982 -2.72075 0.098609 1
5.49398 10.4203 -2.7196 0.0857415 1
6.52157 12.3693 -2.71806 0.0727694 1
7.47095 14.1699 -2.53713 0.139876 10
9.14718 17.3492 -2.40816 0.697936 10
9.91735 18.8099 -1.86038 0.543743 10
9.92696 18.8282 -1.11549 0.463811 10
9.92717 18.8286 -0.371536 0.464367 10
9.92737 18.8289 0.371543 0.464358 10
9.4858 17.9914 1.06592 0.0336138 10
8.27024 15.6859 1.5514 0.424175 10
8.26941 15.6843 2.17707 0.422664 10
8.26857 15.6827 2.808 0.420638 10
8.26773 15.6811 3.44582 0.418099 10
8.26687 15.6795 4.09222 0.415051 10
8.266 15.6779 4.749 0.411498 10
4.70439 8.99867 -2.7208 0.0986069 1
5.45772 10.4396 -2.71967 0.0857393 1
6.47855 12.3923 -2.71814 0.0727673 1
7.42171 14.1964 -2.53722 0.139871 10
9.06207 17.3341 -2.40166 0.699824 10
9.8962 18.9297 -1.86879 0.541295 10
9.99253 19.1139 -1.13035 0.465065 10
9.99273 19.1143 -0.376485 0.465623 10
9.99294 19.1147 0.376492 0.465613 10
9.42188 18.0224 1.0658 0.0336176 10
8.25258 15.7857 1.55841 0.422266 10
8.25175 15.7841 2.18691 0.420762 10
8.25091 15.7825 2.82069 0.418745 10
8.25006 15.7809 3.46139 0.416218 10
8.2492 15.7793 4.11071 0.413184 10
8.24833 15.7776 4.77045 0.409647 10
4.67306 9.01523 -2.72086 0.0986048 1
5.42138 10.4589 -2.71974 0.0857372 1
6.43544 12.4152 -2.71822 0.0727651 1
7.37239 14.2228 -2.53731 0.139865 10
8.97741 17.3192 -2.39523 0.701702 10
9.87485 19.0505 -1.87731 0.53884 10
9.89918 19.0974 -1.12732 0.466314 10
9.89938 19.0978 -0.375477 0.466873 10
9.89958 19.0982 0.375484 0.466863 10
9.35787 18.0531 1.06568 0.0336214 10
8.21351 15.8455 1.56147 0.549069 10
8.21369 15.8458 2.19147 0.547047 10
8.21385 15.8461 2.82692 0.544358 10
8.21403 15.8465 3.46946 0.541006 10
8.2142 15.8468 4.12081 0.536995 10
8.21438 15.8471 4.78278 0.53233 10
4.64166 9.03168 -2.72092 0.0986026 1
5.38497 10.478 -2.71981 0.085735 1
6.39225 12.438 -2.7183 0.0727629 1
7.32296 14.2489 -2.53741 0.13986 10
8.89319 17.3043 -2.38887 0.703573 10
9.8533 19.1724 -1.88592 0.536379 10
9.8523 19.1705 -1.1296 0.355194 10
9.85131 19.1686 -0.376189 0.355663 10
9.85032 19.1666 0.376151 0.355699 10
9.29374 18.0837 1.06556 0.0336251 10
8.13646 15.8318 1.55732 0.550533 10
8.13663 15.8322 2.18564 0.548505 10
8.1368 15.8325 2.8194 0.54581 10
8.13697 15.8328 3.46023 0.542449 10
8.13714 15.8332 4.10986 0.538427 10
8.13732 15.8335 4.77007 0.533749 10
4.6102 9.04803 -2.72098 0.0986005 1
5.3485 10.497 -2.71988 0.0857328 1
6.34899 12.4606 -2.71838 0.0727608 1
7.27345 14.2749 -2.5375 0.139855 10
8.80943 17.2895 -2.38256 0.705434 10
9.83155 19.2955 -1.89464 0.533911 10
9.86748 19.366 -1.13908 0.468794 10
9.86768 19.3664 -0.379393 0.469356 10
9.86788 19.3668 0.379401 0.469347 10
9.22952 18.1139 1.06544 0.0336289 10
8.05982 15.8183 1.55321 0.55199 10
8.05999 15.8186 2.17987 0.549957 10
8.06015 15.8189 2.81196 0.547254 10
8.06032 15.8193 3.4511 0.543884 10
8.06049 15.8196 4.09901 0.539852 10
8.06067 15.8199 4.75747 0.535162 10
4.57869 9.06426 -2.72104 0.0985983 1
5.31196 10.5159 -2.71994 0.0857307 1
6.30564 12.483 -2.71846 0.0727586 1
7.23795 14.3287 -2.54255 0.526789 10
8.72609 17.2747 -2.37632 0.707287 10
9.8096 19.4197 -1.90346 0.531436 10
9.8086 19.4177 -1.1401 0.351921 10
9.8076 19.4158 -0.379687 0.352387 10
9.80661 19.4138 0.379648 0.352422 10
9.1652 18.144 1.06532 0.0336327 10
7.98358 15.8048 1.54914 0.55344 10
7.98374 15.8051 2.17416 0.551402 10
7.98391 15.8054 2.80459 0.548692 10
7.98407 15.8058 3.44206 0.545313 10
7.98424 15.8061 4.08827 0.54127 10
7.98441 15.8065 4.74501 0.536568 10
4.54712 9.08039 -2.7211 0.0985962 1
5.27535 10.5346 -2.72001 0.0857285 1
6.26222 12.5054 -2.71854 0.0727564 1
7.22161 14.4212 -2.55448 0.524329 10
8.64321 17.2601 -2.37014 0.709132 10
9.78745 19.5451 -1.91239 0.528955 10
9.83193 19.6339 -1.15077 0.471251 10
9.83213 19.6343 -0.383288 0.471816 10
9.83233 19.6347 0.383295 0.471807 10
9.10078 18.1738 1.0652 0.0336365 10
7.90774 15.7914 1.54511 0.554883 10
7.9079 15.7917 2.1685 0.55284 10
7.90806 15.792 2.79729 0.550123 10
7.90823 15.7924 3.4331 0.546735 10
7.9084 15.7927 4.07763 0.542682 10
7.90857 15.793 4.73266 0.537967 10
4.51549 9.09641 -2.72116 0.098594 1
5.23868 10.5532 -2.72008 0.0857264 1
6.21871 12.5275 -2.71862 0.0727542 1
7.20511 14.5146 -2.56655 0.521863 10
8.56074 17.2455 -2.36402 0.710968 10
9.76508 19.6716 -1.92143 0.526467 10
9.76408 19.6696 -1.15086 0.348632 10
9.76307 19.6676 -0.38327 0.349093 10
9.76207 19.6656 0.38323 0.349128 10
9.03626 18.2034 1.06508 0.0336403 10
7.83229 15.778 1.54112 0.55632 10
7.83244 15.7784 2.1629 0.554271 10
7.83261 15.7787 2.79007 0.551547 10
7.83277 15.779 3.42424 0.548151 10
7.83293 15.7793 4.0671 0.544087 10
7.8331 15.7797 4.72044 0.53936 10
4.48381 9.11231 -2.72122 0.0985919 1
5.20194 10.5717 -2.72015 0.0857242 1
6.17513 12.5495 -2.7187 0.072752 1
7.18846 14.6089 -2.57877 0.519391 10
8.4787 17.231 -2.35796 0.712795 10
9.74251 19.7994 -1.93057 0.523974 10
9.79258 19.9011 -1.1624 0.473685 10
9.79277 19.9015 -0.38716 0.474254 10
9.79297 19.9019 0.387168 0.474244 10
8.97165 18.2328 1.06496 0.0336442 10
7.75723 15.7648 1.53717 0.55775 10
7.75739 15.7651 2.15736 0.555696 10
7.75754 15.7654 2.78292 0.552965 10
7.75771 15.7657 3.41546 0.54956 10
7.75787 15.7661 4.05667 0.545486 10
7.75803 15.7664 4.70834 0.540747 10
4.45207 9.12811 -2.72128 0.0985897 1
5.16514 10.5901 -2.72022 0.085722 1
6.13147 12.5714 -2.71879 0.0727498 1
7.17165 14.7041 -2.59113 0.516912 10
8.39707 17.2166 -2.35196 0.714613 10
9.71971 19.9284 -1.93983 0.521473 10
9.7187 19.9263 -1.16188 0.345325 10
9.7177 19.9242 -0.386939 0.345782 10
9.71669 19.9222 0.386899 0.345818 10
8.90694 18.2619 1.06484 0.033648 10
7.68255 15.7516 1.53326 0.559173 10
7.6827 15.7519 2.15187 0.557114 10
7.68286 15.7522 2.77583 0.554376 10
7.68302 15.7525 3.40676 0.550962 10
7.68318 15.7529 4.04635 0.546878 10
7.68334 15.7532 4.69635 0.542127 10
4.42028 9.14379 -2.72134 0.0985876 1
5.12827 10.6083 -2.72029 0.0857198 1
6.08774 12.5931 -2.71887 0.0727476 1
7.15468 14.8002 -2.60365 0.514426 10
8.31587 17.2022 -2.34602 0.716423 10
9.6967 20.0586 -1.9492 0.518967 10
9.74944 20.1677 -1.17397 0.476097 10
9.74964 20.1681 -0.391012 0.476668 10
9.74983 20.1685 0.391019 0.476658 10
8.84214 18.2908 1.06471 0.0336518 10
7.60825 15.7384 1.52938 0.560589 10
7.6084 15.7387 2.14643 0.558525 10
7.60856 15.7391 2.76882 0.55578 10
7.60871 15.7394 3.39816 0.552358 10
7.60887 15.7397 4.03612 0.548263 10
7.60904 15.74 4.68449 0.5435 10
4.38843 9.15936 -2.7214 0.0985854 1
5.09134 10.6264 -2.72036 0.0857176 1
6.04393 12.6146 -2.71895 0.0727454 1
7.13754 14.8972 -2.61632 0.511935 10
8.23508 17.1879 -2.34014 0.718224 10
9.67347 20.1901 -1.95868 0.516454 10
9.67245 20.188 -1.17317 0.342001 10
9.67144 20.1858 -0.390699 0.342454 10
9.67043 20.1837 0.390658 0.34249 10
8.77724 18.3195 1.06459 0.0336556 10
7.53433 15.7253 1.52555 0.561999 10
7.53448 15.7257 2.14105 0.559929 10
7.53463 15.726 2.76188 0.557177 10
7.53479 15.7263 3.38964 0.553747 10
7.53494 15.7266 4.026 0.549641 10
7.5351 15.727 4.67274 0.544866 10
4.35653 9.17483 -2.72146 0.0985833 1
5.05434 10.6444 -2.72043 0.0857155 1
6.00004 12.636 -2.71903 0.0727432 1
7.12024 14.9952 -2.62915 0.509437 10
8.15467 17.1737 -2.33431 0.720016 10
9.65 20.3229 -1.96828 0.513935 10
9.70258 20.4336 -1.18547 0.478485 10
9.70277 20.434 -0.394844 0.479059 10
9.70297 20.4344 0.394852 0.479049 10
8.71225 18.3479 1.06447 0.0336595 10
7.46076 15.7123 1.52175 0.563401 10
7.46092 15.7126 2.13572 0.561327 10
7.46107 15.713 2.755 0.558568 10
7.46122 15.7133 3.3812 0.555129 10
7.46137 15.7136 4.01598 0.551013 10
7.46153 15.7139 4.6611 0.546226 10
4.32457 9.19018 -2.72152 0.0985811 1
5.01729 10.6623 -2.7205 0.0857133 1
5.95607 12.6573 -2.71912 0.072741 1
7.10276 15.0941 -2.64214 0.506933 10
8.07468 17.1596 -2.32854 0.721799 10
9.62631 20.4569 -1.978 0.511409 10
9.62529 20.4548 -1.18475 0.338661 10
9.62427 20.4526 -0.394553 0.33911 10
9.62326 20.4505 0.394511 0.339146 10
8.64716 18.3761 1.06435 0.0336633 10
7.38758 15.6994 1.51799 0.564797 10
7.38772 15.6997 2.13044 0.562717 10
7.38787 15.7 2.74819 0.559952 10
7.38803 15.7003 3.37284 0.556504 10
7.38818 15.7007 4.00605 0.552378 10
7.38833 15.701 4.64958 0.54758 10
4.29256 9.20542 -2.72158 0.0985789 1
4.98016 10.68 -2.72057 0.0857111 1
5.91203 12.6784 -2.7192 0.0727388 1
7.08511 15.1941 -2.65528 0.504423 10
7.99507 17.1455 -2.32283 0.723574 10
9.60238 20.5924 -1.98784 0.508877 10
9.65202 20.6988 -1.19692 0.480849 10
9.65221 20.6992 -0.398658 0.481426 10
9.6524 20.6996 0.398665 0.481417 10
8.58198 18.4041 1.06423 0.0336671 10
7.31474 15.6865 1.51427 0.566186 10
7.31488 15.6868 2.12522 0.564101 10
7.31503 15.6871 2.74145 0.561329 10
7.31518 15.6875 3.36457 0.557873 10
7.31533 15.6878 3.99622 0.553737 10
7.31549 15.6881 4.63818 0.548926 10
4.2605 9.22055 -2.72164 0.0985767 1
4.94298 10.6976 -2.72064 0.0857089 1
5.86792 12.6993 -2.71928 0.0727366 1
7.06729 15.295 -2.6686 0.501907 10
7.91586 17.1315 -2.31718 0.72534 10
9.57821 20.7291 -1.99781 0.506339 10
9.57719 20.7269 -1.19661 0.335304 10
9.57616 20.7247 -0.398502 0.335749 10
9.57514 20.7225 0.398459 0.335785 10
8.51672 18.4319 1.06411 0.033671 10
7.24227 15.6737 1.51058 0.567568 10
7.24241 15.674 2.12004 0.565478 10
7.24255 15.6743 2.73478 0.562699 10
7.2427 15.6746 3.35637 0.559234 10
7.24285 15.675 3.98649 0.555088 10
7.243 15.6753 4.62688 0.550266 10
4.22838 9.23557 -2.7217 0.0985746 1
4.90573 10.715 -2.72071 0.0857067 1
5.82373 12.7201 -2.71936 0.0727344 1
7.04928 15.397 -2.68208 0.499384 10
7.83702 17.1175 -2.31158 0.727097 10
9.5538 20.8673 -2.0079 0.503795 10
9.5978 20.9634 -1.20832 0.48319 10
9.59799 20.9638 -0.402453 0.48377 10
9.59818 20.9642 0.402461 0.483761 10
8.45135 18.4594 1.06399 0.0336748 10
7.17013 15.6609 1.50693 0.568943 10
7.17028 15.6612 2.11492 0.566848 10
7.17042 15.6616 2.72817 0.564062 10
7.17056 15.6619 3.34826 0.560589 10
7.17071 15.6622 3.97686 0.556433 10
7.17086 15.6625 4.6157 0.5516 10
4.19621 9.25048 -2.72176 0.0985724 1
4.86843 10.7324 -2.72078 0.0857045 1
5.77947 12.7408 -2.71945 0.0727322 1
7.0311 15.5 -2.69572 0.496856 10
7.75857 17.1037 -2.30603 0.728845 10
9.52914 21.0069 -2.01811 0.501245 10
9.52811 21.0046 -1.20877 0.331931 10
9.52708 21.0023 -0.402551 0.332371 10
9.52605 21.0001 0.402508 0.332407 10
8.38591 18.4866 1.06386 0.0336787 10
7.09836 15.6482 1.50331 0.570311 10
7.0985 15.6485 2.10984 0.568211 10
7.09864 15.6489 2.72162 0.565418 10
7.09878 15.6492 3.34023 0.561937 10
7.09893 15.6495 3.96732 0.557771 10
7.09908 15.6498 4.60463 0.552926 10
4.16398 9.26528 -2.72182 0.0985702 1
4.83106 10.7496 -2.72085 0.0857023 1
5.73514 12.7613 -2.71953 0.07273 1
7.01272 15.604 -2.70955 0.494322 10
7.6805 17.0899 -2.30054 0.730584 10
9.50423 21.1478 -2.02846 0.498689 10
9.53997 21.2274 -1.21966 0.485508 10
9.54016 21.2278 -0.406232 0.486091 10
9.54035 21.2282 0.40624 0.486081 10
8.32038 18.5137 1.06374 0.0336826 10
7.02692 15.6356 1.49973 0.571672 10
7.02706 15.6359 2.10482 0.569567 10
7.0272 15.6362 2.71514 0.566768 10
7.02735 15.6365 3.33228 0.563278 10
7.02749 15.6369 3.95787 0.559103 10
7.02764 15.6372 4.59366 0.554246 10
4.13171 9.27996 -2.72188 0.098568 1
4.79363 10.7667 -2.72092 0.0857001 1
5.69073 12.7816 -2.71961 0.0727278 1
6.97925 15.6756 -2.71774 0.0596668 1
7.60278 17.0761 -2.29511 0.732315 10
9.47905 21.2903 -2.03893 0.496126 10
9.47802 21.288 -1.22124 0.328541 10
9.47698 21.2856 -0.406704 0.328978 10
9.47595 21.2833 0.406659 0.329014 10
8.25475 18.5405 1.06362 0.0336864 10
6.95582 15.623 1.49619 0.573026 10
6.95596 15.6233 2.09985 0.570916 10
6.9561 15.6236 2.70872 0.568111 10
6.95624 15.624 3.3244 0.564613 10
6.95638 15.6243 3.94852 0.560427 10
6.95653 15.6246 4.58281 0.555559 10
4.09938 9.29453 -2.72194 0.0985658 1
4.75614 10.7836 -2.72099 0.0856979 1
5.64626 12.8018 -2.7197 0.0727255 1
6.92475 15.7005 -2.71784 0.0596646 1
7.52544 17.0625 -2.28973 0.734036 10
9.45362 21.4342 -2.04954 0.493558 10
9.47854 21.4907 -1.23096 0.487802 10
9.47872 21.4911 -0.409995 0.488388 10
9.4789 21.4915 0.410003 0.488378 10
8.18905 18.567 1.0635 0.0336903 10
6.88506 15.6105 1.49268 0.574373 10
6.8852 15.6108 2.09492 0.572258 10
6.88533 15.6111 2.70237 0.569446 10
6.88547 15.6114 3.3166 0.56594 10
6.88561 15.6118 3.93926 0.561745 10
6.88576 15.6121 4.57206 0.556865 10
4.067 9.30899 -2.722 0.0985636 1
4.71859 10.8004 -2.72106 0.0856957 1
5.6017 12.8218 -2.71978 0.0727233 1
6.87016 15.7252 -2.71794 0.0596624 1
7.44846 17.0488 -2.2844 0.735749 10
9.42792 21.5797 -2.06029 0.490983 10
9.49696 21.7377 -1.2432 0.740229 10
9.49714 21.7381 -0.414072 0.741117 10
9.4248 21.5725 0.410918 0.325604 10
8.12325 18.5934 1.06338 0.0336942 10
6.81462 15.5981 1.48921 0.575714 10
6.81476 15.5984 2.09004 0.573594 10
6.81489 15.5987 2.69608 0.570775 10
6.81503 15.599 3.30888 0.567261 10
6.81517 15.5993 3.93008 0.563056 10
6.81531 15.5996 4.56141 0.558165 10
4.03457 9.32334 -2.72206 0.0985615 1
4.68098 10.8171 -2.72113 0.0856935 1
5.55708 12.8417 -2.71986 0.0727211 1
6.81548 15.7496 -2.71805 0.0596601 1
7.37183 17.0353 -2.27912 0.737452 10
9.40195 21.7266 -2.07118 0.488403 10
9.40091 21.7242 -1.24055 0.489652 10
9.39987 21.7218 -0.413134 0.490303 10
9.39963 21.7212 0.413123 0.742819 10
8.05737 18.6195 1.06325 0.033698 10
6.74452 15.5857 1.48577 0.577047 10
6.74465 15.586 2.08522 0.574922 10
6.74479 15.5863 2.68985 0.572097 10
6.74492 15.5866 3.30124 0.568575 10
6.74506 15.5869 3.921 0.56436 10
6.7452 15.5872 4.55087 0.559457 10
4.00209 9.33757 -2.72212 0.0985593 1
4.64331 10.8337 -2.7212 0.0856913 1
5.51239 12.8614 -2.71994 0.0727189 1
6.76072 15.7739 -2.71815 0.0596579 1
7.29556 17.0218 -2.27389 0.739147 10
9.3757 21.8752 -2.08221 0.485817 10
9.37466 21.8727 -1.24715 0.487059 10
9.37361 21.8703 -0.415333 0.487707 10
9.37257 21.8679 0.415287 0.487761 10
7.9914 18.6453 1.06313 0.0337019 10
6.67473 15.5733 1.48236 0.578373 10
6.67486 15.5736 2.08043 0.576243 10
6.67499 15.5739 2.68368 0.573412 10
6.67513 15.5742 3.29367 0.569881 10
6.67526 15.5746 3.91201 0.565657 10
6.6754 15.5749 4.54044 0.560743 10
3.96956 9.3517 -2.72218 0.0985571 1
4.60559 10.8501 -2.72127 0.0856891 1
5.46763 12.8809 -2.72003 0.0727166 1
6.70587 15.798 -2.71825 0.0596556 1
7.21964 17.0084 -2.26872 0.740833 10
7.779 18.3262 -1.7418 0.743541 10
7.77915 18.3265 -1.0434 0.745344 10
7.7793 18.3269 -0.347523 0.746239 10
7.77945 18.3272 0.34753 0.746224 10
7.7796 18.3276 1.04346 0.7453 10
6.60527 15.561 1.47899 0.579692 10
6.6054 15.5613 2.0757 0.577558 10
6.60553 15.5616 2.67758 0.57472 10
6.60566 15.5619 3.28617 0.571181 10
6.60579 15.5623 3.90311 0.566947 10
6.60593 15.5626 4.5301 0.562022 10
3.93698 9.3657 -2.72224 0.0985549 1
4.5678 10.8664 -2.72134 0.0856868 1
5.4228 12.9003 -2.72011 0.0727144 1
6.65093 15.8219 -2.71835 0.0596534 1
7.14405 16.995 -2.2636 0.742509 10
7.69756 18.3118 -1.73786 0.745224 10
7.69771 18.3121 -1.04104 0.747031 10
7.69785 18.3125 -0.346739 0.747928 10
7.698 18.3128 0.346745 0.747913 10
7.69815 18.3132 1.0411 0.746987 10
6.53611 15.5488 1.47565 0.581004 10
6.53624 15.5491 2.07101 0.578865 10
6.53637 15.5494 2.67153 0.57602 10
6.5365 15.5497 3.27875 0.572474 10
6.53663 15.55 3.89429 0.56823 10
6.53676 15.5503 4.51987 0.563294 10
3.90435 9.3796 -2.7223 0.0985527 1
4.52996 10.8825 -2.72141 0.0856846 1
5.3779 12.9196 -2.7202 0.0727122 1
6.59591 15.8457 -2.71845 0.0596511 1
7.06881 16.9817 -2.25852 0.744177 10
7.61649 18.2974 -1.73397 0.746897 10
7.61664 18.2978 -1.03871 0.748708 10
7.61678 18.2981 -0.345962 0.749607 10
7.61693 18.2985 0.345968 0.749593 10
7.61708 18.2988 1.03877 0.748665 10
6.46838 15.5393 1.47259 0.372931 10
6.46764 15.5375 2.06645 0.371607 10
6.46753 15.5372 2.66554 0.577314 10
6.46766 15.5375 3.2714 0.57376 10
6.46779 15.5379 3.88557 0.569507 10
6.46792 15.5382 4.50974 0.56456 10
3.87168 9.39338 -2.72236 0.0985505 1
4.49207 10.8986 -2.72148 0.0856824 1
5.33294 12.9387 -2.72028 0.0727099 1
6.54081 15.8692 -2.71856 0.0596489 1
6.99391 16.9685 -2.2535 0.745835 10
7.53578 18.2832 -1.73011 0.748562 10
7.53593 18.2835 -1.0364 0.750377 10
7.53607 18.2839 -0.345192 0.751278 10
7.53622 18.2842 0.345199 0.751263 10
7.53636 18.2846 1.03646 0.750334 10
6.42583 15.5902 1.47528 0.583597 10
6.42596 15.5905 2.0705 0.581449 10
6.42608 15.5908 2.67087 0.578592 10
6.42621 15.5911 3.27794 0.57503 10
6.44629 15.6398 3.90542 0.362939 10
6.44551 15.638 4.53215 0.359837 10
3.83895 9.40705 -2.72242 0.0985483 1
4.45411 10.9145 -2.72155 0.0856802 1
5.2879 12.9576 -2.72036 0.0727077 1
6.48562 15.8925 -2.71866 0.0596466 1
6.91933 16.9553 -2.24853 0.747484 10
7.45542 18.269 -1.7263 0.750217 10
7.45557 18.2693 -1.03411 0.752036 10
7.45571 18.2697 -0.344431 0.752939 10
7.45585 18.27 0.344437 0.752925 10
7.456 18.2704 1.03417 0.751993 10
6.35731 15.5781 1.47203 0.584888 10
6.35743 15.5784 2.06593 0.582735 10
6.35755 15.5787 2.66498 0.579871 10
6.35768 15.579 3.27071 0.576302 10
6.42698 15.7488 3.92701 0.360944 10
6.4262 15.7469 4.5572 0.35786 10
0.884658 2.1896 -0.632779 0.494623 8
0.884676 2.18965 -0.545221 0.507442 8
0.884694 2.18969 -0.45906 0.52549 8
0.884711 2.18973 -0.374057 0.732744 8
6.84508 16.9422 -2.24361 0.749125 10
7.43161 18.3939 -1.73564 0.470175 10
7.43075 18.3917 -1.03957 0.471379 10
7.4299 18.3896 -0.346201 0.472008 10
7.42904 18.3875 0.346161 0.472062 10
7.42819 18.3854 1.03921 0.471541 10
6.28909 15.566 1.4688 0.586172 10
6.28921 15.5663 2.06141 0.584014 10
6.28933 15.5666 2.65914 0.581144 10
6.28946 15.5669 3.26355 0.577566 10
6.28958 15.5673 3.87624 0.573285 10
6.40668 15.8571 4.58257 0.355878 10
0.875103 2.18791 -0.631404 0.492884 8
0.875121 2.18796 -0.544036 0.511388 8
0.875139 2.188 -0.458063 0.526635 8
0.875156 2.18805 -0.373245 0.734339 8
6.7756 16.9402 -2.2402 0.465781 10
7.40875 18.5232 -1.74539 0.467548 10
7.40789 18.5211 -1.04541 0.468745 10
7.40704 18.5189 -0.348146 0.469371 10
7.40618 18.5168 0.348106 0.469425 10
7.40533 18.5146 1.04505 0.468907 10
6.22116 15.554 1.46561 0.587449 10
6.22128 15.5543 2.05693 0.585286 10
6.2214 15.5546 2.65336 0.58241 10
6.22153 15.5549 3.25645 0.578824 10
6.22165 15.5552 3.86781 0.574534 10
6.38693 15.9685 4.6083 0.353891 10
0.865591 2.18623 -0.630043 0.493948 8
0.865609 2.18628 -0.542864 0.512492 8
0.865626 2.18632 -0.457075 0.527772 8
0.865643 2.18636 -0.37244 0.735925 8
6.75447 17.0598 -2.25289 0.463158 10
7.38564 18.654 -1.75527 0.464915 10
7.38478 18.6518 -1.05133 0.466105 10
7.38392 18.6496 -0.350117 0.466728 10
7.38306 18.6475 0.350076 0.466783 10
7.38221 18.6453 1.05096 0.466268 10
6.15354 15.5421 1.46245 0.588718 10
6.15366 15.5424 2.0525 0.58655 10
6.15378 15.5427 2.64764 0.583668 10
6.1539 15.543 3.24943 0.580075 10
6.15402 15.5433 3.85947 0.575775 10
6.36696 16.0811 4.63436 0.351901 10
0.860107 2.19473 -0.631624 0.3039 8
0.86 2.19446 -0.544147 0.313563 8
0.859895 2.19419 -0.458091 0.326469 8
0.859792 2.19393 -0.373215 0.333823 8
6.73309 17.1808 -2.26575 0.460529 10
7.36227 18.7863 -1.76529 0.462276 10
7.3614 18.7841 -1.05733 0.46346 10
7.36054 18.7819 -0.352116 0.46408 10
7.35968 18.7797 0.352074 0.464134 10
7.35882 18.7775 1.05696 0.463623 10
6.09876 15.5622 1.46234 0.360653 10
6.09804 15.5604 2.05205 0.359375 10
6.09731 15.5585 2.6467 0.357659 10
6.09658 15.5566 3.24782 0.355506 10
6.09584 15.5547 3.85701 0.352921 10
6.34677 16.195 4.66078 0.349906 10
0.857348 2.21037 -0.63526 0.303878 8
0.857241 2.2101 -0.547279 0.315233 8
0.857135 2.20983 -0.460727 0.324601 8
0.857032 2.20956 -0.375363 0.333669 8
0.874358 2.25423 -0.296876 0.44945 8
7.33862 18.9201 -1.77545 0.459632 10
7.33776 18.9179 -1.06341 0.46081 10
7.33689 18.9156 -0.354141 0.461426 10
7.33603 18.9134 0.354099 0.46148 10
7.32732 18.891 1.0619 0.0359749 10
6.37727 16.4416 1.54287 0.228918 10
6.37652 16.4396 2.16506 0.228107 10
6.37575 16.4377 2.79245 0.227017 10
6.37498 16.4357 3.42668 0.225652 10
6.07622 15.6654 3.87918 0.350905 10
6.32634 16.3103 4.68756 0.347907 10
0.854556 2.2262 -0.638946 0.305539 8
0.854449 2.22592 -0.550454 0.316859 8
0.854344 2.22564 -0.4634 0.324463 8
0.854239 2.22537 -0.37754 0.333491 8
0.864894 2.25313 -0.296331 0.450561 8
10.5603 27.5104 -2.57808 0.759957 10
10.5887 27.5844 -1.54849 0.7618 10
10.5609 27.512 0.514388 0.7627 10
7.26049 18.9142 1.06177 0.0359791 10
6.30647 16.4289 4.06276 0.348884 10
6.30568 16.4269 4.71471 0.345904 10
0.851733 2.2422 -0.642682 0.307157 8
0.851625 2.24192 -0.553673 0.315017 8
0.851519 2.24164 -0.466109 0.324303 8
0.851415 2.24136 -0.379747 0.33676 8
0.855464 2.25202 -0.295792 0.451666 8
10.4423 27.4896 -2.5727 0.761548 10
10.4704 27.5635 -1.54525 0.763395 10
10.4429 27.4911 0.513314 0.764297 10
7.19358 18.9372 1.06165 0.0359833 10
6.28557 16.5469 4.08648 0.346859 10
6.25577 16.4684 4.72035 0.179314 10
0.848876 2.25839 -0.646471 0.305357 8
0.848768 2.25811 -0.556936 0.314874 8
0.848662 2.25783 -0.468856 0.324117 8
0.848557 2.25755 -0.381985 0.334788 8
0.848454 2.25727 -0.29609 0.343413 8
10.3248 27.4688 -2.56737 0.76313 10
10.1778 27.0777 -1.51602 0.76498 10
10.178 27.0782 -0.504938 0.765899 10
10.3254 27.4703 0.51225 0.765885 10
7.38683 19.6523 1.10029 0.331268 10
6.26442 16.6662 4.11053 0.34483 10
6.19811 16.4898 4.72024 0.179318 10
0.845984 2.27478 -0.650313 0.30523 8
0.845876 2.27449 -0.560245 0.314706 8
0.84577 2.27421 -0.471641 0.325613 8
0.845665 2.27392 -0.384254 0.334526 8
0.845561 2.27365 -0.297849 0.343109 8
10.2079 27.4481 -2.56209 0.764702 10
10.1316 27.2429 -1.52328 0.450151 10
10.1303 27.2397 -0.507286 0.450754 10
10.2084 27.4497 0.511196 0.767463 10
7.36163 19.7948 1.10682 0.329313 10
6.24302 16.787 4.13491 0.342796 10
6.14037 16.511 4.72014 0.179322 10
0.843059 2.29137 -0.654208 0.30508 8
0.842951 2.29107 -0.563601 0.316196 8
0.842844 2.29078 -0.474466 0.32537 8
0.842739 2.2905 -0.386555 0.33424 8
0.842635 2.29021 -0.299632 0.342781 8
0.858057 2.33213 -0.217407 0.478361 8
10.0916 27.428 -1.53165 0.768124 10
10.0917 27.4285 -0.510144 0.769046 10
10.0919 27.4291 0.510154 0.769032 10
7.33612 19.939 1.11344 0.327354 10
6.27558 17.0565 1.59005 0.381375 10
6.2757 17.0568 2.23157 0.379971 10
6.27582 17.0572 2.87865 0.378104 10
6.27594 17.0575 3.53294 0.375777 10
6.22137 16.9092 4.15964 0.340758 10
6.08256 16.5319 4.72003 0.179326 10
0.840098 2.30815 -0.658159 0.304906 8
0.839989 2.30785 -0.567004 0.314298 8
0.839882 2.30756 -0.47733 0.325102 8
0.839777 2.30727 -0.388888 0.33393 8
0.839672 2.30698 -0.301441 0.344132 8
0.848354 2.33083 -0.217009 0.479445 8
9.97552 27.4075 -1.52855 0.769681 10
9.9757 27.408 -0.509112 0.770606 10
9.97589 27.4085 0.509121 0.770591 10
7.31031 20.0849 1.12016 0.325391 10
6.22712 17.1089 1.5929 0.382149 10
6.22724 17.1092 2.23557 0.380742 10
6.22736 17.1095 2.8838 0.378871 10
6.22748 17.1099 3.53926 0.376539 10
6.19946 17.0329 4.18472 0.338716 10
6.02468 16.5527 4.71992 0.17933 10
0.837101 2.32514 -0.662165 0.304708 8
0.836992 2.32483 -0.570455 0.314059 8
0.836885 2.32454 -0.480235 0.32481 8
0.836779 2.32424 -0.391255 0.333596 8
0.836675 2.32395 -0.303275 0.343744 8
0.838687 2.32954 -0.216615 0.480522 8
9.85996 27.3871 -1.52548 0.771229 10
9.86014 27.3876 -0.50809 0.772156 10
9.86033 27.3881 0.508099 0.772141 10
7.28418 20.2326 1.12697 0.323425 10
6.1667 17.1287 1.59272 0.599826 10
6.16681 17.129 2.23532 0.597618 10
6.16693 17.1293 2.88349 0.594682 10
6.16705 17.1296 3.53888 0.591021 10
6.17728 17.158 4.21014 0.336671 10
5.96673 16.5732 4.71981 0.179335 10
0.834067 2.34233 -0.666229 0.306123 8
0.833958 2.34203 -0.573956 0.315446 8
0.833851 2.34172 -0.483182 0.324493 8
0.833745 2.34143 -0.393655 0.334911 8
0.83364 2.34113 -0.305135 0.343331 8
0.833536 2.34084 -0.217393 0.351394 8
9.74485 27.3667 -1.52244 0.772768 10
9.74503 27.3672 -0.507078 0.773697 10
9.74521 27.3677 0.507087 0.773682 10
7.25773 20.3821 1.13388 0.321454 10
6.0947 17.1159 1.58955 0.601023 10
6.09482 17.1162 2.23087 0.598811 10
6.09493 17.1166 2.87774 0.595869 10
6.09505 17.1169 3.53183 0.5922 10
6.15482 17.2848 4.23594 0.33462 10
5.90997 16.5971 4.72072 0.331764 10
0.830996 2.35974 -0.670351 0.305868 8
0.830887 2.35943 -0.577507 0.315148 8
0.830779 2.35912 -0.486171 0.324152 8
0.830673 2.35882 -0.39609 0.332852 8
0.830568 2.35852 -0.307022 0.342895 8
0.830464 2.35823 -0.218738 0.350913 8
9.63021 27.3464 -1.51944 0.774298 10
9.63039 27.347 -0.506077 0.775228 10
9.63057 27.3475 0.506086 0.775213 10
7.23096 20.5334 1.14089 0.319479 10
6.02301 17.1032 1.58641 0.602213 10
6.02312 17.1036 2.22647 0.599996 10
6.02323 17.1039 2.87206 0.597048 10
6.02335 17.1042 3.52485 0.593373 10
6.13209 17.413 4.2621 0.332566 10
5.88815 16.7203 4.74987 0.329728 10
0.827886 2.37737 -0.674533 0.303971 8
0.827777 2.37705 -0.581109 0.314826 8
0.827669 2.37674 -0.489203 0.32543 8
0.827562 2.37644 -0.39856 0.334097 8
0.827457 2.37613 -0.308937 0.344094 8
0.827353 2.37583 -0.220101 0.343734 8
9.516 27.3262 -1.51646 0.775818 10
9.51618 27.3268 -0.505085 0.77675 10
9.51636 27.3273 0.505094 0.776735 10
7.20385 20.6866 1.148 0.317501 10
5.95158 17.0906 1.5833 0.603395 10
5.95169 17.0909 2.2221 0.601174 10
5.9518 17.0913 2.86643 0.59822 10
5.95192 17.0916 3.51795 0.594538 10
6.10908 17.5429 4.28865 0.330508 10
5.86604 16.845 4.77945 0.327687 10
0.824738 2.39521 -0.678776 0.306892 8
0.824628 2.39489 -0.584763 0.3161 8
0.82452 2.39458 -0.492279 0.326663 8
0.824413 2.39427 -0.401066 0.335297 8
0.824308 2.39396 -0.310879 0.343597 8
0.824203 2.39366 -0.221485 0.339929 8
9.40226 27.3061 -1.51351 0.777328 10
9.40243 27.3066 -0.504104 0.778262 10
9.40261 27.3072 0.504113 0.778247 10
7.1764 20.8418 1.15521 0.315519 10
5.88044 17.078 1.58023 0.60457 10
5.88055 17.0783 2.21779 0.602344 10
5.88066 17.0787 2.86086 0.599385 10
5.88077 17.079 3.51111 0.595695 10
6.08578 17.6744 4.31557 0.328446 10
5.84366 16.9712 4.80945 0.325643 10
0.82155 2.41328 -0.68308 0.304957 8
0.82144 2.41296 -0.588471 0.315719 8
0.821331 2.41264 -0.4954 0.326227 8
0.821224 2.41233 -0.403608 0.336451 8
0.821118 2.41202 -0.312849 0.341432 8
0.821014 2.41171 -0.222888 0.337787 8
9.28895 27.2861 -1.5106 0.778829 10
9.28913 27.2866 -0.503132 0.779765 10
9.2893 27.2871 0.503141 0.77975 10
7.14861 20.9989 1.16253 0.313533 10
5.8248 17.1102 1.58131 0.333518 10
5.82406 17.108 2.21899 0.332338 10
5.82331 17.1058 2.86199 0.330754 10
5.82255 17.1036 3.51197 0.328767 10
6.06219 17.8075 4.34289 0.32638 10
5.821 17.0991 4.83989 0.323595 10
0.818321 2.43159 -0.687449 0.304606 8
0.81821 2.43126 -0.592234 0.315313 8
0.818101 2.43094 -0.498567 0.325767 8
0.817994 2.43062 -0.406188 0.334313 8
0.817888 2.4303 -0.314849 0.337632 8
0.817783 2.42999 -0.224313 0.330731 8
9.17607 27.2661 -1.50771 0.780321 10
9.17624 27.2666 -0.50217 0.781258 10
9.17641 27.2671 0.502179 0.781244 10
7.12045 21.158 1.16995 0.311542 10
6.04144 17.9518 1.65713 0.331401 10
6.04066 17.9495 2.32537 0.330229 10
6.03988 17.9471 2.9992 0.328656 10
6.03909 17.9448 3.68034 0.326682 10
6.03829 17.9424 4.37061 0.32431 10
6.03747 17.94 5.07192 0.321542 10
0.81505 2.45013 -0.691882 0.304231 8
0.814939 2.4498 -0.596052 0.316474 8
0.81483 2.44947 -0.501782 0.325283 8
0.814723 2.44914 -0.408806 0.335397 8
0.814616 2.44883 -0.316878 0.33385 8
0.814511 2.44851 -0.225758 0.326987 8
9.06363 27.2463 -1.50485 0.781803 10
9.0638 27.2468 -0.501218 0.782742 10
9.06397 27.2473 0.501227 0.782727 10
7.09194 21.3191 1.17749 0.309549 10
6.01724 18.0885 1.6678 0.32928 10
6.01646 18.0861 2.34035 0.328117 10
6.01568 18.0838 3.01851 0.326553 10
6.01489 18.0814 3.70403 0.324592 10
6.01408 18.079 4.39875 0.322236 10
6.01327 18.0765 5.10456 0.319486 10
0.811736 2.46891 -0.696381 0.305397 8
0.811625 2.46857 -0.599928 0.316009 8
0.811516 2.46824 -0.505044 0.324774 8
0.811408 2.46791 -0.411464 0.333231 8
0.811302 2.46759 -0.318938 0.330084 8
0.811196 2.46727 -0.227226 0.323259 8
8.9516 27.2264 -1.50202 0.783275 10
8.95177 27.227 -0.500276 0.784216 10
8.95193 27.2275 0.500285 0.784202 10
7.06306 21.4824 1.18514 0.307551 10
5.99273 18.227 1.67863 0.327156 10
5.99195 18.2246 2.35554 0.326 10
5.99116 18.2222 3.03811 0.324447 10
5.99037 18.2198 3.72808 0.322499 10
5.98956 18.2174 4.4273 0.320157 10
5.98875 18.2149 5.13769 0.317426 10
0.80838 2.48794 -0.700947 0.30652 8
0.808269 2.48759 -0.603861 0.315521 8
0.808159 2.48726 -0.508354 0.324241 8
0.808051 2.48692 -0.414161 0.32947 8
0.807944 2.4866 -0.321028 0.324735 8
0.807838 2.48627 -0.228715 0.319549 8
8.84 27.2067 -1.49922 0.784738 10
8.84017 27.2072 -0.499343 0.785681 10
8.84033 27.2077 0.499352 0.785667 10
7.0338 21.6478 1.1929 0.30555 10
5.9679 18.3673 1.68963 0.325027 10
5.96712 18.3649 2.37097 0.323879 10
5.96633 18.3625 3.058 0.322337 10
5.96553 18.36 3.75248 0.320401 10
5.96473 18.3575 4.45627 0.318076 10
5.96391 18.355 5.17131 0.315362 10
