VERSION 0.7
FIELDS x y z intensity label
SIZE 4 4 4 4 4
TYPE F F F F F
COUNT 1 1 1 1 1
WIDTH 1247
HEIGHT 1
VIEWPOINT 5.17533 40.9962 2.72625 0.765752 -0.000395081 0.000118834 0.643135
POINTS 1247
DATA ascii
-5.62328 5.35498 -1.79272 0.697619 10
-9.49536 9.04232 -2.54872 0.169694 10
-11.6559 11.0998 -2.54928 0.139093 10
-15.0406 14.323 -2.55016 0.108322 10
-17.9397 17.0837 -2.16733 0.713286 10
-17.9394 17.0835 -1.29826 0.472302 10
-17.9392 17.0833 -0.432397 0.472885 10
-17.9389 17.083 0.43239 0.472892 10
-14.5087 13.8164 1.04998 0.0471662 10
-8.7035 8.28824 1.05149 0.0784339 10
-6.2054 5.90933 1.05214 0.109606 10
-5.2983 5.04551 1.1588 0.551464 10
-5.29823 5.04543 1.42214 0.548088 10
-5.29815 5.04536 1.68907 0.544044 10
-5.29807 5.04528 1.96033 0.539337 10
-5.65665 5.34923 -2.08608 0.689775 10
-5.65656 5.34915 -1.79737 0.695816 10
-9.52701 9.00925 -2.54876 0.169691 10
-11.6948 11.0592 -2.54933 0.13909 10
-15.0909 14.2707 -2.55022 0.10832 10
-18.0459 17.0651 -2.17295 0.711443 10
-22.9248 21.6789 -1.65357 0.713192 10
-22.8631 21.6205 0.549257 0.714082 10
-14.556 13.765 1.04993 0.0471687 10
-8.73211 8.25754 1.05145 0.0784365 10
-6.22585 5.88749 1.05211 0.109609 10
-5.32966 5.04001 1.1618 0.550039 10
-5.32958 5.03993 1.42582 0.546672 10
-5.3295 5.03986 1.69344 0.542638 10
-5.32942 5.03978 1.96541 0.537944 10
-5.6901 5.34336 -2.09153 0.687979 10
-5.69001 5.34328 -1.80206 0.694004 10
-9.55854 8.97607 -2.5488 0.169689 10
-11.7336 11.0185 -2.54937 0.139088 10
-15.1409 14.2183 -2.55028 0.108317 10
-18.1526 17.0464 -2.17862 0.709591 10
-23.0604 21.6552 -1.65788 0.711335 10
-22.9983 21.5968 0.550691 0.712223 10
-14.6032 13.7133 1.04987 0.0471712 10
-8.7606 8.22675 1.05142 0.078439 10
-6.24622 5.86559 1.05209 0.109611 10
-5.36117 5.03448 1.16483 0.548607 10
-5.36109 5.0344 1.42954 0.545249 10
-5.36102 5.03433 1.69786 0.541226 10
-5.36093 5.03425 1.97054 0.536543 10
-5.72373 5.33747 -2.09703 0.686175 10
-5.72365 5.33738 -1.8068 0.692184 10
-9.58995 8.94277 -2.54883 0.169687 10
-11.7722 10.9777 -2.54942 0.139085 10
-15.1908 14.1657 -2.55034 0.108315 10
-18.2599 17.0276 -2.18435 0.70773 10
-23.1395 21.578 -1.65815 0.535682 10
-23.1406 21.5789 -0.552291 0.536312 10
-23.1342 21.573 0.552139 0.710355 10
-14.6502 13.6615 1.04981 0.0471738 10
-8.78898 8.19586 1.05139 0.0784415 10
-6.26652 5.84362 1.05206 0.109614 10
-5.39286 5.02892 1.1679 0.547169 10
-5.39278 5.02885 1.4333 0.543819 10
-5.3927 5.02877 1.70233 0.539806 10
-5.39262 5.0287 1.97572 0.535136 10
-5.75754 5.33154 -2.10258 0.684362 10
-5.75745 5.33146 -1.81158 0.690356 10
-9.62124 8.90937 -2.54887 0.169684 10
-11.8106 10.9367 -2.54946 0.139083 10
-15.2405 14.1129 -2.55039 0.108312 10
-18.3677 17.0087 -2.19013 0.70586 10
-23.1456 21.433 -1.65321 0.538155 10
-23.1466 21.434 -0.550645 0.538788 10
-23.1476 21.4349 0.550669 0.538764 10
-14.697 13.6096 1.04976 0.0471763 10
-8.81725 8.16487 1.05135 0.078444 10
-6.28673 5.82158 1.05204 0.109616 10
-5.75653 5.33061 1.24262 0.545723 10
-5.75644 5.33053 1.525 0.542382 10
-5.75636 5.33045 1.81124 0.538381 10
-5.75627 5.33037 2.10212 0.533723 10
-5.79152 5.32558 -2.10819 0.682541 10
-5.79144 5.3255 -1.81642 0.688518 10
-9.65243 8.87586 -2.54891 0.169682 10
-11.8489 10.8956 -2.54951 0.13908 10
-15.29 14.0599 -2.55045 0.10831 10
-18.4761 16.9897 -2.19598 0.703982 10
-23.1143 21.2547 -1.64566 0.540622 10
-23.1153 21.2556 -0.548133 0.541258 10
-23.1163 21.2565 0.548156 0.541234 10
-14.7437 13.5575 1.0497 0.0471788 10
-8.84542 8.13378 1.05132 0.0784465 10
-6.30687 5.79946 1.05202 0.109619 10
-5.79051 5.32465 1.24593 0.544271 10
-5.79043 5.32457 1.52907 0.540939 10
-5.79034 5.32449 1.81607 0.536948 10
-5.79025 5.32441 2.10773 0.532303 10
-5.82569 5.31959 -2.11386 0.680712 10
-5.8256 5.31951 -1.8213 0.686673 10
-9.68349 8.84224 -2.54894 0.169679 10
-11.8871 10.8544 -2.54955 0.139078 10
-15.3394 14.0068 -2.55051 0.108307 10
-18.5851 16.9706 -2.20188 0.702095 10
-23.2112 21.1947 -1.64728 0.703822 10
-23.2108 21.1944 -0.548641 0.70469 10
-23.2105 21.1941 0.548632 0.7047 10
-14.7901 13.5052 1.04965 0.0471813 10
-8.87348 8.1026 1.05129 0.078449 10
-6.32693 5.77728 1.05199 0.109621 10
-5.82467 5.31865 1.24928 0.542813 10
-5.82458 5.31858 1.53318 0.53949 10
-5.82449 5.31849 1.82095 0.53551 10
-5.82441 5.31841 2.11339 0.530877 10
-5.86004 5.31356 -2.11958 0.678874 10
-5.85995 5.31348 -1.82623 0.68482 10
-9.71443 8.80851 -2.54898 0.169677 10
-11.9251 10.813 -2.5496 0.139075 10
-15.3885 13.9535 -2.55057 0.108305 10
-18.6947 16.9513 -2.20784 0.7002 10
-23.6858 21.477 -1.67564 0.701922 10
-23.6854 21.4767 -0.558084 0.702788 10
-23.6851 21.4764 0.558076 0.702798 10
-14.8364 13.4528 1.04959 0.0471838 10
-8.90142 8.07132 1.05125 0.0784515 10
-6.34691 5.75503 1.05197 0.109624 10
-5.85901 5.31263 1.25266 0.541348 10
-5.85892 5.31255 1.53733 0.538034 10
-5.85883 5.31247 1.82588 0.534064 10
-5.85875 5.31239 2.11911 0.529444 10
-5.89458 5.30751 -2.12536 0.677028 10
-5.89449 5.30743 -1.83121 0.682957 10
-9.74526 8.77467 -2.54901 0.169674 10
-11.963 10.7715 -2.54964 0.139073 10
-15.4375 13.9 -2.55063 0.108302 10
-18.8049 16.932 -2.21386 0.698296 10
-23.8254 21.4525 -1.68021 0.700013 10
-23.8251 21.4522 -0.559606 0.700877 10
-23.8247 21.4519 0.559597 0.700887 10
-14.8825 13.4002 1.04954 0.0471863 10
-8.92926 8.03994 1.05122 0.078454 10
-6.36682 5.73271 1.05194 0.109626 10
-5.89354 5.30657 1.25608 0.539876 10
-5.89346 5.30649 1.54152 0.536571 10
-5.89337 5.30641 1.83086 0.532612 10
-5.89328 5.30633 2.12489 0.528005 10
-5.92931 5.30142 -2.13119 0.675174 10
-5.92922 5.30134 -1.83623 0.681087 10
-9.77597 8.74073 -2.54905 0.169672 10
-12.0007 10.7299 -2.54969 0.139071 10
-15.4863 13.8463 -2.55068 0.1083 10
-18.9157 16.9126 -2.21993 0.696384 10
-23.9658 21.4279 -1.68482 0.698096 10
-23.9654 21.4276 -0.561142 0.698958 10
-23.9651 21.4273 0.561134 0.698968 10
-14.9283 13.3475 1.04948 0.0471888 10
-8.95698 8.00847 1.05119 0.0784564 10
-6.38665 5.71033 1.05192 0.109629 10
-5.92826 5.30048 1.25952 0.538398 10
-5.92817 5.3004 1.54575 0.535102 10
-5.92808 5.30032 1.83588 0.531154 10
-5.92799 5.30024 2.13072 0.526559 10
-5.96424 5.2953 -2.13709 0.673312 10
-5.96414 5.29521 -1.84131 0.679208 10
-9.80657 8.70668 -2.54909 0.169669 10
-12.0383 10.6881 -2.54973 0.139068 10
-15.5349 13.7925 -2.55074 0.108297 10
-19.0271 16.893 -2.22608 0.694463 10
-24.1069 21.4031 -1.68948 0.696171 10
-24.1066 21.4028 -0.562694 0.69703 10
-24.1062 21.4025 0.562686 0.69704 10
-14.9741 13.2946 1.04942 0.0471913 10
-8.9846 7.9769 1.05115 0.0784589 10
-6.4064 5.68787 1.0519 0.109631 10
-5.96318 5.29436 1.26301 0.536913 10
-5.96309 5.29428 1.55003 0.533626 10
-5.963 5.2942 1.84096 0.529689 10
-5.96291 5.29412 2.13661 0.525107 10
-5.99935 5.28914 -2.14304 0.671441 10
-5.99926 5.28906 -1.84644 0.677321 10
-9.83704 8.67252 -2.54912 0.169667 10
-12.0758 10.6462 -2.54978 0.139066 10
-15.5832 13.7385 -2.5508 0.108295 10
-19.1391 16.8734 -2.23228 0.692534 10
-24.2488 21.3782 -1.69419 0.694237 10
-24.2485 21.3779 -0.564262 0.695094 10
-24.2481 21.3776 0.564253 0.695104 10
-15.0196 13.2415 1.04937 0.0471938 10
-9.0121 7.94524 1.05112 0.0784614 10
-6.42607 5.66534 1.05187 0.109634 10
-5.99828 5.2882 1.26653 0.535422 10
-5.99819 5.28812 1.55434 0.532144 10
-5.9981 5.28804 1.84609 0.528218 10
-5.99801 5.28796 2.14256 0.523648 10
-6.03466 5.28295 -2.14906 0.669562 10
-6.03457 5.28287 -1.85162 0.675426 10
-9.86739 8.63825 -2.54916 0.169665 10
-12.1131 10.6042 -2.54982 0.139063 10
-15.6315 13.6843 -2.55086 0.108292 10
-19.2518 16.8536 -2.23854 0.690596 10
-24.3916 21.3532 -1.69894 0.692294 10
-24.3912 21.3529 -0.565845 0.693149 10
-24.3908 21.3526 0.565836 0.693159 10
-15.0649 13.1883 1.04931 0.0471962 10
-9.0395 7.91348 1.05109 0.0784639 10
-6.44566 5.64275 1.05185 0.109636 10
-6.03359 5.28201 1.27008 0.533924 10
-6.0335 5.28193 1.5587 0.530655 10
-6.0334 5.28184 1.85127 0.52674 10
-6.03331 5.28176 2.14858 0.522183 10
-6.07017 5.27672 -2.15513 0.667675 10
-6.07008 5.27664 -1.85686 0.673523 10
-9.89762 8.60388 -2.5492 0.169662 10
-12.1502 10.562 -2.54987 0.139061 10
-15.6795 13.63 -2.55092 0.10829 10
-19.365 16.8338 -2.24487 0.68865 10
-15.1101 13.135 1.04926 0.0471987 10
-9.06678 7.88163 1.05105 0.0784664 10
-6.46517 5.62009 1.05183 0.109638 10
-6.06909 5.27578 1.27367 0.532419 10
-6.06899 5.2757 1.56311 0.52916 10
-6.0689 5.27562 1.8565 0.525256 10
-6.06881 5.27553 2.15465 0.332412 10
-6.10588 5.27046 -2.16126 0.66578 10
-6.10579 5.27038 -1.86214 0.671611 10
-9.92774 8.5694 -2.54923 0.16966 10
-12.1872 10.5198 -2.54991 0.139058 10
-15.7273 13.5755 -2.55097 0.108288 10
-19.479 16.8138 -2.25125 0.686696 10
-19.615 16.9312 -1.35797 0.562522 10
-19.6158 16.9319 -0.452309 0.563185 10
-19.6166 16.9326 0.452327 0.563161 10
-15.155 13.0815 1.0492 0.0472012 10
-9.09395 7.84969 1.05102 0.0784689 10
-6.4846 5.59736 1.0518 0.109641 10
-6.10479 5.26951 1.27729 0.530908 10
-6.10469 5.26943 1.56756 0.527658 10
-6.1046 5.26935 1.86178 0.523766 10
-6.10451 5.26927 2.16078 0.331469 10
-6.1418 5.26416 -2.16746 0.663877 10
-6.14171 5.26408 -1.86748 0.669691 10
-9.95773 8.53481 -2.54927 0.169657 10
-12.2241 10.4773 -2.54996 0.139056 10
-15.775 13.5208 -2.55103 0.108285 10
-19.5896 16.7903 -2.25725 0.563568 10
-19.5904 16.791 -1.3522 0.564922 10
-19.5912 16.7917 -0.450387 0.565587 10
-19.592 16.7924 0.450406 0.565564 10
-15.1998 13.0278 1.04915 0.0472037 10
-9.121 7.81765 1.05099 0.0784713 10
-6.50396 5.57457 1.05178 0.109643 10
-6.1407 5.26322 1.28095 0.529391 10
-6.1406 5.26314 1.57205 0.52615 10
-6.14051 5.26305 1.86712 0.522268 10
-6.20675 5.31983 2.19038 0.330522 10
-6.17793 5.25783 -2.17372 0.661966 10
-6.17783 5.25775 -1.87287 0.667763 10
-9.98761 8.50012 -2.54931 0.169655 10
-12.2608 10.4348 -2.55 0.139053 10
-15.8224 13.466 -2.55109 0.108283 10
-19.5652 16.6513 -2.24773 0.565955 10
-19.566 16.652 -1.3465 0.567314 10
-19.5668 16.6527 -0.448488 0.567983 10
-19.5677 16.6534 0.448506 0.567959 10
-15.2444 12.974 1.04909 0.0472062 10
-9.14795 7.78552 1.05095 0.0784738 10
-6.52323 5.55171 1.05176 0.109646 10
-6.17681 5.25688 1.28465 0.527867 10
-6.17672 5.2568 1.57659 0.524636 10
-6.17662 5.25672 1.87251 0.520765 10
-6.24325 5.31342 2.1967 0.329571 10
-6.21426 5.25146 -2.18004 0.660046 10
-6.21416 5.25138 -1.87832 0.665827 10
-10.0174 8.46533 -2.54934 0.169653 10
-12.2974 10.3921 -2.55005 0.139051 10
-15.8697 13.4109 -2.55115 0.10828 10
-19.6456 16.6018 -2.2503 0.680782 10
-19.6453 16.6016 -1.34796 0.682456 10
-19.645 16.6013 -0.448949 0.683299 10
-19.6447 16.6011 0.448941 0.683309 10
-15.2888 12.92 1.04904 0.0472087 10
-9.17478 7.75329 1.05092 0.0784763 10
-6.54242 5.52878 1.05173 0.109648 10
-6.21314 5.25051 1.28839 0.526337 10
-6.21304 5.25043 1.58117 0.523115 10
-6.21294 5.25035 1.87795 0.519256 10
-6.27996 5.30698 2.20309 0.328615 10
-6.25081 5.24505 -2.18642 0.658119 10
-6.25071 5.24497 -1.88382 0.663883 10
-10.047 8.43043 -2.54938 0.16965 10
-12.3338 10.3493 -2.55009 0.139049 10
-15.9168 13.3558 -2.5512 0.108278 10
-19.7611 16.5816 -2.25689 0.678795 10
-19.7608 16.5813 -1.35191 0.680464 10
-19.7605 16.5811 -0.450263 0.681304 10
-19.7602 16.5808 0.450256 0.681314 10
-15.333 12.8659 1.04898 0.0472111 10
-9.2015 7.72098 1.05089 0.0784787 10
-6.56153 5.50578 1.05171 0.109651 10
-6.24967 5.2441 1.29216 0.5248 10
-6.24957 5.24402 1.5858 0.521588 10
-6.24948 5.24394 1.88345 0.51774 10
-6.31689 5.3005 2.20954 0.327656 10
-6.28757 5.23861 -2.19287 0.656184 10
-6.28747 5.23852 -1.88938 0.66193 10
-10.0765 8.39542 -2.54941 0.169648 10
-12.3701 10.3063 -2.55013 0.139046 10
-15.9637 13.3004 -2.55126 0.108275 10
-19.8773 16.5612 -2.26354 0.676798 10
-19.8771 16.5609 -1.3559 0.678463 10
-19.8768 16.5607 -0.451591 0.6793 10
-19.8765 16.5604 0.451584 0.679311 10
-15.377 12.8116 1.04893 0.0472136 10
-9.22811 7.68857 1.05085 0.0784812 10
-6.58057 5.48272 1.05168 0.109653 10
-6.28642 5.23765 1.29597 0.523257 10
-6.28633 5.23757 1.59048 0.520054 10
-6.28623 5.23749 1.889 0.516217 10
-6.35404 5.29398 2.21606 0.326692 10
-6.32455 5.23212 -2.19939 0.65424 10
-6.32445 5.23204 -1.89499 0.65997 10
-10.1059 8.36032 -2.54945 0.169645 10
-12.4062 10.2633 -2.55018 0.139044 10
-16.0103 13.2449 -2.55132 0.108273 10
-19.8972 16.4604 -2.25925 0.575433 10
-19.9939 16.5404 -1.35992 0.676454 10
-19.9936 16.5402 -0.452932 0.677289 10
-19.9933 16.5399 0.452925 0.677299 10
-15.4208 12.7572 1.04887 0.0472161 10
-9.25459 7.65607 1.05082 0.0784837 10
-6.59952 5.4596 1.05166 0.109656 10
-6.32339 5.23117 1.29982 0.521708 10
-6.32329 5.23108 1.5952 0.518514 10
-6.32319 5.231 1.89461 0.514689 10
-6.36175 5.2256 -2.20597 0.652289 10
-6.36165 5.22552 -1.90066 0.658002 10
-10.1352 8.32511 -2.54949 0.169643 10
-12.4421 10.2201 -2.55022 0.139041 10
-16.0568 13.1892 -2.55137 0.10827 10
-19.8733 16.3241 -2.25005 0.577786 10
-19.8741 16.3248 -1.34789 0.382559 10
-19.8749 16.3255 -0.44895 0.38301 10
-19.8758 16.3261 0.448968 0.382995 10
-15.4644 12.7026 1.04882 0.0472185 10
-9.28098 7.62348 1.05079 0.0784861 10
-6.61839 5.4364 1.05164 0.109658 10
-6.36058 5.22464 1.30371 0.520152 10
-6.36049 5.22456 1.59997 0.516968 10
-6.36038 5.22448 1.90028 0.513154 10
-6.39917 5.21904 -2.21261 0.65033 10
-6.39907 5.21895 -1.90638 0.656025 10
-6.57162 5.35969 -1.64837 0.169641 10
-12.478 10.1768 -2.55027 0.139039 10
-16.1031 13.1334 -2.55143 0.108268 10
-19.8496 16.189 -2.24096 0.58013 10
-19.9839 16.2985 -1.35147 0.444144 10
-19.9836 16.2983 -0.450117 0.444693 10
-19.9833 16.298 0.45011 0.4447 10
-15.5079 12.6479 1.04876 0.047221 10
-9.30724 7.5908 1.05076 0.0784886 10
-6.63717 5.41315 1.05161 0.109661 10
-6.39799 5.21808 1.30763 0.51859 10
-6.3979 5.218 1.60479 0.515415 10
-6.39779 5.21792 1.906 0.511613 10
-6.43682 5.21244 -2.21933 0.648362 10
-6.43672 5.21235 -1.91217 0.654041 10
-6.59038 5.33679 -1.64839 0.169638 10
-12.5136 10.1333 -2.55031 0.139037 10
-16.1493 13.0774 -2.55149 0.108266 10
-19.8261 16.0549 -2.23196 0.582468 10
-19.8269 16.0555 -1.33705 0.38566 10
-19.8277 16.0562 -0.44534 0.386114 10
-19.8285 16.0568 0.445358 0.386099 10
-15.5511 12.5931 1.04871 0.0472235 10
-9.33338 7.55803 1.05072 0.0784911 10
-6.65588 5.38983 1.05159 0.109663 10
-6.43563 5.21148 1.3116 0.517021 10
-6.43553 5.21139 1.60966 0.513857 10
-6.43543 5.21131 1.91179 0.510066 10
-6.4747 5.20579 -2.22611 0.646387 10
-6.4746 5.20571 -1.91801 0.652048 10
-6.60907 5.31383 -1.64842 0.169636 10
-6.82586 5.48813 -1.38722 0.579853 10
-6.82614 5.48836 -1.07546 0.582681 10
-6.82641 5.48858 -0.766335 0.584799 10
-6.82669 5.4888 -0.459071 0.586204 10
-6.82696 5.48902 -0.152906 0.586896 10
-6.82724 5.48924 0.152912 0.586872 10
-6.82751 5.48946 0.459127 0.586134 10
-6.82779 5.48968 0.766489 0.584681 10
-6.6745 5.36644 1.05157 0.109665 10
-6.47351 5.20483 1.31561 0.515446 10
-6.4734 5.20475 1.61458 0.512291 10
-6.4733 5.20467 1.91763 0.508512 10
-6.51281 5.19911 -2.23296 0.644404 10
-6.51271 5.19903 -1.92391 0.650048 10
-6.62767 5.2908 -1.64844 0.169633 10
-6.81788 5.44265 -1.38173 0.582156 10
-6.81816 5.44287 -1.0712 0.584996 10
-6.81844 5.44309 -0.763302 0.587122 10
-6.81871 5.44331 -0.457254 0.588534 10
-6.81898 5.44353 -0.1523 0.589228 10
-6.81926 5.44374 0.152306 0.589204 10
-6.81953 5.44396 0.457309 0.588463 10
-6.8198 5.44418 0.763455 0.587005 10
-6.69305 5.34299 1.05154 0.0847667 10
-6.5116 5.19815 1.31965 0.513866 10
-6.5115 5.19807 1.61955 0.51072 10
-6.5114 5.19798 1.92353 0.506952 10
-6.55116 5.19239 -2.23988 0.642413 10
-6.55106 5.1923 -1.92988 0.64804 10
-6.64619 5.26771 -1.64846 0.169631 10
-6.80997 5.39752 -1.3763 0.584453 10
-6.81025 5.39774 -1.06699 0.587304 10
-6.81052 5.39796 -0.760302 0.589439 10
-6.8108 5.39817 -0.455457 0.590856 10
-6.81107 5.39839 -0.151702 0.591553 10
-6.81134 5.3986 0.151708 0.59153 10
-6.81161 5.39882 0.455512 0.590785 10
-6.81188 5.39903 0.760453 0.589321 10
-6.71151 5.31948 1.05152 0.0847686 10
-6.54994 5.19142 1.32374 0.512278 10
-6.54984 5.19134 1.62456 0.509142 10
-6.54974 5.19126 1.92949 0.505386 10
-6.58975 5.18562 -2.24687 0.640414 10
-6.58964 5.18554 -1.9359 0.646023 10
-6.66463 5.24455 -1.64848 0.169629 10
-6.80213 5.35275 -1.37093 0.586743 10
-6.8024 5.35296 -1.06283 0.589605 10
-6.80267 5.35318 -0.757335 0.591748 10
-6.80294 5.35339 -0.45368 0.593171 10
-6.80321 5.3536 -0.15111 0.593871 10
-6.80348 5.35382 0.151116 0.593847 10
-6.80375 5.35403 0.453734 0.5931 10
-6.80402 5.35424 0.757485 0.591631 10
-6.72988 5.2959 1.0515 0.0847705 10
-6.58852 5.18466 1.32787 0.510685 10
-6.58842 5.18457 1.62963 0.507559 10
-6.58831 5.18449 1.93551 0.503814 10
-6.62858 5.17881 -2.25393 0.638408 10
-6.62847 5.17873 -1.94198 0.643999 10
-6.68299 5.22133 -1.64851 0.169626 10
-6.79434 5.30832 -1.36561 0.589025 10
-6.79461 5.30853 -1.05871 0.591899 10
-6.79488 5.30874 -0.7544 0.594051 10
-6.79515 5.30895 -0.451921 0.595479 10
-6.79542 5.30916 -0.150524 0.596182 10
-6.79569 5.30937 0.15053 0.596158 10
-6.79596 5.30958 0.451975 0.595408 10
-6.79623 5.30979 0.754549 0.593933 10
-6.74818 5.27226 1.05147 0.0847724 10
-6.62734 5.17785 1.33205 0.509085 10
-6.62724 5.17776 1.63475 0.505969 10
-6.62713 5.17768 1.94159 0.502236 10
-6.69861 5.23353 2.27775 0.317844 10
-6.66765 5.17196 -2.26107 0.636394 10
-6.66755 5.17188 -1.94813 0.641967 10
-6.70127 5.19804 -1.64853 0.169624 10
-6.78661 5.26424 -1.36036 0.591301 10
-6.78688 5.26445 -1.05463 0.594185 10
-6.78715 5.26466 -0.751497 0.596345 10
-6.78742 5.26486 -0.450182 0.597779 10
-6.78769 5.26507 -0.149945 0.598485 10
-6.78795 5.26528 0.149951 0.598461 10
-6.78822 5.26549 0.450235 0.597709 10
-6.78849 5.2657 0.751645 0.596228 10
-6.76639 5.24855 1.05145 0.0847742 10
-6.6664 5.17099 1.33626 0.507479 10
-6.6663 5.17091 1.63993 0.504373 10
-6.66619 5.17083 1.94773 0.500652 10
-6.73809 5.2266 2.28495 0.316842 10
-6.70698 5.16507 -2.26827 0.634371 10
-6.70687 5.16499 -1.95434 0.639928 10
-6.71947 5.17469 -1.64855 0.169621 10
-6.77894 5.22048 -1.35516 0.593569 10
-6.77921 5.22069 -1.0506 0.596464 10
-6.77948 5.2209 -0.748625 0.598633 10
-6.77975 5.22111 -0.448462 0.600073 10
-6.78001 5.22131 -0.149372 0.600781 10
-6.78028 5.22152 0.149377 0.600758 10
-6.78055 5.22172 0.448514 0.600002 10
-6.78081 5.22193 0.748771 0.598516 10
-6.78108 5.22213 1.05089 0.5963 10
-6.70572 5.1641 1.34052 0.505867 10
-6.70561 5.16401 1.64515 0.50277 10
-6.7055 5.16393 1.95394 0.499061 10
-6.74696 5.19586 2.28179 0.288803 10
-6.74655 5.15813 -2.27555 0.632342 10
-6.74644 5.15805 -1.96061 0.63788 10
-6.74633 5.15796 -1.65072 0.642641 10
-6.77133 5.17707 -1.35002 0.59583 10
-6.7716 5.17728 -1.04662 0.598736 10
-6.77187 5.17748 -0.745784 0.600914 10
-6.77213 5.17769 -0.44676 0.602359 10
-6.7724 5.17789 -0.148805 0.60307 10
-6.77266 5.17809 0.14881 0.603046 10
-6.77293 5.1783 0.446812 0.602288 10
-6.77319 5.1785 0.74593 0.600796 10
-6.77346 5.1787 1.0469 0.598572 10
-6.74528 5.15716 1.34482 0.504248 10
-6.74517 5.15707 1.65043 0.501162 10
-6.74506 5.15699 1.96021 0.497465 10
-6.74495 5.15691 2.27501 0.314825 10
-6.78639 5.15115 -2.28291 0.630304 10
-6.78627 5.15107 -1.96695 0.635825 10
-6.78616 5.15098 -1.65605 0.640571 10
-6.78606 5.1509 -1.34936 0.644537 10
-6.78595 5.15082 -1.04605 0.647717 10
-6.78584 5.15074 -0.745338 0.650108 10
-6.78574 5.15066 -0.446468 0.651707 10
-6.78563 5.15058 -0.1487 0.652512 10
-6.78552 5.1505 0.148697 0.652523 10
-6.78542 5.15042 0.446448 0.651738 10
-6.78531 5.15034 0.74528 0.650159 10
-6.78521 5.15026 1.04594 0.647788 10
-6.7851 5.15017 1.34917 0.502624 10
-6.78499 5.15009 1.65577 0.499548 10
-6.78488 5.15001 1.96655 0.495862 10
-6.78476 5.14992 2.28237 0.491573 10
-6.82648 5.14412 -2.29034 0.628259 10
-6.82637 5.14404 -1.97335 0.633762 10
-6.82625 5.14395 -1.66145 0.638493 10
-6.82614 5.14387 -1.35375 0.642445 10
-6.82604 5.14379 -1.04945 0.645615 10
-6.82593 5.14371 -0.747765 0.647999 10
-6.82582 5.14363 -0.447922 0.649593 10
-6.82572 5.14355 -0.149184 0.650395 10
-6.82561 5.14347 0.149181 0.650405 10
-6.8255 5.14339 0.447901 0.649623 10
-6.8254 5.14331 0.747706 0.648049 10
-6.82529 5.14322 1.04934 0.645686 10
-6.82518 5.14314 1.35356 0.500993 10
-6.82507 5.14306 1.66116 0.497927 10
-6.82496 5.14297 1.97295 0.494254 10
-6.82484 5.14289 2.28979 0.489978 10
-6.86683 5.13705 -2.29785 0.626206 10
-6.86671 5.13696 -1.97982 0.631691 10
-6.8666 5.13688 -1.66689 0.636406 10
-6.86649 5.1368 -1.35819 0.640346 10
-6.86638 5.13671 -1.05289 0.643506 10
-6.86627 5.13663 -0.750216 0.645882 10
-6.86616 5.13655 -0.44939 0.64747 10
-6.86606 5.13647 -0.149673 0.64827 10
-6.86595 5.13639 0.14967 0.648281 10
-6.86584 5.13631 0.449369 0.647501 10
-6.86574 5.13623 0.750157 0.645932 10
-6.86562 5.13615 1.05278 0.501805 10
-6.86551 5.13606 1.358 0.499357 10
-6.8654 5.13598 1.6666 0.4963 10
-6.86529 5.1359 1.97941 0.492639 10
-6.86518 5.13581 2.2973 0.488378 10
-6.90745 5.12993 -2.30544 0.624146 10
-6.90733 5.12984 -1.98636 0.629613 10
-6.90722 5.12976 -1.67239 0.634312 10
-6.90711 5.12967 -1.36267 0.638239 10
-6.907 5.12959 -1.05637 0.641389 10
-6.90689 5.12951 -0.752692 0.643757 10
-6.90678 5.12943 -0.450873 0.64534 10
-6.90667 5.12935 -0.150167 0.646137 10
-6.90656 5.12927 0.150164 0.646148 10
-6.90646 5.12919 0.450852 0.64537 10
-6.90635 5.12911 0.752633 0.643807 10
-6.90623 5.12902 1.05625 0.500154 10
-6.90612 5.12894 1.36248 0.497714 10
-6.90601 5.12886 1.6721 0.494668 10
-6.9059 5.12877 1.98595 0.491019 10
-6.90578 5.12869 2.30488 0.486771 10
-6.94833 5.12276 -2.3131 0.622078 10
-6.94822 5.12267 -1.99296 0.627526 10
-6.9481 5.12259 -1.67795 0.632211 10
-6.94799 5.1225 -1.3672 0.636125 10
-6.94788 5.12242 -1.05988 0.639264 10
-6.94777 5.12234 -0.755194 0.641624 10
-6.94766 5.12226 -0.452372 0.643202 10
-6.94755 5.12218 -0.150666 0.643997 10
-6.94744 5.1221 0.150663 0.644007 10
-6.94733 5.12202 0.452351 0.643233 10
-6.94722 5.12194 0.755135 0.641674 10
-6.94711 5.12185 1.05976 0.498497 10
-6.947 5.12177 1.36701 0.496065 10
-6.94688 5.12169 1.67766 0.493029 10
-6.94677 5.1216 1.99255 0.489392 10
-6.94665 5.12152 2.31254 0.485159 10
-6.9895 5.11554 -2.32085 0.620002 10
-6.98938 5.11545 -1.99963 0.625432 10
-6.98927 5.11537 -1.68357 0.630101 10
-6.98915 5.11529 -1.37178 0.634002 10
-6.98904 5.1152 -1.06343 0.637131 10
-6.98893 5.11512 -0.757723 0.639483 10
-6.98882 5.11504 -0.453887 0.641056 10
-6.98871 5.11496 -0.15117 0.641848 10
-6.9886 5.11488 0.151168 0.641858 10
-6.98849 5.1148 0.453865 0.641086 10
-6.98838 5.11472 0.757662 0.639534 10
-6.98826 5.11463 1.06331 0.496834 10
-6.98815 5.11455 1.37158 0.49441 10
-6.98803 5.11447 1.68327 0.491384 10
-6.98792 5.11438 1.99922 0.487759 10
-6.9878 5.1143 2.32028 0.48354 10
-7.03093 5.10827 -2.32867 0.617919 10
-7.03082 5.10819 -2.00638 0.623331 10
-7.0307 5.1081 -1.68925 0.627984 10
-7.03059 5.10802 -1.37641 0.631872 10
-7.03047 5.10794 -1.06702 0.63499 10
-7.03036 5.10786 -0.760277 0.637335 10
-7.03025 5.10777 -0.455416 0.638902 10
-7.03014 5.10769 -0.15168 0.639692 10
-7.03002 5.10761 0.151677 0.639702 10
-7.02991 5.10753 0.455395 0.638933 10
-7.0298 5.10745 0.760216 0.637385 10
-7.02968 5.10737 1.0669 0.495165 10
-7.02957 5.10728 1.37621 0.492749 10
-7.02946 5.1072 1.68895 0.489733 10
-7.02934 5.10712 2.00595 0.486121 10
-7.02922 5.10703 2.3281 0.481916 10
-7.07266 5.10096 -2.33658 0.615828 10
-7.07254 5.10087 -2.01319 0.621222 10
-7.07242 5.10079 -1.69498 0.625859 10
-7.0723 5.1007 -1.38108 0.629734 10
-7.07219 5.10062 -1.07064 0.632842 10
-7.07208 5.10054 -0.762858 0.635178 10
-7.07196 5.10046 -0.456963 0.636741 10
-7.07185 5.10038 -0.152195 0.637528 10
-7.07174 5.1003 0.152192 0.637538 10
-7.07162 5.10021 0.456941 0.636771 10
-7.07151 5.10013 0.762797 0.635229 10
-7.07139 5.10005 1.07052 0.49349 10
-7.07128 5.09997 1.38088 0.491082 10
-7.07116 5.09988 1.69468 0.488077 10
-7.07105 5.0998 2.01276 0.484476 10
-7.07093 5.09971 2.33601 0.480286 10
-7.11466 5.0936 -2.34456 0.61373 10
-7.11454 5.09351 -2.02007 0.619106 10
-7.11442 5.09342 -1.70078 0.623727 10
-7.1143 5.09334 -1.3858 0.627589 10
-7.11419 5.09326 -1.0743 0.630686 10
-7.11407 5.09318 -0.765466 0.633014 10
-7.11396 5.09309 -0.458525 0.634572 10
-7.11384 5.09301 -0.152715 0.635356 10
-7.11373 5.09293 0.152712 0.635366 10
-7.11362 5.09285 0.458503 0.634602 10
-7.1135 5.09277 0.765404 0.633065 10
-7.11338 5.09268 1.07418 0.491809 10
-7.11327 5.0926 1.3856 0.48941 10
-7.11315 5.09252 1.70047 0.486414 10
-7.11303 5.09243 2.01964 0.482826 10
-7.11291 5.09235 2.34399 0.47865 10
-7.15695 5.08618 -2.35264 0.611624 10
-7.15683 5.08609 -2.02702 0.616982 10
-7.15671 5.08601 -1.70663 0.621587 10
-7.15659 5.08593 -1.39057 0.625436 10
-7.15647 5.08584 -1.078 0.628522 10
-7.15635 5.08576 -0.7681 0.630843 10
-7.15624 5.08568 -0.460103 0.632395 10
-7.15613 5.0856 -0.153241 0.633176 10
-7.15601 5.08552 0.153238 0.633186 10
-7.1559 5.08543 0.460081 0.632425 10
-7.15578 5.08535 0.768039 0.630893 10
-7.15566 5.08527 1.07787 0.490122 10
-7.15554 5.08518 1.39037 0.487731 10
-7.15543 5.0851 1.70633 0.484746 10
-7.15531 5.08502 2.02659 0.48117 10
-7.15518 5.08493 2.35206 0.477008 10
-7.19953 5.07871 -2.36079 0.609511 10
-7.19941 5.07863 -2.03405 0.61485 10
-7.19929 5.07854 -1.71255 0.61944 10
-7.19917 5.07846 -1.39539 0.623275 10
-7.19906 5.07838 -1.08173 0.62635 10
-7.19894 5.07829 -0.770764 0.628663 10
-7.19882 5.07821 -0.461698 0.63021 10
-7.19871 5.07813 -0.153772 0.630989 10
-7.19859 5.07805 0.153769 0.630999 10
-7.19847 5.07797 0.461676 0.63024 10
-7.19836 5.07788 0.770701 0.628714 10
-7.19824 5.0778 1.08161 0.488428 10
-7.19812 5.07771 1.39519 0.486046 10
-7.198 5.07763 1.71224 0.483071 10
-7.19788 5.07755 2.03362 0.479508 10
-7.19776 5.07746 2.36021 0.47536 10
-7.24241 5.0712 -2.36903 0.60739 10
-7.24229 5.07111 -2.04115 0.612711 10
-7.24217 5.07102 -1.71853 0.617285 10
-7.24205 5.07094 -1.40026 0.621106 10
-7.24193 5.07086 -1.08551 0.624171 10
-7.24181 5.07077 -0.773454 0.626476 10
-7.24169 5.07069 -0.46331 0.628017 10
-7.24158 5.07061 -0.154309 0.628794 10
-7.24146 5.07053 0.154306 0.628804 10
-7.24134 5.07045 0.463288 0.628048 10
-7.24123 5.07036 0.773391 0.626527 10
-7.24111 5.07028 1.08539 0.486729 10
-7.24099 5.0702 1.40006 0.484355 10
-7.24087 5.07011 1.71822 0.481391 10
-7.24074 5.07003 2.04072 0.47784 10
-7.24062 5.06994 2.36845 0.473707 10
-7.2856 5.06362 -2.37736 0.605262 10
-7.28548 5.06354 -2.04833 0.610564 10
-7.28535 5.06345 -1.72457 0.615122 10
-7.28523 5.06337 -1.40519 0.61893 10
-7.28511 5.06328 -1.08933 0.621985 10
-7.28499 5.0632 -0.776173 0.624281 10
-7.28487 5.06312 -0.464939 0.625817 10
-7.28476 5.06304 -0.154851 0.626591 10
-7.28464 5.06295 0.154849 0.626601 10
-7.28452 5.06287 0.464916 0.625848 10
-7.2844 5.06279 0.77611 0.624332 10
-7.28428 5.06271 1.0892 0.485024 10
-7.28416 5.06262 1.40498 0.482659 10
-7.28404 5.06254 1.72426 0.479705 10
-7.28391 5.06245 2.04789 0.476166 10
-7.28379 5.06237 2.37677 0.472048 10
-7.32908 5.056 -2.38578 0.603127 10
-7.32896 5.05591 -2.05558 0.60841 10
-7.32883 5.05582 -1.73067 0.612952 10
-12.0773 8.33155 0.256105 0.634305 10
-12.0777 8.33186 0.768969 0.633508 10
-9.87902 6.81508 1.05001 0.0785443 10
-7.32775 5.05508 1.09306 0.483314 10
-7.32763 5.055 1.40995 0.480956 10
-7.32751 5.05491 1.73036 0.478013 10
-7.32738 5.05483 2.05514 0.474487 10
-7.32726 5.05474 2.38519 0.470383 10
-7.37288 5.04832 -2.39429 0.600984 10
-7.37276 5.04823 -2.06291 0.606248 10
-7.37263 5.04814 -1.73684 0.610774 10
-12.0649 8.26101 0.25523 0.63648 10
-12.0653 8.26131 0.76634 0.635681 10
-9.90245 6.78035 1.04998 0.0785467 10
-7.37154 5.0474 1.09695 0.481597 10
-7.37142 5.04731 1.41498 0.479248 10
-7.37129 5.04723 1.73653 0.476315 10
-7.35884 5.0387 2.05902 0.483517 10
-7.35913 5.0389 2.38982 0.479308 10
-7.41699 5.04058 -2.40288 0.598834 10
-7.41686 5.0405 -2.07032 0.60408 10
-7.41674 5.04041 -1.74308 0.608589 10
-12.0526 8.19095 0.254363 0.638648 10
-12.053 8.19125 0.763739 0.637847 10
-9.92575 6.74554 1.04995 0.0785491 10
-7.41564 5.03966 1.10089 0.479874 10
-7.41551 5.03958 1.42006 0.477534 10
-7.41539 5.03949 1.74276 0.474611 10
-7.35134 4.99597 2.05203 0.485164 10
-7.35163 4.99616 2.38171 0.48094 10
-7.46142 5.03279 -2.41157 0.596677 10
-7.46129 5.03271 -2.0778 0.601904 10
-7.46116 5.03262 -1.74938 0.606397 10
-12.0404 8.12136 0.253506 0.640808 10
-12.0408 8.12166 0.761165 0.640004 10
-9.94894 6.71065 1.04992 0.0785515 10
-7.46005 5.03187 1.10487 0.478146 10
-7.45993 5.03179 1.42519 0.475814 10
-7.4598 5.0317 1.74906 0.472902 10
-7.34389 4.95352 2.04511 0.486805 10
-7.34418 4.95371 2.37368 0.482568 10
-7.50618 5.02495 -2.42035 0.594512 10
-7.50605 5.02486 -2.08537 0.59972 10
-7.50592 5.02477 -1.75575 0.604197 10
-12.0283 8.05223 0.252657 0.642961 10
-12.0287 8.05252 0.758616 0.642154 10
-9.972 6.67567 1.04988 0.0785538 10
-7.50479 5.02402 1.10889 0.476411 10
-7.50467 5.02394 1.43038 0.474088 10
-7.50454 5.02385 1.75543 0.471186 10
-7.33649 4.91135 2.03826 0.488441 10
-7.33678 4.91154 2.36573 0.484189 10
-7.55125 5.01705 -2.42922 0.59234 10
-7.55112 5.01696 -2.09301 0.597529 10
-7.55099 5.01687 -1.76219 0.60199 10
-12.0162 7.98357 0.251817 0.645105 10
-12.0167 7.98386 0.756095 0.644295 10
-9.99494 6.64063 1.04985 0.0785562 10
-7.54986 5.01612 1.11296 0.474671 10
-7.54973 5.01603 1.43562 0.472356 10
-7.5496 5.01595 1.76186 0.469465 10
-7.32914 4.86947 2.03148 0.49007 10
-7.32942 4.86966 2.35786 0.485804 10
-7.59667 5.00908 -2.4382 0.590161 10
-7.59654 5.00899 -2.10074 0.595331 10
-7.59641 5.00891 -1.7687 0.599775 10
-12.0795 7.96497 -2.29168 0.639488 10
-12.08 7.96527 -1.77665 0.642609 10
-12.0804 7.96556 -1.26598 0.644948 10
-12.0808 7.96585 -0.758378 0.6465 10
-12.0813 7.96614 -0.252597 0.647265 10
-12.0043 7.91536 0.250986 0.647242 10
-12.0047 7.91565 0.753598 0.64643 10
-10.0178 6.60549 1.04982 0.0785586 10
-7.59526 5.00815 1.11707 0.472925 10
-7.59513 5.00807 1.44092 0.470619 10
-7.595 5.00798 1.76837 0.467739 10
-7.32184 4.82786 2.02478 0.491694 10
-7.32212 4.82805 2.35008 0.487414 10
-7.64242 5.00106 -2.44726 0.587975 10
-7.64228 5.00097 -2.10855 0.593126 10
-7.64215 5.00089 -1.77527 0.597554 10
-12.0838 7.90744 -2.28725 0.601254 10
-12.0836 7.90731 -1.77312 0.604221 10
-12.0834 7.90717 -1.26339 0.606452 10
-12.0832 7.90704 -0.75679 0.607945 10
-12.083 7.90691 -0.252054 0.608696 10
-11.9924 7.8476 0.250163 0.64937 10
-11.9928 7.84788 0.751128 0.648556 10
-10.0404 6.57029 1.04979 0.0785609 10
-7.641 5.00013 1.12122 0.471174 10
-7.64087 5.00004 1.44628 0.468876 10
-7.64073 4.99996 1.77494 0.466006 10
-7.31458 4.78653 2.01814 0.493311 10
-7.31486 4.78672 2.34237 0.489017 10
-7.68851 4.99298 -2.45642 0.585781 10
-7.68838 4.99289 -2.11645 0.590913 10
-7.68824 4.99281 -1.78192 0.595324 10
-11.9806 7.78028 0.249349 0.651491 10
-11.981 7.78056 0.748683 0.650674 10
-10.063 6.535 1.04976 0.0785633 10
-7.68708 4.99205 1.12542 0.469416 10
-7.68695 4.99196 1.45169 0.467127 10
-7.68681 4.99188 1.78159 0.464268 10
-7.30738 4.74547 2.01157 0.494923 10
-7.30765 4.74565 2.33474 0.490615 10
-7.73495 4.98484 -2.46569 0.583581 10
-7.73481 4.98475 -2.12443 0.588693 10
-7.73468 4.98466 -1.78864 0.593088 10
-11.9688 7.7134 0.248543 0.653604 10
-11.9693 7.71367 0.746262 0.652784 10
-10.0855 6.49964 1.04973 0.0785656 10
-7.7335 4.9839 1.12966 0.467653 10
-7.73337 4.98382 1.45717 0.465372 10
-7.73323 4.98373 1.7883 0.462525 10
-7.32121 4.7182 2.01083 0.156365 10
-7.30049 4.70485 2.32719 0.492206 10
-7.78175 4.97663 -2.47505 0.581373 10
-7.78161 4.97655 -2.1325 0.586466 10
-7.78147 4.97646 -1.79543 0.590844 10
-11.9572 7.64694 0.247745 0.655709 10
-11.9576 7.64721 0.743867 0.654887 10
-10.1078 6.4642 1.04969 0.078568 10
-7.78028 4.9757 1.13395 0.465884 10
-7.78015 4.97561 1.4627 0.463612 10
-7.78001 4.97553 1.79509 0.460775 10
-7.33755 4.69256 2.01081 0.156367 10
-7.33129 4.68855 2.33178 0.453421 10
-7.82889 4.96837 -2.48452 0.579158 10
-7.82875 4.96828 -2.14065 0.584232 10
-7.82861 4.96819 -1.8023 0.588594 10
-11.9456 7.58091 0.246955 0.657806 10
-11.946 7.58119 0.741495 0.656981 10
-10.13 6.42869 1.04966 0.0785704 10
-7.82741 4.96743 1.13828 0.46411 10
-7.82728 4.96734 1.46829 0.461846 10
-7.82714 4.96726 1.80196 0.45902 10
-7.37583 4.68085 2.0168 0.455635 10
-7.3757 4.68076 2.34069 0.451694 10
-7.8764 4.96004 -2.49408 0.576937 10
-7.87626 4.95995 -2.14889 0.581991 10
-7.87612 4.95986 -1.80924 0.586336 10
-11.9341 7.51531 0.246174 0.659895 10
-11.9345 7.51558 0.739148 0.659067 10
-10.1521 6.3931 1.04963 0.0785727 10
-7.87491 4.9591 1.14267 0.46233 10
-7.87477 4.95901 1.47394 0.460075 10
-7.87463 4.95892 1.80889 0.45726 10
-7.42058 4.67299 2.02457 0.453887 10
-7.92428 4.95164 -2.50376 0.574708 10
-7.92414 4.95155 -2.15723 0.579742 10
-7.924 4.95147 -1.81625 0.584071 10
-11.9227 7.45011 0.2454 0.661976 10
-11.9231 7.45037 0.736824 0.661146 10
-10.174 6.35743 1.0496 0.078575 10
-7.92277 4.9507 1.1471 0.460544 10
-7.92264 4.95061 1.47966 0.458298 10
-7.9225 4.95053 1.81591 0.455494 10
-7.46569 4.66508 2.03242 0.452134 10
-8.0078 5.00383 2.53014 0.286137 10
-7.97253 4.94318 -2.51353 0.572472 10
-7.97239 4.94309 -2.16565 0.577487 10
-7.97225 4.94301 -1.82335 0.581799 10
-11.9113 7.38532 0.244634 0.664048 10
-11.9117 7.38559 0.734525 0.663216 10
-10.1958 6.3217 1.04957 0.0785774 10
-7.97101 4.94224 1.15158 0.458753 10
-7.97087 4.94215 1.48544 0.456515 10
-7.97073 4.94206 1.823 0.453722 10
-7.51114 4.65711 2.04036 0.450376 10
-8.02117 4.93466 -2.52342 0.570229 10
-8.02103 4.93457 -2.17417 0.575224 10
-8.02088 4.93448 -1.83052 0.579519 10
-11.9 7.32093 0.243875 0.666113 10
-11.9004 7.32119 0.732248 0.665278 10
-10.2175 6.28588 1.04954 0.0785797 10
-8.01963 4.93371 1.15611 0.456956 10
-8.01949 4.93362 1.49128 0.454727 10
-8.01935 4.93354 1.83017 0.451945 10
-7.55695 4.64907 2.04838 0.448611 10
-8.07018 4.92606 -2.53342 0.567979 10
-8.07004 4.92597 -2.18278 0.572955 10
-8.06989 4.92589 -1.83777 0.577233 10
-11.8888 7.25695 0.243125 0.66817 10
-11.8892 7.2572 0.729994 0.667332 10
-10.2391 6.24999 1.04951 0.078582 10
-8.06863 4.92511 1.16068 0.455153 10
-8.06849 4.92503 1.49718 0.452934 10
-8.06834 4.92494 1.83741 0.450162 10
-7.60312 4.64097 2.05649 0.446842 10
-8.11959 4.9174 -2.54352 0.565722 10
-8.11945 4.91731 -2.19149 0.570678 10
-8.1193 4.91722 -1.8451 0.574939 10
-11.8776 7.19335 0.242382 0.670218 10
-11.878 7.1936 0.727762 0.669378 10
-10.2606 6.21402 1.04948 0.0785844 10
-8.11802 4.91645 1.16531 0.453345 10
-8.11788 4.91636 1.50316 0.451134 10
-8.11773 4.91627 1.84474 0.448374 10
-7.64966 4.6328 2.06469 0.445067 10
-8.1694 4.90867 -2.55374 0.563459 10
-8.16924 4.90858 -2.20029 0.568395 10
-8.1691 4.90849 -1.85251 0.572639 10
-11.8665 7.13014 0.241646 0.672258 10
-11.867 7.13039 0.725554 0.671416 10
-10.2819 6.17799 1.04944 0.0785867 10
-8.16781 4.90772 1.16999 0.451531 10
-8.16766 4.90763 1.50919 0.44933 10
-8.16752 4.90754 1.85215 0.44658 10
-7.69658 4.62457 2.07298 0.443287 10
-8.2196 4.89987 -2.56407 0.561188 10
-8.21945 4.89978 -2.2092 0.566105 10
-8.2193 4.89969 -1.86001 0.570331 10
-11.8555 7.06731 0.240918 0.674291 10
-11.8559 7.06755 0.723367 0.673446 10
-10.3031 6.14188 1.04941 0.078589 10
-8.218 4.89891 1.17473 0.449712 10
-8.21785 4.89882 1.5153 0.447519 10
-8.21771 4.89874 1.85964 0.444781 10
-7.74387 4.61627 2.08137 0.441501 10
-8.27022 4.89099 -2.57452 0.558911 10
-8.27006 4.8909 -2.2182 0.563808 10
-8.26991 4.89081 -1.86758 0.568017 10
-8.47872 5.0143 -1.56016 0.441368 10
-8.47902 5.01448 -1.20953 0.443523 10
-8.47932 5.01466 -0.861866 0.445138 10
-8.47962 5.01483 -0.516296 0.44621 10
-8.47991 5.01501 -0.171965 0.446739 10
-8.48021 5.01518 0.171971 0.446723 10
-8.4805 5.01536 0.51635 0.446163 10
-8.4808 5.01553 0.862016 0.44506 10
-8.2686 4.89004 1.17951 0.447888 10
-8.26845 4.88995 1.52147 0.445704 10
-8.2683 4.88986 1.86722 0.442976 10
-7.79155 4.60791 2.08985 0.43971 10
-8.32124 4.88205 -2.58508 0.556627 10
-8.32109 4.88196 -2.2273 0.561504 10
-8.32093 4.88187 -1.87525 0.565696 10
-8.47093 4.96987 -1.55553 0.442683 10
-8.47123 4.97005 -1.20594 0.444844 10
-8.47153 4.97022 -0.859306 0.446464 10
-8.47182 4.97039 -0.514762 0.447539 10
-8.47212 4.97057 -0.171454 0.44807 10
-8.47241 4.97074 0.17146 0.448054 10
-8.4727 4.97091 0.514816 0.447493 10
-8.473 4.97108 0.859455 0.446386 10
-8.3196 4.88109 1.18435 0.446058 10
-8.31946 4.881 1.52771 0.443883 10
-8.31931 4.88091 1.87488 0.441167 10
-7.83961 4.59948 2.09842 0.437913 10
-8.3727 4.87303 -2.59577 0.554336 10
-8.37254 4.87294 -2.2365 0.559192 10
-8.37239 4.87285 -1.883 0.563368 10
-8.46319 4.92569 -1.55094 0.443993 10
-8.46348 4.92587 -1.20238 0.446161 10
-8.46378 4.92604 -0.85677 0.447785 10
-8.46407 4.92621 -0.513243 0.448864 10
-8.46437 4.92638 -0.170948 0.449396 10
-8.46466 4.92655 0.170954 0.44938 10
-8.46495 4.92672 0.513297 0.448817 10
-8.46525 4.92689 0.856919 0.447707 10
-8.37104 4.87206 1.18925 0.444222 10
-8.37089 4.87198 1.53403 0.442056 10
-8.37074 4.87189 1.88263 0.439351 10
-7.88808 4.59097 2.10709 0.436111 10
-8.46676 4.92777 2.62493 0.32707 10
-8.42457 4.86393 -2.60657 0.552038 10
-8.42441 4.86384 -2.24581 0.556875 10
-8.42426 4.86375 -1.89083 0.561033 10
-8.45549 4.88178 -1.5464 0.445297 10
-8.45578 4.88195 -1.19886 0.447471 10
-8.45608 4.88212 -0.85426 0.449101 10
-8.45637 4.88229 -0.51174 0.450183 10
-8.45667 4.88246 -0.170447 0.450716 10
-8.45696 4.88263 0.170453 0.450701 10
-8.45725 4.8828 0.511793 0.450136 10
-8.45754 4.88297 0.854408 0.449023 10
-8.4229 4.86297 1.19419 0.442381 10
-8.42275 4.86288 1.54041 0.440224 10
-8.4226 4.86279 1.89046 0.437531 10
-7.93694 4.5824 2.11586 0.434304 10
-8.51327 4.91514 2.63401 0.274854 10
-8.47689 4.85476 -2.6175 0.549734 10
-8.47673 4.85467 -2.25523 0.55455 10
-8.47657 4.85458 -1.89876 0.558691 10
-8.47642 4.85449 -1.54711 0.371315 10
-8.47626 4.8544 -1.19935 0.373148 10
-8.47611 4.85431 -0.854567 0.374527 10
-8.47596 4.85423 -0.511897 0.375449 10
-8.47581 4.85414 -0.170491 0.375913 10
-8.47565 4.85405 0.170487 0.37592 10
-8.4755 4.85397 0.511869 0.375469 10
-8.47535 4.85388 0.85449 0.37456 10
-8.4752 4.85379 1.1992 0.440535 10
-8.47504 4.8537 1.54686 0.438387 10
-8.47489 4.85362 1.89838 0.435705 10
-7.98622 4.57375 2.12473 0.432492 10
-8.51912 4.87895 2.63054 0.328988 10
-8.52964 4.84551 -2.62855 0.547423 10
-8.52948 4.84542 -2.26475 0.552219 10
-8.52932 4.84533 -1.90678 0.556342 10
-8.52916 4.84524 -1.55365 0.369754 10
-8.52901 4.84515 -1.20441 0.37158 10
-8.52885 4.84506 -0.858174 0.372952 10
-8.5287 4.84498 -0.514057 0.373871 10
-8.52855 4.84489 -0.17121 0.374333 10
-8.52839 4.8448 0.171207 0.37434 10
-8.52824 4.84472 0.51403 0.373891 10
-8.52809 4.84463 0.858097 0.372986 10
-8.52793 4.84454 1.20426 0.438683 10
-8.52778 4.84445 1.55339 0.436544 10
-8.52762 4.84436 1.9064 0.433873 10
-8.52746 4.84427 2.26421 0.274934 10
-8.5273 4.84418 2.62783 0.272556 10
-8.58284 4.83618 -2.63973 0.545105 10
-8.58268 4.83609 -2.27438 0.549881 10
-8.58252 4.836 -1.91488 0.553987 10
-8.73679 4.92293 -1.58833 0.449178 10
-8.7371 4.9231 -1.23136 0.451371 10
-8.7374 4.92327 -0.877423 0.453015 10
-8.7377 4.92344 -0.525616 0.454106 10
-8.738 4.92361 -0.175069 0.454645 10
-8.7383 4.92378 0.175075 0.454629 10
-8.7386 4.92395 0.525669 0.45406 10
-8.7389 4.92412 0.877574 0.452937 10
-8.58112 4.83521 1.20938 0.436826 10
-8.58096 4.83512 1.56 0.434696 10
-8.5808 4.83503 1.9145 0.432037 10
-8.53729 4.81052 2.26235 0.522879 10
-8.5376 4.81069 2.62581 0.518329 10
-8.6365 4.82678 -2.65103 0.542781 10
-8.63633 4.82668 -2.28412 0.547536 10
-8.63617 4.82659 -1.92308 0.551625 10
-8.729 4.87847 -1.5838 0.45046 10
-8.7293 4.87864 -1.22786 0.45266 10
-8.7296 4.87881 -0.874925 0.454308 10
-8.7299 4.87898 -0.524119 0.455403 10
-8.7302 4.87915 -0.17457 0.455943 10
-8.7305 4.87931 0.174576 0.455927 10
-8.7308 4.87948 0.524172 0.455356 10
-8.7311 4.87965 0.875074 0.454231 10
-8.63476 4.8258 1.21456 0.434964 10
-8.6346 4.82571 1.56668 0.432843 10
-8.63444 4.82562 1.9227 0.430195 10
-8.52967 4.76707 2.25591 0.524373 10
-8.52998 4.76725 2.61833 0.51981 10
-8.69062 4.81729 -2.66247 0.54045 10
-8.69045 4.8172 -2.29397 0.545185 10
-8.69029 4.8171 -1.93138 0.549256 10
-8.72125 4.83427 -1.57933 0.451737 10
-8.72155 4.83443 -1.22439 0.453943 10
-8.72185 4.8346 -0.872451 0.455596 10
-8.72215 4.83477 -0.522637 0.456694 10
-8.72245 4.83493 -0.174077 0.457236 10
-8.72274 4.83509 0.174082 0.45722 10
-8.72304 4.83526 0.52269 0.456648 10
-8.72334 4.83542 0.8726 0.455519 10
-8.68886 4.81631 1.2198 0.433096 10
-8.6887 4.81622 1.57343 0.430985 10
-8.68854 4.81613 1.93099 0.428348 10
-8.52209 4.72387 2.24952 0.52586 10
-8.5224 4.72404 2.61093 0.521284 10
-8.7452 4.80772 -2.67403 0.538112 10
-8.74504 4.80763 -2.30393 0.542827 10
-8.74487 4.80753 -1.93977 0.54688 10
-8.74471 4.80744 -1.58053 0.363466 10
-8.74454 4.80735 -1.22525 0.36526 10
-8.74438 4.80727 -0.873021 0.36661 10
-8.74422 4.80718 -0.522951 0.367512 10
-8.74406 4.80709 -0.174172 0.367967 10
-8.74391 4.807 0.174169 0.367974 10
-8.74375 4.80692 0.522922 0.367532 10
-8.74359 4.80683 0.872941 0.366643 10
-8.74343 4.80674 1.22509 0.431224 10
-8.74326 4.80665 1.58027 0.429121 10
-8.7431 4.80656 1.93937 0.426496 10
-8.51455 4.68091 2.24321 0.527341 10
-8.51486 4.68108 2.6036 0.522752 10
-8.80027 4.79807 -2.68573 0.535768 10
-8.8001 4.79797 -2.31401 0.540462 10
-8.79993 4.79788 -1.94825 0.544498 10
-8.79976 4.79779 -1.58744 0.361882 10
-8.7996 4.7977 -1.23061 0.363669 10
-8.79944 4.79761 -0.876841 0.365013 10
-8.79927 4.79752 -0.525239 0.365912 10
-8.79911 4.79744 -0.174934 0.366365 10
-8.79895 4.79735 0.174931 0.366371 10
-8.79879 4.79726 0.52521 0.365932 10
-8.79863 4.79717 0.87676 0.365046 10
-8.79847 4.79708 1.23045 0.429346 10
-8.7983 4.79699 1.58718 0.427252 10
-8.79814 4.79691 1.94786 0.424638 10
-8.50705 4.6382 2.23695 0.528815 10
-8.50736 4.63837 2.59634 0.524213 10
-8.85582 4.78833 -2.69757 0.533417 10
-8.85565 4.78823 -2.32421 0.538091 10
-8.85548 4.78814 -1.95684 0.542109 10
-9.00106 4.86685 -1.62068 0.455536 10
-9.00136 4.86702 -1.25644 0.45776 10
-9.00167 4.86719 -0.895294 0.459427 10
-9.00198 4.86735 -0.536321 0.460535 10
-9.00228 4.86752 -0.178634 0.461081 10
-9.00258 4.86768 0.17864 0.461065 10
-9.00289 4.86784 0.536375 0.460488 10
-9.00319 4.86801 0.895445 0.45935 10
-8.854 4.78734 1.23587 0.427462 10
-8.85384 4.78725 1.59417 0.425378 10
-8.85367 4.78716 1.95644 0.422775 10
-8.4996 4.59572 2.23076 0.530283 10
-8.4999 4.59588 2.58915 0.525669 10
-8.91186 4.7785 -2.70954 0.53106 10
-8.91168 4.77841 -2.33453 0.535713 10
-8.91151 4.77832 -1.96552 0.539714 10
-8.99321 4.82212 -1.61623 0.45679 10
-8.99352 4.82229 -1.25299 0.459021 10
-8.99383 4.82245 -0.892834 0.460693 10
-8.99413 4.82261 -0.534847 0.461803 10
-8.99443 4.82278 -0.178144 0.462351 10
-8.99474 4.82294 0.178149 0.462336 10
-8.99504 4.8231 0.534901 0.461757 10
-8.99534 4.82326 0.892985 0.460615 10
-8.91002 4.77752 1.24136 0.425574 10
-8.90985 4.77743 1.60124 0.423499 10
-8.90969 4.77733 1.96512 0.420908 10
-8.49218 4.55347 2.22463 0.531745 10
-8.49249 4.55363 2.58203 0.527117 10
-8.96841 4.76859 -2.72165 0.528696 10
-8.96823 4.76849 -2.34496 0.533329 10
-8.96806 4.7684 -1.97431 0.537311 10
-8.98541 4.77763 -1.61182 0.45804 10
-8.98572 4.77779 -1.24957 0.460277 10
-8.98602 4.77795 -0.890399 0.461953 10
-8.98633 4.77812 -0.533388 0.463067 10
-8.98663 4.77828 -0.177657 0.463616 10
-8.98693 4.77844 0.177663 0.463601 10
-8.98723 4.7786 0.533442 0.46302 10
-8.98754 4.77876 0.890548 0.461876 10
-8.96655 4.7676 1.24691 0.42368 10
-8.96638 4.76751 1.6084 0.421614 10
-8.96621 4.76742 1.9739 0.419035 10
-8.48481 4.51145 2.21856 0.5332 10
-8.48511 4.51161 2.57499 0.52856 10
-9.01198 4.75148 -2.72983 0.0982045 1
-9.02528 4.75849 -2.35552 0.530938 10
-9.0251 4.7584 -1.9832 0.534903 10
-9.02493 4.75831 -1.61592 0.355505 10
-9.02476 4.75822 -1.25268 0.357261 10
-9.02459 4.75813 -0.892569 0.358581 10
-9.02442 4.75804 -0.53466 0.359464 10
-9.02425 4.75795 -0.178072 0.359909 10
-9.02408 4.75786 0.178068 0.359916 10
-9.02392 4.75777 0.53463 0.359484 10
-9.02375 4.75768 0.892485 0.358614 10
-9.02358 4.75759 1.25252 0.421781 10
-9.02341 4.75751 1.61564 0.419724 10
-9.02323 4.75741 1.98279 0.417157 10
-8.50294 4.48309 2.2192 0.414081 10
-8.50277 4.48301 2.57558 0.4105 10
-9.02859 4.72003 -2.72985 0.0982036 1
-9.08285 4.7484 -2.36621 0.52854 10
-9.08267 4.7483 -1.9922 0.532487 10
-9.2347 4.82778 -1.65045 0.138904 10
-9.272 4.84729 -1.28465 0.462771 10
-9.27232 4.84745 -0.915391 0.464457 10
-9.27263 4.84761 -0.548359 0.465576 10
-9.27294 4.84777 -0.182644 0.466129 10
-9.27325 4.84794 0.18265 0.466113 10
-9.27355 4.8481 0.548414 0.46553 10
-9.27387 4.84826 0.915544 0.464379 10
-9.08113 4.7475 1.2582 0.419877 10
-9.08096 4.74741 1.62297 0.41783 10
-9.08078 4.74732 1.99178 0.415273 10
-8.55717 4.47358 2.22926 0.412211 10
-8.557 4.47349 2.58726 0.408647 10
-9.0451 4.68853 -2.72988 0.0982027 1
-9.14094 4.73821 -2.37702 0.526137 10
-9.14076 4.73812 -2.0013 0.530066 10
-9.25164 4.7956 -1.65047 0.138902 10
-9.26407 4.80204 -1.28122 0.46401 10
-9.26438 4.8022 -0.912947 0.4657 10
-9.26469 4.80236 -0.546895 0.466823 10
-9.265 4.80252 -0.182156 0.467377 10
-9.26531 4.80268 0.182162 0.467361 10
-9.26562 4.80284 0.54695 0.466776 10
-9.26593 4.803 0.913099 0.465622 10
-9.1392 4.73731 1.26395 0.417968 10
-9.13902 4.73722 1.63038 0.41593 10
-9.13885 4.73713 2.00088 0.413385 10
-9.13315 4.73418 2.37499 0.537525 10
-9.13347 4.73434 2.75655 0.532848 10
-9.06149 4.65698 -2.7299 0.0982018 1
-9.19956 4.72793 -2.38795 0.523727 10
-9.19938 4.72784 -2.01051 0.527638 10
-9.25587 4.75687 -1.64826 0.462982 10
-9.25618 4.75703 -1.27782 0.465243 10
-9.25649 4.75719 -0.910528 0.466938 10
-9.2568 4.75735 -0.545446 0.468063 10
-9.2571 4.75751 -0.181674 0.468619 10
-9.25741 4.75767 0.181679 0.468603 10
-9.25772 4.75783 0.5455 0.468017 10
-9.25803 4.75799 0.910679 0.46686 10
-9.1978 4.72703 1.26976 0.416053 10
-9.19762 4.72694 1.63788 0.414025 10
-9.19494 4.72556 2.00954 0.132718 10
-9.12536 4.6898 2.3687 0.538954 10
-9.12568 4.68997 2.74924 0.534265 10
-9.07778 4.62536 -2.72993 0.0982008 1
-9.25873 4.71756 -2.39902 0.52131 10
-9.25855 4.71747 -2.01983 0.525203 10
-9.25837 4.71737 -1.64576 0.349059 10
-9.25819 4.71728 -1.27582 0.350783 10
-9.25801 4.71719 -0.909052 0.352079 10
-9.25783 4.7171 -0.544533 0.352946 10
-9.25766 4.71701 -0.18136 0.353383 10
-9.25748 4.71692 0.181357 0.35339 10
-9.25731 4.71684 0.544502 0.352966 10
-9.25713 4.71674 0.908965 0.352112 10
-9.25696 4.71666 1.27565 0.414134 10
-9.25678 4.71656 1.64548 0.412115 10
-9.21126 4.69337 2.00951 0.13272 10
-9.11762 4.64566 2.36246 0.540377 10
-9.11794 4.64582 2.742 0.535675 10
-9.09395 4.59369 -2.72995 0.0981999 1
-9.31845 4.70709 -2.41023 0.518887 10
-9.31826 4.707 -2.02926 0.522762 10
-9.31808 4.7069 -1.65344 0.526001 10
-9.3179 4.70681 -1.28178 0.349153 10
-9.31772 4.70672 -0.913296 0.350443 10
-9.31754 4.70663 -0.547075 0.351306 10
-9.31736 4.70654 -0.182207 0.351741 10
-9.31719 4.70645 0.182203 0.351748 10
-9.31701 4.70636 0.547044 0.351326 10
-9.31683 4.70627 0.913208 0.350476 10
-9.31665 4.70618 1.2816 0.41221 10
-9.31647 4.70609 1.65316 0.4102 10
-9.22747 4.66114 2.00949 0.132721 10
-9.10991 4.60175 2.35629 0.541792 10
-9.11023 4.60191 2.73484 0.537078 10
