VERSION 0.7
FIELDS x y z intensity label
SIZE 4 4 4 4 4
TYPE F F F F F
COUNT 1 1 1 1 1
WIDTH 1216
HEIGHT 1
VIEWPOINT 5.17649 35.9993 2.72879 0.765347 -0.000502879 0.00048404 0.643618
POINTS 1216
DATA ascii
-7.81142 -14.4469 4.40067 0.526345 10
-4.49055 -8.37483 -2.54626 0.0785742 4
-5.21426 -9.72455 -2.54747 0.0656745 4
-6.65956 -12.42 -2.73936 0.0722144 1
-7.74007 -14.4352 -2.59423 0.692122 10
-7.74004 -14.4351 -2.01112 0.695529 10
-9.0088 -16.8013 -1.6679 0.547007 10
-9.01861 -16.8196 -1.0002 0.462234 10
-9.01857 -16.8196 -0.333128 0.4628 10
-9.01853 -16.8195 0.333126 0.462802 10
-9.0185 -16.8194 1.00019 0.46224 10
-7.73984 -14.4347 1.43296 0.54432 10
-7.69118 -14.344 1.99843 0.0851304 10
-7.65211 -14.2711 3.73849 0.156669 10
-7.73968 -14.4344 4.38861 0.527792 10
-4.46122 -8.39033 -2.54622 0.0797659 4
-5.18019 -9.74252 -2.54742 0.067227 4
-6.61603 -12.4429 -2.73931 0.0722159 1
-7.66871 -14.4227 -2.58717 0.69401 10
-7.66868 -14.4227 -2.00565 0.697426 10
-8.9902 -16.9081 -1.67537 0.544567 10
-9.09606 -17.1072 -1.01541 0.463495 10
-9.09602 -17.1071 -0.338192 0.464063 10
-9.09598 -17.107 0.33819 0.464065 10
-9.09594 -17.107 1.01539 0.463501 10
-7.66849 -14.4223 1.42907 0.545805 10
-7.64132 -14.3712 1.99849 0.0851277 10
-7.60238 -14.298 3.73856 0.156667 10
-7.66833 -14.422 4.37667 0.529232 10
-4.43184 -8.40573 -2.54619 0.070838 4
-5.14606 -9.76038 -2.54738 0.0511968 4
-6.57242 -12.4657 -2.73925 0.0722174 1
-7.59773 -14.4104 -2.58018 0.69589 10
-7.5977 -14.4103 -2.00023 0.699316 10
-8.97144 -17.0158 -1.68294 0.54212 10
-9.01186 -17.0925 -1.01266 0.464751 10
-9.01183 -17.0924 -0.337278 0.46532 10
-9.01179 -17.0924 0.337277 0.465322 10
-9.01175 -17.0923 1.01265 0.464757 10
-7.59751 -14.41 1.4252 0.547283 10
-7.59135 -14.3983 1.99856 0.0851249 10
-7.55255 -14.3247 3.73862 0.156664 10
-7.59735 -14.4097 4.36484 0.530666 10
-4.4024 -8.42101 -2.54615 0.066672 4
-5.11187 -9.77811 -2.54733 0.0656779 4
-6.52873 -12.4883 -2.73919 0.072219 1
-7.52715 -14.3981 -2.57326 0.697762 10
-7.52711 -14.398 -1.99487 0.701196 10
-8.9525 -17.1245 -1.69059 0.539667 10
-8.95322 -17.1259 -1.01278 0.357307 10
-8.95393 -17.1273 -0.337347 0.357714 10
-8.95465 -17.1287 0.337374 0.357685 10
-8.95537 -17.13 1.01303 0.357221 10
-7.52693 -14.3977 1.42138 0.548755 10
-7.5269 -14.3976 1.99481 0.546747 10
-7.56629 -14.473 2.58664 0.347326 10
-7.56626 -14.4729 3.17449 0.345196 10
-7.50264 -14.3512 3.73869 0.156661 10
-7.52677 -14.3974 4.35314 0.532093 10
-4.37291 -8.4362 -2.54611 0.0636966 4
-5.07762 -9.79572 -2.54729 0.0713678 4
-6.48496 -12.5108 -2.73913 0.0722205 1
-7.45693 -14.3859 -2.56641 0.699625 10
-7.45689 -14.3858 -1.98955 0.703069 10
-8.93339 -17.2343 -1.69833 0.537206 10
-9.001 -17.3647 -1.02504 0.467245 10
-9.00096 -17.3646 -0.341401 0.467817 10
-9.00093 -17.3645 0.341399 0.467819 10
-9.00089 -17.3645 1.02503 0.467251 10
-7.45671 -14.3855 1.4176 0.55022 10
-7.45668 -14.3854 1.9895 0.548207 10
-7.45263 -14.3776 3.73876 0.156659 10
-7.45655 -14.3851 4.34154 0.533513 10
-4.53584 -8.82578 -2.65889 0.0672694 4
-5.04331 -9.81321 -2.54724 0.0656802 4
-6.44112 -12.5331 -2.73908 0.072222 1
-7.38709 -14.3737 -2.55962 0.701479 10
-7.38706 -14.3737 -1.98429 0.704932 10
-7.38703 -14.3736 -1.41388 0.46734 10
-7.387 -14.3735 -0.846943 0.468484 10
-7.38696 -14.3735 -0.282084 0.469057 10
-7.38693 -14.3734 0.282082 0.469059 10
-7.38691 -14.3734 0.846933 0.468489 10
-7.38687 -14.3733 1.41385 0.551679 10
-7.38684 -14.3732 1.98424 0.54966 10
-7.38675 -14.3731 3.73085 0.344471 10
-7.38672 -14.373 4.33007 0.534927 10
-5.00893 -9.83058 -2.5472 0.0537863 4
-6.39719 -12.5552 -2.73902 0.0722235 1
-7.31761 -14.3616 -2.55291 0.703325 10
-7.31758 -14.3616 -1.97908 0.706788 10
-7.3289 -14.3838 -1.41235 0.351576 10
-7.3295 -14.3849 -0.846103 0.352407 10
-7.33009 -14.3861 -0.281828 0.352808 10
-7.33069 -14.3873 0.281851 0.35278 10
-7.33128 -14.3884 0.846309 0.352321 10
-7.3174 -14.3612 1.41014 0.55313 10
-7.31737 -14.3611 1.97903 0.551107 10
-7.11303 -13.9601 2.48153 0.548412 10
-7.113 -13.96 3.0455 0.545049 10
-7.11297 -13.96 3.61717 0.541021 10
-7.31725 -14.3609 4.3187 0.536335 10
-4.47397 -8.85696 -2.65881 0.0226223 4
-4.9745 -9.84783 -2.54715 0.0522357 4
-6.35319 -12.5772 -2.73896 0.072225 1
-7.2485 -14.3496 -2.54625 0.705163 10
-7.24847 -14.3495 -1.97393 0.708634 10
-7.31271 -14.4767 -1.41896 0.349939 10
-7.31331 -14.4779 -0.850063 0.350765 10
-7.31391 -14.4791 -0.283147 0.351165 10
-7.3145 -14.4803 0.28317 0.351136 10
-7.3151 -14.4814 0.850271 0.35068 10
-7.24829 -14.3492 1.40646 0.554575 10
-7.24826 -14.3491 1.97387 0.552547 10
-7.04585 -13.9484 2.47507 0.549845 10
-7.04582 -13.9484 3.03756 0.546473 10
-7.04579 -13.9483 3.60774 0.542435 10
-7.24814 -14.3489 4.30745 0.537736 10
-4.44296 -8.87239 -2.65877 0.0946577 4
-4.94 -9.86496 -2.5471 0.0553398 4
-6.30912 -12.599 -2.7389 0.0722266 1
-7.17974 -14.3376 -2.53967 0.706992 10
-7.17971 -14.3376 -1.96882 0.710472 10
-8.85516 -17.6833 -1.73023 0.527302 10
-8.85589 -17.6848 -1.03653 0.349119 10
-8.85661 -17.6862 -0.345259 0.349516 10
-8.85734 -17.6877 0.345287 0.349488 10
-8.85408 -17.6812 1.03632 0.0476727 10
-7.17954 -14.3372 1.40283 0.556014 10
-7.17951 -14.3371 1.96877 0.55398 10
-7.00672 -13.9921 2.47847 0.407399 10
-7.00731 -13.9933 3.042 0.404864 10
-7.00791 -13.9945 3.61334 0.401837 10
-7.17939 -14.3369 4.29631 0.539131 10
-4.41189 -8.8877 -2.65873 0.0363158 4
-4.90545 -9.88196 -2.54706 0.0610301 4
-6.26497 -12.6207 -2.73884 0.0722281 1
-7.11134 -14.3257 -2.53315 0.708812 10
-7.11131 -14.3256 -1.96377 0.712301 10
-7.11128 -14.3256 -1.39925 0.472225 10
-7.11125 -14.3255 -0.838182 0.473381 10
-7.11123 -14.3255 -0.279166 0.47396 10
-7.1112 -14.3254 0.279164 0.473962 10
-7.11117 -14.3254 0.838172 0.473386 10
-7.11114 -14.3253 1.39922 0.557445 10
-7.11111 -14.3252 1.96371 0.555406 10
-6.9909 -14.0831 2.49024 0.405472 10
-6.99149 -14.0843 3.05646 0.402949 10
-6.9921 -14.0855 3.63051 0.399936 10
-7.11099 -14.325 4.28528 0.540519 10
-4.38078 -8.90291 -2.65869 0.0297675 4
-4.87084 -9.89885 -2.54701 0.0646517 4
-6.22075 -12.6422 -2.73879 0.0722296 1
-7.04329 -14.3139 -2.52669 0.710623 10
-7.04327 -14.3138 -1.95876 0.714121 10
-7.06083 -14.3495 -1.39917 0.345 10
-7.06141 -14.3507 -0.838206 0.345814 10
-7.062 -14.3519 -0.279198 0.346208 10
-7.06258 -14.3531 0.279221 0.346179 10
-7.06317 -14.3542 0.838414 0.345729 10
-7.04309 -14.3134 1.39566 0.55887 10
-7.04307 -14.3134 1.9587 0.556825 10
-6.97493 -14.1749 2.50216 0.40354 10
-6.97552 -14.1761 3.07109 0.40103 10
-6.97613 -14.1774 3.64789 0.39803 10
-7.04295 -14.3132 4.27435 0.5419 10
-4.34961 -8.91801 -2.65864 0.0684663 4
-4.83617 -9.91561 -2.54697 0.0563773 4
-6.17644 -12.6636 -2.73873 0.0722312 1
-6.97558 -14.3021 -2.52029 0.712427 10
-6.97556 -14.302 -1.9538 0.715933 10
-7.04448 -14.4433 -1.40591 0.343345 10
-7.04507 -14.4445 -0.842246 0.344156 10
-7.04565 -14.4457 -0.280544 0.344547 10
-7.04624 -14.4469 0.280567 0.344518 10
-7.04682 -14.4481 0.842456 0.34407 10
-6.97539 -14.3017 1.39212 0.560288 10
-6.97536 -14.3016 1.95375 0.558238 10
-6.9588 -14.2677 2.51423 0.401603 10
-6.9594 -14.2689 3.0859 0.399105 10
-6.96 -14.2701 3.66549 0.39612 10
-6.97524 -14.3014 4.26353 0.543275 10
-4.31838 -8.933 -2.6586 0.0279823 4
-4.80144 -9.93226 -2.54692 0.0620678 4
-6.13207 -12.6848 -2.73867 0.0722327 1
-6.90822 -14.2903 -2.51396 0.714221 10
-6.90819 -14.2903 -1.94889 0.717736 10
-8.77392 -18.1497 -1.7637 0.517294 10
-8.77466 -18.1512 -1.05659 0.342493 10
-8.77539 -18.1528 -0.351939 0.342882 10
-8.77612 -18.1543 0.351968 0.342853 10
-8.60902 -17.8086 1.03664 0.0476579 10
-6.90803 -14.2899 1.38863 0.561699 10
-6.908 -14.2899 1.94884 0.559644 10
-6.90797 -14.2898 2.51387 0.556907 10
-6.90794 -14.2898 3.08518 0.553492 10
-6.90791 -14.2897 3.6643 0.549402 10
-6.90789 -14.2896 4.25282 0.544643 10
-4.28711 -8.94788 -2.65856 0.0773991 4
-4.76665 -9.94878 -2.54688 0.0656896 4
-6.08762 -12.7059 -2.73861 0.0722343 1
-6.84119 -14.2787 -2.50769 0.716006 10
-6.84116 -14.2786 -1.94403 0.719531 10
-6.84114 -14.2786 -1.38519 0.477018 10
-6.84111 -14.2785 -0.82976 0.478185 10
-6.84108 -14.2784 -0.276361 0.478771 10
-6.84105 -14.2784 0.276359 0.478773 10
-6.84102 -14.2783 0.82975 0.478191 10
-6.841 -14.2783 1.38516 0.563103 10
-6.84097 -14.2782 1.94398 0.561043 10
-6.84094 -14.2782 2.5076 0.558299 10
-6.84091 -14.2781 3.07749 0.554876 10
-6.84088 -14.278 3.65516 0.550776 10
-6.84086 -14.278 4.24222 0.546005 10
-4.25578 -8.96265 -2.65852 0.0565617 4
-4.73181 -9.96517 -2.54683 0.0610356 4
-6.04311 -12.7268 -2.73855 0.0722358 1
-6.7745 -14.2671 -2.50149 0.717783 10
-6.77447 -14.267 -1.93922 0.721316 10
-6.79399 -14.3081 -1.38575 0.338356 10
-6.79457 -14.3093 -0.830167 0.339154 10
-6.79514 -14.3105 -0.276521 0.339539 10
-6.79571 -14.3117 0.276544 0.339511 10
-6.79628 -14.3129 0.830377 0.339069 10
-6.77431 -14.2667 1.38174 0.5645 10
-6.77428 -14.2666 1.93917 0.562435 10
-6.77425 -14.2665 2.50139 0.559685 10
-6.77423 -14.2665 3.06987 0.556252 10
-6.7742 -14.2664 3.64611 0.552142 10
-6.77417 -14.2664 4.23172 0.54736 10
-4.2244 -8.97731 -2.65848 0.0494179 4
-4.69692 -9.98145 -2.54678 0.0672438 4
-5.99852 -12.7475 -2.73849 0.0722374 1
-6.70813 -14.2555 -2.49534 0.719551 10
-6.70811 -14.2554 -1.93446 0.723093 10
-6.77748 -14.4029 -1.39263 0.336685 10
-6.77806 -14.4041 -0.834289 0.337479 10
-6.77863 -14.4053 -0.277894 0.337862 10
-6.77921 -14.4065 0.277917 0.337833 10
-6.77978 -14.4078 0.834501 0.337393 10
-6.70795 -14.2551 1.37834 0.565891 10
-6.70792 -14.255 1.9344 0.563821 10
-6.70789 -14.255 2.49525 0.561063 10
-6.70786 -14.2549 3.06233 0.557623 10
-6.70784 -14.2549 3.63716 0.553502 10
-6.70781 -14.2548 4.22132 0.548708 10
-4.19298 -8.99187 -2.65844 0.06609 4
-4.66196 -9.9976 -2.54674 0.075004 4
-5.95385 -12.7681 -2.73843 0.0722389 1
-6.64209 -14.244 -2.48925 0.72131 10
-6.64206 -14.2439 -1.92974 0.724861 10
-8.68946 -18.6346 -1.79886 0.507185 10
-8.71289 -18.6848 -1.08046 0.481728 10
-8.71285 -18.6848 -0.35986 0.482317 10
-8.71282 -18.6847 0.359858 0.482319 10
-8.36215 -17.9327 1.03697 0.047643 10
-6.6419 -14.2436 1.37498 0.567274 10
-6.64188 -14.2436 1.92968 0.565199 10
-6.64185 -14.2435 2.48916 0.562435 10
-6.64182 -14.2434 3.05486 0.558986 10
-6.6418 -14.2434 3.62828 0.554856 10
-6.64177 -14.2433 4.21103 0.550049 10
-4.1615 -9.00631 -2.6584 0.147663 4
-4.62695 -10.0136 -2.54669 0.0656944 4
-5.90912 -12.7885 -2.73837 0.0722405 1
-6.57637 -14.2326 -2.48323 0.723061 10
-6.57634 -14.2325 -1.92507 0.72662 10
-6.57632 -14.2324 -1.37168 0.481718 10
-6.57629 -14.2324 -0.821664 0.482897 10
-6.57626 -14.2323 -0.273664 0.483488 10
-6.57624 -14.2323 0.273663 0.48349 10
-6.57621 -14.2322 0.821654 0.482903 10
-6.57619 -14.2322 1.37165 0.568651 10
-6.57616 -14.2321 1.92501 0.566571 10
-6.57613 -14.2321 2.48314 0.5638 10
-6.57611 -14.232 3.04746 0.560342 10
-6.57608 -14.2319 3.6195 0.556202 10
-6.57605 -14.2319 4.20083 0.551384 10
-4.12997 -9.02064 -2.65835 0.0768097 4
-4.59188 -10.0295 -2.54665 0.0786278 4
-5.86432 -12.8088 -2.73832 0.072242 1
-6.51096 -14.2212 -2.47726 0.724803 10
-6.51094 -14.2211 -1.92044 0.72837 10
-6.52844 -14.2593 -1.37206 0.331646 10
-6.529 -14.2606 -0.82197 0.332428 10
-6.52956 -14.2618 -0.273791 0.332805 10
-6.53012 -14.263 0.273814 0.332776 10
-6.53069 -14.2643 0.822182 0.332342 10
-6.51078 -14.2208 1.36835 0.570021 10
-6.51076 -14.2207 1.92039 0.567935 10
-6.51073 -14.2207 2.47717 0.565158 10
-6.5107 -14.2206 3.04014 0.561692 10
-6.51068 -14.2206 3.6108 0.557542 10
-6.51065 -14.2205 4.19074 0.552712 10
-4.09839 -9.03486 -2.65831 0.0809789 4
-4.55676 -10.0453 -2.5466 0.0693179 4
-5.81945 -12.8289 -2.73826 0.0722436 1
-6.44587 -14.2098 -2.47135 0.726536 10
-6.44585 -14.2098 -1.91586 0.730112 10
-6.51176 -14.3551 -1.37908 0.329959 10
-6.51232 -14.3563 -0.826175 0.330736 10
-6.51289 -14.3576 -0.275192 0.331111 10
-6.51345 -14.3588 0.275215 0.331083 10
-6.51401 -14.3601 0.826389 0.330651 10
-6.44569 -14.2094 1.36509 0.571384 10
-6.44567 -14.2094 1.91581 0.569293 10
-6.44564 -14.2093 2.47126 0.566509 10
-6.44562 -14.2093 3.03289 0.563035 10
-6.44559 -14.2092 3.60219 0.558875 10
-6.44556 -14.2092 4.18074 0.554034 10
-4.06677 -9.04896 -2.65827 0.0654987 4
-4.52159 -10.061 -2.54655 0.070871 4
-5.7745 -12.8489 -2.7382 0.0722452 1
-6.38109 -14.1986 -2.4655 0.72826 10
-6.38106 -14.1985 -1.91132 0.731844 10
-8.48932 -18.8896 -1.81185 0.734538 10
-8.48929 -18.8895 -1.08534 0.736336 10
-8.48926 -18.8894 -0.361484 0.737237 10
-8.48922 -18.8894 0.361482 0.73724 10
-8.11352 -18.0534 1.0373 0.047628 10
-6.38091 -14.1982 1.36186 0.572739 10
-6.38089 -14.1981 1.91127 0.570644 10
-6.38086 -14.1981 2.46541 0.567853 10
-6.38084 -14.198 3.02571 0.564371 10
-6.38081 -14.1979 3.59366 0.560201 10
-6.38078 -14.1979 4.17085 0.555348 10
-4.03509 -9.06296 -2.65823 0.0911042 4
-4.48636 -10.0765 -2.54651 0.0724243 4
-5.72949 -12.8687 -2.73814 0.0722467 1
-6.31661 -14.1873 -2.45971 0.729975 10
-6.31659 -14.1873 -1.90683 0.733568 10
-6.31656 -14.1872 -1.35869 0.486324 10
-6.31654 -14.1872 -0.813882 0.487514 10
-6.31651 -14.1871 -0.271073 0.488111 10
-6.31649 -14.1871 0.271071 0.488113 10
-6.31646 -14.187 0.813872 0.48752 10
-6.31644 -14.1869 1.35866 0.574088 10
-6.31641 -14.1869 1.90678 0.571988 10
-6.31639 -14.1868 2.45962 0.569191 10
-6.31636 -14.1868 3.0186 0.5657 10
-6.31634 -14.1867 3.58522 0.56152 10
-6.31631 -14.1867 4.16105 0.556656 10
-4.0005 -9.07035 -2.65629 0.0935779 4
-4.45108 -10.0919 -2.54646 0.0610445 4
-5.68442 -12.8883 -2.73808 0.0722483 1
-6.25244 -14.1762 -2.45397 0.731681 10
-6.25241 -14.1761 -1.90239 0.735283 10
-6.26422 -14.2029 -1.35808 0.324872 10
-6.26478 -14.2041 -0.813596 0.325637 10
-6.26533 -14.2054 -0.271002 0.326006 10
-6.26588 -14.2066 0.271026 0.325977 10
-6.26643 -14.2079 0.81381 0.325552 10
-6.25227 -14.1758 1.35549 0.57543 10
-6.25224 -14.1757 1.90234 0.573325 10
-6.25221 -14.1757 2.45388 0.570521 10
-6.25219 -14.1756 3.01156 0.567022 10
-6.25216 -14.1755 3.57686 0.562833 10
-6.25214 -14.1755 4.15134 0.557957 10
-3.96124 -9.06691 -2.65121 0.0956265 4
-4.41574 -10.1072 -2.54641 0.0625976 4
-5.63927 -12.9078 -2.73802 0.0722499 1
-6.18856 -14.165 -2.44829 0.733378 10
-6.18853 -14.165 -1.89798 0.736988 10
-6.24737 -14.2997 -1.36524 0.323168 10
-6.24792 -14.3009 -0.817885 0.32393 10
-6.24847 -14.3022 -0.272431 0.324296 10
-6.24902 -14.3034 0.272455 0.324267 10
-6.24958 -14.3047 0.818102 0.323844 10
-6.18839 -14.1647 1.35235 0.576765 10
-6.18836 -14.1646 1.89793 0.574655 10
-6.18834 -14.1645 2.4482 0.571845 10
-6.18831 -14.1645 3.00459 0.568338 10
-6.18829 -14.1644 3.56858 0.564138 10
-6.18826 -14.1644 4.14174 0.559252 10
-3.92211 -9.06347 -2.64618 0.107943 4
-4.38035 -10.1224 -2.54637 0.0512171 4
-5.59406 -12.9271 -2.73796 0.0722515 1
-6.12497 -14.154 -2.44267 0.735067 10
-6.12495 -14.1539 -1.89362 0.738685 10
-8.2494 -19.0632 -1.81728 0.486674 10
-8.25013 -19.0649 -1.08869 0.48782 10
-8.25086 -19.0666 -0.362634 0.488372 10
-8.25159 -19.0683 0.362666 0.488329 10
-7.86317 -18.1707 1.03763 0.0476128 10
-6.12481 -14.1536 1.34925 0.578093 10
-6.12478 -14.1535 1.89357 0.575978 10
-6.12476 -14.1535 2.44258 0.573161 10
-6.12473 -14.1534 2.99769 0.569646 10
-6.12471 -14.1534 3.56039 0.565437 10
-6.12468 -14.1533 4.13222 0.560539 10
-3.88313 -9.06001 -2.6412 0.0866286 4
-4.34491 -10.1374 -2.54632 0.0398363 4
-5.54878 -12.9463 -2.7379 0.0722531 1
-6.06168 -14.143 -2.4371 0.736746 10
-6.06166 -14.1429 -1.88931 0.740373 10
-6.06163 -14.1428 -1.3462 0.490835 10
-6.06161 -14.1428 -0.806402 0.492036 10
-6.06158 -14.1427 -0.268581 0.492639 10
-6.06156 -14.1427 0.26858 0.492641 10
-6.06154 -14.1426 0.806392 0.492042 10
-6.06151 -14.1426 1.34617 0.579414 10
-6.06149 -14.1425 1.88926 0.577294 10
-6.06147 -14.1425 2.43701 0.574471 10
-6.06144 -14.1424 2.99086 0.570947 10
-6.06142 -14.1423 3.55227 0.566729 10
-6.06139 -14.1423 4.1228 0.56182 10
-3.84428 -9.05655 -2.63627 0.0839084 4
-4.30942 -10.1524 -2.54627 0.0294897 4
-5.50343 -12.9653 -2.73784 0.0722547 1
-5.99868 -14.132 -2.43159 0.738417 10
-5.99865 -14.1319 -1.88503 0.742051 10
-6.00141 -14.1384 -1.34378 0.318034 10
-6.00195 -14.1397 -0.805026 0.318783 10
-6.00249 -14.141 -0.268148 0.319143 10
-6.00302 -14.1422 0.268172 0.319114 10
-6.00356 -14.1435 0.805242 0.318697 10
-5.99851 -14.1316 1.34313 0.580727 10
-5.99849 -14.1315 1.88498 0.578602 10
-5.99846 -14.1315 2.4315 0.575773 10
-5.99844 -14.1314 2.98409 0.572242 10
-5.99842 -14.1314 3.54423 0.568014 10
-5.99839 -14.1313 4.11348 0.563093 10
-3.80557 -9.05308 -2.63137 0.0630961 4
-4.27388 -10.1671 -2.54622 0.0217297 4
-5.45802 -12.9841 -2.73778 0.0722562 1
-5.93595 -14.1211 -2.42613 0.740078 10
-5.93593 -14.121 -1.8808 0.743721 10
-5.98437 -14.2362 -1.35108 0.316315 10
-5.98491 -14.2375 -0.809401 0.317059 10
-5.98545 -14.2388 -0.269606 0.317418 10
-5.98599 -14.2401 0.26963 0.317389 10
-5.98653 -14.2414 0.80962 0.316974 10
-5.93579 -14.1207 1.34011 0.582034 10
-5.93577 -14.1206 1.88075 0.579904 10
-5.93574 -14.1206 2.42604 0.577069 10
-5.93572 -14.1205 2.97739 0.573529 10
-5.9357 -14.1205 3.53628 0.569292 10
-5.93567 -14.1204 4.10424 0.56436 10
-3.76699 -9.04961 -2.62653 0.0812247 4
-4.23828 -10.1818 -2.54618 0.0719163 4
-5.41254 -13.0028 -2.73772 0.0722578 1
-5.87351 -14.1102 -2.42072 0.741731 10
-5.87349 -14.1101 -1.87661 0.745382 10
-9.89129 -23.7623 -2.25185 0.748124 10
-9.89125 -23.7622 -1.34891 0.749956 10
-9.89122 -23.7621 -0.449269 0.750873 10
-9.89118 -23.762 0.449267 0.750876 10
-7.61114 -18.2846 1.03796 0.0475975 10
-5.87335 -14.1098 1.33713 0.583333 10
-5.87333 -14.1098 1.87656 0.581199 10
-5.8733 -14.1097 2.42064 0.578357 10
-5.87328 -14.1096 2.97076 0.57481 10
-5.87326 -14.1096 3.5284 0.570563 10
-5.87323 -14.1095 4.0951 0.56562 10
-3.72855 -9.04613 -2.62172 0.071313 4
-4.20264 -10.1964 -2.54613 0.0719176 4
-5.367 -13.0213 -2.73766 0.0722594 1
-5.81134 -14.0994 -2.41537 0.743374 10
-5.81132 -14.0993 -1.87246 0.747033 10
-5.8113 -14.0993 -1.3342 0.49525 10
-5.81128 -14.0992 -0.799212 0.496463 10
-5.81125 -14.0992 -0.266187 0.49707 10
-5.81123 -14.0991 0.266185 0.497072 10
-5.81121 -14.099 0.799203 0.496469 10
-5.81118 -14.099 1.33417 0.584626 10
-5.81116 -14.0989 1.87241 0.582487 10
-5.81114 -14.0989 2.41529 0.579638 10
-5.81112 -14.0988 2.96419 0.576084 10
-5.81109 -14.0988 3.5206 0.571827 10
-5.81107 -14.0987 4.08605 0.566874 10
-3.69024 -9.04265 -2.61696 0.100188 4
-4.16694 -10.2108 -2.54608 0.0765756 4
-5.3214 -13.0397 -2.7376 0.072261 1
-5.74945 -14.0886 -2.41007 0.745009 10
-5.74943 -14.0885 -1.86836 0.748676 10
-5.74941 -14.0885 -1.33127 0.496339 10
-5.74938 -14.0884 -0.797459 0.497554 10
-5.74936 -14.0884 -0.265603 0.498163 10
-5.74934 -14.0883 0.265601 0.498165 10
-5.74932 -14.0883 0.79745 0.49756 10
-5.74929 -14.0882 1.33124 0.585911 10
-5.74927 -14.0882 1.86831 0.583768 10
-5.74925 -14.0881 2.40999 0.580913 10
-5.74923 -14.088 2.95769 0.57735 10
-5.7492 -14.088 3.51288 0.573084 10
-5.74918 -14.0879 4.07708 0.56812 10
-3.65206 -9.03916 -2.61225 0.0863607 4
-4.1312 -10.2251 -2.54603 0.050189 4
-5.27573 -13.0579 -2.73753 0.0722626 1
-5.68783 -14.0779 -2.40483 0.746634 10
-5.68781 -14.0778 -1.86429 0.750309 10
-5.72282 -14.1645 -1.33655 0.3094 10
-5.72335 -14.1658 -0.800701 0.310127 10
-5.72388 -14.1671 -0.266708 0.310477 10
-5.7244 -14.1684 0.266733 0.310449 10
-5.72493 -14.1697 0.800923 0.310042 10
-5.68768 -14.0775 1.32835 0.587189 10
-5.68766 -14.0774 1.86424 0.585041 10
-5.68763 -14.0774 2.40474 0.58218 10
-5.68761 -14.0773 2.95125 0.57861 10
-5.68759 -14.0773 3.50523 0.574334 10
-5.68756 -14.0772 4.06821 0.569359 10
-3.61401 -9.03566 -2.60758 0.057944 4
-4.0954 -10.2392 -2.54599 0.0584687 4
-5.23 -13.0759 -2.73747 0.0722642 1
-5.62648 -14.0672 -2.39963 0.74825 10
-5.62645 -14.0671 -1.86026 0.751933 10
-9.47528 -23.6899 -2.23223 0.7547 10
-9.47524 -23.6898 -1.33715 0.756547 10
-9.4752 -23.6897 -0.445354 0.757473 10
-9.47517 -23.6896 0.445352 0.757476 10
-7.35749 -18.395 1.0383 0.0475821 10
-5.62632 -14.0668 1.32548 0.58846 10
-5.6263 -14.0668 1.86021 0.586307 10
-5.62628 -14.0667 2.39955 0.372457 10
-5.62626 -14.0666 2.94488 0.370173 10
-5.62624 -14.0666 3.49766 0.367437 10
-5.62621 -14.0665 4.05942 0.570592 10
-3.57608 -9.03215 -2.60295 0.0721283 4
-4.05956 -10.2533 -2.54594 0.0439817 4
-5.18421 -13.0938 -2.73741 0.0722659 1
-5.56538 -14.0566 -2.39449 0.749857 10
-5.56536 -14.0565 -1.85627 0.753548 10
-9.3724 -23.672 -2.22745 0.75632 10
-9.37236 -23.6719 -1.33429 0.758172 10
-9.37232 -23.6718 -0.4444 0.7591 10
-9.37229 -23.6717 0.444398 0.759103 10
-7.29383 -18.4221 1.03838 0.0475782 10
-5.56523 -14.0562 1.32264 0.589724 10
-5.56521 -14.0561 1.85622 0.587567 10
-5.59434 -14.1297 2.40695 0.373257 10
-5.59432 -14.1296 2.95396 0.370967 10
-5.5943 -14.1296 3.50844 0.368226 10
-5.56512 -14.0559 4.05072 0.571817 10
-3.53829 -9.02864 -2.59836 0.0873227 4
-4.02367 -10.2672 -2.54589 0.0595057 4
-5.13836 -13.1116 -2.73735 0.0722675 1
-5.50455 -14.046 -2.3894 0.751455 10
-5.50453 -14.0459 -1.85233 0.755154 10
-5.50451 -14.0459 -1.31985 0.500634 10
-5.50449 -14.0458 -0.790618 0.50186 10
-5.50447 -14.0457 -0.263324 0.502474 10
-5.50445 -14.0457 0.263323 0.502476 10
-5.50443 -14.0456 0.790609 0.501865 10
-5.50441 -14.0456 1.31982 0.590981 10
-5.50438 -14.0455 1.85228 0.588819 10
-5.5043 -14.0453 4.04211 0.573035 10
-3.50061 -9.02512 -2.59381 0.0834217 4
-3.98773 -10.281 -2.54584 0.0657163 4
-5.09245 -13.1291 -2.73729 0.0722691 1
-5.44398 -14.0354 -2.38436 0.753044 10
-5.44396 -14.0354 -1.84842 0.75675 10
-5.4628 -14.0839 -1.32163 0.302425 10
-5.46332 -14.0853 -0.791761 0.303135 10
-5.46383 -14.0866 -0.263731 0.303476 10
-5.46435 -14.0879 0.263756 0.303448 10
-5.46486 -14.0893 0.791985 0.303049 10
-5.44383 -14.035 1.31704 0.59223 10
-5.44381 -14.035 1.84837 0.590063 10
-5.44373 -14.0348 4.03358 0.574247 10
-3.46307 -9.0216 -2.58931 0.0696279 4
-3.95174 -10.2946 -2.5458 0.0677874 4
-5.04648 -13.1465 -2.73723 0.0722707 1
-5.38366 -14.0249 -2.37937 0.754623 10
-5.38364 -14.0249 -1.84455 0.758338 10
-5.44517 -14.1851 -1.32933 0.300672 10
-5.44569 -14.1865 -0.796378 0.301378 10
-5.4462 -14.1878 -0.265269 0.301717 10
-5.44672 -14.1892 0.265294 0.301688 10
-5.44724 -14.1905 0.796605 0.301292 10
-5.38352 -14.0245 1.31428 0.593473 10
-5.3835 -14.0245 1.8445 0.591301 10
-5.38341 -14.0243 4.02514 0.575451 10
-3.42564 -9.01806 -2.58485 0.088104 4
-3.91571 -10.3082 -2.54575 0.0667537 4
-5.00044 -13.1638 -2.73717 0.0722723 1
-5.32359 -14.0145 -2.37442 0.756194 10
-5.32357 -14.0144 -1.84072 0.759916 10
-8.96521 -23.6011 -2.20878 0.762712 10
-8.96517 -23.601 -1.32311 0.764579 10
-8.96514 -23.6009 -0.440676 0.765515 10
-8.96511 -23.6008 0.440674 0.765517 10
-7.0382 -18.5282 1.03872 0.0475627 10
-5.32345 -14.0141 1.31155 0.594708 10
-5.32343 -14.014 1.84067 0.592532 10
-5.32335 -14.0138 4.01678 0.576649 10
-3.38834 -9.01452 -2.58043 0.0812012 4
-3.87963 -10.3216 -2.5457 0.064685 4
-4.95435 -13.1808 -2.73711 0.0722739 1
-5.26377 -14.004 -2.36953 0.757755 10
-5.26375 -14.004 -1.83693 0.761485 10
-5.26373 -14.0039 -1.30888 0.504831 10
-5.26371 -14.0039 -0.784044 0.506067 10
-5.26369 -14.0038 -0.261135 0.506686 10
-5.26367 -14.0038 0.261134 0.506688 10
-5.26365 -14.0037 0.784036 0.506073 10
-5.26363 -14.0037 1.30885 0.595935 10
-5.26361 -14.0036 1.83688 0.593755 10
-5.26353 -14.0034 4.0085 0.577839 10
-3.35115 -9.01098 -2.57605 0.0629145 4
-3.84351 -10.3349 -2.54565 0.0755535 4
-4.9082 -13.1978 -2.73705 0.0722756 1
-5.2042 -13.9937 -2.36469 0.759307 10
-5.20418 -13.9936 -1.83317 0.763044 10
-5.20439 -13.9942 -1.30626 0.29539 10
-5.20489 -13.9955 -0.782555 0.296084 10
-5.2054 -13.9969 -0.260665 0.296416 10
-5.2059 -13.9982 0.26069 0.296388 10
-5.2064 -13.9996 0.782782 0.295998 10
-5.20406 -13.9933 1.30618 0.597156 10
-5.20404 -13.9932 1.83312 0.594971 10
-5.20396 -13.993 4.00031 0.579023 10
-3.31409 -9.00742 -2.57171 0.086306 4
-3.80734 -10.348 -2.5456 0.063135 4
-4.86199 -13.2145 -2.73698 0.0722772 1
-5.14487 -13.9833 -2.35989 0.76085 10
-5.14485 -13.9833 -1.82946 0.764595 10
-5.18654 -14.0966 -1.31412 0.293623 10
-5.18705 -14.098 -0.787267 0.294312 10
-5.18755 -14.0994 -0.262234 0.294642 10
-5.18806 -14.1007 0.26226 0.294614 10
-5.18856 -14.1021 0.787496 0.294226 10
-5.14473 -13.983 1.30353 0.598369 10
-5.14471 -13.9829 1.82941 0.59618 10
-5.14463 -13.9827 3.9922 0.580199 10
-3.27714 -9.00387 -2.56741 0.0813419 4
-3.77112 -10.3611 -2.54555 0.0693463 4
-4.81573 -13.2311 -2.73692 0.0722788 1
-5.08578 -13.9731 -2.35515 0.762383 10
-5.08576 -13.973 -1.82578 0.766136 10
-8.56471 -23.5313 -2.19085 0.768955 10
-8.56468 -23.5313 -1.31237 0.770837 10
-8.56465 -23.5312 -0.437098 0.77178 10
-8.56462 -23.5311 0.437096 0.771783 10
-6.78105 -18.6308 1.03906 0.047547 10
-5.08564 -13.9727 1.30091 0.599575 10
-5.08562 -13.9726 1.82573 0.597381 10
-5.11224 -14.0458 2.3674 0.379492 10
-5.11222 -14.0457 2.90543 0.377164 10
-5.1122 -14.0456 3.4508 0.374378 10
-5.08554 -13.9724 3.98417 0.581369 10
-3.24031 -9.0003 -2.56315 0.0746905 4
-3.73486 -10.374 -2.54551 0.06676 4
-4.7694 -13.2475 -2.73686 0.0722805 1
-5.02692 -13.9628 -2.35045 0.763907 10
-5.0269 -13.9628 -1.82213 0.767667 10
-5.02688 -13.9627 -1.29833 0.50893 10
-5.02686 -13.9626 -0.77773 0.510176 10
-5.02684 -13.9626 -0.259032 0.5108 10
-5.02683 -13.9625 0.259031 0.510802 10
-5.02681 -13.9625 0.777721 0.510181 10
-5.02679 -13.9624 1.29831 0.600774 10
-5.02677 -13.9624 1.82209 0.598576 10
-5.02669 -13.9622 3.97622 0.582531 10
-3.20359 -8.99673 -2.55894 0.0728101 4
-3.69855 -10.3867 -2.54546 0.0745242 4
-4.72302 -13.2638 -2.7368 0.0722821 1
-4.9683 -13.9526 -2.3458 0.765422 10
-4.96828 -13.9525 -1.81853 0.76919 10
-4.96826 -13.9525 -1.29577 0.509939 10
-4.96824 -13.9524 -0.776191 0.511187 10
-4.96822 -13.9524 -0.258519 0.511813 10
-4.9682 -13.9523 0.258518 0.511815 10
-4.96819 -13.9523 0.776182 0.511193 10
-4.96817 -13.9522 1.29574 0.601965 10
-4.96815 -13.9522 1.81848 0.599762 10
-4.82936 -13.5624 3.85755 0.583686 10
-3.16699 -8.99315 -2.55476 0.0674898 4
-3.6622 -10.3994 -2.54541 0.0667626 4
-4.67659 -13.2799 -2.73674 0.0722837 1
-4.90991 -13.9424 -2.34119 0.766928 10
-4.90989 -13.9424 -1.81496 0.770703 10
-4.92961 -13.9984 -1.29842 0.286517 10
-4.9301 -13.9998 -0.777862 0.287188 10
-4.93059 -14.0012 -0.259102 0.28751 10
-4.93108 -14.0026 0.259128 0.287482 10
-4.93157 -14.004 0.778094 0.287103 10
-4.90978 -13.9421 1.2932 0.603149 10
-4.90976 -13.942 1.81491 0.600942 10
-4.7726 -13.5525 3.84998 0.584834 10
-3.1305 -8.98956 -2.55062 0.0182778 4
-3.62581 -10.4119 -2.54536 0.079185 4
-4.6301 -13.2958 -2.73667 0.0722854 1
-4.85174 -13.9323 -2.33663 0.768424 10
-4.85173 -13.9323 -1.81142 0.772206 10
-4.91132 -14.1034 -1.30656 0.284732 10
-4.91181 -14.1048 -0.78274 0.285399 10
-4.9123 -14.1062 -0.260727 0.285718 10
-4.91279 -14.1076 0.260753 0.28569 10
-4.91329 -14.109 0.782975 0.285313 10
-4.85162 -13.9319 1.29068 0.604326 10
-4.8516 -13.9319 1.81138 0.602114 10
-4.71606 -13.5427 3.84248 0.585975 10
-3.09412 -8.98596 -2.54652 0.0260136 4
-3.58938 -10.4243 -2.54531 0.0553788 4
-4.58356 -13.3116 -2.73661 0.072287 1
-4.79381 -13.9222 -2.33212 0.76991 10
-4.79379 -13.9222 -1.80793 0.7737 10
-8.0061 -23.2514 -2.15145 0.776547 10
-8.00606 -23.2513 -1.28876 0.778448 10
-8.00604 -23.2512 -0.429237 0.779401 10
-8.00601 -23.2511 0.429235 0.779403 10
-6.45755 -18.7541 1.03949 0.0475273 10
-4.79368 -13.9219 1.28819 0.605495 10
-4.79366 -13.9218 1.80788 0.603279 10
-4.65975 -13.5329 3.83507 0.587108 10
-3.06014 -8.9891 -2.54437 0.0804198 4
-3.5529 -10.4366 -2.54526 0.0693543 4
-4.53696 -13.3272 -2.73655 0.0722887 1
-4.73609 -13.9122 -2.32765 0.771388 10
-4.73607 -13.9121 -1.80446 0.775185 10
-4.73605 -13.9121 -1.28574 0.513914 10
-4.73604 -13.912 -0.770188 0.515172 10
-4.73602 -13.912 -0.25652 0.515802 10
-4.736 -13.9119 0.256519 0.515804 10
-4.73598 -13.9119 0.770179 0.515177 10
-4.73597 -13.9118 1.28572 0.606657 10
-4.73595 -13.9118 1.80442 0.604437 10
-4.63711 -13.6214 3.85554 0.321466 10
-3.0287 -8.99958 -2.54432 0.0726769 4
-3.51638 -10.4487 -2.54521 0.0740138 4
-4.49031 -13.3427 -2.73649 0.0722903 1
-4.6786 -13.9022 -2.32323 0.772856 10
-4.67858 -13.9021 -1.80104 0.77666 10
-4.67856 -13.9021 -1.2833 0.514892 10
-4.67854 -13.902 -0.768725 0.516152 10
-4.67853 -13.902 -0.256033 0.516784 10
-4.67851 -13.9019 0.256031 0.516786 10
-4.67849 -13.9019 0.768717 0.516158 10
-4.67847 -13.9018 1.28328 0.607811 10
-4.67846 -13.9017 1.80099 0.605587 10
-4.67839 -13.9015 3.93018 0.589354 10
-2.99721 -9.00995 -2.54428 0.0756567 4
-3.47982 -10.4607 -2.54517 0.0688393 4
-4.44361 -13.358 -2.73642 0.072292 1
-4.62132 -13.8922 -2.31886 0.774315 10
-4.6213 -13.8921 -1.79764 0.778126 10
-4.65593 -13.9962 -1.29049 0.277556 10
-4.65641 -13.9977 -0.773112 0.278206 10
-4.65689 -13.9991 -0.257521 0.278516 10
-4.65737 -14.0006 0.257547 0.278488 10
-4.65785 -14.002 0.77335 0.27812 10
-4.6212 -13.8918 1.28086 0.608958 10
-4.62118 -13.8918 1.7976 0.60673 10
-4.64537 -13.9645 2.33092 0.385431 10
-4.64535 -13.9644 2.86066 0.383067 10
-4.64533 -13.9644 3.39763 0.380236 10
-4.62111 -13.8916 3.92278 0.590467 10
-2.96569 -9.02021 -2.54424 0.066722 4
-3.44322 -10.4726 -2.54512 0.0797102 4
-4.39685 -13.3731 -2.73636 0.0722936 1
-4.56425 -13.8823 -2.31452 0.775764 10
-4.56424 -13.8822 -1.79428 0.779582 10
-7.62272 -23.1846 -2.13521 0.782451 10
-7.6227 -23.1846 -1.27904 0.784366 10
-7.62267 -23.1845 -0.425998 0.785326 10
-7.62264 -23.1844 0.425996 0.785329 10
-6.19714 -18.8487 1.03984 0.0475114 10
-4.56414 -13.8819 1.27847 0.610098 10
-4.56412 -13.8818 1.79424 0.607866 10
-4.5641 -13.8818 2.31445 0.604893 10
-4.56408 -13.8817 2.84044 0.601183 10
-4.56407 -13.8817 3.37361 0.596741 10
-4.56405 -13.8816 3.91545 0.591572 10
-2.93414 -9.03035 -2.5442 0.0839996 4
-3.40657 -10.4843 -2.54507 0.0559018 4
-4.35004 -13.3881 -2.7363 0.0722953 1
-4.5074 -13.8724 -2.31024 0.777203 10
-4.50739 -13.8723 -1.79096 0.781029 10
-7.53204 -23.1812 -2.13247 0.414742 10
-7.53283 -23.1837 -1.27753 0.415712 10
-7.53361 -23.1861 -0.425542 0.416176 10
-7.5344 -23.1885 0.425586 0.416133 10
-6.13182 -18.8718 1.03993 0.0475075 10
-4.50729 -13.872 1.2761 0.61123 10
-4.50727 -13.8719 1.79091 0.608994 10
-4.50725 -13.8719 2.31016 0.606016 10
-4.50724 -13.8718 2.83518 0.602299 10
-4.50722 -13.8718 3.36737 0.597848 10
-4.5072 -13.8717 3.9082 0.59267 10
-2.90255 -9.04039 -2.54416 0.0643412 4
-3.36989 -10.496 -2.54502 0.0698786 4
-4.30319 -13.4028 -2.73624 0.072297 1
-4.45076 -13.8625 -2.30599 0.778634 10
-4.45075 -13.8624 -1.78767 0.782466 10
-4.45073 -13.8624 -1.27378 0.518741 10
-4.45071 -13.8623 -0.763021 0.520011 10
-4.4507 -13.8623 -0.254133 0.520647 10
-4.45068 -13.8622 0.254132 0.520649 10
-4.45066 -13.8622 0.763012 0.520016 10
-4.45065 -13.8621 1.27376 0.612355 10
-4.45063 -13.8621 1.78763 0.610114 10
-4.45061 -13.862 2.30592 0.607131 10
-4.4506 -13.862 2.82997 0.603407 10
-4.45058 -13.8619 3.36118 0.598949 10
-4.45056 -13.8619 3.90102 0.59376 10
-2.87093 -9.05031 -2.54411 0.0679169 4
-3.33317 -10.5075 -2.54497 0.0750562 4
-4.25628 -13.4175 -2.73617 0.0722986 1
-4.39433 -13.8527 -2.30179 0.780054 10
-4.39431 -13.8526 -1.78442 0.783894 10
-4.40244 -13.8782 -1.27381 0.270326 10
-4.4029 -13.8797 -0.763126 0.270958 10
-4.40337 -13.8812 -0.254195 0.27126 10
-4.40383 -13.8826 0.254222 0.271232 10
-4.4043 -13.8841 0.763367 0.270873 10
-4.39422 -13.8523 1.27144 0.613472 10
-4.3942 -13.8523 1.78437 0.611228 10
-4.39418 -13.8522 2.30172 0.608239 10
-4.39416 -13.8522 2.82481 0.604508 10
-4.39415 -13.8521 3.35506 0.600041 10
-4.39413 -13.8521 3.89392 0.594844 10
-2.83927 -9.06013 -2.54407 0.096515 4
-3.2964 -10.5188 -2.54492 0.0724695 4
-4.20932 -13.4319 -2.73611 0.0723003 1
-4.3381 -13.8429 -2.29764 0.781466 10
-4.33808 -13.8428 -1.78119 0.785312 10
-4.38341 -13.9875 -1.28243 0.268511 10
-4.38387 -13.989 -0.768287 0.269138 10
-4.38434 -13.9904 -0.255915 0.269438 10
-4.3848 -13.9919 0.255942 0.269409 10
-4.38527 -13.9934 0.768532 0.269052 10
-4.33799 -13.8425 1.26914 0.614582 10
-4.33797 -13.8425 1.78115 0.612333 10
-4.33795 -13.8424 2.29756 0.609339 10
-4.33794 -13.8424 2.81971 0.605602 10
-4.33792 -13.8423 3.349 0.601127 10
-4.3379 -13.8423 3.88689 0.59592 10
-2.80758 -9.06984 -2.54403 0.0697065 4
-3.2596 -10.5301 -2.54487 0.0584943 4
-4.16231 -13.4462 -2.73605 0.072302 1
-4.28207 -13.8331 -2.29352 0.782867 10
-4.28205 -13.8331 -1.778 0.786721 10
-7.21123 -23.2957 -2.13353 0.789616 10
-7.2112 -23.2956 -1.27803 0.791548 10
-7.21118 -23.2955 -0.425662 0.792517 10
-7.21115 -23.2955 0.42566 0.79252 10
-5.86971 -18.962 1.04028 0.0474914 10
-4.28196 -13.8328 1.26687 0.615685 10
-4.28194 -13.8327 1.77796 0.613432 10
-4.28193 -13.8327 2.29345 0.610432 10
-4.28191 -13.8326 2.81466 0.606688 10
-4.28189 -13.8326 3.343 0.602205 10
-4.28188 -13.8325 3.87993 0.596989 10
-2.77586 -9.07943 -2.54399 0.0554086 4
-3.46331 -11.328 -2.73477 0.0852791 1
-4.11525 -13.4604 -2.73598 0.0723036 1
-4.22624 -13.8234 -2.28945 0.78426 10
-4.22623 -13.8234 -1.77485 0.78812 10
-4.22621 -13.8233 -1.26464 0.522489 10
-4.22619 -13.8233 -0.757547 0.523768 10
-4.22618 -13.8232 -0.25231 0.524409 10
-4.22616 -13.8232 0.252309 0.524411 10
-4.22615 -13.8231 0.757539 0.523774 10
-4.22613 -13.8231 1.26462 0.616779 10
-4.22612 -13.823 1.7748 0.614523 10
-4.2261 -13.823 2.28938 0.611517 10
-4.22609 -13.8229 2.80967 0.607767 10
-4.22607 -13.8228 3.33707 0.603276 10
-4.22605 -13.8228 3.87304 0.59805 10
-2.7441 -9.08891 -2.54394 0.0619634 4
-3.42368 -11.3398 -2.73471 0.0852808 1
-4.06815 -13.4744 -2.73592 0.0723053 1
-4.17061 -13.8137 -2.28542 0.785642 10
-4.1706 -13.8137 -1.77172 0.789509 10
-4.17058 -13.8136 -1.26242 0.52341 10
-4.17057 -13.8136 -0.756214 0.524691 10
-4.17055 -13.8135 -0.251866 0.525333 10
-4.17053 -13.8135 0.251865 0.525335 10
-4.17052 -13.8134 0.756206 0.524697 10
-4.1705 -13.8134 1.26239 0.617867 10
-4.17049 -13.8133 1.77168 0.615606 10
-4.17047 -13.8133 2.28535 0.612595 10
-4.17046 -13.8132 2.80472 0.608838 10
-4.17044 -13.8132 3.3312 0.60434 10
-4.17043 -13.8131 3.86622 0.599104 10
-2.71232 -9.09828 -2.5439 0.0852011 4
-3.38401 -11.3514 -2.73466 0.0852824 1
-4.021 -13.4882 -2.73586 0.072307 1
-4.11517 -13.8041 -2.28144 0.787015 10
-4.11516 -13.804 -1.76863 0.790889 10
-4.13167 -13.8594 -1.26527 0.261215 10
-4.13212 -13.8609 -0.758012 0.261825 10
-4.13257 -13.8624 -0.252493 0.262116 10
-4.13302 -13.8639 0.25252 0.262087 10
-4.13347 -13.8655 0.75826 0.261739 10
-4.11507 -13.8037 1.26019 0.618947 10
-4.11505 -13.8037 1.76859 0.616682 10
-4.11504 -13.8036 2.28136 0.613666 10
-4.11502 -13.8036 2.79983 0.609902 10
-4.11501 -13.8035 3.32539 0.605396 10
-4.11499 -13.8035 3.85948 0.600151 10
-2.68049 -9.10754 -2.54386 0.0857984 4
-3.3443 -11.363 -2.7346 0.0852841 1
-3.9738 -13.5018 -2.73579 0.0723087 1
-4.05993 -13.7945 -2.27749 0.788379 10
-4.05991 -13.7944 -1.76557 0.792259 10
-4.1121 -13.9717 -1.27421 0.259383 10
-4.11255 -13.9733 -0.763366 0.259989 10
-4.11301 -13.9748 -0.254276 0.260277 10
-4.11346 -13.9763 0.254304 0.260249 10
-4.11391 -13.9779 0.763617 0.259903 10
-4.05983 -13.7941 1.25801 0.620019 10
-4.05981 -13.7941 1.76553 0.61775 10
-4.0598 -13.794 2.27741 0.614729 10
-4.05978 -13.7939 2.79499 0.610959 10
-4.05977 -13.7939 3.31963 0.606444 10
-4.05975 -13.7938 3.8528 0.601191 10
-2.64864 -9.11668 -2.54381 0.0399207 4
-3.30455 -11.3743 -2.73455 0.0852858 1
-3.92655 -13.5153 -2.73573 0.0723103 1
-4.00488 -13.7849 -2.27358 0.789733 10
-4.00486 -13.7848 -1.76255 0.79362 10
-6.74442 -23.2144 -2.11498 0.79654 10
-6.74439 -23.2144 -1.26692 0.79849 10
-6.74437 -23.2143 -0.421961 0.799467 10
-6.74435 -23.2142 0.421959 0.79947 10
-5.54024 -19.0696 1.04072 0.0474713 10
-4.00477 -13.7845 1.25585 0.621084 10
-4.00476 -13.7845 1.7625 0.618811 10
-4.00474 -13.7844 2.27351 0.615785 10
-4.00473 -13.7844 2.7902 0.612008 10
-4.00471 -13.7843 3.31394 0.607486 10
-4.0047 -13.7843 3.8462 0.602224 10
-2.61676 -9.12572 -2.54377 0.0166836 4
-3.26476 -11.3856 -2.7345 0.0852874 1
-3.87926 -13.5286 -2.73567 0.072312 1
-3.95001 -13.7753 -2.26972 0.791077 10
-3.95 -13.7753 -1.75955 0.794971 10
-3.94998 -13.7752 -1.25374 0.527031 10
-3.94997 -13.7752 -0.751019 0.528321 10
-3.94995 -13.7751 -0.250135 0.528967 10
-3.94994 -13.7751 0.250134 0.528969 10
-3.94992 -13.775 0.751011 0.528327 10
-3.94991 -13.775 1.25372 0.622141 10
-3.9499 -13.7749 1.75951 0.619864 10
-3.94988 -13.7749 2.26965 0.616833 10
-3.94987 -13.7748 2.78546 0.61305 10
-3.94985 -13.7748 3.30831 0.60852 10
-3.94984 -13.7747 3.83966 0.603249 10
-2.58485 -9.13465 -2.54373 0.0494557 4
-3.22494 -11.3967 -2.73444 0.0852891 1
-3.83192 -13.5417 -2.7356 0.0723137 1
-3.89533 -13.7658 -2.2659 0.792412 10
-3.89531 -13.7657 -1.75659 0.796312 10
-3.8953 -13.7657 -1.25163 0.52792 10
-3.89529 -13.7656 -0.749754 0.529212 10
-3.89527 -13.7656 -0.249714 0.52986 10
-3.89526 -13.7655 0.249713 0.529862 10
-3.89524 -13.7655 0.749746 0.529218 10
-3.89523 -13.7654 1.25161 0.62319 10
-3.89522 -13.7654 1.75654 0.62091 10
-3.8952 -13.7653 2.26582 0.617874 10
-3.89519 -13.7653 2.78077 0.614084 10
-3.89517 -13.7652 3.30274 0.609546 10
-3.89516 -13.7652 3.8332 0.604266 10
-2.5529 -9.14346 -2.54369 0.0631614 4
-3.18507 -11.4076 -2.73439 0.0852908 1
-3.78454 -13.5547 -2.73554 0.0723154 1
-3.84083 -13.7563 -2.26212 0.793737 10
-3.84082 -13.7563 -1.75366 0.797643 10
-3.86222 -13.8329 -1.25651 0.252025 10
-3.86266 -13.8345 -0.752766 0.252612 10
-3.8631 -13.8361 -0.250746 0.252891 10
-3.86354 -13.8376 0.250775 0.252863 10
-3.86397 -13.8392 0.753021 0.252526 10
-3.84073 -13.756 1.24952 0.624232 10
-3.84072 -13.7559 1.75361 0.621948 10
-3.84071 -13.7559 2.26204 0.618907 10
-3.84069 -13.7558 2.77612 0.615111 10
-3.84068 -13.7558 3.29723 0.610566 10
-3.84066 -13.7557 3.8268 0.605277 10
-2.52093 -9.15216 -2.54364 0.069717 4
-3.14517 -11.4185 -2.73434 0.0852925 1
-3.73712 -13.5675 -2.73547 0.0723171 1
-3.78652 -13.7469 -2.25837 0.795052 10
-3.7865 -13.7468 -1.75076 0.798965 10
-6.37669 -23.1504 -2.10083 0.801905 10
-6.37667 -23.1503 -1.25844 0.803868 10
-6.37664 -23.1503 -0.419138 0.804851 10
-6.37662 -23.1502 0.419136 0.804854 10
-5.27525 -19.1517 1.04108 0.0474551 10
-3.78642 -13.7465 1.24745 0.625267 10
-3.78641 -13.7465 1.75071 0.622979 10
-3.78639 -13.7464 2.2583 0.619932 10
-3.78638 -13.7464 2.77153 0.61613 10
-3.78636 -13.7463 3.29177 0.611577 10
-3.78635 -13.7462 3.82047 0.60628 10
-2.48892 -9.16075 -2.5436 0.0887865 4
-3.10523 -11.4292 -2.73428 0.0852941 1
-3.68965 -13.5802 -2.73541 0.0723188 1
-3.73238 -13.7374 -2.25467 0.796357 10
-3.73236 -13.7374 -1.74789 0.800277 10
-6.28552 -23.1346 -2.09738 0.803222 10
-6.2855 -23.1345 -1.25638 0.805188 10
-6.28547 -23.1344 -0.418451 0.806173 10
-6.28545 -23.1343 0.418449 0.806176 10
-5.20881 -19.1716 1.04116 0.047451 10
-3.73228 -13.7371 1.24541 0.626293 10
-3.73227 -13.737 1.74784 0.624002 10
-3.73226 -13.737 2.2546 0.62095 10
-3.73224 -13.7369 2.76699 0.617142 10
-3.73223 -13.7369 3.28638 0.612582 10
-3.73221 -13.7368 3.8142 0.607275 10
-2.45689 -9.16922 -2.54356 0.06674 4
-3.06526 -11.4397 -2.73423 0.0852958 1
-3.64214 -13.5926 -2.73535 0.0723205 1
-3.67842 -13.728 -2.25101 0.797653 10
-3.6784 -13.728 -1.74505 0.801579 10
-3.67839 -13.7279 -1.24341 0.804529 10
-3.67838 -13.7279 -0.744827 0.806498 10
-3.67836 -13.7278 -0.248073 0.807485 10
-3.67835 -13.7278 0.248072 0.807488 10
-3.67834 -13.7277 0.744819 0.806507 10
-3.67832 -13.7277 1.24338 0.627312 10
-3.67831 -13.7276 1.745 0.625017 10
-3.6783 -13.7276 2.25094 0.621961 10
-3.67828 -13.7275 2.76249 0.618146 10
-3.67827 -13.7275 3.28104 0.613578 10
-3.67826 -13.7274 3.80801 0.608263 10
-2.42482 -9.17759 -2.54351 0.0822346 4
-3.02525 -11.4501 -2.73417 0.0852975 1
-3.59458 -13.6049 -2.73528 0.0723222 1
-3.62463 -13.7187 -2.24738 0.798939 10
-3.62462 -13.7186 -1.74224 0.802872 10
-3.6246 -13.7186 -1.24141 0.805826 10
-3.62459 -13.7185 -0.743628 0.807799 10
-3.62458 -13.7185 -0.247674 0.808787 10
-3.62456 -13.7184 0.247673 0.80879 10
-3.62455 -13.7184 0.74362 0.807807 10
-3.62454 -13.7183 1.24138 0.628324 10
-3.62453 -13.7183 1.74219 0.626025 10
-3.62451 -13.7182 2.24731 0.622963 10
-3.6245 -13.7182 2.75804 0.619143 10
-3.62449 -13.7181 3.27576 0.614568 10
-3.62447 -13.7181 3.80188 0.609244 10
-2.39273 -9.18584 -2.54347 0.0786605 4
-2.9852 -11.4604 -2.73412 0.0852992 1
-3.54699 -13.6171 -2.73522 0.0723239 1
-3.57102 -13.7093 -2.2438 0.800216 10
-3.571 -13.7093 -1.73946 0.804155 10
-3.57099 -13.7092 -1.23942 0.807114 10
-3.57098 -13.7092 -0.742442 0.809089 10
-3.57096 -13.7091 -0.247279 0.810079 10
-3.57095 -13.7091 0.247278 0.810082 10
-3.57094 -13.709 0.742434 0.809098 10
-3.57092 -13.709 1.2394 0.629328 10
-3.57091 -13.7089 1.73941 0.627025 10
-3.5709 -13.7089 2.24373 0.623959 10
-3.57089 -13.7088 2.75365 0.620132 10
-3.57087 -13.7088 3.27053 0.61555 10
-3.57086 -13.7087 3.79581 0.610217 10
-2.36061 -9.19398 -2.54343 0.07747 4
-2.94512 -11.4705 -2.73407 0.0853009 1
-3.49935 -13.6291 -2.73515 0.0723256 1
-3.51757 -13.7 -2.24025 0.801483 10
-3.51756 -13.7 -1.73671 0.805427 10
-3.51755 -13.6999 -1.23747 0.808391 10
-3.51753 -13.6999 -0.741269 0.81037 10
-3.51752 -13.6998 -0.246888 0.811361 10
-3.51751 -13.6998 0.246887 0.811364 10
-3.5175 -13.6997 0.741261 0.810378 10
-3.51748 -13.6997 1.23744 0.630324 10
-3.51747 -13.6996 1.73666 0.628018 10
-3.51746 -13.6996 2.24018 0.624946 10
-3.51745 -13.6995 2.74929 0.621113 10
-3.51743 -13.6995 3.26536 0.616524 10
-3.51742 -13.6994 3.78982 0.611183 10
-2.32847 -9.20201 -2.54338 0.0673404 4
-2.90501 -11.4805 -2.73401 0.0853026 1
-3.45167 -13.6409 -2.73509 0.0723273 1
-3.4643 -13.6908 -2.23675 0.80274 10
-3.46428 -13.6907 -1.73399 0.806691 10
-3.46427 -13.6907 -1.23553 0.809659 10
-3.46426 -13.6906 -0.740108 0.811641 10
-3.46425 -13.6906 -0.246501 0.812634 10
-3.46423 -13.6905 0.2465 0.812637 10
-3.46422 -13.6905 0.7401 0.811649 10
-3.46421 -13.6904 1.23551 0.631312 10
-3.4642 -13.6904 1.73395 0.629003 10
-3.46418 -13.6903 2.23667 0.625926 10
-3.46417 -13.6903 2.74499 0.622087 10
-3.46416 -13.6902 3.26025 0.617491 10
-3.46414 -13.6902 3.78388 0.612142 10
-2.29629 -9.20992 -2.54334 0.06317 4
-2.86486 -11.4903 -2.73396 0.0853043 1
-3.40396 -13.6525 -2.73502 0.072329 1
-3.41118 -13.6815 -2.23328 0.803987 10
-3.41117 -13.6815 -1.7313 0.807944 10
-3.41116 -13.6814 -1.23361 0.810917 10
-3.41115 -13.6814 -0.73896 0.812902 10
-3.41114 -13.6813 -0.246119 0.813896 10
-3.41112 -13.6813 0.246118 0.813899 10
-3.41111 -13.6812 0.738952 0.81291 10
-3.4111 -13.6812 1.23359 0.632293 10
-3.41109 -13.6811 1.73126 0.62998 10
-3.31583 -13.2991 2.17085 0.626899 10
-3.31582 -13.299 2.66421 0.623054 10
-3.31581 -13.299 3.1643 0.61845 10
-3.3158 -13.2989 3.67253 0.613093 10
-2.26409 -9.21772 -2.5433 0.0721104 4
-2.82467 -11.5 -2.7339 0.085306 1
-3.3562 -13.664 -2.73496 0.0723307 1
-3.35824 -13.6723 -2.22984 0.805224 10
-3.35823 -13.6722 -1.72864 0.809187 10
-3.35821 -13.6722 -1.23172 0.812165 10
-3.3582 -13.6721 -0.737825 0.814153 10
-3.35819 -13.6721 -0.245741 0.815149 10
-3.35818 -13.672 0.24574 0.815152 10
-3.35817 -13.672 0.737817 0.814161 10
-3.35815 -13.6719 1.23169 0.633266 10
-3.35814 -13.6719 1.7286 0.630949 10
-3.26437 -13.2901 2.16751 0.627863 10
-3.26435 -13.2901 2.66011 0.624013 10
-3.26434 -13.29 3.15944 0.619402 10
-3.26433 -13.29 3.66688 0.614036 10
-2.23186 -9.22541 -2.54325 0.0643641 4
-2.78446 -11.5096 -2.73385 0.0853077 1
-3.30547 -13.6632 -2.73246 0.8015 10
-3.30545 -13.6631 -2.22645 0.806451 10
-3.30544 -13.6631 -1.72601 0.810421 10
-3.30543 -13.663 -1.22984 0.813403 10
-3.30542 -13.663 -0.736701 0.815394 10
-3.30541 -13.6629 -0.245367 0.816391 10
-3.3054 -13.6629 0.245366 0.816394 10
-3.30538 -13.6628 0.736694 0.815403 10
-3.30537 -13.6628 1.22982 0.634232 10
-3.30536 -13.6627 1.72596 0.631911 10
-3.22425 -13.3274 2.17175 0.272947 10
-3.22465 -13.3291 2.66566 0.271237 10
-3.22506 -13.3308 3.16644 0.269198 10
-3.22548 -13.3325 3.6755 0.26683 10
-2.19961 -9.23299 -2.54321 0.0965478 4
-2.74421 -11.519 -2.73379 0.0853094 1
-3.25284 -13.654 -2.72834 0.80271 10
-3.25283 -13.6539 -2.22309 0.807669 10
-3.25282 -13.6539 -1.72341 0.811645 10
-3.25281 -13.6538 -1.22799 0.814631 10
-3.25279 -13.6538 -0.735591 0.816625 10
-3.25278 -13.6537 -0.244997 0.817624 10
-3.25277 -13.6537 0.244996 0.817627 10
-3.25276 -13.6536 0.735583 0.816634 10
-3.25275 -13.6536 1.22797 0.635189 10
-3.25274 -13.6535 1.72336 0.632865 10
-3.20349 -13.4468 2.18937 0.27075 10
-3.20389 -13.4485 2.68729 0.269054 10
-3.2043 -13.4503 3.19214 0.267031 10
-3.20472 -13.452 3.70533 0.264682 10
-2.16733 -9.24045 -2.54316 0.0715181 4
-2.70393 -11.5283 -2.73374 0.0853111 1
-3.20037 -13.6449 -2.72427 0.80391 10
-3.20036 -13.6448 -2.21977 0.808877 10
-3.20035 -13.6448 -1.72083 0.812858 10
-3.20034 -13.6447 -1.22615 0.815849 10
-3.20033 -13.6447 -0.734492 0.817846 10
-3.20032 -13.6446 -0.244631 0.818847 10
-3.2003 -13.6446 0.24463 0.81885 10
-3.20029 -13.6445 0.734485 0.817855 10
-3.20028 -13.6445 1.22613 0.636139 10
-3.20027 -13.6444 1.72079 0.633812 10
-3.18239 -13.5682 2.20731 0.26855 10
-3.18279 -13.5699 2.7093 0.266868 10
-3.18321 -13.5717 3.2183 0.264861 10
-3.18363 -13.5735 3.7357 0.262531 10
-2.13502 -9.2478 -2.54312 0.0560235 4
-2.66362 -11.5374 -2.73369 0.0853128 1
-3.14806 -13.6357 -2.72024 0.805101 10
-3.14805 -13.6357 -2.21649 0.810075 10
-3.14804 -13.6356 -1.71829 0.814062 10
-3.15815 -13.6795 -1.22828 0.344842 10
-3.15855 -13.6812 -0.73586 0.345641 10
-3.15895 -13.6829 -0.245118 0.34602 10
-3.15934 -13.6846 0.245149 0.345976 10
-3.15974 -13.6863 0.736137 0.345512 10
-3.14797 -13.6354 1.22432 0.637081 10
-3.14796 -13.6353 1.71824 0.63475 10
-3.14795 -13.6353 2.21642 0.403231 10
-3.14794 -13.6352 2.72013 0.400757 10
-3.14793 -13.6352 3.23073 0.397796 10
-3.14391 -13.6178 3.74485 0.179951 10
-2.10269 -9.25504 -2.54308 0.0572165 4
-2.62328 -11.5464 -2.73363 0.0853145 1
-3.0959 -13.6267 -2.71626 0.806282 10
-3.09589 -13.6266 -2.21325 0.811263 10
-3.09588 -13.6266 -1.71577 0.815256 10
-3.13634 -13.8047 -1.23853 0.341988 10
-3.13674 -13.8064 -0.742002 0.34278 10
-3.13714 -13.8081 -0.247164 0.343155 10
-3.13753 -13.8099 0.247195 0.343112 10
-3.13793 -13.8116 0.742283 0.34265 10
-3.09581 -13.6263 1.22252 0.638016 10
-3.0958 -13.6262 1.71573 0.635681 10
-3.11201 -13.6975 2.22477 0.403822 10
-3.112 -13.6975 2.73038 0.401345 10
-3.11198 -13.6975 3.24289 0.39838 10
-3.09576 -13.626 3.74413 0.394929 10
-2.07034 -9.26216 -2.54303 0.081058 4
-2.58291 -11.5553 -2.73358 0.0853162 1
-3.0439 -13.6176 -2.71232 0.807453 10
-3.04389 -13.6176 -2.21004 0.812441 10
-3.04388 -13.6175 -1.71328 0.81644 10
-3.11416 -13.932 -1.24897 0.339129 10
-3.11456 -13.9337 -0.748257 0.339915 10
-3.11496 -13.9355 -0.249248 0.340286 10
-3.11535 -13.9373 0.24928 0.340243 10
-3.11575 -13.9391 0.748543 0.339785 10
-3.04381 -13.6172 1.22075 0.638942 10
-3.0438 -13.6172 1.71324 0.636604 10
-3.04376 -13.617 3.7387 0.395502 10
-2.03796 -9.26917 -2.54299 0.0894038 4
-2.54251 -11.564 -2.73352 0.0853179 1
-2.99204 -13.6086 -2.70842 0.808614 10
-2.99203 -13.6085 -2.20686 0.81361 10
-2.99202 -13.6085 -1.71082 0.817614 10
-5.03874 -22.9175 -2.05291 0.820623 10
-5.03872 -22.9174 -1.22974 0.822631 10
