VERSION 0.7
FIELDS x y z intensity label
SIZE 4 4 4 4 4
TYPE F F F F F
COUNT 1 1 1 1 1
WIDTH 1242
HEIGHT 1
VIEWPOINT 12.7681 35.9948 2.72836 0.621283 -0.00085451 0.000396717 0.783586
POINTS 1242
DATA ascii
28.8626 -9.71334 4.82332 0.063934 10
28.8591 -9.71215 7.02982 0.0630309 10
28.8572 -9.71154 8.1584 0.0624638 10
8.93565 -2.9725 -2.5233 0.0858818 4
10.6791 -3.55247 -2.59831 0.205902 4
12.8347 -4.26954 -2.62923 0.0106501 4
15.7225 -5.23017 -2.62436 0.0554018 4
20.5413 -6.8332 -2.65805 0.250769 4
28.8989 -9.61341 -2.66455 0.0622506 10
28.8972 -9.61283 -1.59604 0.0623824 10
28.8955 -9.61227 -0.531548 0.0624382 10
28.8921 -9.61113 1.59575 0.0623216 10
28.8904 -9.61056 2.66376 0.0621494 10
28.8887 -9.60999 3.73819 0.0619014 10
28.8869 -9.60941 4.82175 0.061578 10
28.8834 -9.60823 7.02753 0.0607067 10
28.8816 -9.60763 8.15575 0.0601598 10
8.94586 -2.94125 -2.52327 0.0948916 4
10.6885 -3.51422 -2.5976 0.226418 4
12.8493 -4.22463 -2.62918 0.0217443 4
15.7403 -5.17514 -2.6243 0.0816466 4
20.5589 -6.75942 -2.65725 0.238412 4
28.9233 -9.50949 -2.66372 0.0598736 10
28.9216 -9.50893 -1.59554 0.0599996 10
28.9198 -9.50837 -0.531382 0.0600525 10
28.9164 -9.50725 1.59525 0.0599388 10
28.9147 -9.50668 2.66293 0.0597724 10
28.913 -9.50612 3.73703 0.0595331 10
28.9113 -9.50554 4.82024 0.0592213 10
28.9077 -9.50438 7.02534 0.0583817 10
28.9059 -9.50378 8.1532 0.057855 10
8.95596 -2.90997 -2.52324 0.0678664 4
10.6979 -3.47597 -2.59692 0.232789 4
12.8637 -4.17968 -2.62914 0.0257386 4
15.7579 -5.12006 -2.62425 0.0732648 4
20.5764 -6.68567 -2.65648 0.19701 4
28.9476 -9.40565 -2.66292 0.0574958 10
28.9459 -9.40509 -1.59506 0.057616 10
28.9442 -9.40453 -0.531222 0.057666 10
28.9408 -9.40342 1.59477 0.0575553 10
28.939 -9.40287 2.66213 0.0573946 10
28.9373 -9.40231 3.7359 0.0571641 10
28.9356 -9.40174 4.81879 0.0568639 10
28.932 -9.40059 7.02323 0.0560561 10
28.9302 -9.4 8.15075 0.0555495 10
8.96595 -2.87865 -2.52321 0.0864857 4
10.7073 -3.43775 -2.59626 0.221854 4
12.878 -4.13468 -2.62909 0.0124258 4
15.7753 -5.06491 -2.62419 0.0729019 4
20.5939 -6.61197 -2.65574 0.217814 4
28.9719 -9.30186 -2.66215 0.0551174 10
28.9702 -9.30131 -1.5946 0.0552318 10
28.9685 -9.30076 -0.531069 0.0552789 10
28.9651 -9.29966 1.59432 0.055171 10
28.9633 -9.29911 2.66136 0.0550162 10
28.9616 -9.29856 3.73483 0.0547943 10
28.9599 -9.298 4.8174 0.0545057 10
28.9563 -9.29686 7.0212 0.0537298 10
28.9545 -9.29628 8.14841 0.0532433 10
8.99122 -2.85218 -2.5275 0.0263917 4
10.7167 -3.39953 -2.59564 0.154246 4
12.8921 -4.08963 -2.62904 0.0119822 4
15.7926 -5.00971 -2.62413 0.0725389 4
20.6113 -6.5383 -2.65503 0.255226 4
28.9962 -9.19813 -2.66142 0.0527383 10
28.9945 -9.19759 -1.59416 0.0528468 10
28.9928 -9.19705 -0.530923 0.052891 10
28.9893 -9.19596 1.59388 0.052786 10
28.9876 -9.19542 2.66063 0.052637 10
28.9859 -9.19487 3.7338 0.0524239 10
28.9842 -9.19432 4.81608 0.0521469 10
28.9806 -9.19319 7.01927 0.0514027 10
28.9788 -9.19262 8.14616 0.0509365 10
9.12462 -2.85948 -2.56218 0.0290561 4
10.726 -3.36133 -2.59504 0.16689 4
12.9061 -4.04453 -2.629 0.0323969 4
15.8096 -4.95444 -2.62408 0.0780083 4
20.6288 -6.46467 -2.65436 0.263599 4
29.0205 -9.09446 -2.66072 0.0503585 10
29.0187 -9.09392 -1.59374 0.0504612 10
29.017 -9.09339 -0.530783 0.0505025 10
29.0136 -9.09232 1.59346 0.0504005 10
29.0119 -9.09178 2.65993 0.0502573 10
29.0102 -9.09124 3.73281 0.0500529 10
29.0084 -9.09069 4.81481 0.0497875 10
29.0049 -9.08958 7.01742 0.0490751 10
29.0031 -9.08901 8.14401 0.048629 10
9.26166 -2.86696 -2.59783 0.0287953 4
10.7353 -3.32313 -2.59447 0.223635 4
12.9199 -3.99939 -2.62895 0.0128702 4
15.8265 -4.89912 -2.62402 0.0798326 4
20.6462 -6.39107 -2.65372 0.26782 4
29.0447 -8.99085 -2.66005 0.0479782 10
29.043 -8.99031 -1.59334 0.0480751 10
29.0413 -8.98978 -0.530649 0.0481134 10
29.0379 -8.98872 1.59305 0.0480143 10
29.0361 -8.98819 2.65926 0.0478769 10
29.0344 -8.98766 3.73187 0.0476812 10
29.0327 -8.98712 4.8136 0.0474274 10
29.0291 -8.98602 7.01565 0.0467469 10
29.0273 -8.98546 8.14197 0.046321 10
9.40247 -2.87463 -2.6345 0.0301311 4
10.7446 -3.28496 -2.59393 0.234725 4
12.9336 -3.9542 -2.62891 0.0328418 4
15.8432 -4.84375 -2.62397 0.0736371 4
20.6636 -6.31751 -2.6531 0.309419 4
29.069 -8.88729 -2.65941 0.0455974 10
29.0673 -8.88676 -1.59296 0.0456885 10
29.0655 -8.88624 -0.530522 0.0457239 10
29.0621 -8.88519 1.59267 0.0456277 10
29.0604 -8.88466 2.65862 0.0454961 10
29.0587 -8.88413 3.73098 0.0453092 10
29.0569 -8.8836 4.81245 0.045067 10
29.0534 -8.88251 7.01398 0.0444183 10
29.0516 -8.88196 8.14002 0.0440125 10
9.41376 -2.84218 -2.63487 0.12313 4
10.7539 -3.24679 -2.59341 0.19697 4
12.9471 -3.90896 -2.62886 0.0110954 4
15.8597 -4.78832 -2.62391 0.0736386 4
20.681 -6.24398 -2.65252 0.261718 4
29.0932 -8.78377 -2.65881 0.0432158 10
29.0915 -8.78325 -1.59259 0.0433011 10
29.0898 -8.78273 -0.530402 0.0433336 10
29.0864 -8.78169 1.59231 0.0432403 10
29.0846 -8.78117 2.65802 0.0431146 10
29.0829 -8.78065 3.73014 0.0429364 10
29.0812 -8.78013 4.81135 0.0427058 10
29.0776 -8.77905 7.01239 0.0420889 10
29.0758 -8.7785 8.13817 0.0417034 10
9.42351 -2.80927 -2.63484 0.0738787 4
10.7631 -3.20863 -2.59293 0.193867 4
12.9604 -3.86368 -2.62882 0.0812196 4
15.876 -4.73283 -2.62386 0.0783794 4
20.6984 -6.17047 -2.65197 0.276319 4
29.1175 -8.68029 -2.65824 0.0408338 10
29.1157 -8.67978 -1.59225 0.0409133 10
29.114 -8.67927 -0.530288 0.0409429 10
29.1106 -8.67825 1.59197 0.0408525 10
29.1089 -8.67773 2.65745 0.0407326 10
29.1071 -8.67722 3.72934 0.040563 10
29.1054 -8.67669 4.81032 0.0403441 10
29.1018 -8.67564 7.01088 0.0397591 10
29.1 -8.67509 8.13643 0.0393937 10
9.43314 -2.77633 -2.6348 0.144155 4
10.7723 -3.17047 -2.59247 0.151347 4
12.9736 -3.81835 -2.62877 0.0874346 4
15.8921 -4.67729 -2.62381 0.0823912 4
20.7158 -6.09699 -2.65145 0.276378 4
29.1417 -8.57687 -2.6577 0.0384513 10
29.1399 -8.57636 -1.59193 0.0385249 10
29.1382 -8.57585 -0.530181 0.0385516 10
29.1348 -8.57484 1.59165 0.0384641 10
29.1331 -8.57433 2.65691 0.03835 10
29.1313 -8.57382 3.72858 0.0381892 10
29.1296 -8.57331 4.80935 0.0379819 10
29.126 -8.57226 7.00946 0.0374287 10
29.1242 -8.57173 8.13478 0.0370836 10
9.44266 -2.74335 -2.63477 0.109319 4
10.7815 -3.13233 -2.59204 0.165572 4
12.9867 -3.77298 -2.62873 0.084773 4
15.908 -4.62169 -2.62375 0.0605186 4
20.7331 -6.02353 -2.65097 0.299295 4
29.1659 -8.47348 -2.65719 0.0360683 10
29.1642 -8.47297 -1.59163 0.0361361 10
29.1624 -8.47248 -0.53008 0.0361599 10
29.1607 -8.47198 0.530048 0.0361396 10
29.159 -8.47148 1.59135 0.0360753 10
29.1573 -8.47098 2.65641 0.035967 10
29.1555 -8.47047 3.72787 0.035815 10
29.1538 -8.46996 4.80843 0.0356193 10
29.152 -8.46945 5.90088 0.0353802 10
29.1502 -8.46893 7.00813 0.0350979 10
29.1484 -8.4684 8.13323 0.034773 10
9.45207 -2.71034 -2.63474 0.106918 4
10.7907 -3.09419 -2.59163 0.187688 4
12.9995 -3.72756 -2.62869 0.0932075 4
15.9237 -4.56604 -2.6237 0.0736447 4
20.7505 -5.9501 -2.65051 0.291035 4
29.1901 -8.37013 -2.65672 0.0336848 10
29.1884 -8.36963 -1.59134 0.0337468 10
29.1866 -8.36914 -0.529986 0.0337677 10
29.1849 -8.36864 0.529954 0.0337474 10
29.1832 -8.36815 1.59106 0.033686 10
29.1815 -8.36766 2.65593 0.0335836 10
29.1797 -8.36716 3.72721 0.0334403 10
29.178 -8.36666 4.80758 0.0332561 10
29.1762 -8.36615 5.89983 0.0330316 10
29.1744 -8.36563 7.00688 0.0327667 10
29.1726 -8.36511 8.13179 0.032462 10
9.46136 -2.67729 -2.63471 0.0684763 4
10.7999 -3.05606 -2.59125 0.211387 4
13.0123 -3.6821 -2.62864 0.0324012 4
15.9392 -4.51034 -2.62365 0.0754691 4
20.7678 -5.87669 -2.65009 0.25366 4
29.2143 -8.26681 -2.65628 0.031301 10
29.2126 -8.26632 -1.59108 0.0313571 10
29.2108 -8.26583 -0.529898 0.0313751 10
29.2091 -8.26535 0.529866 0.0313548 10
29.2074 -8.26486 1.5908 0.0312963 10
29.2057 -8.26437 2.65549 0.0311997 10
29.2039 -8.26388 3.72659 0.0310651 10
29.2022 -8.26338 4.80678 0.0308927 10
29.2004 -8.26289 5.89885 0.0306826 10
29.1986 -8.26238 7.00572 0.0304351 10
29.1968 -8.26186 8.13044 0.0301505 10
9.47053 -2.64422 -2.63468 0.0450507 4
10.809 -3.01794 -2.5909 0.197225 4
13.0248 -3.6366 -2.6286 0.0208614 4
15.9545 -4.45458 -2.62359 0.0823978 4
20.7851 -5.8033 -2.64969 0.280734 4
29.2385 -8.16353 -2.65587 0.0289167 10
29.2367 -8.16304 -1.59083 0.0289671 10
29.235 -8.16257 -0.529816 0.0289821 10
29.2333 -8.16208 0.529785 0.0289619 10
29.2316 -8.1616 1.59055 0.0289063 10
29.2298 -8.16112 2.65509 0.0288155 10
29.2281 -8.16064 3.72602 0.0286896 10
29.2264 -8.16015 4.80604 0.0285288 10
29.2246 -8.15965 5.89795 0.0283332 10
29.2228 -8.15915 7.00465 0.0281031 10
9.47959 -2.61111 -2.63465 0.0654745 4
10.8182 -2.97982 -2.59058 0.209882 4
13.0372 -3.59105 -2.62856 0.0119844 4
15.9696 -4.39877 -2.62354 0.0525023 4
20.8023 -5.72992 -2.64933 0.322371 4
29.2609 -8.0598 -1.59061 0.0265767 10
29.2592 -8.05932 -0.529741 0.0265888 10
29.2575 -8.05885 0.52971 0.0265685 10
29.2558 -8.05838 1.59033 0.0265159 10
9.48854 -2.57798 -2.63461 0.0750863 4
10.8273 -2.9417 -2.59029 0.224118 4
13.0495 -3.54547 -2.62852 0.0164233 4
15.9846 -4.34292 -2.62349 0.0116674 4
20.8196 -5.65657 -2.649 0.183048 4
9.49737 -2.54481 -2.63458 0.031837 4
10.8363 -2.90359 -2.59002 0.192578 4
13.0616 -3.49984 -2.62847 0.0226379 4
15.9993 -4.28701 -2.62344 0.0215122 4
20.8369 -5.58323 -2.6487 0.30373 4
9.50608 -2.51162 -2.63455 0.0756887 4
10.8454 -2.86548 -2.58978 0.222597 4
13.0735 -3.45417 -2.62843 0.0164239 4
16.0139 -4.23106 -2.62339 0.021148 4
20.8541 -5.5099 -2.64843 0.268393 4
9.51468 -2.47839 -2.63452 0.0979159 4
10.8545 -2.82738 -2.58957 0.225778 4
13.0853 -3.40846 -2.62839 0.0936619 4
16.0282 -4.17505 -2.62334 0.0404737 4
20.8713 -5.43658 -2.64819 0.301711 4
9.52317 -2.44513 -2.63449 0.0883056 4
10.8635 -2.78927 -2.58938 0.22422 4
13.0969 -3.36271 -2.62835 0.0159805 4
20.8886 -5.36327 -2.64798 0.270522 4
9.53153 -2.41185 -2.63446 0.0979182 4
10.8725 -2.75116 -2.58923 0.216342 4
13.1083 -3.31692 -2.62831 0.0182003 4
16.0564 -4.06289 -2.62323 0.0185967 4
20.9058 -5.28997 -2.64781 0.214352 4
9.53979 -2.37854 -2.63443 0.0330402 4
10.8815 -2.71306 -2.5891 0.246362 4
13.1196 -3.27109 -2.62827 0.0208641 4
16.0702 -4.00674 -2.62318 0.0262547 4
20.923 -5.21668 -2.64766 0.070761 4
9.54793 -2.3452 -2.6344 0.0492606 4
10.8905 -2.67495 -2.58899 0.195836 4
20.9401 -5.14339 -2.64755 0.285138 4
9.55595 -2.31183 -2.63437 0.0528656 4
10.8994 -2.63685 -2.58892 0.213216 4
13.1417 -3.17932 -2.62819 0.0106543 4
16.0971 -3.89431 -2.62309 0.0200565 4
20.9573 -5.07011 -2.64747 0.295554 4
9.46958 -2.25597 -2.60838 0.0514563 4
10.9083 -2.59874 -2.58887 0.181632 4
16.1103 -3.83803 -2.62304 0.0105754 4
20.9745 -4.99683 -2.64741 0.301804 4
9.29266 -2.17957 -2.55753 0.0494768 4
10.7777 -2.52789 -2.55576 0.0442224 4
13.1632 -3.0874 -2.62811 0.0182017 4
16.1233 -3.7817 -2.62299 0.0211512 4
20.9916 -4.92354 -2.64739 0.280992 4
9.17278 -2.11771 -2.52249 0.071491 4
10.6354 -2.45538 -2.51996 0.0611531 4
13.1737 -3.04139 -2.62807 0.0346281 4
16.1361 -3.72532 -2.62294 0.0342802 4
21.0087 -4.85025 -2.6474 0.303885 4
29.5504 -6.82226 -2.65333 0.0296874 10
29.5486 -6.82184 -1.58931 0.0297415 10
29.5469 -6.82143 -0.529309 0.0297594 10
29.5451 -6.82102 0.529276 0.029741 10
29.5433 -6.82061 1.58903 0.0296864 10
29.5342 -6.81852 6.99787 0.0288763 10
9.18002 -2.08565 -2.52246 0.0793018 4
10.6438 -2.41821 -2.51993 0.0554043 4
13.184 -2.99534 -2.62803 0.0177583 4
16.1488 -3.66891 -2.62289 0.0189639 4
21.0259 -4.77696 -2.64744 0.272659 4
29.5698 -6.71809 -2.65295 0.0273029 10
29.568 -6.71768 -1.58908 0.0273512 10
29.5662 -6.71728 -0.529232 0.0273662 10
29.5644 -6.71687 0.529199 0.0273478 10
29.5626 -6.71647 1.58879 0.0272961 10
9.18715 -2.05357 -2.52244 0.0732949 4
10.652 -2.38101 -2.5199 0.0381563 4
13.1942 -2.94926 -2.62799 0.0133189 4
16.1612 -3.61245 -2.62284 0.0149526 4
21.043 -4.70367 -2.64752 0.285138 4
9.19416 -2.02147 -2.52241 0.0762996 4
10.6601 -2.34378 -2.51987 0.0757908 4
13.2042 -2.90314 -2.62795 0.0523884 4
16.1734 -3.55595 -2.6228 0.0692936 4
21.0601 -4.63036 -2.64762 0.251826 4
9.20106 -1.98934 -2.52238 0.0829091 4
10.9351 -2.36425 -2.58289 0.0277865 4
13.2141 -2.85699 -2.62791 0.0874633 4
16.1854 -3.49941 -2.62275 0.0616359 4
21.0772 -4.55705 -2.64775 0.195623 4
9.54181 -2.02818 -2.61384 0.0302959 4
11.473 -2.43865 -2.70791 0.0861109 1
13.2238 -2.81081 -2.62787 0.076809 4
16.1972 -3.44283 -2.6227 0.0605428 4
21.0943 -4.48373 -2.64792 0.262199 4
9.90242 -2.06873 -2.71063 0.0989763 1
11.4813 -2.39856 -2.70788 0.086112 1
13.2333 -2.76459 -2.62784 0.0870218 4
16.2089 -3.38621 -2.62266 0.076227 4
21.1114 -4.4104 -2.64811 0.291308 4
9.90948 -2.03413 -2.7106 0.0989773 1
11.4894 -2.35844 -2.70785 0.086113 1
13.2427 -2.71834 -2.6278 0.0776992 4
16.2203 -3.32955 -2.62261 0.0113066 4
21.1285 -4.33705 -2.64834 0.307925 4
9.91642 -1.9995 -2.71057 0.0989783 1
11.4974 -2.31829 -2.70782 0.086114 1
13.2519 -2.67206 -2.62776 0.011988 4
16.2316 -3.27286 -2.62257 0.0145894 4
21.1455 -4.26369 -2.6486 0.251723 4
9.92324 -1.96485 -2.71055 0.0989793 1
11.5053 -2.27812 -2.70778 0.086115 1
13.261 -2.62575 -2.62772 0.00888016 4
21.1626 -4.19031 -2.64889 0.245452 4
11.6298 -2.30276 -1.03723 0.663634 9
9.92993 -1.93018 -2.71052 0.0989804 1
11.5131 -2.23792 -2.70775 0.0861161 1
13.2699 -2.57941 -2.62769 0.0208687 4
16.2534 -3.15935 -2.62248 0.0102129 4
21.1796 -4.11691 -2.64921 0.272457 4
11.6392 -2.26244 -1.03736 0.616711 9
9.93651 -1.89549 -2.71049 0.0989814 1
11.5207 -2.19769 -2.70772 0.0861171 1
11.6592 -2.22411 -2.30718 0.103813 9
11.6585 -2.22398 -1.87982 0.0812471 9
11.6578 -2.22384 -1.45721 0.0349935 9
11.6487 -2.22211 -1.0375 0.835177 9
29.7621 -5.67743 -1.58789 0.0706622 10
29.7604 -5.6771 -0.528837 0.0707712 10
29.7587 -5.67678 0.528807 0.0707939 10
29.757 -5.67646 1.58762 0.0707304 10
29.7483 -5.6748 6.99178 0.0691255 10
9.94297 -1.86078 -2.71046 0.0989823 1
11.5282 -2.15744 -2.70769 0.0861181 1
11.7179 -2.19294 -2.31726 0.0922644 9
11.7171 -2.19281 -1.88803 0.0734981 9
11.7164 -2.19267 -1.46357 0.108852 9
11.6581 -2.18176 -1.03766 0.874071 9
29.7927 -5.57556 -1.58848 0.0730414 10
29.791 -5.57524 -0.529032 0.0731533 10
29.7893 -5.57492 0.529001 0.073176 10
29.7876 -5.5746 1.5882 0.0731096 10
28.8385 -5.39697 2.56684 0.0315123 10
29.7789 -5.57297 6.99436 0.0714469 10
9.9493 -1.82604 -2.71044 0.0989833 1
11.5355 -2.11716 -2.70766 0.086119 1
13.2956 -2.44021 -2.62758 0.0435152 4
16.2848 -2.98882 -2.62234 0.010943 4
21.2308 -3.89658 -2.65035 0.257775 4
11.6676 -2.1414 -1.03783 0.639841 9
29.8233 -5.47361 -1.58908 0.0754197 10
29.8216 -5.4733 -0.529233 0.0755344 10
29.8199 -5.47298 0.529203 0.0755572 10
29.8182 -5.47267 1.58881 0.0754878 10
28.8682 -5.2983 2.56782 0.0325289 10
29.8095 -5.47107 6.99702 0.0737674 10
9.95552 -1.79128 -2.71041 0.0989843 1
11.5236 -2.07341 -2.70314 0.0644987 4
13.3039 -2.39375 -2.62754 0.0124331 4
21.2478 -3.82309 -2.6508 0.280591 4
11.677 -2.10103 -1.03801 0.659232 9
29.854 -5.37158 -1.58971 0.0777971 10
29.8523 -5.37127 -0.529441 0.0779147 10
29.8506 -5.37097 0.52941 0.0779374 10
29.8489 -5.37066 1.58943 0.0778652 10
28.8979 -5.19956 2.56884 0.0335451 10
29.8401 -5.36909 6.99977 0.076087 10
9.96161 -1.7565 -2.71038 0.0989853 1
11.4996 -2.02769 -2.69584 0.0741287 4
13.312 -2.34727 -2.62751 0.0159856 4
16.3047 -2.87497 -2.62226 0.0156855 4
21.2649 -3.74957 -2.65128 0.27638 4
29.8864 -5.26978 -2.65506 0.0799551 10
29.8847 -5.26948 -1.59035 0.0801733 10
29.883 -5.26918 -0.529656 0.0802939 10
29.8812 -5.26888 0.529625 0.0803166 10
29.8795 -5.26857 1.59008 0.0802415 10
28.9277 -5.10074 2.56989 0.0345608 10
34.3969 -6.06511 6.78923 0.0374845 10
29.8708 -5.26703 7.0026 0.0784056 10
9.95985 -1.72037 -2.70825 0.0617437 4
11.4756 -1.98218 -2.68858 0.0744011 4
13.3199 -2.30075 -2.62747 0.0399645 4
21.2819 -3.67602 -2.65178 0.201528 4
29.9171 -5.16758 -2.65617 0.0823248 10
29.9154 -5.16729 -1.59101 0.0825488 10
29.9137 -5.16699 -0.529877 0.0826722 10
29.9119 -5.16669 0.529846 0.0826949 10
29.9102 -5.1664 1.59074 0.0826169 10
28.9575 -5.00184 2.57097 0.0355761 10
34.4248 -5.9462 6.79059 0.0398323 10
29.9015 -5.16489 7.00553 0.0807233 10
9.94256 -1.68166 -2.70194 0.0836245 4
11.4516 -1.9369 -2.68137 0.0658859 4
13.3277 -2.25421 -2.62744 0.0266434 4
16.3239 -2.76098 -2.62217 0.0321015 4
21.2989 -3.60244 -2.65232 0.170326 4
29.9478 -5.0653 -2.65731 0.0846934 10
29.9461 -5.06501 -1.5917 0.0849232 10
29.9444 -5.06472 -0.530105 0.0850496 10
29.9427 -5.06443 0.530074 0.0850723 10
29.941 -5.06414 1.59143 0.0849913 10
28.9873 -4.90285 2.57208 0.036591 10
31.3077 -5.2953 5.02908 0.491127 10
31.3048 -5.29482 6.17147 0.488132 10
29.9322 -5.06265 7.00854 0.08304 10
9.92524 -1.64311 -2.69566 0.074396 4
11.4276 -1.89183 -2.67419 0.0700713 4
13.3353 -2.20765 -2.6274 0.0373012 4
16.3332 -2.70394 -2.62213 0.00984949 4
21.3159 -3.52883 -2.65289 0.261659 4
29.9786 -4.96293 -2.65848 0.087061 10
29.9769 -4.96264 -1.5924 0.0872966 10
29.9751 -4.96235 -0.530339 0.0874258 10
29.9734 -4.96207 0.530308 0.0874486 10
29.9717 -4.96179 1.59213 0.0873647 10
29.0172 -4.80377 2.57323 0.0376055 10
31.2425 -5.17216 5.01567 0.299486 10
31.2401 -5.17177 6.15511 0.297651 10
29.9629 -4.96033 7.01164 0.0853558 10
9.90789 -1.60473 -2.68941 0.0832028 4
11.4036 -1.84699 -2.66705 0.0752013 4
13.3428 -2.16106 -2.62737 0.013322 4
16.3422 -2.64687 -2.62209 0.0149569 4
21.333 -3.45519 -2.65349 0.213842 4
30.0094 -4.86046 -2.65969 0.0894276 10
30.0076 -4.86018 -1.59313 0.0896689 10
30.0059 -4.8599 -0.530581 0.0898011 10
30.0042 -4.85962 0.53055 0.0898238 10
30.0025 -4.85934 1.59285 0.0897371 10
29.0471 -4.7046 2.57441 0.0386196 10
31.2276 -5.05777 5.01042 0.07104 10
31.2255 -5.05744 6.14873 0.0705909 10
29.9937 -4.85792 7.01482 0.0876705 10
9.89049 -1.5665 -2.68318 0.0689731 4
11.3797 -1.80236 -2.65995 0.0464384 4
13.3501 -2.11444 -2.62734 0.0235359 4
16.3511 -2.58977 -2.62205 0.0164163 4
21.35 -3.3815 -2.65412 0.163972 4
30.0438 -4.75848 -2.66126 0.184801 10
30.0422 -4.75822 -1.59407 0.18528 10
30.0406 -4.75797 -0.530897 0.185534 10
30.039 -4.75771 0.530868 0.185562 10
30.0374 -4.75746 1.59382 0.185364 10
29.077 -4.60534 2.57562 0.0396331 10
31.2481 -4.94921 5.0109 0.166184 10
31.2463 -4.94893 6.14938 0.165192 10
30.0291 -4.75615 7.01919 0.181002 10
9.87307 -1.52843 -2.67699 0.0710354 4
11.3557 -1.75795 -2.65289 0.0641454 4
13.3572 -2.0678 -2.6273 0.0115461 4
16.3598 -2.53263 -2.622 0.00875551 4
21.367 -3.30779 -2.65479 0.234479 4
30.09 -4.65817 -2.66389 0.187097 10
30.0883 -4.65792 -1.59565 0.187582 10
30.0867 -4.65767 -0.531422 0.187839 10
30.0851 -4.65742 0.531393 0.187867 10
30.0835 -4.65717 1.59539 0.187666 10
29.1069 -4.50599 2.57686 0.0406462 10
31.3057 -4.84638 5.0174 0.382932 10
31.3043 -4.84616 6.15742 0.38062 10
30.0752 -4.65589 7.02612 0.183249 10
9.85561 -1.49052 -2.67083 0.0736441 4
11.3317 -1.71375 -2.64587 0.0509712 4
13.3642 -2.02114 -2.62727 0.0213161 4
16.3683 -2.47547 -2.62196 0.0346578 4
21.384 -3.23403 -2.65548 0.280049 4
30.1362 -4.55767 -2.66656 0.189391 10
30.1345 -4.55742 -1.59724 0.189882 10
30.1329 -4.55718 -0.531953 0.190142 10
30.1313 -4.55693 0.531924 0.19017 10
30.1297 -4.55668 1.59699 0.189966 10
29.1427 -4.40742 2.57865 0.0814375 10
31.4244 -4.75249 5.03373 0.552588 10
31.4235 -4.75236 6.17757 0.549242 10
30.1214 -4.55543 7.03315 0.185493 10
9.83812 -1.45277 -2.6647 0.0728998 4
11.3077 -1.66977 -2.63889 0.0498602 4
13.371 -1.97445 -2.62724 0.0275336 4
16.3766 -2.41829 -2.62192 0.0193357 4
21.401 -3.16023 -2.65621 0.269596 4
30.1825 -4.45697 -2.66926 0.191683 10
30.1808 -4.45673 -1.59886 0.19218 10
30.1792 -4.45649 -0.532493 0.192442 10
30.1776 -4.45624 0.532463 0.19247 10
30.176 -4.456 1.5986 0.192263 10
29.1875 -4.31005 2.58127 0.0824194 10
34.6201 -5.11225 6.80243 0.0562515 10
30.1677 -4.45478 7.04028 0.187734 10
9.8206 -1.41517 -2.6586 0.0749337 4
11.2837 -1.626 -2.63195 0.0616607 4
13.3776 -1.92774 -2.6272 0.0270898 4
16.3847 -2.36107 -2.62188 0.0145932 4
21.418 -3.08639 -2.65697 0.201098 4
30.2289 -4.35605 -2.672 0.193973 10
30.2272 -4.35582 -1.60051 0.194475 10
30.2256 -4.35558 -0.53304 0.19474 10
30.224 -4.35535 0.53301 0.194768 10
30.2223 -4.35511 1.60025 0.194558 10
29.2325 -4.21247 2.58393 0.0834003 10
34.648 -4.99286 6.80446 0.0585946 10
30.214 -4.35391 7.04751 0.189974 10
9.80305 -1.37773 -2.65253 0.0736344 4
11.2847 -1.58597 -2.63089 0.00679674 4
13.3841 -1.88101 -2.62717 0.0284225 4
16.3926 -2.30383 -2.62184 0.0204308 4
21.435 -3.0125 -2.65776 0.275642 4
30.2696 -4.25412 -2.67428 0.0337827 1
30.2737 -4.2547 -1.60217 0.196768 10
30.2721 -4.25447 -0.533594 0.197036 10
30.2704 -4.25424 0.533565 0.197063 10
30.2688 -4.25401 1.60191 0.196851 10
29.2775 -4.11469 2.58662 0.0843802 10
34.676 -4.8734 6.80657 0.060937 10
30.2605 -4.25284 7.05484 0.192211 10
9.78546 -1.34044 -2.64649 0.0690275 4
11.2901 -1.54655 -2.63086 0.00888814 4
13.3904 -1.83426 -2.62714 0.0328639 4
16.4003 -2.24656 -2.6218 0.0200663 4
21.4521 -2.93857 -2.65858 0.238257 4
30.2835 -4.14833 -2.6742 0.0337837 1
30.3203 -4.15337 -1.60386 0.199058 10
30.3187 -4.15314 -0.534156 0.199329 10
30.317 -4.15292 0.534127 0.199357 10
30.3154 -4.1527 1.6036 0.199142 10
29.3227 -4.01671 2.58936 0.0853591 10
34.704 -4.75386 6.80877 0.0632787 10
30.307 -4.15155 7.06227 0.194445 10
9.76784 -1.30331 -2.64048 0.0870261 4
11.2953 -1.50711 -2.63083 0.0219592 4
16.4078 -2.18927 -2.62177 0.0408628 4
21.4691 -2.86459 -2.65943 0.244387 4
30.297 -4.04248 -2.67413 0.0337846 1
30.3762 -4.05306 -1.60606 0.302147 10
30.3747 -4.05286 -0.534892 0.302549 10
30.3732 -4.05266 0.534865 0.302582 10
30.3717 -4.05246 1.60582 0.302247 10
29.3679 -3.91852 2.59213 0.086337 10
34.732 -4.63424 6.81105 0.0656196 10
30.364 -4.05142 7.07221 0.295071 10
9.7502 -1.26633 -2.6345 0.067024 4
11.3004 -1.46766 -2.63081 0.0460101 4
13.4026 -1.74069 -2.62707 0.0701706 4
16.4151 -2.13195 -2.62173 0.0167832 4
21.4861 -2.79056 -2.66032 0.302267 4
30.3101 -3.9366 -2.67406 0.0337854 1
30.4426 -3.95381 -1.60883 0.304293 10
30.4411 -3.95361 -0.535814 0.304697 10
30.4396 -3.95341 0.535787 0.30473 10
30.4381 -3.95322 1.60859 0.304392 10
29.4132 -3.82011 2.59493 0.0873137 10
34.76 -4.51454 6.81341 0.0679596 10
30.4303 -3.95221 7.08439 0.297164 10
9.75101 -1.23184 -2.63354 0.037258 4
11.3053 -1.42819 -2.63078 0.0099341 4
13.4084 -1.69387 -2.62704 0.0586242 4
16.4222 -2.0746 -2.62169 0.0197023 4
21.5031 -2.71647 -2.66123 0.188328 4
30.3229 -3.83067 -2.67399 0.0337863 1
30.5092 -3.85421 -1.61163 0.306435 10
30.5077 -3.85402 -0.536746 0.306841 10
30.5061 -3.85382 0.536719 0.306875 10
30.5046 -3.85363 1.61139 0.306534 10
29.4586 -3.72149 2.59778 0.0882895 10
34.7881 -4.39476 6.81586 0.0702989 10
30.4968 -3.85265 7.09671 0.299254 10
9.75516 -1.19778 -2.63352 0.121991 4
11.3101 -1.38871 -2.63075 0.0156856 4
13.4141 -1.64704 -2.62701 0.031089 4
16.4291 -2.01724 -2.62165 0.0164188 4
21.5201 -2.64234 -2.66218 0.260661 4
30.3353 -3.7247 -2.67392 0.0337872 1
30.576 -3.75426 -1.61446 0.308572 10
30.5745 -3.75408 -0.537688 0.308982 10
30.573 -3.75389 0.53766 0.309015 10
30.5714 -3.7537 1.61421 0.308672 10
29.5062 -3.62291 2.60084 0.131789 10
34.8161 -4.27488 6.81839 0.0726373 10
30.5636 -3.75274 7.10916 0.30134 10
9.7592 -1.16371 -2.6335 0.109372 4
11.3148 -1.34921 -2.63073 0.0162086 4
13.4196 -1.60019 -2.62698 0.0222067 4
16.4358 -1.95985 -2.62161 0.021892 4
21.5371 -2.56815 -2.66316 0.297778 4
30.3473 -3.6187 -2.67385 0.0337881 1
30.6431 -3.65396 -1.61731 0.310707 10
30.6415 -3.65378 -0.538639 0.311119 10
30.64 -3.6536 0.538612 0.311152 10
30.6385 -3.65341 1.61707 0.310806 10
34.8463 -4.15517 5.55822 0.0754171 10
34.8442 -4.15492 6.82101 0.0749749 10
30.6306 -3.65248 7.12173 0.303422 10
9.76312 -1.12963 -2.63347 0.129204 4
11.3193 -1.30969 -2.6307 0.0177773 4
13.4249 -1.55332 -2.62695 0.0217628 4
16.4423 -1.90244 -2.62158 0.0127705 4
21.5541 -2.4939 -2.66417 0.241845 4
30.359 -3.51266 -2.67379 0.0337889 1
30.7163 -3.55401 -1.62051 0.397049 10
30.7149 -3.55384 -0.539708 0.397571 10
30.7135 -3.55368 0.539683 0.397608 10
30.7121 -3.55352 1.62029 0.397161 10
34.8745 -4.03512 5.56042 0.077768 10
34.8723 -4.03487 6.82372 0.0773113 10
30.7049 -3.55269 7.13609 0.387695 10
9.76693 -1.09554 -2.63345 0.0991577 4
11.3237 -1.27016 -2.63068 0.0454895 4
13.4301 -1.50643 -2.62692 0.0413053 4
16.4486 -1.84501 -2.62154 0.0135005 4
21.5712 -2.4196 -2.66522 0.237609 4
30.3703 -3.40658 -2.67372 0.0337898 1
30.8052 -3.45536 -1.62456 0.398997 10
30.8038 -3.4552 -0.541054 0.399521 10
30.8024 -3.45504 0.541028 0.399558 10
30.8009 -3.45488 1.62433 0.399108 10
34.9026 -3.91496 5.5627 0.0801181 10
34.9005 -3.91472 6.82651 0.079647 10
30.7937 -3.45408 7.15388 0.389595 10
9.77061 -1.06143 -2.63343 0.111178 4
11.328 -1.23061 -2.63065 0.00941171 4
13.4351 -1.45952 -2.62689 0.0186542 4
16.4547 -1.78756 -2.6215 0.0138656 4
21.5882 -2.34523 -2.66629 0.2437 4
30.3812 -3.30046 -2.67365 0.0337906 1
30.8945 -3.35622 -1.62864 0.400939 10
30.8931 -3.35606 -0.542413 0.401466 10
30.8916 -3.35591 0.542388 0.401503 10
30.8902 -3.35576 1.62841 0.401051 10
34.9308 -3.7947 5.56504 0.0824673 10
34.9286 -3.79447 6.82938 0.0819817 10
30.883 -3.35497 7.17184 0.39149 10
9.77417 -1.02731 -2.63341 0.120193 4
11.3321 -1.19105 -2.63063 0.0528107 4
13.44 -1.4126 -2.62686 0.00755061 4
16.4606 -1.73008 -2.62147 0.0197039 4
21.6052 -2.2708 -2.6674 0.291069 4
30.3918 -3.19431 -2.67359 0.0337915 1
30.9842 -3.25658 -1.63276 0.402877 10
30.9828 -3.25643 -0.543786 0.403406 10
30.9814 -3.25628 0.54376 0.403443 10
30.9799 -3.25613 1.63253 0.402988 10
34.9589 -3.67434 5.56745 0.0848154 10
34.9568 -3.67411 6.83234 0.0843154 10
30.9727 -3.25536 7.18999 0.393381 10
9.77762 -0.993176 -2.63339 0.040265 4
11.3361 -1.15148 -2.6306 0.0407849 4
13.4447 -1.36566 -2.62683 0.0519665 4
16.4663 -1.67259 -2.62143 0.0270021 4
21.6223 -2.19631 -2.66854 0.251729 4
30.402 -3.08813 -2.67352 0.0337923 1
31.0767 -3.15666 -1.63704 0.450382 10
31.0754 -3.15652 -0.545214 0.45097 10
31.074 -3.15639 0.54519 0.45101 10
31.0727 -3.15625 1.63683 0.450499 10
34.9871 -3.55387 5.56993 0.0871625 10
34.985 -3.55365 6.83539 0.0866481 10
31.0658 -3.15556 7.20902 0.439751 10
9.78095 -0.959031 -2.63337 0.0222361 4
11.3399 -1.11189 -2.63058 0.0266673 4
13.4492 -1.31871 -2.6268 0.0177665 4
21.6393 -2.12175 -2.66971 0.274295 4
30.4119 -2.98191 -2.67345 0.0337931 1
31.1826 -3.05749 -1.64205 0.452182 10
31.1813 -3.05736 -0.546882 0.452773 10
31.18 -3.05722 0.546858 0.452812 10
31.1786 -3.05709 1.64184 0.4523 10
35.0154 -3.43329 5.57249 0.0895085 10
35.0132 -3.43308 6.83852 0.0889797 10
31.1717 -3.05642 7.23107 0.441508 10
9.78416 -0.924876 -2.63335 0.0270441 4
11.3436 -1.07229 -2.63055 0.0240531 4
13.4536 -1.27174 -2.62677 0.0306476 4
16.4772 -1.55755 -2.62136 0.0280975 4
21.6563 -2.04713 -2.67092 0.208197 4
30.4214 -2.87567 -2.67339 0.0337939 1
31.2892 -2.95771 -1.64711 0.453977 10
31.2879 -2.95758 -0.548567 0.45457 10
31.2865 -2.95745 0.548543 0.454609 10
31.2852 -2.95732 1.6469 0.454094 10
35.0436 -3.3126 5.57511 0.0918534 10
35.0415 -3.3124 6.84174 0.0913103 10
31.2782 -2.95667 7.25334 0.443259 10
9.78725 -0.89071 -2.63332 0.0570935 4
11.3472 -1.03267 -2.63053 0.0162098 4
13.4578 -1.22476 -2.62675 0.0182111 4
16.4823 -1.50001 -2.62133 0.0175156 4
21.6734 -1.97243 -2.67216 0.315228 4
30.4305 -2.76939 -2.67333 0.0337947 1
31.3965 -2.85731 -1.65222 0.455766 10
31.3951 -2.85718 -0.550269 0.456361 10
31.3938 -2.85706 0.550245 0.456401 10
31.3924 -2.85693 1.65201 0.455884 10
35.0719 -3.19179 5.5778 0.0941973 10
35.0698 -3.1916 6.84504 0.0936397 10
31.3854 -2.8563 7.27584 0.445005 10
9.79023 -0.856536 -2.6333 0.0318524 4
11.3506 -0.993052 -2.6305 0.0130726 4
13.4619 -1.17776 -2.62672 0.0266507 4
16.4872 -1.44245 -2.62129 0.0135018 4
21.6904 -1.89767 -2.67343 0.24505 4
30.4393 -2.6631 -2.67326 0.0337955 1
31.5043 -2.75627 -1.65738 0.456816 10
31.5029 -2.75615 -0.551985 0.457412 10
31.5015 -2.75603 0.551961 0.457451 10
31.5001 -2.75591 1.65716 0.456933 10
35.1002 -3.07088 5.58057 0.0965398 10
35.0981 -3.07069 6.84844 0.0959678 10
31.4931 -2.7553 7.29853 0.446027 10
11.3539 -0.953416 -2.63048 0.0198705 4
13.4658 -1.13075 -2.62669 0.0111046 4
16.4919 -1.38487 -2.62126 0.0182459 4
21.7075 -1.82283 -2.67473 0.275792 4
30.4477 -2.55677 -2.6732 0.0337963 1
31.6126 -2.65459 -1.66258 0.458596 10
31.6112 -2.65447 -0.553718 0.459195 10
31.6098 -2.65436 0.553693 0.459234 10
31.6084 -2.65424 1.66236 0.458714 10
35.1286 -2.94984 5.5834 0.0988813 10
35.1264 -2.94965 6.85191 0.098295 10
31.6013 -2.65364 7.32142 0.447764 10
9.79582 -0.788154 -2.63326 0.0252419 4
11.3571 -0.91377 -2.63046 0.0125499 4
13.4695 -1.08373 -2.62666 0.0413094 4
16.4964 -1.32728 -2.62122 0.0171513 4
21.7246 -1.74792 -2.67606 0.257129 4
30.4557 -2.45041 -2.67314 0.0337971 1
31.7216 -2.55226 -1.66783 0.460371 10
31.7202 -2.55215 -0.555467 0.460972 10
31.7188 -2.55204 0.555442 0.461011 10
31.7174 -2.55193 1.66761 0.460489 10
35.1569 -2.82867 5.58631 0.101222 10
35.1548 -2.82849 6.85548 0.100621 10
31.7103 -2.55135 7.34455 0.449496 10
9.79844 -0.75395 -2.63324 0.00721203 4
11.3601 -0.874113 -2.63044 0.0350354 4
13.473 -1.0367 -2.62664 0.0168793 4
16.5008 -1.26967 -2.62119 0.019706 4
21.7417 -1.67293 -2.67743 0.148024 4
30.4634 -2.34403 -2.67308 0.0337979 1
31.831 -2.44927 -1.67312 0.426383 10
31.8295 -2.44915 -0.557229 0.426941 10
31.828 -2.44904 0.557202 0.426979 10
31.8265 -2.44892 1.67289 0.426496 10
35.1832 -2.7072 6.85913 0.102946 10
31.819 -2.44834 7.3677 0.416323 10
9.80093 -0.719737 -2.63322 0.0270453 4
11.363 -0.834446 -2.63041 0.019871 4
13.4764 -0.989649 -2.62661 0.0328705 4
16.5049 -1.21205 -2.62116 0.0208011 4
21.7587 -1.59786 -2.67883 0.115064 4
30.4707 -2.23763 -2.67302 0.0337986 1
31.9281 -2.34466 -1.67779 0.428254 10
31.9266 -2.34455 -0.558782 0.428814 10
31.9251 -2.34444 0.558756 0.428851 10
31.9237 -2.34433 1.67755 0.428366 10
35.2116 -2.58578 6.86287 0.105269 10
31.916 -2.34377 7.38824 0.418147 10
9.80331 -0.685515 -2.6332 0.0162273 4
11.3657 -0.794769 -2.63039 0.0465403 4
13.4797 -0.942592 -2.62658 0.0270962 4
16.5088 -1.15441 -2.62113 0.028465 4
21.7758 -1.52272 -2.68026 0.209459 4
30.4776 -2.13121 -2.67296 0.0337994 1
32.0258 -2.23947 -1.6825 0.430119 10
32.0243 -2.23936 -0.560352 0.430681 10
32.0228 -2.23926 0.560325 0.430719 10
32.0213 -2.23915 1.68226 0.430231 10
35.2401 -2.46423 6.8667 0.107591 10
32.0137 -2.23862 7.40898 0.419967 10
9.80558 -0.651286 -2.63319 0.0528894 4
11.3683 -0.755084 -2.63037 0.0104586 4
13.4827 -0.895524 -2.62656 0.0275407 4
16.5125 -1.09676 -2.62109 0.00875856 4
21.7929 -1.44748 -2.68173 0.231909 4
30.4842 -2.02476 -2.6729 0.0338001 1
32.1214 -2.1335 -1.68712 0.379315 10
32.1198 -2.13339 -0.561888 0.379813 10
32.1182 -2.13329 0.56186 0.379848 10
32.1166 -2.13318 1.68687 0.37942 10
35.2686 -2.34254 6.87062 0.109912 10
9.80772 -0.61705 -2.63317 0.0420714 4
11.3708 -0.71539 -2.63035 0.0240549 4
13.4857 -0.848446 -2.62653 0.0213221 4
16.5161 -1.0391 -2.62106 0.0109483 4
21.81 -1.37217 -2.68323 0.248176 4
30.4904 -1.9183 -2.67284 0.0338009 1
32.2035 -2.02608 -1.69105 0.381305 10
32.2019 -2.02598 -0.563198 0.381805 10
32.2003 -2.02587 0.56317 0.38184 10
32.1987 -2.02577 1.6908 0.38141 10
35.2971 -2.22071 6.87462 0.112232 10
9.80974 -0.582806 -2.63315 0.0366625 4
11.3731 -0.675688 -2.63032 0.0162111 4
13.4884 -0.801359 -2.6265 0.0128822 4
16.5194 -0.981433 -2.62103 0.0204371 4
21.8271 -1.29677 -2.68476 0.252121 4
30.4963 -1.81181 -2.67279 0.0338016 1
32.2861 -1.91815 -1.69503 0.38329 10
32.2845 -1.91805 -0.564521 0.383793 10
32.2829 -1.91796 0.564493 0.383828 10
32.2812 -1.91786 1.69477 0.383395 10
35.3256 -2.09873 6.87872 0.11455 10
9.81165 -0.548558 -2.63313 0.042072 4
11.3753 -0.635982 -2.6303 0.036083 4
13.491 -0.754266 -2.62648 0.038647 4
16.5225 -0.923756 -2.621 0.023357 4
21.8443 -1.22129 -2.68633 0.225331 4
30.5018 -1.70532 -2.67273 0.0338023 1
32.369 -1.80972 -1.69904 0.385271 10
32.3674 -1.80963 -0.565858 0.385776 10
32.3658 -1.80954 0.565829 0.385811 10
32.3642 -1.80944 1.69878 0.385376 10
35.3542 -1.97662 6.8829 0.116866 10
9.81343 -0.514302 -2.63311 0.0336579 4
11.3774 -0.596266 -2.63028 0.0183031 4
13.4934 -0.707162 -2.62645 0.0128825 4
16.5255 -0.866066 -2.62097 0.0211675 4
21.8614 -1.14571 -2.68792 0.302976 4
30.5069 -1.59881 -2.67267 0.033803 1
32.4375 -1.69998 -1.70231 0.322465 10
32.4357 -1.69989 -0.566945 0.32289 10
32.434 -1.6998 0.566914 0.322922 10
32.4323 -1.69971 1.70204 0.32256 10
35.3829 -1.85434 6.88717 0.119182 10
9.8151 -0.48004 -2.63309 0.0264456 4
11.3793 -0.556543 -2.63026 0.0167344 4
13.4957 -0.66005 -2.62643 0.00932876 4
16.5282 -0.808366 -2.62094 0.0182481 4
21.868 -1.06953 -2.68827 0.0469924 1
30.5117 -1.49227 -2.67262 0.0338037 1
32.5039 -1.58971 -1.70549 0.324574 10
32.5022 -1.58963 -0.568006 0.325002 10
32.5004 -1.58954 0.567975 0.325033 10
32.4987 -1.58946 1.70522 0.324669 10
35.4115 -1.73192 6.89153 0.121496 10
9.81665 -0.445773 -2.63307 0.0378656 4
11.3811 -0.516814 -2.63024 0.0413134 4
13.4978 -0.612932 -2.6264 0.01155 4
16.5307 -0.750658 -2.62091 0.032482 4
21.8713 -0.993173 -2.68823 0.046993 1
30.5161 -1.38573 -2.67256 0.0338044 1
32.5706 -1.47903 -1.70871 0.326679 10
32.5689 -1.47895 -0.569078 0.327109 10
32.5671 -1.47887 0.569047 0.327141 10
32.5654 -1.47879 1.70844 0.326774 10
35.4402 -1.60934 6.89598 0.123808 10
9.81808 -0.4115 -2.63306 0.0378659 4
11.3827 -0.477079 -2.63022 0.0177806 4
13.4997 -0.565806 -2.62638 0.0204348 4
16.5331 -0.692942 -2.62088 0.0186135 4
21.8743 -0.916808 -2.68819 0.0469937 1
30.5201 -1.27917 -2.67251 0.0338051 1
32.6376 -1.36792 -1.71196 0.32878 10
32.6358 -1.36785 -0.57016 0.329213 10
32.6341 -1.36778 0.570129 0.329245 10
32.6323 -1.3677 1.71169 0.328875 10
35.469 -1.48659 6.90052 0.126119 10
9.81939 -0.377224 -2.63304 0.036664 4
11.3842 -0.437339 -2.6302 0.0172578 4
13.5015 -0.518675 -2.62636 0.0262101 4
16.5352 -0.635219 -2.62085 0.0299279 4
21.8771 -0.840434 -2.68815 0.0469944 1
30.5238 -1.17261 -2.67245 0.0338058 1
32.6899 -1.25582 -1.71447 0.26304 10
32.6881 -1.25575 -0.570993 0.263389 10
32.6862 -1.25568 0.570961 0.263417 10
32.6844 -1.25561 1.71418 0.263124 10
35.4977 -1.36369 6.90515 0.128428 10
9.82059 -0.342943 -2.63302 0.0288506 4
11.3856 -0.397595 -2.63018 0.0711235 4
13.5031 -0.471538 -2.62633 0.016437 4
16.5371 -0.57749 -2.62082 0.016789 4
21.8796 -0.764052 -2.68811 0.0469951 1
30.5271 -1.06603 -2.6724 0.0338064 1
32.7418 -1.14337 -1.71697 0.265248 10
32.74 -1.14331 -0.571827 0.265599 10
32.7381 -1.14324 0.571794 0.265627 10
32.7363 -1.14318 1.71668 0.265331 10
35.5265 -1.24062 6.90987 0.130736 10
9.82166 -0.308658 -2.633 0.0174307 4
11.3868 -0.357846 -2.63016 0.0319012 4
13.5045 -0.424397 -2.62631 0.0199911 4
16.5389 -0.519755 -2.62079 0.0127744 4
21.8818 -0.687663 -2.68807 0.0469957 1
30.53 -0.959444 -2.67235 0.0338071 1
32.7938 -1.03059 -1.7195 0.267452 10
32.792 -1.03053 -0.57267 0.267806 10
32.7902 -1.03047 0.572637 0.267834 10
32.7883 -1.03042 1.71921 0.267536 10
35.5554 -1.11737 6.91468 0.133042 10
9.82262 -0.274373 -2.63299 0.0258456 4
11.3879 -0.318097 -2.63014 0.0261487 4
13.5058 -0.377254 -2.62629 0.0284321 4
16.5404 -0.462019 -2.62076 0.0149644 4
21.8838 -0.611274 -2.68804 0.0469964 1
30.5326 -0.852859 -2.6723 0.0338078 1
32.8461 -0.917481 -1.72206 0.269653 10
32.8442 -0.917429 -0.573521 0.27001 10
32.8424 -0.917378 0.573489 0.270038 10
32.8405 -0.917326 1.72177 0.269737 10
35.5843 -0.993967 6.91958 0.135347 10
9.82345 -0.240082 -2.63297 0.0252447 4
11.3889 -0.278341 -2.63012 0.0209191 4
13.5069 -0.330105 -2.62626 0.0159932 4
16.5417 -0.404274 -2.62074 0.00948974 4
21.8855 -0.534873 -2.688 0.046997 1
30.5348 -0.74626 -2.67225 0.0338084 1
32.8951 -0.803946 -1.72448 0.208373 10
32.8932 -0.803899 -0.574325 0.208652 10
32.8913 -0.803853 0.574291 0.208676 10
32.8894 -0.803806 1.72417 0.208446 10
35.6132 -0.870375 6.92458 0.13765 10
9.82417 -0.205789 -2.63296 0.0360641 4
11.3897 -0.238583 -2.6301 0.0135975 4
13.5079 -0.282952 -2.62624 0.0417603 4
21.8869 -0.458469 -2.68796 0.0469977 1
30.5366 -0.639656 -2.6722 0.033809 1
32.9346 -0.689888 -1.72641 0.210651 10
32.9327 -0.689848 -0.574969 0.210932 10
32.9308 -0.689807 0.574935 0.210957 10
32.9289 -0.689767 1.72611 0.210724 10
35.6422 -0.746604 6.92966 0.139951 10
9.82477 -0.171493 -2.63294 0.0306547 4
11.3904 -0.198822 -2.63008 0.0135976 4
13.5087 -0.235796 -2.62622 0.0302098 4
16.5438 -0.288776 -2.62068 0.0306598 4
21.8881 -0.382061 -2.68793 0.0469983 1
30.5381 -0.533049 -2.67215 0.0338097 1
32.9742 -0.575572 -1.72837 0.212926 10
32.9723 -0.575538 -0.575622 0.21321 10
32.9704 -0.575505 0.575588 0.213235 10
32.9685 -0.575471 1.72807 0.212999 10
35.6712 -0.622648 6.93484 0.142251 10
9.82524 -0.137196 -2.63292 0.0300538 4
11.3909 -0.159059 -2.63006 0.0308564 4
13.5093 -0.188639 -2.6262 0.0235461 4
16.5445 -0.231022 -2.62065 0.01095 4
30.5392 -0.426439 -2.6721 0.0338103 1
33.0139 -0.460995 -1.73036 0.215199 10
33.012 -0.460968 -0.576283 0.215486 10
33.0101 -0.460941 0.576249 0.21551 10
33.0081 -0.460914 1.73005 0.215272 10
35.6833 -0.49827 6.93681 0.129722 10
9.82561 -0.102898 -2.63291 0.0925663 4
11.3914 -0.119295 -2.63005 0.0251037 4
13.5098 -0.14148 -2.62617 0.0195479 4
21.2718 -0.222767 -2.61199 0.020256 4
30.54 -0.319828 -2.67205 0.0338109 1
33.0537 -0.346153 -1.73237 0.217469 10
33.0518 -0.346133 -0.576953 0.217759 10
33.0498 -0.346112 0.576918 0.217783 10
33.0479 -0.346092 1.73206 0.217542 10
35.7316 -0.374197 5.65964 0.14773 10
35.6852 -0.373711 6.93687 0.129721 10
9.82584 -0.068599 -2.63289 0.105791 4
11.3916 -0.0795305 -2.63003 0.00836795 4
13.5101 -0.0943203 -2.62615 0.0182152 4
21.2722 -0.148511 -2.61196 0.016262 4
30.5404 -0.213217 -2.672 0.0338115 1
33.0936 -0.231042 -1.7344 0.219736 10
33.0916 -0.231029 -0.577631 0.220029 10
33.0897 -0.231015 0.577597 0.220053 10
33.0878 -0.231002 1.7341 0.219809 10
35.7608 -0.249663 5.66409 0.150039 10
35.6865 -0.249145 6.93693 0.12972 10
9.82597 -0.0342995 -2.63288 0.125627 4
11.3918 -0.0397652 -2.63001 0.017259 4
13.5102 -0.04716 -2.62613 0.0186596 4
21.2723 -0.0742551 -2.61192 0.0388011 4
30.5404 -0.106607 -2.67195 0.0338121 1
33.1276 -0.115638 -1.73615 0.166953 10
33.1256 -0.115632 -0.578213 0.167178 10
33.1236 -0.115625 0.578178 0.167199 10
33.1216 -0.115618 1.73584 0.167016 10
35.79 -0.124932 5.66861 0.152346 10
35.6875 -0.124574 6.93699 0.129719 10
9.82597 0 -2.63286 0.122021 4
11.3917 0 -2.62999 0.0261502 4
13.5102 0 -2.62611 0.0262125 4
16.5455 0 -2.62055 0.0109505 4
21.2721 0 -2.61189 0.0567759 4
30.54 0 -2.67191 0.0338127 1
33.1571 0 -1.73769 0.169272 10
33.1551 0 -0.578724 0.1695 10
33.1531 0 0.578689 0.169521 10
33.1511 0 1.73738 0.169335 10
35.8192 0 5.67321 0.15465 10
35.688 0 6.93704 0.129718 10
9.82586 0.0342968 -2.63285 0.124426 4
11.3916 0.039762 -2.62998 0.0245813 4
13.51 0.0471561 -2.62609 0.0151057 4
16.5452 0.0577505 -2.62053 0.0423422 4
21.2717 0.0742482 -2.61186 0.051641 4
30.5393 0.106596 -2.67186 0.0338133 1
33.1866 0.115837 -1.73925 0.171589 10
33.1846 0.11583 -0.579243 0.17182 10
33.1826 0.115823 0.579208 0.171841 10
33.1806 0.115816 1.73893 0.171652 10
35.8485 0.125128 5.67788 0.156953 10
35.688 0.124568 6.9371 0.129717 10
9.82562 0.0685951 -2.63283 0.124427 4
11.3913 0.0795256 -2.62996 0.0564852 4
13.5096 0.0943141 -2.62607 0.0319887 4
16.5448 0.115503 -2.6205 0.016061 4
21.2711 0.148499 -2.61183 0.0539242 4
30.5383 0.213195 -2.67182 0.0338138 1
33.2162 0.23189 -1.74083 0.173904 10
33.2142 0.231876 -0.57977 0.174138 10
33.2122 0.231863 0.579735 0.174159 10
33.2102 0.231849 1.74051 0.173967 10
35.8779 0.250472 5.68263 0.159254 10
35.6877 0.249145 6.93715 0.129716 10
35.8711 0.250425 9.61185 0.155807 10
9.82527 0.102892 -2.63282 0.0444814 4
11.3909 0.119288 -2.62994 0.0214436 4
13.5091 0.14147 -2.62605 0.0777509 4
16.5441 0.173254 -2.62048 0.0102207 4
21.2702 0.222746 -2.6118 0.0573486 4
30.5368 0.319788 -2.67177 0.0338144 1
33.2458 0.348157 -1.74244 0.176217 10
33.2438 0.348136 -0.580305 0.176453 10
33.2418 0.348115 0.58027 0.176474 10
33.2398 0.348094 1.74212 0.17628 10
35.9073 0.376028 5.68746 0.161553 10
35.6869 0.37372 6.9372 0.129715 10
35.9004 0.375957 9.62002 0.158055 10
9.8248 0.137188 -2.6328 0.0162298 4
11.3903 0.159048 -2.62993 0.0397493 4
13.5084 0.188624 -2.62603 0.00977447 4
16.5433 0.231001 -2.62045 0.0277422 4
21.269 0.296989 -2.61177 0.0559227 4
30.535 0.426373 -2.67173 0.0338149 1
33.2755 0.46464 -1.74407 0.178528 10
33.2735 0.464612 -0.580848 0.178767 10
33.2715 0.464584 0.580813 0.178788 10
33.2695 0.464556 1.74375 0.178591 10
35.9367 0.501799 5.69237 0.16385 10
35.6856 0.498293 6.93726 0.129714 10
35.9299 0.501704 9.62832 0.160301 10
9.8242 0.171481 -2.63279 0.0474874 4
11.3897 0.198806 -2.62991 0.026151 4
13.5076 0.235775 -2.62601 0.037321 4
16.5422 0.288744 -2.62043 0.0164265 4
21.2676 0.371226 -2.61174 0.0573499 4
30.5329 0.53295 -2.67169 0.0338155 1
33.3053 0.581343 -1.74572 0.180837 10
33.3033 0.581307 -0.581399 0.181078 10
33.3013 0.581272 0.581364 0.1811 10
33.2992 0.581237 1.74541 0.1809 10
35.9662 0.627789 5.69735 0.166145 10
35.6839 0.622862 6.93731 0.129713 10
35.9594 0.627669 9.63675 0.162546 10
9.8235 0.205772 -2.63278 0.0180333 4
11.3888 0.238561 -2.62989 0.0188289 4
13.5066 0.282922 -2.62599 0.0106632 4
16.541 0.346483 -2.62041 0.010586 4
21.266 0.445457 -2.61171 0.0582065 4
30.5303 0.639517 -2.67164 0.033816 1
33.329 0.698141 -1.74708 0.13741 10
33.327 0.698098 -0.581852 0.137596 10
33.3249 0.698055 0.581816 0.137614 10
33.3229 0.698013 1.74676 0.137465 10
35.9957 0.754001 5.70242 0.168438 10
35.6818 0.747424 6.93736 0.129712 10
35.9889 0.753857 9.64531 0.164788 10
9.82267 0.24006 -2.63276 0.0468868 4
13.5054 0.330065 -2.62598 0.0244367 4
16.5395 0.404216 -2.62038 0.0288381 4
21.264 0.519681 -2.61168 0.0590632 4
30.5274 0.746073 -2.6716 0.0338165 1
33.3504 0.815065 -1.74834 0.139753 10
33.3484 0.815015 -0.582272 0.139942 10
33.3463 0.814965 0.582236 0.13996 10
33.3443 0.814915 1.74802 0.139808 10
36.0276 0.880493 4.42495 0.171548 10
36.0253 0.880439 5.70756 0.170729 10
35.6792 0.87198 6.93741 0.129711 10
36.0185 0.880271 9.654 0.167029 10
9.82172 0.274345 -2.63275 0.0186346 4
11.3867 0.31806 -2.62986 0.0235363 4
13.5041 0.377204 -2.62596 0.0226596 4
16.5379 0.461944 -2.62036 0.0383294 4
21.2619 0.593897 -2.61165 0.0499332 4
30.5242 0.852617 -2.67156 0.0338171 1
33.3718 0.93216 -1.74963 0.142094 10
33.3698 0.932102 -0.582699 0.142286 10
33.3677 0.932045 0.582663 0.142304 10
33.3657 0.931988 1.7493 0.142149 10
35.909 1.00303 4.41079 0.564426 10
35.9047 1.00291 5.68897 0.561698 10
35.6762 0.996526 6.93746 0.12971 10
35.8917 1.00254 9.6209 0.549427 10
11.3855 0.357801 -2.62985 0.0329511 4
13.5026 0.424334 -2.62594 0.0248813 4
16.536 0.519661 -2.62034 0.00912612 4
30.5206 0.95914 -2.67152 0.0338176 1
33.3933 1.04942 -1.75093 0.144434 10
33.3913 1.04935 -0.583134 0.144628 10
33.3892 1.04929 0.583098 0.144646 10
33.3871 1.04923 1.75061 0.144488 10
35.4368 1.11364 4.35325 0.563903 10
35.4327 1.11351 5.61476 0.561178 10
35.4285 1.11338 6.89001 0.557769 10
35.42 1.11311 9.49545 0.548918 10
9.81947 0.342901 -2.63272 0.0342639 4
11.3841 0.39754 -2.62983 0.0350434 4
13.501 0.471461 -2.62592 0.0173282 4
16.534 0.577375 -2.62032 0.0156971 4
21.2568 0.742298 -2.61159 0.0142669 4
30.5166 1.06566 -2.67148 0.0338181 1
33.4148 1.16686 -1.75226 0.146771 10
33.4127 1.16679 -0.583577 0.146969 10
33.4107 1.16672 0.583541 0.146987 10
33.4086 1.16665 1.75194 0.146826 10
34.9768 1.22141 4.29723 0.563373 10
34.9728 1.22127 5.54253 0.56065 10
34.9688 1.22113 6.80138 0.557245 10
34.9605 1.22084 9.37333 0.548402 10
9.81816 0.377174 -2.63271 0.0372697 4
11.3826 0.437273 -2.62982 0.00784558 4
13.4991 0.518582 -2.6259 0.0244374 4
16.5317 0.635081 -2.6203 0.0240934 4
20.0908 0.771806 -2.46865 0.501727 6
30.5122 1.17216 -2.67144 0.0338186 1
33.4363 1.28449 -1.75362 0.149107 10
33.4343 1.28441 -0.584028 0.149307 10
33.4322 1.28433 0.583991 0.149326 10
33.4301 1.28425 1.75329 0.149162 10
34.5285 1.32645 4.2427 0.562836 10
34.5246 1.3263 5.47219 0.560116 10
34.5206 1.32614 6.71508 0.556714 10
34.5126 1.32583 9.25443 0.547879 10
9.81674 0.411442 -2.6327 0.037871 4
11.3809 0.477001 -2.6298 0.0324286 4
13.4972 0.565697 -2.62589 0.0173284 4
16.5293 0.692779 -2.62028 0.0302995 4
19.9714 0.837046 -2.45433 0.504655 6
30.5075 1.27864 -2.67141 0.033819 1
33.4579 1.4023 -1.75499 0.151441 10
33.4558 1.40221 -0.584486 0.151644 10
33.4537 1.40212 0.58445 0.151663 10
33.4517 1.40204 1.75467 0.151496 10
34.0914 1.42885 4.18958 0.562292 10
34.0876 1.42869 5.40369 0.559575 10
34.0838 1.42853 6.63103 0.556176 10
34.0759 1.4282 9.13862 0.54735 10
9.8152 0.445704 -2.63268 0.027652 4
11.3791 0.516722 -2.62979 0.0162144 4
13.495 0.612804 -2.62587 0.0195501 4
16.5266 0.750467 -2.62025 0.0222685 4
19.8533 0.901532 -2.44019 0.429092 6
30.5024 1.3851 -2.67137 0.0338195 1
33.4795 1.52029 -1.75639 0.153774 10
33.4774 1.5202 -0.584952 0.15398 10
33.4753 1.5201 0.584916 0.153998 10
33.4733 1.52001 1.75607 0.153828 10
33.6652 1.52872 4.13782 0.561742 10
33.6614 1.52855 5.33694 0.559027 10
33.6577 1.52838 6.54913 0.555631 10
33.65 1.52803 9.02578 0.546814 10
9.81354 0.479961 -2.63267 0.0072136 4
11.3772 0.556437 -2.62977 0.0088918 4
13.4927 0.659903 -2.62585 0.0173286 4
16.5238 0.808145 -2.62023 0.0105867 4
19.734 0.965152 -2.42593 0.509546 6
30.497 1.49155 -2.67133 0.03382 1
33.5044 1.63863 -1.75799 0.188652 10
33.5023 1.63853 -0.585484 0.188903 10
33.5003 1.63843 0.585448 0.188923 10
33.4982 1.63833 1.75767 0.188713 10
33.4962 1.63823 2.93404 0.161307 10
33.4941 1.63813 4.11747 0.160733 10
33.492 1.63803 5.31095 0.159964 10
33.4899 1.63793 6.51756 0.159 10
33.4878 1.63782 7.7405 0.157842 10
33.4856 1.63772 8.98316 0.156492 10
9.81176 0.514212 -2.63266 0.0414784 4
11.3751 0.596145 -2.62976 0.00679965 4
13.4902 0.706993 -2.62584 0.0195504 4
19.6597 1.03032 -2.41723 0.0919233 6
30.4912 1.59797 -2.67129 0.0338204 1
33.5322 1.75735 -1.75976 0.190951 10
33.5301 1.75724 -0.586074 0.191204 10
33.5281 1.75713 0.586038 0.191225 10
33.526 1.75702 1.75944 0.191012 10
33.524 1.75691 2.93699 0.163271 10
33.5219 1.75681 4.12162 0.162691 10
33.5198 1.7567 5.3163 0.161912 10
33.5177 1.75659 6.52412 0.160936 10
33.5155 1.75647 7.74829 0.159764 10
33.5134 1.75636 8.9922 0.158397 10
9.80986 0.548456 -2.63265 0.0547036 4
11.3729 0.635845 -2.62975 0.0512592 4
13.4876 0.754074 -2.62582 0.0137742 4
16.5175 0.923469 -2.6202 0.0146026 4
19.5979 1.09569 -2.41007 0.0921961 6
30.485 1.70438 -2.67126 0.0338209 1
33.56 1.8763 -1.76155 0.193248 10
33.558 1.87618 -0.586672 0.193504 10
33.5559 1.87607 0.586635 0.193524 10
33.5539 1.87595 1.76123 0.193308 10
33.5518 1.87584 2.93999 0.165234 10
33.5497 1.87572 4.12582 0.164646 10
33.5476 1.8756 5.32172 0.163858 10
33.5455 1.87548 6.53077 0.16287 10
33.5434 1.87536 7.75619 0.161684 10
33.5412 1.87524 9.00137 0.1603 10
9.80784 0.582693 -2.63264 0.0138262 4
11.3706 0.675537 -2.62973 0.0428905 4
13.4848 0.801146 -2.62581 0.0315476 4
16.514 0.981114 -2.62018 0.00876162 4
19.5359 1.16065 -2.40294 0.091438 6
30.4785 1.81076 -2.67122 0.0338213 1
33.588 1.99549 -1.76337 0.195542 10
33.5859 1.99537 -0.587278 0.1958 10
33.5838 1.99525 0.587241 0.195821 10
