VERSION 0.7
FIELDS x y z intensity label
SIZE 4 4 4 4 4
TYPE F F F F F
COUNT 1 1 1 1 1
WIDTH 1243
HEIGHT 1
VIEWPOINT 12.7676 43.0222 2.72849 0.622391 -0.000572826 0.000629606 0.782706
POINTS 1243
DATA ascii
4.24973 32.7211 1.72924 0.689823 10
4.24971 32.721 2.88676 0.688144 10
4.24969 32.7209 4.05136 0.685627 10
4.24968 32.7207 5.22598 0.682274 10
4.24966 32.7206 6.41366 0.67809 10
4.24964 32.7205 7.61756 0.673079 10
4.24962 32.7203 8.84102 0.667249 10
1.27631 10.103 -2.72861 0.0983291 1
1.41406 11.1934 -2.60474 0.0697959 4
1.75951 13.928 -2.72884 0.072485 1
2.15954 17.0945 -2.72903 0.0594226 1
2.78598 22.0533 -2.72933 0.0462877 1
3.91071 30.9564 -2.72986 0.0330965 1
4.13699 32.7476 -1.72987 0.884395 10
4.13697 32.7474 -0.576152 0.885478 10
4.13695 32.7473 0.576149 0.885481 10
3.46671 27.4418 1.4496 0.689582 10
3.4667 27.4417 2.41992 0.687904 10
3.46669 27.4416 3.39619 0.685387 10
3.46667 27.4415 4.38085 0.682035 10
3.46666 27.4414 5.37646 0.677853 10
3.46664 27.4413 6.38567 0.672844 10
3.43791 27.2138 7.34987 0.179686 10
1.24106 10.1076 -2.72867 0.098327 1
1.37541 11.2018 -2.60556 0.0625056 4
1.71094 13.9344 -2.72892 0.0724828 1
2.09994 17.1026 -2.72913 0.0594204 1
2.70912 22.064 -2.72946 0.0462855 1
3.80289 30.972 -2.73005 0.0330943 1
4.02411 32.7737 -1.73049 0.884076 10
4.0241 32.7735 -0.576361 0.885158 10
4.02408 32.7734 0.576358 0.885161 10
3.37213 27.4637 1.45012 0.689333 10
3.22506 26.266 2.31523 0.687655 10
3.22505 26.2658 3.24926 0.685139 10
3.37209 27.4634 4.38244 0.681789 10
3.37207 27.4633 5.37841 0.677607 10
3.22501 26.2655 6.10941 0.672601 10
3.225 26.2654 7.09065 0.666775 10
1.2058 10.1121 -2.72873 0.0983248 1
1.33674 11.2102 -2.60642 0.0716893 4
1.66233 13.9407 -2.729 0.0724806 1
2.0403 17.1105 -2.72923 0.0594181 1
2.63221 22.0744 -2.72959 0.0462833 1
3.695 30.9872 -2.73023 0.033092 1
3.91114 32.7998 -1.73114 0.883745 10
3.91113 32.7997 -0.576576 0.884826 10
3.91111 32.7995 0.576574 0.88483 10
3.27746 27.4856 1.45066 0.689075 10
3.13452 26.2869 2.3161 0.687398 10
3.13451 26.2868 3.25048 0.684883 10
3.27742 27.4853 4.38408 0.681534 10
3.27741 27.4852 5.38042 0.677354 10
3.13447 26.2865 6.1117 0.672349 10
3.13446 26.2863 7.0933 0.666525 10
1.17052 10.1165 -2.72879 0.0983226 1
1.29804 11.2186 -2.6073 0.0601979 4
1.61371 13.9469 -2.72909 0.0724784 1
1.98064 17.1181 -2.72934 0.0594159 1
2.55527 22.0845 -2.72972 0.046281 1
3.58706 31.002 -2.73042 0.0330898 1
3.7981 32.8259 -1.73181 0.883403 10
5.38035 46.5009 -0.817091 0.584225 10
5.38033 46.5007 0.817087 0.584227 10
3.18273 27.5075 1.45122 0.688809 10
3.04393 26.3078 2.31699 0.687132 10
3.04392 26.3077 3.25173 0.684618 10
3.1827 27.5072 4.38577 0.68127 10
3.18268 27.5071 5.3825 0.677092 10
3.04388 26.3074 6.11406 0.672089 10
3.04387 26.3073 7.09605 0.666268 10
1.13522 10.1207 -2.72885 0.0983204 1
1.25931 11.227 -2.60821 0.0670296 4
1.56506 13.9529 -2.72917 0.0724762 1
1.92094 17.1256 -2.72944 0.0594137 1
2.47828 22.0943 -2.72986 0.0462788 1
3.01591 26.8875 -2.3671 0.102337 10
3.06776 27.3497 -1.44232 0.883051 10
3.06774 27.3496 -0.480382 0.884132 10
3.06773 27.3494 0.48038 0.884135 10
3.02214 26.943 1.42088 0.0798238 10
2.67507 23.8488 2.09958 0.079588 10
2.70412 24.1078 2.97862 0.684345 10
2.67787 23.8737 3.80494 0.0788259 10
3.02848 26.9995 5.28109 0.0783005 10
2.7084 24.1459 5.60948 0.156195 10
2.70407 24.1074 6.50006 0.666002 10
1.09991 10.1249 -2.72891 0.0983183 1
1.22055 11.2353 -2.60915 0.0694221 4
1.5164 13.9587 -2.72925 0.072474 1
1.86123 17.1328 -2.72954 0.0594114 1
2.40126 22.1039 -2.72999 0.0462765 1
2.83683 26.1134 -2.29807 0.105411 10
2.84297 26.17 -1.37958 0.583038 10
2.84296 26.1699 -0.459484 0.583752 10
2.84295 26.1698 0.459482 0.583754 10
2.84252 26.1658 1.37936 0.0822266 10
2.51603 23.1604 2.0382 0.0819849 10
2.62103 24.127 2.97985 0.684064 10
2.55665 23.5343 3.74939 0.108642 10
2.84831 26.2191 5.12645 0.0806624 10
2.62404 24.1546 5.60934 0.156199 10
2.62099 24.1266 6.50273 0.665728 10
1.06459 10.1289 -2.72897 0.0983161 1
1.18176 11.2437 -2.61011 0.0697856 4
1.46771 13.9643 -2.72934 0.0724717 1
1.80147 17.1399 -2.72964 0.0594092 1
2.32419 22.1132 -2.73012 0.0462743 1
2.66787 25.3831 -2.23297 0.108485 10
2.66917 25.3955 -1.33825 0.0717969 10
2.67047 25.4078 -0.445938 0.0718496 10
2.67177 25.4202 0.446154 0.0718148 10
2.36486 22.5001 1.18568 0.0846287 10
2.36601 22.5111 1.98032 0.0843812 10
2.36718 22.5222 2.78061 0.0840308 10
2.36835 22.5334 3.58859 0.0835781 10
2.36954 22.5447 4.40638 0.0830236 10
2.37074 22.5561 5.23618 0.0823679 10
2.37197 22.5678 6.08033 0.0816118 10
1.02925 10.1327 -2.72903 0.0983139 1
1.14294 11.252 -2.61111 0.0643782 4
1.419 13.9698 -2.72942 0.0724695 1
1.7417 17.1467 -2.72975 0.059407 1
2.2471 22.1223 -2.73025 0.0462721 1
2.50824 24.6931 -2.17149 0.111556 10
2.52497 24.8579 -1.30945 0.582537 10
2.52496 24.8578 -0.436127 0.58325 10
2.52495 24.8577 0.436125 0.583253 10
2.22324 21.8874 1.15297 0.0870295 10
2.2243 21.8977 1.92566 0.0867761 10
2.22536 21.9082 2.70383 0.086417 10
2.22643 21.9188 3.48946 0.0859526 10
2.22752 21.9295 4.28459 0.0853834 10
2.22862 21.9403 5.09139 0.0847103 10
2.22974 21.9514 5.91211 0.0839339 10
0.993891 10.1365 -2.72909 0.0983117 1
1.10409 11.2604 -2.61213 0.0731217 4
1.37027 13.9751 -2.7295 0.0724673 1
1.6819 17.1533 -2.72985 0.0594048 1
2.16997 22.1311 -2.73038 0.0462698 1
2.35715 24.0401 -2.11332 0.114627 10
2.35957 24.0647 -1.26723 0.582276 10
2.35956 24.0646 -0.422064 0.582989 10
2.3604 24.0732 0.422215 0.0758866 10
2.0892 21.3074 1.12203 0.0894295 10
2.09017 21.3172 1.87396 0.0891703 10
2.09114 21.3271 2.6312 0.0888024 10
2.09212 21.3372 3.39568 0.0883263 10
2.09312 21.3473 4.16939 0.0877426 10
2.09413 21.3576 4.95443 0.087052 10
2.09515 21.368 5.753 0.0862553 10
0.958525 10.1401 -2.72915 0.0983095 1
1.06521 11.2687 -2.61318 0.0756227 4
1.32152 13.9802 -2.72959 0.0724651 1
1.62207 17.1597 -2.72995 0.0594025 1
2.09281 22.1396 -2.73052 0.0462676 1
2.21395 23.4211 -2.05822 0.117695 10
2.21494 23.4316 -1.23347 0.11793 10
2.21594 23.4421 -0.411008 0.118021 10
2.21693 23.4526 0.411191 0.117968 10
1.96219 20.7578 1.09272 0.0918281 10
1.96307 20.7671 1.82499 0.091563 10
1.96396 20.7765 2.56241 0.0911863 10
1.96486 20.786 3.30686 0.0906986 10
1.96577 20.7957 4.06028 0.0901004 10
1.96669 20.8054 4.82472 0.0893923 10
1.96763 20.8153 5.60231 0.0885754 10
0.923146 10.1436 -2.72921 0.0983074 1
1.02629 11.277 -2.61426 0.0825045 4
1.27275 13.9851 -2.72967 0.0724629 1
1.56223 17.1659 -2.73005 0.0594003 1
2.01562 22.1478 -2.73065 0.0462654 1
2.07803 22.8336 -2.00594 0.120763 10
2.11123 23.1984 -1.2208 0.880712 10
2.11122 23.1983 -0.406602 0.88179 10
2.11121 23.1982 0.4066 0.881793 10
1.84164 20.2362 1.06492 0.0942256 10
1.84245 20.2451 1.77853 0.0939546 10
1.84326 20.254 2.49716 0.0935692 10
1.84409 20.263 3.22261 0.0930698 10
1.84492 20.2722 3.95679 0.092457 10
1.84576 20.2814 4.70168 0.0917316 10
1.84662 20.2908 5.45938 0.0908943 10
0.88775 10.147 -2.72927 0.0983052 1
0.987336 11.2853 -2.61537 0.0719519 4
1.22396 13.9899 -2.72975 0.0724607 1
1.50235 17.1719 -2.73015 0.0593981 1
1.93838 22.1558 -2.73078 0.0462631 1
1.94882 22.2751 -1.95627 0.12383 10
2.03122 23.2169 -1.22139 0.880284 10
2.03121 23.2168 -0.406799 0.881362 10
2.0312 23.2167 0.406797 0.881365 10
1.74453 19.94 1.049 0.036413 10
1.74074 19.8967 1.74738 0.684706 10
1.74073 19.8966 2.45233 0.682201 10
1.74072 19.8965 3.16334 0.678865 10
1.73005 19.7746 3.85848 0.0948129 10
1.74071 19.8964 4.61098 0.669716 10
1.7407 19.8963 5.35155 0.663915 10
0.852346 10.1503 -2.72933 0.098303 1
0.948351 11.2936 -2.6165 0.0694632 4
1.17516 13.9945 -2.72984 0.0724585 1
1.44246 17.1777 -2.73026 0.0593959 1
1.82511 21.7346 -2.67807 0.126482 10
1.82588 21.7437 -1.90903 0.126894 10
1.95114 23.2354 -1.222 0.879846 10
1.95113 23.2353 -0.407002 0.880923 10
1.95112 23.2352 0.407 0.880926 10
1.67473 19.9437 1.04889 0.0364171 10
1.67211 19.9125 1.74825 0.684365 10
1.6721 19.9125 2.45355 0.681862 10
1.6721 19.9124 3.16491 0.678527 10
1.62078 19.3012 3.76498 0.0971672 10
1.67208 19.9122 4.61328 0.669383 10
1.67207 19.9121 5.35422 0.663585 10
0.816925 10.1534 -2.72939 0.0983009 1
0.909325 11.3018 -2.61767 0.060713 4
1.12633 13.999 -2.72992 0.0724563 1
1.38253 17.1833 -2.73036 0.0593936 1
1.70801 21.2286 -2.61497 0.129534 10
1.70871 21.2373 -1.86403 0.129957 10
1.87097 23.254 -1.22263 0.879397 10
1.87096 23.2539 -0.40721 0.880473 10
1.87095 23.2538 0.407208 0.880477 10
1.60491 19.9472 1.04877 0.0364212 10
1.6034 19.9284 1.74915 0.684016 10
1.5353 19.0819 2.35054 0.681514 10
1.53529 19.0819 3.03204 0.678181 10
1.53528 19.0818 3.72111 0.674022 10
1.60338 19.9281 4.61563 0.669042 10
1.60337 19.928 5.35695 0.663246 10
0.781497 10.1564 -2.72945 0.0982987 1
0.870267 11.3101 -2.61886 0.0796048 4
1.07749 14.0033 -2.73 0.072454 1
1.3226 17.1886 -2.73046 0.0593914 1
1.59632 20.746 -2.55481 0.132584 10
1.59696 20.7543 -1.82113 0.133018 10
1.61148 20.943 -1.10082 0.580561 10
1.61147 20.9429 -0.366641 0.581271 10
1.61147 20.9428 0.366639 0.581274 10
1.53511 19.9504 1.04865 0.0364253 10
1.53464 19.9443 1.75006 0.683659 10
1.46945 19.0972 2.35177 0.681157 10
1.46945 19.0971 3.03362 0.677826 10
1.46944 19.097 3.72306 0.67367 10
1.53461 19.944 4.61805 0.668692 10
1.53461 19.9439 5.35975 0.6629 10
0.746054 10.1593 -2.72951 0.0982965 1
0.831167 11.3184 -2.62008 0.0856827 4
1.02864 14.0074 -2.73009 0.0724518 1
1.26263 17.1938 -2.73056 0.0593892 1
1.48963 20.285 -2.49739 0.135633 10
1.49021 20.2929 -1.78018 0.136078 10
1.49916 20.4147 -1.07277 0.58025 10
1.49916 20.4146 -0.357299 0.58096 10
1.49915 20.4146 0.357297 0.580963 10
1.46579 19.9603 1.04889 0.68496 10
1.46579 19.9602 1.751 0.683293 10
1.40353 19.1124 2.35303 0.680793 10
1.40352 19.1123 3.03525 0.677464 10
1.40352 19.1123 3.72505 0.673309 10
1.46576 19.9599 4.62052 0.668334 10
1.46576 19.9598 5.36262 0.662545 10
0.710604 10.1621 -2.72957 0.0982943 1
0.792034 11.3266 -2.62134 0.041286 4
0.979767 14.0113 -2.73017 0.0724496 1
1.20266 17.1987 -2.73066 0.059387 1
1.38765 19.8443 -2.44252 0.13868 10
1.38818 19.8518 -1.74105 0.139136 10
1.39054 19.8856 -1.0447 0.579932 10
1.39053 19.8855 -0.347951 0.580642 10
1.39053 19.8854 0.347949 0.580644 10
1.39052 19.8854 1.04469 0.579939 10
1.39081 19.8895 1.74436 0.10828 10
1.33754 19.1277 2.35432 0.68042 10
1.33753 19.1276 3.03691 0.677093 10
1.33753 19.1275 3.72709 0.67294 10
1.39298 19.9205 4.61024 0.105743 10
1.39354 19.9285 5.35288 0.104785 10
0.67514 10.1647 -2.72963 0.0982922 1
0.752857 11.3348 -2.62262 0.0393914 4
0.930877 14.0151 -2.73025 0.0724474 1
1.14265 17.2035 -2.73077 0.0593847 1
1.29004 19.4225 -2.39003 0.141725 10
1.29052 19.4297 -1.70363 0.142193 10
1.30372 19.6285 -1.03095 0.579608 10
1.30372 19.6285 -0.343371 0.580317 10
1.30371 19.6284 0.343369 0.580319 10
1.30371 19.6283 1.03094 0.579615 10
1.29292 19.4658 1.70679 0.110664 10
1.27147 19.1429 2.35564 0.680039 10
1.27147 19.1429 3.03861 0.676713 10
1.27146 19.1428 3.72918 0.672563 10
1.29489 19.4955 4.5108 0.108075 10
1.2954 19.5032 5.23737 0.107096 10
0.63967 10.1673 -2.72969 0.09829 1
0.713645 11.343 -2.62392 0.0647857 4
0.88198 14.0186 -2.73034 0.0724452 1
1.08264 17.208 -2.73087 0.0593825 1
1.19654 19.0184 -2.33979 0.144768 10
1.19698 19.0254 -1.6678 0.145247 10
1.19741 19.0323 -0.999415 0.145549 10
1.19785 19.0392 -0.332988 0.145674 10
1.19828 19.0461 0.333109 0.145621 10
1.19872 19.0531 1.0005 0.145391 10
1.19916 19.06 1.67083 0.113045 10
1.06128 16.8685 2.07529 0.11259 10
1.06403 16.9123 2.68394 0.676326 10
1.06403 16.9122 3.29391 0.672178 10
1.20094 19.0884 4.41563 0.110404 10
1.20141 19.0958 5.12682 0.109405 10
0.604192 10.1696 -2.72975 0.0982878 1
0.674392 11.3512 -2.62526 0.0775025 4
0.833069 14.0221 -2.73042 0.072443 1
1.02261 17.2123 -2.73097 0.0593803 1
1.1069 18.6311 -2.29164 0.147809 10
1.11969 18.8464 -1.65175 0.077433 10
1.12471 18.9309 -0.993878 0.876479 10
1.12471 18.9309 -0.331022 0.877552 10
1.1247 18.9308 0.331021 0.877555 10
1.1247 18.9307 0.993866 0.876489 10
1.10926 18.6709 1.63638 0.115426 10
0.981716 16.5241 2.03248 0.114962 10
1.00558 16.9258 2.68551 0.67593 10
1.00558 16.9258 3.29583 0.671785 10
0.982798 16.5423 3.82582 0.112732 10
1.1113 18.7053 5.0209 0.111713 10
0.568699 10.1719 -2.72981 0.0982856 1
0.635092 11.3594 -2.62663 0.0734739 4
0.784138 14.0253 -2.7305 0.0724408 1
0.962549 17.2164 -2.73107 0.0593781 1
1.02085 18.2593 -2.24546 0.15085 10
1.05396 18.8515 -1.65187 0.0774278 10
1.05925 18.9461 -0.994472 0.875955 10
1.05925 18.946 -0.33122 0.877027 10
1.05924 18.9459 0.331218 0.877031 10
1.05924 18.9458 0.99446 0.875965 10
1.02299 18.2975 1.60333 0.117805 10
0.913166 16.3332 2.00859 0.0847122 10
0.947058 16.9394 2.68712 0.675526 10
0.947054 16.9393 3.2978 0.671384 10
0.906377 16.2117 3.74862 0.156259 10
1.02484 18.3305 4.91932 0.11402 10
0.533203 10.1741 -2.72988 0.0982835 1
0.595755 11.3676 -2.62803 0.0619781 4
0.735201 14.0284 -2.73059 0.0724386 1
0.902484 17.2203 -2.73118 0.0593759 1
0.938218 17.9022 -2.20113 0.153888 10
0.988223 18.8563 -1.65198 0.0774226 10
0.99372 18.9612 -0.995079 0.875421 10
0.993716 18.9611 -0.331422 0.876492 10
0.993712 18.9611 0.331421 0.876495 10
0.993708 18.961 0.995067 0.875431 10
0.940146 17.939 1.57161 0.120182 10
0.856109 16.3355 2.00849 0.0847163 10
0.888468 16.9529 2.68876 0.675114 10
0.888464 16.9528 3.29982 0.670974 10
0.849763 16.2144 3.74852 0.156263 10
0.941807 17.9707 4.82183 0.116325 10
0.497694 10.1761 -2.72993 0.0982813 1
0.556369 11.3758 -2.62945 0.0818484 4
0.686245 14.0313 -2.73067 0.0724364 1
0.842395 17.224 -2.73128 0.0593737 1
0.858772 17.5589 -2.15854 0.156924 10
0.928104 18.9765 -1.66221 0.872739 10
0.9281 18.9764 -0.995699 0.874875 10
0.928096 18.9763 -0.331629 0.875946 10
0.928093 18.9762 0.331627 0.87595 10
0.928089 18.9762 0.995687 0.874886 10
0.860503 17.5943 1.54114 0.122558 10
0.79904 16.3376 2.0084 0.0847204 10
0.770235 15.7486 2.49731 0.674694 10
0.770232 15.7485 3.06486 0.670556 10
0.770228 15.7485 3.64017 0.665601 10
0.861994 17.6247 4.72818 0.118629 10
0.462182 10.178 -2.73 0.0982791 1
0.516945 11.384 -2.63091 0.0682861 4
0.637285 14.034 -2.73075 0.0724342 1
0.782091 17.2229 -2.73065 0.159229 10
0.782352 17.2286 -2.11759 0.159958 10
0.86241 18.9917 -1.66327 0.872184 10
0.862406 18.9916 -0.996332 0.87432 10
0.862403 18.9915 -0.33184 0.87539 10
0.862399 18.9914 0.331838 0.875393 10
0.862396 18.9914 0.99632 0.87433 10
0.783899 17.2627 1.51185 0.124933 10
0.741974 16.3395 2.0083 0.0847244 10
0.715715 15.7612 2.4989 0.674265 10
0.715712 15.7611 3.06681 0.67013 10
0.715709 15.7611 3.64248 0.665179 10
0.785231 17.292 4.63817 0.120931 10
0.426658 10.1798 -2.73006 0.098277 1
0.477471 11.3921 -2.63239 0.0822756 4
0.588307 14.0366 -2.73084 0.072432 1
0.708534 16.9051 -2.67986 0.162246 10
0.708766 16.9107 -2.07819 0.162991 10
0.796622 19.0069 -1.66435 0.871619 10
0.796619 19.0068 -0.996978 0.873753 10
0.796616 19.0067 -0.332055 0.874822 10
0.796613 19.0066 0.332053 0.874826 10
0.79661 19.0066 0.996966 0.873764 10
0.710141 16.9435 1.48366 0.127306 10
0.684897 16.3412 2.00821 0.0847285 10
0.661118 15.7738 2.50052 0.673828 10
0.661115 15.7738 3.0688 0.669696 10
0.661113 15.7737 3.64484 0.664748 10
0.711325 16.9717 4.55156 0.123233 10
0.391132 10.1814 -2.73012 0.0982748 1
0.437956 11.4003 -2.6339 0.0920586 4
0.539326 14.039 -2.73092 0.0724298 1
0.637672 16.599 -2.63096 0.165262 10
0.637877 16.6043 -2.04026 0.166021 10
0.730758 19.0221 -1.66545 0.871044 10
0.730755 19.022 -0.997637 0.873176 10
0.730752 19.0219 -0.332274 0.874245 10
0.730749 19.0219 0.332273 0.874248 10
0.730746 19.0218 0.997625 0.873187 10
0.639092 16.636 1.45653 0.129678 10
0.627825 16.3427 2.00811 0.0847326 10
0.606457 15.7865 2.50217 0.673383 10
0.606455 15.7864 3.07083 0.669254 10
0.606452 15.7863 3.64725 0.664309 10
0.640138 16.6632 4.46819 0.125532 10
0.3556 10.1829 -2.73018 0.0982727 1
0.398395 11.4084 -2.63545 0.0903977 4
0.490335 14.0412 -2.731 0.0724276 1
0.569348 16.3038 -2.58385 0.168275 10
0.569528 16.309 -2.00371 0.169049 10
0.664805 19.0373 -1.66657 0.870457 10
0.664803 19.0373 -0.998309 0.872588 10
0.6648 19.0372 -0.332498 0.873656 10
0.664797 19.0371 0.332496 0.87366 10
0.664795 19.037 0.998297 0.872599 10
0.570594 16.3395 1.43039 0.132047 10
0.57075 16.344 2.00801 0.0847366 10
0.551723 15.7991 2.50386 0.67293 10
0.551721 15.7991 3.0729 0.668803 10
0.551718 15.799 3.64971 0.663862 10
0.571511 16.3658 4.38787 0.12783 10
0.320057 10.1844 -2.73024 0.0982705 1
0.35878 11.4165 -2.63702 0.0873809 4
0.441329 14.0433 -2.73108 0.0724254 1
0.50342 16.019 -2.53842 0.171287 10
0.503576 16.024 -1.96847 0.172076 10
0.503731 16.0289 -1.40304 0.114043 10
0.503885 16.0338 -0.840713 0.114287 10
0.504039 16.0387 -0.280095 0.114391 10
0.504193 16.0436 0.280181 0.114357 10
0.504347 16.0485 0.841483 0.114182 10
0.446331 14.2025 1.24317 0.134416 10
0.446469 14.2068 1.74524 0.133882 10
0.446608 14.2113 2.25195 0.133186 10
0.446749 14.2157 2.76462 0.132327 10
0.446891 14.2203 3.28463 0.131306 10
0.447036 14.2249 3.81343 0.130126 10
0.284513 10.1856 -2.7303 0.0982683 1
0.319123 11.4247 -2.63862 0.0704583 4
0.392321 14.0452 -2.73117 0.0724232 1
0.439777 15.7441 -2.49459 0.174296 10
0.439911 15.7489 -1.93447 0.1751 10
0.440326 15.7637 -1.37969 0.574164 10
0.440324 15.7637 -0.826462 0.57557 10
0.440322 15.7636 -0.275262 0.576274 10
0.44044 15.7678 0.275336 0.116369 10
0.440573 15.7726 0.826928 0.116192 10
0.394171 14.1114 1.23507 0.677781 10
0.394169 14.1113 1.73333 0.675301 10
0.394167 14.1113 2.23588 0.671999 10
0.394166 14.1112 2.74401 0.667878 10
0.394164 14.1111 3.25908 0.662943 10
0.394162 14.1111 3.78253 0.657201 10
0.24896 10.1868 -2.73036 0.0982662 1
0.279411 11.4328 -2.64025 0.0884288 4
0.343298 14.0469 -2.73125 0.072421 1
0.378285 15.4784 -2.45228 0.177304 10
0.378399 15.4831 -1.90165 0.178122 10
0.378833 15.5008 -1.35655 0.573756 10
0.378831 15.5008 -0.812604 0.57516 10
0.37883 15.5007 -0.270647 0.575864 10
0.378846 15.5014 0.270659 0.11838 10
0.378958 15.506 0.812876 0.118201 10
0.345152 14.1227 1.23595 0.677299 10
0.345151 14.1227 1.73456 0.674821 10
0.345149 14.1226 2.23747 0.671521 10
0.345148 14.1225 2.74596 0.667403 10
0.345146 14.1225 3.2614 0.662472 10
0.345145 14.1224 3.78522 0.656733 10
0.213407 10.1878 -2.73042 0.098264 1
0.239655 11.4409 -2.64191 0.0812228 4
0.294276 14.0484 -2.73133 0.0724188 1
0.318852 15.2217 -2.41141 0.180309 10
0.318947 15.2262 -1.86995 0.181142 10
0.319184 15.2375 -1.3334 0.57334 10
0.319183 15.2374 -0.798736 0.574744 10
0.319225 15.2395 -0.266064 0.120424 10
0.319318 15.2439 0.266141 0.120389 10
0.31941 15.2483 0.799305 0.120208 10
0.29607 14.1341 1.23684 0.676809 10
0.296068 14.134 1.73582 0.674333 10
0.296067 14.1339 2.23909 0.671035 10
0.296066 14.1339 2.74795 0.66692 10
0.296065 14.1338 3.26377 0.661992 10
0.296064 14.1338 3.78796 0.656258 10
0.177845 10.1887 -2.73048 0.0982618 1
0.199842 11.449 -2.64361 0.107745 4
0.245239 14.0498 -2.73142 0.0724166 1
0.26136 14.9733 -2.3719 0.183312 10
0.261436 14.9777 -1.8393 0.18416 10
0.261511 14.982 -1.31095 0.122054 10
0.261586 14.9862 -0.785516 0.122318 10
0.26166 14.9905 -0.2617 0.122432 10
0.261735 14.9948 0.261775 0.122397 10
0.261809 14.9991 0.786188 0.122213 10
0.246909 14.1454 1.23775 0.67631 10
0.246908 14.1454 1.7371 0.673836 10
0.246907 14.1453 2.24074 0.670541 10
0.246906 14.1452 2.74998 0.666429 10
0.246905 14.1452 3.26617 0.661505 10
0.246904 14.1451 3.79075 0.655775 10
0.142284 10.1895 -2.73054 0.0982597 1
0.159983 11.4571 -2.64533 0.0937104 4
0.196204 14.051 -2.7315 0.0724144 1
0.205727 14.733 -2.3337 0.186312 10
0.205786 14.7372 -1.80967 0.187175 10
0.205844 14.7414 -1.28983 0.124053 10
0.205902 14.7455 -0.772854 0.124322 10
0.20596 14.7496 -0.257481 0.124438 10
0.206018 14.7538 0.257553 0.124404 10
0.206075 14.7579 0.773505 0.124217 10
0.197682 14.1568 1.23868 0.675804 10
0.197681 14.1567 1.7384 0.673331 10
0.19768 14.1567 2.24242 0.670039 10
0.197679 14.1566 2.75204 0.665929 10
0.197679 14.1566 3.26862 0.661009 10
0.197678 14.1565 3.79359 0.655283 10
0.106683 10.1872 -2.7298 0.045792 4
0.120066 11.4651 -2.64708 0.0814658 4
0.147156 14.052 -2.73158 0.0724122 1
0.15185 14.5002 -2.29674 0.189311 10
0.151893 14.5043 -1.781 0.190189 10
0.151935 14.5083 -1.26938 0.190835 10
0.151977 14.5124 -0.760602 0.191248 10
0.152019 14.5164 -0.253398 0.191429 10
0.152061 14.5204 0.253468 0.191376 10
0.152103 14.5244 0.761232 0.19109 10
0.148373 14.1682 1.23962 0.675289 10
0.148373 14.1681 1.73972 0.672818 10
0.148372 14.1681 2.24413 0.669528 10
0.148372 14.168 2.75414 0.665422 10
0.148371 14.168 3.27111 0.660505 10
0.14837 14.1679 3.79649 0.654784 10
0.0710106 10.1712 -2.72542 0.0640263 4
0.0801009 11.4732 -2.64886 0.0529532 4
0.0912957 13.0767 -2.54191 0.0580195 4
0.0996601 14.2748 -2.26095 0.192307 10
0.0996876 14.2787 -1.75325 0.193199 10
0.099715 14.2826 -1.2496 0.193856 10
0.0997422 14.2865 -0.748743 0.194277 10
0.0997693 14.2904 -0.249446 0.194461 10
0.0997964 14.2943 0.249513 0.194409 10
0.0998235 14.2982 0.749353 0.194119 10
0.0989959 14.1796 1.24059 0.674766 10
0.0989955 14.1796 1.74107 0.672297 10
0.0989951 14.1795 2.24587 0.669009 10
0.0989947 14.1794 2.75627 0.664907 10
0.0989943 14.1794 3.27365 0.659994 10
0.0989938 14.1793 3.79943 0.654277 10
0.0354505 10.1548 -2.72098 0.0643392 4
0.0400813 11.4813 -2.65067 0.104764 4
0.0456531 13.0773 -2.54199 0.0558201 4
0.0495426 14.1915 -2.24772 0.857313 10
0.0495424 14.1914 -1.7425 0.861534 10
0.0495422 14.1913 -1.24159 0.864704 10
0.049542 14.1913 -0.743738 0.866821 10
0.0495418 14.1912 -0.24771 0.867882 10
0.0495416 14.1912 0.247709 0.867885 10
0.0495414 14.1911 0.743729 0.866832 10
0.0495412 14.1911 1.24156 0.674234 10
0.049541 14.191 1.74245 0.671768 10
0.0495408 14.1909 2.24764 0.668483 10
0.0495406 14.1909 2.75844 0.664383 10
0.0495403 14.1908 3.27623 0.659474 10
0.0495401 14.1908 3.80243 0.653762 10
7.65403e-07 10.1381 -2.71649 0.0335585 4
8.67419e-07 11.4893 -2.65252 0.105001 4
9.87346e-07 13.0778 -2.54207 0.0514233 4
1.07229e-06 14.2029 -2.24952 0.856627 10
1.07229e-06 14.2029 -1.74389 0.860844 10
1.07228e-06 14.2028 -1.24258 0.864012 10
1.07228e-06 14.2027 -0.744334 0.866127 10
1.07227e-06 14.2027 -0.247909 0.867187 10
1.07227e-06 14.2026 0.247908 0.867191 10
1.07226e-06 14.2026 0.744325 0.866138 10
1.07226e-06 14.2025 1.24256 0.673695 10
1.07226e-06 14.2025 1.74384 0.67123 10
1.07225e-06 14.2024 2.24944 0.667948 10
1.07225e-06 14.2023 2.76065 0.663851 10
1.07224e-06 14.2023 3.27885 0.658946 10
1.07224e-06 14.2022 3.80547 0.653238 10
-0.0353263 10.121 -2.71193 0.0565913 4
-0.0401274 11.4965 -2.6542 0.0456069 4
-0.0456477 13.0781 -2.54214 0.0544982 4
-0.0496137 14.2144 -2.25135 0.855931 10
-0.0496135 14.2143 -1.74531 0.860144 10
-0.0496133 14.2143 -1.24359 0.863309 10
-0.0496131 14.2142 -0.74494 0.865423 10
-0.0496129 14.2142 -0.248111 0.866482 10
-0.0496127 14.2141 0.248109 0.866486 10
-0.0496125 14.214 0.744931 0.865434 10
-0.0496123 14.214 1.24357 0.673147 10
-0.0496121 14.2139 1.74526 0.670684 10
-0.0496119 14.2139 2.25127 0.667404 10
-0.0496117 14.2138 2.7629 0.663312 10
-0.0496115 14.2137 3.28152 0.65841 10
-0.0496112 14.2137 3.80857 0.652707 10
-0.0705376 10.1036 -2.70733 0.061827 4
-0.0802626 11.4966 -2.65427 0.0601167 4
-0.0913048 13.0783 -2.54222 0.0606494 4
-0.0993167 14.2259 -2.25321 0.855224 10
-0.0993163 14.2258 -1.74675 0.859434 10
-0.0993159 14.2258 -1.24462 0.862596 10
-0.0993155 14.2257 -0.745556 0.864708 10
-0.0993151 14.2256 -0.248316 0.865766 10
-0.0993147 14.2256 0.248314 0.86577 10
-0.0993143 14.2255 0.745547 0.864719 10
-0.0993138 14.2255 1.2446 0.672591 10
-0.0993134 14.2254 1.7467 0.67013 10
-0.099313 14.2254 2.25313 0.666853 10
-0.0993126 14.2253 2.76518 0.662764 10
-0.0993122 14.2252 3.28423 0.657867 10
-0.0993118 14.2252 3.81172 0.652168 10
-0.105621 10.0859 -2.70266 0.0606712 4
-0.120393 11.4966 -2.65434 0.0684069 4
-0.136957 13.0783 -2.5423 0.0562528 4
-0.149096 14.2374 -2.2551 0.854506 10
-0.149095 14.2373 -1.74822 0.858713 10
-0.149094 14.2373 -1.24567 0.861873 10
-0.149094 14.2372 -0.746181 0.863983 10
-0.149093 14.2372 -0.248524 0.86504 10
-0.149093 14.2371 0.248523 0.865044 10
-0.149092 14.237 0.746172 0.863993 10
-0.149091 14.237 1.24564 0.672027 10
-0.149091 14.2369 1.74817 0.669568 10
-0.14909 14.2369 2.25502 0.666294 10
-0.14909 14.2368 2.76751 0.662208 10
-0.149089 14.2367 3.28699 0.657315 10
-0.149088 14.2367 3.81492 0.651621 10
-0.140584 10.0679 -2.69795 0.0512273 4
-0.16053 11.4964 -2.6544 0.0518221 4
-0.182617 13.0781 -2.54237 0.0628431 4
-0.198966 14.2489 -2.25703 0.853778 10
-0.198965 14.2489 -1.74971 0.857981 10
-0.198964 14.2488 -1.24673 0.861139 10
-0.198963 14.2487 -0.746818 0.863247 10
-0.198963 14.2487 -0.248736 0.864303 10
-0.198962 14.2486 0.248735 0.864307 10
-0.198961 14.2486 0.746809 0.863257 10
-0.19896 14.2485 1.2467 0.671454 10
-0.198959 14.2484 1.74966 0.668998 10
-0.198958 14.2484 2.25694 0.665726 10
-0.198958 14.2483 2.76986 0.661644 10
-0.198957 14.2483 3.28979 0.656755 10
-0.198956 14.2482 3.81817 0.651066 10
-0.175414 10.0495 -2.69318 0.0569175 4
-0.200662 11.496 -2.65447 0.0424931 4
-0.228271 13.0778 -2.54245 0.0505366 4
-0.248915 14.2605 -2.25898 0.85304 10
-0.248914 14.2604 -1.75122 0.857239 10
-0.248913 14.2603 -1.24781 0.860394 10
-0.248912 14.2603 -0.747464 0.862501 10
-0.248911 14.2602 -0.248951 0.863556 10
-0.24891 14.2602 0.24895 0.86356 10
-0.248909 14.2601 0.747455 0.862511 10
-0.248908 14.2601 1.24778 0.670874 10
-0.248907 14.26 1.75117 0.668419 10
-0.248906 14.2599 2.2589 0.665151 10
-0.248905 14.2599 2.77226 0.661072 10
-0.248904 14.2598 3.29264 0.656187 10
-0.248902 14.2598 3.82147 0.650503 10
-0.210118 10.0309 -2.68835 0.0713056 4
-0.240798 11.4955 -2.65454 0.0570014 4
-0.273932 13.0773 -2.54253 0.0654759 4
-0.298958 14.272 -2.26096 0.852292 10
-0.298957 14.272 -1.75276 0.856487 10
-0.298955 14.2719 -1.2489 0.859639 10
-0.298954 14.2719 -0.748121 0.861744 10
-0.298953 14.2718 -0.24917 0.862798 10
-0.298952 14.2717 0.249169 0.862802 10
-0.29895 14.2717 0.748111 0.861754 10
-0.298949 14.2716 1.24888 0.670285 10
-0.298948 14.2716 1.75271 0.667833 10
-0.298947 14.2715 2.26088 0.664567 10
-0.298945 14.2714 2.7747 0.660491 10
-0.298944 14.2714 3.29553 0.655611 10
-0.298943 14.2713 3.82483 0.649932 10
-0.244684 10.0119 -2.68348 0.0575568 4
-0.280929 11.4949 -2.65461 0.0456 4
-0.319585 13.0767 -2.5426 0.0544884 4
-0.349082 14.2836 -2.26298 0.851533 10
-0.349081 14.2836 -1.75432 0.855724 10
-0.34908 14.2835 -1.25002 0.858874 10
-0.349078 14.2834 -0.748787 0.860976 10
-0.349077 14.2834 -0.249392 0.86203 10
-0.349075 14.2833 0.249391 0.862033 10
-0.349074 14.2833 0.748778 0.860987 10
-0.349073 14.2832 1.24999 0.669688 10
-0.349071 14.2832 1.75427 0.667238 10
-0.34907 14.2831 2.2629 0.663975 10
-0.349068 14.283 2.77717 0.659903 10
-0.349067 14.283 3.29847 0.655027 10
-0.349065 14.2829 3.82824 0.649354 10
-0.279116 9.99261 -2.67856 0.0540143 4
-0.321057 11.4942 -2.65467 0.0590712 4
-0.365237 13.0759 -2.54268 0.0544867 4
-0.399297 14.2952 -2.26503 0.850763 10
-0.399296 14.2952 -1.75591 0.854951 10
-0.399294 14.2951 -1.25115 0.858097 10
-0.399292 14.2951 -0.749464 0.860198 10
-0.399291 14.295 -0.249617 0.861251 10
-0.399289 14.2949 0.249616 0.861255 10
-0.399287 14.2949 0.749455 0.860209 10
-0.399286 14.2948 1.25112 0.669083 10
-0.399284 14.2948 1.75586 0.666635 10
-0.399282 14.2947 2.26494 0.663375 10
-0.399281 14.2946 2.77968 0.659307 10
-0.399279 14.2946 3.30145 0.654436 10
-0.399277 14.2945 3.8317 0.648767 10
-0.313414 9.97301 -2.67358 0.0572236 4
-0.36119 11.4933 -2.65474 0.0715055 4
-0.410894 13.0749 -2.54276 0.0584396 4
-0.44961 14.3069 -2.2671 0.849983 10
-0.449609 14.3068 -1.75752 0.854168 10
-0.894092 28.4505 -2.49033 0.857311 10
-0.449605 14.3067 -0.750152 0.85941 10
-0.449603 14.3066 -0.249847 0.860462 10
-0.449601 14.3066 0.249845 0.860465 10
-0.449599 14.3065 0.750143 0.85942 10
-0.449598 14.3065 1.25227 0.66847 10
-0.449596 14.3064 1.75747 0.666024 10
-0.449594 14.3063 2.26702 0.662767 10
-0.449592 14.3063 2.78223 0.658703 10
-0.44959 14.3062 3.30448 0.653836 10
-0.449588 14.3062 3.83521 0.648172 10
-0.347568 9.95311 -2.66855 0.0560984 4
-0.401314 11.4922 -2.65481 0.125909 4
-0.456543 13.0738 -2.54283 0.056241 4
-0.50001 14.3185 -2.26921 0.849193 10
-0.500008 14.3185 -1.75916 0.853374 10
-0.994315 28.4737 -2.49264 0.856514 10
-1.18654 33.9784 -1.78182 0.858611 10
-1.68094 48.1363 -0.840734 0.230663 10
-1.68133 48.1473 0.840926 0.23061 10
-0.695821 19.9259 1.04491 0.0472945 10
-0.499995 14.3181 1.25344 0.667848 10
-0.499993 14.318 1.75911 0.665405 10
-0.499991 14.318 2.26913 0.662151 10
-0.499989 14.3179 2.78482 0.658091 10
-0.499987 14.3179 3.30755 0.653228 10
-0.499985 14.3178 3.83878 0.64757 10
-0.381584 9.93291 -2.66348 0.0645404 4
-0.441442 11.491 -2.65487 0.11088 4
-0.502194 13.0725 -2.54291 0.0553605 4
-0.55051 14.3302 -2.27135 0.848393 10
-0.550508 14.3301 -1.76082 0.852569 10
-1.09474 28.4969 -2.495 0.855707 10
-1.30638 34.0061 -1.7835 0.857802 10
-1.84345 47.9863 -0.838221 0.858852 10
-1.84344 47.9861 0.838217 0.858855 10
-0.765292 19.9211 1.04479 0.0472997 10
-0.550494 14.3298 1.25462 0.667219 10
-0.550492 14.3297 1.76077 0.664778 10
-0.55049 14.3297 2.27127 0.661527 10
-0.550488 14.3296 2.78745 0.65747 10
-0.550485 14.3295 3.31068 0.652612 10
-0.550483 14.3295 3.8424 0.646959 10
-0.415451 9.91241 -2.65835 0.0500516 4
-0.48156 11.4897 -2.65494 0.053366 4
-0.547836 13.0711 -2.54299 0.0487685 4
-0.6011 14.3419 -2.27353 0.847582 10
-0.601098 14.3418 -1.7625 0.851754 10
-0.604852 14.4314 -1.26369 0.155818 10
-0.604988 14.4347 -0.757152 0.156163 10
-0.605123 14.4379 -0.252235 0.156319 10
-0.605258 14.4411 0.252291 0.156284 10
-0.605393 14.4443 0.757659 0.156059 10
-0.601083 14.3415 1.25582 0.666581 10
-0.60108 14.3414 1.76245 0.664143 10
-0.601078 14.3414 2.27344 0.660895 10
-0.601075 14.3413 2.79011 0.656842 10
-0.601073 14.3412 3.31384 0.651989 10
-0.60107 14.3412 3.84608 0.646341 10
-0.449391 9.89636 -2.65445 0.0518722 4
-0.52168 11.4883 -2.65501 0.101548 4
-0.593481 13.0695 -2.54306 0.0566753 4
-0.651794 14.3536 -2.27573 0.846761 10
-0.651792 14.3535 -1.76421 0.850929 10
-0.651789 14.3535 -1.25706 0.564129 10
-0.651786 14.3534 -0.753007 0.56551 10
-0.651784 14.3534 -0.250797 0.566202 10
-0.651781 14.3533 0.250796 0.566205 10
-0.651778 14.3533 0.752997 0.565517 10
-0.651776 14.3532 1.25704 0.665935 10
-0.651773 14.3531 1.76416 0.663499 10
-0.65177 14.3531 2.27565 0.660255 10
-0.651767 14.353 2.79282 0.656206 10
-0.651765 14.353 3.31706 0.651357 10
-0.651762 14.3529 3.84981 0.645715 10
-0.483942 9.89494 -2.65451 0.0357731 4
-0.56179 11.4867 -2.65508 0.0538814 4
-0.639115 13.0677 -2.54314 0.0562342 4
-0.702581 14.3654 -2.27797 0.84593 10
-0.702578 14.3653 -1.76594 0.850094 10
-0.702575 14.3652 -1.2583 0.563575 10
-0.702572 14.3652 -0.753747 0.564955 10
-0.702569 14.3651 -0.251044 0.565646 10
-0.702566 14.3651 0.251043 0.565649 10
-0.702563 14.365 0.753738 0.564962 10
-0.70256 14.3649 1.25827 0.665282 10
-0.702558 14.3649 1.76589 0.662848 10
-0.702555 14.3648 2.27788 0.659606 10
-0.702552 14.3648 2.79556 0.655561 10
-0.702549 14.3647 3.32032 0.650718 10
-0.702545 14.3646 3.85359 0.645081 10
-0.518493 9.89341 -2.65457 0.0160976 4
-0.601901 11.4849 -2.65514 0.103615 4
-0.684749 13.0658 -2.54321 0.034706 4
-0.753475 14.3771 -2.28024 0.845088 10
-0.753471 14.3771 -1.7677 0.849248 10
-1.48855 28.4032 -2.48837 0.852373 10
-1.48855 28.4031 -1.49059 0.85446 10
-1.48854 28.403 -0.496456 0.855506 10
-1.48853 28.4029 0.496454 0.855509 10
-1.0429 19.8997 1.04433 0.0473206 10
-0.753453 14.3767 1.25952 0.66462 10
-0.75345 14.3766 1.76765 0.662188 10
-0.753446 14.3766 2.28015 0.65895 10
-0.753443 14.3765 2.79835 0.654909 10
-0.75344 14.3765 3.32362 0.65007 10
-0.753437 14.3764 3.85743 0.644439 10
-0.553034 9.89175 -2.65463 0.0327906 4
-0.642001 11.483 -2.65521 0.0362645 4
-0.730372 13.0637 -2.54329 0.0373408 4
-0.804463 14.3889 -2.28254 0.844236 10
-0.80446 14.3888 -1.76949 0.848392 10
-1.58928 28.4265 -2.49088 0.851514 10
-1.58928 28.4264 -1.49209 0.853598 10
-1.58927 28.4263 -0.496957 0.854643 10
-1.58927 28.4261 0.496955 0.854647 10
-1.11223 19.8938 1.04422 0.0473258 10
-0.80444 14.3885 1.2608 0.66395 10
-0.804437 14.3884 1.76944 0.661521 10
-0.804433 14.3884 2.28245 0.658286 10
-0.80443 14.3883 2.80117 0.654249 10
-0.804427 14.3883 3.32698 0.649415 10
-0.804423 14.3882 3.86132 0.643789 10
-0.58757 9.88998 -2.65468 0.0208663 4
-0.682095 11.481 -2.65528 0.0678647 4
-0.775989 13.0615 -2.54337 0.027236 4
-0.855556 14.4007 -2.28487 0.843374 10
-0.855552 14.4007 -1.7713 0.847525 10
-0.862405 14.516 -1.27222 0.165649 10
-0.862586 14.5191 -0.762253 0.166019 10
-0.862767 14.5221 -0.253931 0.166186 10
-0.862949 14.5252 0.253984 0.166151 10
-0.86313 14.5282 0.762734 0.165914 10
-0.855531 14.4003 1.26208 0.663271 10
-0.855528 14.4002 1.77125 0.660845 10
-0.855524 14.4002 2.28479 0.657613 10
-0.85552 14.4001 2.80404 0.653581 10
-0.855517 14.4001 3.33038 0.648751 10
-0.855513 14.4 3.86527 0.643132 10
-0.622105 9.88808 -2.65474 0.117445 4
-0.722188 11.4789 -2.65534 0.0984272 4
-0.821606 13.0591 -2.54344 0.0566668 4
-0.906761 14.4126 -2.28724 0.842501 10
-0.906757 14.4125 -1.77313 0.846648 10
-0.906753 14.4124 -1.26342 0.561291 10
-0.906749 14.4124 -0.756814 0.562665 10
-0.906746 14.4123 -0.252065 0.563354 10
-0.906742 14.4123 0.252064 0.563356 10
-0.906738 14.4122 0.756805 0.562672 10
-0.906735 14.4121 1.26339 0.662585 10
-0.906731 14.4121 1.77308 0.660161 10
-0.906727 14.412 2.28715 0.656933 10
-0.906723 14.412 2.80694 0.652904 10
-0.906719 14.4119 3.33383 0.64808 10
-0.906715 14.4118 3.86927 0.642466 10
-0.656629 9.88606 -2.6548 0.124 4
-0.762269 11.4766 -2.65541 0.0771857 4
-0.867208 13.0565 -2.54352 0.0487583 4
-0.958065 14.4244 -2.28964 0.841618 10
-0.958061 14.4244 -1.77499 0.845761 10
-0.958057 14.4243 -1.26474 0.560703 10
-0.958053 14.4242 -0.757608 0.562076 10
-0.958049 14.4242 -0.25233 0.562764 10
-0.958045 14.4241 0.252329 0.562766 10
-0.958041 14.4241 0.757599 0.562082 10
-0.958037 14.424 1.26472 0.661891 10
-0.958034 14.4239 1.77494 0.659469 10
-0.958029 14.4239 2.28955 0.656245 10
-0.958025 14.4238 2.80988 0.65222 10
-0.958021 14.4238 3.33732 0.647401 10
-0.958017 14.4237 3.87333 0.641793 10
-0.691151 9.88392 -2.65486 0.0906135 4
-0.802348 11.4741 -2.65548 0.0694136 4
-0.912809 13.0538 -2.54359 0.0351401 4
-1.00949 14.4363 -2.29207 0.840725 10
-1.00948 14.4362 -1.77688 0.844863 10
-2.00745 28.7079 -2.51775 0.847973 10
-2.39555 34.2579 -1.79977 0.850049 10
-2.39564 34.2592 -0.599457 0.172083 10
-2.39612 34.2662 0.599578 0.172048 10
-1.38928 19.8676 1.04376 0.0473466 10
-1.00946 14.4359 1.26606 0.661188 10
-1.00945 14.4358 1.77683 0.65877 10
-1.00945 14.4358 2.29198 0.655548 10
-1.00944 14.4357 2.81287 0.651528 10
-1.00944 14.4356 3.34087 0.646714 10
-1.00943 14.4356 3.87745 0.641112 10
-0.725662 9.88166 -2.65491 0.125187 4
-0.842414 11.4715 -2.65554 0.0362599 4
-0.958396 13.0509 -2.54367 0.0614933 4
-1.06101 14.4482 -2.29454 0.839822 10
-1.061 14.4482 -1.77879 0.843956 10
-2.10991 28.7316 -2.52046 0.847062 10
-2.51781 34.2862 -1.8017 0.849135 10
-5.7336 78.0769 -1.36651 0.205989 10
-5.73357 78.0766 1.3665 0.313666 10
-1.45845 19.8604 1.04364 0.0473517 10
-1.06098 14.4478 1.26742 0.660478 10
-1.06097 14.4477 1.77874 0.658062 10
-1.06097 14.4477 2.29445 0.654844 10
-1.06096 14.4476 2.81589 0.650828 10
-1.06096 14.4476 3.34446 0.646019 10
-1.06095 14.4475 3.88162 0.640423 10
-0.76017 9.87928 -2.65497 0.103724 4
-0.845028 10.9821 -2.54292 0.0663022 4
-1.00398 13.0479 -2.54375 0.0641268 4
-1.11265 14.4602 -2.29703 0.838908 10
-1.11265 14.4601 -1.78073 0.843037 10
-1.12258 14.5892 -1.28017 0.17543 10
-1.1228 14.5921 -0.767002 0.175824 10
-1.12303 14.595 -0.25551 0.176003 10
-1.12325 14.5979 0.255561 0.175968 10
-1.12347 14.6008 0.767458 0.175719 10
-1.11262 14.4597 1.2688 0.65976 10
-1.11261 14.4597 1.78067 0.657346 10
-1.11261 14.4596 2.29695 0.654131 10
-1.1126 14.4596 2.81896 0.65012 10
-1.1126 14.4595 3.34811 0.645316 10
-1.11259 14.4594 3.88585 0.639727 10
-0.794666 9.87678 -2.65503 0.129354 4
-0.883378 10.9794 -2.54298 0.07666 4
-1.04955 13.0447 -2.54382 0.0619289 4
-1.1644 14.4721 -2.29957 0.837984 10
-1.16439 14.4721 -1.78269 0.842109 10
-1.16439 14.472 -1.27023 0.558282 10
-1.16438 14.4719 -0.760894 0.559649 10
-1.16438 14.4719 -0.253424 0.560334 10
-1.16437 14.4718 0.253423 0.560336 10
-1.16437 14.4718 0.760884 0.559656 10
-1.16436 14.4717 1.2702 0.659033 10
-1.16436 14.4716 1.78264 0.656622 10
-1.16435 14.4716 2.29948 0.653411 10
-1.16435 14.4715 2.82207 0.649404 10
-1.16434 14.4715 3.3518 0.644606 10
-1.16434 14.4714 3.89013 0.639022 10
-0.829153 9.87416 -2.65509 0.126967 4
-0.921718 10.9765 -2.54304 0.0580115 4
-1.09511 13.0413 -2.5439 0.0636838 4
-1.21626 14.4841 -2.30213 0.83705 10
-1.21625 14.4841 -1.78468 0.841171 10
-1.21625 14.484 -1.27165 0.55766 10
-1.21624 14.4839 -0.761743 0.559025 10
-1.21624 14.4839 -0.253707 0.559709 10
-1.21623 14.4838 0.253706 0.559711 10
-1.21623 14.4838 0.761733 0.559032 10
-1.21537 14.4735 1.27072 0.21148 10
-1.21561 14.4763 1.78373 0.210664 10
-1.21585 14.4792 2.30135 0.209592 10
-1.21609 14.4821 2.82494 0.208264 10
-1.2162 14.4834 3.35554 0.643887 10
-1.2162 14.4834 3.89447 0.63831 10
-0.863636 9.87142 -2.65514 0.119215 4
-0.960055 10.9735 -2.54311 0.0642254 4
-1.14066 13.0378 -2.54397 0.0680738 4
-1.26825 14.4961 -2.30473 0.836106 10
-1.26824 14.4961 -1.78669 0.840222 10
-2.52202 28.8269 -2.53166 0.843314 10
-3.0096 34.3999 -1.80971 0.845378 10
-3.00958 34.3997 -0.602743 0.559078 10
-3.00957 34.3996 0.60274 0.55908 10
-1.73485 19.8295 1.04319 0.0473724 10
-1.25229 14.3137 1.25707 0.213777 10
-1.25253 14.3165 1.76456 0.212952 10
-1.25277 14.3193 2.27662 0.211869 10
-1.25302 14.3221 2.79457 0.210527 10
-1.25327 14.325 3.31982 0.208929 10
-1.25353 14.3279 3.85382 0.207076 10
-0.898106 9.86856 -2.6552 0.116233 4
-0.998376 10.9703 -2.54317 0.0574907 4
-1.18619 13.0341 -2.54405 0.06368 4
-1.32034 14.5082 -2.30737 0.835151 10
-1.32034 14.5081 -1.78874 0.839263 10
-2.62562 28.8508 -2.53455 0.842351 10
-3.13322 34.4285 -1.81178 0.844414 10
-3.14866 34.598 -0.606407 0.183818 10
-3.14925 34.6046 0.606521 0.183783 10
-1.80386 19.8211 1.04307 0.0473776 10
-1.28842 14.1574 1.24373 0.216071 10
-1.28866 14.1601 1.74582 0.215238 10
-1.28891 14.1628 2.25244 0.214143 10
-1.28916 14.1656 2.76489 0.212787 10
-1.28942 14.1684 3.28455 0.211172 10
-1.28968 14.1713 3.81287 0.2093 10
-0.932571 9.86557 -2.65526 0.129343 4
-1.03669 10.9671 -2.54323 0.0709552 4
-1.23173 13.0303 -2.54412 0.0557733 4
-1.37257 14.5203 -2.31003 0.834187 10
-1.37256 14.5202 -1.7908 0.838293 10
-1.38507 14.6525 -1.28764 0.185157 10
-1.38533 14.6552 -0.771473 0.185575 10
-1.38559 14.658 -0.256997 0.185766 10
-1.38585 14.6608 0.257045 0.185732 10
-1.38611 14.6635 0.771908 0.18547 10
-1.33682 14.1421 1.24279 0.656047 10
-1.33681 14.142 1.74416 0.653647 10
-1.33681 14.142 2.24985 0.65045 10
-1.3368 14.1419 2.76116 0.646461 10
-1.3368 14.1418 3.27946 0.641685 10
-1.33679 14.1418 3.80617 0.636127 10
-0.967021 9.86247 -2.65531 0.118016 4
-1.07499 10.9637 -2.5433 0.0574878 4
-1.27724 13.0263 -2.5442 0.0663112 4
-1.42491 14.5324 -2.31274 0.833212 10
-1.4249 14.5323 -1.7929 0.837314 10
-1.42489 14.5322 -1.2775 0.555103 10
-1.42489 14.5322 -0.765251 0.556462 10
-1.42488 14.5321 -0.254876 0.557143 10
-1.42488 14.5321 0.254874 0.557145 10
-1.42487 14.532 0.765242 0.556469 10
-1.3878 14.1539 1.24424 0.65528 10
-1.38779 14.1538 1.7462 0.652883 10
-1.38778 14.1538 2.25248 0.64969 10
-1.38778 14.1537 2.76439 0.645706 10
-1.38777 14.1536 3.28329 0.640935 10
-1.38777 14.1536 3.81062 0.635383 10
-1.00147 9.85925 -2.65537 0.116225 4
-1.11329 10.9601 -2.54336 0.0673264 4
-1.32274 13.0221 -2.54427 0.0676266 4
-1.47738 14.5445 -2.31547 0.832227 10
-1.47737 14.5444 -1.79502 0.836324 10
-1.47736 14.5444 -1.27901 0.554446 10
-1.47736 14.5443 -0.766157 0.555804 10
-1.47735 14.5442 -0.255177 0.556484 10
-1.47734 14.5442 0.255176 0.556486 10
-1.47734 14.5441 0.766147 0.555811 10
-1.48454 14.615 1.28522 0.417824 10
-1.43887 14.1654 3.81513 0.634632 10
-1.03589 9.8559 -2.65543 0.134699 4
-1.15156 10.9564 -2.54342 0.026412 4
-1.36823 13.0178 -2.54435 0.0548901 4
-1.52996 14.5566 -2.31825 0.831232 10
-1.52996 14.5566 -1.79717 0.835324 10
-2.55156 24.2766 -2.13562 0.838398 10
-2.55155 24.2765 -1.27928 0.840451 10
-2.55154 24.2764 -0.42608 0.841479 10
-2.55153 24.2763 0.426078 0.841483 10
-2.07952 19.7854 1.04262 0.0473982 10
-1.53738 14.6272 1.28676 0.417324 10
-1.49008 14.1772 3.8197 0.633874 10
-1.07032 9.85244 -2.65548 0.0983401 4
-1.18984 10.9526 -2.54349 0.0233041 4
-1.4137 13.0134 -2.54442 0.061036 4
-1.58268 14.5688 -2.32105 0.830227 10
-1.58268 14.5688 -1.79935 0.834314 10
-2.63949 24.2969 -2.13821 0.837384 10
-2.63948 24.2968 -1.28083 0.839434 10
-2.63947 24.2967 -0.426596 0.840462 10
-2.63946 24.2966 0.426593 0.840465 10
-2.14835 19.7759 1.04251 0.0474034 10
-1.59035 14.6394 1.28832 0.416819 10
-1.54143 14.1891 3.82432 0.633107 10
-1.10472 9.84885 -2.65554 0.097742 4
-1.22809 10.9487 -2.54355 0.0341785 4
-1.45916 13.0087 -2.5445 0.0461049 4
-1.63553 14.5811 -2.3239 0.829212 10
-1.63552 14.581 -1.80155 0.833293 10
-1.64963 14.7068 -1.29474 0.194828 10
-1.64992 14.7094 -0.775722 0.19527 10
-1.65022 14.712 -0.25841 0.195473 10
-1.65051 14.7147 0.258456 0.195438 10
-1.65081 14.7173 0.776137 0.195165 10
-1.64345 14.6517 1.2899 0.41631 10
-1.59289 14.201 3.82901 0.632333 10
-1.13912 9.84515 -2.6556 0.117407 4
-1.26633 10.9446 -2.54361 0.066284 4
-1.5046 13.0039 -2.54458 0.0689358 4
-1.6885 14.5933 -2.32677 0.828186 10
-1.68849 14.5932 -1.80378 0.832263 10
-1.68848 14.5932 -1.28526 0.551754 10
-1.68848 14.5931 -0.769895 0.553105 10
-1.68847 14.5931 -0.256422 0.553782 10
-1.68846 14.593 0.256421 0.553785 10
-1.68846 14.5929 0.769886 0.553112 10
-1.69668 14.664 1.29149 0.415795 10
-1.64449 14.2129 3.83375 0.631551 10
-1.17351 9.84132 -2.65565 0.108465 4
-1.30486 10.9429 -2.54427 0.114485 4
-1.55004 12.999 -2.54465 0.0588352 4
-1.74161 14.6056 -2.32969 0.827151 10
-1.7416 14.6055 -1.80604 0.831222 10
-1.74159 14.6055 -1.28686 0.551064 10
-1.74159 14.6054 -0.770859 0.552414 10
-1.74158 14.6053 -0.256743 0.55309 10
-1.74157 14.6053 0.256742 0.553092 10
-1.74156 14.6052 0.770849 0.55242 10
-1.75005 14.6764 1.29311 0.415275 10
-1.69621 14.2249 3.83855 0.630761 10
-1.20787 9.83737 -2.65571 0.114422 4
-1.34463 10.9511 -2.54725 0.146694 4
-1.59545 12.9939 -2.54472 0.0619069 4
-1.79485 14.6179 -2.33263 0.826105 10
-1.79484 14.6178 -1.80832 0.830172 10
-3.56922 29.069 -2.56231 0.833227 10
-3.57781 29.139 -1.53858 0.201058 10
-3.57843 29.144 -0.512531 0.201268 10
-3.57905 29.1491 0.512619 0.201234 10
-2.4232 19.7354 1.04206 0.0474239 10
-1.80354 14.6887 1.29475 0.41475 10
-1.74806 14.2369 3.8434 0.629964 10
-1.24224 9.83331 -2.65577 0.115016 4
-1.38449 10.9593 -2.55027 0.120795 4
-1.64084 12.9886 -2.5448 0.0553194 4
-1.84823 14.6302 -2.33562 0.825049 10
-1.84822 14.6302 -1.81064 0.829111 10
-3.67108 29.0596 -2.56259 0.0771594 10
-3.67535 29.0934 -1.53684 0.55101 10
-3.67534 29.0933 -0.511862 0.551685 10
-3.67532 29.0932 0.511859 0.551687 10
-2.49181 19.7247 1.04194 0.047429 10
-1.85718 14.7011 1.2964 0.41422 10
-1.80005 14.2489 3.84832 0.629159 10
-1.27658 9.82912 -2.65583 0.121568 4
-1.42443 10.9676 -2.55332 0.119913 4
-1.68622 12.9832 -2.54487 0.0720009 4
-1.90174 14.6426 -2.33864 0.823984 10
-1.90173 14.6425 -1.81298 0.82804 10
-1.91607 14.7529 -1.30155 0.20444 10
-1.91639 14.7554 -0.779795 0.204905 10
-1.91672 14.758 -0.259765 0.20512 10
-1.91705 14.7605 0.259809 0.205085 10
-1.91737 14.763 0.780193 0.2048 10
-1.91095 14.7136 1.29808 0.413685 10
-1.85217 14.2609 3.8533 0.628347 10
-1.31091 9.82481 -2.65588 0.080448 4
-1.46448 10.9758 -2.55641 0.114425 4
-1.73158 12.9776 -2.54495 0.0597063 4
-1.9554 14.655 -2.3417 0.822908 10
-1.95539 14.6549 -1.81535 0.826959 10
-1.95538 14.6549 -1.2935 0.548238 10
-1.95537 14.6548 -0.774833 0.54958 10
-1.95536 14.6548 -0.258067 0.550253 10
-1.95536 14.6547 0.258066 0.550255 10
-1.95535 14.6546 0.774823 0.549587 10
-1.96487 14.726 1.29978 0.413145 10
-1.90443 14.273 3.85834 0.627526 10
-1.34522 9.82039 -2.65594 0.0250277 4
-1.50462 10.984 -2.55954 0.114372 4
-1.77692 12.9719 -2.54502 0.0614606 4
-2.00919 14.6674 -2.34479 0.821822 10
-2.00918 14.6674 -1.81775 0.825868 10
-2.00917 14.6673 -1.29521 0.547515 10
-2.00916 14.6673 -0.775857 0.548855 10
-2.00915 14.6672 -0.258408 0.549527 10
-2.00915 14.6671 0.258406 0.549529 10
-2.00914 14.6671 0.775847 0.548862 10
-2.01892 14.7385 1.30149 0.4126 10
-1.95682 14.2851 3.86343 0.626698 10
-1.37953 9.81584 -2.65599 0.041712 4
-1.54486 10.9923 -2.5627 0.136608 4
-1.82225 12.966 -2.5451 0.0610198 4
-2.06313 14.6799 -2.34792 0.820726 10
-2.06312 14.6799 -1.82017 0.824767 10
-4.07752 29.0131 -2.56326 0.0771392 10
-4.10914 29.238 -1.54736 0.210656 10
-4.10982 29.2428 -0.515452 0.210879 10
-4.1105 29.2477 0.515537 0.210844 10
-2.76578 19.6795 1.0415 0.0474494 10
-2.07313 14.7511 1.30323 0.41205 10
-2.06302 14.6792 3.97192 0.625863 10
-1.41381 9.81117 -2.65605 0.0291978 4
-1.5852 11.0005 -2.5659 0.132947 4
-1.86755 12.9599 -2.54517 0.0592621 4
-2.11721 14.6924 -2.35109 0.819621 10
-2.1172 14.6924 -1.82263 0.823655 10
-4.17904 29.0006 -2.56343 0.0771342 10
-5.02422 34.8657 -1.84611 0.828711 10
-5.02419 34.8655 -0.614866 0.829725 10
-5.02417 34.8654 0.614863 0.829729 10
-2.83415 19.6676 1.04138 0.0474545 10
-2.12747 14.7636 1.30499 0.411495 10
-2.1171 14.6917 3.97728 0.62502 10
-1.44808 9.80639 -2.65611 0.0178758 4
-1.62563 11.0088 -2.56914 0.0999765 4
-1.91283 12.9537 -2.54525 0.0596994 4
-2.17144 14.705 -2.35429 0.818505 10
-2.17143 14.7049 -1.82511 0.822534 10
-2.18423 14.7916 -1.30813 0.21399 10
-2.18459 14.794 -0.78373 0.214478 10
-2.18494 14.7964 -0.261074 0.214704 10
-2.1853 14.7988 0.261116 0.21467 10
-2.18565 14.8012 0.784112 0.214373 10
-2.18196 14.7762 1.30677 0.410935 10
-2.18195 14.7762 1.83396 0.409431 10
-2.18194 14.7761 2.36568 0.407429 10
-2.18193 14.776 2.90331 0.404931 10
-2.18192 14.776 3.44829 0.401939 10
-2.17132 14.7042 3.9827 0.624169 10
-1.48233 9.80148 -2.65616 0.0291966 4
-1.66617 11.0171 -2.57241 0.109261 4
-1.9581 12.9473 -2.54532 0.0601366 4
-2.22582 14.7175 -2.35754 0.817379 10
-2.22581 14.7175 -1.82763 0.821403 10
-2.2258 14.7174 -1.30225 0.544554 10
-2.22579 14.7173 -0.780074 0.545888 10
-2.22578 14.7173 -0.259812 0.546556 10
-2.22577 14.7172 0.259811 0.546558 10
-2.22576 14.7172 0.780064 0.545895 10
-2.2366 14.7888 1.30857 0.410369 10
-2.2257 14.7168 3.98819 0.62331 10
-1.51657 9.79645 -2.65622 0.0411127 4
-1.70681 11.0253 -2.57572 0.12154 4
-2.00333 12.9408 -2.5454 0.0570622 4
-2.28034 14.7301 -2.36082 0.816243 10
-2.28033 14.7301 -1.83017 0.820262 10
-2.28032 14.73 -1.30406 0.543798 10
-2.28031 14.7299 -0.781159 0.545129 10
-2.2803 14.7299 -0.260174 0.545797 10
-2.28029 14.7298 0.260173 0.545799 10
-2.28028 14.7298 0.78115 0.545136 10
-2.29139 14.8015 1.31039 0.409799 10
-2.28022 14.7294 3.99374 0.622444 10
