VERSION 0.7
FIELDS x y z intensity label
SIZE 4 4 4 4 4
TYPE F F F F F
COUNT 1 1 1 1 1
WIDTH 1287
HEIGHT 1
VIEWPOINT 5.36677 37.94 2.72867 0.825643 -0.00030727 0.000594511 0.564192
POINTS 1287
DATA ascii
13.7972 16.4429 -2.63553 0.014139 4
19.8786 23.6904 -2.70564 0.033395 1
20.8541 24.8529 -1.70028 0.20252 10
20.8533 24.852 -0.566277 0.202746 10
20.8525 24.8511 0.566255 0.202726 10
20.8517 24.8501 1.70008 0.202458 10
24.1321 28.7595 5.94621 0.325374 10
22.808 27.1815 6.89719 0.130461 10
6.04834 7.25944 -2.53183 0.087399 4
7.40821 8.8916 -2.67192 0.0961542 4
8.6981 10.4398 -2.64133 0.0176709 4
10.6659 12.8016 -2.6391 0.0659737 4
19.7966 23.7607 -2.70576 0.0333935 1
20.7898 24.9527 -1.70212 0.204804 10
20.789 24.9517 -0.566892 0.205033 10
20.7882 24.9508 0.56687 0.205013 10
20.7874 24.9498 1.70193 0.204742 10
23.9667 28.7657 5.93016 0.593603 10
22.7125 27.2604 6.89705 0.130464 10
6.02306 7.28062 -2.53187 0.073031 4
7.38312 8.92465 -2.67409 0.114418 4
8.66178 10.4703 -2.64138 0.0212047 4
10.6214 12.8391 -2.63916 0.0764842 4
13.683 16.5399 -2.6357 0.0497661 4
19.7145 23.8307 -2.70588 0.033392 1
20.7253 25.0526 -1.704 0.207086 10
20.7246 25.0517 -0.567516 0.207318 10
20.7238 25.0507 0.567494 0.207297 10
20.723 25.0498 1.7038 0.207024 10
23.7163 28.668 5.89292 0.592457 10
22.6168 27.339 6.89691 0.130466 10
5.99769 7.30171 -2.5319 0.0891923 4
7.35793 8.95769 -2.67627 0.116943 4
8.62535 10.5007 -2.64143 0.0176702 4
10.5768 12.8764 -2.63923 0.0735825 4
13.6256 16.5881 -2.63579 0.0650332 4
19.632 23.9004 -2.706 0.0333905 1
20.6607 25.1528 -1.70589 0.209365 10
20.66 25.1518 -0.568148 0.2096 10
20.6592 25.1509 0.568126 0.20958 10
20.6584 25.1499 1.7057 0.209304 10
23.4689 28.5715 5.8562 0.591303 10
22.5208 27.4172 6.89677 0.130469 10
5.97226 7.32271 -2.53194 0.080212 4
7.33266 8.99072 -2.67848 0.111614 4
8.58882 10.5309 -2.64149 0.0181116 4
10.532 12.9136 -2.6393 0.0333469 4
13.5681 16.6361 -2.63587 0.0523076 4
19.5494 23.9699 -2.70612 0.033389 1
20.6058 25.2651 -1.70863 0.29995 10
20.6048 25.264 -0.569054 0.300299 10
20.6039 25.2629 0.569028 0.300282 10
20.603 25.2618 1.7084 0.299899 10
23.2247 28.4762 5.82002 0.590141 10
22.4245 27.4951 6.89663 0.130472 10
5.94674 7.34362 -2.53198 0.081408 4
7.30728 9.02374 -2.6807 0.121977 4
8.55218 10.5611 -2.64154 0.0106017 4
10.4872 12.9506 -2.63936 0.0130485 4
13.5103 16.6839 -2.63596 0.0562642 4
19.4664 24.0391 -2.70624 0.0333875 1
20.5525 25.3802 -1.71154 0.3021 10
20.5516 25.3791 -0.570026 0.302451 10
20.5507 25.378 0.57 0.302434 10
20.5498 25.3768 1.71132 0.302049 10
22.9834 28.3821 5.78435 0.588973 10
22.3279 27.5726 6.89649 0.130474 10
5.92116 7.36444 -2.53202 0.0766182 4
7.28182 9.05675 -2.68294 0.111429 4
8.51544 10.5911 -2.64159 0.0344548 4
10.4422 12.9874 -2.63943 0.0163102 4
13.4524 16.7315 -2.63604 0.0599379 4
19.3833 24.1079 -2.70636 0.033386 1
20.499 25.4956 -1.71449 0.304245 10
20.4981 25.4945 -0.571008 0.304599 10
20.4972 25.4934 0.570982 0.304582 10
20.4963 25.4922 1.71427 0.304194 10
22.745 28.2891 5.74918 0.587797 10
22.2311 27.6498 6.89635 0.130477 10
5.8955 7.38517 -2.53205 0.0754199 4
7.25626 9.08976 -2.6852 0.106986 4
8.47859 10.6209 -2.64165 0.011043 4
10.397 13.0241 -2.63949 0.0119605 4
13.3944 16.7789 -2.63612 0.0183766 4
19.2999 24.1765 -2.70649 0.0333845 1
20.4454 25.6115 -1.71747 0.306387 10
20.4445 25.6103 -0.572001 0.306744 10
20.4436 25.6092 0.571975 0.306727 10
20.4427 25.6081 1.71725 0.306336 10
22.5096 28.1972 5.71451 0.586614 10
22.1339 27.7267 6.89621 0.13048 10
5.86978 7.40582 -2.53209 0.0790102 4
7.2306 9.12274 -2.68747 0.099074 4
8.44164 10.6507 -2.6417 0.0251775 4
10.3518 13.0607 -2.63956 0.0134099 4
13.3362 16.8261 -2.63621 0.0243129 4
19.2162 24.2449 -2.70661 0.033383 1
20.3916 25.7277 -1.72049 0.308525 10
20.3906 25.7266 -0.573004 0.308885 10
20.3897 25.7254 0.572978 0.308868 10
20.3888 25.7243 1.72026 0.308474 10
22.2769 28.1065 5.68032 0.585424 10
22.0366 27.8032 6.89607 0.130482 10
5.84398 7.42637 -2.53213 0.0724249 4
6.7798 8.61559 -2.53108 0.065576 4
8.40458 10.6803 -2.64176 0.0181098 4
10.3064 13.097 -2.63963 0.0300809 4
13.2778 16.8731 -2.63629 0.0155484 4
19.1324 24.3129 -2.70673 0.0333815 1
20.3375 25.8444 -1.72353 0.31066 10
20.3366 25.8432 -0.574017 0.311022 10
20.3357 25.8421 0.573991 0.311005 10
20.3348 25.8409 1.7233 0.310609 10
22.047 28.0168 5.64661 0.584227 10
21.9389 27.8794 6.89592 0.130485 10
5.81811 7.44684 -2.53217 0.0778107 4
6.7498 8.63935 -2.53112 0.0510027 4
8.36742 10.7098 -2.64181 0.0225263 4
19.0482 24.3806 -2.70685 0.03338 1
20.2833 25.9615 -1.7266 0.31279 10
20.2824 25.9603 -0.575042 0.313155 10
20.2815 25.9591 0.575015 0.313138 10
20.2806 25.958 1.72637 0.312739 10
21.8199 27.9282 5.61336 0.583023 10
21.8209 27.9294 6.88941 0.579474 10
5.79217 7.46721 -2.5322 0.0724227 4
6.71972 8.66301 -2.53117 0.0686963 4
8.33016 10.7392 -2.64186 0.00750862 4
13.1605 16.9664 -2.63647 0.0197876 4
18.9639 24.4481 -2.70698 0.0333785 1
20.2336 26.085 -1.73011 0.378869 10
20.2326 26.0837 -0.576207 0.379318 10
20.2316 26.0824 0.576178 0.379304 10
20.2306 26.0811 1.72985 0.378828 10
21.5954 27.8406 5.58057 0.581812 10
21.5963 27.8418 6.84917 0.57827 10
5.76615 7.4875 -2.53224 0.0640423 4
6.68956 8.68657 -2.53121 0.0749401 4
8.29278 10.7684 -2.64192 0.0357756 4
10.1694 13.2052 -2.63982 0.0264547 4
18.8793 24.5153 -2.7071 0.033377 1
20.1893 26.2164 -1.73414 0.380861 10
20.1883 26.215 -0.577548 0.381312 10
20.1873 26.2137 0.577518 0.381298 10
20.1863 26.2124 1.73388 0.380819 10
21.3725 27.7528 4.30097 0.58342 10
21.3735 27.754 5.54823 0.580593 10
21.3744 27.7552 6.80947 0.577059 10
21.3763 27.7577 9.38756 0.567886 10
5.74006 7.50769 -2.53228 0.0849894 4
6.65931 8.71001 -2.53125 0.0759796 4
8.25532 10.7975 -2.64197 0.0326832 4
10.1235 13.241 -2.63989 0.014133 4
13.0426 17.059 -2.63664 0.0282662 4
18.7945 24.5821 -2.70722 0.0333754 1
20.1448 26.3483 -1.73821 0.382847 10
20.1438 26.347 -0.578902 0.3833 10
20.1428 26.3456 0.578872 0.383287 10
20.1417 26.3443 1.73794 0.382806 10
21.1532 27.6672 4.27624 0.582189 10
21.1541 27.6684 5.51633 0.579368 10
21.1551 27.6697 6.77031 0.575841 10
21.157 27.6721 9.33358 0.566688 10
5.71391 7.52779 -2.53232 0.0778061 4
6.62898 8.73336 -2.5313 0.0520399 4
8.21774 10.8265 -2.64203 0.0101581 4
10.0775 13.2766 -2.63996 0.0141326 4
18.7094 24.6487 -2.70735 0.0333739 1
20.1001 26.4809 -1.74231 0.384829 10
20.0991 26.4795 -0.58027 0.385285 10
20.098 26.4782 0.58024 0.385271 10
20.097 26.4769 1.74205 0.384788 10
20.9364 27.5826 4.25184 0.58095 10
20.9373 27.5838 5.48485 0.578135 10
20.9382 27.585 6.73168 0.574616 10
20.9401 27.5875 9.28032 0.565482 10
5.68768 7.54781 -2.53236 0.0766079 4
6.59857 8.7566 -2.53134 0.0738954 4
8.18008 10.8553 -2.64208 0.0242906 4
10.0313 13.312 -2.64003 0.018843 4
18.6241 24.715 -2.70747 0.0333724 1
20.0552 26.6141 -1.74646 0.386807 10
20.0541 26.6127 -0.581651 0.387265 10
20.0531 26.6114 0.581621 0.387251 10
20.0521 26.61 1.74619 0.386765 10
20.722 27.499 4.22778 0.579705 10
20.7229 27.5002 5.45381 0.576896 10
20.7238 27.5014 6.69358 0.573384 10
20.7256 27.5038 9.22778 0.56427 10
5.66138 7.56773 -2.53239 0.0819931 4
6.5702 8.78257 -2.5322 0.234489 4
8.1423 10.884 -2.64214 0.0251734 4
9.98506 13.3473 -2.64009 0.0119578 4
18.5386 24.781 -2.7076 0.0333709 1
20.01 26.7479 -1.75065 0.388779 10
20.009 26.7466 -0.583046 0.38924 10
20.008 26.7452 0.583016 0.389226 10
20.0069 26.7438 1.75038 0.388738 10
20.51 27.4163 4.20403 0.578452 10
20.5109 27.4175 5.42317 0.575649 10
20.5118 27.4187 6.65598 0.572145 10
20.5136 27.4211 9.17594 0.563051 10
5.63502 7.58756 -2.53243 0.0927646 4
6.5516 8.82173 -2.53689 0.215332 4
8.10443 10.9126 -2.64219 0.0238479 4
9.93866 13.3824 -2.64016 0.0199291 4
12.8048 17.2417 -2.63698 0.0466331 4
18.4528 24.8467 -2.70772 0.0333693 1
19.9647 26.8824 -1.75488 0.390747 10
19.9636 26.881 -0.584455 0.39121 10
19.9626 26.8797 0.584424 0.391196 10
19.9616 26.8783 1.75461 0.390706 10
20.3004 27.3346 4.1806 0.577192 10
20.3013 27.3357 5.39295 0.574396 10
20.3022 27.3369 6.61888 0.570899 10
20.304 27.3393 9.12479 0.561825 10
5.60858 7.6073 -2.53247 0.0760059 4
6.53292 8.86103 -2.54162 0.160731 4
8.06645 10.9411 -2.64225 0.0238475 4
9.89214 13.4174 -2.64023 0.0101455 4
18.3668 24.9121 -2.70785 0.0333678 1
19.9191 27.0176 -1.75915 0.39271 10
19.918 27.0162 -0.585878 0.393176 10
19.917 27.0148 0.585847 0.393162 10
19.916 27.0134 1.75888 0.392669 10
20.0931 27.2537 4.15748 0.575925 10
20.094 27.2548 5.36312 0.573135 10
20.0949 27.256 6.58227 0.569646 10
20.0966 27.2584 9.07432 0.560592 10
5.58208 7.62694 -2.53251 0.0789971 4
6.51415 8.90046 -2.54639 0.205201 4
8.02838 10.9694 -2.6423 0.0123651 4
9.8455 13.4522 -2.6403 0.0217397 4
12.685 17.3318 -2.63716 0.0158259 4
18.2806 24.9772 -2.70797 0.0333662 1
19.8733 27.1534 -1.76347 0.394669 10
19.8722 27.152 -0.587314 0.395136 10
19.8712 27.1506 0.587284 0.395122 10
19.8702 27.1492 1.76319 0.394627 10
19.8873 27.1726 2.94598 0.576736 10
19.8882 27.1737 4.13467 0.574652 10
19.889 27.1749 5.33369 0.571868 10
19.8898 27.176 6.54615 0.568387 10
19.8916 27.1784 9.02452 0.559353 10
5.55551 7.6465 -2.53255 0.0873743 4
6.49531 8.94001 -2.5512 0.26812 4
7.99021 10.9976 -2.64236 0.0203136 4
9.79874 13.4868 -2.64036 0.0101449 4
12.6248 17.3766 -2.63724 0.0279771 4
18.1941 25.042 -2.7081 0.0333647 1
19.8229 27.2838 -1.76743 0.370206 10
19.8219 27.2825 -0.588638 0.370642 10
19.8209 27.2811 0.588608 0.370627 10
19.82 27.2798 1.76718 0.37016 10
19.6846 27.0935 2.92994 0.246598 10
19.6854 27.0946 4.11215 0.245706 10
19.6862 27.0958 5.30464 0.244516 10
19.6871 27.0969 6.5105 0.243028 10
19.6879 27.0981 7.73294 0.241243 10
19.6888 27.0992 8.97537 0.239165 10
5.52887 7.66596 -2.53259 0.059246 4
6.47637 8.97971 -2.55606 0.213716 4
7.95194 11.0256 -2.64241 0.0150141 4
9.75185 13.5213 -2.64043 0.0123185 4
12.5645 17.4211 -2.63733 0.0214766 4
18.1074 25.1066 -2.70822 0.0333631 1
19.7719 27.4144 -1.77141 0.372217 10
19.771 27.4131 -0.589963 0.372656 10
19.77 27.4118 0.589934 0.372641 10
19.769 27.4104 1.77115 0.372171 10
19.484 27.0153 2.91411 0.246044 10
19.4848 27.0164 4.08993 0.245155 10
19.4856 27.0175 5.27597 0.243967 10
19.4865 27.0186 6.47531 0.242482 10
19.4873 27.0198 7.69114 0.240702 10
19.4881 27.021 8.92685 0.238628 10
5.50216 7.68533 -2.53262 0.0771982 4
6.45736 9.01954 -2.56097 0.133549 4
9.70484 13.5556 -2.6405 0.0202888 4
18.0205 25.1708 -2.70835 0.0333616 1
19.7208 27.5456 -1.77543 0.374223 10
19.7198 27.5443 -0.591301 0.374665 10
19.7188 27.5429 0.591272 0.374649 10
19.7179 27.5416 1.77517 0.374178 10
19.2856 26.9379 2.89848 0.245487 10
19.2864 26.939 4.068 0.2446 10
19.2872 26.9401 5.24768 0.243415 10
19.288 26.9412 6.44058 0.241933 10
19.2888 26.9424 7.64989 0.240157 10
19.2897 26.9435 8.87897 0.238088 10
5.47538 7.70461 -2.53266 0.0724096 4
6.43826 9.05951 -2.56592 0.249921 4
7.8751 11.0813 -2.64253 0.036209 4
9.65771 13.5897 -2.64057 0.0155785 4
17.9334 25.2347 -2.70847 0.03336 1
19.6693 27.6775 -1.77949 0.376226 10
19.6684 27.6761 -0.592653 0.376669 10
19.6674 27.6747 0.592624 0.376654 10
19.6664 27.6734 1.77923 0.37618 10
19.0893 26.8613 2.88305 0.244927 10
19.0901 26.8624 4.04634 0.244042 10
19.0909 26.8635 5.21975 0.24286 10
19.0917 26.8646 6.4063 0.241382 10
19.0925 26.8657 7.60917 0.239609 10
19.0933 26.8669 8.8317 0.237545 10
5.44854 7.72379 -2.5327 0.0682196 4
6.41907 9.09961 -2.57092 0.273455 4
7.83654 11.109 -2.64258 0.0167794 4
9.61046 13.6237 -2.64064 0.0278957 4
17.846 25.2983 -2.7086 0.0333585 1
19.6177 27.8099 -1.78359 0.378223 10
19.6167 27.8085 -0.594019 0.378669 10
19.6158 27.8071 0.593989 0.378654 10
19.6148 27.8057 1.78333 0.378177 10
18.9512 26.865 2.87633 0.161659 10
18.9502 26.8636 4.03654 0.16106 10
18.9493 26.8623 5.20663 0.160265 10
18.9483 26.8609 6.38961 0.159275 10
18.9473 26.8595 7.58863 0.158091 10
18.9463 26.8581 8.80702 0.156714 10
5.42163 7.74288 -2.53274 0.0801867 4
6.39979 9.13985 -2.57596 0.226818 4
7.79788 11.1365 -2.64264 0.0242855 4
17.7584 25.3617 -2.70873 0.0333569 1
19.5658 27.9429 -1.78773 0.380216 10
19.5649 27.9415 -0.595397 0.380664 10
19.5639 27.9401 0.595367 0.380649 10
19.5629 27.9388 1.78747 0.38017 10
18.901 26.9935 2.88301 0.162511 10
18.9001 26.9921 4.04591 0.161909 10
18.8991 26.9908 5.21871 0.16111 10
18.8982 26.9894 6.40444 0.160114 10
18.8972 26.988 7.60624 0.158924 10
18.8962 26.9866 8.82746 0.15754 10
5.39465 7.76188 -2.53278 0.0658239 4
6.38043 9.18023 -2.58105 0.187722 4
7.75912 11.1639 -2.64269 0.0287004 4
9.51561 13.6912 -2.64077 0.00905658 4
12.2606 17.6407 -2.63777 0.020908 4
17.6706 25.4247 -2.70885 0.0333554 1
19.5137 28.0765 -1.79191 0.382204 10
19.5127 28.0751 -0.59679 0.382655 10
19.5118 28.0737 0.59676 0.38264 10
19.5108 28.0724 1.79165 0.382158 10
18.8507 27.1226 2.88975 0.16336 10
18.8497 27.1212 4.05537 0.162756 10
18.8488 27.1198 5.23091 0.161952 10
18.8478 27.1185 6.41941 0.160952 10
18.8468 27.117 7.62403 0.159755 10
18.8459 27.1156 8.8481 0.158364 10
5.3676 7.78079 -2.53282 0.0670196 4
6.36098 9.22076 -2.58618 0.244289 4
7.72027 11.1912 -2.64275 0.0114799 4
12.1994 17.684 -2.63786 0.022885 4
17.5826 25.4874 -2.70898 0.0333538 1
19.4613 28.2108 -1.79614 0.384188 10
19.4604 28.2094 -0.598196 0.384641 10
19.4594 28.208 0.598166 0.384626 10
19.4584 28.2066 1.79587 0.384142 10
18.8001 27.2523 2.89656 0.164208 10
18.7991 27.2509 4.06493 0.1636 10
18.7982 27.2495 5.24324 0.162793 10
18.7972 27.2481 6.43453 0.161788 10
18.7962 27.2467 7.64199 0.160585 10
18.7953 27.2453 8.86894 0.159186 10
5.34049 7.79959 -2.53286 0.0933473 4
6.34144 9.26143 -2.59137 0.269464 4
7.68132 11.2183 -2.64281 0.0286992 4
9.42029 13.758 -2.64091 0.0181122 4
17.4943 25.5498 -2.70911 0.0333522 1
19.4087 28.3457 -1.8004 0.386166 10
19.4078 28.3443 -0.599617 0.386622 10
19.4068 28.3429 0.599587 0.386607 10
19.4058 28.3415 1.80013 0.386121 10
19.4049 28.3401 3.00496 0.385164 10
19.4039 28.3386 4.21705 0.383738 10
19.4029 28.3372 5.43946 0.381845 10
19.4019 28.3358 6.67534 0.379486 10
19.4009 28.3343 7.92798 0.376665 10
19.3999 28.3328 9.20085 0.373385 10
5.31332 7.81831 -2.5329 0.0813785 4
6.32181 9.30225 -2.5966 0.188428 4
7.64228 11.2453 -2.64286 0.00706427 4
9.37245 13.7911 -2.64098 0.0188362 4
12.0764 17.7699 -2.63804 0.0223184 4
17.4059 25.612 -2.70924 0.0333506 1
19.3559 28.4813 -1.80471 0.38814 10
19.3549 28.4798 -0.601051 0.388599 10
19.3539 28.4784 0.601021 0.388583 10
19.353 28.477 1.80444 0.388095 10
19.352 28.4756 3.01215 0.387133 10
19.351 28.4741 4.22714 0.3857 10
19.35 28.4727 5.45247 0.383797 10
19.349 28.4712 6.6913 0.381426 10
19.348 28.4697 7.94694 0.378591 10
19.347 28.4682 9.22285 0.375294 10
5.28608 7.83693 -2.53294 0.0442788 4
6.30208 9.34321 -2.60187 0.277504 4
7.60314 11.2721 -2.64292 0.0229584 4
9.3245 13.8241 -2.64105 0.0239069 4
17.3172 25.6738 -2.70936 0.0333491 1
19.3027 28.6175 -1.80906 0.39011 10
19.3018 28.6161 -0.6025 0.390571 10
19.3008 28.6146 0.602469 0.390555 10
19.2998 28.6132 1.80879 0.390064 10
19.2989 28.6118 3.01941 0.389098 10
19.2979 28.6103 4.23733 0.387658 10
19.2969 28.6089 5.46561 0.385745 10
19.2959 28.6074 6.70743 0.383362 10
19.2949 28.6059 7.96609 0.380513 10
19.2939 28.6044 9.24508 0.3772 10
5.25877 7.85545 -2.53298 0.0173522 4
6.28226 9.38433 -2.6072 0.182195 4
7.56391 11.2988 -2.64297 0.0264899 4
9.27643 13.857 -2.64112 0.0105043 4
11.9529 17.855 -2.63822 0.0237294 4
17.2283 25.7353 -2.70949 0.0333475 1
19.2494 28.7543 -1.81345 0.392074 10
19.2484 28.7529 -0.603963 0.392537 10
19.2465 28.75 1.81318 0.392029 10
19.2455 28.7486 3.02674 0.391058 10
19.2445 28.7471 4.24762 0.38961 10
19.2425 28.7442 6.72371 0.385293 10
19.2415 28.7427 7.98543 0.38243 10
19.2405 28.7411 9.26752 0.3791 10
5.2314 7.87389 -2.53302 0.0891532 4
6.26235 9.42559 -2.61258 0.216366 4
7.52458 11.3254 -2.64303 0.0459148 4
9.22824 13.8896 -2.64119 0.0141261 4
11.8909 17.8972 -2.6383 0.0141242 4
17.1391 25.7965 -2.70962 0.0333459 1
19.1957 28.8919 -1.81789 0.394035 10
19.1948 28.8904 -0.605441 0.3945 10
19.1928 28.8875 1.81762 0.393989 10
19.1919 28.8861 3.03414 0.393013 10
19.1909 28.8846 4.25801 0.391558 10
19.1889 28.8816 6.74016 0.38722 10
19.1879 28.8801 8.00496 0.384342 10
19.1869 28.8786 9.29018 0.380996 10
5.20396 7.89222 -2.53305 0.0885534 4
6.24235 9.46701 -2.618 0.263093 4
7.48517 11.3518 -2.64309 0.021191 4
9.17995 13.9221 -2.64126 0.0108659 4
17.0498 25.8574 -2.70975 0.0333443 1
19.1418 29.0301 -1.82237 0.395989 10
19.1409 29.0286 -0.606933 0.396457 10
19.1389 29.0257 1.8221 0.395944 10
19.138 29.0242 3.04162 0.394963 10
19.137 29.0228 4.2685 0.393501 10
19.135 29.0198 6.75676 0.389142 10
19.134 29.0182 8.02468 0.386249 10
19.133 29.0167 9.31307 0.382887 10
5.17646 7.91046 -2.53309 0.0957319 4
6.22224 9.50859 -2.62347 0.275219 4
9.13153 13.9544 -2.64133 0.0141253 4
16.9602 25.918 -2.70988 0.0333427 1
19.0877 29.169 -1.8269 0.39794 10
19.0867 29.1675 -0.60844 0.39841 10
19.0848 29.1646 1.82662 0.397894 10
19.0838 29.1631 3.04917 0.396909 10
19.0828 29.1616 4.2791 0.39544 10
19.0808 29.1586 6.77354 0.391059 10
19.0798 29.157 8.0446 0.388152 10
19.0788 29.1555 9.33619 0.384773 10
5.1489 7.92861 -2.53313 0.0807726 4
6.20205 9.55031 -2.629 0.202367 4
7.40605 11.4043 -2.6432 0.0516509 4
9.08301 13.9866 -2.6414 0.0228172 4
11.704 18.0226 -2.63857 0.0141227 4
16.8705 25.9783 -2.71001 0.0333412 1
19.0332 29.3086 -1.83147 0.399885 10
19.0323 29.3071 -0.609962 0.400358 10
19.0303 29.3041 1.83119 0.399839 10
19.0294 29.3026 3.0568 0.398849 10
19.0284 29.3011 4.2898 0.397373 10
19.0264 29.2981 6.79048 0.392971 10
19.0254 29.2965 8.06472 0.390051 10
19.0244 29.295 9.35953 0.386655 10
5.12127 7.94666 -2.53317 0.0706001 4
6.18175 9.5922 -2.63457 0.248817 4
7.36635 11.4303 -2.64326 0.0366404 4
9.03437 14.0186 -2.64147 0.0307843 4
11.6414 18.0639 -2.63866 0.0135573 4
16.7805 26.0382 -2.71014 0.0333396 1
18.9785 29.4489 -1.83608 0.401826 10
18.9775 29.4474 -0.611499 0.402301 10
18.9756 29.4444 1.8358 0.40178 10
18.9746 29.4429 3.0645 0.400785 10
18.9737 29.4414 4.30061 0.399302 10
18.9717 29.4383 6.80758 0.394879 10
18.9707 29.4368 8.08503 0.391944 10
18.9697 29.4352 9.38311 0.388532 10
5.09358 7.96461 -2.53321 0.0819666 4
6.16136 9.63425 -2.6402 0.233894 4
7.32657 11.4562 -2.64332 0.0075045 4
16.6903 26.0979 -2.71027 0.033338 1
18.9235 29.5899 -1.84074 0.403761 10
18.9226 29.5884 -0.613052 0.404239 10
18.9206 29.5854 1.84046 0.403716 10
18.9197 29.5838 3.07228 0.402716 10
18.9187 29.5823 4.31152 0.401226 10
18.9167 29.5792 6.82486 0.396781 10
18.9157 29.5777 8.10555 0.393833 10
18.9147 29.5761 9.40692 0.390404 10
5.06583 7.98247 -2.53325 0.0861534 4
6.13792 9.6718 -2.6446 0.0338115 4
7.2867 11.482 -2.64337 0.0101529 4
8.93676 14.0821 -2.64161 0.0220911 4
16.5999 26.1572 -2.7104 0.0333364 1
18.8683 29.7316 -1.84545 0.405692 10
18.8673 29.7301 -0.61462 0.406172 10
18.8654 29.727 1.84517 0.405646 10
18.8644 29.7255 3.08014 0.404642 10
18.8634 29.724 4.32255 0.403145 10
18.8614 29.7209 6.84231 0.398679 10
18.8604 29.7193 8.12627 0.395716 10
18.8594 29.7177 9.43097 0.392271 10
5.03801 8.00023 -2.53329 0.0723916 4
6.10423 9.69335 -2.64465 0.0426537 4
7.24673 11.5076 -2.64343 0.0176569 4
8.88778 14.1136 -2.64168 0.0177448 4
16.5093 26.2163 -2.71053 0.0333348 1
18.8127 29.874 -1.85021 0.407618 10
18.8117 29.8725 -0.616203 0.4081 10
18.8098 29.8695 1.84992 0.407572 10
18.8088 29.8679 3.08807 0.406563 10
18.8079 29.8664 4.33368 0.405059 10
18.8059 29.8632 6.85993 0.400572 10
18.8049 29.8616 8.1472 0.397595 10
18.8039 29.86 9.45525 0.394134 10
5.01014 8.01789 -2.53333 0.0688009 4
6.07047 9.71477 -2.6447 0.0936283 4
7.20667 11.5331 -2.64349 0.0136838 4
8.8387 14.1449 -2.64175 0.0141231 4
16.4185 26.275 -2.71066 0.0333332 1
18.7569 30.0172 -1.85501 0.409539 10
18.7559 30.0157 -0.617802 0.410023 10
18.754 30.0126 1.85472 0.409493 10
18.753 30.0111 3.09608 0.408479 10
18.752 30.0095 4.34492 0.406968 10
18.7501 30.0063 6.87773 0.40246 10
18.7491 30.0047 8.16833 0.399469 10
18.748 30.0031 9.47978 0.395992 10
4.98219 8.03546 -2.53337 0.0622189 4
6.03663 9.73608 -2.64475 0.0899856 4
7.16652 11.5584 -2.64354 0.0176561 4
8.7895 14.176 -2.64182 0.0191924 4
11.3263 18.2675 -2.63912 0.0248509 4
16.3274 26.3334 -2.71079 0.0333316 1
18.7007 30.1612 -1.85986 0.411454 10
18.6998 30.1596 -0.619417 0.411941 10
18.6978 30.1565 1.85957 0.411409 10
18.6969 30.155 3.10418 0.410391 10
18.6959 30.1534 4.35628 0.408872 10
18.6939 30.1502 6.8957 0.404344 10
18.6929 30.1486 8.18968 0.401339 10
18.6919 30.1469 9.50455 0.397845 10
4.9542 8.05293 -2.53341 0.0801654 4
6.00272 9.75727 -2.6448 0.0598159 4
7.12629 11.5836 -2.6436 0.0233938 4
8.7402 14.207 -2.64189 0.0166571 4
16.2362 26.3915 -2.71092 0.03333 1
18.6443 30.3059 -1.86476 0.413365 10
18.6433 30.3043 -0.621048 0.413854 10
18.6414 30.3012 1.86447 0.41332 10
18.6404 30.2996 3.11235 0.412297 10
18.6395 30.298 4.36775 0.410771 10
18.6375 30.2948 6.91385 0.406222 10
18.6365 30.2932 8.21124 0.403203 10
18.6355 30.2915 9.52957 0.399693 10
4.92613 8.0703 -2.53345 0.0879413 4
5.96873 9.77835 -2.64484 0.0712576 4
7.08596 11.6087 -2.64366 0.0269244 4
8.69078 14.2378 -2.64196 0.0123114 4
11.1993 18.3474 -2.6393 0.0138365 4
16.1447 26.4493 -2.71105 0.0333284 1
18.5876 30.4513 -1.8697 0.415271 10
18.5866 30.4497 -0.622696 0.415762 10
18.5847 30.4466 1.86941 0.415225 10
18.5837 30.445 3.1206 0.414198 10
18.5827 30.4434 4.37933 0.412666 10
18.5808 30.4402 6.93219 0.408095 10
18.5798 30.4385 8.23301 0.405063 10
18.5787 30.4369 9.55484 0.401537 10
4.89801 8.08757 -2.53349 0.0891363 4
5.93467 9.7993 -2.64489 0.0826989 4
7.04556 11.6336 -2.64372 0.0145653 4
8.64127 14.2684 -2.64203 0.0271568 4
16.0531 26.5068 -2.71118 0.0333267 1
18.5305 30.5975 -1.8747 0.417172 10
18.5296 30.5959 -0.624359 0.417665 10
18.5276 30.5928 1.87441 0.417126 10
18.5267 30.5912 3.12894 0.416094 10
18.5257 30.5896 4.39103 0.414555 10
18.5237 30.5863 6.9507 0.409963 10
18.5227 30.5847 8.255 0.406917 10
18.5217 30.583 9.58035 0.403375 10
4.86983 8.10475 -2.53353 0.0813581 4
5.90054 9.82014 -2.64494 0.104542 4
7.00506 11.6584 -2.64378 0.0255991 4
8.59164 14.2989 -2.6421 0.0152074 4
11.0717 18.4264 -2.63948 0.0135532 4
15.9613 26.564 -2.71131 0.0333251 1
18.4732 30.7445 -1.87974 0.419067 10
18.4722 30.7429 -0.626039 0.419563 10
18.4703 30.7397 1.87945 0.419022 10
18.4694 30.7381 3.13736 0.417985 10
18.4684 30.7365 4.40284 0.416439 10
18.4664 30.7333 6.9694 0.411827 10
18.4654 30.7316 8.2772 0.408767 10
18.4644 30.7299 9.60612 0.405208 10
4.84158 8.12183 -2.53357 0.0753746 4
5.86633 9.84086 -2.64499 0.0254849 4
6.96447 11.683 -2.64383 0.0141234 4
8.5419 14.3292 -2.64217 0.0162932 4
11.0077 18.4656 -2.63957 0.0200467 4
15.8692 26.6208 -2.71144 0.0333235 1
18.4156 30.8924 -1.88484 0.420958 10
18.4146 30.8908 -0.627736 0.421456 10
18.4127 30.8875 1.88454 0.420912 10
18.4117 30.8859 3.14586 0.419871 10
18.4107 30.8843 4.41477 0.418318 10
18.4088 30.881 6.98829 0.413685 10
18.4078 30.8793 8.29963 0.410611 10
18.4068 30.8776 9.63215 0.407037 10
4.81328 8.13881 -2.53361 0.0783645 4
5.83205 9.86146 -2.64504 0.0743729 4
8.49207 14.3593 -2.64224 0.0253443 4
15.777 26.6774 -2.71157 0.0333219 1
18.3576 31.041 -1.88998 0.422843 10
18.3566 31.0394 -0.62945 0.423344 10
18.3557 31.0377 0.629417 0.423329 10
18.3547 31.0361 1.88969 0.422798 10
18.3538 31.0345 3.15445 0.421751 10
18.3528 31.0328 4.42683 0.420192 10
18.3518 31.0312 5.71003 0.41812 10
18.3508 31.0295 7.00736 0.415538 10
18.3498 31.0278 8.32228 0.412451 10
18.3488 31.0261 9.65843 0.408861 10
4.78492 8.15569 -2.53365 0.0795596 4
5.7977 9.88194 -2.64509 0.0104016 4
6.88304 11.7319 -2.64395 0.0454575 4
8.44211 14.3892 -2.64231 0.0173785 4
10.8793 18.5432 -2.63975 0.0146811 4
15.6845 26.7336 -2.71171 0.0333203 1
18.2993 31.1904 -1.89518 0.424724 10
18.2983 31.1888 -0.631181 0.425226 10
18.2974 31.1871 0.631148 0.425211 10
18.2964 31.1855 1.89488 0.424678 10
18.2955 31.1839 3.16312 0.423627 10
18.2945 31.1822 4.439 0.42206 10
18.2935 31.1806 5.72572 0.419979 10
18.2925 31.1789 7.02662 0.417387 10
18.2915 31.1772 8.34516 0.414286 10
18.2905 31.1754 9.68499 0.41068 10
4.7565 8.17247 -2.53369 0.0873347 4
5.76328 9.9023 -2.64514 0.0265236 4
6.8422 11.7561 -2.64401 0.0220663 4
8.39206 14.419 -2.64238 0.016654 4
15.5918 26.7894 -2.71184 0.0333186 1
18.2407 31.3407 -1.90043 0.426599 10
18.2398 31.339 -0.632929 0.427104 10
18.2388 31.3374 0.632896 0.427088 10
18.2378 31.3357 1.90013 0.426553 10
18.2369 31.3341 3.17188 0.425498 10
18.2359 31.3324 4.45129 0.423924 10
18.2349 31.3307 5.74158 0.421834 10
18.2339 31.329 7.04608 0.41923 10
18.2329 31.3273 8.36827 0.416115 10
18.2319 31.3256 9.7118 0.412493 10
4.72801 8.18916 -2.53374 0.0741735 4
5.72878 9.92254 -2.64519 0.0358842 4
6.80127 11.7801 -2.64407 0.0353053 4
8.3419 14.4486 -2.64246 0.010861 4
15.499 26.845 -2.71197 0.033317 1
18.1818 31.4918 -1.90573 0.428469 10
18.1808 31.4901 -0.634695 0.428976 10
18.1799 31.4885 0.634661 0.428961 10
18.1789 31.4868 1.90543 0.428423 10
18.1779 31.4851 3.18073 0.427363 10
18.177 31.4835 4.46371 0.425783 10
18.176 31.4818 5.75759 0.423683 10
18.175 31.4801 7.06573 0.421068 10
18.174 31.4783 8.3916 0.41794 10
18.173 31.4766 9.73888 0.414302 10
4.69948 8.20574 -2.53378 0.0663962 4
5.45259 9.52076 -2.53299 0.0665666 4
6.76026 11.8041 -2.64412 0.0194175 4
10.6856 18.6581 -2.64003 0.0225839 4
15.4059 26.9003 -2.7121 0.0333154 1
18.1225 31.6437 -1.91109 0.430333 10
18.1216 31.642 -0.636478 0.430843 10
18.1206 31.6404 0.636444 0.430828 10
18.1197 31.6387 1.91079 0.430287 10
18.1187 31.637 3.18966 0.429223 10
18.1177 31.6353 4.47624 0.427636 10
18.1168 31.6336 5.77377 0.425528 10
18.1158 31.6319 7.08558 0.422901 10
18.1148 31.6301 8.41517 0.419759 10
18.1138 31.6284 9.76623 0.416105 10
4.67088 8.22223 -2.53382 0.0837416 4
5.41943 9.53992 -2.53304 0.0639652 4
6.71916 11.8279 -2.64418 0.0216235 4
8.24128 14.5073 -2.6426 0.0209968 4
10.6208 18.6959 -2.64012 0.0270997 4
15.3127 26.9552 -2.71224 0.0333138 1
18.0629 31.7965 -1.9165 0.432193 10
18.062 31.7948 -0.63828 0.432705 10
18.061 31.7931 0.638245 0.432689 10
18.0601 31.7915 1.91619 0.432147 10
18.0591 31.7898 3.19869 0.431078 10
18.0581 31.7881 4.48891 0.429484 10
18.0572 31.7864 5.7901 0.427367 10
18.0562 31.7846 7.10562 0.424729 10
18.0552 31.7829 8.43898 0.421573 10
18.0542 31.7811 9.79386 0.417904 10
4.64222 8.23862 -2.53386 0.0879272 4
5.38619 9.55895 -2.53308 0.0759247 4
6.67798 11.8515 -2.64424 0.0975243 4
8.19081 14.5363 -2.64267 0.0260642 4
15.2193 27.0098 -2.71237 0.0333121 1
18.003 31.9502 -1.92196 0.434047 10
18.0021 31.9485 -0.640099 0.434561 10
18.0011 31.9468 0.640064 0.434546 10
18.0001 31.9451 1.92165 0.434001 10
17.9992 31.9434 3.2078 0.432928 10
17.9982 31.9417 4.5017 0.431327 10
17.9972 31.9399 5.8066 0.4292 10
17.9963 31.9382 7.12587 0.426551 10
17.9952 31.9364 8.46302 0.423382 10
17.9942 31.9346 9.82176 0.419697 10
4.61351 8.2549 -2.5339 0.0759631 4
5.3529 9.57787 -2.53313 0.0603226 4
6.63672 11.875 -2.6443 0.0811949 4
8.14025 14.5652 -2.64274 0.0133938 4
15.1256 27.0641 -2.7125 0.0333105 1
17.9427 32.1047 -1.92748 0.435895 10
17.9418 32.103 -0.641936 0.436412 10
17.9408 32.1013 0.641902 0.436397 10
17.9399 32.0996 1.92717 0.43585 10
17.9389 32.0979 3.21701 0.434772 10
17.9379 32.0961 4.51462 0.433164 10
17.937 32.0944 5.82326 0.431029 10
17.936 32.0926 7.14632 0.428368 10
17.935 32.0909 8.48731 0.425186 10
17.934 32.089 9.84994 0.421486 10
4.58474 8.27109 -2.53394 0.081345 4
5.31953 9.59668 -2.53318 0.0551214 4
6.59537 11.8984 -2.64436 0.0961962 4
8.08957 14.594 -2.64281 0.0448859 4
10.4255 18.8081 -2.6404 0.0166533 4
15.0318 27.1181 -2.71264 0.0333088 1
17.8821 32.2602 -1.93305 0.437739 10
17.8812 32.2585 -0.643793 0.438258 10
17.8802 32.2567 0.643758 0.438243 10
17.8792 32.255 1.93274 0.437693 10
17.8783 32.2533 3.22631 0.436611 10
17.8773 32.2515 4.52767 0.434997 10
17.8763 32.2498 5.8401 0.432852 10
17.8754 32.248 7.16697 0.430181 10
17.8744 32.2462 8.51184 0.426985 10
17.8733 32.2444 9.87841 0.423269 10
4.55592 8.28718 -2.53398 0.0741663 4
5.2861 9.61537 -2.53323 0.0681204 4
6.55395 11.9216 -2.64442 0.0869277 4
8.0388 14.6225 -2.64289 0.0148409 4
14.9378 27.1717 -2.71277 0.0333072 1
17.8211 32.4165 -1.93868 0.439577 10
17.8183 32.4113 1.93837 0.439532 10
17.8173 32.4096 3.2357 0.438445 10
17.8144 32.4042 7.18783 0.431987 10
17.8134 32.4024 8.53661 0.428778 10
4.52703 8.30317 -2.53402 0.0747632 4
5.2526 9.63395 -2.53327 0.0540793 4
6.51244 11.9447 -2.64448 0.0904557 4
7.98792 14.6509 -2.64296 0.019546 4
14.8436 27.225 -2.7129 0.0333056 1
17.7598 32.5738 -1.94437 0.44141 10
17.7569 32.5685 1.94405 0.441365 10
17.756 32.5668 3.24519 0.440273 10
17.7531 32.5614 7.20891 0.433789 10
17.7521 32.5596 8.56164 0.430567 10
4.4981 8.31905 -2.53406 0.0628001 4
5.21904 9.6524 -2.53332 0.0852773 4
6.47085 11.9676 -2.64454 0.0908949 4
13.7247 25.3833 -2.52459 0.0270895 4
17.6981 32.732 -1.95011 0.443238 10
17.6953 32.7267 1.94979 0.443192 10
17.6943 32.7249 3.25477 0.442096 10
17.6914 32.7195 7.23019 0.435586 10
4.4691 8.33484 -2.5341 0.075957 4
5.18541 9.67074 -2.53337 0.0483576 4
6.42917 11.9904 -2.64459 0.0847157 4
13.6367 25.4324 -2.52472 0.0258753 4
17.6361 32.8911 -1.95591 0.44506 10
17.6332 32.8858 1.95559 0.445014 10
17.6322 32.884 3.26445 0.443914 10
17.6293 32.8785 7.25169 0.437377 10
4.44005 8.35052 -2.53414 0.0663865 4
5.15172 9.68897 -2.53342 0.0613558 4
6.38743 12.013 -2.64465 0.0180899 4
10.0975 18.9905 -2.64087 0.0245522 4
17.5736 33.0512 -1.96177 0.446876 10
17.5708 33.0458 1.96145 0.446831 10
17.5698 33.044 3.27423 0.445726 10
17.5669 33.0385 7.27341 0.439162 10
4.41095 8.36611 -2.53418 0.0831313 4
5.11796 9.70708 -2.53347 0.0265177 4
6.34634 12.0369 -2.64503 0.104859 4
7.78344 14.7626 -2.64325 0.0177343 4
17.5108 33.2122 -1.96769 0.448688 10
17.508 33.2068 1.96737 0.448642 10
17.507 33.205 3.28411 0.447533 10
17.5051 33.2013 5.94471 0.443681 10
17.5041 33.1995 7.29534 0.440943 10
4.38179 8.38159 -2.53423 0.062796 4
5.08414 9.72506 -2.53351 0.0145584 4
6.31243 12.0746 -2.64844 0.114449 4
9.96534 19.0619 -2.64105 0.0186245 4
13.3716 25.5776 -2.52509 0.0287011 4
17.4476 33.3743 -1.97367 0.450493 10
17.4448 33.3688 1.97334 0.450448 10
17.4438 33.367 3.29408 0.449334 10
17.4419 33.3633 5.96276 0.445467 10
17.4409 33.3614 7.3175 0.442718 10
4.35258 8.39697 -2.53427 0.0693735 4
5.05026 9.74294 -2.53356 0.0384752 4
6.27837 12.1122 -2.65187 0.097865 4
7.68062 14.8174 -2.64339 0.00977141 4
9.89909 19.0973 -2.64115 0.0183416 4
13.2829 25.6254 -2.52522 0.0268807 4
17.3841 33.5372 -1.97971 0.452293 10
17.3831 33.5354 -0.65933 0.45283 10
17.3822 33.5336 0.659293 0.452815 10
17.3812 33.5317 1.97938 0.452248 10
17.3803 33.5299 3.30416 0.45113 10
17.3793 33.528 4.63692 0.449462 10
17.3783 33.5262 5.981 0.447247 10
17.3773 33.5243 7.33988 0.444487 10
17.3764 33.5224 8.71718 0.441186 10
17.3753 33.5204 10.1167 0.437347 10
4.32331 8.41225 -2.53431 0.0855194 4
5.01631 9.76069 -2.53361 0.0649906 4
6.24418 12.1499 -2.65533 0.0402888 4
7.62905 14.8445 -2.64347 0.0246088 4
9.83272 19.1324 -2.64124 0.0141085 4
13.1941 25.6729 -2.52535 0.0274857 4
17.3201 33.7013 -1.98581 0.454088 10
17.3192 33.6994 -0.661361 0.454627 10
17.3182 33.6976 0.661325 0.454612 10
17.3172 33.6957 1.98548 0.454043 10
17.3163 33.6939 3.31434 0.45292 10
17.3153 33.692 4.6512 0.451246 10
17.3144 33.6901 5.99943 0.449022 10
17.3134 33.6882 7.36249 0.446251 10
17.3124 33.6863 8.74403 0.442937 10
17.3114 33.6843 10.1479 0.439083 10
4.29414 8.42772 -2.53444 0.23948 4
4.98231 9.77833 -2.53366 0.0556309 4
6.20987 12.1875 -2.65881 0.0625894 4
7.5774 14.8715 -2.64354 0.0173704 4
9.76622 19.1673 -2.64133 0.0172117 4
13.105 25.72 -2.52547 0.0270801 4
17.2557 33.8663 -1.99197 0.455877 10
17.2548 33.8644 -0.663414 0.456418 10
17.2538 33.8626 0.663377 0.456403 10
17.2529 33.8607 1.99164 0.455832 10
17.2519 33.8588 3.32463 0.454705 10
17.251 33.8569 4.66563 0.453025 10
17.25 33.855 6.01804 0.450792 10
17.249 33.8531 7.38533 0.44801 10
17.248 33.8512 8.77116 0.444683 10
17.247 33.8492 10.1793 0.440813 10
4.27803 8.46905 -2.54236 0.218839 4
4.94824 9.79585 -2.5337 0.0488711 4
6.17541 12.2252 -2.66232 0.0982253 4
9.6996 19.2019 -2.64143 0.0299078 4
13.0158 25.7669 -2.5256 0.0321307 4
17.191 34.0324 -1.9982 0.457661 10
17.19 34.0305 -0.665487 0.458204 10
17.1891 34.0286 0.66545 0.458189 10
17.1881 34.0267 1.99786 0.457616 10
17.1872 34.0248 3.33501 0.456485 10
17.1862 34.0229 4.68021 0.454797 10
17.1853 34.021 6.03684 0.452556 10
17.1843 34.0191 7.40841 0.449764 10
17.1833 34.0171 8.79856 0.446423 10
17.1823 34.0151 10.2111 0.442538 10
4.26182 8.51064 -2.55037 0.206583 4
4.91411 9.81324 -2.53375 0.0649869 4
6.14082 12.2629 -2.66584 0.0980954 4
7.47381 14.9248 -2.64369 0.0101322 4
9.63286 19.2364 -2.64152 0.030471 4
12.9264 25.8135 -2.52572 0.0319271 4
17.1258 34.1995 -2.00448 0.459439 10
17.1249 34.1976 -0.667581 0.459984 10
17.1239 34.1957 0.667544 0.459969 10
17.123 34.1938 2.00415 0.459393 10
17.122 34.1919 3.34551 0.458258 10
17.1211 34.19 4.69494 0.456565 10
17.1201 34.188 6.05584 0.454315 10
17.1191 34.1861 7.43171 0.451511 10
17.1181 34.1841 8.82624 0.448158 10
17.1171 34.1821 10.2433 0.444258 10
4.2455 8.5525 -2.55845 0.177924 4
4.87992 9.83053 -2.5338 0.0738237 4
6.1061 12.3007 -2.66939 0.10316 4
7.42187 14.9513 -2.64376 0.0209875 4
12.8369 25.8597 -2.52585 0.0266719 4
17.0602 34.3676 -2.01084 0.461212 10
17.0593 34.3657 -0.669697 0.461759 10
17.0583 34.3638 0.66966 0.461744 10
17.0574 34.3619 2.0105 0.461166 10
17.0564 34.36 3.35611 0.460027 10
17.0555 34.358 4.70982 0.458326 10
17.0545 34.3561 6.07503 0.456068 10
17.0535 34.3541 7.45526 0.453254 10
17.0525 34.3521 8.8542 0.449887 10
17.0515 34.3501 10.2757 0.445973 10
4.22908 8.59462 -2.56662 0.24633 4
4.84566 9.84769 -2.53385 0.0618652 4
6.07124 12.3384 -2.67296 0.0978341 4
7.36984 14.9775 -2.64383 0.0166448 4
9.49901 19.3045 -2.64171 0.0183377 4
12.7472 25.9057 -2.52598 0.0347526 4
16.9942 34.5368 -2.01726 0.462978 10
16.9933 34.5349 -0.671835 0.463528 10
16.9923 34.533 0.671797 0.463513 10
16.9914 34.5311 2.01692 0.462933 10
16.9904 34.5291 3.36682 0.461789 10
16.9895 34.5272 4.72484 0.460082 10
16.9885 34.5252 6.09441 0.457815 10
16.9875 34.5232 7.47905 0.45499 10
16.9866 34.5212 8.88245 0.451611 10
16.9855 34.5192 10.3085 0.447682 10
4.21255 8.63702 -2.57487 0.234082 4
4.81135 9.86473 -2.5339 0.0805791 4
6.03624 12.3761 -2.67656 0.101403 4
7.31771 15.0035 -2.64391 0.0166444 4
12.6573 25.9513 -2.5261 0.025659 4
16.9278 34.7072 -2.02374 0.46474 10
16.9269 34.7052 -0.673994 0.465292 10
16.9259 34.7033 0.673956 0.465276 10
16.925 34.7013 2.0234 0.464694 10
16.924 34.6994 3.37764 0.463546 10
16.9231 34.6974 4.74003 0.461833 10
16.9221 34.6955 6.11399 0.459557 10
16.9211 34.6935 7.50308 0.456722 10
16.9201 34.6914 8.91099 0.45333 10
16.9191 34.6894 10.3416 0.449385 10
4.19592 8.67969 -2.58321 0.246379 4
4.77698 9.88166 -2.53395 0.0644621 4
6.0011 12.4139 -2.68018 0.10718 4
7.2655 15.0294 -2.64398 0.0151966 4
12.5673 25.9967 -2.52623 0.0294963 4
16.861 34.8786 -2.03029 0.466495 10
16.8581 34.8727 2.02995 0.46645 10
16.8572 34.8707 3.38857 0.465297 10
16.8553 34.8668 6.13378 0.461294 10
16.8543 34.8647 7.52736 0.458447 10
4.17919 8.72263 -2.59164 0.2407 4
4.74255 9.89846 -2.534 0.0686196 4
5.96583 12.4516 -2.68382 0.0996528 4
7.2132 15.0551 -2.64405 0.0209852 4
16.7937 35.0511 -2.03691 0.468245 10
16.7908 35.0452 2.03656 0.468199 10
16.7899 35.0432 3.39961 0.467043 10
16.788 35.0392 6.15376 0.463024 10
16.787 35.0372 7.55188 0.460167 10
4.16234 8.76586 -2.60015 0.220459 4
4.70806 9.91514 -2.53404 0.0613406 4
5.93042 12.4894 -2.68748 0.0995169 4
7.1608 15.0806 -2.64413 0.0546324 4
12.3867 26.0864 -2.52649 0.0270692 4
16.726 35.2248 -2.0436 0.469989 10
16.7231 35.2188 2.04325 0.469944 10
16.7222 35.2168 3.41077 0.468783 10
16.7203 35.2128 6.17396 0.464749 10
16.7193 35.2107 7.57667 0.461882 10
4.14538 8.80937 -2.60875 0.221348 4
4.67351 9.9317 -2.53409 0.0509429 4
5.54891 11.792 -2.53323 0.0432257 4
7.10832 15.1059 -2.6442 0.0484803 4
9.1623 19.4709 -2.64219 0.0172062 4
12.2962 26.1308 -2.52661 0.0278759 4
16.6578 35.3996 -2.05035 0.471728 10
16.655 35.3935 2.05 0.471682 10
16.654 35.3915 3.42204 0.470517 10
16.6521 35.3875 6.19436 0.466469 10
16.6511 35.3854 7.6017 0.463591 10
4.1283 8.85317 -2.61743 0.209342 4
4.6389 9.94815 -2.53414 0.059259 4
5.50784 11.8116 -2.53329 0.0688066 4
7.05574 15.1311 -2.64428 0.0256866 4
9.0946 19.5034 -2.64228 0.0200261 4
12.2055 26.1749 -2.52674 0.0250466 4
16.5892 35.5756 -2.05718 0.473461 10
16.5863 35.5695 2.05683 0.473415 10
16.5854 35.5675 3.43343 0.472245 10
16.5835 35.5634 6.21498 0.468182 10
16.5825 35.5613 7.627 0.465294 10
4.11112 8.89727 -2.62621 0.237531 4
4.60424 9.96447 -2.53419 0.072253 4
5.4667 11.831 -2.53335 0.0366078 4
7.00308 15.156 -2.64435 0.0220682 4
16.5201 35.7527 -2.06407 0.475187 10
16.5172 35.7466 2.06372 0.475142 10
16.5163 35.7445 3.44494 0.473968 10
16.5144 35.7404 6.2358 0.46989 10
16.5134 35.7383 7.65256 0.466991 10
4.09381 8.94166 -2.63508 0.198342 4
4.56951 9.98068 -2.53424 0.066014 4
5.42549 11.8503 -2.53341 0.00661572 4
12.0237 26.2621 -2.527 0.0260539 4
16.4505 35.931 -2.07104 0.476909 10
16.4477 35.9249 2.07069 0.476863 10
16.4467 35.9228 3.45657 0.475685 10
16.4448 35.9186 6.25685 0.471593 10
16.4439 35.9165 7.67838 0.468683 10
4.07639 8.98635 -2.64404 0.199264 4
4.53473 9.99676 -2.53429 0.0784876 4
5.38422 11.8694 -2.53346 0.0224929 4
6.89748 15.2054 -2.6445 0.0155554 4
8.89083 19.5997 -2.64257 0.0197419 4
11.9326 26.3052 -2.52712 0.0329192 4
16.3805 36.1106 -2.07808 0.478624 10
16.3777 36.1044 2.07772 0.478578 10
16.3767 36.1023 3.46832 0.477396 10
16.3748 36.0981 6.27811 0.473289 10
16.3738 36.0959 7.70447 0.470369 10
4.05885 9.03135 -2.6531 0.171577 4
4.4999 10.0127 -2.53434 0.0738081 4
5.35036 11.9051 -2.53707 0.0254103 4
6.84456 15.2298 -2.64457 0.0390682 4
11.8413 26.3481 -2.52725 0.0254454 4
16.31 36.2914 -2.0852 0.480333 10
16.3072 36.2851 2.08484 0.480288 10
16.3062 36.283 3.48019 0.479101 10
16.3043 36.2787 6.2996 0.47498 10
16.3034 36.2766 7.73084 0.47205 10
4.04119 9.07666 -2.66225 0.237482 4
4.465 10.0286 -2.53439 0.0675695 4
5.32426 11.9585 -2.54448 0.180521 4
16.239 36.4734 -2.09239 0.482037 10
16.2362 36.4671 2.09202 0.481991 10
16.2352 36.465 3.49218 0.480801 10
16.2333 36.4607 6.32131 0.476665 10
16.2324 36.4585 7.75748 0.473724 10
4.02341 9.12228 -2.67149 0.211416 4
4.43006 10.0443 -2.53443 0.0613311 4
5.29801 12.0122 -2.55195 0.21157 4
6.73845 15.2781 -2.64472 0.0209799 4
8.68605 19.6939 -2.64286 0.0262257 4
11.709 26.5479 -2.53852 0.195019 4
16.1675 36.6567 -2.09965 0.483735 10
16.1647 36.6503 2.09928 0.483689 10
16.1638 36.6481 3.5043 0.482495 10
16.1619 36.6438 6.34325 0.478344 10
16.1609 36.6416 7.7844 0.475393 10
16.1589 36.6372 10.7293 0.467758 10
4.0055 9.16823 -2.68084 0.199674 4
4.39505 10.0599 -2.53448 0.0753631 4
5.27159 12.0662 -2.5595 0.217243 4
6.68526 15.302 -2.6448 0.00940452 4
11.6538 26.6746 -2.54672 0.190006 4
16.0956 36.8413 -2.10699 0.485427 10
16.0927 36.8348 2.10662 0.485381 10
16.0918 36.8327 3.51655 0.484182 10
16.0899 36.8283 6.36542 0.480017 10
16.0889 36.8261 7.81161 0.477056 10
16.087 36.8216 10.7668 0.469395 10
3.98747 9.21449 -2.69028 0.216207 4
4.36 10.0754 -2.53453 0.0535327 4
5.245 12.1205 -2.56712 0.210321 4
6.632 15.3256 -2.64487 0.0180851 4
8.54897 19.7555 -2.64305 0.0200203 4
11.5983 26.802 -2.55501 0.199587 4
16.0231 37.0271 -2.11441 0.487112 10
16.0221 37.0249 -0.704189 0.487691 10
16.0212 37.0228 0.704148 0.487676 10
16.0203 37.0206 2.11404 0.487067 10
16.0193 37.0184 3.52893 0.485864 10
16.0184 37.0163 4.95233 0.484069 10
16.0174 37.014 6.38782 0.481685 10
16.0165 37.0118 7.8391 0.478713 10
16.0155 37.0096 9.31004 0.475159 10
16.0145 37.0073 10.8047 0.471025 10
3.96931 9.26109 -2.69982 0.0296624 4
4.32488 10.0907 -2.53458 0.0769193 4
5.21825 12.1751 -2.57481 0.220646 4
6.57864 15.3491 -2.64495 0.00976568 4
8.48026 19.7859 -2.64314 0.0157901 4
11.5423 26.9303 -2.56338 0.169894 4
15.9501 37.2143 -2.12191 0.488793 10
15.9491 37.2121 -0.706686 0.489374 10
15.9482 37.2099 0.706644 0.489358 10
15.9473 37.2077 2.12153 0.488747 10
15.9463 37.2056 3.54144 0.48754 10
15.9454 37.2034 4.96988 0.485739 10
15.9444 37.2011 6.41046 0.483347 10
15.9435 37.1989 7.86688 0.480365 10
15.9425 37.1966 9.34303 0.476798 10
15.9415 37.1943 10.843 0.472651 10
3.95102 9.30801 -2.70946 0.110449 4
4.28972 10.1059 -2.53463 0.0800361 4
5.19132 12.23 -2.58257 0.210622 4
6.52521 15.3724 -2.64502 0.0209775 4
8.41145 19.8161 -2.64324 0.0163534 4
11.486 27.0593 -2.57183 0.204071 4
15.8766 37.4028 -2.12948 0.490467 10
15.8756 37.4006 -0.709209 0.49105 10
15.8747 37.3984 0.709166 0.491034 10
15.8737 37.3962 2.12911 0.490421 10
15.8728 37.394 3.55408 0.48921 10
15.8719 37.3918 4.98762 0.487403 10
15.8709 37.3895 6.43334 0.485002 10
15.8699 37.3872 7.89495 0.48201 10
15.869 37.3849 9.37637 0.478432 10
15.868 37.3826 10.8817 0.47427 10
3.93259 9.35527 -2.71921 0.0806025 4
4.2545 10.121 -2.53468 0.0623646 4
5.16422 12.2852 -2.59041 0.144656 4
11.4293 27.1893 -2.58037 0.193298 4
15.8025 37.5927 -2.13714 0.492135 10
15.8016 37.5905 -0.711759 0.49272 10
15.8006 37.5882 0.711716 0.492705 10
15.7997 37.586 2.13676 0.492089 10
15.7988 37.5838 3.56686 0.490874 10
15.7978 37.5815 5.00555 0.489061 10
15.7969 37.5793 6.45646 0.486652 10
15.7959 37.577 7.92333 0.48365 10
15.7949 37.5747 9.41007 0.480059 10
15.7939 37.5723 10.9208 0.475883 10
3.90753 9.38723 -2.72452 0.0984831 1
4.21922 10.136 -2.53473 0.0784739 4
5.13695 12.3407 -2.59832 0.193839 4
6.4181 15.4185 -2.64517 0.0491859 4
8.27351 19.8758 -2.64343 0.030167 4
11.3722 27.32 -2.589 0.192654 4
15.7279 37.7839 -2.14488 0.493797 10
15.727 37.7817 -0.714335 0.494384 10
15.7261 37.7794 0.714292 0.494369 10
15.6625 37.6266 2.13595 0.495979 10
15.7233 37.7727 5.02367 0.490713 10
15.7223 37.7704 6.47983 0.488296 10
15.7204 37.7657 9.44412 0.481681 10
15.7194 37.7634 10.9603 0.477491 10
3.8748 9.40097 -2.72456 0.0984815 1
4.1839 10.1509 -2.53478 0.0618425 4
5.1095 12.3966 -2.6063 0.208704 4
6.36442 15.4412 -2.64524 0.0235073 4
11.3147 27.4516 -2.59771 0.193441 4
15.6528 37.9765 -2.1527 0.495453 10
15.6519 37.9743 -0.716939 0.496042 10
15.6509 37.972 0.716896 0.496027 10
15.4745 37.5439 2.12817 0.494325 10
15.6481 37.9652 5.04198 0.492359 10
15.6472 37.9629 6.50344 0.489934 10
15.6453 37.9582 9.47853 0.483297 10
15.6443 37.9558 11.0002 0.479093 10
3.84203 9.4146 -2.72461 0.0984798 1
4.14852 10.1656 -2.53483 0.0701561 4
5.08186 12.4527 -2.61437 0.174155 4
6.31066 15.4638 -2.64532 0.0332709 4
11.2569 27.5841 -2.60651 0.139949 4
15.5771 38.1706 -2.1606 0.497103 10
15.5762 38.1683 -0.719572 0.497694 10
15.5753 38.166 0.719528 0.497679 10
15.2879 37.4618 2.12048 0.492665 10
15.5725 38.1591 5.06049 0.493999 10
15.5715 38.1568 6.52731 0.491566 10
15.5696 38.1521 9.51332 0.484907 10
15.5686 38.1497 11.0406 0.480689 10
3.80921 9.42811 -2.72465 0.0984782 1
4.11309 10.1803 -2.53488 0.0608007 4
5.05405 12.5092 -2.6225 0.169005 4
6.25682 15.4862 -2.6454 0.0625621 4
8.06581 19.9636 -2.64372 0.0174781 4
11.1986 27.7174 -2.6154 0.157975 4
15.1026 37.3802 2.11287 0.490999 10
15.4953 38.3522 6.55144 0.493192 10
15.4924 38.345 11.0814 0.482279 10
3.77633 9.44151 -2.7247 0.0984765 1
4.07761 10.1947 -2.53493 0.0659961 4
5.02605 12.566 -2.63072 0.183793 4
6.2029 15.5083 -2.64547 0.0198891 4
7.99636 19.9923 -2.64382 0.0177593 4
14.9222 37.3081 2.10583 0.401513 10
15.4185 38.549 6.57583 0.494812 10
15.4156 38.5417 11.1226 0.483863 10
3.74342 9.45479 -2.72475 0.0984749 1
4.04208 10.2091 -2.53498 0.0753484 4
4.99787 12.6232 -2.63902 0.174054 4
6.1489 15.5303 -2.64555 0.023143 4
7.92682 20.0209 -2.64392 0.024242 4
14.7547 37.2661 2.10054 0.399572 10
15.3411 38.7473 6.60047 0.496426 10
15.3382 38.7399 11.1643 0.485441 10
3.71045 9.46796 -2.72479 0.0984732 1
4.00649 10.2234 -2.53503 0.0665132 4
4.9681 12.6771 -2.64665 0.0520245 4
6.09483 15.5522 -2.64562 0.019888 4
7.85717 20.0491 -2.64402 0.0329791 4
10.5766 26.9883 -2.53602 0.168096 4
14.5881 37.2244 2.09531 0.397625 10
15.2632 38.947 6.62539 0.498034 10
15.2603 38.9396 11.2065 0.487014 10
3.67745 9.48102 -2.72484 0.0984715 1
3.97086 10.2375 -2.53508 0.0597567 4
4.92393 12.6946 -2.64671 0.0321839 4
6.04068 15.5738 -2.6457 0.020249 4
10.5206 27.1237 -2.54527 0.193607 4
14.4223 37.1829 2.09012 0.395674 10
15.1846 39.1483 6.65057 0.499635 10
15.1817 39.1408 11.2491 0.48858 10
3.64439 9.49396 -2.72488 0.0984699 1
3.93518 10.2515 -2.53513 0.0613144 4
4.8797 12.7121 -2.64677 0.0533446 4
5.98644 15.5952 -2.64577 0.023141 4
10.4641 27.26 -2.55461 0.176058 4
14.2573 37.1416 2.08499 0.393718 10
15.1055 39.3512 6.67603 0.501231 10
15.1026 39.3436 11.2921 0.490141 10
3.61129 9.50678 -2.72493 0.0984682 1
3.89945 10.2654 -2.53518 0.082617 4
4.83541 12.7293 -2.64683 0.0828807 4
5.93214 15.6165 -2.64585 0.00903921 4
7.64764 20.1325 -2.64431 0.0186016 4
10.4072 27.3972 -2.56406 0.117448 4
15.0257 39.5555 6.70177 0.502821 10
15.0229 39.5479 11.3356 0.491696 10
3.57814 9.51949 -2.72498 0.0984665 1
3.86367 10.2791 -2.53522 0.0722235 4
4.79106 12.7464 -2.64689 0.0515788 4
5.87777 15.6375 -2.64592 0.0216935 4
10.3499 27.5355 -2.5736 0.217309 4
14.9454 39.7615 6.72778 0.504404 10
14.9425 39.7538 11.3796 0.493244 10
3.54495 9.53208 -2.72502 0.0984649 1
3.82784 10.2927 -2.53527 0.0587129 4
4.74665 12.7634 -2.64696 0.0493734 4
5.82331 15.6584 -2.646 0.0339855 4
7.50746 20.1869 -2.6445 0.0160638 4
10.2922 27.6749 -2.58325 0.178648 4
14.8644 39.9691 6.75409 0.505982 10
14.8615 39.9613 11.4241 0.494787 10
3.51172 9.54456 -2.72507 0.0984632 1
3.79196 10.3062 -2.53532 0.0670249 4
4.70218 12.7801 -2.64702 0.0321801 4
5.76878 15.6791 -2.64608 0.00831536 4
7.43722 20.2138 -2.6446 0.0157814 4
10.234 27.8152 -2.593 0.149319 4
14.7828 40.1783 6.78068 0.507553 10
14.7799 40.1705 11.4691 0.496323 10
3.47844 9.55692 -2.72511 0.0984615 1
3.75604 10.3196 -2.53537 0.0633866 4
4.65765 12.7968 -2.64708 0.0343834 4
5.71418 15.6996 -2.64615 0.0148226 4
10.1754 27.9566 -2.60286 0.174298 4
14.7005 40.3892 6.80757 0.509118 10
14.6976 40.3813 11.5145 0.497854 10
3.44511 9.56917 -2.72516 0.0984599 1
3.72007 10.3329 -2.53542 0.0711787 4
4.61306 12.8133 -2.64714 0.0639165 4
5.65951 15.7199 -2.64623 0.00939943 4
10.1163 28.0991 -2.61282 0.17513 4
14.6221 40.6145 -0.753474 0.51704 10
14.6212 40.612 0.753426 0.517025 10
14.6185 40.6043 5.29885 0.513204 10
14.6175 40.6017 6.83475 0.510677 10
14.6156 40.5965 9.96134 0.50376 10
14.6147 40.5938 11.5605 0.499378 10
3.41175 9.5813 -2.72521 0.0984582 1
3.68404 10.346 -2.53547 0.0763727 4
4.37455 12.2852 -2.53487 0.0634742 4
5.60476 15.74 -2.6463 0.0108452 4
10.0568 28.2426 -2.62289 0.208753 4
14.5385 40.8289 -0.756505 0.518612 10
14.5376 40.8263 0.756457 0.518597 10
14.5349 40.8186 5.32016 0.514764 10
14.5339 40.816 6.86223 0.512229 10
14.532 40.8107 10.0014 0.505291 10
14.5311 40.808 11.607 0.500897 10
3.37834 9.59331 -2.72525 0.0984565 1
3.64798 10.359 -2.53552 0.0649415 4
4.33175 12.3007 -2.53493 0.060828 4
5.54994 15.7599 -2.64638 0.0159058 4
