VERSION 0.7
FIELDS x y z intensity label
SIZE 4 4 4 4 4
TYPE F F F F F
COUNT 1 1 1 1 1
WIDTH 1251
HEIGHT 1
VIEWPOINT 10.5598 43.8663 2.72859 0.878502 -0.000453638 0.000656397 0.477737
POINTS 1251
DATA ascii
6.25951 -21.268 -0.386979 0.167232 10
6.2606 -21.2717 0.387046 0.167203 10
5.69535 -19.3511 1.05716 0.046742 10
3.58985 -12.1973 1.11238 0.662944 10
3.58976 -12.197 1.56111 0.660533 10
3.58966 -12.1966 2.01369 0.657318 10
3.58956 -12.1963 2.47127 0.653302 10
3.58947 -12.196 2.93508 0.64849 10
3.58937 -12.1956 3.4064 0.642887 10
2.90555 -9.74648 -2.72514 0.0984577 1
3.37164 -11.3099 -2.72466 0.0855889 1
4.0036 -13.4298 -2.72402 0.0726157 1
4.0281 -13.512 -2.23316 0.247333 10
4.02883 -13.5144 -1.73153 0.248505 10
6.30853 -21.1616 -1.93191 0.851005 10
12.2624 -41.1334 -2.24946 0.853107 10
12.2621 -41.1323 -0.749192 0.564201 10
12.2617 -41.1312 0.749171 0.564216 10
5.76347 -19.3332 1.05727 0.0467371 10
3.66706 -12.3009 1.12299 0.194268 10
3.66771 -12.3031 1.57633 0.193522 10
3.66838 -12.3053 2.03373 0.19254 10
3.66905 -12.3076 2.49639 0.191323 10
3.66973 -12.3099 2.96555 0.189874 10
3.67042 -12.3122 3.44251 0.188193 10
2.93949 -9.73608 -2.72508 0.0984598 1
3.41102 -11.2978 -2.7246 0.0855909 1
4.05034 -13.4154 -2.72394 0.0726177 1
4.12438 -13.6606 -2.26009 0.244386 10
4.12514 -13.6631 -1.75241 0.245543 10
6.37588 -21.1179 -1.92995 0.85187 10
12.3933 -41.0486 -2.24718 0.853974 10
9.55877 -31.6602 -0.577269 0.855038 10
6.37538 -21.1163 0.385019 0.56479 10
5.83153 -19.315 1.05738 0.0467322 10
3.75477 -12.4364 1.13655 0.19195 10
3.75545 -12.4386 1.59536 0.191213 10
3.75613 -12.4409 2.0583 0.190242 10
3.75683 -12.4432 2.52655 0.18904 10
3.75753 -12.4455 3.00138 0.187607 10
3.75825 -12.4479 3.48411 0.185946 10
2.9734 -9.72556 -2.72503 0.0984618 1
3.45035 -11.2856 -2.72453 0.0855929 1
4.09703 -13.4008 -2.72387 0.0726198 1
4.22302 -13.8129 -2.28771 0.241436 10
4.2238 -13.8154 -1.77383 0.242579 10
4.36333 -14.2718 -1.30567 0.563246 10
4.36321 -14.2714 -0.782108 0.564638 10
4.3631 -14.2711 -0.260484 0.565341 10
4.36299 -14.2707 0.260477 0.565356 10
4.36287 -14.2703 0.782047 0.564682 10
3.84462 -12.5752 1.15046 0.18963 10
3.84533 -12.5775 1.61489 0.188901 10
3.84604 -12.5798 2.08349 0.187942 10
3.84676 -12.5822 2.55748 0.186754 10
3.84749 -12.5846 3.03813 0.185338 10
3.84823 -12.587 3.52678 0.183696 10
3.00727 -9.71492 -2.72497 0.0984638 1
3.48964 -11.2732 -2.72447 0.0855949 1
4.14366 -13.386 -2.72379 0.0726218 1
4.32409 -13.9689 -2.31603 0.238483 10
4.3249 -13.9715 -1.7958 0.239612 10
4.40875 -14.2424 -1.30438 0.563804 10
4.40864 -14.242 -0.781335 0.565197 10
4.40852 -14.2416 -0.260227 0.565901 10
4.40841 -14.2413 0.26022 0.565916 10
4.40829 -14.2409 0.781274 0.565241 10
3.9367 -12.7174 1.16472 0.187308 10
3.93743 -12.7198 1.63491 0.186588 10
3.93817 -12.7222 2.10933 0.18564 10
3.93891 -12.7246 2.5892 0.184466 10
3.93967 -12.727 3.07582 0.183067 10
3.94044 -12.7295 3.57054 0.181445 10
3.0411 -9.70417 -2.72492 0.0984658 1
3.52889 -11.2607 -2.72441 0.085597 1
4.19025 -13.3711 -2.72371 0.0726239 1
4.4277 -14.1288 -2.3451 0.235528 10
4.42854 -14.1315 -1.81834 0.236641 10
4.45409 -14.213 -1.30311 0.564355 10
4.45398 -14.2127 -0.780573 0.565749 10
4.45386 -14.2123 -0.259973 0.566454 10
4.45374 -14.2119 0.259966 0.566468 10
4.45363 -14.2115 0.780511 0.565793 10
4.03109 -12.8632 1.17935 0.184984 10
4.03185 -12.8657 1.65546 0.184272 10
4.03261 -12.8681 2.13584 0.183335 10
4.03339 -12.8706 2.62175 0.182175 10
4.03417 -12.8731 3.1145 0.180793 10
4.03497 -12.8756 3.61545 0.179191 10
3.07489 -9.6933 -2.72486 0.0984678 1
3.56809 -11.248 -2.72434 0.085599 1
4.23678 -13.356 -2.72364 0.0726259 1
4.53395 -14.2928 -2.37493 0.232569 10
4.53482 -14.2956 -1.84147 0.233668 10
4.584 -14.4506 -1.32635 0.564898 10
4.58388 -14.4502 -0.794493 0.566294 10
4.58376 -14.4498 -0.264609 0.566999 10
4.58364 -14.4495 0.264602 0.567014 10
4.58352 -14.4491 0.794431 0.566338 10
4.12789 -13.0128 1.19438 0.182657 10
4.12867 -13.0152 1.67655 0.181954 10
4.12947 -13.0177 2.16306 0.181028 10
4.13027 -13.0203 2.65517 0.179882 10
4.13108 -13.0228 3.1542 0.178517 10
4.13191 -13.0254 3.66155 0.176935 10
3.10865 -9.68231 -2.7248 0.0984698 1
3.60725 -11.2353 -2.72428 0.085601 1
4.28325 -13.3408 -2.72356 0.0726279 1
4.64293 -14.461 -2.40556 0.229608 10
4.64383 -14.4639 -1.86523 0.230692 10
4.64473 -14.4666 -1.3293 0.152909 10
4.64562 -14.4694 -0.796436 0.153254 10
4.64651 -14.4722 -0.265314 0.153411 10
4.64739 -14.4749 0.265364 0.153382 10
4.64828 -14.4777 0.796891 0.153166 10
4.22719 -13.1661 1.2098 0.180328 10
4.228 -13.1687 1.69821 0.179633 10
4.22882 -13.1712 2.191 0.178719 10
4.22965 -13.1738 2.68948 0.177587 10
4.2305 -13.1765 3.19497 0.176239 10
4.23136 -13.1791 3.70888 0.174677 10
3.14236 -9.6712 -2.72475 0.0984718 1
3.64636 -11.2223 -2.72421 0.085603 1
4.32967 -13.3254 -2.72349 0.07263 1
4.75476 -14.6337 -2.43702 0.226644 10
4.7557 -14.6365 -1.88963 0.227713 10
4.76229 -14.6568 -1.3483 0.565965 10
4.76217 -14.6564 -0.80764 0.567363 10
4.76204 -14.6561 -0.268988 0.56807 10
4.76192 -14.6557 0.268981 0.568085 10
4.76179 -14.6553 0.807577 0.567408 10
4.32908 -13.3235 1.22565 0.177997 10
4.32993 -13.3261 1.72045 0.177311 10
4.33078 -13.3288 2.21971 0.176408 10
4.33164 -13.3314 2.72472 0.17529 10
4.33252 -13.3341 3.23685 0.173959 10
4.33341 -13.3369 3.75751 0.172416 10
3.17604 -9.65997 -2.72469 0.0984738 1
3.68542 -11.2093 -2.72415 0.085605 1
4.37604 -13.3098 -2.72341 0.072632 1
4.86956 -14.8109 -2.46935 0.223677 10
4.87053 -14.8138 -1.9147 0.224732 10
4.89618 -14.8918 -1.37148 0.566489 10
4.89605 -14.8914 -0.821526 0.567888 10
4.89592 -14.891 -0.273612 0.568595 10
4.89579 -14.8906 0.273605 0.56861 10
4.89567 -14.8903 0.821462 0.567932 10
4.43368 -13.4851 1.24193 0.175664 10
4.43456 -13.4878 1.74331 0.174986 10
4.43544 -13.4905 2.24921 0.174095 10
4.43634 -13.4932 2.76094 0.172991 10
4.43725 -13.496 3.27988 0.171677 10
4.43817 -13.4988 3.80747 0.170154 10
3.20967 -9.64863 -2.72464 0.0984758 1
3.72444 -11.1961 -2.72408 0.0856071 1
4.42235 -13.2941 -2.72333 0.072634 1
4.98745 -14.9928 -2.50257 0.220707 10
4.98846 -14.9959 -1.94047 0.221748 10
5.03167 -15.1258 -1.39463 0.567005 10
5.03154 -15.1254 -0.835396 0.568405 10
5.03141 -15.125 -0.278232 0.569114 10
5.03128 -15.1246 0.278224 0.569128 10
5.03115 -15.1242 0.83533 0.56845 10
4.5411 -13.6511 1.25866 0.173328 10
4.54201 -13.6538 1.7668 0.172659 10
4.54293 -13.6566 2.27952 0.171779 10
4.54386 -13.6594 2.79816 0.17069 10
4.5448 -13.6622 3.32411 0.169393 10
4.54576 -13.6651 3.85882 0.16789 10
3.24327 -9.63718 -2.72458 0.0984778 1
3.76341 -11.1827 -2.72402 0.0856091 1
4.4686 -13.2782 -2.72326 0.0726361 1
5.10855 -15.1798 -2.53674 0.217735 10
5.1096 -15.1829 -1.96696 0.218761 10
5.16876 -15.3587 -1.41776 0.567514 10
5.16863 -15.3583 -0.84925 0.568916 10
5.16849 -15.3579 -0.282846 0.569625 10
5.16836 -15.3575 0.282839 0.56964 10
5.16822 -15.3571 0.849184 0.56896 10
4.65145 -13.8215 1.27587 0.170991 10
4.6524 -13.8243 1.79096 0.17033 10
4.65335 -13.8272 2.3107 0.169461 10
4.65432 -13.83 2.83644 0.168387 10
4.6553 -13.8329 3.36959 0.167107 10
4.65629 -13.8359 3.91163 0.165623 10
3.27682 -9.6256 -2.72453 0.0984798 1
3.80233 -11.1693 -2.72396 0.0856111 1
4.5148 -13.2621 -2.72318 0.0726381 1
5.23301 -15.3719 -2.57188 0.21476 10
5.2341 -15.3751 -1.99421 0.215771 10
5.23517 -15.3782 -1.42125 0.143017 10
5.23625 -15.3814 -0.851534 0.143337 10
5.23731 -15.3845 -0.283672 0.143483 10
5.23838 -15.3877 0.283729 0.143454 10
5.23945 -15.3908 0.852055 0.14325 10
4.76487 -13.9967 1.29357 0.168651 10
4.76585 -13.9996 1.81581 0.167999 10
4.76684 -14.0025 2.34277 0.167142 10
4.76784 -14.0055 2.87581 0.166081 10
4.76886 -14.0084 3.41637 0.164818 10
4.76989 -14.0115 3.96595 0.163354 10
3.31033 -9.61391 -2.72447 0.0984818 1
3.8412 -11.1557 -2.72389 0.0856131 1
4.56093 -13.2459 -2.7231 0.0726401 1
5.36097 -15.5694 -2.60804 0.211782 10
5.3621 -15.5727 -2.02226 0.212779 10
5.41755 -15.7337 -1.45584 0.860696 10
5.41741 -15.7333 -0.872058 0.862822 10
5.41727 -15.7329 -0.290442 0.863897 10
5.41713 -15.7325 0.290435 0.86392 10
5.41699 -15.7321 0.871991 0.862889 10
4.88148 -14.1768 1.31178 0.166309 10
4.8825 -14.1798 1.84138 0.165666 10
4.88353 -14.1828 2.37577 0.16482 10
4.88457 -14.1858 2.91633 0.163774 10
4.88562 -14.1889 3.46451 0.162528 10
4.8867 -14.192 4.02185 0.161084 10
3.3438 -9.6021 -2.72442 0.0984838 1
3.88003 -11.1419 -2.72383 0.0856151 1
4.60702 -13.2296 -2.72303 0.0726421 1
5.49257 -15.7725 -2.64526 0.208802 10
5.49375 -15.7759 -2.05113 0.209784 10
5.49491 -15.7792 -1.46182 0.210511 10
5.49607 -15.7826 -0.875847 0.210981 10
5.49722 -15.7859 -0.291773 0.211194 10
5.49837 -15.7892 0.291834 0.21115 10
5.49953 -15.7925 0.876398 0.210848 10
5.00142 -14.3621 1.33053 0.163966 10
5.00248 -14.3652 1.86771 0.163331 10
5.00355 -14.3682 2.40974 0.162496 10
5.00463 -14.3713 2.95804 0.161464 10
5.00573 -14.3745 3.51408 0.160235 10
5.00684 -14.3777 4.0794 0.158811 10
3.37723 -9.59018 -2.72436 0.0984858 1
3.91881 -11.1281 -2.72376 0.0856171 1
4.65304 -13.213 -2.72295 0.0726442 1
5.628 -15.9816 -2.6836 0.205819 10
5.62921 -15.985 -2.08086 0.206787 10
5.63042 -15.9885 -1.48301 0.207503 10
5.63163 -15.9919 -0.888548 0.207965 10
5.63283 -15.9953 -0.296005 0.208175 10
5.63402 -15.9987 0.296068 0.20813 10
5.63522 -16.0021 0.889115 0.207833 10
5.12484 -14.5528 1.34984 0.16162 10
5.12594 -14.5559 1.89482 0.160993 10
5.12705 -14.5591 2.44473 0.160171 10
5.12818 -14.5623 3.001 0.159153 10
5.12932 -14.5655 3.56513 0.157941 10
5.13048 -14.5688 4.13868 0.156537 10
3.41062 -9.57814 -2.72431 0.0984877 1
3.95754 -11.1141 -2.7237 0.0856191 1
4.699 -13.1963 -2.72288 0.0726462 1
5.76443 -16.1884 -2.7217 0.0595847 1
5.76867 -16.2003 -2.11149 0.203787 10
7.30542 -20.516 -1.90532 0.862884 10
7.30523 -20.5155 -1.1413 0.571365 10
7.30504 -20.5149 -0.380115 0.572077 10
7.30485 -20.5144 0.380104 0.572091 10
6.77802 -19.0349 1.05893 0.0466638 10
5.25189 -14.749 1.36974 0.159272 10
5.25304 -14.7522 1.92276 0.158654 10
5.2542 -14.7555 2.48079 0.157843 10
5.25537 -14.7588 3.04527 0.156839 10
5.25655 -14.7621 3.61772 0.155645 10
5.25776 -14.7655 4.19975 0.154261 10
3.44396 -9.56598 -2.72425 0.0984897 1
3.99621 -11.0999 -2.72364 0.0856211 1
4.7449 -13.1795 -2.7228 0.0726482 1
5.82071 -16.1676 -2.7216 0.0595868 1
5.91229 -16.422 -2.14307 0.200785 10
7.37094 -20.4736 -1.90375 0.863592 10
7.39128 -20.5301 -1.14354 0.133377 10
7.3929 -20.5346 -0.380954 0.133511 10
7.39451 -20.5391 0.381037 0.133482 10
6.84513 -19.0131 1.05904 0.046659 10
5.92009 -16.4437 1.52903 0.156923 10
5.56621 -15.4607 2.01762 0.0843292 10
5.61678 -15.6012 2.62625 0.667725 10
5.61663 -15.6008 3.22303 0.663645 10
5.51323 -15.3136 3.75756 0.155883 10
5.9268 -16.4623 4.68823 0.151982 10
3.47726 -9.55371 -2.7242 0.0984917 1
4.03484 -11.0856 -2.72357 0.0856231 1
4.79075 -13.1625 -2.72273 0.0726502 1
5.87691 -16.1467 -2.72151 0.0595888 1
6.06027 -16.6505 -2.17563 0.19778 10
7.43635 -20.4312 -1.90222 0.86429 10
9.654 -26.5242 -1.47928 0.572296 10
9.65375 -26.5235 -0.492681 0.573009 10
9.6535 -26.5228 0.492668 0.573023 10
6.91218 -18.9911 1.05915 0.0466541 10
6.06839 -16.6728 1.55229 0.154571 10
5.62039 -15.4419 2.01771 0.0843255 10
5.66662 -15.5689 2.62413 0.668264 10
5.66647 -15.5685 3.22043 0.664181 10
5.56678 -15.2946 3.75765 0.155879 10
6.07537 -16.692 4.75964 0.149702 10
3.51052 -9.54132 -2.72414 0.0984937 1
4.07342 -11.0712 -2.72351 0.0856251 1
4.83653 -13.1453 -2.72265 0.0726522 1
5.93303 -16.1255 -2.72142 0.0595908 1
6.21282 -16.886 -2.20922 0.194772 10
6.47786 -17.6063 -1.64131 0.0779305 10
14.5816 -39.6316 -2.21313 0.867113 10
24.6766 -67.0689 1.24742 0.676959 10
6.97915 -18.9688 1.05926 0.0466493 10
6.22127 -16.9089 1.57629 0.152218 10
5.67451 -15.4229 2.0178 0.0843218 10
5.71639 -15.5367 2.62205 0.668796 10
5.71624 -15.5363 3.21787 0.664709 10
5.66185 -15.3885 3.78554 0.148745 10
6.22855 -16.9287 4.83331 0.14742 10
3.54373 -9.52882 -2.72409 0.0984957 1
4.11194 -11.0567 -2.72345 0.0856271 1
4.88225 -13.128 -2.72257 0.0726543 1
5.98908 -16.1042 -2.72132 0.0595929 1
6.37016 -17.1289 -2.24389 0.191763 10
6.53888 -17.5825 -1.6412 0.0779352 10
7.56667 -20.3462 -1.13765 0.573199 10
7.56648 -20.3457 -0.378899 0.573913 10
7.56628 -20.3451 0.378888 0.573927 10
7.04606 -18.9463 1.05937 0.0466444 10
6.37896 -17.1525 1.60107 0.149862 10
5.80132 -15.5993 2.04352 0.149279 10
5.80268 -15.6029 2.63663 0.148513 10
5.80405 -15.6066 3.23662 0.147567 10
5.80545 -15.6104 3.8451 0.146441 10
6.38654 -17.1729 4.90937 0.145137 10
3.5769 -9.5162 -2.72403 0.0984977 1
4.15041 -11.042 -2.72338 0.0856291 1
4.92791 -13.1105 -2.7225 0.0726563 1
6.04505 -16.0826 -2.72123 0.0595949 1
6.53251 -17.3795 -2.2797 0.188751 10
6.59981 -17.5585 -1.6411 0.07794 10
9.94649 -26.4622 -1.48156 0.12538 10
9.94881 -26.4684 -0.493567 0.125504 10
9.95113 -26.4746 0.493681 0.125475 10
7.11289 -18.9235 1.05948 0.0466396 10
6.54168 -17.4039 1.62665 0.147505 10
6.54323 -17.408 2.28343 0.14693 10
6.54478 -17.4121 2.94619 0.146177 10
6.54636 -17.4163 3.61664 0.145245 10
6.54795 -17.4206 4.29658 0.144136 10
6.54958 -17.4249 4.98791 0.142851 10
3.61003 -9.50346 -2.72398 0.0984996 1
4.18884 -11.0272 -2.72332 0.0856311 1
4.97351 -13.0928 -2.72242 0.0726583 1
6.10095 -16.0609 -2.72114 0.0595969 1
6.70014 -17.6382 -2.31669 0.185737 10
6.70174 -17.6425 -1.65113 0.186375 10
14.8959 -39.2136 -2.19838 0.869116 10
14.8955 -39.2126 -0.732178 0.870199 10
14.8951 -39.2116 0.732159 0.870221 10
7.17964 -18.9006 1.05959 0.0466347 10
6.7097 -17.6634 1.65309 0.145146 10
6.67163 -17.5632 2.30684 0.673619 10
6.67146 -17.5627 2.9756 0.67034 10
6.67128 -17.5623 3.65176 0.666244 10
6.71623 -17.6806 4.36647 0.141828 10
6.71793 -17.6851 5.06907 0.140564 10
3.6431 -9.49061 -2.72392 0.0985016 1
4.2272 -11.0122 -2.72326 0.0856331 1
5.01904 -13.075 -2.72235 0.0726603 1
6.15677 -16.0389 -2.72105 0.0595989 1
6.8733 -17.9056 -2.35494 0.18272 10
6.87497 -17.9099 -1.67839 0.183347 10
7.10237 -18.5023 -1.03865 0.574501 10
7.10219 -18.5018 -0.345927 0.575216 10
7.10201 -18.5014 0.345918 0.575231 10
7.10183 -18.5009 1.03857 0.574545 10
6.88327 -17.9315 1.68042 0.142786 10
6.7279 -17.5268 2.30512 0.674121 10
6.72772 -17.5263 2.97339 0.670839 10
6.72754 -17.5259 3.64905 0.66674 10
6.89008 -17.9493 4.43874 0.139519 10
6.89185 -17.9539 5.15299 0.138275 10
3.67614 -9.47765 -2.72387 0.0985036 1
4.26552 -10.9972 -2.72319 0.0856351 1
5.06451 -13.0571 -2.72227 0.0726623 1
6.2125 -16.0168 -2.72096 0.0596009 1
7.05227 -18.1819 -2.3945 0.179701 10
7.05402 -18.1863 -1.7066 0.180317 10
7.16168 -18.4639 -1.03789 0.574921 10
7.1615 -18.4634 -0.345675 0.575637 10
7.16131 -18.463 0.345665 0.575652 10
7.16113 -18.4625 1.03781 0.574965 10
7.06267 -18.2087 1.70869 0.140423 10
6.78408 -17.4904 2.30344 0.674613 10
6.7839 -17.4899 2.97121 0.671329 10
6.78372 -17.4895 3.64638 0.667227 10
7.06978 -18.227 4.51349 0.137209 10
7.07162 -18.2317 5.23979 0.135984 10
3.70912 -9.46457 -2.72381 0.0985056 1
4.30378 -10.982 -2.72313 0.0856371 1
5.10991 -13.039 -2.7222 0.0726643 1
6.26816 -15.9945 -2.72086 0.059603 1
7.23736 -18.4676 -2.43544 0.17668 10
7.23918 -18.4722 -1.73578 0.177285 10
7.24099 -18.4768 -1.04003 0.117358 10
7.24279 -18.4814 -0.346483 0.117472 10
7.24459 -18.486 0.346569 0.117443 10
7.2464 -18.4907 1.04081 0.117271 10
7.24822 -18.4953 1.73795 0.138059 10
6.84017 -17.4541 2.30179 0.675098 10
6.83999 -17.4536 2.96908 0.671811 10
6.83981 -17.4532 3.64377 0.667706 10
7.25564 -18.5142 4.59085 0.134896 10
7.25756 -18.5191 5.32963 0.133692 10
3.74206 -9.45137 -2.72376 0.0985075 1
4.34199 -10.9666 -2.72307 0.0856391 1
5.15526 -13.0207 -2.72212 0.0726663 1
6.32374 -15.972 -2.72077 0.059605 1
7.42889 -18.7632 -2.47784 0.173657 10
7.43079 -18.768 -1.76601 0.174251 10
7.48278 -18.8993 -1.06528 0.57574 10
7.48259 -18.8989 -0.354796 0.576457 10
7.48239 -18.8984 0.354787 0.576472 10
7.44592 -18.8062 1.06003 0.0360309 10
7.44023 -18.7919 1.76825 0.135693 10
6.89619 -17.4178 2.30016 0.675574 10
6.89601 -17.4173 2.96699 0.672285 10
6.89583 -17.4169 3.6412 0.668177 10
7.44798 -18.8115 4.67098 0.132582 10
7.44999 -18.8165 5.42267 0.131398 10
3.77496 -9.43806 -2.72371 0.0985095 1
4.38014 -10.9511 -2.723 0.0856411 1
5.20053 -13.0023 -2.72205 0.0726683 1
6.37924 -15.9492 -2.72068 0.059607 1
7.62722 -19.0694 -2.52177 0.170632 10
7.6292 -19.0744 -1.79733 0.171215 10
7.64567 -19.1155 -1.07896 0.576139 10
7.64547 -19.1151 -0.359353 0.576856 10
7.64528 -19.1146 0.359344 0.576871 10
7.63708 -19.0941 1.07775 0.133686 10
7.63906 -19.099 1.79965 0.133326 10
6.95213 -17.3816 2.29857 0.676042 10
6.95195 -17.3811 2.96493 0.672751 10
6.95177 -17.3807 3.63868 0.66864 10
7.64716 -19.1193 4.75401 0.130267 10
7.64926 -19.1245 5.51909 0.129102 10
3.8078 -9.42464 -2.72365 0.0985115 1
4.41824 -10.9355 -2.72294 0.0856431 1
5.24574 -12.9837 -2.72197 0.0726703 1
6.43466 -15.9263 -2.72059 0.059609 1
7.8327 -19.3866 -2.56732 0.167605 10
7.83478 -19.3918 -1.8298 0.168176 10
7.83684 -19.3969 -1.09638 0.111327 10
7.8389 -19.402 -0.365259 0.111433 10
7.84096 -19.4071 0.365355 0.111404 10
7.84302 -19.4122 1.09725 0.131311 10
7.84509 -19.4173 1.83221 0.130957 10
7.46578 -18.4785 2.44705 0.676502 10
7.46559 -18.478 3.15647 0.673209 10
7.24595 -17.9344 3.75987 0.132143 10
7.85355 -19.4382 4.84011 0.12795 10
7.85575 -19.4437 5.61907 0.126805 10
3.8406 -9.41111 -2.7236 0.0985134 1
4.45628 -10.9198 -2.72288 0.085645 1
5.29089 -12.9649 -2.7219 0.0726723 1
6.48999 -15.9032 -2.7205 0.059611 1
8.04575 -19.7155 -2.61458 0.164575 10
8.04792 -19.7208 -1.86349 0.165136 10
8.07996 -19.7993 -1.12072 0.873419 10
8.07976 -19.7988 -0.37326 0.874507 10
8.07955 -19.7983 0.37325 0.874529 10
8.05654 -19.742 1.11747 0.128935 10
8.05871 -19.7473 1.86599 0.128586 10
7.52521 -18.44 2.44542 0.676954 10
7.52502 -18.4395 3.15436 0.673658 10
7.33326 -17.9696 3.7726 0.126602 10
8.06757 -19.769 4.92944 0.125631 10
8.06986 -19.7746 5.72281 0.124507 10
3.87335 -9.39745 -2.72354 0.0985154 1
4.49427 -10.9039 -2.72281 0.085647 1
5.33596 -12.946 -2.72182 0.0726743 1
6.54524 -15.88 -2.7204 0.059613 1
8.26678 -20.0567 -2.66364 0.161544 10
8.26906 -20.0622 -1.89847 0.162093 10
8.27132 -20.0677 -1.13754 0.162445 10
8.27357 -20.0732 -0.378974 0.162599 10
8.27582 -20.0787 0.379077 0.162555 10
8.21283 -19.9258 1.12949 0.681514 10
8.21262 -19.9253 1.88551 0.67987 10
7.58457 -18.4015 2.44382 0.677397 10
7.58437 -18.4011 3.1523 0.674099 10
7.53506 -18.2814 3.84356 0.124264 10
8.21176 -19.9232 4.97502 0.665045 10
8.21153 -19.9227 5.77393 0.659299 10
3.90605 -9.38369 -2.72349 0.0985174 1
4.5322 -10.8879 -2.72275 0.085649 1
5.38097 -12.927 -2.72175 0.0726763 1
6.60041 -15.8565 -2.72031 0.059615 1
8.50709 -20.437 -2.71807 0.0464811 1
10.7467 -25.8174 -2.4466 0.872398 10
10.7465 -25.8167 -1.46554 0.577664 10
10.7462 -25.8161 -0.488103 0.578384 10
10.7459 -25.8154 0.48809 0.578399 10
8.27702 -19.8843 1.12877 0.681952 10
8.2768 -19.8837 1.8843 0.680306 10
8.27659 -19.8832 2.64442 0.677832 10
8.27638 -19.8827 3.41105 0.674532 10
8.27616 -19.8822 4.18616 0.670411 10
8.27594 -19.8817 4.97183 0.665472 10
8.27571 -19.8811 5.77023 0.659723 10
3.93871 -9.36981 -2.72343 0.0985193 1
4.57007 -10.8718 -2.72269 0.085651 1
5.42592 -12.9077 -2.72167 0.0726783 1
6.6555 -15.8328 -2.72022 0.059617 1
8.57801 -20.4063 -2.71795 0.0464831 1
10.83 -25.7635 -2.44506 0.872947 10
16.215 -38.5739 -2.19292 0.875103 10
26.3786 -62.7523 -1.18819 0.876193 10
18.6127 -44.278 0.838383 0.541537 3
8.34112 -19.8428 1.12806 0.682381 10
8.34091 -19.8422 1.88311 0.680735 10
8.34069 -19.8417 2.64275 0.678259 10
8.34048 -19.8412 3.4089 0.674957 10
8.34026 -19.8407 4.18353 0.670833 10
8.34003 -19.8402 4.9687 0.665891 10
8.33981 -19.8396 5.76659 0.660138 10
3.97131 -9.35582 -2.72338 0.0985213 1
4.60788 -10.8555 -2.72262 0.0856529 1
5.47079 -12.8884 -2.7216 0.0726803 1
6.7105 -15.809 -2.72013 0.059619 1
8.64881 -20.3753 -2.71783 0.0464852 1
10.9131 -25.7097 -2.44356 0.873486 10
16.3394 -38.4933 -2.19157 0.875643 10
18.6633 -43.968 -0.833744 0.278053 3
19.4466 -45.8134 0.868736 0.309825 3
8.40515 -19.8013 1.12736 0.682802 10
8.40493 -19.8008 1.88195 0.681155 10
8.40472 -19.8003 2.64112 0.678678 10
8.4045 -19.7998 3.4068 0.675374 10
8.40428 -19.7992 4.18095 0.671247 10
8.40405 -19.7987 4.96564 0.666302 10
8.40382 -19.7982 5.76304 0.660546 10
4.00386 -9.34171 -2.72333 0.0985232 1
4.64564 -10.8391 -2.72256 0.0856549 1
5.51559 -12.8688 -2.72153 0.0726823 1
6.76542 -15.7849 -2.72004 0.059621 1
8.7195 -20.3441 -2.71771 0.0464872 1
10.9961 -25.6559 -2.44208 0.874014 10
10.9959 -25.6553 -1.46283 0.578735 10
10.9956 -25.6546 -0.4872 0.579455 10
10.9953 -25.6539 0.487187 0.57947 10
8.46909 -19.7599 1.12668 0.683215 10
8.46888 -19.7594 1.88081 0.681567 10
8.46866 -19.7589 2.63953 0.679088 10
8.46844 -19.7584 3.40474 0.675782 10
8.46822 -19.7578 4.17842 0.671653 10
8.46799 -19.7573 4.96264 0.666705 10
8.46776 -19.7568 5.75956 0.660945 10
4.03637 -9.3275 -2.72327 0.0985252 1
4.68334 -10.8226 -2.7225 0.0856569 1
5.56033 -12.8492 -2.72145 0.0726842 1
6.82025 -15.7607 -2.71995 0.059623 1
8.79008 -20.3127 -2.7176 0.0464892 1
11.0791 -25.6022 -2.44063 0.874532 10
16.5879 -38.3324 -2.18895 0.876692 10
28.7008 -66.3237 -1.26143 0.877783 10
20.0489 -46.3303 0.881171 0.318959 3
11.0779 -25.5996 1.46185 0.68362 10
11.0776 -25.5989 2.44032 0.68197 10
11.0774 -25.5983 3.42474 0.67949 10
11.0771 -25.5976 4.41759 0.676182 10
11.0768 -25.5969 5.42143 0.67205 10
11.0765 -25.5963 6.43893 0.6671 10
11.0762 -25.5956 7.47292 0.661336 10
4.06882 -9.31317 -2.72322 0.0985271 1
4.72098 -10.8059 -2.72244 0.0856589 1
5.60499 -12.8293 -2.72138 0.0726862 1
6.87499 -15.7362 -2.71986 0.059625 1
8.86055 -20.281 -2.71748 0.0464912 1
11.1619 -25.5486 -2.43922 0.875039 10
16.7119 -38.2521 -2.18768 0.8772 10
30.7655 -70.4194 -1.34136 0.878292 10
19.1671 -43.8717 0.835677 0.395253 3
11.1608 -25.546 1.461 0.684016 10
11.1605 -25.5453 2.43891 0.682366 10
11.1602 -25.5446 3.42276 0.679884 10
11.1599 -25.544 4.41503 0.676574 10
11.1596 -25.5433 5.41829 0.67244 10
11.1593 -25.5426 6.4352 0.667486 10
11.159 -25.5419 7.4686 0.661719 10
4.10122 -9.29872 -2.72316 0.0985291 1
4.75856 -10.7891 -2.72237 0.0856608 1
5.64959 -12.8093 -2.7213 0.0726882 1
6.92965 -15.7116 -2.71976 0.059627 1
8.93091 -20.2491 -2.71736 0.0464932 1
11.2446 -25.495 -2.43784 0.875535 10
11.2443 -25.4943 -1.46029 0.877697 10
11.2441 -25.4937 -0.486354 0.87879 10
11.2438 -25.493 0.486341 0.878813 10
11.2435 -25.4924 1.46017 0.684404 10
11.2432 -25.4917 2.43753 0.682753 10
11.2429 -25.4911 3.42082 0.680269 10
11.2426 -25.4904 4.41253 0.676958 10
11.2423 -25.4897 5.41522 0.672821 10
11.242 -25.4891 6.43156 0.667865 10
11.2417 -25.4884 7.46436 0.662095 10
4.13358 -9.28417 -2.72311 0.098531 1
4.79609 -10.7722 -2.72231 0.0856628 1
5.69411 -12.7892 -2.72123 0.0726902 1
6.98421 -15.6868 -2.71967 0.059629 1
9.00115 -20.2169 -2.71724 0.0464952 1
11.3273 -25.4415 -2.43649 0.87602 10
11.327 -25.4408 -1.45948 0.878184 10
11.3267 -25.4402 -0.486084 0.879278 10
11.3264 -25.4395 0.486071 0.8793 10
11.3261 -25.4389 1.45936 0.684783 10
11.3258 -25.4382 2.43617 0.683131 10
11.3255 -25.4376 3.41892 0.680647 10
11.3252 -25.4369 4.41008 0.677333 10
11.3249 -25.4363 5.41222 0.673194 10
11.3246 -25.4356 6.42799 0.668235 10
11.3243 -25.4349 7.46023 0.662462 10
4.16588 -9.2695 -2.72306 0.098533 1
4.83355 -10.7551 -2.72225 0.0856648 1
5.73856 -12.7689 -2.72116 0.0726922 1
7.03869 -15.6618 -2.71958 0.059631 1
9.07128 -20.1845 -2.71713 0.0464972 1
11.4098 -25.388 -2.43517 0.876495 10
11.4095 -25.3874 -1.45868 0.87866 10
11.4092 -25.3867 -0.485821 0.879754 10
11.409 -25.3861 0.485808 0.879777 10
11.4087 -25.3854 1.45857 0.685154 10
11.4084 -25.3848 2.43485 0.683501 10
11.4081 -25.3841 3.41707 0.681016 10
11.4078 -25.3835 4.40769 0.6777 10
11.4075 -25.3828 5.40928 0.673559 10
11.4072 -25.3821 6.42451 0.668597 10
11.4069 -25.3814 7.45619 0.662821 10
4.19813 -9.25472 -2.723 0.0985349 1
4.87095 -10.738 -2.72219 0.0856667 1
5.78294 -12.7484 -2.72108 0.0726941 1
7.09309 -15.6366 -2.71949 0.059633 1
9.14128 -20.1519 -2.71701 0.0464992 1
11.4923 -25.3346 -2.43388 0.876959 10
11.492 -25.334 -1.45791 0.879125 10
11.4917 -25.3333 -0.485564 0.88022 10
11.4914 -25.3327 0.485551 0.880243 10
11.4911 -25.332 1.4578 0.685517 10
11.4908 -25.3314 2.43357 0.683863 10
11.4905 -25.3307 3.41526 0.681376 10
11.4902 -25.3301 4.40536 0.678059 10
11.4899 -25.3294 5.40642 0.673915 10
11.4896 -25.3287 6.42111 0.668951 10
11.4893 -25.3281 7.45224 0.663172 10
4.23032 -9.23983 -2.72295 0.0985369 1
4.90829 -10.7206 -2.72212 0.0856687 1
5.82725 -12.7278 -2.72101 0.0726961 1
7.14739 -15.6112 -2.7194 0.059635 1
9.21118 -20.119 -2.71689 0.0465012 1
11.5747 -25.2813 -2.43262 0.877413 10
11.5744 -25.2806 -1.45716 0.87958 10
11.5741 -25.28 -0.485313 0.880675 10
11.5738 -25.2793 0.4853 0.880698 10
11.5735 -25.2787 1.45705 0.685872 10
11.5732 -25.2781 2.43231 0.684217 10
11.5729 -25.2774 3.4135 0.681728 10
11.5726 -25.2768 4.40309 0.67841 10
11.5723 -25.2761 5.40363 0.674264 10
11.572 -25.2754 6.41779 0.669297 10
11.5717 -25.2747 7.44839 0.663514 10
4.26247 -9.22482 -2.7229 0.0985388 1
4.94557 -10.7032 -2.72206 0.0856706 1
5.87149 -12.7071 -2.72093 0.0726981 1
7.2016 -15.5857 -2.71931 0.059637 1
9.28095 -20.0858 -2.71678 0.0465032 1
11.7615 -25.4542 -2.45319 0.12544 10
11.7656 -25.4632 -1.47004 0.125702 10
11.7698 -25.4721 -0.489787 0.125811 10
11.7739 -25.4811 0.489959 0.125767 10
11.6558 -25.2254 1.45631 0.686218 10
11.6555 -25.2248 2.43108 0.684562 10
11.6552 -25.2241 3.41178 0.682073 10
11.6549 -25.2235 4.40086 0.678752 10
11.6546 -25.2228 5.4009 0.674604 10
11.6543 -25.2221 6.41456 0.669635 10
11.654 -25.2215 7.44463 0.663849 10
4.29456 -9.20971 -2.72284 0.0985407 1
4.98279 -10.6856 -2.722 0.0856726 1
5.91565 -12.6861 -2.72086 0.0727 1
7.25572 -15.5599 -2.71922 0.0596389 1
9.35061 -20.0524 -2.71666 0.0465051 1
12.1471 -26.0495 -2.51464 0.122375 10
12.3661 -26.5193 -1.53349 0.581564 10
12.3658 -26.5186 -0.510736 0.582289 10
12.3655 -26.5179 0.510723 0.582304 10
11.738 -25.1722 1.4556 0.686556 10
11.7377 -25.1715 2.42989 0.684899 10
11.7374 -25.1709 3.4101 0.682408 10
11.7371 -25.1702 4.3987 0.679086 10
11.7368 -25.1696 5.39825 0.674936 10
11.7365 -25.1689 6.4114 0.669964 10
11.7361 -25.1682 7.44097 0.664176 10
4.32659 -9.19448 -2.72279 0.0985427 1
5.01994 -10.6679 -2.72194 0.0856745 1
5.95973 -12.6651 -2.72079 0.072702 1
7.30974 -15.534 -2.71913 0.0596409 1
9.42014 -20.0188 -2.71655 0.0465071 1
12.5525 -26.6754 -2.57927 0.119308 10
12.5687 -26.7098 -1.54704 0.581844 10
12.5684 -26.7091 -0.515247 0.582568 10
12.568 -26.7084 0.515234 0.582583 10
11.8201 -25.119 1.4549 0.686885 10
11.8198 -25.1184 2.42872 0.685228 10
11.8195 -25.1177 3.40846 0.682736 10
11.8192 -25.1171 4.39659 0.679412 10
11.8189 -25.1164 5.39566 0.67526 10
11.8186 -25.1158 6.40833 0.670286 10
11.8183 -25.1151 7.4374 0.664494 10
4.35857 -9.17914 -2.72274 0.0985446 1
5.05703 -10.6501 -2.72188 0.0856765 1
6.00374 -12.6439 -2.72071 0.072704 1
7.36368 -15.5079 -2.71904 0.0596429 1
9.48956 -19.985 -2.71643 0.0465091 1
12.9793 -27.3344 -2.64735 0.11624 10
13.0064 -27.3914 -1.58914 0.582116 10
13.0061 -27.3907 -0.529268 0.58284 10
13.0057 -27.39 0.529254 0.582855 10
11.9021 -25.0659 1.45422 0.687206 10
11.9018 -25.0652 2.42759 0.685548 10
11.9015 -25.0646 3.40687 0.683055 10
11.9012 -25.064 4.39454 0.679729 10
11.9009 -25.0633 5.39314 0.675575 10
11.9006 -25.0626 6.40533 0.670599 10
11.9003 -25.062 7.43393 0.664805 10
4.3905 -9.16369 -2.72268 0.0985465 1
5.09406 -10.6321 -2.72181 0.0856784 1
6.04768 -12.6225 -2.72064 0.0727059 1
7.41752 -15.4816 -2.71895 0.0596448 1
9.55886 -19.9509 -2.71631 0.0465111 1
13.3919 -27.9511 -2.71159 0.0333207 1
13.4488 -28.0699 -1.63121 0.58238 10
13.4485 -28.0692 -0.543283 0.583106 10
13.4482 -28.0685 0.543268 0.58312 10
13.4503 -28.0729 1.63139 0.0883179 10
12.5327 -26.1577 2.53762 0.68586 10
12.5324 -26.1571 3.56129 0.683365 10
13.4662 -28.1062 4.93616 0.0872468 10
12.5078 -26.1058 5.62683 0.132078 10
12.5314 -26.155 6.69566 0.670904 10
13.4828 -28.1407 8.36107 0.0852198 10
4.42238 -9.14813 -2.72263 0.0985485 1
5.13103 -10.614 -2.72175 0.0856804 1
6.09154 -12.601 -2.72057 0.0727079 1
7.47127 -15.4551 -2.71886 0.0596468 1
9.62803 -19.9165 -2.7162 0.0465131 1
13.4886 -27.9025 -2.71143 0.0333227 1
13.9099 -28.7741 -1.67495 0.110324 10
13.9155 -28.7857 -0.558086 0.0729315 10
13.9211 -28.7972 0.55831 0.0729022 10
13.9267 -28.8088 1.67697 0.0859175 10
12.6678 -26.2045 2.54643 0.0856735 10
13.5917 -28.1157 3.83439 0.683668 10
13.9437 -28.8439 5.07423 0.0848727 10
13.591 -28.1142 6.06991 0.676182 10
13.5906 -28.1135 7.20913 0.671201 10
13.9613 -28.8803 8.59524 0.082898 10
4.4542 -9.13246 -2.72258 0.0985504 1
5.16793 -10.5958 -2.72169 0.0856823 1
6.13532 -12.5793 -2.72049 0.0727098 1
7.52493 -15.4284 -2.71877 0.0596488 1
9.69708 -19.882 -2.71608 0.0465151 1
13.5851 -27.8536 -2.71127 0.0333247 1
14.4127 -29.5503 -1.72305 0.107244 10
15.9639 -32.7308 -0.63565 0.883561 10
15.9635 -32.73 0.635633 0.883583 10
14.2144 -29.1439 1.69935 0.688119 10
13.6842 -28.0567 2.73104 0.686459 10
13.6838 -28.056 3.83274 0.683962 10
14.2133 -29.1417 5.13531 0.680632 10
13.6831 -28.0546 6.0673 0.676473 10
13.6828 -28.0538 7.20603 0.671489 10
14.2122 -29.1393 8.68704 0.665688 10
4.48596 -9.11668 -2.72252 0.0985523 1
5.20477 -10.5775 -2.72163 0.0856842 1
6.17903 -12.5574 -2.72042 0.0727118 1
7.57849 -15.4015 -2.71868 0.0596508 1
9.76601 -19.8472 -2.71597 0.046517 1
13.6814 -27.8043 -2.71111 0.0333266 1
14.9451 -30.3725 -1.77402 0.104162 10
15.2711 -31.0349 -0.603747 0.583858 10
15.2707 -31.0342 0.603731 0.583873 10
14.3101 -29.0819 1.69864 0.688406 10
13.7763 -27.9971 2.7299 0.686745 10
13.7759 -27.9964 3.83114 0.684248 10
14.309 -29.0797 5.13316 0.680916 10
13.7752 -27.9949 6.06477 0.676755 10
13.7748 -27.9942 7.20302 0.67177 10
14.3079 -29.0774 8.68341 0.665966 10
4.51767 -9.10079 -2.72247 0.0985542 1
5.24154 -10.559 -2.72157 0.0856862 1
6.22266 -12.5355 -2.72035 0.0727137 1
7.63195 -15.3745 -2.71859 0.0596527 1
9.83481 -19.8121 -2.71585 0.046519 1
13.7776 -27.7547 -2.71095 0.0333286 1
15.51 -31.2447 -1.82812 0.10108 10
15.5168 -31.2584 -0.609144 0.0668185 10
15.5236 -31.2721 0.60941 0.0667893 10
14.4057 -29.02 1.69795 0.688686 10
14.4053 -29.0193 2.83446 0.687024 10
14.4049 -29.0186 3.97788 0.684525 10
14.4046 -29.0178 5.13108 0.681192 10
14.4042 -29.0171 6.29705 0.67703 10
14.1923 -28.5902 7.36908 0.155764 10
14.4034 -29.0155 8.6799 0.666236 10
4.54932 -9.08478 -2.72242 0.0985561 1
5.27825 -10.5404 -2.72151 0.0856881 1
6.26621 -12.5133 -2.72027 0.0727157 1
7.68532 -15.3472 -2.7185 0.0596547 1
9.90349 -19.7768 -2.71574 0.046521 1
13.8735 -27.7048 -2.71078 0.0333306 1
16.1105 -32.1718 -1.88564 0.0979963 10
16.1177 -32.1864 -0.628321 0.0647792 10
16.2855 -32.5214 0.63486 0.884658 10
14.6681 -29.2914 1.71682 0.0763059 10
14.6747 -29.3047 2.86733 0.0760853 10
14.6814 -29.3181 4.02594 0.075772 10
14.6882 -29.3316 5.19561 0.0753664 10
14.6951 -29.3453 6.37939 0.074869 10
14.702 -29.3592 7.58047 0.0742803 10
14.7091 -29.3733 8.80224 0.0736012 10
4.58092 -9.06867 -2.72236 0.0985581 1
5.31489 -10.5217 -2.72145 0.08569 1
6.30968 -12.491 -2.7202 0.0727176 1
7.73859 -15.3198 -2.71841 0.0596566 1
9.97204 -19.7413 -2.71562 0.0465229 1
13.9693 -27.6546 -2.71062 0.0333326 1
16.7499 -33.1592 -1.94693 0.0949121 10
18.597 -36.8158 -0.719955 0.884973 10
18.5965 -36.8148 0.719936 0.884995 10
15.251 -30.1918 1.7727 0.0739006 10
15.2581 -30.2059 2.96069 0.0736859 10
15.2653 -30.2202 4.1571 0.0733814 10
15.2726 -30.2346 5.36496 0.0729875 10
15.2799 -30.2491 6.58742 0.0725046 10
15.2874 -30.2639 7.82779 0.0719335 10
15.295 -30.2789 9.08957 0.0712746 10
4.61245 -9.05245 -2.72231 0.09856 1
5.35146 -10.5028 -2.72138 0.085692 1
6.35307 -12.4686 -2.72013 0.0727196 1
7.79176 -15.2922 -2.71833 0.0596586 1
10.0405 -19.7055 -2.71551 0.0465249 1
14.065 -27.604 -2.71046 0.0333345 1
17.4323 -34.2129 -2.01236 0.0918262 10
17.9791 -35.2859 -0.691261 0.584763 10
17.9786 -35.285 0.691242 0.584778 10
15.873 -31.1526 1.83235 0.0714946 10
15.8807 -31.1677 3.06038 0.0712857 10
15.8885 -31.1829 4.29714 0.07099 10
15.8963 -31.1982 5.54577 0.0706078 10
15.9042 -31.2138 6.80954 0.0701396 10
15.9122 -31.2295 8.09187 0.0695859 10
15.9204 -31.2456 9.39637 0.0689474 10
4.64393 -9.03612 -2.72226 0.0985619 1
5.38797 -10.4839 -2.72132 0.0856939 1
6.39639 -12.446 -2.72006 0.0727215 1
7.84484 -15.2644 -2.71824 0.0596605 1
10.1088 -19.6695 -2.71539 0.0465269 1
14.1604 -27.5532 -2.7103 0.0333365 1
18.1623 -35.34 -2.08236 0.0887391 10
18.2197 -35.4517 -0.695751 0.584971 10
18.2192 -35.4508 0.695733 0.584986 10
16.606 -32.3117 3.17839 0.688054 10
18.2078 -35.4285 4.89093 0.0685976 10
16.5636 -32.2292 5.73928 0.0682271 10
16.6047 -32.3092 7.06112 0.678045 10
18.236 -35.4834 9.21051 0.0672373 10
16.6038 -32.3075 9.73309 0.667235 10
4.67536 -9.01968 -2.72221 0.0985638 1
5.42441 -10.4648 -2.72126 0.0856958 1
6.43962 -12.4233 -2.71998 0.0727235 1
7.89781 -15.2364 -2.71815 0.0596625 1
10.1769 -19.6333 -2.71528 0.0465288 1
14.2556 -27.5019 -2.71014 0.0333385 1
18.9448 -36.5482 -2.15744 0.0856509 10
18.9612 -36.5799 -0.719186 0.885919 10
18.9644 -36.586 0.719306 0.0856669 10
17.7393 -34.2225 3.37241 0.68829 10
18.994 -36.6431 5.06773 0.0662044 10
17.7383 -34.2208 6.10491 0.682448 10
17.7379 -34.2199 7.49217 0.678278 10
19.0245 -36.7019 9.544 0.0648879 10
17.7369 -34.218 10.3273 0.667464 10
4.70672 -9.00313 -2.72215 0.0985657 1
5.46078 -10.4455 -2.7212 0.0856977 1
6.48278 -12.4004 -2.71991 0.0727254 1
7.95069 -15.2083 -2.71806 0.0596644 1
10.245 -19.5968 -2.71516 0.0465308 1
14.3507 -27.4504 -2.70998 0.0333404 1
31.1805 -59.6428 -1.17475 0.886213 10
31.1797 -59.6413 1.17472 0.691008 10
18.019 -34.4672 2.0383 0.0642709 10
18.411 -35.217 3.47673 0.688519 10
19.1643 -36.6579 5.07899 0.686014 10
18.4101 -35.2152 6.29375 0.682674 10
19.1633 -36.656 8.04014 0.678503 10
19.1628 -36.655 9.54914 0.673504 10
18.4086 -35.2124 10.6467 0.667685 10
4.73803 -8.98647 -2.7221 0.0985676 1
5.49709 -10.4262 -2.72114 0.0856997 1
6.52585 -12.3774 -2.71984 0.0727273 1
8.00347 -15.1799 -2.71797 0.0596664 1
10.3129 -19.5601 -2.71505 0.0465327 1
14.4456 -27.3985 -2.70982 0.0333424 1
31.3785 -59.5146 -1.17438 0.886495 10
31.3777 -59.5131 1.17435 0.691229 10
19.2869 -36.581 2.16727 0.690404 10
19.2865 -36.58 3.61791 0.688738 10
19.286 -36.5791 5.07737 0.686233 10
19.2855 -36.5781 6.54933 0.682892 10
19.285 -36.5772 8.03758 0.678719 10
19.2845 -36.5762 9.54609 0.673719 10
19.2839 -36.5753 11.079 0.667899 10
4.76928 -8.96971 -2.72205 0.0985695 1
5.53333 -10.4067 -2.72108 0.0857016 1
6.56884 -12.3542 -2.71977 0.0727293 1
8.05615 -15.1514 -2.71788 0.0596683 1
10.3807 -19.5232 -2.71494 0.0465347 1
14.5403 -27.3463 -2.70967 0.0333444 1
33.5837 -63.1618 -1.24865 0.886768 10
31.5756 -59.385 1.17399 0.691441 10
31.6066 -59.4434 3.52829 0.440876 10
31.6058 -59.4419 5.88992 0.439812 10
31.5732 -59.3805 8.25758 0.686444 10
31.6042 -59.4388 10.6622 0.436079 10
31.6033 -59.4373 13.0851 0.433414 10
31.5707 -59.3759 15.5253 0.673926 10
31.6017 -59.4341 18.0365 0.426504 10
4.80047 -8.95283 -2.722 0.0985714 1
5.5695 -10.3871 -2.72102 0.0857035 1
6.61175 -12.3309 -2.7197 0.0727312 1
8.10872 -15.1227 -2.71779 0.0596703 1
10.4483 -19.486 -2.71482 0.0465366 1
14.6348 -27.2938 -2.70951 0.0333463 1
33.7941 -63.0257 -1.24828 0.887029 10
31.7733 -59.257 1.17364 0.691645 10
31.7709 -59.2525 8.25514 0.686646 10
31.7684 -59.2478 15.5207 0.674125 10
4.8316 -8.93585 -2.72194 0.0985733 1
5.60559 -10.3673 -2.72096 0.0857054 1
6.65458 -12.3074 -2.71962 0.0727331 1
8.1612 -15.0938 -2.71771 0.0596722 1
10.5158 -19.4486 -2.71471 0.0465386 1
14.7291 -27.2409 -2.70935 0.0333483 1
36.094 -66.7545 -1.32463 0.887279 10
31.9709 -59.129 1.17331 0.69184 10
31.9685 -59.1245 8.25281 0.68684 10
31.966 -59.1199 15.5163 0.674315 10
4.86266 -8.91876 -2.72189 0.0985752 1
5.64162 -10.3475 -2.7209 0.0857073 1
6.69732 -12.2838 -2.71955 0.072735 1
8.21357 -15.0648 -2.71762 0.0596741 1
10.5832 -19.411 -2.7146 0.0465405 1
14.8233 -27.1878 -2.70919 0.0333502 1
31.9956 -58.6841 1.16669 0.692027 10
31.9948 -58.6827 3.50283 0.691201 10
31.994 -58.6812 5.84742 0.689534 10
31.9932 -58.6797 8.20626 0.687026 10
31.9924 -58.6782 10.5853 0.683681 10
31.9915 -58.6766 12.9907 0.679503 10
31.9907 -58.6751 15.4288 0.674497 10
31.9898 -58.6735 17.9064 0.66867 10
4.89367 -8.90156 -2.72184 0.0985771 1
5.67758 -10.3275 -2.72084 0.0857092 1
6.73998 -12.26 -2.71948 0.0727369 1
8.26584 -15.0355 -2.71753 0.0596761 1
10.6505 -19.3731 -2.71448 0.0465425 1
14.9172 -27.1343 -2.70903 0.0333522 1
32.192 -58.557 1.16639 0.649223 10
32.1895 -58.5526 8.20415 0.687203 10
32.1879 -58.5495 12.9873 0.637474 10
32.187 -58.548 15.4248 0.674671 10
4.92462 -8.88425 -2.72179 0.0985789 1
5.71347 -10.3074 -2.72078 0.0857111 1
6.78255 -12.2361 -2.71941 0.0727389 1
8.318 -15.0061 -2.71744 0.059678 1
10.7176 -19.335 -2.71437 0.0465444 1
15.0109 -27.0805 -2.70887 0.0333541 1
32.3882 -58.4299 1.1661 0.649383 10
32.3858 -58.4255 8.20213 0.687372 10
33.4673 -60.3766 10.9336 0.827019 10
32.3841 -58.4225 12.9841 0.63763 10
32.3832 -58.4209 15.421 0.674837 10
33.4318 -60.3126 18.4774 0.669006 10
4.95551 -8.86684 -2.72173 0.0985808 1
5.74929 -10.2871 -2.72072 0.085713 1
6.82504 -12.212 -2.71934 0.0727408 1
8.37006 -14.9765 -2.71735 0.0596799 1
10.7846 -19.2967 -2.71426 0.0465463 1
15.1045 -27.0263 -2.70872 0.033356 1
32.5844 -58.3029 1.16583 0.649534 10
32.5819 -58.2985 8.20022 0.687532 10
33.67 -60.2453 10.931 0.827212 10
32.5802 -58.2955 12.9811 0.637779 10
32.5794 -58.2939 15.4174 0.674994 10
33.6343 -60.1815 18.4731 0.669162 10
4.98633 -8.84932 -2.72168 0.0985827 1
5.78503 -10.2668 -2.72066 0.0857149 1
6.86745 -12.1878 -2.71927 0.0727427 1
8.42202 -14.9467 -2.71727 0.0596818 1
10.8514 -19.2581 -2.71414 0.0465483 1
15.1979 -26.9719 -2.70856 0.033358 1
32.7804 -58.1759 1.16557 0.649678 10
32.778 -58.1715 8.19841 0.687684 10
33.8726 -60.1141 10.9286 0.827395 10
32.7763 -58.1685 12.9782 0.63792 10
32.7754 -58.167 15.414 0.675143 10
33.8367 -60.0505 18.469 0.66931 10
5.0171 -8.83169 -2.72163 0.0985846 1
5.82071 -10.2463 -2.7206 0.0857168 1
6.90977 -12.1634 -2.71919 0.0727446 1
8.47387 -14.9167 -2.71718 0.0596838 1
10.9181 -19.2193 -2.71403 0.0465502 1
15.291 -26.9171 -2.7084 0.0333599 1
32.9764 -58.049 1.16533 0.649814 10
34.0777 -59.9876 3.61568 0.836671 10
34.0768 -59.9861 6.0358 0.834652 10
32.9739 -58.0446 8.19669 0.687828 10
34.0751 -59.983 10.9263 0.827567 10
32.9722 -58.0416 12.9755 0.638053 10
32.9714 -58.0401 15.4108 0.675284 10
34.039 -59.9195 18.4652 0.66945 10
5.0478 -8.81396 -2.72158 0.0985864 1
5.85631 -10.2257 -2.72054 0.0857187 1
6.95201 -12.1389 -2.71912 0.0727465 1
8.52561 -14.8866 -2.71709 0.0596857 1
10.9847 -19.1803 -2.71392 0.0465521 1
15.384 -26.862 -2.70824 0.0333619 1
33.1723 -57.9222 1.1651 0.649941 10
34.2465 -59.7978 3.61143 0.692144 10
34.2457 -59.7963 6.0287 0.690474 10
33.1698 -57.9178 8.19508 0.687963 10
34.2439 -59.7932 10.9135 0.684613 10
33.1672 -57.9133 15.4078 0.675417 10
34.2412 -59.7885 18.4615 0.669582 10
5.07844 -8.79612 -2.72153 0.0985883 1
5.89184 -10.205 -2.72048 0.0857206 1
6.99415 -12.1142 -2.71905 0.0727484 1
8.57725 -14.8562 -2.71701 0.0596876 1
11.0511 -19.1411 -2.71381 0.046554 1
15.4768 -26.8066 -2.70809 0.0333638 1
33.5492 -58.109 -1.17121 0.587137 10
33.3682 -57.7954 1.16489 0.650061 10
34.4487 -59.6669 3.61076 0.692272 10
34.4478 -59.6654 6.02759 0.690602 10
33.3656 -57.791 8.19357 0.68809 10
34.4461 -59.6623 10.9114 0.68474 10
33.363 -57.7865 15.4049 0.675542 10
34.4433 -59.6576 18.4581 0.669705 10
5.10902 -8.77817 -2.72148 0.0985902 1
5.92729 -10.1841 -2.72042 0.0857225 1
7.03621 -12.0894 -2.71898 0.0727503 1
8.62878 -14.8257 -2.71692 0.0596895 1
11.1174 -19.1016 -2.7137 0.046556 1
15.5694 -26.7509 -2.70793 0.0333657 1
33.7461 -57.9816 -1.17101 0.587238 10
33.5639 -57.6686 1.16469 0.650173 10
34.6508 -59.536 3.61014 0.692391 10
34.6499 -59.5345 6.02655 0.690721 10
33.5614 -57.6642 8.19216 0.688208 10
34.6482 -59.5315 10.9096 0.684858 10
33.571 -57.6807 12.9727 0.492289 10
33.5588 -57.6597 15.4023 0.675658 10
34.6454 -59.5268 18.455 0.66982 10
5.13953 -8.76012 -2.72142 0.0985921 1
5.96267 -10.1631 -2.72036 0.0857243 1
7.07818 -12.0645 -2.71891 0.0727522 1
8.6802 -14.795 -2.71683 0.0596914 1
11.1835 -19.0619 -2.71358 0.0465579 1
15.6617 -26.6948 -2.70778 0.0333676 1
33.7596 -57.5419 1.1645 0.650277 10
33.757 -57.5375 8.19085 0.688318 10
34.8844 -59.459 10.9185 0.43727 10
33.7667 -57.554 12.9706 0.492367 10
33.7544 -57.5331 15.3998 0.675766 10
34.8474 -59.396 18.452 0.669928 10
5.16998 -8.74196 -2.72137 0.0985939 1
5.99798 -10.142 -2.7203 0.0857262 1
7.12007 -12.0394 -2.71884 0.0727541 1
8.73151 -14.7642 -2.71675 0.0596933 1
11.2495 -19.0219 -2.71347 0.0465598 1
15.7539 -26.6384 -2.70762 0.0333696 1
33.9552 -57.4152 1.16433 0.650373 10
33.9527 -57.4109 8.18964 0.68842 10
35.0865 -59.3281 10.9169 0.437334 10
33.9624 -57.4273 12.9687 0.49244 10
33.95 -57.4064 15.3975 0.675866 10
35.0493 -59.2652 18.4493 0.670027 10
5.20036 -8.72369 -2.72132 0.0985958 1
6.03322 -10.1208 -2.72024 0.0857281 1
7.16186 -12.0141 -2.71877 0.072756 1
8.78271 -14.7331 -2.71666 0.0596952 1
11.3154 -18.9818 -2.71336 0.0465617 1
15.8459 -26.5818 -2.70746 0.0333715 1
34.1508 -57.2886 1.16417 0.650461 10
34.1482 -57.2842 8.18853 0.688514 10
35.2886 -59.1972 10.9154 0.437394 10
34.158 -57.3006 12.967 0.492507 10
34.1456 -57.2798 15.3954 0.675958 10
35.2512 -59.1345 18.4468 0.670117 10
5.23069 -8.70532 -2.72127 0.0985976 1
6.06838 -10.0995 -2.72018 0.08573 1
7.20357 -11.9888 -2.7187 0.0727579 1
8.83381 -14.7019 -2.71657 0.0596971 1
11.3811 -18.9414 -2.71325 0.0465636 1
15.9377 -26.5248 -2.70731 0.0333734 1
34.3464 -57.162 1.16403 0.650542 10
34.3438 -57.1576 8.18752 0.688598 10
35.4907 -59.0664 10.9141 0.437448 10
34.3536 -57.174 12.9654 0.492568 10
34.3411 -57.1532 15.3935 0.676041 10
35.4531 -59.0038 18.4445 0.6702 10
5.26094 -8.68685 -2.72122 0.0985995 1
6.10346 -10.078 -2.72012 0.0857318 1
7.24519 -11.9632 -2.71863 0.0727597 1
8.88479 -14.6705 -2.71649 0.059699 1
11.4467 -18.9008 -2.71314 0.0465655 1
16.0293 -26.4675 -2.70715 0.0333753 1
34.5418 -57.0354 1.1639 0.650614 10
34.5392 -57.031 8.18661 0.688675 10
35.6927 -58.9356 10.9129 0.437496 10
34.5491 -57.0474 12.9639 0.492622 10
34.5365 -57.0266 15.3918 0.676116 10
35.6548 -58.8731 18.4424 0.670275 10
5.29113 -8.66827 -2.72117 0.0986013 1
6.13847 -10.0564 -2.72006 0.0857337 1
7.28672 -11.9376 -2.71856 0.0727616 1
8.93567 -14.639 -2.7164 0.0597009 1
11.5121 -18.8599 -2.71303 0.0465674 1
16.1206 -26.4098 -2.707 0.0333772 1
34.7373 -56.9088 1.16378 0.650679 10
34.7347 -56.9045 8.1858 0.688743 10
35.8946 -58.8048 10.9118 0.43754 10
34.7446 -56.9208 12.9626 0.492671 10
34.7319 -56.9001 15.3903 0.676183 10
35.8566 -58.7425 18.4406 0.670341 10
5.32126 -8.64958 -2.72112 0.0986032 1
6.1734 -10.0347 -2.72 0.0857356 1
7.32815 -11.9117 -2.71849 0.0727635 1
8.98643 -14.6072 -2.71631 0.0597028 1
11.5774 -18.8189 -2.71292 0.0465693 1
16.2118 -26.3519 -2.70684 0.0333791 1
35.1223 -57.0904 -1.17 0.889815 10
34.9327 -56.7823 1.16368 0.693817 10
34.9318 -56.7809 3.49379 0.69299 10
34.9309 -56.7794 5.83233 0.691317 10
34.93 -56.778 8.18509 0.688803 10
34.9291 -56.7765 10.558 0.685449 10
34.9282 -56.7751 12.9571 0.681261 10
34.9273 -56.7736 15.389 0.676242 10
34.9264 -56.772 17.8602 0.670399 10
5.35132 -8.6308 -2.72107 0.098605 1
6.20826 -10.0129 -2.71994 0.0857374 1
7.3695 -11.8858 -2.71842 0.0727654 1
9.03708 -14.5753 -2.71623 0.0597047 1
11.6426 -18.7776 -2.71281 0.0465712 1
16.3027 -26.2936 -2.70669 0.033381 1
35.3187 -56.9632 -1.16991 0.889882 10
35.3178 -56.9618 1.16988 0.693869 10
35.3169 -56.9604 3.5124 0.693041 10
35.316 -56.9589 5.8634 0.691369 10
35.3151 -56.9575 8.22868 0.688854 10
35.3142 -56.956 10.6142 0.685501 10
35.3133 -56.9545 13.0262 0.681311 10
35.3124 -56.953 15.4709 0.676292 10
35.3114 -56.9515 17.9553 0.670449 10
5.38132 -8.6119 -2.72102 0.0986069 1
6.24304 -9.99094 -2.71988 0.0857393 1
7.41075 -11.8597 -2.71835 0.0727672 1
9.08761 -14.5432 -2.71614 0.0597065 1
11.7076 -18.7361 -2.7127 0.0465731 1
16.3935 -26.2351 -2.70654 0.0333829 1
37.7729 -60.4492 -1.2442 0.889937 10
35.5142 -56.8346 1.16981 0.693913 10
35.5133 -56.8332 3.51218 0.693085 10
35.5124 -56.8317 5.86303 0.691412 10
35.5115 -56.8303 8.22817 0.688897 10
35.5106 -56.8288 10.6136 0.685543 10
35.5097 -56.8274 13.0253 0.681354 10
35.5088 -56.8259 15.47 0.676335 10
35.5078 -56.8244 17.9542 0.670491 10
5.41124 -8.59291 -2.72097 0.0986087 1
6.27774 -9.96888 -2.71982 0.0857411 1
7.45191 -11.8334 -2.71828 0.0727691 1
9.13803 -14.511 -2.71606 0.0597084 1
11.7724 -18.6943 -2.71259 0.046575 1
16.484 -26.1762 -2.70638 0.0333848 1
35.7106 -56.7075 1.16975 0.693947 10
35.7097 -56.706 3.51201 0.693119 10
35.7088 -56.7046 5.86274 0.691447 10
35.7079 -56.7032 8.22776 0.688932 10
35.707 -56.7017 10.613 0.685578 10
35.706 -56.7002 13.0247 0.681388 10
35.7051 -56.6987 15.4692 0.676369 10
35.7041 -56.6972 17.9533 0.670525 10
5.4411 -8.57381 -2.72091 0.0986105 1
6.31236 -9.94669 -2.71977 0.085743 1
7.49298 -11.8071 -2.71821 0.072771 1
9.18834 -14.4785 -2.71597 0.0597103 1
11.8371 -18.6524 -2.71248 0.0465769 1
16.5744 -26.117 -2.70623 0.0333867 1
35.9069 -56.5803 1.1697 0.693974 10
35.906 -56.5789 3.51187 0.693146 10
35.9051 -56.5775 5.86251 0.691473 10
35.9042 -56.576 8.22744 0.688958 10
35.9033 -56.5746 10.6126 0.685604 10
35.9024 -56.5731 13.0242 0.681414 10
35.9014 -56.5716 15.4686 0.676394 10
35.9005 -56.5701 17.9526 0.67055 10
5.4709 -8.5546 -2.72086 0.0986124 1
6.3469 -9.92438 -2.71971 0.0857448 1
7.53396 -11.7805 -2.71814 0.0727728 1
9.23853 -14.4459 -2.71589 0.0597122 1
11.9017 -18.6102 -2.71237 0.0465788 1
16.6645 -26.0576 -2.70608 0.0333886 1
36.1033 -56.4532 1.16967 0.693992 10
36.1024 -56.4517 3.51178 0.693164 10
36.1015 -56.4503 5.86236 0.691491 10
36.1006 -56.4489 8.22723 0.688976 10
36.0996 -56.4474 10.6123 0.685622 10
36.0987 -56.446 13.0239 0.681432 10
36.0977 -56.4445 15.4682 0.676412 10
36.0968 -56.443 17.9522 0.670568 10
5.50062 -8.53529 -2.72081 0.0986142 1
6.38137 -9.90195 -2.71965 0.0857467 1
7.57484 -11.7539 -2.71807 0.0727747 1
9.28861 -14.4131 -2.7158 0.059714 1
11.9661 -18.5678 -2.71226 0.0465806 1
16.7544 -25.9978 -2.70592 0.0333905 1
36.1046 -56.0234 1.16337 0.694001 10
36.1037 -56.022 3.49287 0.693173 10
36.1028 -56.0206 5.83079 0.691501 10
36.2969 -56.3218 8.22712 0.688986 10
36.101 -56.0177 10.5552 0.685631 10
36.1 -56.0163 12.9537 0.681441 10
36.2941 -56.3174 15.468 0.676421 10
36.0981 -56.0133 17.8555 0.670577 10
5.53028 -8.51588 -2.72076 0.098616 1
6.41576 -9.8794 -2.71959 0.0857485 1
7.61563 -11.727 -2.718 0.0727765 1
9.33858 -14.3801 -2.71572 0.0597159 1
12.0304 -18.5251 -2.71215 0.0465825 1
16.8441 -25.9377 -2.70577 0.0333924 1
36.2999 -55.897 1.16337 0.694002 10
36.4932 -56.1946 8.22711 0.688986 10
36.4904 -56.1903 15.468 0.676422 10
5.55987 -8.49637 -2.72071 0.0986178 1
6.45007 -9.85674 -2.71953 0.0857504 1
