VERSION 0.7
FIELDS x y z intensity label
SIZE 4 4 4 4 4
TYPE F F F F F
COUNT 1 1 1 1 1
WIDTH 1247
HEIGHT 1
VIEWPOINT 12.5531 43.8504 2.72885 0.878156 0.000022 0.000796534 0.478374
POINTS 1247
DATA ascii
-11.4559 8.82223 1.26502 0.651475 10
-11.4565 8.8227 1.77547 0.649054 10
-11.4571 8.82318 2.29036 0.645843 10
-11.4578 8.82366 2.81104 0.641845 10
-11.4584 8.82414 3.3389 0.637065 10
-11.459 8.82463 3.8754 0.631508 10
-7.97918 6.10054 -2.69131 0.0519986 4
-9.18618 7.02337 -2.66964 0.0175213 4
-10.4612 7.99816 -2.55968 0.02532 4
-11.4967 8.78989 -2.29213 0.827672 10
-11.4973 8.79036 -1.77702 0.831699 10
-11.6075 8.87461 -1.27833 0.198058 10
-11.6084 8.87527 -0.765808 0.198527 10
-11.6092 8.87594 -0.255081 0.198754 10
-11.6101 8.8766 0.2551 0.198739 10
-11.611 8.87726 0.76598 0.198482 10
-11.501 8.79315 1.2666 0.650663 10
-11.5016 8.79362 1.77768 0.648245 10
-11.5022 8.79409 2.29322 0.645038 10
-11.5028 8.79457 2.81455 0.641045 10
-11.5035 8.79506 3.34307 0.636271 10
-11.5041 8.79555 3.88023 0.630721 10
-7.98073 6.05771 -2.68468 0.0567147 4
-9.21067 6.99128 -2.66964 0.0742077 4
-10.489 7.96163 -2.55968 0.0200813 4
-11.5418 8.76074 -2.29502 0.82663 10
-11.5425 8.76121 -1.77926 0.830651 10
-11.5431 8.76168 -1.26786 0.550654 10
-11.5437 8.76215 -0.759519 0.55197 10
-11.5443 8.76261 -0.252981 0.552615 10
-11.5449 8.76307 0.252994 0.552585 10
-11.5455 8.76353 0.759639 0.551883 10
-11.5461 8.764 1.2682 0.649843 10
-11.5467 8.76447 1.77992 0.647429 10
-11.5474 8.76494 2.29612 0.644225 10
-11.548 8.76541 2.8181 0.640237 10
-11.5486 8.7659 3.34729 0.635469 10
-11.5493 8.76639 3.88513 0.629926 10
-7.98199 6.01486 -2.67803 0.0591925 4
-9.23505 6.95911 -2.66965 0.0685389 4
-10.5168 7.92499 -2.55969 0.053259 4
-11.5871 8.73152 -2.29794 0.825577 10
-11.5877 8.73199 -1.78153 0.829593 10
-11.5884 8.73245 -1.26948 0.549953 10
-11.589 8.73292 -0.760488 0.551267 10
-11.5896 8.73338 -0.253303 0.551911 10
-11.5902 8.73384 0.253316 0.551881 10
-11.5908 8.7343 0.760608 0.55118 10
-11.5914 8.73477 1.26981 0.649015 10
-11.592 8.73523 1.78219 0.646604 10
-11.5927 8.7357 2.29904 0.643404 10
-11.5933 8.73618 2.8217 0.639421 10
-11.5939 8.73666 3.35156 0.634659 10
-11.5946 8.73715 3.89009 0.629123 10
-7.98296 5.97202 -2.67134 0.0462409 4
-9.25931 6.92685 -2.66966 0.0474102 4
-10.5444 7.88826 -2.5597 0.0523857 4
-11.6325 8.70222 -2.3009 0.824515 10
-11.6331 8.70269 -1.78383 0.828525 10
-23.316 17.4426 -2.54753 0.831526 10
-27.8607 20.8424 -1.82348 0.833514 10
-30.6371 22.9195 0.667856 0.309636 10
-15.5895 11.6625 1.02033 0.0484173 10
-11.6368 8.70546 1.27145 0.64818 10
-11.6374 8.70593 1.78449 0.645771 10
-11.6381 8.7064 2.30201 0.642576 10
-11.6387 8.70687 2.82534 0.638598 10
-11.6394 8.70736 3.35588 0.633841 10
-11.64 8.70784 3.8951 0.628313 10
-7.9911 5.93471 -2.66712 0.0516327 4
-9.28346 6.89451 -2.66967 0.0860596 4
-10.572 7.85143 -2.55971 0.0650454 4
-11.678 8.67285 -2.3039 0.823442 10
-11.6786 8.67331 -1.78615 0.827447 10
-19.727 14.6505 -2.14978 0.311472 10
-19.7284 14.6516 -1.28787 0.312211 10
-19.7298 14.6526 -0.42897 0.312569 10
-19.7312 14.6537 0.429001 0.312547 10
-15.63 11.6078 1.02032 0.0484179 10
-11.6824 8.67608 1.27311 0.647336 10
-11.683 8.67655 1.78682 0.644931 10
-11.6836 8.67701 2.30501 0.641739 10
-11.6842 8.67749 2.82902 0.637766 10
-11.6849 8.67797 3.36025 0.633016 10
-11.6856 8.67846 3.90018 0.627495 10
-8.01178 5.9068 -2.66712 0.0249261 4
-9.30749 6.86208 -2.66967 0.0675076 4
-10.5993 7.8145 -2.55972 0.0646086 4
-11.7236 8.6434 -2.30694 0.822359 10
-11.7242 8.64386 -1.78851 0.826359 10
-11.8305 8.72217 -1.28592 0.207648 10
-11.8313 8.7228 -0.770354 0.208141 10
-11.8322 8.72342 -0.256594 0.20838 10
-11.833 8.72404 0.256612 0.208365 10
-11.8338 8.72466 0.770518 0.208097 10
-11.728 8.64663 1.27478 0.646484 10
-11.7286 8.64709 1.78917 0.644082 10
-11.7293 8.64756 2.30805 0.640895 10
-11.7299 8.64803 2.83275 0.636927 10
-11.7305 8.64851 3.36468 0.632183 10
-11.7312 8.649 3.90532 0.626669 10
-8.03237 5.87881 -2.66713 0.024926 4
-9.33141 6.82956 -2.66968 0.0577163 4
-10.6266 7.77748 -2.55973 0.0567507 4
-11.7694 8.61386 -2.31001 0.821266 10
-11.77 8.61433 -1.79089 0.825261 10
-11.7706 8.61479 -1.27614 0.54708 10
-11.7713 8.61525 -0.76448 0.548388 10
-11.7719 8.61571 -0.254633 0.549028 10
-11.7725 8.61617 0.254647 0.548999 10
-11.7731 8.61663 0.764602 0.548301 10
-11.7738 8.61709 1.27648 0.645625 10
-11.7744 8.61755 1.79155 0.643226 10
-11.775 8.61802 2.31112 0.640043 10
-11.7757 8.61849 2.83652 0.63608 10
-11.7763 8.61897 3.36916 0.631343 10
-11.777 8.61945 3.91052 0.625836 10
-8.05286 5.85075 -2.66714 0.0189912 4
-9.35522 6.79697 -2.66969 0.084513 4
-10.6537 7.74036 -2.55973 0.0615524 4
-11.8152 8.58426 -2.31311 0.820163 10
-11.8159 8.58472 -1.79329 0.824153 10
-11.8165 8.58519 -1.27786 0.546346 10
-11.8171 8.58564 -0.765508 0.547652 10
-11.8178 8.5861 -0.254976 0.548291 10
-11.8184 8.58656 0.254989 0.548262 10
-11.819 8.58701 0.76563 0.547564 10
-11.8149 8.58405 1.27769 0.249537 10
-11.8158 8.58466 1.79328 0.248606 10
-11.8166 8.58527 2.31338 0.247372 10
-11.8175 8.58589 2.83935 0.245836 10
-11.8183 8.58651 3.37258 0.244001 10
-11.8229 8.58984 3.91578 0.624995 10
-8.07325 5.82261 -2.66714 0.11098 4
-9.37891 6.76428 -2.66969 0.0350419 4
-10.6807 7.70315 -2.55974 0.0654811 4
-11.8612 8.55457 -2.31625 0.819051 10
-11.8618 8.55503 -1.79573 0.823034 10
-19.9083 14.3583 -2.14749 0.826015 10
-19.9094 14.3591 -1.28647 0.82799 10
-19.9104 14.3599 -0.428497 0.828956 10
-19.9115 14.3606 0.428519 0.828912 10
-15.7898 11.388 1.02028 0.04842 10
-11.739 8.46643 1.26627 0.251787 10
-11.7398 8.46702 1.77726 0.250847 10
-11.7406 8.46762 2.29271 0.249602 10
-11.7415 8.46822 2.81397 0.248053 10
-11.7423 8.46884 3.34244 0.246201 10
-11.8689 8.56013 3.92111 0.624147 10
-8.09354 5.79441 -2.66715 0.107419 4
-9.00354 6.4459 -2.55642 0.0783287 4
-10.7075 7.66584 -2.55975 0.0632983 4
-11.9073 8.5248 -2.31943 0.817928 10
-11.908 8.52526 -1.79819 0.821906 10
-19.9857 14.3084 -2.15044 0.824883 10
-19.9868 14.3091 -1.28823 0.826855 10
-19.9879 14.3099 -0.429085 0.827819 10
-19.9889 14.3107 0.429107 0.827775 10
-15.8293 11.3327 1.02027 0.0484205 10
-11.6644 8.3509 1.25508 0.254033 10
-11.6652 8.35148 1.76154 0.253085 10
-11.666 8.35207 2.27244 0.251829 10
-11.6669 8.35266 2.78909 0.250266 10
-11.6677 8.35326 3.31288 0.248398 10
-11.6686 8.35387 3.84526 0.246227 10
-8.11374 5.76614 -2.66715 0.121662 4
-9.026 6.41445 -2.55643 0.0525626 4
-10.7343 7.62844 -2.55976 0.0532577 4
-11.9535 8.49495 -2.32265 0.816795 10
-11.9542 8.49541 -1.80069 0.820768 10
-12.0489 8.5627 -1.29322 0.217176 10
-12.0497 8.56329 -0.774723 0.217692 10
-12.0505 8.56387 -0.258049 0.217943 10
-12.0513 8.56445 0.258066 0.217928 10
-12.0522 8.56504 0.774882 0.217647 10
-11.642 8.27358 1.24955 0.642109 10
-11.6427 8.27402 1.75376 0.639723 10
-11.6433 8.27447 2.26237 0.636557 10
-11.6439 8.27493 2.77669 0.632616 10
-11.6446 8.27539 3.29809 0.627904 10
-11.6453 8.27586 3.82804 0.622427 10
-8.13383 5.73779 -2.66716 0.124629 4
-9.04836 6.38291 -2.55643 0.0705986 4
-10.7608 7.59094 -2.55976 0.0632979 4
-11.9999 8.46501 -2.3259 0.815652 10
-12.0006 8.46547 -1.80321 0.819619 10
-12.0012 8.46593 -1.28493 0.54334 10
-12.0019 8.46639 -0.769743 0.544639 10
-12.0025 8.46684 -0.256386 0.545274 10
-12.0032 8.46729 0.2564 0.545245 10
-12.0038 8.46775 0.769866 0.544552 10
-11.6872 8.24442 1.25131 0.64121 10
-11.6878 8.24487 1.75622 0.638827 10
-11.6885 8.24532 2.26554 0.635666 10
-11.6891 8.24577 2.78058 0.63173 10
-11.6898 8.24623 3.30272 0.627025 10
-11.6904 8.2467 3.8334 0.621555 10
-8.15382 5.70937 -2.66716 0.119881 4
-9.0706 6.3513 -2.55644 0.0675065 4
-10.7873 7.55335 -2.55977 0.0554401 4
-12.0464 8.435 -2.3292 0.8145 10
-12.0471 8.43546 -1.80576 0.818461 10
-12.0477 8.43591 -1.28674 0.542573 10
-12.0484 8.43637 -0.770832 0.543869 10
-12.049 8.43682 -0.256749 0.544504 10
-12.0497 8.43727 0.256763 0.544475 10
-12.0503 8.43772 0.770956 0.543782 10
-12.1106 8.47997 1.29346 0.408757 10
-11.7358 8.21747 3.83883 0.620677 10
-8.17372 5.68088 -2.66717 0.10089 4
-9.09273 6.31961 -2.55645 0.0566848 4
-10.8136 7.51567 -2.55977 0.0571861 4
-12.093 8.40489 -2.33252 0.813337 10
-12.0937 8.40535 -1.80834 0.817293 10
-24.2392 16.8467 -2.58255 0.820253 10
-24.2405 16.8476 -1.54709 0.543093 10
-24.2418 16.8485 -0.515306 0.543726 10
-24.2431 16.8494 0.515333 0.543697 10
-15.9854 11.1102 1.02023 0.0484222 10
-12.1575 8.4497 1.29531 0.408174 10
-11.7812 8.18814 3.84432 0.61979 10
-8.19351 5.65233 -2.66717 0.11632 4
-9.11475 6.28785 -2.55645 0.0628684 4
-10.8398 7.47789 -2.55978 0.0615513 4
-12.1398 8.3747 -2.33589 0.812165 10
-12.1405 8.37516 -1.81096 0.816115 10
-24.333 16.7862 -2.58628 0.81907 10
-29.0758 20.0581 -1.85121 0.821028 10
-29.0773 20.0591 -0.616602 0.821985 10
-29.0789 20.0602 0.616634 0.821941 10
-16.024 11.0542 1.02022 0.0484226 10
-12.2045 8.41936 1.29718 0.407585 10
-12.1478 8.38019 3.95437 0.618896 10
-8.2132 5.6237 -2.66717 0.112165 4
-9.13667 6.256 -2.55645 0.0680215 4
-10.8659 7.44002 -2.55979 0.0689723 4
-12.1867 8.34442 -2.3393 0.810982 10
-12.1874 8.34488 -1.8136 0.814927 10
-12.2631 8.39672 -1.30028 0.226638 10
-12.2639 8.39727 -0.778952 0.227177 10
-12.2647 8.39782 -0.259457 0.227439 10
-12.2655 8.39837 0.259473 0.227424 10
-12.2663 8.39891 0.779105 0.227132 10
-12.1947 8.3499 3.96014 0.617994 10
-8.23279 5.595 -2.66718 0.096735 4
-9.15846 6.22409 -2.55646 0.0731745 4
-10.8918 7.40207 -2.55979 0.0484551 4
-12.2338 8.31405 -2.34274 0.80979 10
-12.2344 8.31451 -1.81627 0.813728 10
-12.2351 8.31496 -1.29423 0.539435 10
-12.2358 8.31541 -0.775316 0.540724 10
-12.2364 8.31586 -0.258243 0.541355 10
-12.2371 8.31631 0.258256 0.541325 10
-12.2377 8.31675 0.775441 0.540637 10
-12.2418 8.31952 3.96598 0.617085 10
-8.25229 5.56624 -2.66718 0.12166 4
-9.18015 6.19209 -2.55646 0.0798734 4
-10.9176 7.36402 -2.5598 0.0532569 4
-12.2809 8.2836 -2.34622 0.808588 10
-12.2816 8.28405 -1.81897 0.812521 10
-12.2823 8.2845 -1.29615 0.538634 10
-12.2829 8.28495 -0.776469 0.539921 10
-12.2836 8.2854 -0.258627 0.540551 10
-12.2843 8.28584 0.25864 0.540522 10
-12.2849 8.28629 0.776594 0.539834 10
-12.289 8.28905 3.97187 0.616169 10
-8.27168 5.53741 -2.66719 0.113945 4
-9.20172 6.16002 -2.55647 0.0412249 4
-10.9433 7.32588 -2.5598 0.0523837 4
-12.3282 8.25304 -2.34975 0.807376 10
-12.3289 8.2535 -1.8217 0.811302 10
-24.6578 16.5069 -2.59605 0.0761754 10
-29.5271 19.7667 -1.86219 0.816187 10
-29.5287 19.7678 -0.62026 0.817138 10
-29.5303 19.7688 0.620293 0.817094 10
-16.1763 10.8291 1.02019 0.048424 10
-12.3364 8.25849 3.97784 0.615245 10
-8.29097 5.50851 -2.66719 0.117506 4
-10.9688 7.28765 -2.55981 0.057622 4
-12.3757 8.2224 -2.35331 0.806155 10
-12.3764 8.22286 -1.82446 0.810075 10
-24.7153 16.4208 -2.59606 0.0761751 10
-24.9224 16.5584 -1.56813 0.234715 10
-24.924 16.5595 -0.522319 0.234986 10
-24.9256 16.5605 0.522351 0.234971 10
-16.2139 10.7725 1.02019 0.0484243 10
-12.3839 8.22784 3.98387 0.614313 10
-8.31016 5.47954 -2.66719 0.111571 4
-9.25688 6.10379 -2.55989 0.0378266 4
-10.9942 7.24932 -2.55981 0.0384146 4
-12.4233 8.19167 -2.35691 0.804923 10
-12.424 8.19212 -1.82725 0.808837 10
-12.4734 8.22471 -1.30716 0.23603 10
-12.4742 8.22523 -0.783072 0.236592 10
-12.475 8.22575 -0.260828 0.236866 10
-12.4758 8.22626 0.260844 0.236851 10
-12.4766 8.22678 0.783219 0.236548 10
-12.4315 8.19709 3.98997 0.613374 10
-8.32924 5.45051 -2.6672 0.109791 4
-9.29136 6.0801 -2.56354 0.103944 4
-11.0194 7.21092 -2.55981 0.0523834 4
-12.4711 8.16084 -2.36055 0.803682 10
-12.4718 8.16129 -1.83007 0.80759 10
-12.4724 8.16174 -1.30407 0.535365 10
-12.4731 8.16218 -0.78121 0.536644 10
-12.4738 8.16263 -0.260206 0.53727 10
-12.4745 8.16307 0.26022 0.537241 10
-12.4752 8.16352 0.781337 0.536557 10
-12.4793 8.16625 3.99614 0.612427 10
-8.34823 5.4214 -2.6672 0.112758 4
-9.32592 6.05633 -2.56723 0.150212 4
-11.0445 7.17242 -2.55982 0.0598043 4
-12.519 8.12991 -2.36423 0.80243 10
-12.5197 8.13036 -1.83293 0.806332 10
-24.8862 16.1613 -2.59609 0.0761743 10
-29.984 19.4718 -1.87367 0.811186 10
-29.9856 19.4729 -0.624084 0.812131 10
-29.9872 19.4739 0.624117 0.812087 10
-16.3255 10.6019 1.02017 0.0484251 10
-12.5273 8.13531 4.00238 0.611473 10
-8.36711 5.39223 -2.6672 0.10623 4
-9.36058 6.03248 -2.57096 0.14911 4
-11.0695 7.13383 -2.55982 0.0414701 4
-12.567 8.09889 -2.36795 0.801169 10
-12.5677 8.09934 -1.83581 0.805065 10
-24.9425 16.0744 -2.59609 0.0761741 10
-30.099 19.3975 -1.87662 0.809911 10
-30.1007 19.3986 -0.625066 0.810855 10
-30.1023 19.3996 0.625099 0.810811 10
-16.3624 10.5448 1.02016 0.0484253 10
-12.5754 8.10428 4.00868 0.610512 10
-8.38589 5.363 -2.6672 0.0148365 4
-9.39533 6.00856 -2.57472 0.152178 4
-11.0944 7.09515 -2.55982 0.0519467 4
-12.6152 8.06777 -2.37171 0.799899 10
-12.6159 8.06822 -1.83873 0.803788 10
-12.7485 8.153 -1.32393 0.243493 10
-12.7493 8.15349 -0.793114 0.244073 10
-12.75 8.15399 -0.264172 0.244356 10
-12.7508 8.15448 0.264188 0.244341 10
-12.7516 8.15498 0.793258 0.244028 10
-12.6903 8.11578 1.31789 0.183433 10
-12.6911 8.11628 1.84968 0.18275 10
-12.6919 8.11678 2.38612 0.181845 10
-12.6927 8.11729 2.92859 0.180717 10
-12.6935 8.11781 3.47855 0.17937 10
-12.6236 8.07314 4.01505 0.609543 10
-8.40456 5.3337 -2.66721 0.0213646 4
-9.43017 5.98457 -2.57853 0.154215 4
-11.1191 7.05639 -2.55983 0.0545658 4
-12.6636 8.03655 -2.37551 0.798618 10
-12.6643 8.037 -1.84168 0.802501 10
-12.6801 8.04704 -1.3139 0.245351 10
-12.6809 8.04753 -0.787107 0.245936 10
-12.6816 8.04801 -0.262172 0.246221 10
-12.6824 8.0485 0.262187 0.246206 10
-12.6832 8.04898 0.787249 0.245891 10
-12.7312 8.07946 1.3192 0.400784 10
-12.7319 8.0799 1.85151 0.399294 10
-12.7326 8.08035 2.38846 0.397318 10
-12.7333 8.08081 2.93145 0.394857 10
-12.734 8.08127 3.48192 0.391916 10
-12.672 8.04191 4.02149 0.608566 10
-8.42313 5.30433 -2.66721 0.0089019 4
-9.4651 5.9605 -2.58238 0.139256 4
-11.1437 7.01755 -2.55983 0.0628597 4
-12.7121 8.00523 -2.37936 0.797328 10
-12.7128 8.00568 -1.84466 0.801205 10
-12.7135 8.00612 -1.31446 0.531132 10
-12.7142 8.00656 -0.787436 0.532401 10
-12.7149 8.007 -0.26228 0.533022 10
-12.7156 8.00744 0.262294 0.532992 10
-12.7163 8.00788 0.787565 0.532314 10
-12.7206 8.01058 4.02801 0.607582 10
-8.44161 5.2749 -2.66721 0.0551917 4
-9.50014 5.93635 -2.58627 0.140139 4
-11.1681 6.97861 -2.55983 0.0554387 4
-12.7608 7.97381 -2.38324 0.796028 10
-12.7615 7.97425 -1.84767 0.799899 10
-17.315 10.8196 -1.7863 0.802794 10
-17.316 10.8202 -1.0701 0.804712 10
-17.3169 10.8208 -0.356429 0.80565 10
-17.3179 10.8214 0.356448 0.805606 10
-16.5077 10.3152 1.02015 0.0484261 10
-12.7693 7.97915 4.03459 0.606591 10
-8.45997 5.24541 -2.66721 0.0367945 4
-9.53527 5.91212 -2.5902 0.138868 4
-11.1924 6.93959 -2.55983 0.0685344 4
-12.8096 7.94229 -2.38717 0.794719 10
-12.8103 7.94273 -1.85071 0.798583 10
-17.3813 10.7769 -1.78925 0.801474 10
-17.3823 10.7775 -1.07186 0.803388 10
-17.3832 10.7781 -0.357016 0.804324 10
-17.3842 10.7786 0.357035 0.80428 10
-16.5436 10.2575 1.02014 0.0484263 10
-12.8182 7.94761 4.04124 0.605593 10
-8.47824 5.21585 -2.66721 0.0296729 4
-9.57049 5.88781 -2.59417 0.134318 4
-11.2166 6.90048 -2.55984 0.0637326 4
-12.8586 7.91065 -2.39114 0.793399 10
-12.8593 7.9111 -1.85379 0.797257 10
-17.4478 10.7339 -1.79222 0.800143 10
-17.4487 10.7345 -1.07364 0.802054 10
-17.4497 10.7351 -0.35761 0.802988 10
-17.4507 10.7357 0.357629 0.802944 10
-16.5793 10.1996 1.02014 0.0484264 10
-12.8672 7.91597 4.04797 0.604586 10
-8.4964 5.18622 -2.66721 0.0136495 4
-9.60582 5.86342 -2.59818 0.162398 4
-11.2406 6.86129 -2.55984 0.0598039 4
-12.9077 7.87892 -2.39515 0.79207 10
-12.9085 7.87936 -1.8569 0.795921 10
-17.5145 10.6909 -1.79523 0.798803 10
-17.5155 10.6915 -1.07544 0.800711 10
-17.5164 10.6921 -0.35821 0.801643 10
-17.5174 10.6927 0.358229 0.801599 10
-16.6147 10.1417 1.02014 0.0484265 10
-12.9164 7.88422 4.05476 0.603573 10
-8.51445 5.15653 -2.66721 0.0166168 4
-9.64125 5.83895 -2.60223 0.130498 4
-11.2645 6.82202 -2.55984 0.0554386 4
-12.9571 7.84707 -2.39921 0.790732 10
-12.9578 7.84752 -1.86005 0.794576 10
-17.5814 10.6477 -1.79827 0.797452 10
-17.5824 10.6483 -1.07727 0.799357 10
-17.5834 10.6489 -0.358816 0.800288 10
-17.5843 10.6494 0.358836 0.800244 10
-16.65 10.0836 1.02014 0.0484266 10
-12.9658 7.85236 4.06163 0.602552 10
-8.5324 5.12679 -2.66722 0.0172103 4
-9.67677 5.81439 -2.60633 0.171012 4
-11.2882 6.78266 -2.55984 0.0506368 4
-13.0065 7.81512 -2.40331 0.789383 10
-13.0073 7.81557 -1.86322 0.793221 10
-17.6486 10.6043 -1.80134 0.796093 10
-17.6495 10.6049 -1.07911 0.797994 10
-17.6505 10.6055 -0.359429 0.798923 10
-17.6515 10.6061 0.359449 0.798879 10
-16.6851 10.0254 1.02014 0.0484267 10
-13.0153 7.8204 4.06857 0.601524 10
-8.55025 5.09697 -2.66722 0.0314533 4
-9.71241 5.78976 -2.61047 0.143188 4
-11.3118 6.74322 -2.55984 0.0593672 4
-13.0562 7.78306 -2.40745 0.788025 10
-13.0569 7.7835 -1.86643 0.791856 10
-17.716 10.5608 -1.80444 0.794723 10
-17.7169 10.5614 -1.08097 0.796621 10
-17.7179 10.562 -0.360049 0.797549 10
-17.7189 10.5626 0.360069 0.797504 10
-16.7199 9.96708 1.02013 0.0484267 10
-13.065 7.78832 4.07559 0.600489 10
-8.56799 5.0671 -2.66722 0.0219579 4
-9.74814 5.76504 -2.61465 0.106081 4
-11.3353 6.70369 -2.55984 0.0711534 4
-13.106 7.75089 -2.41163 0.786658 10
-13.1068 7.75133 -1.86968 0.790483 10
-25.5417 15.1053 -2.59614 0.0761727 10
-26.098 15.4343 -1.58902 0.795238 10
-26.0995 15.4352 -0.529273 0.796164 10
-26.1009 15.436 0.529302 0.79612 10
-16.7546 9.90865 1.02013 0.0484268 10
-13.1149 7.75614 4.08268 0.599446 10
-8.58562 5.03716 -2.66722 0.0783364 4
-9.78398 5.74023 -2.61887 0.115699 4
-11.3587 6.66409 -2.55984 0.0576211 4
-13.156 7.71861 -2.41586 0.785281 10
-13.1568 7.71905 -1.87296 0.789099 10
-25.5943 15.0161 -2.59614 0.0761726 10
-26.1976 15.37 -1.59181 0.793846 10
-26.199 15.3709 -0.530202 0.79477 10
-26.2005 15.3718 0.530231 0.794726 10
-16.7891 9.8501 1.02013 0.0484268 10
-13.165 7.72385 4.08984 0.598396 10
-8.60316 5.00716 -2.66722 0.0183972 4
-9.81993 5.71534 -2.62314 0.148022 4
-11.3818 6.62439 -2.55984 0.0606768 4
-13.2062 7.68621 -2.42013 0.783894 10
-13.207 7.68664 -1.87627 0.787705 10
-25.6465 14.9266 -2.59614 0.0761726 10
-26.2975 15.3055 -1.59463 0.792444 10
-26.299 15.3064 -0.53114 0.793367 10
-26.3005 15.3072 0.531169 0.793323 10
-16.8234 9.79143 1.02013 0.0484268 10
-13.2152 7.69143 4.09708 0.597339 10
-8.62058 4.9771 -2.66722 0.00652803 4
-9.85599 5.69036 -2.62745 0.113656 4
-11.4049 6.58463 -2.55984 0.0593672 4
-13.2566 7.6537 -2.42445 0.782498 10
-13.2573 7.65413 -1.87962 0.786302 10
-25.6985 14.837 -2.59614 0.0761726 10
-26.6176 15.3677 -1.61077 0.268049 10
-26.619 15.3685 -0.536517 0.268361 10
-26.6205 15.3694 0.536546 0.268346 10
-16.8574 9.73265 1.02013 0.0484268 10
-13.2656 7.65891 4.10439 0.596274 10
-8.6379 4.94697 -2.66722 0.0136495 4
-9.89216 5.66529 -2.6318 0.144041 4
-11.4278 6.54477 -2.55984 0.065042 4
-13.3071 7.62106 -2.42881 0.781093 10
-13.3079 7.6215 -1.883 0.78489 10
-25.7501 14.7472 -2.59614 0.0761727 10
-31.8718 18.2532 -1.92486 0.789612 10
-31.7039 18.157 -0.637722 0.409046 10
-31.8754 18.2552 0.641171 0.790487 10
-16.8913 9.67375 1.02013 0.0484268 10
-13.3162 7.62626 4.11179 0.595202 10
-8.65511 4.91679 -2.66722 0.0183972 4
-9.92843 5.64014 -2.6362 0.170168 4
-11.4506 6.50484 -2.55984 0.0571846 4
-13.3578 7.58832 -2.43322 0.779678 10
-13.3586 7.58875 -1.88642 0.783467 10
-25.8014 14.6573 -2.59614 0.0761727 10
-26.8734 15.2663 -1.61977 0.27169 10
-26.8749 15.2671 -0.539513 0.272006 10
-26.8764 15.2679 0.539542 0.271991 10
-16.925 9.61474 1.02013 0.0484267 10
-13.4293 7.6289 1.35126 0.391275 10
-13.43 7.62933 1.89651 0.38982 10
-13.4308 7.62977 2.44651 0.38789 10
-13.4316 7.63021 3.0027 0.385488 10
-13.4324 7.63065 3.56656 0.382615 10
-13.367 7.5935 4.11925 0.594123 10
-8.67222 4.88655 -2.66722 0.0617196 4
-9.96482 5.61489 -2.64064 0.10523 4
-11.4732 6.46483 -2.55984 0.0659151 4
-13.4088 7.55545 -2.43768 0.778253 10
-13.4095 7.55588 -1.88987 0.782036 10
-25.8524 14.5671 -2.59614 0.0761728 10
-26.8781 15.145 -1.61685 0.519662 10
-26.8796 15.1459 -0.538541 0.520267 10
-26.8811 15.1467 0.538571 0.520238 10
-16.9585 9.55561 1.02014 0.0484267 10
-13.4141 7.55843 1.34706 0.39056 10
-13.4148 7.55886 1.89062 0.389107 10
-13.4156 7.55929 2.43892 0.387181 10
-13.4164 7.55973 2.99338 0.384783 10
-13.4171 7.56017 3.55549 0.381916 10
-13.4179 7.56062 4.1268 0.593037 10
-8.68922 4.85624 -2.66721 0.035014 4
-10.0013 5.58955 -2.64512 0.15351 4
-11.4957 6.42474 -2.55984 0.0480177 4
-13.4599 7.52246 -2.44218 0.776819 10
-13.4606 7.52289 -1.89336 0.780595 10
-25.9031 14.4767 -2.59614 0.0761729 10
-27.1266 15.1605 -1.6286 0.275317 10
-27.128 15.1613 -0.542456 0.275638 10
-27.1295 15.1622 0.542484 0.275624 10
-16.9918 9.49638 1.02014 0.0484266 10
-13.3897 7.48323 1.34198 0.324134 10
-13.3904 7.48364 1.88348 0.322929 10
-13.3911 7.48405 2.42971 0.321331 10
-13.3919 7.48447 2.98207 0.319341 10
-13.3926 7.48489 3.54205 0.316963 10
-13.4691 7.52762 4.13442 0.591943 10
-8.70612 4.82588 -2.66721 0.0178038 4
-10.0379 5.56412 -2.64966 0.129817 4
-11.5181 6.38457 -2.55984 0.0711535 4
-13.5111 7.48935 -2.44673 0.775375 10
-13.5119 7.48977 -1.89689 0.779144 10
-25.9534 14.3862 -2.59613 0.0761729 10
-27.0833 15.0125 -1.62285 0.51774 10
-27.0848 15.0134 -0.540541 0.518342 10
-27.0864 15.0142 0.540571 0.518313 10
-17.0248 9.43702 1.02014 0.0484265 10
-13.3281 7.38789 1.33322 0.326264 10
-13.3288 7.38829 1.87119 0.325052 10
-13.3296 7.3887 2.41384 0.323443 10
-13.3303 7.38911 2.9626 0.32144 10
-13.331 7.38952 3.51892 0.319046 10
-13.5204 7.49449 4.14213 0.590842 10
-8.72291 4.79546 -2.66721 0.0278926 4
-10.0747 5.5386 -2.65423 0.161123 4
-11.5403 6.34432 -2.55984 0.0667883 4
-13.5626 7.45611 -2.45132 0.773922 10
-13.5634 7.45654 -1.90045 0.777684 10
-26.0034 14.2955 -2.59613 0.0761731 10
-32.4838 17.8581 -1.9427 0.782361 10
-32.4874 17.8601 0.647114 0.783227 10
-17.0577 9.37756 1.02014 0.0484264 10
-13.2674 7.2938 1.32459 0.32839 10
-13.2681 7.2942 1.85907 0.32717 10
-13.2688 7.29459 2.39822 0.325551 10
-13.2695 7.29499 2.94342 0.323535 10
-13.2703 7.2954 3.49613 0.321125 10
-13.572 7.46125 4.14991 0.589734 10
-8.73959 4.76498 -2.66721 0.0136496 4
-10.1115 5.51299 -2.65886 0.165567 4
-11.5623 6.30399 -2.55983 0.0619866 4
-13.6143 7.42275 -2.45596 0.772459 10
-13.6151 7.42318 -1.90405 0.776214 10
-26.0531 14.2046 -2.59613 0.0761732 10
-27.2901 14.879 -1.62898 0.515793 10
-27.2916 14.8799 -0.542581 0.516393 10
-27.2932 14.8807 0.542612 0.516364 10
-17.0904 9.31799 1.02014 0.0484263 10
-13.2598 7.22948 1.3213 0.607242 10
-13.2605 7.22989 1.85447 0.604983 10
-13.2613 7.23031 2.39228 0.601988 10
-13.2621 7.23073 2.93615 0.598259 10
-13.2629 7.23115 3.48751 0.593801 10
-13.6237 7.42787 4.15777 0.588619 10
-8.75616 4.73444 -2.66721 0.0308599 4
-10.1485 5.48727 -2.66352 0.133185 4
-11.5843 6.26359 -2.55983 0.0763919 4
-13.6662 7.38926 -2.46065 0.770987 10
-13.6669 7.38969 -1.90768 0.774735 10
-26.1025 14.1136 -2.59612 0.0761733 10
-32.7318 17.698 -1.9501 0.779394 10
-32.8013 17.7356 -0.650884 0.780301 10
-32.7355 17.7 0.649577 0.780257 10
-17.1229 9.2583 1.02015 0.0484261 10
-13.3103 7.19686 1.32383 0.606084 10
-13.3111 7.19727 1.85801 0.60383 10
-13.3118 7.19769 2.39685 0.60084 10
-13.3126 7.19811 2.94176 0.597118 10
-13.3134 7.19854 3.49417 0.592668 10
-13.6756 7.39437 4.16572 0.587497 10
-8.77263 4.70385 -2.66721 0.0213646 4
-10.1856 5.46147 -2.66824 0.157829 4
-11.606 6.22311 -2.55983 0.0305568 4
-13.7182 7.35565 -2.46539 0.769506 10
-13.719 7.35607 -1.91135 0.773246 10
-26.1516 14.0224 -2.59612 0.0761735 10
-27.502 14.7465 -1.63544 0.284327 10
-27.5034 14.7472 -0.544732 0.284659 10
-27.5049 14.748 0.54476 0.284644 10
-17.1551 9.19851 1.02015 0.0484259 10
-13.7237 7.35859 1.36238 0.604919 10
-13.7245 7.35901 1.91212 0.602669 10
-13.7253 7.35943 2.46665 0.599685 10
-13.7261 7.35986 3.02742 0.59597 10
-13.7269 7.3603 3.59593 0.591529 10
-13.7277 7.36074 4.17374 0.586367 10
-8.78899 4.67319 -2.66721 0.0255188 4
-10.2228 5.43556 -2.673 0.186338 4
-11.6277 6.18255 -2.55983 0.033176 4
-13.7705 7.3219 -2.47017 0.768015 10
-13.7713 7.32232 -1.91506 0.771748 10
-26.2003 13.9309 -2.59611 0.0761737 10
-32.9817 17.5367 -1.95764 0.776389 10
-32.6196 17.3441 -0.64486 0.777292 10
-32.9854 17.5387 0.652092 0.777248 10
-17.1872 9.1386 1.02015 0.0484258 10
-13.776 7.32483 1.36502 0.603747 10
-13.7768 7.32525 1.91583 0.601501 10
-13.7776 7.32567 2.47144 0.598523 10
-13.7784 7.3261 3.0333 0.594815 10
-13.7792 7.32654 3.60291 0.590382 10
-13.78 7.32698 4.18185 0.585231 10
-8.80524 4.64248 -2.6672 0.0183973 4
-10.2601 5.40956 -2.67781 0.112407 4
-11.6492 6.14192 -2.55982 0.0528197 4
-13.823 7.28802 -2.47501 0.766515 10
-13.8238 7.28845 -1.91881 0.770241 10
-26.2487 13.8394 -2.5961 0.0761739 10
-27.7482 14.63 -1.64396 0.287907 10
-27.7496 14.6307 -0.547571 0.288244 10
-27.751 14.6315 0.547599 0.288229 10
-17.2191 9.07859 1.02016 0.0484256 10
-13.8285 7.29095 1.36769 0.602567 10
-13.8293 7.29136 1.91958 0.600326 10
-13.8301 7.29179 2.47628 0.597353 10
-13.8309 7.29221 3.03924 0.593652 10
-13.8317 7.29265 3.60997 0.589229 10
-13.8326 7.29309 4.19004 0.584087 10
-8.82139 4.61171 -2.6672 0.0172104 4
-10.2976 5.38345 -2.68267 0.1604 4
-11.6705 6.10121 -2.55982 0.0584947 4
-13.8756 7.25401 -2.47989 0.765006 10
-13.8764 7.25443 -1.9226 0.768724 10
-26.2968 13.7476 -2.59609 0.0761741 10
-33.2336 17.3741 -1.96535 0.773347 10
-33.2355 17.3751 -0.654621 0.774246 10
-33.2374 17.3761 0.654658 0.774202 10
-17.2507 9.01846 1.02016 0.0484254 10
-13.8812 7.25692 1.37039 0.60138 10
-13.882 7.25734 1.92337 0.599143 10
-13.8828 7.25776 2.48117 0.596176 10
-13.8836 7.25819 3.04524 0.592483 10
-13.8845 7.25862 3.61709 0.588068 10
-13.8853 7.25906 4.19831 0.582936 10
-8.83742 4.58088 -2.6672 0.0302666 4
-10.3352 5.35725 -2.68757 0.167362 4
-11.6917 6.06043 -2.55982 0.0580582 4
-13.9285 7.21987 -2.48482 0.763487 10
-13.9293 7.22029 -1.92642 0.767198 10
-26.3445 13.6557 -2.59609 0.0761743 10
-27.9918 14.5096 -1.65236 0.291473 10
-27.9932 14.5103 -0.550367 0.291814 10
-27.9947 14.5111 0.550394 0.291799 10
-17.2822 8.95824 1.02017 0.0484251 10
-13.9341 7.22277 1.37312 0.600186 10
-13.9349 7.22319 1.9272 0.597953 10
-13.9357 7.22361 2.48611 0.594992 10
-13.9366 7.22403 3.0513 0.591306 10
-13.9374 7.22447 3.62429 0.586899 10
-13.9382 7.2249 4.20667 0.581778 10
-8.85335 4.55001 -2.6672 0.0522247 4
-10.3729 5.33095 -2.69252 0.192808 4
-11.7128 6.01957 -2.55981 0.0397241 4
-13.9816 7.18558 -2.4898 0.761959 10
-13.9824 7.186 -1.93029 0.765662 10
-23.7037 12.1821 -2.33165 0.442905 10
-23.7049 12.1827 -1.39678 0.443965 10
-23.7061 12.1833 -0.46524 0.444485 10
-23.7073 12.1839 0.465263 0.444462 10
-17.3134 8.89791 1.02017 0.0484249 10
-13.9873 7.18848 1.37588 0.598984 10
-13.9881 7.1889 1.93106 0.596756 10
-13.9889 7.18932 2.4911 0.593801 10
-13.9897 7.18974 3.05743 0.590122 10
-13.9906 7.19017 3.63157 0.585724 10
-13.9914 7.19061 4.21511 0.580613 10
-8.86916 4.51907 -2.66719 0.0106823 4
-10.4107 5.30454 -2.69752 0.198758 4
-11.7337 5.97864 -2.55981 0.0497643 4
-14.0349 7.15116 -2.49484 0.760422 10
-14.0358 7.15158 -1.93419 0.764117 10
-23.6033 12.0265 -2.31763 0.445585 10
-23.6045 12.0271 -1.38838 0.446651 10
-23.6057 12.0277 -0.462442 0.447174 10
-23.6069 12.0283 0.462465 0.447151 10
-17.3445 8.83746 1.02018 0.0484246 10
-14.0406 7.15405 1.37866 0.597775 10
-14.0414 7.15447 1.93497 0.595551 10
-14.0422 7.15488 2.49614 0.378306 10
-14.0431 7.15531 3.06361 0.375962 10
-14.0439 7.15574 3.63891 0.37316 10
-14.0448 7.15617 4.22364 0.57944 10
-8.88487 4.48808 -2.66719 0.0261124 4
-10.4487 5.27803 -2.70257 0.135263 4
-11.7545 5.93763 -2.55981 0.0571854 4
-14.0885 7.1166 -2.49992 0.758876 10
-14.0893 7.11702 -1.93813 0.762563 10
-23.6469 11.9449 -2.3178 0.765322 10
-23.6482 11.9456 -1.38849 0.767148 10
-23.6496 11.9463 -0.462482 0.76804 10
-23.6509 11.947 0.462508 0.767996 10
-17.3753 8.77692 1.02019 0.0484243 10
-14.0942 7.11948 1.38147 0.596559 10
-14.095 7.1199 1.93891 0.59434 10
-14.1673 7.15643 3.66439 0.372401 10
-14.0984 7.1216 4.23225 0.578261 10
-8.90048 4.45703 -2.66719 0.0373883 4
-10.4868 5.25141 -2.70767 0.168394 4
-11.7751 5.89655 -2.5598 0.0593682 4
-14.1422 7.0819 -2.50506 0.75732 10
-14.1431 7.08231 -1.94211 0.761 10
-23.7371 11.8866 -2.32256 0.763753 10
-23.7384 11.8873 -1.39135 0.765575 10
-23.7398 11.888 -0.463433 0.766465 10
-23.7412 11.8887 0.463459 0.766421 10
-17.406 8.71627 1.02019 0.048424 10
-14.148 7.08477 1.38431 0.595336 10
-14.1488 7.08518 1.9429 0.593121 10
-14.2214 7.12154 3.67192 0.371637 10
-14.1522 7.08688 4.24095 0.577075 10
-8.91597 4.42593 -2.66718 0.0700289 4
-10.5251 5.22469 -2.71282 0.157975 4
-11.7956 5.85541 -2.5598 0.0615509 4
-14.1962 7.04705 -2.51024 0.755755 10
-14.197 7.04747 -1.94613 0.759427 10
-23.8277 11.8282 -2.32737 0.762174 10
-23.829 11.8288 -1.39423 0.763993 10
-23.8304 11.8295 -0.464392 0.764881 10
-23.8318 11.8302 0.464419 0.764836 10
-17.4364 8.65552 1.0202 0.0484237 10
-14.202 7.04992 1.38718 0.594105 10
-14.2028 7.05033 1.94692 0.591895 10
-14.2757 7.08651 3.67953 0.370868 10
-14.2062 7.05202 4.24974 0.575882 10
-8.93135 4.39477 -2.66718 0.0112759 4
-10.5634 5.19786 -2.71802 0.1613 4
-11.816 5.81418 -2.55979 0.060678 4
-14.2504 7.01206 -2.51548 0.75418 10
-14.2512 7.01247 -1.9502 0.757845 10
-23.9186 11.7694 -2.33223 0.760586 10
-23.92 11.7701 -1.39714 0.762401 10
-23.9214 11.7708 -0.465362 0.763287 10
-23.9228 11.7715 0.465389 0.763243 10
-17.4666 8.59466 1.02021 0.0484233 10
-14.2562 7.01492 1.39007 0.592867 10
-14.257 7.01533 1.95099 0.590661 10
-14.3302 7.05133 3.68722 0.370095 10
-14.2605 7.01701 4.25861 0.574681 10
-8.94662 4.36356 -2.66717 0.0427296 4
-10.602 5.17092 -2.72326 0.15325 4
-11.8362 5.77289 -2.55979 0.0615512 4
-14.3048 6.97692 -2.52078 0.752597 10
-14.3057 6.97734 -1.9543 0.756254 10
-24.01 11.7105 -2.33713 0.75899 10
-24.0114 11.7111 -1.40008 0.7608 10
-24.0128 11.7118 -0.466341 0.761684 10
-24.0142 11.7125 0.466368 0.76164 10
-17.4967 8.5337 1.02021 0.048423 10
-14.3106 6.97977 1.393 0.591622 10
-14.3115 6.98018 1.9551 0.58942 10
-14.3849 7.01601 3.69498 0.369318 10
-14.3149 6.98186 4.26758 0.573474 10
-8.96179 4.3323 -2.66717 0.0213648 4
-10.6406 5.14387 -2.72856 0.137473 4
-11.8562 5.73152 -2.55978 0.0584956 4
-14.3595 6.94163 -2.52612 0.751005 10
-14.3603 6.94205 -1.95845 0.754653 10
-26.7147 12.9144 -2.596 0.0761768 10
-28.9428 13.9915 -1.68477 0.305593 10
-28.9442 13.9922 -0.561161 0.305951 10
-28.9456 13.9929 0.561188 0.305936 10
-17.5265 8.47263 1.02022 0.0484226 10
-14.3653 6.94447 1.39595 0.590369 10
-14.3662 6.94488 1.95925 0.588172 10
-14.4122 6.96715 3.69572 0.100362 10
-14.3697 6.94656 4.27664 0.572259 10
-8.97684 4.30098 -2.66717 0.0427298 4
-10.6794 5.11671 -2.73391 0.159906 4
-11.8761 5.69009 -2.55977 0.0384151 4
-14.4143 6.9062 -2.53152 0.749403 10
-14.4152 6.90661 -1.96263 0.753044 10
-26.7594 12.821 -2.59599 0.0761772 10
-28.894 13.8437 -1.6791 0.500395 10
-28.8957 13.8445 -0.559279 0.500976 10
-28.8973 13.8453 0.559311 0.500947 10
-17.5561 8.41147 1.02023 0.0484222 10
-14.4203 6.90903 1.39894 0.58911 10
-14.4211 6.90944 1.96343 0.586917 10
-14.4365 6.91681 3.69573 0.100362 10
-14.4246 6.91111 4.28578 0.571038 10
-8.99178 4.26962 -2.66716 0.0284866 4
-10.7183 5.08944 -2.73932 0.136271 4
-11.8959 5.64859 -2.55977 0.0528209 4
-14.4695 6.87061 -2.53697 0.747792 10
-14.4703 6.87102 -1.96686 0.751425 10
-14.8102 7.03241 -1.43438 0.466821 10
-14.8109 7.03275 -0.859269 0.467939 10
-14.8116 7.03309 -0.286204 0.468487 10
-14.8124 7.03343 0.286218 0.468465 10
-14.8131 7.03377 0.859393 0.467872 10
-14.4754 6.87344 1.40195 0.587843 10
-14.4763 6.87384 1.96767 0.585655 10
-14.4789 6.87508 3.70041 0.366958 10
-14.4798 6.87551 4.29502 0.56981 10
-9.00661 4.23819 -2.66716 0.0148368 4
-10.7574 5.06206 -2.74477 0.0865574 4
-11.9155 5.60702 -2.55976 0.0510749 4
-14.5248 6.83487 -2.54248 0.746172 10
-14.5257 6.83527 -1.97113 0.749797 10
-14.7516 6.94157 -1.42635 0.46945 10
-14.7523 6.9419 -0.854456 0.470575 10
-14.753 6.94223 -0.284601 0.471126 10
-14.7537 6.94257 0.284614 0.471104 10
-14.7544 6.9429 0.854579 0.470507 10
-14.5308 6.83768 1.405 0.586569 10
-14.5317 6.83809 1.97194 0.584386 10
-14.6045 6.87236 2.55643 0.371213 10
-14.6054 6.87277 3.13761 0.368912 10
-14.5343 6.83932 3.70845 0.366163 10
-14.5352 6.83975 4.30435 0.568574 10
-9.02134 4.20672 -2.66715 0.0237389 4
-10.7847 5.02899 -2.74724 0.0848936 1
-11.935 5.56538 -2.55976 0.0432173 4
-14.5804 6.79897 -2.54805 0.744543 10
-14.5813 6.79938 -1.97544 0.74816 10
-14.6936 6.85175 -1.41842 0.472073 10
-14.6943 6.85208 -0.849708 0.473205 10
-14.695 6.8524 -0.283019 0.473759 10
-14.6957 6.85273 0.283032 0.473737 10
-14.6964 6.85305 0.849829 0.473137 10
-14.5864 6.80178 1.40807 0.585288 10
-14.5873 6.80218 1.97626 0.58311 10
-14.6474 6.83021 2.55975 0.232892 10
-14.6481 6.83054 3.14166 0.231451 10
-14.59 6.80341 3.71657 0.365363 10
-14.5909 6.80384 4.31378 0.567332 10
-9.03595 4.1752 -2.66715 0.0379823 4
-10.8022 4.9913 -2.74723 0.0848938 1
-11.9543 5.52367 -2.55975 0.0615521 4
-14.6363 6.76291 -2.55366 0.742905 10
-14.6372 6.76332 -1.9798 0.746514 10
-14.638 6.76372 -1.41077 0.749214 10
-14.6389 6.76412 -0.845132 0.751001 10
-14.6397 6.76451 -0.281498 0.751873 10
-14.6406 6.76491 0.281515 0.751828 10
-14.6415 6.76531 0.845281 0.750868 10
-14.6423 6.76571 1.41118 0.583999 10
-14.6432 6.76611 1.98062 0.581826 10
-14.6441 6.76651 2.55502 0.578944 10
-14.645 6.76692 3.13589 0.575356 10
-14.6459 6.76734 3.72477 0.571067 10
-14.6468 6.76776 4.3233 0.566083 10
-9.05045 4.14362 -2.66714 0.0646887 4
-10.8195 4.95355 -2.74722 0.084894 1
-11.9735 5.48189 -2.55974 0.0659177 4
-14.6924 6.7267 -2.55934 0.741258 10
-14.6933 6.7271 -1.9842 0.744859 10
-14.6941 6.7275 -1.4139 0.747552 10
-14.695 6.7279 -0.84701 0.749335 10
-14.6959 6.72829 -0.282124 0.750205 10
-14.6967 6.72869 0.28214 0.750161 10
-14.6976 6.72909 0.84716 0.749203 10
-14.6985 6.72948 1.41432 0.582704 10
-14.6993 6.72988 1.98502 0.580535 10
-14.7002 6.73029 2.5607 0.577659 10
-14.7011 6.7307 3.14286 0.57408 10
-14.702 6.73111 3.73305 0.5698 10
-14.7029 6.73153 4.33291 0.564827 10
-9.06484 4.11199 -2.66714 0.0338281 4
-10.8367 4.91574 -2.74722 0.0848942 1
-11.9925 5.44004 -2.55973 0.0593697 4
-14.7487 6.69032 -2.56507 0.739601 10
-14.7496 6.69072 -1.98864 0.743194 10
-14.7505 6.69112 -1.41707 0.745882 10
-14.7514 6.69151 -0.848907 0.747661 10
-14.7522 6.69191 -0.282756 0.748528 10
-14.7531 6.6923 0.282772 0.748484 10
-14.754 6.6927 0.849058 0.747528 10
-14.7548 6.69309 1.41749 0.581402 10
-14.7557 6.69349 1.98947 0.579238 10
-14.7566 6.69389 2.56644 0.576368 10
-14.7575 6.6943 3.14991 0.572796 10
-14.7584 6.69471 3.74142 0.568526 10
-14.7593 6.69513 4.34262 0.563564 10
-9.07912 4.08032 -2.66713 0.0290804 4
-10.8538 4.87787 -2.74721 0.0848944 1
-12.0116 5.39821 -2.55976 0.150817 4
-14.8053 6.65378 -2.57086 0.737936 10
-14.8062 6.65418 -1.99313 0.741521 10
-14.8071 6.65457 -1.42027 0.744202 10
-14.808 6.65497 -0.850823 0.745977 10
-14.8088 6.65536 -0.283394 0.746843 10
-14.8097 6.65576 0.283411 0.746799 10
-14.8106 6.65615 0.850974 0.745845 10
-14.8115 6.65654 1.42069 0.580092 10
-14.8124 6.65694 1.99396 0.577933 10
-14.8133 6.65734 2.57224 0.57507 10
-14.8142 6.65775 3.15702 0.571506 10
-14.8151 6.65816 3.74987 0.567246 10
-14.816 6.65858 4.35243 0.562294 10
-9.09329 4.04859 -2.66712 0.0189913 4
-10.8707 4.83994 -2.7472 0.0848946 1
-12.054 5.3668 -2.56481 0.165475 4
-14.8622 6.61706 -2.5767 0.736262 10
-14.8631 6.61746 -1.99766 0.739839 10
-14.864 6.61786 -1.4235 0.742514 10
-14.8648 6.61825 -0.852758 0.744284 10
-14.8657 6.61865 -0.284039 0.745148 10
-14.8666 6.61904 0.284055 0.745104 10
-14.8675 6.61943 0.85291 0.744152 10
-14.8684 6.61982 1.42392 0.578775 10
-14.8693 6.62022 1.99849 0.576621 10
-14.8702 6.62062 2.57809 0.573764 10
-14.8711 6.62102 3.1642 0.570208 10
-14.872 6.62143 3.7584 0.565958 10
-14.8729 6.62185 4.36233 0.561018 10
-9.10734 4.01682 -2.66712 0.0409501 4
-10.8875 4.80195 -2.7472 0.0848949 1
-12.0967 5.33527 -2.5699 0.190479 4
-14.9193 6.58019 -2.58261 0.734579 10
-14.9202 6.58059 -2.00224 0.738147 10
-14.9211 6.58098 -1.42676 0.740816 10
-14.922 6.58138 -0.854713 0.742582 10
-14.9229 6.58177 -0.28469 0.743444 10
-14.9237 6.58216 0.284706 0.7434 10
-14.9246 6.58255 0.854865 0.74245 10
-14.9255 6.58294 1.42718 0.577452 10
-14.9264 6.58333 2.00308 0.575302 10
-14.9273 6.58373 2.584 0.572452 10
-14.9282 6.58414 3.17146 0.568904 10
-14.9292 6.58455 3.76702 0.564663 10
-14.9301 6.58496 4.37233 0.559734 10
-9.12129 3.985 -2.66711 0.0201784 4
-10.9041 4.76391 -2.74719 0.0848951 1
-12.1394 5.3036 -2.57504 0.170755 4
-14.9767 6.54315 -2.58857 0.732887 10
-14.9776 6.54355 -2.00686 0.736447 10
-14.9785 6.54394 -1.43005 0.73911 10
-14.9794 6.54433 -0.856686 0.740872 10
-14.9803 6.54472 -0.285347 0.741731 10
-14.9811 6.54511 0.285364 0.741687 10
-14.982 6.5455 0.856839 0.740739 10
-14.9829 6.54589 1.43048 0.576121 10
-14.9838 6.54628 2.0077 0.573976 10
-14.9847 6.54668 2.58997 0.571133 10
-14.9857 6.54708 3.17878 0.567593 10
-14.9866 6.54749 3.77572 0.563362 10
-14.9875 6.5479 4.38244 0.558444 10
-9.13512 3.95312 -2.66711 0.0480721 4
-10.9207 4.7258 -2.74718 0.0848954 1
-12.1824 5.27178 -2.58023 0.168904 4
-15.0343 6.50592 -2.59459 0.731186 10
-15.0352 6.50632 -2.01153 0.734737 10
-15.0361 6.50671 -1.43338 0.737394 10
-15.037 6.5071 -0.85868 0.739152 10
-15.0379 6.50749 -0.286011 0.740009 10
-15.0388 6.50788 0.286028 0.739965 10
-15.0397 6.50827 0.858833 0.739019 10
-15.0406 6.50866 1.43381 0.574783 10
-15.0415 6.50905 2.01238 0.572644 10
-15.0424 6.50945 2.596 0.569806 10
-15.0434 6.50985 3.18618 0.566275 10
-15.0443 6.51025 3.78451 0.562053 10
-15.0453 6.51067 4.39264 0.557147 10
-9.14884 3.9212 -2.6671 0.0278937 4
-10.9371 4.68764 -2.74717 0.0848956 1
-12.2255 5.23984 -2.58546 0.13207 4
-15.0922 6.46853 -2.60067 0.729476 10
-15.0931 6.46893 -2.01625 0.733019 10
-27.2707 11.6882 -2.59579 0.0761832 10
-30.2529 12.9664 -1.72498 0.737423 10
-36.1175 15.48 -0.685898 0.497194 10
-36.1191 15.4807 0.685928 0.497171 10
-17.8952 7.66988 1.02036 0.0484162 10
-15.0986 6.47126 1.43717 0.573439 10
-15.0995 6.47165 2.01709 0.571304 10
-15.1004 6.47204 2.60209 0.568473 10
-15.1013 6.47244 3.19366 0.56495 10
-15.1023 6.47285 3.79339 0.560738 10
-15.1032 6.47326 4.40294 0.555843 10
-9.16245 3.88923 -2.66709 0.0356091 4
-10.9533 4.64942 -2.74716 0.0848959 1
-12.2687 5.20775 -2.59075 0.15083 4
-15.1504 6.43096 -2.60682 0.727757 10
-15.1513 6.43136 -2.02101 0.731292 10
-27.3111 11.5929 -2.59576 0.0761838 10
-30.3696 12.8911 -1.72905 0.735685 10
-35.985 15.2747 -0.682365 0.499768 10
-35.9866 15.2754 0.682395 0.499746 10
-17.9221 7.60746 1.02037 0.0484156 10
-15.1568 6.43368 1.44057 0.572087 10
-15.1348 6.42436 2.01881 0.38676 10
-15.1355 6.42465 2.60426 0.38485 10
-15.1362 6.42495 3.19627 0.38247 10
-15.1369 6.42525 3.79644 0.379625 10
-15.1615 6.43567 4.41335 0.554532 10
-9.17594 3.85721 -2.66708 0.0379832 4
-10.9695 4.61114 -2.74716 0.0848961 1
-12.3121 5.17553 -2.59608 0.176268 4
-15.2089 6.39322 -2.61302 0.726029 10
-15.2098 6.39361 -2.02582 0.729556 10
-27.3512 11.4974 -2.59574 0.0761844 10
-30.4868 12.8155 -1.73317 0.733938 10
-36.0273 15.1445 -0.682161 0.734789 10
-36.0294 15.1454 0.682201 0.734745 10
-17.9487 7.54496 1.02038 0.0484149 10
-15.2153 6.39593 1.44399 0.570728 10
-15.0797 6.33892 2.00849 0.388748 10
-15.0804 6.3392 2.59094 0.386827 10
-15.0811 6.3395 3.17993 0.384436 10
-15.0818 6.33979 3.77702 0.381576 10
-15.22 6.39791 4.42386 0.553215 10
-9.18933 3.82515 -2.66708 0.0148372 4
-10.9855 4.57281 -2.74715 0.0848964 1
-12.3557 5.14316 -2.60146 0.177001 4
-15.2676 6.35529 -2.61929 0.724293 10
-15.2685 6.35568 -2.03068 0.72781 10
-27.3909 11.4017 -2.59572 0.076185 10
-30.6045 12.7394 -1.73732 0.732182 10
-36.57 15.2226 -0.691427 0.733031 10
-36.5722 15.2235 0.691468 0.732987 10
-17.9752 7.48236 1.0204 0.0484143 10
-15.2741 6.35799 1.44746 0.569362 10
-15.0251 6.25433 1.9983 0.39073 10
-15.0258 6.25462 2.57779 0.388801 10
-15.0264 6.2549 3.16379 0.386397 10
-15.0271 6.25519 3.75785 0.383523 10
-15.2788 6.35997 4.43447 0.551891 10
-9.2026 3.79304 -2.66707 0.0237396 4
-11.0013 4.53442 -2.74714 0.0848967 1
-12.3994 5.11065 -2.60689 0.167199 4
-15.3266 6.31718 -2.62561 0.722547 10
-15.3276 6.31757 -2.03558 0.726057 10
-27.4303 11.306 -2.5957 0.0761857 10
-30.7229 12.6631 -1.74152 0.730418 10
-36.7114 15.1314 -0.693097 0.731265 10
-36.7136 15.1323 0.693138 0.73122 10
-18.0015 7.41967 1.02041 0.0484136 10
-15.3331 6.31987 1.45096 0.56799 10
-14.971 6.17061 1.98823 0.392708 10
-14.9717 6.17089 2.56481 0.390769 10
-14.9724 6.17117 3.14785 0.388353 10
-14.9731 6.17146 3.73892 0.385464 10
-15.3379 6.32184 4.44519 0.55056 10
-9.21576 3.76088 -2.66706 0.0136503 4
-11.017 4.49597 -2.74713 0.0848969 1
-12.4432 5.07799 -2.61238 0.182425 4
-15.3859 6.27888 -2.632 0.720793 10
-15.3869 6.27927 -2.04054 0.724294 10
-27.4694 11.21 -2.59568 0.0761864 10
-30.8418 12.5863 -1.74576 0.728644 10
-36.8535 15.0396 -0.694785 0.729489 10
-36.8557 15.0405 0.694826 0.729445 10
-18.0275 7.35689 1.02043 0.0484129 10
-15.3925 6.28156 1.45449 0.56661 10
-14.9867 6.11594 1.98746 0.5645 10
-14.9876 6.11632 2.56386 0.561703 10
-14.9885 6.1167 3.14674 0.558221 10
-14.9895 6.11709 3.73766 0.554059 10
-15.3973 6.28353 4.45602 0.549222 10
-9.2288 3.72868 -2.66705 0.0249267 4
-11.0173 4.45128 -2.7433 0.036439 4
-12.4873 5.04519 -2.61791 0.171223 4
-15.4455 6.2404 -2.63846 0.71903 10
-15.4465 6.24079 -2.04554 0.722522 10
-27.5081 11.114 -2.59565 0.0761871 10
-30.9613 12.5092 -1.75004 0.726862 10
-30.9952 12.5229 -0.583512 0.512546 10
-30.9965 12.5234 0.583537 0.512523 10
-18.0533 7.29403 1.02044 0.0484122 10
-15.4521 6.24307 1.45806 0.565224 10
-15.0447 6.07847 1.99233 0.563119 10
-15.0457 6.07884 2.57015 0.560328 10
-15.0466 6.07922 3.15446 0.556855 10
-15.0476 6.07961 3.74683 0.552703 10
-15.457 6.24503 4.46695 0.547878 10
-9.24173 3.69643 -2.66705 0.0118699 4
-10.978 4.39091 -2.72969 0.0264088 4
-12.5315 5.01225 -2.62349 0.142597 4
-15.5054 6.20174 -2.64497 0.717259 10
-15.5064 6.20212 -2.05059 0.720742 10
-21.3537 8.54087 -2.0121 0.513246 10
-21.3546 8.54124 -1.20535 0.514478 10
-21.3555 8.54162 -0.401474 0.515083 10
-21.3565 8.54199 0.401491 0.51506 10
-18.079 7.23107 1.02046 0.0484115 10
-15.5121 6.20439 1.46166 0.563831 10
-15.1031 6.04081 1.99726 0.561731 10
-15.1059 6.04195 3.75609 0.55134 10
-15.5169 6.20634 4.47799 0.546527 10
-9.25455 3.66414 -2.66704 0.0629107 4
-10.9388 4.33096 -2.71615 0.03665 4
-12.5759 4.97914 -2.62913 0.164578 4
-15.5656 6.16287 -2.65155 0.715478 10
-15.5666 6.16325 -2.0557 0.718952 10
-21.2788 8.42488 -2.00226 0.515767 10
-21.2797 8.42525 -1.19945 0.517005 10
-21.2807 8.42561 -0.399511 0.517614 10
-21.2816 8.42598 0.399528 0.517591 10
-18.1044 7.16803 1.02047 0.0484108 10
-15.5723 6.16551 1.4653 0.56243 10
-15.1617 6.00296 2.00223 0.560336 10
-15.1646 6.00409 3.76545 0.549971 10
-15.5772 6.16746 4.48915 0.545169 10
-9.26725 3.6318 -2.66703 0.022553 4
-10.8995 4.27146 -2.70267 0.0282915 4
-12.6204 4.94589 -2.63482 0.147772 4
-15.6261 6.12381 -2.6582 0.713689 10
-15.6271 6.12419 -2.06085 0.717155 10
-21.2047 8.31003 -1.99255 0.518282 10
-21.2056 8.3104 -1.19363 0.519527 10
-21.2065 8.31075 -0.397572 0.520138 10
-21.2074 8.31111 0.397589 0.520115 10
-18.1296 7.1049 1.02049 0.04841 10
-15.6328 6.12645 1.46897 0.561023 10
-15.2207 5.96492 2.00725 0.558934 10
-15.7122 6.15755 2.67285 0.355044 10
-15.7132 6.15794 3.28051 0.352843 10
-15.2236 5.96605 3.77489 0.548595 10
-15.6378 6.12838 4.50041 0.543805 10
-9.27984 3.59941 -2.66702 0.0207725 4
-10.8602 4.21238 -2.68927 0.0350105 4
-12.6652 4.91249 -2.64056 0.161845 4
-15.6869 6.08455 -2.66492 0.711891 10
-15.6879 6.08494 -2.06605 0.715348 10
-21.2384 8.23782 -1.993 0.520791 10
-21.2393 8.23818 -1.1939 0.522041 10
-21.2402 8.23854 -0.397662 0.522657 10
-21.134 8.19734 0.395673 0.522634 10
-18.1545 7.04168 1.0205 0.0484092 10
-15.6937 6.08718 1.47268 0.559609 10
-15.2799 5.92669 2.01232 0.557525 10
-15.2828 5.92782 3.78443 0.547212 10
-15.6987 6.08911 4.51178 0.542434 10
-9.29232 3.56699 -2.66701 0.0231466 4
-10.8209 4.15374 -2.67593 0.0311863 4
-12.71 4.87893 -2.64635 0.182794 4
-15.748 6.0451 -2.67169 0.710085 10
-15.749 6.04548 -2.07131 0.713532 10
-21.0613 8.08467 0.393781 0.525145 10
-18.1793 6.97839 1.02052 0.0484085 10
-15.7548 6.04772 1.47643 0.558189 10
-15.3395 5.88827 2.01745 0.55611 10
-15.3424 5.88939 3.79407 0.545822 10
-15.7598 6.04964 4.52327 0.541057 10
-9.30469 3.53452 -2.667 0.0261142 4
-10.8094 4.10611 -2.66953 0.0211295 4
-12.7551 4.84521 -2.6522 0.165839 4
-15.8094 6.00544 -2.67854 0.708269 10
-15.8104 6.00582 -2.07662 0.711708 10
-20.9892 7.97306 0.391911 0.527651 10
-18.2039 6.915 1.02054 0.0484076 10
-15.8163 6.00805 1.48022 0.556761 10
-15.3993 5.84965 2.02262 0.554687 10
-15.4022 5.85076 3.8038 0.544426 10
-15.8213 6.00996 4.53487 0.539672 10
-9.31693 3.50201 -2.66699 0.0296754 4
-10.8236 4.06834 -2.66952 0.0613272 4
-12.8004 4.81134 -2.6581 0.188318 4
-15.8712 5.96559 -2.68546 0.706446 10
-15.8722 5.96596 -2.08198 0.709876 10
-20.9179 7.86252 0.390064 0.530149 10
-18.2282 6.85153 1.02055 0.0484068 10
-15.8781 5.96818 1.48404 0.555327 10
-15.4595 5.81083 2.02784 0.553258 10
-15.4624 5.81194 3.81362 0.543023 10
-15.8831 5.97009 4.54659 0.538282 10
-9.32907 3.46945 -2.66698 0.0195858 4
-10.8377 4.03051 -2.66951 0.0912181 4
-12.8458 4.77731 -2.66405 0.0849339 4
-15.9332 5.92552 -2.69244 0.704613 10
-15.9342 5.92589 -2.0874 0.708034 10
-20.8472 7.753 0.388238 0.532642 10
-18.2523 6.78797 1.02057 0.048406 10
-15.9402 5.9281 1.4879 0.553886 10
-15.5199 5.77181 2.03312 0.551823 10
-15.5229 5.77291 3.82355 0.541614 10
-15.9453 5.93 4.55842 0.536884 10
-9.34109 3.43685 -2.66697 0.0451069 4
-10.8517 3.99264 -2.6695 0.0958567 4
-12.8914 4.74312 -2.67006 0.0467556 4
-15.9956 5.88524 -2.69949 0.702772 10
-15.9966 5.88561 -2.09286 0.706184 10
-16.139 5.93801 -1.50452 0.352219 10
-16.1397 5.93826 -0.901281 0.353065 10
-16.1404 5.93851 -0.300196 0.35348 10
-16.1411 5.93876 0.300208 0.353466 10
-16.1417 5.93901 0.901395 0.35302 10
-16.0026 5.88781 1.4918 0.552438 10
-15.5807 5.73258 2.03845 0.55038 10
-15.5837 5.73369 3.83357 0.540197 10
-16.0077 5.8897 4.57037 0.535481 10
-9.35299 3.40421 -2.66697 0.02196 4
-10.8655 3.95472 -2.66949 0.0860653 4
-12.9217 4.70312 -2.67292 0.0248851 4
-16.0583 5.84475 -2.70662 0.700923 10
-16.0593 5.84513 -2.09839 0.704326 10
-16.0851 5.85452 -1.49758 0.35385 10
-16.0858 5.85476 -0.897125 0.3547 10
-16.0865 5.85501 -0.298811 0.355118 10
-16.0872 5.85525 0.298824 0.355103 10
-16.0878 5.8555 0.897238 0.354656 10
-16.0654 5.84732 1.49574 0.550984 10
-15.6418 5.69315 2.04383 0.548931 10
-16.147 5.87702 2.72156 0.34869 10
-16.148 5.8774 3.3403 0.346528 10
-15.6448 5.69425 3.84369 0.538775 10
-16.0705 5.8492 4.58244 0.53407 10
-9.36479 3.37153 -2.66696 0.0278952 4
-10.8792 3.91675 -2.66948 0.112865 4
