VERSION 0.7
FIELDS x y z intensity label
SIZE 4 4 4 4 4
TYPE F F F F F
COUNT 1 1 1 1 1
WIDTH 1284
HEIGHT 1
VIEWPOINT 8.03743 5.12141 2.72745 0.999998 -0.000216403 0.00112545 -0.00153837
POINTS 1284
DATA ascii
11.6569 7.45491 -2.68962 0.189966 4
13.3177 8.517 -2.50377 0.0464433 4
18.3911 11.7616 -2.68044 0.0471139 1
25.6343 16.3938 -2.66212 0.0339257 1
29.978 19.1717 -1.86489 0.750286 10
29.9752 19.1699 -0.621067 0.751272 10
29.9724 19.1682 0.621009 0.751342 10
29.9696 19.1664 1.86437 0.585171 10
29.9668 19.1646 3.11205 0.583799 10
29.964 19.1628 4.36715 0.581716 10
29.9612 19.161 5.63282 0.578924 10
29.9583 19.1591 6.91232 0.575426 10
29.9554 19.1573 8.20906 0.571228 10
29.9524 19.1554 9.52662 0.566333 10
8.24752 5.31516 -2.62908 0.0589714 4
11.5742 7.45907 -2.67653 0.183103 4
13.2881 8.56359 -2.50382 0.0354718 4
18.3504 11.826 -2.6805 0.0471128 1
25.5777 16.4837 -2.66221 0.0339246 1
29.9776 19.3192 -1.86905 0.748618 10
29.9748 19.3174 -0.622451 0.749601 10
29.972 19.3156 0.622393 0.749671 10
29.9692 19.3138 1.86852 0.58387 10
29.9664 19.312 3.11899 0.582501 10
29.9635 19.3102 4.37688 0.580423 10
29.9607 19.3083 5.64537 0.577637 10
29.9578 19.3065 6.92772 0.574147 10
29.9549 19.3046 8.22734 0.569958 10
29.9519 19.3027 9.54783 0.565075 10
8.22901 5.34398 -2.62911 0.018654 4
9.53866 6.19448 -2.62579 0.0141389 4
11.4923 7.46319 -2.66359 0.176163 4
13.2584 8.61009 -2.50387 0.04827 4
18.3094 11.8903 -2.68057 0.0471116 1
25.5209 16.5735 -2.6623 0.0339235 1
29.9771 19.4674 -1.87324 0.746941 10
29.9743 19.4655 -0.623849 0.747922 10
29.9715 19.4637 0.62379 0.747992 10
29.9687 19.4619 1.87272 0.582562 10
29.9659 19.4601 3.12599 0.581197 10
29.9631 19.4582 4.3867 0.579123 10
29.9602 19.4564 5.65804 0.576343 10
29.9573 19.4545 6.94326 0.572862 10
29.9544 19.4526 8.24581 0.568682 10
29.9514 19.4507 9.56926 0.56381 10
8.21039 5.37273 -2.62914 0.0264763 4
9.5171 6.22781 -2.62582 0.00890213 4
11.4112 7.46725 -2.65081 0.167834 4
13.2285 8.65648 -2.50391 0.0504632 4
18.2682 11.9544 -2.68063 0.0471105 1
23.8287 15.5931 -2.49143 0.483266 10
23.828 15.5926 -1.49239 0.484461 10
23.8274 15.5922 -0.497044 0.485066 10
23.8267 15.5918 0.49703 0.485079 10
23.8261 15.5913 1.49226 0.377772 10
23.8254 15.5909 2.49109 0.376861 10
23.8248 15.5905 3.49598 0.375491 10
23.8241 15.59 4.50947 0.373664 10
23.8234 15.5896 5.53418 0.371381 10
23.8227 15.5892 6.57283 0.368646 10
23.822 15.5887 7.62831 0.365462 10
8.19168 5.40142 -2.62917 0.0758178 4
9.49543 6.26108 -2.62586 0.0115202 4
11.3308 7.47127 -2.63818 0.198939 4
13.1984 8.70276 -2.50396 0.0409548 4
18.2268 12.0184 -2.6807 0.0471094 1
23.6473 15.5925 -2.47814 0.485859 10
23.6466 15.5921 -1.48442 0.48706 10
23.646 15.5916 -0.494392 0.487668 10
23.6453 15.5912 0.494378 0.487681 10
23.6447 15.5908 1.4843 0.379798 10
23.644 15.5904 2.4778 0.378882 10
23.6434 15.5899 3.47733 0.377505 10
23.6427 15.5895 4.48541 0.375668 10
23.6421 15.5891 5.50465 0.373373 10
23.6414 15.5886 6.53777 0.370624 10
23.6407 15.5882 7.58761 0.367422 10
8.17287 5.43004 -2.6292 0.0228654 4
9.47364 6.29427 -2.62589 0.0193747 4
11.2511 7.47524 -2.6257 0.198561 4
13.1682 8.74895 -2.50401 0.0544835 4
18.1852 12.0822 -2.68076 0.0471082 1
23.4678 15.5919 -2.46502 0.488446 10
23.4671 15.5915 -1.47656 0.489653 10
23.4665 15.5911 -0.491774 0.490264 10
23.4658 15.5907 0.49176 0.490277 10
23.4652 15.5902 1.47644 0.38182 10
23.4646 15.5898 2.46468 0.380899 10
23.4639 15.5894 3.45892 0.379515 10
23.4633 15.589 4.46167 0.377668 10
23.4626 15.5885 5.47551 0.375361 10
23.4619 15.5881 6.50315 0.372596 10
23.4613 15.5876 7.54744 0.369378 10
8.15396 5.4586 -2.62923 0.0373063 4
9.45174 6.32738 -2.62593 0.0319417 4
11.1722 7.47916 -2.61336 0.147629 4
13.1379 8.79503 -2.50406 0.0340058 4
18.1434 12.1459 -2.68083 0.047107 1
23.2901 15.5914 -2.45206 0.491027 10
23.2895 15.591 -1.4688 0.49224 10
23.2889 15.5905 -0.48919 0.492854 10
23.2882 15.5901 0.489176 0.492867 10
23.2876 15.5897 1.46868 0.383837 10
23.287 15.5893 2.45173 0.382911 10
23.2863 15.5889 3.44074 0.381519 10
23.2857 15.5884 4.43822 0.379663 10
23.2851 15.588 5.44674 0.377343 10
23.2844 15.5875 6.46899 0.374564 10
23.2837 15.5871 7.50779 0.371329 10
8.13495 5.48709 -2.62926 0.0252717 4
9.42972 6.36042 -2.62596 0.0219923 4
11.0941 7.48304 -2.60117 0.192416 4
13.1073 8.84101 -2.50411 0.0464372 4
18.1013 12.2095 -2.6809 0.0471059 1
23.1144 15.5908 -2.43927 0.493601 10
23.1138 15.5904 -1.46114 0.494821 10
23.1131 15.59 -0.486638 0.495438 10
23.1125 15.5896 0.486625 0.495451 10
23.1119 15.5892 1.46102 0.385849 10
23.1113 15.5887 2.43894 0.384919 10
23.1106 15.5883 3.4228 0.38352 10
23.11 15.5879 4.41508 0.381653 10
23.1094 15.5875 5.41833 0.379322 10
23.1087 15.587 6.43525 0.376528 10
23.108 15.5866 7.46864 0.373275 10
8.11584 5.51552 -2.62929 0.0198561 4
9.40759 6.39339 -2.626 0.0230393 4
11.0166 7.48687 -2.58912 0.1866 4
13.0767 8.88688 -2.50416 0.0460706 4
18.059 12.2729 -2.68096 0.0471047 1
22.9404 15.5903 -2.42664 0.49617 10
22.9398 15.5899 -1.45358 0.497396 10
22.9392 15.5895 -0.484119 0.498016 10
22.9386 15.589 0.484106 0.498029 10
22.938 15.5886 1.45346 0.387857 10
22.9374 15.5882 2.42632 0.386922 10
22.9367 15.5878 3.40508 0.385515 10
22.9361 15.5874 4.39222 0.383639 10
22.9355 15.5869 5.39029 0.381295 10
22.9348 15.5865 6.40195 0.378487 10
22.9342 15.5861 7.42999 0.375217 10
8.09663 5.54388 -2.62932 0.0252711 4
9.38534 6.42627 -2.62603 0.0115195 4
10.9398 7.49065 -2.57721 0.200949 4
13.0458 8.93265 -2.50421 0.0493604 4
18.0166 12.3362 -2.68103 0.0471035 1
22.7683 15.5898 -2.41417 0.498732 10
22.7677 15.5894 -1.44611 0.499965 10
22.7671 15.5889 -0.481632 0.500588 10
22.7665 15.5885 0.481618 0.500601 10
22.7659 15.5881 1.44599 0.38986 10
22.7652 15.5877 2.41385 0.38892 10
22.7646 15.5873 3.38759 0.387506 10
22.764 15.5868 4.36966 0.38562 10
22.7634 15.5864 5.3626 0.383264 10
22.7628 15.586 6.36906 0.380441 10
22.7621 15.5855 7.39182 0.377154 10
8.07733 5.57217 -2.62935 0.0577619 4
9.36298 6.45908 -2.62607 0.101579 4
10.8638 7.4944 -2.56543 0.163936 4
13.0148 8.97831 -2.50425 0.053747 4
17.9738 12.3993 -2.6811 0.0471023 1
22.0737 15.2276 -2.34614 0.501289 10
22.0731 15.2272 -1.40536 0.502527 10
22.0725 15.2268 -0.46806 0.503154 10
22.5961 15.588 0.479162 0.503167 10
22.0713 15.226 1.40525 0.391858 10
22.0707 15.2256 2.34583 0.390913 10
22.0701 15.2252 3.29213 0.389492 10
22.5937 15.5863 4.34738 0.387596 10
22.0689 15.2243 5.21149 0.385228 10
22.0683 15.2239 6.18959 0.382391 10
22.0677 15.2235 7.18353 0.379087 10
8.05793 5.6004 -2.62938 0.0463293 4
9.3405 6.49182 -2.62611 0.102625 4
10.7884 7.4981 -2.55379 0.198708 4
12.9837 9.02387 -2.50431 0.0530146 4
17.9309 12.4623 -2.68117 0.0471011 1
22.0509 15.3258 -2.34939 0.729595 10
22.0488 15.3243 -1.40721 0.731449 10
22.0467 15.3228 -0.468643 0.732406 10
22.4274 15.5875 0.476737 0.505727 10
22.0424 15.3199 1.4068 0.57048 10
22.0403 15.3184 2.34827 0.569143 10
22.0382 15.3169 3.29532 0.567114 10
22.4251 15.5858 4.32538 0.389568 10
22.0339 15.3139 5.2158 0.560985 10
22.0317 15.3124 6.19426 0.556893 10
22.0294 15.3109 7.18843 0.552123 10
8.03842 5.62856 -2.62941 0.0505405 4
9.31791 6.52447 -2.62614 0.0979115 4
10.7136 7.50175 -2.54228 0.0355466 4
12.9523 9.06932 -2.50436 0.0376579 4
17.8878 12.5251 -2.68124 0.0470998 1
22.0505 15.44 -2.35508 0.727832 10
22.0484 15.4385 -1.41062 0.729677 10
22.0463 15.437 -0.469778 0.730637 10
22.2605 15.587 0.474342 0.508281 10
22.0421 15.434 1.41021 0.569102 10
22.04 15.4325 2.35395 0.567769 10
22.0378 15.431 3.3033 0.565744 10
22.2581 15.5853 4.30365 0.391534 10
22.0335 15.428 5.22843 0.55963 10
22.0313 15.4265 6.20926 0.555548 10
22.0291 15.4249 7.20583 0.55079 10
8.01882 5.65666 -2.62944 0.0210583 4
9.29521 6.55705 -2.62618 0.105764 4
10.6395 7.50537 -2.53091 0.124972 4
12.9209 9.11466 -2.50441 0.0519157 4
17.8444 12.5878 -2.68131 0.0470986 1
22.0502 15.5547 -2.36083 0.726056 10
22.0481 15.5532 -1.41406 0.7279 10
22.046 15.5517 -0.470925 0.728858 10
22.0952 15.5865 0.471976 0.510828 10
22.0417 15.5487 1.41365 0.567716 10
22.0396 15.5472 2.3597 0.566387 10
22.0375 15.5457 3.31136 0.564367 10
22.0929 15.5848 4.28219 0.393497 10
22.0331 15.5427 5.24118 0.558268 10
22.0309 15.5411 6.2244 0.554197 10
22.0287 15.5395 7.2234 0.54945 10
7.99913 5.68468 -2.62948 0.0132365 4
9.2724 6.58955 -2.62622 0.0916258 4
10.5661 7.50894 -2.51966 0.184846 4
12.8892 9.1599 -2.50446 0.0420435 4
17.8008 12.6504 -2.68138 0.0470974 1
22.0199 15.6487 -2.36342 0.724266 10
22.0178 15.6472 -1.41561 0.726106 10
22.0157 15.6457 -0.471441 0.727062 10
21.9316 15.586 0.46964 0.513369 10
22.0114 15.6427 1.4152 0.361526 10
22.0093 15.6412 2.36228 0.36068 10
22.0072 15.6397 3.31499 0.359394 10
21.9293 15.5843 4.26099 0.395454 10
22.0028 15.6366 5.24692 0.35551 10
22.0006 15.635 6.23122 0.352917 10
21.9984 15.6334 7.23131 0.349895 10
7.97933 5.71264 -2.62951 0.0174479 4
9.24947 6.62197 -2.62625 0.101049 4
10.5017 7.51849 -2.51055 0.0689517 4
12.8574 9.20502 -2.50451 0.0442362 4
17.757 12.7128 -2.68145 0.0470961 1
21.7695 15.5855 0.467333 0.515904 10
21.7673 15.5838 4.24006 0.397406 10
7.95944 5.74053 -2.62954 0.0234641 4
9.22643 6.65431 -2.62629 0.0251309 4
10.4756 7.55523 -2.51059 0.0471532 4
12.8255 9.25004 -2.50456 0.0456976 4
17.713 12.775 -2.68152 0.0470948 1
21.6091 15.585 0.465053 0.518433 10
21.6068 15.5833 4.21938 0.399354 10
7.93946 5.76835 -2.62957 0.0234638 4
9.20783 6.68988 -2.62763 0.0446409 4
10.4493 7.59188 -2.51063 0.0587181 4
12.7934 9.29495 -2.50462 0.0533736 4
17.6688 12.8371 -2.68159 0.0470936 1
21.4502 15.5845 0.462802 0.520955 10
21.448 15.5829 4.19896 0.401297 10
7.91937 5.7961 -2.62961 0.0276749 4
9.22435 6.7512 -2.63905 0.0265602 4
10.4229 7.62844 -2.51068 0.0578275 4
12.7612 9.33975 -2.50467 0.0592216 4
17.6244 12.8991 -2.68167 0.0470923 1
21.2928 15.584 0.460577 0.523471 10
21.2906 15.5824 4.17878 0.403235 10
7.89919 5.82378 -2.62964 0.0120324 4
9.24081 6.81291 -2.65055 0.0307626 4
10.8574 8.00474 -2.62203 0.0329166 4
12.7287 9.38444 -2.50472 0.0508125 4
17.5797 12.9609 -2.68174 0.047091 1
21.137 15.5835 0.45838 0.525981 10
21.1348 15.5819 4.15884 0.405168 10
7.87891 5.8514 -2.62967 0.0739983 4
9.25719 6.87499 -2.66211 0.0373458 4
10.8295 8.04273 -2.62208 0.0756179 4
12.6962 9.42902 -2.50478 0.0486181 4
17.5348 13.0225 -2.68182 0.0470897 1
20.4974 15.2227 -2.23374 0.526513 10
20.4969 15.2223 -1.33803 0.527813 10
20.4964 15.2219 -0.445637 0.52847 10
20.9826 15.583 0.456208 0.528484 10
20.4953 15.2212 1.33793 0.411574 10
20.4948 15.2208 2.23346 0.410581 10
20.4943 15.2204 3.13444 0.409087 10
20.9805 15.5815 4.13914 0.407096 10
20.4932 15.2196 4.96187 0.404608 10
20.4927 15.2192 5.89313 0.401627 10
20.4921 15.2188 6.83947 0.398157 10
7.85854 5.87894 -2.62971 0.0162433 4
9.2735 6.93746 -2.67375 0.0350432 4
10.8016 8.08063 -2.62213 0.0382531 4
12.6635 9.47348 -2.50483 0.048617 4
17.4898 13.084 -2.68189 0.0470884 1
20.4906 15.3289 -2.23882 0.711553 10
20.4886 15.3274 -1.34098 0.713362 10
20.4866 15.3259 -0.446585 0.714303 10
20.8297 15.5826 0.454063 0.53098 10
20.4826 15.3229 1.34058 0.556381 10
20.4806 15.3214 2.23772 0.555079 10
20.4785 15.3199 3.14019 0.553101 10
20.8275 15.581 4.11968 0.409019 10
20.4744 15.3168 4.97023 0.547126 10
20.4723 15.3152 5.90261 0.543137 10
20.4702 15.3136 6.84995 0.538486 10
7.83807 5.90641 -2.62974 0.0589565 4
9.28975 7.00032 -2.68546 0.0308953 4
10.7735 8.11843 -2.62217 0.0360284 4
12.6306 9.51783 -2.50488 0.0314359 4
17.4445 13.1454 -2.68196 0.0470871 1
20.4903 15.4405 -2.24466 0.709702 10
20.4883 15.439 -1.34447 0.711507 10
20.4862 15.4375 -0.44775 0.712445 10
20.6782 15.5821 0.451944 0.533471 10
20.4822 15.4345 1.34408 0.554934 10
20.4802 15.4329 2.24356 0.553636 10
20.4782 15.4314 3.14837 0.551663 10
20.6761 15.5805 4.10045 0.410937 10
20.474 15.4283 4.98319 0.545704 10
20.4719 15.4267 5.91799 0.541725 10
20.4698 15.4251 6.8678 0.537086 10
7.81751 5.93381 -2.62978 0.0240636 4
9.30591 7.06357 -2.69725 0.0350031 4
10.7453 8.15613 -2.62222 0.0765034 4
12.5976 9.56207 -2.50494 0.0244902 4
17.399 13.2065 -2.68204 0.0470857 1
20.4899 15.5527 -2.25056 0.707842 10
20.4879 15.5512 -1.34801 0.709643 10
20.4859 15.5496 -0.448926 0.710578 10
20.5281 15.5816 0.449849 0.535955 10
20.4819 15.5466 1.34761 0.553481 10
20.4798 15.545 2.24945 0.552186 10
20.4778 15.5435 3.15664 0.550218 10
20.526 15.5801 4.08145 0.41285 10
20.4737 15.5404 4.99627 0.544275 10
20.4716 15.5388 5.93353 0.540307 10
20.4694 15.5371 6.88582 0.53568 10
7.79685 5.96114 -2.62981 0.0324854 4
9.30072 7.11094 -2.70292 0.0862412 1
10.717 8.19374 -2.62227 0.0827289 4
12.5644 9.6062 -2.50499 0.00877242 4
17.3533 13.2676 -2.68212 0.0470844 1
20.3809 15.5823 -2.24454 0.536425 10
20.3804 15.582 -1.3445 0.537749 10
20.3799 15.5816 -0.447791 0.538418 10
20.3793 15.5812 0.44778 0.538432 10
20.3788 15.5808 1.3444 0.419321 10
20.3783 15.5804 2.24426 0.418309 10
20.3778 15.58 3.14959 0.416787 10
20.3773 15.5796 4.06268 0.414758 10
20.3768 15.5792 4.98587 0.412223 10
20.3763 15.5788 5.92163 0.409186 10
20.3757 15.5784 6.87256 0.405651 10
7.7761 5.9884 -2.62985 0.0511337 4
9.27599 7.14347 -2.70296 0.0862398 1
10.6885 8.23124 -2.62231 0.0604889 4
12.5311 9.65022 -2.50505 0.038013 4
17.3073 13.3284 -2.68219 0.0470831 1
20.2335 15.5819 -2.23429 0.538886 10
20.233 15.5815 -1.33836 0.540217 10
20.2325 15.5811 -0.445746 0.540889 10
20.232 15.5807 0.445734 0.540902 10
20.2315 15.5804 1.33826 0.421245 10
20.231 15.58 2.23401 0.420228 10
20.2305 15.5796 3.13521 0.4187 10
20.23 15.5792 4.04412 0.416661 10
20.2295 15.5788 4.9631 0.414114 10
20.229 15.5784 5.89459 0.411063 10
20.2284 15.578 6.84117 0.407512 10
7.75525 6.01559 -2.62988 0.0162423 4
9.25114 7.17592 -2.70301 0.0862385 1
10.6599 8.26865 -2.62236 0.0613773 4
12.4976 9.69412 -2.50511 0.0186406 4
17.2612 13.3892 -2.68227 0.0470817 1
20.0875 15.5814 -2.22415 0.541341 10
20.087 15.5811 -1.33229 0.542678 10
20.0865 15.5807 -0.443724 0.543353 10
20.086 15.5803 0.443713 0.543366 10
20.0855 15.5799 1.33219 0.423164 10
20.085 15.5795 2.22388 0.422143 10
20.0845 15.5791 3.12099 0.420607 10
20.084 15.5787 4.02578 0.418559 10
20.0835 15.5783 4.94059 0.416001 10
20.083 15.578 5.86786 0.412936 10
20.0825 15.5775 6.81015 0.409368 10
7.73431 6.0427 -2.62992 0.0192498 4
9.22618 7.20828 -2.70305 0.0862372 1
10.6312 8.30597 -2.62241 0.0493678 4
12.4639 9.7379 -2.50516 0.0416662 4
17.2149 13.4497 -2.68235 0.0470803 1
19.9428 15.581 -2.21414 0.54379 10
19.9423 15.5806 -1.32629 0.545132 10
19.9418 15.5802 -0.441726 0.545811 10
19.9413 15.5798 0.441715 0.545824 10
19.2469 15.0373 1.28004 0.545172 10
19.9403 15.5791 2.21387 0.424052 10
19.9398 15.5787 3.10694 0.422509 10
19.9393 15.5783 4.00766 0.420452 10
19.9388 15.5779 4.91835 0.417882 10
19.9383 15.5775 5.84145 0.414803 10
19.9378 15.5771 6.7795 0.411219 10
7.71327 6.06975 -2.62995 0.0391007 4
9.2011 7.24055 -2.70309 0.0862358 1
10.596 8.3382 -2.62089 0.17729 4
12.4302 9.78157 -2.50522 0.046782 4
17.1683 13.5101 -2.68243 0.047079 1
19.7993 15.5805 -2.20424 0.546232 10
19.7989 15.5802 -1.32036 0.54758 10
19.7984 15.5798 -0.439752 0.548261 10
19.7979 15.5794 0.439741 0.548275 10
19.1085 15.0369 1.27432 0.54762 10
19.7969 15.5786 2.20397 0.425956 10
19.7964 15.5783 3.09305 0.424406 10
19.7959 15.5779 3.98975 0.422339 10
19.7955 15.5775 4.89637 0.419758 10
19.795 15.5771 5.81534 0.416665 10
19.7944 15.5767 6.7492 0.413065 10
7.69215 6.09672 -2.62999 0.0192493 4
9.17592 7.27274 -2.70313 0.0862345 1
10.5281 8.34449 -2.6113 0.192064 4
12.3962 9.82513 -2.50528 0.0504357 4
17.1216 13.5704 -2.68251 0.0470776 1
19.6572 15.5801 -2.19446 0.548667 10
19.6567 15.5797 -1.3145 0.550021 10
19.6562 15.5793 -0.4378 0.550706 10
19.6558 15.579 0.437789 0.550719 10
18.9713 15.0365 1.26867 0.550061 10
19.6548 15.5782 2.19419 0.427854 10
19.6543 15.5778 3.07933 0.426298 10
19.6538 15.5774 3.97204 0.424222 10
19.6534 15.5771 4.87464 0.421629 10
19.6529 15.5767 5.78953 0.418523 10
19.6524 15.5763 6.71925 0.414906 10
7.67092 6.12362 -2.63002 0.0559425 4
9.15062 7.30484 -2.70318 0.0862331 1
10.4608 8.35071 -2.60181 0.202686 4
12.3621 9.86857 -2.50534 0.0529928 4
17.0746 13.6305 -2.68259 0.0470762 1
19.5163 15.5797 -2.18479 0.551095 10
19.5158 15.5793 -1.30871 0.552456 10
19.5154 15.5789 -0.435871 0.553143 10
19.5149 15.5785 0.43586 0.553156 10
18.8354 15.0361 1.26308 0.552496 10
19.514 15.5778 2.18452 0.429748 10
19.5135 15.5774 3.06576 0.428184 10
19.513 15.577 3.95454 0.426099 10
19.5125 15.5766 4.85316 0.423495 10
19.512 15.5762 5.76403 0.420375 10
19.5115 15.5758 6.68965 0.416742 10
7.64961 6.15044 -2.63006 0.0553402 4
9.12521 7.33686 -2.70322 0.0862317 1
10.3938 8.35686 -2.5924 0.173548 4
12.3279 9.91189 -2.50539 0.0551844 4
17.0274 13.6904 -2.68267 0.0470748 1
19.3767 15.5792 -2.17523 0.553517 10
19.3762 15.5789 -1.30298 0.554884 10
19.3757 15.5785 -0.433964 0.555574 10
19.3753 15.5781 0.433953 0.555587 10
18.7006 15.0357 1.25755 0.554924 10
19.3743 15.5774 2.17497 0.431636 10
19.3739 15.577 3.05235 0.430066 10
19.3734 15.5766 3.93724 0.427972 10
19.3729 15.5762 4.83193 0.425356 10
19.3724 15.5758 5.73881 0.422222 10
19.3719 15.5754 6.66038 0.418573 10
7.62819 6.17719 -2.6301 0.0427076 4
9.09969 7.36879 -2.70326 0.0862303 1
10.3274 8.36296 -2.5831 0.192733 4
13.2116 10.6985 -2.69256 0.0602043 1
16.98 13.7502 -2.68275 0.0470734 1
19.2382 15.5788 -2.16578 0.555932 10
19.2378 15.5784 -1.29732 0.557305 10
19.2373 15.5781 -0.432079 0.557998 10
19.2368 15.5777 0.432068 0.558011 10
18.567 15.0353 1.25209 0.557345 10
19.2359 15.5769 2.16552 0.433519 10
19.2354 15.5766 3.03909 0.431942 10
19.235 15.5762 3.92014 0.429839 10
19.2345 15.5758 4.81095 0.427211 10
19.234 15.5754 5.71389 0.424063 10
19.2335 15.575 6.63146 0.420399 10
7.60669 6.20387 -2.63013 0.0186467 4
9.07406 7.40062 -2.70331 0.0862289 1
10.2614 8.36899 -2.57388 0.171932 4
13.1745 10.7448 -2.69262 0.0602029 1
16.9324 13.8098 -2.68283 0.0470719 1
19.101 15.5784 -2.15644 0.558341 10
19.1005 15.578 -1.29173 0.559719 10
19.1001 15.5776 -0.430215 0.560415 10
19.0996 15.5773 0.430205 0.560428 10
18.4346 15.0349 1.24669 0.559759 10
19.0987 15.5765 2.15618 0.435397 10
19.0982 15.5761 3.02598 0.433813 10
19.0978 15.5758 3.90323 0.4317 10
19.0973 15.5754 4.7902 0.429062 10
19.0968 15.575 5.68925 0.4259 10
19.0963 15.5746 6.60286 0.42222 10
7.5851 6.23047 -2.63017 0.016842 4
9.04832 7.43237 -2.70335 0.0862275 1
10.1959 8.37497 -2.56476 0.158165 4
13.1372 10.791 -2.69268 0.0602015 1
16.8846 13.8692 -2.68291 0.0470705 1
18.9649 15.5779 -2.1472 0.560742 10
18.9645 15.5776 -1.28619 0.562126 10
18.964 15.5772 -0.428373 0.562825 10
18.9636 15.5768 0.428362 0.562838 10
18.3033 15.0345 1.24135 0.562166 10
18.9627 15.5761 2.14695 0.43727 10
18.9622 15.5757 3.01303 0.435678 10
18.9618 15.5753 3.88652 0.433557 10
18.9613 15.575 4.76969 0.430907 10
18.9608 15.5746 5.66489 0.427731 10
18.9603 15.5742 6.57459 0.424035 10
7.56341 6.257 -2.63021 0.0162402 4
9.00101 7.44628 -2.69696 0.179285 4
10.1307 8.38088 -2.55572 0.18614 4
13.0998 10.8371 -2.69275 0.0602001 1
16.8366 13.9285 -2.68299 0.0470691 1
18.83 15.5775 -2.13807 0.563137 10
18.8296 15.5772 -1.28072 0.564526 10
18.8291 15.5768 -0.426551 0.565228 10
18.8287 15.5764 0.426541 0.565242 10
18.1731 15.0341 1.23607 0.564566 10
18.8278 15.5757 2.13782 0.439137 10
18.8273 15.5753 3.00022 0.437539 10
18.8269 15.5749 3.87 0.435408 10
18.8264 15.5746 4.74941 0.432746 10
18.826 15.5742 5.6408 0.429558 10
18.8255 15.5738 6.54664 0.425846 10
7.54163 6.28345 -2.63024 0.0198489 4
8.94119 7.44952 -2.68682 0.183012 4
10.0661 8.38673 -2.54678 0.208514 4
13.0622 10.883 -2.69281 0.0601986 1
16.7884 13.9876 -2.68307 0.0470676 1
18.8093 15.6713 -2.14192 0.682891 10
18.8074 15.6697 -1.28293 0.68463 10
18.8055 15.6681 -0.427252 0.685535 10
18.8036 15.6665 0.427208 0.685605 10
18.044 15.0337 1.23085 0.56696 10
18.7997 15.6633 2.14083 0.53273 10
18.7978 15.6617 3.0042 0.530834 10
18.7958 15.6601 3.87483 0.528291 10
18.7938 15.6584 4.75495 0.525104 10
18.7918 15.6568 5.64692 0.521278 10
18.7898 15.6551 6.55319 0.516816 10
7.51976 6.30983 -2.63028 0.0390958 4
8.88181 7.45272 -2.67677 0.0918495 4
10.0018 8.39253 -2.53792 0.191805 4
13.0244 10.9288 -2.69288 0.0601972 1
16.74 14.0465 -2.68316 0.0470661 1
18.809 15.7826 -2.14814 0.680912 10
18.8071 15.781 -1.28666 0.682647 10
18.8051 15.7794 -0.428493 0.68355 10
18.8032 15.7778 0.428449 0.68362 10
17.916 15.0333 1.22569 0.569347 10
18.7994 15.7745 2.14704 0.531188 10
18.7974 15.7729 3.01292 0.529297 10
18.7954 15.7712 3.88607 0.526762 10
18.7935 15.7696 4.76875 0.523584 10
18.7915 15.7679 5.66331 0.519769 10
18.7894 15.7662 6.57221 0.51532 10
7.4978 6.33613 -2.63032 0.0565377 4
8.82286 7.45589 -2.66684 0.078363 4
9.93802 8.39827 -2.52915 0.205593 4
12.9865 10.9744 -2.69294 0.0601957 1
16.6914 14.1053 -2.68324 0.0470647 1
18.8087 15.8946 -2.15443 0.678926 10
18.8067 15.8929 -1.29042 0.680655 10
18.8048 15.8913 -0.429747 0.681556 10
18.8029 15.8896 0.429702 0.681626 10
17.789 15.0329 1.22059 0.571727 10
18.799 15.8864 2.15332 0.529639 10
18.797 15.8847 3.02173 0.527754 10
18.7951 15.8831 3.89744 0.525226 10
18.7931 15.8814 4.7827 0.522058 10
18.7911 15.8797 5.67987 0.518254 10
18.789 15.878 6.59142 0.513818 10
7.47574 6.36235 -2.63036 0.1239 4
8.76433 7.45903 -2.657 0.172728 4
9.87462 8.40396 -2.52047 0.179965 4
12.9484 11.02 -2.69301 0.0601942 1
16.6426 14.164 -2.68332 0.0470632 1
18.8083 16.0071 -2.16078 0.676931 10
18.8064 16.0055 -1.29422 0.678655 10
18.8044 16.0038 -0.431013 0.679553 10
18.8025 16.0022 0.430968 0.679623 10
17.6631 15.0325 1.21555 0.5741 10
18.7986 15.9989 2.15966 0.528083 10
18.7967 15.9972 3.03063 0.526204 10
18.7947 15.9955 3.90892 0.523684 10
18.7927 15.9938 4.79678 0.520525 10
18.7907 15.9921 5.69659 0.516732 10
18.7886 15.9904 6.61083 0.51231 10
7.4536 6.3885 -2.6304 0.00360868 4
8.70623 7.46214 -2.64726 0.160981 4
9.81163 8.40959 -2.51187 0.0836838 4
12.9102 11.0654 -2.69308 0.0601927 1
16.5936 14.2224 -2.68341 0.0470617 1
18.808 16.1204 -2.16719 0.674928 10
18.806 16.1187 -1.29806 0.676647 10
18.8041 16.1171 -0.432292 0.677543 10
18.8022 16.1154 0.432247 0.677613 10
17.5383 15.0321 1.21056 0.576465 10
18.7983 16.1121 2.16607 0.526522 10
18.7963 16.1104 3.03962 0.524648 10
18.7943 16.1087 3.92051 0.522135 10
18.7923 16.107 4.81101 0.518986 10
18.7903 16.1052 5.71348 0.515205 10
18.7882 16.1035 6.63043 0.510796 10
7.43136 6.41458 -2.63044 0.0547309 4
8.64853 7.46521 -2.63763 0.250121 4
9.78182 8.44344 -2.51176 0.0698076 4
12.8718 11.1107 -2.69314 0.0601913 1
16.5444 14.2807 -2.6835 0.0470602 1
18.8077 16.2343 -2.17367 0.672916 10
18.8057 16.2326 -1.30194 0.674631 10
18.8038 16.231 -0.433584 0.675524 10
18.8018 16.2293 0.433539 0.675594 10
17.4144 15.0317 1.20562 0.578824 10
18.7979 16.2259 2.17254 0.524953 10
18.7959 16.2242 3.0487 0.523085 10
18.794 16.2225 3.93222 0.52058 10
18.7919 16.2208 4.82537 0.517441 10
18.7899 16.219 5.73054 0.513671 10
18.7878 16.2172 6.65023 0.509275 10
7.40903 6.44057 -2.63047 0.119684 4
8.59124 7.46825 -2.62809 0.205812 4
9.75248 8.4777 -2.51181 0.0502426 4
12.8333 11.1558 -2.69321 0.0601898 1
16.4949 14.3388 -2.68358 0.0470587 1
18.8073 16.349 -2.18021 0.670897 10
18.8054 16.3472 -1.30586 0.672607 10
18.8034 16.3455 -0.434889 0.673497 10
18.8015 16.3439 0.434843 0.673567 10
17.2916 15.0314 1.20075 0.581176 10
18.7975 16.3405 2.17908 0.523378 10
18.7956 16.3387 3.05787 0.521516 10
18.7936 16.337 3.94405 0.519019 10
18.7916 16.3353 4.83989 0.515889 10
18.7895 16.3335 5.74778 0.512131 10
18.7875 16.3317 6.67023 0.507748 10
7.38662 6.46649 -2.63051 0.125095 4
8.53436 7.47126 -2.61865 0.192471 4
9.72303 8.51187 -2.51187 0.0649139 4
12.7946 11.2008 -2.69328 0.0601883 1
16.4453 14.3968 -2.68367 0.0470572 1
18.807 16.4643 -2.18682 0.668869 10
18.805 16.4625 -1.30982 0.670574 10
18.8031 16.4608 -0.436207 0.671462 10
18.8011 16.4591 0.436161 0.671532 10
17.1698 15.031 1.19592 0.583521 10
18.7972 16.4557 2.18568 0.521797 10
18.7952 16.4539 3.06714 0.519941 10
18.7932 16.4522 3.95599 0.517451 10
18.7912 16.4504 4.85455 0.514331 10
18.7891 16.4486 5.76519 0.510584 10
18.7871 16.4468 6.69042 0.506215 10
7.36411 6.49233 -2.63055 0.122086 4
8.47787 7.47424 -2.60931 0.179026 4
9.69346 8.54593 -2.51192 0.0715817 4
12.7557 11.2457 -2.69334 0.0601867 1
16.3955 14.4546 -2.68375 0.0470557 1
18.8066 16.5803 -2.1935 0.666833 10
18.8047 16.5785 -1.31382 0.668533 10
18.8027 16.5768 -0.437538 0.669419 10
18.8007 16.5751 0.437492 0.669489 10
17.0489 15.0306 1.19115 0.585858 10
18.7968 16.5716 2.19235 0.52021 10
18.7948 16.5698 3.07649 0.51836 10
18.7928 16.5681 3.96806 0.515878 10
18.7908 16.5663 4.86936 0.512767 10
18.7887 16.5645 5.78277 0.509032 10
18.7867 16.5627 6.71083 0.504676 10
7.34151 6.5181 -2.63059 0.105847 4
8.42176 7.47719 -2.60006 0.184391 4
9.66377 8.57989 -2.51197 0.0689126 4
12.7167 11.2904 -2.69341 0.0601852 1
16.3455 14.5122 -2.68384 0.0470541 1
18.8063 16.697 -2.20024 0.664789 10
18.8043 16.6952 -1.31786 0.666484 10
18.8023 16.6935 -0.438883 0.667367 10
18.8004 16.6917 0.438837 0.667437 10
16.929 15.0302 1.18643 0.588188 10
18.7964 16.6882 2.19909 0.518616 10
18.7944 16.6865 3.08595 0.516772 10
18.7924 16.6847 3.98025 0.514297 10
18.7904 16.6829 4.88432 0.511196 10
18.7883 16.6811 5.80053 0.507473 10
18.7862 16.6792 6.73144 0.503131 10
7.31883 6.54378 -2.63063 0.127495 4
8.36605 7.48011 -2.5909 0.197695 4
9.63396 8.61375 -2.51202 0.0506831 4
12.6775 11.335 -2.69348 0.0601837 1
16.2952 14.5696 -2.68393 0.0470526 1
18.806 16.8145 -2.20706 0.662737 10
18.804 16.8127 -1.32194 0.664427 10
18.802 16.8109 -0.440242 0.665307 10
18.8 16.8091 0.440195 0.665377 10
16.81 15.0299 1.18176 0.590512 10
18.7961 16.8056 2.20589 0.517016 10
18.794 16.8038 3.0955 0.515177 10
18.792 16.802 3.99257 0.512711 10
18.79 16.8002 4.89943 0.50962 10
18.7879 16.7984 5.81848 0.505908 10
18.7858 16.7965 6.75226 0.501579 10
7.29605 6.56939 -2.63067 0.111256 4
8.31071 7.483 -2.58184 0.226957 4
9.60403 8.64751 -2.51207 0.059129 4
12.6382 11.3795 -2.69355 0.0601821 1
16.2448 14.6269 -2.68402 0.047051 1
18.8056 16.9326 -2.21394 0.660677 10
18.8036 16.9308 -1.32606 0.662362 10
18.8016 16.9291 -0.441615 0.66324 10
18.7996 16.9273 0.441568 0.66331 10
16.692 15.0295 1.17715 0.592828 10
18.7957 16.9237 2.21277 0.51541 10
18.7937 16.9219 3.10514 0.513577 10
18.7916 16.9201 4.00501 0.511118 10
18.7896 16.9182 4.91469 0.508037 10
18.7875 16.9164 5.83661 0.504336 10
18.7854 16.9145 6.7733 0.500022 10
7.27319 6.59492 -2.63071 0.118471 4
8.25575 7.48586 -2.57286 0.164043 4
9.57399 8.68116 -2.51213 0.0635735 4
12.5988 11.4238 -2.69362 0.0601806 1
16.1942 14.684 -2.68411 0.0470495 1
18.8053 17.0516 -2.22089 0.658608 10
18.8033 17.0497 -1.33023 0.660288 10
18.8013 17.0479 -0.443001 0.661164 10
18.7993 17.0461 0.442954 0.661234 10
16.5749 15.0292 1.17258 0.595137 10
18.7953 17.0425 2.21971 0.513797 10
18.7933 17.0407 3.11489 0.51197 10
18.7913 17.0389 4.01758 0.509519 10
18.7892 17.037 4.93011 0.506448 10
18.7871 17.0351 5.85492 0.502759 10
18.785 17.0332 6.79454 0.498458 10
7.25023 6.62037 -2.63075 0.111854 4
8.20116 7.48868 -2.56398 0.158219 4
9.54383 8.71472 -2.51218 0.0680177 4
12.5591 11.4681 -2.69369 0.060179 1
16.1434 14.7409 -2.6842 0.0470479 1
18.8049 17.1712 -2.22792 0.656532 10
18.8029 17.1694 -1.33443 0.658207 10
18.8009 17.1676 -0.444402 0.65908 10
18.7989 17.1658 0.444354 0.65915 10
16.4586 15.0288 1.16806 0.597438 10
18.7949 17.1621 2.22673 0.512178 10
18.7929 17.1603 3.12473 0.510357 10
18.7909 17.1584 4.03028 0.507914 10
18.7888 17.1565 4.94569 0.504853 10
18.7867 17.1546 5.87342 0.501176 10
18.7846 17.1527 6.81601 0.496888 10
7.22719 6.64574 -2.63079 0.043899 4
8.14693 7.49148 -2.55519 0.218099 4
9.51356 8.74816 -2.51223 0.0635708 4
12.5193 11.5121 -2.69376 0.0601775 1
16.0924 14.7977 -2.68429 0.0470463 1
18.8045 17.2917 -2.23501 0.654448 10
18.8025 17.2898 -1.33868 0.656117 10
18.8005 17.288 -0.445817 0.656988 10
18.7985 17.2861 0.445769 0.657058 10
16.3433 15.0285 1.16359 0.599733 10
18.7945 17.2824 2.23382 0.510553 10
18.7925 17.2806 3.13468 0.508738 10
18.7905 17.2787 4.0431 0.506303 10
18.7884 17.2768 4.96143 0.503251 10
18.7863 17.2749 5.8921 0.499586 10
18.7842 17.2729 6.83769 0.495313 10
7.20406 6.67103 -2.63084 0.060736 4
8.09307 7.49426 -2.54648 0.260682 4
9.48317 8.7815 -2.51229 0.0702375 4
12.4794 11.5561 -2.69383 0.0601759 1
16.0412 14.8543 -2.68438 0.0470448 1
18.8042 17.4129 -2.24218 0.652356 10
18.8022 17.411 -1.34297 0.65402 10
18.8002 17.4091 -0.447246 0.654888 10
18.7982 17.4073 0.447198 0.654958 10
16.2289 15.0281 1.15917 0.60202 10
15.8385 14.6666 1.88855 0.468268 10
15.8381 14.6663 2.6504 0.466563 10
15.8378 14.6659 3.41877 0.46429 10
18.788 17.3979 4.97733 0.501644 10
15.837 14.6653 4.98313 0.458051 10
15.8367 14.6649 5.78336 0.454092 10
7.19969 6.71382 -2.63778 0.0418049 4
8.03955 7.497 -2.53786 0.224431 4
9.45266 8.81474 -2.51234 0.0564555 4
12.4393 11.5999 -2.6939 0.0601743 1
15.9898 14.9107 -2.68447 0.0470432 1
18.8038 17.5348 -2.24942 0.650255 10
18.8018 17.533 -1.34731 0.651915 10
18.7998 17.5311 -0.448691 0.65278 10
18.7978 17.5292 0.448642 0.65285 10
16.1153 15.0278 1.1548 0.604299 10
15.7433 14.6809 1.8833 0.507296 10
15.7416 14.6793 2.6428 0.505493 10
15.7399 14.6777 3.40868 0.503074 10
18.7876 17.5197 4.99339 0.50003 10
15.7364 14.6744 4.96754 0.496397 10
15.7346 14.6727 5.76474 0.492151 10
7.20065 6.76186 -2.64676 0.041663 4
7.98639 7.49972 -2.52933 0.220328 4
9.42204 8.84788 -2.5124 0.0457858 4
12.3991 11.6435 -2.69397 0.0601727 1
15.9382 14.9669 -2.68456 0.0470416 1
18.8035 17.6576 -2.25674 0.648147 10
18.8014 17.6557 -1.35169 0.649802 10
18.7994 17.6538 -0.45015 0.650664 10
18.7974 17.6519 0.450101 0.650734 10
16.0026 15.0274 1.15047 0.606571 10
15.743 14.7836 1.88942 0.505652 10
15.7413 14.782 2.65139 0.503855 10
15.7395 14.7804 3.41976 0.501444 10
18.6932 17.5541 4.98456 0.464941 10
15.736 14.7771 4.98368 0.494789 10
15.7342 14.7754 5.78347 0.490557 10
7.20145 6.81007 -2.65578 0.0325356 4
7.93358 7.50241 -2.52088 0.221067 4
9.3913 8.88091 -2.51245 0.0595647 4
12.3587 11.687 -2.69405 0.0601711 1
15.8864 15.023 -2.68465 0.0470399 1
18.8031 17.7812 -2.26413 0.646031 10
18.8011 17.7793 -1.35612 0.64768 10
18.799 17.7774 -0.451624 0.648541 10
18.797 17.7754 0.451575 0.64861 10
15.8907 15.0271 1.14619 0.474717 10
15.7426 14.8871 1.89561 0.504002 10
15.7409 14.8854 2.66007 0.502211 10
15.7392 14.8838 3.43095 0.499808 10
15.8893 15.0257 4.25085 0.466676 10
15.7357 14.8805 4.99998 0.493175 10
15.7339 14.8788 5.80239 0.488957 10
7.20209 6.85846 -2.66483 0.0290282 4
7.89333 7.51671 -2.51642 0.0716817 4
9.36045 8.91383 -2.51251 0.0448948 4
12.3182 11.7304 -2.69412 0.0601695 1
15.8344 15.0789 -2.68474 0.0470383 1
18.8027 17.9056 -2.2716 0.643907 10
18.8007 17.9037 -1.36059 0.645551 10
18.7987 17.9017 -0.453113 0.646409 10
18.7966 17.8998 0.453064 0.646479 10
15.7796 15.0267 1.14196 0.476478 10
15.7423 14.9912 1.90186 0.502346 10
15.7406 14.9895 2.66884 0.500561 10
15.7388 14.9879 3.44226 0.498166 10
15.7782 15.0254 4.23515 0.468407 10
15.7353 14.9845 5.01646 0.491555 10
15.7335 14.9828 5.82151 0.487351 10
7.20257 6.90701 -2.67391 0.0446254 4
7.86719 7.54436 -2.51646 0.0737733 4
9.32948 8.94665 -2.51256 0.0644515 4
12.2775 11.7737 -2.69419 0.0601678 1
15.7822 15.1346 -2.68484 0.0470367 1
18.8024 18.0308 -2.27914 0.641775 10
18.8003 18.0289 -1.36511 0.643414 10
18.7983 18.0269 -0.454618 0.644269 10
18.7962 18.0249 0.454568 0.644339 10
15.6694 15.0264 1.13777 0.478232 10
15.712 15.0673 1.90455 0.319619 10
15.7103 15.0657 2.67261 0.318484 10
15.7086 15.064 3.44712 0.31696 10
15.668 15.0251 4.21961 0.470131 10
15.705 15.0606 5.02355 0.312757 10
15.7032 15.0589 5.82973 0.310082 10
7.20288 6.95574 -2.68302 0.0417134 4
7.84095 7.57192 -2.51651 0.0648774 4
9.2984 8.97936 -2.51262 0.066228 4
12.2366 11.8168 -2.69426 0.0601662 1
15.7298 15.1901 -2.68493 0.047035 1
18.802 18.1569 -2.28677 0.639636 10
18.7999 18.1549 -1.36968 0.641269 10
18.7979 18.1529 -0.456138 0.642122 10
18.7958 18.1509 0.456088 0.642192 10
15.5599 15.0261 1.13363 0.479981 10
15.5586 15.0247 4.20424 0.47185 10
15.6431 15.1064 5.82695 0.309049 10
7.20302 7.00463 -2.69217 0.0391263 4
7.81462 7.59939 -2.51656 0.0648762 4
9.2672 9.01196 -2.51267 0.0551147 4
12.1956 11.8597 -2.69434 0.0601646 1
15.6772 15.2454 -2.68502 0.0470334 1
18.8016 18.2838 -2.29447 0.637488 10
18.7996 18.2818 -1.37429 0.639117 10
18.7975 18.2798 -0.457675 0.639966 10
18.7955 18.2778 0.457624 0.640036 10
15.4513 15.0257 1.12952 0.481723 10
15.4499 15.0244 4.18904 0.473563 10
15.0783 14.663 4.85569 0.470073 10
7.203 7.0537 -2.70135 0.0386887 4
7.78819 7.62676 -2.51661 0.0606895 4
9.2359 9.04446 -2.51273 0.05378 4
12.1545 11.9026 -2.69441 0.0601629 1
15.6245 15.3006 -2.68512 0.0470317 1
18.8013 18.4115 -2.30225 0.635333 10
18.7992 18.4095 -1.37895 0.636956 10
18.7971 18.4075 -0.459227 0.637803 10
18.7951 18.4055 0.459176 0.637873 10
15.3434 15.0254 1.12547 0.48346 10
15.3421 15.0241 4.17399 0.47527 10
14.973 14.6627 4.83825 0.471767 10
7.19513 7.09536 -2.70767 0.0990515 1
8.10579 7.99339 -2.62823 0.121377 4
9.20448 9.07685 -2.51279 0.0564455 4
12.1132 11.9452 -2.69449 0.0601613 1
15.5715 15.3556 -2.68521 0.0470301 1
18.8009 18.5402 -2.31012 0.633171 10
18.7988 18.5381 -1.38366 0.634788 10
18.7967 18.5361 -0.460795 0.635633 10
18.7947 18.534 0.460744 0.635703 10
15.2363 15.0251 1.12145 0.485191 10
15.235 15.0238 4.1591 0.476972 10
14.8685 14.6623 4.82099 0.473456 10
15.303 15.0908 5.75882 0.299632 10
7.17044 7.12055 -2.70771 0.0990499 1
8.07799 8.02179 -2.62828 0.0198803 4
9.17295 9.10913 -2.51284 0.0537776 4
12.0718 11.9878 -2.69456 0.0601596 1
15.5184 15.4104 -2.68531 0.0470284 1
18.8005 18.6697 -2.31806 0.631 10
18.7984 18.6676 -1.38842 0.632612 10
18.7963 18.6656 -0.46238 0.633454 10
18.7943 18.6635 0.462328 0.633524 10
15.13 15.0247 1.11748 0.486916 10
15.1287 15.0234 4.14437 0.478667 10
14.7648 14.662 4.80391 0.475139 10
15.1962 15.0905 5.73842 0.300697 10
7.14566 7.14566 -2.70776 0.0990482 1
8.05009 8.05009 -2.62833 0.0559776 4
9.1413 9.1413 -2.5129 0.0475543 4
12.0302 12.0302 -2.69463 0.0601579 1
15.4651 15.465 -2.68541 0.0470267 1
18.8001 18.8001 -2.32609 0.628822 10
18.798 18.798 -1.39323 0.630429 10
18.7959 18.7959 -0.463981 0.631268 10
18.7938 18.7938 0.463929 0.631338 10
15.0244 15.0244 1.11355 0.488635 10
15.0231 15.0231 4.12979 0.480357 10
14.6617 14.6617 4.78701 0.476817 10
15.0902 15.0902 5.71823 0.301759 10
7.12079 7.17068 -2.7078 0.0990466 1
8.0221 8.0783 -2.62838 0.0805644 4
9.10954 9.17336 -2.51296 0.0635525 4
11.9885 12.0724 -2.69471 0.0601562 1
15.4115 15.5195 -2.6855 0.047025 1
18.7997 18.9314 -2.33421 0.626636 10
18.7976 18.9293 -1.39809 0.628237 10
18.7955 18.9272 -0.465599 0.629074 10
18.7934 18.9251 0.465547 0.629144 10
14.9196 15.0241 1.10966 0.490348 10
14.9896 15.0946 1.86113 0.312084 10
14.9879 15.0929 2.61168 0.310976 10
14.9862 15.0912 3.36852 0.309489 10
14.9183 15.0228 4.11536 0.482041 10
14.5594 14.6614 4.77029 0.478488 10
14.9849 15.0899 5.69826 0.302817 10
7.09584 7.19561 -2.70785 0.0990449 1
7.99401 8.10641 -2.62843 0.0564986 4
9.07768 9.20532 -2.51302 0.0657731 4
11.9466 12.1146 -2.69479 0.0601545 1
15.3512 15.5671 -2.68445 0.627163 10
18.7339 18.9973 -2.33426 0.629481 10
18.7335 18.9969 -1.39825 0.631033 10
18.7331 18.9965 -0.465693 0.631816 10
18.7327 18.9961 0.465683 0.63183 10
14.8155 15.0238 1.10581 0.492055 10
14.8142 15.0225 4.10108 0.483719 10
14.4578 14.6611 4.75374 0.480154 10
7.07079 7.22046 -2.70789 0.0990433 1
7.96581 8.13442 -2.62848 0.0392344 4
9.0457 9.23716 -2.51307 0.0519951 4
11.9046 12.1565 -2.69486 0.0601528 1
15.2441 15.5667 -2.6752 0.629332 10
18.6195 19.0136 -2.32825 0.62224 10
18.6174 19.0114 -1.39452 0.623831 10
18.6153 19.0093 -0.46441 0.624662 10
18.6132 19.0072 0.464358 0.624732 10
14.7121 15.0235 1.102 0.493757 10
14.7108 15.0222 4.08695 0.485392 10
14.3994 14.7042 4.75138 0.154863 10
7.04567 7.24522 -2.70794 0.0990416 1
9.01361 9.2689 -2.51313 0.0524383 4
11.8624 12.1984 -2.69494 0.0601511 1
15.1377 15.5664 -2.66604 0.631492 10
18.6191 19.1464 -2.33654 0.620031 10
18.617 19.1442 -1.39949 0.621617 10
18.6149 19.1421 -0.466064 0.622445 10
18.6128 19.1399 0.466012 0.622515 10
14.6094 15.0232 1.09823 0.495452 10
14.258 14.6618 1.78926 0.494254 10
14.2576 14.6615 2.51105 0.492455 10
14.2573 14.6611 3.23903 0.490055 10
14.6081 15.0219 4.07297 0.487058 10
14.3477 14.7541 4.75129 0.154866 10
14.2564 14.6602 5.47932 0.479289 10
7.02045 7.26989 -2.70798 0.0990399 1
7.90914 8.19016 -2.62859 0.0549259 4
8.98141 9.30052 -2.51319 0.061769 4
11.8201 12.24 -2.69502 0.0601494 1
15.032 15.5661 -2.65698 0.633646 10
18.6187 19.2802 -2.34493 0.617815 10
18.6166 19.278 -1.40451 0.619395 10
18.6145 19.2758 -0.467736 0.620221 10
18.6124 19.2737 0.467683 0.620291 10
14.5074 15.0228 1.09449 0.497141 10
14.1835 14.6874 1.78634 0.48199 10
14.1819 14.6858 2.50672 0.48028 10
14.1802 14.6841 3.23314 0.477984 10
14.5062 15.0216 4.05913 0.488718 10
14.2958 14.8038 4.75119 0.154869 10
14.1752 14.6789 5.46778 0.467618 10
6.99515 7.29447 -2.70803 0.0990382 1
7.88066 8.21788 -2.62864 0.044463 4
8.9491 9.33203 -2.51325 0.0533245 4
11.7776 12.2816 -2.69509 0.0601477 1
14.927 15.5657 -2.64802 0.635791 10
18.6183 19.415 -2.3534 0.615591 10
18.6162 19.4127 -1.40958 0.617166 10
18.614 19.4105 -0.469425 0.617989 10
18.6119 19.4083 0.469372 0.618059 10
14.416 15.0329 1.09155 0.0350285 10
14.1832 14.79 1.79279 0.480257 10
14.1815 14.7884 2.51577 0.478552 10
14.1799 14.7867 3.24481 0.476265 10
14.4049 15.0213 4.04544 0.490373 10
14.2438 14.8533 4.7511 0.154872 10
14.1749 14.7814 5.48751 0.465937 10
6.96977 7.31897 -2.70808 0.0990365 1
7.85208 8.2455 -2.62869 0.0470775 4
8.91668 9.36343 -2.51331 0.0626549 4
11.735 12.323 -2.69517 0.0601459 1
14.8228 15.5654 -2.63914 0.637929 10
18.7974 19.7392 -2.38473 0.61336 10
18.7952 19.7369 -1.42835 0.614929 10
18.7931 19.7347 -0.475674 0.615749 10
18.7909 19.7324 0.47562 0.615819 10
14.3621 15.0817 1.09145 0.0350317 10
14.1828 14.8934 1.7993 0.478517 10
14.1812 14.8917 2.52492 0.476819 10
14.1795 14.89 3.25661 0.47454 10
14.3043 15.021 4.03189 0.492021 10
14.1916 14.9026 4.751 0.154875 10
14.1745 14.8847 5.50745 0.46425 10
6.94429 7.34338 -2.70812 0.0990348 1
7.82341 8.27302 -2.62874 0.00627688 4
8.88415 9.39472 -2.51337 0.0453237 4
11.6923 12.3642 -2.69525 0.0601442 1
14.7192 15.5651 -2.63036 0.640059 10
18.7969 19.8772 -2.39346 0.611121 10
18.7948 19.8749 -1.43358 0.612685 10
18.7927 19.8727 -0.477417 0.613502 10
18.7905 19.8704 0.477362 0.613572 10
14.3081 15.1304 1.09135 0.0350349 10
14.1825 14.9976 1.80589 0.476771 10
14.1808 14.9958 2.53416 0.47508 10
14.1792 14.9941 3.26853 0.472809 10
14.2043 15.0207 4.01847 0.493664 10
14.1758 14.9905 4.76322 0.466544 10
14.1741 14.9887 5.5276 0.462557 10
6.91874 7.36771 -2.70817 0.0990331 1
7.79464 8.30045 -2.6288 0.0376605 4
8.85151 9.4259 -2.51343 0.0328811 4
11.6494 12.4053 -2.69533 0.0601424 1
14.6163 15.5648 -2.62167 0.642181 10
18.7965 20.0163 -2.4023 0.608875 10
18.7944 20.014 -1.43887 0.610433 10
18.7922 20.0117 -0.479177 0.611248 10
18.7901 20.0094 0.479122 0.611318 10
14.2539 15.1788 1.09125 0.0350381 10
14.1059 15.0213 1.80281 0.502619 10
14.1056 15.021 2.53008 0.500788 10
14.1054 15.0207 3.26357 0.498348 10
14.1051 15.0204 4.00519 0.4953 10
14.1047 15.02 4.75692 0.491649 10
14.1044 15.0197 5.52084 0.487399 10
6.8931 7.39194 -2.70822 0.0990314 1
8.81877 9.45697 -2.51349 0.0239938 4
11.6063 12.4463 -2.69541 0.0601407 1
14.5141 15.5645 -2.61307 0.644294 10
18.7961 20.1564 -2.41122 0.606621 10
18.794 20.1541 -1.44421 0.608174 10
18.7918 20.1517 -0.480957 0.608986 10
18.7896 20.1494 0.480902 0.609056 10
14.1995 15.2271 1.09115 0.0350414 10
14.0073 15.021 1.7969 0.504273 10
14.007 15.0207 2.52177 0.502437 10
14.0067 15.0204 3.25286 0.499988 10
14.0064 15.0201 3.99205 0.49693 10
14.0061 15.0197 4.74131 0.493267 10
14.0058 15.0194 5.50272 0.489003 10
6.86737 7.41609 -2.70827 0.0990297 1
7.7164 8.33295 -2.62197 0.154209 4
8.78592 9.48792 -2.51355 0.048875 4
11.5632 12.4871 -2.69549 0.0601389 1
14.4126 15.5641 -2.60455 0.646401 10
18.7957 20.2975 -2.42024 0.60436 10
18.7935 20.2952 -1.44961 0.605907 10
18.7914 20.2928 -0.482756 0.606716 10
18.7892 20.2905 0.4827 0.606786 10
14.1449 15.2751 1.09105 0.0350447 10
13.9093 15.0207 1.79104 0.505922 10
13.909 15.0204 2.51356 0.504079 10
13.9087 15.0201 3.24226 0.501623 10
13.9085 15.0198 3.97905 0.498555 10
13.9082 15.0194 4.72587 0.49488 10
13.9078 15.0191 5.4848 0.490602 10
6.84157 7.44015 -2.70831 0.0990279 1
7.66676 8.33753 -2.61497 0.214474 4
8.75295 9.51876 -2.51361 0.0617587 4
11.5198 12.5277 -2.69557 0.0601371 1
14.3117 15.5638 -2.59612 0.648499 10
18.7953 20.4397 -2.42936 0.602091 10
18.7931 20.4374 -1.45508 0.603633 10
18.7909 20.435 -0.484575 0.604439 10
18.7888 20.4326 0.484518 0.604509 10
14.0902 15.323 1.09095 0.0350479 10
13.812 15.0204 1.78525 0.507564 10
13.8117 15.0201 2.50542 0.505715 10
13.8114 15.0198 3.23177 0.503251 10
13.8111 15.0195 3.96617 0.500173 10
13.8108 15.0191 4.71058 0.496486 10
13.8105 15.0188 5.46705 0.492194 10
6.80475 7.45215 -2.70402 0.209562 4
7.61736 8.34207 -2.60804 0.175036 4
8.71988 9.54949 -2.51367 0.0582029 4
11.4764 12.5682 -2.69565 0.0601353 1
14.2114 15.5635 -2.58778 0.65059 10
18.7949 20.583 -2.43858 0.599815 10
18.7927 20.5806 -1.4606 0.601352 10
18.7905 20.5782 -0.486413 0.602155 10
18.7883 20.5758 0.486356 0.602225 10
14.0353 15.3706 1.09084 0.0350512 10
13.7152 15.0201 1.77951 0.5092 10
13.715 15.0198 2.49737 0.507346 10
13.7147 15.0195 3.22139 0.504873 10
13.7144 15.0192 3.95343 0.501785 10
13.7141 15.0189 4.69544 0.498086 10
13.7138 15.0185 5.44949 0.49378 10
6.75942 7.45461 -2.69633 0.204905 4
7.56821 8.34657 -2.60117 0.232327 4
8.68671 9.58011 -2.51373 0.0515372 4
11.4328 12.6086 -2.69573 0.0601335 1
14.1118 15.5632 -2.57952 0.652673 10
18.7945 20.7274 -2.4479 0.597532 10
18.7923 20.725 -1.46618 0.599063 10
18.7901 20.7225 -0.488271 0.599864 10
18.7879 20.7201 0.488214 0.599934 10
13.9802 15.4181 1.09074 0.0350546 10
13.6191 15.0198 1.77383 0.51083 10
13.6189 15.0195 2.48941 0.50897 10
13.6186 15.0192 3.21111 0.506489 10
13.6183 15.0189 3.94082 0.503391 10
13.618 15.0186 4.68046 0.49968 10
13.6177 15.0182 5.4321 0.495361 10
6.71435 7.45704 -2.68872 0.230073 4
7.5193 8.35103 -2.59436 0.234612 4
8.65343 9.6106 -2.51379 0.0555344 4
11.389 12.6488 -2.69581 0.0601317 1
14.0129 15.5629 -2.57135 0.654747 10
18.794 20.8729 -2.45731 0.595242 10
18.7918 20.8704 -1.47182 0.596767 10
18.7896 20.868 -0.490149 0.597565 10
18.7874 20.8655 0.490092 0.597635 10
13.925 15.4653 1.09064 0.0350579 10
13.5236 15.0195 1.76821 0.512454 10
13.5234 15.0192 2.48152 0.510587 10
13.5231 15.0189 3.20094 0.508099 10
13.5228 15.0186 3.92833 0.504991 10
13.5225 15.0183 4.66563 0.501268 10
13.5222 15.018 5.41489 0.496935 10
6.66951 7.45944 -2.68118 0.251855 4
7.47063 8.35544 -2.58762 0.231863 4
8.62004 9.64099 -2.51386 0.0630855 4
11.3452 12.6889 -2.69589 0.0601299 1
13.9146 15.5626 -2.56326 0.656814 10
18.7936 21.0195 -2.46684 0.592944 10
18.7914 21.017 -1.47752 0.594464 10
18.7892 21.0145 -0.492048 0.595259 10
18.787 21.0121 0.49199 0.595329 10
13.8696 15.5123 1.09053 0.0350612 10
13.4287 15.0192 1.76265 0.514071 10
13.4285 15.0189 2.47371 0.512199 10
13.4282 15.0186 3.19087 0.509702 10
13.4279 15.0183 3.91597 0.506585 10
13.4276 15.018 4.65096 0.50285 10
13.4274 15.0177 5.39786 0.498503 10
6.62492 7.46183 -2.6737 0.199575 4
7.4222 8.35982 -2.58093 0.202142 4
8.58655 9.67126 -2.51392 0.0541989 4
11.3011 12.7288 -2.69597 0.0601281 1
13.8168 15.5623 -2.55525 0.658873 10
18.7932 21.1672 -2.47646 0.590639 10
18.7909 21.1647 -1.48328 0.592153 10
18.7887 21.1622 -0.493968 0.592946 10
18.7865 21.1597 0.493909 0.593015 10
13.8141 15.5591 1.09043 0.0350646 10
13.3344 15.0189 1.75714 0.515682 10
13.3342 15.0186 2.46598 0.513804 10
13.3339 15.0183 3.1809 0.5113 10
13.3336 15.018 3.90374 0.508173 10
13.3333 15.0177 4.63643 0.504426 10
13.3331 15.0174 5.38099 0.500065 10
6.58057 7.46419 -2.6663 0.173563 4
7.374 8.36415 -2.57431 0.255017 4
8.55295 9.70141 -2.51398 0.0639709 4
11.257 12.7685 -2.69605 0.0601263 1
13.7197 15.562 -2.54732 0.660924 10
18.7927 21.3162 -2.4862 0.588327 10
18.7905 21.3136 -1.48911 0.589835 10
18.7883 21.3111 -0.495909 0.590625 10
18.786 21.3086 0.49585 0.590695 10
13.7583 15.6058 1.09032 0.035068 10
13.2407 15.0187 1.75169 0.517287 10
13.2405 15.0184 2.45833 0.515403 10
13.2402 15.018 3.17103 0.512891 10
13.2399 15.0177 3.89163 0.509754 10
13.2396 15.0174 4.62204 0.505996 10
13.2394 15.0171 5.3643 0.501622 10
6.53645 7.46652 -2.65897 0.103004 4
7.32603 8.36845 -2.56774 0.275987 4
8.51925 9.73145 -2.51404 0.0417577 4
11.2127 12.8082 -2.69613 0.0601244 1
13.6232 15.5617 -2.53947 0.662966 10
18.7906 21.4643 -2.49581 0.0791914 10
18.79 21.4637 -1.49501 0.58751 10
18.7878 21.4611 -0.497871 0.588297 10
18.7856 21.4586 0.497811 0.588367 10
13.7025 15.6522 1.09022 0.0350714 10
13.1476 15.0184 1.74629 0.518886 10
13.1473 15.0181 2.45076 0.516996 10
13.1471 15.0178 3.16126 0.514476 10
13.1468 15.0175 3.87964 0.511329 10
13.1465 15.0171 4.6078 0.50756 10
13.1462 15.0168 5.34778 0.503172 10
6.49256 7.46884 -2.65171 0.172737 4
7.27828 8.37271 -2.56124 0.178234 4
8.48544 9.76138 -2.51411 0.062635 4
11.1683 12.8476 -2.69622 0.0601226 1
13.5273 15.5614 -2.5317 0.665001 10
18.7166 21.531 -2.49595 0.079187 10
18.7896 21.615 -1.50096 0.585178 10
18.7873 21.6124 -0.499855 0.585962 10
18.7851 21.6098 0.499795 0.586032 10
13.6464 15.6984 1.09011 0.0350748 10
13.055 15.0181 1.74095 0.520478 10
13.0548 15.0178 2.44326 0.518582 10
13.0545 15.0175 3.15159 0.516055 10
13.0542 15.0172 3.86777 0.512898 10
13.054 15.0169 4.59371 0.509117 10
13.0537 15.0165 5.33142 0.504716 10
6.44891 7.47113 -2.64451 0.267846 4
7.23077 8.37693 -2.55479 0.224631 4
8.45152 9.79118 -2.51417 0.0550819 4
11.1237 12.8869 -2.6963 0.0601207 1
13.432 15.5611 -2.52401 0.667028 10
18.6423 21.5974 -2.49608 0.0791826 10
18.7891 21.7674 -1.50699 0.582839 10
18.7869 21.7648 -0.501861 0.58362 10
18.7846 21.7622 0.5018 0.58369 10
13.5902 15.7444 1.09001 0.0350782 10
12.963 15.0178 1.73566 0.522064 10
12.9628 15.0175 2.43584 0.520162 10
12.9625 15.0172 3.14202 0.517627 10
12.9622 15.0169 3.85602 0.514461 10
12.962 15.0166 4.57976 0.510668 10
12.9617 15.0163 5.31522 0.506253 10
6.40549 7.4734 -2.63739 0.252456 4
7.18348 8.38111 -2.54841 0.20984 4
8.41751 9.82087 -2.51423 0.0679622 4
11.079 12.9261 -2.69638 0.0601189 1
13.3372 15.5608 -2.51639 0.669046 10
18.5679 21.6635 -2.49622 0.0791782 10
18.7887 21.9211 -1.51308 0.580493 10
18.7864 21.9185 -0.503889 0.581271 10
18.7842 21.9158 0.503828 0.581341 10
13.5338 15.7902 1.0899 0.0350817 10
12.8716 15.0175 1.73043 0.523643 10
12.8713 15.0172 2.42849 0.521736 10
12.8711 15.0169 3.13254 0.519193 10
12.8708 15.0166 3.84439 0.516017 10
12.8705 15.0163 4.56594 0.512213 10
12.8703 15.016 5.29919 0.507785 10
6.36228 7.47565 -2.63033 0.254929 4
7.13641 8.38525 -2.54207 0.174447 4
8.38338 9.85045 -2.5143 0.0741791 4
