VERSION 0.7
FIELDS x y z intensity label
SIZE 4 4 4 4 4
TYPE F F F F F
COUNT 1 1 1 1 1
WIDTH 1247
HEIGHT 1
VIEWPOINT 13.0143 53.0005 2.72957 1 -0.000120777 0.000256307 -0.000828996
POINTS 1247
DATA ascii
-6.89165 6.51711 -2.54153 0.0841136 4
-8.59645 8.12926 -2.73151 0.0854051 1
-10.2118 9.65685 -2.73197 0.0724306 1
-12.5357 11.8544 -2.73263 0.0593678 1
-16.0878 15.2135 -2.7187 0.494198 10
-16.0876 15.2133 -1.93715 0.496002 10
-16.0874 15.2131 -1.16039 0.497202 10
-16.0872 15.2129 -0.386476 0.497796 10
-16.087 15.2128 0.386471 0.497784 10
-16.0868 15.2126 1.16034 0.497165 10
-16.0866 15.2124 1.93703 0.49594 10
-16.0864 15.2122 2.71846 0.423339 10
-16.0862 15.212 3.50661 0.421257 10
-16.086 15.2118 4.30349 0.418661 10
-16.0858 15.2116 5.11125 0.415555 10
-16.0856 15.2114 5.93212 0.411943 10
-6.91441 6.49306 -2.54155 0.0465306 4
-8.62484 8.09927 -2.73153 0.0854044 1
-10.2456 9.62124 -2.732 0.0724299 1
-12.5771 11.8107 -2.73266 0.0593671 1
-16.2005 15.2133 -2.72875 0.495831 10
-16.2003 15.2131 -1.94432 0.497641 10
-16.2001 15.2129 -1.16468 0.498845 10
-16.1999 15.2128 -0.387906 0.499441 10
-16.1997 15.2126 0.3879 0.499429 10
-16.1995 15.2124 1.16463 0.498808 10
-16.1993 15.2122 1.9442 0.49758 10
-16.1991 15.212 2.72852 0.424739 10
-16.1989 15.2118 3.51957 0.422649 10
-16.1987 15.2116 4.31941 0.420045 10
-16.1985 15.2114 5.13016 0.416929 10
-16.1983 15.2112 5.95406 0.413305 10
-6.93708 6.46893 -2.54157 0.0542853 4
-8.65313 8.06917 -2.73155 0.0854037 1
-10.2792 9.5855 -2.73202 0.0724292 1
-12.6184 11.7669 -2.73269 0.0593664 1
-16.2833 15.1844 -2.73374 0.0462312 1
-16.3139 15.2129 -1.95156 0.499275 10
-16.3137 15.2128 -1.16902 0.500483 10
-16.3135 15.2126 -0.389351 0.501081 10
-16.3133 15.2124 0.389345 0.501069 10
-16.3131 15.2122 1.16897 0.500446 10
-16.3129 15.212 1.95144 0.499214 10
-16.3127 15.2118 2.73868 0.426133 10
-16.3125 15.2116 3.53268 0.424037 10
-16.3123 15.2114 4.3355 0.421424 10
-16.3121 15.2112 5.14927 0.418298 10
-16.3118 15.211 5.97624 0.414662 10
-6.95966 6.44472 -2.54158 0.0715845 4
-8.68131 8.03899 -2.73158 0.085403 1
-10.3127 9.54966 -2.73205 0.0724285 1
-12.6596 11.7229 -2.73272 0.0593657 1
-16.3364 15.1277 -2.73378 0.0462305 1
-16.4283 15.2128 -1.95888 0.500902 10
-16.4281 15.2126 -1.1734 0.502114 10
-16.4279 15.2124 -0.390811 0.502714 10
-16.4277 15.2122 0.390806 0.502702 10
-16.4275 15.212 1.17336 0.502077 10
-16.4273 15.2118 1.95876 0.500841 10
-16.4271 15.2116 2.74895 0.427522 10
-16.4268 15.2114 3.54593 0.425419 10
-16.4266 15.2112 4.35176 0.422798 10
-16.4264 15.211 5.16858 0.419662 10
-16.4262 15.2108 5.99865 0.416014 10
-6.98217 6.42043 -2.5416 0.0751632 4
-8.70939 8.00869 -2.7316 0.0854024 1
-10.3461 9.51369 -2.73207 0.0724278 1
-12.7006 11.6788 -2.73276 0.059365 1
-16.3894 15.0708 -2.73382 0.0462299 1
-16.5435 15.2126 -1.96628 0.502524 10
-16.5433 15.2124 -1.17783 0.50374 10
-16.5431 15.2122 -0.392287 0.504342 10
-16.5429 15.212 0.392282 0.50433 10
-16.5427 15.2118 1.17779 0.503703 10
-16.5425 15.2116 1.96616 0.502462 10
-16.5423 15.2114 2.75934 0.428907 10
-16.5421 15.2112 3.55933 0.426797 10
-16.5419 15.211 4.3682 0.424167 10
-16.5417 15.2108 5.1881 0.42102 10
-16.5415 15.2106 6.02131 0.417361 10
-7.00458 6.39607 -2.54162 0.0632321 4
-8.73736 7.97831 -2.73162 0.0854017 1
-10.3793 9.47761 -2.7321 0.0724271 1
-12.7414 11.6345 -2.73279 0.0593643 1
-16.4421 15.0137 -2.73387 0.0462292 1
-16.6609 15.2135 -1.9739 0.526189 10
-16.6606 15.2132 -1.1824 0.527463 10
-16.6604 15.213 -0.393806 0.528095 10
-16.6601 15.2128 0.3938 0.528083 10
-16.6599 15.2126 1.18234 0.527427 10
-16.6597 15.2124 1.97376 0.52613 10
-19.5435 17.8456 6.11001 0.492985 10
-18.9194 17.2758 6.86491 0.17777 10
-7.02691 6.37162 -2.54164 0.0697935 4
-8.76523 7.94783 -2.73164 0.085401 1
-10.4124 9.44141 -2.73212 0.0724264 1
-12.7821 11.5901 -2.73282 0.0593636 1
-16.4947 14.9565 -2.73391 0.0462285 1
-16.7846 15.2193 -1.98225 0.52771 10
-16.7843 15.2191 -1.1874 0.528988 10
-16.7841 15.2189 -0.395472 0.529621 10
-16.7838 15.2187 0.395466 0.529609 10
-16.7836 15.2185 1.18735 0.528952 10
-16.7834 15.2182 1.98211 0.52765 10
-19.6807 17.8454 6.13341 0.494559 10
-18.9794 17.2095 6.86487 0.177771 10
-7.04916 6.34709 -2.54165 0.084706 4
-8.79299 7.91724 -2.73166 0.0854003 1
-10.4454 9.40509 -2.73215 0.0724258 1
-12.8226 11.5455 -2.73285 0.0593629 1
-16.547 14.899 -2.73395 0.0462278 1
-16.9094 15.2253 -1.9907 0.529224 10
-16.9091 15.225 -1.19246 0.530506 10
-16.9089 15.2248 -0.397158 0.531141 10
-16.9086 15.2246 0.397151 0.531129 10
-16.9084 15.2244 1.19241 0.53047 10
-16.9081 15.2242 1.99055 0.529164 10
-19.8191 17.8452 6.15707 0.496127 10
-19.0393 17.143 6.86482 0.177773 10
-7.07132 6.32249 -2.54167 0.0924602 4
-8.82064 7.88657 -2.73169 0.0853997 1
-10.4783 9.36866 -2.73218 0.0724251 1
-12.863 11.5008 -2.73288 0.0593623 1
-16.5992 14.8414 -2.73399 0.0462271 1
-17.0352 15.2312 -1.99924 0.530732 10
-17.035 15.231 -1.19758 0.532017 10
-17.0347 15.2308 -0.398862 0.532654 10
-17.0345 15.2306 0.398856 0.532642 10
-17.0342 15.2303 1.19752 0.531981 10
-17.034 15.2301 1.9991 0.530672 10
-19.9585 17.8449 6.18099 0.497688 10
-19.0989 17.0764 6.86477 0.177774 10
-7.0934 6.29781 -2.54169 0.0787398 4
-8.84819 7.85579 -2.73171 0.085399 1
-10.511 9.33212 -2.7322 0.0724244 1
-12.9032 11.456 -2.73291 0.0593616 1
-16.6511 14.7836 -2.73403 0.0462264 1
-17.1622 15.2373 -2.00789 0.532233 10
-17.1619 15.237 -1.20275 0.533522 10
-17.1616 15.2368 -0.400586 0.534161 10
-17.1614 15.2366 0.40058 0.534149 10
-17.1611 15.2364 1.2027 0.533486 10
-17.1609 15.2361 2.00774 0.532174 10
-20.099 17.8447 6.20517 0.499244 10
-19.1582 17.0095 6.86473 0.177775 10
-7.11538 6.27306 -2.54171 0.0572649 4
-8.87562 7.82492 -2.73173 0.0853983 1
-10.5436 9.29546 -2.73223 0.0724237 1
-12.9433 11.411 -2.73294 0.0593609 1
-16.7029 14.7256 -2.73407 0.0462257 1
-17.2902 15.2433 -2.01663 0.533728 10
-17.2899 15.2431 -1.20799 0.535021 10
-17.2897 15.2429 -0.40233 0.535661 10
-17.2894 15.2427 0.402324 0.535649 10
-17.2891 15.2424 1.20794 0.534985 10
-17.2889 15.2422 2.01648 0.533668 10
-20.2406 17.8445 6.22961 0.500794 10
-19.2173 16.9424 6.86468 0.177776 10
-7.13729 6.24822 -2.54172 0.0638261 4
-8.90295 7.79395 -2.73175 0.0853976 1
-10.5761 9.25868 -2.73225 0.0724231 1
-12.9832 11.3659 -2.73298 0.0593602 1
-16.7544 14.6674 -2.73411 0.046225 1
-17.4193 15.2495 -2.02547 0.535217 10
-17.4191 15.2493 -1.21329 0.536513 10
-17.4188 15.249 -0.404094 0.537155 10
-17.4186 15.2488 0.404088 0.537143 10
-17.4183 15.2486 1.21323 0.536477 10
-17.418 15.2483 2.02532 0.535157 10
-20.3833 17.8442 6.25433 0.502337 10
-19.2762 16.8751 6.86463 0.177777 10
-7.1591 6.22332 -2.54174 0.0751591 4
-8.93018 7.76289 -2.73177 0.085397 1
-10.6085 9.2218 -2.73228 0.0724224 1
-13.0229 11.3206 -2.73301 0.0593595 1
-16.8058 14.609 -2.73415 0.0462244 1
-17.5496 15.2557 -2.03442 0.536698 10
-17.5494 15.2554 -1.21865 0.537998 10
-17.5491 15.2552 -0.405879 0.538642 10
-17.5488 15.255 0.405873 0.53863 10
-17.5486 15.2547 1.21859 0.537962 10
-17.5483 15.2545 2.03426 0.536639 10
-20.5274 17.8442 5.28697 0.50764 10
-20.5271 17.844 6.27932 0.503875 10
-19.3349 16.8076 6.86459 0.177779 10
-7.18083 6.19833 -2.54176 0.0930536 4
-8.95729 7.73173 -2.73179 0.0853963 1
-10.6407 9.1848 -2.7323 0.0724217 1
-13.0625 11.2753 -2.73304 0.0593588 1
-16.8569 14.5505 -2.73419 0.0462237 1
-17.6759 15.2574 -2.04287 0.507978 10
-17.6757 15.2572 -1.22371 0.509207 10
-17.6754 15.257 -0.407567 0.509816 10
-17.6752 15.2569 0.407562 0.509803 10
-17.675 15.2567 1.22367 0.50917 10
-17.6748 15.2565 2.04274 0.507916 10
-20.6724 17.844 5.30824 0.509183 10
-20.6721 17.8437 6.30459 0.505406 10
-19.3933 16.7399 6.86454 0.17778 10
-7.20247 6.17327 -2.54177 0.0757546 4
-8.98429 7.70047 -2.73181 0.0853956 1
-10.6728 9.14768 -2.73233 0.072421 1
-13.1019 11.2297 -2.73307 0.0593582 1
-16.9078 14.4918 -2.73423 0.046223 1
-17.7981 15.2548 -2.05082 0.509572 10
-17.7979 15.2546 -1.22848 0.510805 10
-17.7977 15.2544 -0.409155 0.511416 10
-17.7974 15.2543 0.409149 0.511404 10
-17.7972 15.2541 1.22843 0.510768 10
-17.797 15.2539 2.0507 0.50951 10
-20.8186 17.8437 5.32976 0.510719 10
-20.8183 17.8435 6.33014 0.506931 10
-19.4515 16.672 6.8645 0.177781 10
-7.22402 6.14813 -2.54179 0.057263 4
-9.01119 7.66913 -2.73184 0.085395 1
-10.7047 9.11046 -2.73235 0.0724204 1
-13.1412 11.184 -2.7331 0.0593575 1
-16.9586 14.4329 -2.73427 0.0462223 1
-17.9213 15.2522 -2.05887 0.51116 10
-17.921 15.252 -1.2333 0.512397 10
-17.9208 15.2518 -0.41076 0.51301 10
-17.9206 15.2516 0.410755 0.512997 10
-17.9204 15.2515 1.23325 0.51236 10
-17.9202 15.2513 2.05874 0.511098 10
-20.966 17.8435 5.35151 0.512249 10
-20.9657 17.8432 6.35597 0.50845 10
-19.5094 16.6038 6.86445 0.177782 10
-7.24549 6.12292 -2.54181 0.0733677 4
-9.03797 7.63768 -2.73186 0.0853943 1
-10.7366 9.07312 -2.73238 0.0724197 1
-13.1803 11.1382 -2.73313 0.0593568 1
-17.0091 14.3738 -2.73431 0.0462216 1
-18.0454 15.2496 -2.067 0.512742 10
-18.0452 15.2494 -1.23817 0.513983 10
-18.045 15.2492 -0.412383 0.514598 10
-18.0448 15.249 0.412378 0.514585 10
-18.0445 15.2488 1.23812 0.513946 10
-18.0268 15.2338 2.06487 0.0257014 10
-21.1146 17.8432 5.3735 0.513773 10
-21.1143 17.843 6.3821 0.509963 10
-19.5672 16.5355 6.8644 0.177783 10
-7.26687 6.09763 -2.54183 0.079332 4
-9.06465 7.60615 -2.73188 0.0853936 1
-10.7683 9.03567 -2.7324 0.072419 1
-13.2192 11.0923 -2.73316 0.0593561 1
-17.0594 14.3146 -2.73435 0.046221 1
-18.1706 15.2469 -2.07523 0.514318 10
-18.1703 15.2467 -1.2431 0.515562 10
-18.1701 15.2465 -0.414024 0.516179 10
-18.1699 15.2464 0.414018 0.516166 10
-18.1697 15.2462 1.24305 0.515525 10
-18.0795 15.1705 2.06483 0.0257019 10
-21.2644 17.843 5.39575 0.515291 10
-21.2641 17.8427 6.40852 0.511469 10
-19.6246 16.467 6.86436 0.177785 10
-7.28816 6.07226 -2.54184 0.092454 4
-9.09122 7.57452 -2.7319 0.085393 1
-10.7999 8.99811 -2.73243 0.0724183 1
-13.258 11.0462 -2.73319 0.0593555 1
-17.1095 14.2551 -2.73439 0.0462203 1
-18.2967 15.2442 -2.08355 0.515887 10
-18.2965 15.244 -1.24808 0.517136 10
-18.2962 15.2439 -0.415683 0.517754 10
-18.296 15.2437 0.415677 0.517742 10
-18.2958 15.2435 1.24803 0.517098 10
-18.132 15.107 2.06479 0.0257025 10
-21.4155 17.8427 5.41825 0.516803 10
-21.4152 17.8425 6.43524 0.512969 10
-19.6819 16.3983 6.86431 0.177786 10
-7.30936 6.04683 -2.54186 0.0709803 4
-9.11767 7.5428 -2.73192 0.0853923 1
-10.8313 8.96044 -2.73246 0.0724177 1
-13.2967 11 -2.73322 0.0593548 1
-17.1594 14.1955 -2.73443 0.0462196 1
-18.4238 15.2415 -2.09195 0.51745 10
-18.4236 15.2413 -1.25311 0.518702 10
-18.4234 15.2412 -0.41736 0.519323 10
-18.4232 15.241 0.417355 0.51931 10
-18.4229 15.2408 1.25307 0.518665 10
-18.1842 15.0433 2.06475 0.025703 10
-21.5678 17.8425 5.44099 0.518308 10
-21.5675 17.8422 6.46226 0.514463 10
-19.7388 16.3294 6.86427 0.177787 10
-7.33047 6.02132 -2.54188 0.0912598 4
-9.14402 7.51098 -2.73194 0.0853916 1
-10.8626 8.92265 -2.73248 0.072417 1
-13.3351 10.9536 -2.73326 0.0593541 1
-17.2091 14.1358 -2.73447 0.0462189 1
-18.5414 15.23 -2.09925 0.479932 10
-18.5412 15.2299 -1.25749 0.481092 10
-18.541 15.2298 -0.418818 0.481666 10
-18.5408 15.2296 0.418814 0.481653 10
-18.5407 15.2295 1.25745 0.481053 10
-18.2363 14.9794 2.0647 0.0257035 10
-21.7214 17.8422 5.46401 0.519807 10
-21.7211 17.8419 6.48958 0.515951 10
-19.7956 16.2603 6.86422 0.177788 10
-7.35149 5.99573 -2.54189 0.0131222 4
-8.53351 6.95976 -2.54227 0.072049 4
-10.8938 8.88477 -2.73251 0.0724163 1
-13.3734 10.9071 -2.73329 0.0593535 1
-17.2586 14.0758 -2.73451 0.0462183 1
-18.6587 15.2177 -2.10651 0.481628 10
-18.6585 15.2175 -1.26184 0.482793 10
-18.6584 15.2174 -0.420266 0.483369 10
-18.6582 15.2173 0.420262 0.483356 10
-18.658 15.2171 1.2618 0.482754 10
-18.2881 14.9154 2.06466 0.025704 10
-21.8764 17.8419 5.48728 0.521299 10
-21.8761 17.8417 6.51722 0.517433 10
-19.8521 16.191 6.86417 0.177789 10
-7.37242 5.97008 -2.54191 0.0250514 4
-8.55781 6.92999 -2.54229 0.0684201 4
-10.9248 8.84677 -2.73253 0.0724157 1
-13.4116 10.8605 -2.73332 0.0593528 1
-17.3079 14.0157 -2.73455 0.0462176 1
-18.7769 15.2052 -2.11384 0.483319 10
-18.7767 15.2051 -1.26623 0.484488 10
-18.7765 15.2049 -0.42173 0.485066 10
-18.7763 15.2048 0.421725 0.485053 10
-18.7762 15.2047 1.26619 0.484449 10
-18.3396 14.8512 2.06462 0.0257045 10
-22.0323 17.8414 6.54518 0.518908 10
-19.9084 16.1215 6.86413 0.17779 10
-7.39327 5.94434 -2.54193 0.062628 4
-8.58202 6.90012 -2.54231 0.058053 4
-10.9558 8.80866 -2.73256 0.072415 1
-13.4496 10.8137 -2.73335 0.0593521 1
-17.357 13.9554 -2.73459 0.0462169 1
-18.8959 15.1927 -2.12125 0.485005 10
-18.8957 15.1925 -1.27067 0.486177 10
-18.8955 15.1924 -0.423209 0.486757 10
-18.8953 15.1922 0.423204 0.486745 10
-18.8952 15.1921 1.27063 0.486139 10
-18.391 14.7867 2.06458 0.0257051 10
-22.1899 17.8411 6.57346 0.520377 10
-19.9644 16.0518 6.86408 0.177792 10
-7.41402 5.91854 -2.54194 0.0524879 4
-8.60612 6.87018 -2.54233 0.0637541 4
-10.9865 8.77045 -2.73258 0.0724143 1
-13.4874 10.7668 -2.73338 0.0593514 1
-17.4058 13.8949 -2.73463 0.0462162 1
-19.0157 15.18 -2.12875 0.486684 10
-19.0155 15.1799 -1.27516 0.48786 10
-19.0153 15.1798 -0.424703 0.488443 10
-19.0152 15.1796 0.424699 0.48843 10
-19.015 15.1795 1.27512 0.487822 10
-18.4421 14.7222 2.06454 0.0257056 10
-22.3489 17.8409 6.60206 0.521839 10
-20.0202 15.9819 6.86404 0.177793 10
-7.43469 5.89266 -2.54196 0.0226651 4
-8.63012 6.84015 -2.54235 0.064272 4
-11.0172 8.73212 -2.73261 0.0724137 1
-13.525 10.7198 -2.73341 0.0593508 1
-17.4545 13.8343 -2.73467 0.0462156 1
-19.1348 15.166 -2.13614 0.438696 10
-19.1347 15.1659 -1.27959 0.439755 10
-19.1345 15.1659 -0.42618 0.440278 10
-19.1344 15.1658 0.426178 0.440265 10
-19.1343 15.1657 1.27957 0.439716 10
-18.493 14.6574 2.06449 0.0257061 10
-22.5092 17.8406 6.63099 0.523295 10
-20.0757 15.9118 6.86399 0.177794 10
-7.45526 5.86671 -2.54198 0.0381725 4
-8.654 6.81003 -2.54236 0.0621982 4
-11.0477 8.69369 -2.73263 0.072413 1
-13.5625 10.6727 -2.73344 0.0593501 1
-17.5029 13.7735 -2.73471 0.0462149 1
-19.2439 15.1435 -2.14241 0.440524 10
-19.2438 15.1434 -1.28334 0.441587 10
-19.2437 15.1433 -0.427431 0.442113 10
-19.2436 15.1432 0.427428 0.4421 10
-19.2434 15.1431 1.28332 0.441548 10
-18.5437 14.5925 2.06445 0.0257066 10
-22.671 17.8403 6.66026 0.524745 10
-20.131 15.8415 6.86395 0.177795 10
-7.47575 5.84069 -2.542 0.0435402 4
-8.67779 6.77983 -2.54238 0.0694541 4
-11.0781 8.65515 -2.73266 0.0724124 1
-13.5998 10.6254 -2.73347 0.0593495 1
-17.5512 13.7125 -2.73475 0.0462142 1
-19.3537 15.1208 -2.14874 0.442346 10
-19.3536 15.1207 -1.28714 0.443414 10
-19.3535 15.1206 -0.428694 0.443942 10
-19.3533 15.1205 0.428692 0.443929 10
-19.3532 15.1204 1.28711 0.443375 10
-18.5942 14.5274 2.06441 0.0257071 10
-22.8342 17.84 6.68988 0.526188 10
-20.186 15.771 6.8639 0.177796 10
-7.49613 5.8146 -2.54201 0.0715725 4
-8.70147 6.74955 -2.5424 0.0725635 4
-11.1083 8.61651 -2.73268 0.0724117 1
-13.637 10.5779 -2.7335 0.0593488 1
-17.5992 13.6513 -2.73479 0.0462136 1
-19.4641 15.0979 -2.15513 0.444163 10
-19.464 15.0978 -1.29097 0.445236 10
-19.4639 15.0977 -0.42997 0.445766 10
-19.4638 15.0976 0.429967 0.445753 10
-19.4636 15.0975 1.29094 0.445196 10
-18.6444 14.4621 2.06437 0.0257077 10
-22.9989 17.8398 6.71983 0.527625 10
-20.2408 15.7004 6.86386 0.177798 10
-7.51644 5.78843 -2.54203 0.0745542 4
-8.72504 6.71919 -2.54242 0.0673798 4
-11.1384 8.57775 -2.73271 0.072411 1
-13.674 10.5304 -2.73353 0.0593481 1
-17.647 13.59 -2.73483 0.0462129 1
-19.5752 15.0749 -2.16159 0.445975 10
-19.5751 15.0748 -1.29484 0.447052 10
-19.575 15.0747 -0.431259 0.447584 10
-19.5748 15.0747 0.431256 0.447571 10
-19.5747 15.0746 1.29481 0.447013 10
-18.6944 14.3966 2.06433 0.0257082 10
-23.1651 17.8395 6.75015 0.529056 10
-20.2954 15.6295 6.86381 0.177799 10
-7.53664 5.7622 -2.54205 0.0733608 4
-8.74851 6.68874 -2.54244 0.0798186 4
-11.1684 8.5389 -2.73273 0.0724104 1
-13.7108 10.4827 -2.73356 0.0593475 1
-17.6946 13.5285 -2.73487 0.0462122 1
-19.687 15.0518 -2.16812 0.447781 10
-19.6868 15.0517 -1.29875 0.448863 10
-19.6867 15.0516 -0.432561 0.449397 10
-19.6866 15.0515 0.432558 0.449384 10
-19.6865 15.0514 1.29872 0.448823 10
-18.7441 14.331 2.06429 0.0257087 10
-23.3327 17.8392 6.78082 0.53048 10
-20.3497 15.5585 6.86377 0.1778 10
-7.55676 5.7359 -2.54206 0.0524855 4
-8.77187 6.65822 -2.54246 0.0777448 4
-11.1983 8.49994 -2.73275 0.0724097 1
-13.7475 10.4349 -2.73359 0.0593468 1
-17.7419 13.4669 -2.73491 0.0462116 1
-19.7878 15.0198 -2.17344 0.390357 10
-19.7878 15.0197 -1.30194 0.391297 10
-19.7877 15.0197 -0.433626 0.391761 10
-19.7876 15.0197 0.433624 0.391747 10
-19.7876 15.0196 1.30193 0.391257 10
-18.7937 14.2652 2.06425 0.0257092 10
-23.5019 17.8389 6.81185 0.531897 10
-20.4037 15.4873 6.86372 0.177801 10
-7.57679 5.70952 -2.54208 0.0554672 4
-8.79513 6.62761 -2.54248 0.0829271 4
-11.228 8.46088 -2.73278 0.0724091 1
-13.784 10.387 -2.73362 0.0593462 1
-17.7891 13.405 -2.73494 0.0462109 1
-19.8885 14.9871 -2.17874 0.392314 10
-19.8885 14.987 -1.30511 0.393259 10
-19.8884 14.987 -0.434683 0.393725 10
-19.8884 14.987 0.434682 0.393712 10
-19.8883 14.9869 1.3051 0.393219 10
-18.8826 14.2291 2.06855 0.214305 10
-23.6726 17.8386 6.84325 0.533309 10
-20.4575 15.4158 6.86368 0.177802 10
-7.59672 5.68308 -2.5421 0.0709737 4
-8.81827 6.59692 -2.5425 0.0777436 4
-11.2575 8.42171 -2.7328 0.0724084 1
-13.8203 10.3389 -2.73365 0.0593455 1
-17.836 13.343 -2.73498 0.0462103 1
-19.9897 14.9542 -2.1841 0.394266 10
-19.9897 14.9542 -1.30832 0.395216 10
-19.9896 14.9541 -0.435752 0.395684 10
-19.9895 14.9541 0.43575 0.395671 10
-19.9895 14.9541 1.30831 0.395175 10
-19.0004 14.2141 2.076 0.194293 10
-23.8017 17.8059 6.86254 0.154561 10
-20.5111 15.3442 6.86363 0.177803 10
-7.61656 5.65656 -2.54211 0.0805159 4
-8.84132 6.56614 -2.54252 0.0725601 4
-11.287 8.38243 -2.73283 0.0724078 1
-13.8565 10.2907 -2.73368 0.0593448 1
-17.8827 13.2809 -2.73502 0.0462096 1
-20.0914 14.9212 -2.18951 0.396213 10
-20.0914 14.9212 -1.31156 0.397168 10
-20.0913 14.9211 -0.436831 0.397639 10
-20.0912 14.9211 0.436829 0.397626 10
-20.0912 14.921 1.31155 0.397128 10
-19.1092 14.1917 2.08246 0.195057 10
-23.8635 17.7226 6.86249 0.154562 10
-20.5644 15.2725 6.86359 0.177805 10
-7.63631 5.62998 -2.54213 0.0453272 4
-8.86425 6.53529 -2.54254 0.047682 4
-11.3162 8.34306 -2.73285 0.0724071 1
-13.8925 10.2424 -2.73371 0.0593442 1
-17.9292 13.2186 -2.73506 0.0462089 1
-20.1914 14.8864 -2.19472 0.334365 10
-20.1914 14.8864 -1.31469 0.335169 10
-20.1914 14.8864 -0.437874 0.335564 10
-20.1914 14.8864 0.437873 0.33555 10
-20.1914 14.8864 1.31469 0.335128 10
-19.2186 14.1692 2.08898 0.195819 10
-23.925 17.6391 6.86244 0.154564 10
-20.6174 15.2005 6.86354 0.177806 10
-7.65597 5.60332 -2.54215 0.0930394 4
-8.88708 6.50436 -2.54256 0.0554558 4
-11.3454 8.30358 -2.73288 0.0724065 1
-13.9283 10.194 -2.73374 0.0593435 1
-17.9755 13.1561 -2.7351 0.0462083 1
-20.2831 14.8449 -2.19904 0.336445 10
-20.283 14.8449 -1.31728 0.337254 10
-20.283 14.8449 -0.438735 0.337651 10
-20.283 14.8449 0.438735 0.337638 10
-20.283 14.8449 1.31727 0.337213 10
-19.3287 14.1464 2.09557 0.196578 10
-24.3721 17.8377 5.87075 0.542914 10
-23.9863 17.5553 6.86239 0.154565 10
-20.6702 15.1283 6.8635 0.177807 10
-7.67553 5.5766 -2.54216 0.057851 4
-8.90979 6.47335 -2.54258 0.0663392 4
-11.3744 8.264 -2.7329 0.0724058 1
-13.9639 10.1454 -2.73377 0.0593429 1
-18.0216 13.0935 -2.73514 0.0462076 1
-20.3751 14.8034 -2.2034 0.33852 10
-20.3751 14.8034 -1.31989 0.339334 10
-20.3751 14.8033 -0.439605 0.339734 10
-20.375 14.8033 0.439605 0.339721 10
-20.375 14.8033 1.31989 0.339293 10
-19.4394 14.1236 2.10222 0.197335 10
-24.5511 17.8374 5.89882 0.544303 10
-24.0472 17.4714 6.86233 0.154566 10
-20.7228 15.056 6.86345 0.177808 10
-7.695 5.54981 -2.54218 0.085285 4
-8.9324 6.44225 -2.5426 0.0684118 4
-11.4033 8.22432 -2.73293 0.0724052 1
-13.9994 10.0967 -2.7338 0.0593422 1
-18.0674 13.0307 -2.73518 0.046207 1
-20.4675 14.7616 -2.2078 0.340592 10
-20.4675 14.7616 -1.32253 0.341411 10
-20.4674 14.7616 -0.440484 0.341814 10
-20.4674 14.7616 0.440483 0.3418 10
-20.4674 14.7616 1.32253 0.34137 10
-19.5395 14.0923 2.1077 0.173088 10
-24.7317 17.8371 5.92723 0.545685 10
-24.1079 17.3872 6.86228 0.154567 10
-20.7751 14.9834 6.86341 0.177809 10
-7.71437 5.52295 -2.54219 0.0763385 4
-8.9549 6.41108 -2.54262 0.0305778 4
-11.432 8.18454 -2.73295 0.0724045 1
-14.0347 10.0479 -2.73383 0.0593416 1
-18.1131 12.9677 -2.73522 0.0462063 1
-20.5602 14.7197 -2.21225 0.342659 10
-20.5602 14.7197 -1.32519 0.343483 10
-20.5602 14.7197 -0.441372 0.343888 10
-20.5602 14.7196 0.441371 0.343875 10
-20.5602 14.7196 1.32519 0.343442 10
-19.6388 14.06 2.11312 0.173912 10
-24.9141 17.8368 5.95599 0.54706 10
-24.1683 17.3028 6.86223 0.154568 10
-20.8271 14.9107 6.86337 0.17781 10
-7.73365 5.49603 -2.54221 0.0876695 4
-8.97729 6.37983 -2.54263 0.066856 4
-11.4606 8.14466 -2.73298 0.0724039 1
-14.0699 9.99894 -2.73386 0.0593409 1
-18.1585 12.9046 -2.73526 0.0462057 1
-20.6465 14.6727 -2.21601 0.286886 10
-20.6465 14.6727 -1.32745 0.287573 10
-20.6465 14.6727 -0.442123 0.28791 10
-20.6466 14.6728 0.442123 0.287897 10
-20.6466 14.6728 1.32745 0.287533 10
-19.7387 14.0276 2.11858 0.174733 10
-25.0983 17.8365 5.9851 0.548429 10
-24.2283 17.2182 6.86218 0.154569 10
-20.8789 14.8379 6.86332 0.177811 10
-7.7726 5.48297 -2.54871 0.101408 4
-8.99958 6.3485 -2.54265 0.0881041 4
-11.4891 8.10467 -2.733 0.0724033 1
-14.1048 9.94987 -2.73389 0.0593403 1
-18.2037 12.8413 -2.73529 0.046205 1
-20.7311 14.6242 -2.21961 0.28905 10
-20.7312 14.6242 -1.3296 0.289743 10
-20.7312 14.6243 -0.44284 0.290083 10
-20.7312 14.6243 0.442841 0.29007 10
-20.7313 14.6243 1.32961 0.289703 10
-19.838 13.9942 2.12398 0.148305 10
-25.2844 17.8362 6.01458 0.549791 10
-24.2881 17.1334 6.86213 0.154571 10
-20.9304 14.7648 6.86328 0.177813 10
-7.82121 5.47647 -2.55836 0.101418 4
-9.02175 6.3171 -2.54267 0.0767018 4
-11.5174 8.06459 -2.73302 0.0724026 1
-14.1396 9.90068 -2.73392 0.0593396 1
-18.2486 12.7778 -2.73533 0.0462044 1
-20.8161 14.5756 -2.22324 0.291211 10
-20.8161 14.5756 -1.33177 0.291909 10
-20.8161 14.5756 -0.443565 0.292252 10
-20.8162 14.5757 0.443565 0.292238 10
-20.8162 14.5757 1.33178 0.291869 10
-19.9277 13.9535 2.12835 0.149186 10
-25.4726 17.8361 4.92517 0.554562 10
-25.4722 17.8358 6.04441 0.551146 10
-24.3476 17.0484 6.86208 0.154572 10
-20.9817 14.6916 6.86323 0.177814 10
-7.87017 5.46991 -2.56811 0.0700432 4
-9.04381 6.28561 -2.54269 0.0834385 4
-11.5456 8.02441 -2.73305 0.072402 1
-14.1743 9.85137 -2.73395 0.059339 1
-18.2934 12.7142 -2.73537 0.0462037 1
-20.9013 14.5268 -2.22691 0.293369 10
-20.9013 14.5268 -1.33397 0.294072 10
-20.9014 14.5268 -0.444298 0.294417 10
-20.9014 14.5269 0.444298 0.294404 10
-20.9014 14.5269 1.33398 0.294032 10
-20.0177 13.9127 2.13277 0.150065 10
-25.6623 17.8358 4.94979 0.555919 10
-25.6619 17.8355 6.07463 0.552495 10
-24.4068 16.9632 6.86203 0.154573 10
-21.0327 14.6181 6.86319 0.177815 10
-7.91947 5.46328 -2.57796 0.0709819 4
-9.06576 6.25406 -2.54271 0.0730729 4
-11.5737 7.98413 -2.73307 0.0724013 1
-14.2087 9.80194 -2.73398 0.0593384 1
-18.3379 12.6505 -2.73541 0.0462031 1
-20.9833 14.4754 -2.23025 0.252585 10
-20.9833 14.4754 -1.33598 0.253189 10
-20.9834 14.4755 -0.444965 0.253484 10
-20.9835 14.4755 0.444966 0.253471 10
-20.9835 14.4756 1.33599 0.253149 10
-20.1081 13.8717 2.13723 0.150942 10
-25.7664 17.775 4.95786 0.385864 10
-25.767 17.7754 6.08476 0.383502 10
-24.4657 16.8777 6.86198 0.154574 10
-21.0835 14.5445 6.86314 0.177816 10
-7.96914 5.45658 -2.58792 0.102814 4
-9.08761 6.22242 -2.54273 0.0663352 4
-11.6016 7.94375 -2.7331 0.0724007 1
-14.243 9.75239 -2.73401 0.0593377 1
-18.3822 12.5866 -2.73545 0.0462024 1
-21.063 14.4222 -2.23336 0.254801 10
-21.0631 14.4222 -1.33784 0.255411 10
-21.0632 14.4222 -0.445586 0.255709 10
-21.0632 14.4223 0.445587 0.255695 10
-21.0633 14.4223 1.33785 0.25537 10
-20.1938 13.827 2.1412 0.12711 10
-25.7661 17.6424 4.94593 0.383916 10
-25.7667 17.6428 6.07013 0.381566 10
-24.5242 16.7921 6.86193 0.154575 10
-21.134 14.4707 6.8631 0.177817 10
-8.01917 5.44982 -2.59797 0.0727916 4
-9.10934 6.1907 -2.54275 0.0627071 4
-11.6293 7.90328 -2.73312 0.0724001 1
-14.2771 9.70272 -2.73404 0.0593371 1
-18.4263 12.5225 -2.73549 0.0462018 1
-21.143 14.3688 -2.23651 0.257014 10
-21.1431 14.3688 -1.33973 0.257629 10
-21.1431 14.3689 -0.446214 0.25793 10
-21.1432 14.3689 0.446215 0.257916 10
-21.1433 14.3689 1.33974 0.257589 10
-20.2762 13.7797 2.14482 0.12803 10
-25.7659 17.5105 4.93413 0.381963 10
-25.7665 17.5109 6.05564 0.379625 10
-24.5825 16.7063 6.86187 0.154576 10
-21.1842 14.3968 6.86306 0.177818 10
-8.06956 5.44299 -2.60812 0.104119 4
-9.13096 6.15892 -2.54277 0.0544148 4
-11.6569 7.86271 -2.73314 0.0723994 1
-14.311 9.65293 -2.73407 0.0593364 1
-18.4702 12.4583 -2.73552 0.0462012 1
-21.2232 14.3152 -2.23969 0.259224 10
-21.2233 14.3153 -1.34163 0.259844 10
-21.2233 14.3153 -0.446849 0.260148 10
-21.2234 14.3154 0.44685 0.260134 10
-21.2235 14.3154 1.34165 0.259804 10
-20.3588 13.7322 2.14847 0.128949 10
-25.7657 17.3792 4.92244 0.380007 10
-25.7663 17.3796 6.04129 0.37768 10
-24.6405 16.6202 6.86182 0.154577 10
-21.2342 14.3227 6.86301 0.177819 10
-8.12033 5.43609 -2.61838 0.0970042 4
-9.15247 6.12705 -2.54279 0.0860266 4
-11.6844 7.82203 -2.73317 0.0723988 1
-14.3448 9.60301 -2.7341 0.0593358 1
-18.5138 12.3939 -2.73556 0.0462005 1
-21.3036 14.2615 -2.24291 0.261431 10
-21.3037 14.2616 -1.34356 0.262057 10
-21.3038 14.2616 -0.447492 0.262363 10
-21.3038 14.2617 0.447493 0.262349 10
-21.3039 14.2617 1.34358 0.262016 10
-20.4411 13.6841 2.15211 0.111694 10
-25.7655 17.2485 4.91086 0.378045 10
-25.7661 17.2489 6.02708 0.375731 10
-24.6982 16.534 6.86177 0.154579 10
-21.3043 14.262 6.86953 0.253356 10
-8.17147 5.42911 -2.62875 0.0997502 4
-9.17387 6.09511 -2.5428 0.0518229 4
-11.7117 7.78127 -2.73319 0.0723982 1
-14.3784 9.55299 -2.73413 0.0593352 1
-18.5572 12.3294 -2.7356 0.0461999 1
-21.3843 14.2077 -2.24617 0.262727 10
-21.3844 14.2077 -1.34551 0.263356 10
-21.3844 14.2078 -0.448142 0.263664 10
-21.3845 14.2078 0.448143 0.26365 10
-21.3846 14.2079 1.34553 0.263316 10
-20.5184 13.6324 2.15522 0.112639 10
-25.7653 17.1184 4.8994 0.376078 10
-25.7658 17.1188 6.01302 0.373776 10
-24.7556 16.4476 6.86172 0.15458 10
-21.385 14.2082 6.87951 0.254615 10
-8.22299 5.42207 -2.63922 0.0830598 4
-9.19516 6.06309 -2.54282 0.0735879 4
-11.7389 7.74041 -2.73322 0.0723975 1
-14.4118 9.50284 -2.73416 0.0593345 1
-18.6004 12.2647 -2.73564 0.0461992 1
-21.4651 14.1536 -2.24945 0.264929 10
-21.4651 14.1537 -1.34748 0.265563 10
-21.4652 14.1537 -0.448796 0.265874 10
-21.4653 14.1537 0.448797 0.26586 10
-21.4653 14.1538 1.34749 0.265523 10
-20.596 13.5805 2.15837 0.113582 10
-25.765 16.9889 4.88805 0.374107 10
-25.7656 16.9893 5.99909 0.371817 10
-24.8127 16.3609 6.86167 0.154581 10
-21.4658 14.1541 6.88956 0.25675 10
-8.27491 5.41495 -2.6498 0.0796647 4
-9.21633 6.031 -2.54284 0.0673687 4
-11.766 7.69945 -2.73324 0.0723969 1
-14.445 9.45258 -2.73419 0.0593339 1
-18.6433 12.1999 -2.73567 0.0461986 1
-21.5461 14.0994 -2.25277 0.267127 10
-21.5462 14.0994 -1.34947 0.267767 10
-21.5462 14.0995 -0.449459 0.26808 10
-21.5463 14.0995 0.449459 0.268067 10
-21.5464 14.0995 1.34948 0.267727 10
-20.6737 13.5285 2.16156 0.114524 10
-25.7648 16.86 4.87682 0.372132 10
-25.7654 16.8604 5.9853 0.369854 10
-24.8694 16.2741 6.86162 0.154582 10
-21.5468 14.0998 6.89973 0.258882 10
-8.31014 5.39667 -2.65503 0.109728 4
-9.2374 5.99884 -2.54286 0.0378299 4
-11.7929 7.6584 -2.73326 0.0723963 1
-14.4781 9.40219 -2.73422 0.0593333 1
-18.6861 12.1349 -2.73571 0.046198 1
-21.6273 14.045 -2.25613 0.269323 10
-21.6274 14.045 -1.35148 0.269968 10
-21.6275 14.0451 -0.450128 0.270284 10
-21.6276 14.0451 0.450129 0.27027 10
-21.6276 14.0451 1.35149 0.269927 10
-20.7517 13.4763 2.16478 0.115465 10
-23.2956 15.1283 4.39942 0.648542 10
-23.2972 15.1294 5.39963 0.644558 10
-23.2988 15.1304 6.41366 0.63979 10
-21.628 14.0454 6.91001 0.26101 10
-8.32897 5.36766 -2.65505 0.13358 4
-9.25835 5.9666 -2.54288 0.0424935 4
-11.8197 7.61725 -2.73329 0.0723956 1
-14.511 9.3517 -2.73425 0.0593326 1
-18.7286 12.0697 -2.73575 0.0461973 1
-21.7088 13.9904 -2.25952 0.271515 10
-21.7089 13.9904 -1.35351 0.272165 10
-21.709 13.9905 -0.450805 0.272483 10
-21.709 13.9905 0.450806 0.27247 10
-21.7091 13.9906 1.35352 0.272125 10
-20.8299 13.424 2.16804 0.116404 10
-23.1911 14.9457 4.3698 0.540619 10
-23.1919 14.9462 5.3631 0.537303 10
-23.1927 14.9467 6.37005 0.533332 10
-21.7095 13.9909 6.9204 0.263136 10
-8.34771 5.33858 -2.65506 0.0632118 4
-9.27919 5.93429 -2.5429 0.0456025 4
-11.8463 7.57601 -2.73331 0.072395 1
-14.5437 9.30109 -2.73427 0.059332 1
-18.7708 12.0045 -2.73579 0.0461967 1
-21.7906 13.9357 -2.26295 0.273703 10
-21.7907 13.9357 -1.35557 0.274359 10
-21.7907 13.9358 -0.45149 0.27468 10
-21.7908 13.9358 0.451491 0.274667 10
-21.7909 13.9358 1.35558 0.274319 10
-20.9085 13.3715 2.17135 0.117678 10
-23.1859 14.828 4.35904 0.366178 10
-23.1864 14.8283 5.34983 0.363937 10
-23.1869 14.8286 6.35421 0.361252 10
-21.7913 13.9361 6.93091 0.265258 10
-8.36635 5.30945 -2.65508 0.0661931 4
-9.29991 5.90191 -2.54292 0.0419747 4
-11.8728 7.53468 -2.73333 0.0723944 1
-14.5762 9.25036 -2.7343 0.0593314 1
-18.8129 11.939 -2.73582 0.0461961 1
-21.8786 13.8846 -2.26705 0.328106 10
-21.8786 13.8846 -1.35802 0.328894 10
-21.8787 13.8846 -0.452305 0.329282 10
-21.8787 13.8847 0.452305 0.329268 10
-21.8787 13.8847 1.35802 0.328853 10
-20.9873 13.3189 2.17469 0.118614 10
-23.2131 14.7315 4.35447 0.146688 10
-23.2135 14.7317 5.34418 0.145798 10
-23.2138 14.7319 6.34745 0.14473 10
-21.8789 13.8848 6.94333 0.318006 10
-8.38488 5.28025 -2.65509 0.0113303 4
-9.32052 5.86945 -2.54293 0.0279829 4
-11.0729 6.97296 -2.54356 0.0549304 4
-14.6086 9.19953 -2.73433 0.0593307 1
-18.8547 11.8734 -2.73586 0.0461954 1
-21.969 13.8346 -2.2714 0.330197 10
-21.969 13.8347 -1.36062 0.330991 10
-21.9691 13.8347 -0.453173 0.331381 10
-21.9691 13.8347 0.453173 0.331367 10
-21.9691 13.8347 1.36063 0.33095 10
-21.0664 13.2662 2.17807 0.119548 10
-23.2621 14.649 4.35404 0.0908194 10
-23.2623 14.6491 5.34363 0.0902497 10
-23.2625 14.6492 6.34676 0.0895699 10
-21.9693 13.8348 6.95665 0.320035 10
-8.40332 5.25098 -2.65511 0.0763298 4
-9.34102 5.83692 -2.54295 0.0663294 4
-11.0972 6.93432 -2.54359 0.0351551 4
-14.6408 9.14857 -2.73436 0.0593301 1
-18.8963 11.8077 -2.7359 0.0461948 1
-22.0598 13.7845 -2.27579 0.332285 10
-22.0598 13.7845 -1.36326 0.333084 10
-22.0598 13.7845 -0.45405 0.333476 10
-22.0599 13.7845 0.45405 0.333463 10
-22.0599 13.7846 1.36326 0.333043 10
-21.1457 13.2133 2.18149 0.120481 10
-23.3323 14.5796 4.35762 0.317185 10
-23.3323 14.5797 5.34799 0.315225 10
-23.3324 14.5797 6.35189 0.312881 10
-22.0601 13.7847 6.97011 0.322059 10
-8.42165 5.22165 -2.65513 0.0745404 4
-9.36141 5.80432 -2.54297 0.0124367 4
-11.1215 6.8956 -2.54361 0.0439435 4
-14.6728 9.09751 -2.73439 0.0593295 1
-18.9377 11.7418 -2.73594 0.0461942 1
-22.1509 13.7341 -2.28023 0.334369 10
-22.1509 13.7342 -1.36591 0.335172 10
-22.151 13.7342 -0.454936 0.335568 10
-22.151 13.7342 0.454936 0.335554 10
-22.151 13.7342 1.36592 0.335132 10
-21.2252 13.1602 2.18494 0.121412 10
-23.4314 14.5281 4.36663 0.504506 10
-23.4312 14.528 5.35899 0.501397 10
-23.431 14.5279 6.36489 0.497677 10
-22.1512 13.7343 6.98371 0.324079 10
-8.43988 5.19225 -2.65514 0.0405497 4
-9.38168 5.77165 -2.54299 0.0632193 4
-11.1456 6.8568 -2.54363 0.0395488 4
-14.7046 9.04632 -2.73442 0.0593289 1
-18.9788 11.6758 -2.73597 0.0461936 1
-22.2424 13.6836 -2.28472 0.336449 10
-22.2424 13.6836 -1.3686 0.337257 10
-22.2424 13.6836 -0.455831 0.337655 10
-22.2425 13.6837 0.455831 0.337642 10
-22.2425 13.6837 1.36861 0.337217 10
-21.305 13.1069 2.18843 0.122342 10
-23.601 14.5194 4.38877 0.629789 10
-23.6002 14.519 5.38602 0.625913 10
-23.5995 14.5185 6.39685 0.621274 10
-22.2427 13.6838 6.99744 0.326096 10
-8.458 5.16279 -2.65516 0.0316047 4
-9.40184 5.73891 -2.54301 0.0652916 4
-11.1695 6.81791 -2.54365 0.0347148 4
-14.7362 8.99504 -2.73445 0.0593283 1
-19.0197 11.6097 -2.73601 0.0461929 1
-22.3412 13.6371 -2.28997 0.420218 10
-22.3412 13.6371 -1.37174 0.421232 10
-22.3411 13.6371 -0.456875 0.421732 10
-22.3411 13.6371 0.456874 0.421719 10
-22.341 13.637 1.37173 0.421191 10
-21.3923 13.0579 2.1927 0.145659 10
-25.7629 15.7257 4.78055 0.354152 10
-25.7634 15.7261 5.86715 0.351984 10
-25.3667 15.4839 6.86118 0.154592 10
-22.3408 13.6369 7.01328 0.407316 10
-8.47602 5.13326 -2.65518 0.0739427 4
-9.42188 5.70609 -2.54303 0.0658093 4
-11.1933 6.77893 -2.54367 0.0500943 4
-14.7677 8.94364 -2.73448 0.0593276 1
-19.0603 11.5434 -2.73605 0.0461923 1
-22.4499 13.5961 -2.29623 0.422099 10
-22.4498 13.5961 -1.37549 0.423117 10
-22.4498 13.5961 -0.458124 0.423619 10
-22.4498 13.5961 0.458123 0.423606 10
-22.4497 13.596 1.37548 0.423076 10
-21.4809 13.0093 2.19711 0.146545 10
-25.7627 15.6024 4.77037 0.352132 10
-25.7632 15.6028 5.85466 0.349977 10
-25.4204 15.3951 6.86113 0.154593 10
-22.4494 13.5959 7.03245 0.409139 10
-8.49394 5.10368 -2.65519 0.0536677 4
-9.44181 5.67321 -2.54304 0.0487089 4
-11.217 6.73988 -2.54369 0.0610794 4
-14.799 8.89213 -2.7345 0.059327 1
-19.1008 11.4769 -2.73608 0.0461917 1
-22.5591 13.5549 -2.30255 0.423973 10
-22.5591 13.5549 -1.37928 0.424996 10
-22.559 13.5548 -0.459385 0.425501 10
-22.559 13.5548 0.459384 0.425487 10
-22.559 13.5548 1.37927 0.424955 10
-21.5698 12.9604 2.20156 0.14743 10
-25.7625 15.4797 4.7603 0.350108 10
-25.763 15.48 5.8423 0.347965 10
-25.4738 15.3062 6.86108 0.154594 10
-22.5587 13.5546 7.05181 0.410957 10
-8.51176 5.07403 -2.65521 0.112702 4
-9.46162 5.64026 -2.54306 0.0595903 4
-11.2406 6.70074 -2.54372 0.0676702 4
-14.8301 8.8405 -2.73453 0.0593264 1
-19.141 11.4103 -2.73612 0.0461911 1
-22.669 13.5134 -2.30893 0.425843 10
-22.669 13.5134 -1.3831 0.42687 10
-22.6689 13.5134 -0.460659 0.427378 10
-22.6689 13.5134 0.460657 0.427364 10
-22.6688 13.5133 1.38309 0.42683 10
-21.659 12.9114 2.20606 0.148313 10
-25.7623 15.3574 4.75033 0.348079 10
-25.7628 15.3577 5.83006 0.345949 10
-25.5269 15.2171 6.86103 0.154595 10
-22.6685 13.5132 7.07136 0.41277 10
-8.52947 5.04432 -2.65523 0.0620153 4
-9.48132 5.60724 -2.54308 0.0606262 4
-11.264 6.66152 -2.54374 0.0650331 4
-14.861 8.78878 -2.73456 0.0593258 1
-19.181 11.3436 -2.73616 0.0461904 1
-22.7795 13.4717 -2.31538 0.427708 10
-22.7794 13.4717 -1.38696 0.428739 10
-22.7794 13.4717 -0.461945 0.429249 10
-22.7793 13.4717 0.461944 0.429235 10
-22.7793 13.4716 1.38696 0.428699 10
-21.7487 12.8621 2.21061 0.149194 10
-25.7621 15.2356 4.74046 0.346047 10
-25.7626 15.236 5.81794 0.343929 10
-25.5797 15.1278 6.86098 0.154596 10
-22.779 13.4715 7.09111 0.414578 10
-8.54708 5.01454 -2.65524 0.0632075 4
-9.5009 5.57415 -2.5431 0.0549259 4
-11.2873 6.62222 -2.54376 0.0610779 4
-14.8917 8.73694 -2.73459 0.0593252 1
-19.2207 11.2767 -2.73619 0.0461898 1
-22.8933 13.4314 -2.32217 0.508088 10
-22.8931 13.4313 -1.39102 0.509317 10
-22.893 13.4312 -0.463295 0.509925 10
-22.8928 13.4311 0.463291 0.509912 10
-22.8926 13.431 1.391 0.509277 10
-21.8387 12.8127 2.2152 0.150073 10
-25.7619 15.1144 4.73068 0.34401 10
-25.7624 15.1147 5.80594 0.341905 10
-25.6321 15.0383 6.86093 0.154598 10
-22.8916 13.4305 7.11154 0.492518 10
-8.56458 4.98471 -2.65526 0.0643997 4
-9.52037 5.54099 -2.54312 0.0813519 4
-11.3104 6.58283 -2.54378 0.0623956 4
-14.9223 8.68499 -2.73462 0.0593246 1
-19.2602 11.2097 -2.73623 0.0461892 1
-23.0294 13.4035 -2.33122 0.509682 10
-23.0293 13.4034 -1.39645 0.510915 10
-23.0291 13.4033 -0.465101 0.511525 10
-23.029 13.4032 0.465097 0.511512 10
-23.0288 13.4031 1.39642 0.510875 10
-21.9354 12.7667 2.22047 0.185003 10
-25.7616 14.9936 4.721 0.341969 10
-25.7622 14.994 5.79406 0.339876 10
-25.6843 14.9486 6.86088 0.154599 10
-23.0278 13.4025 7.13926 0.494064 10
-8.58198 4.95481 -2.65527 0.0787103 4
-9.53972 5.50776 -2.54313 0.0564796 4
-11.3334 6.54337 -2.5438 0.0566828 4
-14.9527 8.63294 -2.73465 0.0593239 1
-19.2995 11.1426 -2.73627 0.0461886 1
-23.1667 13.3753 -2.34037 0.51127 10
-23.1665 13.3752 -1.40193 0.512506 10
-23.1663 13.3751 -0.466926 0.513118 10
-23.1662 13.375 0.466922 0.513105 10
-23.166 13.3749 1.4019 0.512467 10
-22.0426 12.7263 2.22681 0.185795 10
-25.7614 14.8734 4.71142 0.339924 10
-25.762 14.8737 5.78231 0.337844 10
-25.7361 14.8588 6.86084 0.1546 10
-23.165 13.3743 7.16728 0.495603 10
-8.23451 4.71595 -2.54266 0.0846727 4
-9.57206 5.48197 -2.54664 0.0663876 4
-11.3563 6.50382 -2.54382 0.0575612 4
-14.9829 8.58078 -2.73467 0.0593233 1
-19.3385 11.0753 -2.7363 0.046188 1
-23.305 13.3469 -2.34962 0.512851 10
-23.3048 13.3468 -1.40747 0.514092 10
-23.3046 13.3467 -0.468772 0.514706 10
-23.3045 13.3466 0.468768 0.514692 10
-23.3043 13.3465 1.40744 0.514052 10
-22.1504 12.6857 2.23322 0.186584 10
-25.7612 14.7536 4.70194 0.337875 10
-25.7618 14.7539 5.77066 0.335807 10
-25.7623 14.7542 6.85405 0.33333 10
-23.3033 13.3459 7.19561 0.497137 10
-8.25097 4.6872 -2.54267 0.0602246 4
-9.63592 5.47397 -2.55853 0.0696377 4
-11.379 6.46419 -2.54384 0.045697 4
-15.0129 8.52852 -2.7347 0.0593227 1
-19.3773 11.0078 -2.73634 0.0461874 1
-23.4444 13.3183 -2.35898 0.514427 10
-23.4442 13.3182 -1.41307 0.515671 10
-23.444 13.3181 -0.470638 0.516286 10
-23.4439 13.318 0.470634 0.516273 10
-23.4437 13.3179 1.41304 0.515631 10
-22.2589 12.6448 2.23969 0.187371 10
-25.761 14.6343 4.69255 0.335822 10
-25.7616 14.6346 5.75914 0.333767 10
-25.7621 14.6349 6.84036 0.331305 10
-23.4427 13.3173 7.22425 0.498664 10
-8.26733 4.6584 -2.54269 0.0846716 4
-9.70036 5.46587 -2.57056 0.0740848 4
-11.4016 6.42448 -2.54387 0.0623935 4
-15.0427 8.47614 -2.73473 0.0593221 1
-19.4159 10.9403 -2.73637 0.0461868 1
-23.5849 13.2894 -2.36843 0.515996 10
-23.5847 13.2893 -1.41874 0.517244 10
-23.5846 13.2892 -0.472525 0.517861 10
-23.5844 13.2891 0.472521 0.517848 10
-23.5842 13.289 1.41871 0.517204 10
-22.368 12.6037 2.24623 0.188157 10
-25.7608 14.5155 4.68325 0.333764 10
-25.7614 14.5158 5.74773 0.331722 10
-25.7619 14.5161 6.82681 0.329275 10
-23.5832 13.2884 7.25321 0.500186 10
-8.28359 4.62954 -2.5427 0.0787084 4
-9.76536 5.45768 -2.58272 0.0822049 4
-11.4241 6.3847 -2.54389 0.0584385 4
-15.0724 8.42367 -2.73476 0.0593215 1
-19.4542 10.8726 -2.73641 0.0461862 1
-23.7521 13.2746 -2.38056 0.574487 10
-23.7518 13.2744 -1.42599 0.575879 10
-23.7515 13.2743 -0.474938 0.576569 10
-23.7512 13.2741 0.474931 0.576556 10
-23.7508 13.2739 1.42593 0.575841 10
-22.4778 12.5624 2.25283 0.188939 10
-25.7606 14.3971 4.67405 0.331703 10
-25.7612 14.3974 5.73644 0.329673 10
-25.7617 14.3977 6.8134 0.327241 10
-23.7489 13.2728 7.28988 0.556908 10
-8.29975 4.60063 -2.54272 0.0787079 4
-9.83097 5.44939 -2.59502 0.0609385 4
-11.4464 6.34483 -2.54391 0.0558017 4
-15.1018 8.37109 -2.73479 0.0593209 1
-19.4923 10.8047 -2.73645 0.0461856 1
-23.9279 13.2635 -2.39352 0.575778 10
-23.9276 13.2633 -1.43376 0.577173 10
-23.9273 13.2631 -0.477524 0.577864 10
-23.9269 13.2629 0.477517 0.577851 10
-23.9266 13.2627 1.4337 0.577135 10
-22.5882 12.5208 2.2595 0.18972 10
-25.7604 14.2792 4.66494 0.329637 10
-25.761 14.2795 5.72526 0.32762 10
-25.7615 14.2798 6.80012 0.325204 10
-23.9246 13.2616 7.32956 0.558159 10
-8.33837 4.58406 -2.54963 0.0965903 4
-9.89716 5.44101 -2.60747 0.0776303 4
-11.4686 6.30489 -2.54393 0.0496499 4
-15.1311 8.31841 -2.73481 0.0593203 1
-19.5301 10.7368 -2.73648 0.0461849 1
-24.1056 13.2522 -2.40665 0.577061 10
-24.1053 13.252 -1.44162 0.578459 10
-24.1049 13.2518 -0.480144 0.579152 10
-24.1046 13.2516 0.480137 0.579139 10
-24.1043 13.2514 1.44156 0.578421 10
-22.7185 12.4896 2.26817 0.222945 10
-25.7602 14.1618 4.65593 0.327567 10
-25.7608 14.1621 5.71419 0.325563 10
-25.7613 14.1624 6.78697 0.323162 10
-8.39922 4.57941 -2.56333 0.0966666 4
-9.96397 5.43254 -2.62006 0.0573772 4
-11.4906 6.26488 -2.54395 0.0593158 4
-15.1602 8.26563 -2.73484 0.0593197 1
-19.5677 10.6687 -2.73652 0.0461843 1
-24.2852 13.2408 -2.41996 0.578338 10
-24.2849 13.2406 -1.44959 0.579739 10
-24.2846 13.2404 -0.482799 0.580433 10
-24.2843 13.2402 0.482792 0.580421 10
-24.2839 13.24 1.44953 0.579701 10
-22.8557 12.4613 2.27751 0.223607 10
-25.76 14.0448 4.647 0.325494 10
-25.7606 14.0451 5.70324 0.323502 10
-25.7611 14.0454 6.77396 0.321117 10
-8.46072 4.57469 -2.57721 0.115582 4
-10.0314 5.42396 -2.63279 0.0828392 4
-11.5125 6.22478 -2.54397 0.0593153 4
-15.1891 8.21274 -2.73487 0.0593191 1
-19.6051 10.6004 -2.73655 0.0461837 1
-24.4669 13.2292 -2.43345 0.579607 10
-24.4666 13.229 -1.45767 0.581011 10
-24.4662 13.2289 -0.485489 0.581707 10
-24.4659 13.2287 0.485482 0.581695 10
-24.4656 13.2285 1.45761 0.580973 10
-22.994 12.4328 2.28696 0.224267 10
-25.7598 13.9283 4.63817 0.323416 10
-25.7604 13.9286 5.6924 0.321437 10
-25.7609 13.9289 6.76108 0.319067 10
-8.52286 4.56992 -2.59127 0.105722 4
-10.0995 5.41529 -2.64568 0.0880421 4
-11.5342 6.18461 -2.54399 0.0461338 4
-15.2179 8.15975 -2.7349 0.0593185 1
-19.6423 10.5321 -2.73659 0.0461831 1
-24.6715 13.2288 -2.44919 0.616448 10
-24.671 13.2285 -1.46709 0.617942 10
-24.6705 13.2282 -0.488623 0.618684 10
-24.6699 13.2279 0.488612 0.618672 10
-24.6694 13.2276 1.467 0.617906 10
-23.1335 12.4041 2.29651 0.224923 10
-25.7596 13.8122 4.62942 0.321335 10
-25.7602 13.8125 5.68167 0.319369 10
-25.7607 13.8128 6.74834 0.317014 10
-8.58567 4.56508 -2.6055 0.0943887 4
-10.1577 5.40094 -2.65597 0.119687 4
-11.5558 6.14435 -2.54401 0.0518451 4
-15.2464 8.10666 -2.73492 0.0593179 1
-19.6792 10.4636 -2.73662 0.0461825 1
-24.8989 13.239 -2.46716 0.617476 10
-24.8983 13.2387 -1.47785 0.618973 10
-24.8978 13.2384 -0.492207 0.619716 10
-24.8973 13.2381 0.492196 0.619704 10
-24.8967 13.2378 1.47776 0.618937 10
-23.2742 12.3751 2.30617 0.225577 10
-25.7594 13.6965 4.62077 0.319249 10
-25.76 13.6968 5.67104 0.317296 10
-25.7605 13.6971 6.73572 0.314956 10
-8.64916 4.56019 -2.61992 0.112832 4
-10.1765 5.36548 -2.65599 0.0445585 4
-11.5773 6.10403 -2.54403 0.046133 4
-15.2748 8.05348 -2.73495 0.0593173 1
-19.7158 10.395 -2.73666 0.046182 1
-25.1296 13.2493 -2.48542 0.618497 10
-25.129 13.249 -1.48879 0.619997 10
-25.1285 13.2488 -0.49585 0.620741 10
-25.1279 13.2485 0.495839 0.620729 10
-25.1274 13.2482 1.4887 0.619961 10
-23.416 12.3459 2.31594 0.226228 10
-25.7592 13.5813 4.6122 0.31716 10
-25.7598 13.5816 5.66053 0.31522 10
-25.7603 13.5819 6.72323 0.312895 10
-8.71334 4.55522 -2.63453 0.111118 4
-10.1953 5.32996 -2.65601 0.0984425 4
-11.5986 6.06363 -2.54405 0.0562379 4
-15.3029 8.00018 -2.73498 0.0593167 1
-19.7522 10.3262 -2.7367 0.0461814 1
-25.3638 13.2598 -2.50399 0.619511 10
-25.3632 13.2596 -1.49991 0.621013 10
-25.3626 13.2593 -0.499554 0.621759 10
-25.3621 13.259 0.499543 0.621747 10
-25.3615 13.2587 1.49982 0.620977 10
-23.5758 12.3251 2.32748 0.250368 10
-25.7591 13.4665 4.60372 0.315067 10
-25.7596 13.4668 5.65012 0.313139 10
-25.7601 13.4671 6.71087 0.31083 10
-8.77822 4.5502 -2.64933 0.0928854 4
-10.2139 5.29438 -2.65603 0.109322 4
-11.6198 6.02315 -2.54407 0.0465716 4
-15.3309 7.9468 -2.73501 0.0593161 1
-19.7884 10.2573 -2.73673 0.0461808 1
-25.6014 13.2705 -2.52286 0.620517 10
-25.6009 13.2702 -1.51122 0.622021 10
-25.6003 13.2699 -0.50332 0.622768 10
-25.5997 13.2696 0.503308 0.622756 10
-25.5992 13.2694 1.51112 0.621985 10
-23.7553 12.3136 2.34094 0.250897 10
-25.7589 13.3521 4.59533 0.31297 10
-25.7594 13.3524 5.63982 0.311055 10
-25.7599 13.3527 6.69863 0.308762 10
-8.84382 4.54511 -2.66432 0.08899 4
-10.2324 5.25873 -2.65605 0.0196882 4
-11.6409 5.98261 -2.5441 0.065024 4
-15.3587 7.89332 -2.73503 0.0593156 1
-19.8244 10.1883 -2.73677 0.0461802 1
-25.8348 13.2773 -2.54128 0.607595 10
-25.8343 13.277 -1.52226 0.609068 10
-25.8338 13.2768 -0.506997 0.609799 10
-25.8334 13.2766 0.506987 0.609786 10
-25.8329 13.2763 1.52217 0.609031 10
-23.9369 12.3019 2.35458 0.251424 10
-25.7581 13.2379 3.55593 0.133869 10
-25.7587 13.2382 4.58702 0.133217 10
-25.7592 13.2384 5.62962 0.132402 10
-25.7597 13.2387 6.68652 0.131425 10
-25.7603 13.239 7.76065 0.130289 10
-8.91015 4.53995 -2.67952 0.0959825 4
-10.2507 5.22302 -2.65606 0.0549194 4
-11.6618 5.94198 -2.54412 0.0426167 4
-15.3863 7.83973 -2.73506 0.059315 1
-19.8601 10.1192 -2.7368 0.0461796 1
-26.0574 13.2769 -2.5586 0.608686 10
-26.0569 13.2767 -1.53263 0.610161 10
-26.0565 13.2764 -0.510454 0.610893 10
-26.056 13.2762 0.510444 0.610881 10
-26.0555 13.2759 1.53255 0.610124 10
-24.1206 12.2901 2.36842 0.251947 10
-25.7579 13.1243 3.54956 0.132963 10
-25.7585 13.1246 4.5788 0.132315 10
-25.759 13.1249 5.61954 0.131505 10
-25.7595 13.1251 6.67454 0.130536 10
-25.7601 13.1254 7.74674 0.129407 10
-8.97722 4.53472 -2.69491 0.0867252 4
-10.269 5.18724 -2.65608 0.112429 4
-11.6826 5.90129 -2.54414 0.0540393 4
-15.4138 7.78606 -2.73509 0.0593144 1
-19.8955 10.05 -2.73684 0.046179 1
-26.2831 13.2766 -2.57619 0.609769 10
-26.2826 13.2763 -1.54317 0.611247 10
-26.2821 13.2761 -0.513963 0.611981 10
-26.2816 13.2758 0.513953 0.611968 10
-26.2811 13.2756 1.54309 0.61121 10
-24.3065 12.2781 2.38245 0.252467 10
-25.7577 13.0112 3.54325 0.132055 10
-25.7583 13.0114 4.57066 0.131411 10
-25.7588 13.0117 5.60955 0.130607 10
-25.7593 13.012 6.66268 0.129644 10
-25.7599 13.0123 7.73298 0.128523 10
-9.04505 4.52943 -2.71051 0.115656 4
-10.2871 5.1514 -2.6561 0.0704617 4
-11.7032 5.86052 -2.54416 0.0527209 4
-15.441 7.73228 -2.73511 0.0593138 1
-19.9307 9.98056 -2.73687 0.0461784 1
-26.5119 13.2762 -2.59406 0.610845 10
-26.5114 13.2759 -1.55388 0.612326 10
-26.5109 13.2757 -0.517528 0.61306 10
-26.5104 13.2754 0.517518 0.613048 10
-26.5099 13.2752 1.55379 0.612289 10
-24.4946 12.266 2.39667 0.252985 10
-25.7576 12.8984 3.53701 0.131146 10
-25.7581 12.8987 4.56261 0.130506 10
-25.7586 12.899 5.59967 0.129708 10
-25.7592 12.8992 6.65094 0.128751 10
-25.7597 12.8995 7.71935 0.127638 10
-9.11365 4.52406 -2.72632 0.103339 4
-10.3051 5.11549 -2.65612 0.0248687 4
-11.7237 5.81968 -2.54418 0.0588712 4
-15.468 7.67841 -2.73514 0.0593132 1
-19.9657 9.91106 -2.73691 0.0461778 1
-26.7439 13.2758 -2.61221 0.611913 10
-26.7434 13.2755 -1.56475 0.613397 10
-26.7429 13.2753 -0.521149 0.614133 10
-26.7424 13.275 0.521139 0.61412 10
-26.7419 13.2748 1.56466 0.61336 10
-24.7179 12.2701 2.41432 0.268056 10
-25.7574 12.7861 3.53083 0.130235 10
-25.7579 12.7863 4.55465 0.1296 10
-25.7584 12.7866 5.58989 0.128807 10
-25.759 12.7869 6.63933 0.127857 10
-25.7595 12.7871 7.70587 0.126752 10
-9.15067 4.50269 -2.73267 0.0982217 1
-10.3229 5.07952 -2.65614 0.0657979 4
-11.744 5.77876 -2.5442 0.0522807 4
-15.4949 7.62444 -2.73517 0.0593126 1
-20.0004 9.84143 -2.73694 0.0461772 1
-26.9792 13.2754 -2.63065 0.612974 10
-26.9787 13.2752 -1.57579 0.61446 10
-26.9782 13.2749 -0.524828 0.615198 10
-26.9777 13.2747 0.524817 0.615185 10
-26.9772 13.2744 1.5757 0.614424 10
-24.9583 12.281 2.4336 0.268467 10
-25.7572 12.6741 3.52472 0.129322 10
-25.7577 12.6744 4.54676 0.128691 10
