VERSION 0.7
FIELDS x y z intensity label
SIZE 4 4 4 4 4
TYPE F F F F F
COUNT 1 1 1 1 1
WIDTH 1273
HEIGHT 1
VIEWPOINT 13.0178 53.0001 2.72913 0.999999 -4.78985e-05 0.000796981 -0.000839372
POINTS 1273
DATA ascii
73.1907 -5.118 6.41899 0.689788 10
78.2218 -5.46981 12.4194 0.683976 10
9.81625 -0.651995 -2.63605 0.0228204 4
11.3821 -0.756002 -2.63356 0.0313468 4
13.5015 -0.896767 -2.6302 0.00621206 4
29.7039 -1.97293 -2.60448 0.0259942 4
78.2389 -5.19663 1.36867 0.692409 10
78.2346 -5.19634 4.10913 0.691604 10
78.2302 -5.19605 6.85933 0.689956 10
78.2258 -5.19576 9.62608 0.687468 10
78.2213 -5.19546 12.4163 0.684142 10
78.2168 -5.19516 15.2373 0.679983 10
78.2123 -5.19486 18.0965 0.674995 10
9.81844 -0.617724 -2.63604 0.0120108 4
11.3847 -0.716264 -2.63356 0.0208979 4
13.5045 -0.849629 -2.63019 0.0168614 4
21.2786 -1.33874 -2.61785 0.0324603 4
9.82051 -0.583446 -2.63604 0.0498449 4
11.3871 -0.676517 -2.63355 0.0261225 4
13.5073 -0.802481 -2.63018 0.0173052 4
21.283 -1.26444 -2.61783 0.0142371 4
9.82246 -0.549163 -2.63603 0.0312282 4
11.3893 -0.636765 -2.63354 0.0109715 4
13.51 -0.755327 -2.63017 0.0186364 4
16.5499 -0.925288 -2.62534 0.0400901 4
21.2872 -1.19014 -2.61782 0.0358776 4
9.82429 -0.514871 -2.63602 0.0282255 4
11.3915 -0.597003 -2.63353 0.00470207 4
13.5125 -0.708161 -2.63016 0.0190802 4
16.553 -0.867508 -2.62533 0.0138493 4
9.82601 -0.480574 -2.63602 0.013212 4
11.3934 -0.557234 -2.63353 0.0862049 4
13.5148 -0.660987 -2.63016 0.00709962 4
16.5559 -0.809719 -2.62532 0.012756 4
9.82761 -0.44627 -2.63601 0.0114104 4
11.3953 -0.517458 -2.63352 0.105536 4
13.517 -0.613806 -2.63015 0.0159742 4
16.5585 -0.75192 -2.62531 0.0160362 4
9.82908 -0.411961 -2.63601 0.0240219 4
11.397 -0.477677 -2.63351 0.122777 4
13.519 -0.566616 -2.63014 0.0399356 4
16.561 -0.694112 -2.6253 0.0167652 4
9.83044 -0.377648 -2.636 0.0336307 4
11.3986 -0.43789 -2.63351 0.0971771 4
13.5209 -0.519421 -2.63013 0.0102058 4
16.5632 -0.636297 -2.62529 0.0298859 4
9.83168 -0.34333 -2.636 0.0234215 4
11.4 -0.398097 -2.6335 0.115463 4
13.5226 -0.472219 -2.63013 0.011537 4
16.5653 -0.578474 -2.62529 0.0127562 4
9.8328 -0.309008 -2.63599 0.0606557 4
11.4013 -0.3583 -2.6335 0.0997899 4
13.5241 -0.425012 -2.63012 0.0217429 4
16.5672 -0.520645 -2.62528 0.0222323 4
9.8338 -0.274685 -2.63599 0.0276254 4
11.4025 -0.318502 -2.63349 0.0109717 4
13.5255 -0.377804 -2.63011 0.0244054 4
16.5688 -0.462813 -2.62527 0.0251481 4
9.83468 -0.240356 -2.63598 0.0198183 4
11.4035 -0.278697 -2.63348 0.0141065 4
13.5267 -0.330588 -2.63011 0.0137558 4
16.5703 -0.404973 -2.62526 0.0105695 4
9.83544 -0.206025 -2.63598 0.0258238 4
11.4043 -0.238889 -2.63348 0.0240333 4
13.5277 -0.283368 -2.6301 0.0270679 4
16.5716 -0.347128 -2.62525 0.0153076 4
21.3148 -0.446485 -2.6177 0.0373029 4
9.83608 -0.171691 -2.63597 0.0306283 4
11.4051 -0.199078 -2.63347 0.0240334 4
13.5286 -0.236144 -2.63009 0.0368302 4
16.5726 -0.289279 -2.62525 0.0160366 4
21.3162 -0.372078 -2.61769 0.0168006 4
29.7621 -0.519504 -2.60425 0.0370502 4
9.83661 -0.137355 -2.63597 0.0204189 4
11.4057 -0.159265 -2.63347 0.0193312 4
13.5293 -0.188919 -2.63009 0.016862 4
16.5735 -0.231427 -2.62524 0.0109341 4
29.7636 -0.415609 -2.60423 0.0390973 4
9.83701 -0.103018 -2.63596 0.0306284 4
11.4062 -0.11945 -2.63346 0.0689656 4
13.5299 -0.141691 -2.63008 0.0150871 4
16.5742 -0.173572 -2.62523 0.0153078 4
21.3181 -0.223252 -2.61768 0.0279063 4
9.8373 -0.068679 -2.63596 0.077472 4
11.4065 -0.0796343 -2.63346 0.0109718 4
13.5302 -0.0944612 -2.63008 0.0155309 4
16.5746 -0.115716 -2.62523 0.0109341 4
21.3187 -0.148836 -2.61767 0.0242045 4
29.7655 -0.207808 -2.60421 0.0300909 4
9.83746 -0.0343396 -2.63596 0.0222207 4
11.4067 -0.0398173 -2.63346 0.0454547 4
13.5305 -0.0472308 -2.63007 0.00976229 4
16.5749 -0.057858 -2.62522 0.00911181 4
9.83751 0 -2.63595 0.0306285 4
11.4067 0 -2.63345 0.0642637 4
13.5305 0 -2.63007 0.0230745 4
16.575 0 -2.62521 0.0102052 4
9.83744 0.0343372 -2.63595 0.0330308 4
11.4066 0.0398145 -2.63345 0.033438 4
13.5304 0.0472274 -2.63006 0.029287 4
21.3189 0.0744128 -2.61765 0.0455618 4
9.83725 0.0686763 -2.63595 0.0402376 4
11.4064 0.0796311 -2.63345 0.0245561 4
13.5301 0.0944573 -2.63006 0.0350557 4
16.5745 0.115711 -2.6252 0.0120277 4
9.83694 0.103014 -2.63594 0.0138129 4
11.4061 0.119447 -2.63344 0.0261235 4
13.5297 0.141686 -2.63005 0.017306 4
16.5739 0.173566 -2.6252 0.0164014 4
9.83651 0.137351 -2.63594 0.0408382 4
11.4056 0.159261 -2.63344 0.0585168 4
13.5291 0.188913 -2.63005 0.0221872 4
16.5732 0.231419 -2.6252 0.0131211 4
21.3168 0.297655 -2.61763 0.0210725 4
9.83596 0.171686 -2.63594 0.0144135 4
11.4049 0.199073 -2.63344 0.0423202 4
13.5284 0.236137 -2.63005 0.0510306 4
16.5723 0.289269 -2.62519 0.0222331 4
21.3156 0.372063 -2.61762 0.0168011 4
9.83529 0.206019 -2.63594 0.0228214 4
11.4041 0.238882 -2.63343 0.0182865 4
13.5274 0.283358 -2.63004 0.0394933 4
16.5711 0.347115 -2.62519 0.0273358 4
21.3141 0.446465 -2.61762 0.0170859 4
9.83451 0.24035 -2.63593 0.0414389 4
11.4032 0.278689 -2.63343 0.0339607 4
13.5264 0.330576 -2.63004 0.0230748 4
16.5698 0.404957 -2.62518 0.0138501 4
9.8336 0.274677 -2.63593 0.0114107 4
11.4022 0.318492 -2.63343 0.009927 4
13.5251 0.37779 -2.63004 0.0230748 4
16.5683 0.462793 -2.62518 0.0138502 4
21.3104 0.595253 -2.61761 0.013384 4
9.83257 0.308999 -2.63593 0.0504474 4
11.401 0.358288 -2.63343 0.0522474 4
13.5237 0.424996 -2.63004 0.0341685 4
16.5665 0.520621 -2.62518 0.0120278 4
9.83143 0.343319 -2.63593 0.0258243 4
11.3997 0.398083 -2.63342 0.0182866 4
13.5221 0.4722 -2.63003 0.0173061 4
16.5646 0.578445 -2.62517 0.0284293 4
21.3057 0.744006 -2.6176 0.0247747 4
9.83017 0.377635 -2.63593 0.0198187 4
11.3982 0.437873 -2.63342 0.00731464 4
13.5204 0.519398 -2.63003 0.036831 4
16.5625 0.636263 -2.62517 0.016766 4
21.3029 0.818372 -2.6176 0.0324634 4
9.82878 0.411947 -2.63593 0.0432407 4
11.3966 0.477657 -2.63342 0.0329159 4
13.5185 0.56659 -2.63003 0.0377185 4
16.5601 0.694073 -2.62517 0.0178595 4
21.2999 0.892728 -2.6176 0.0210727 4
9.82728 0.446253 -2.63593 0.0480453 4
11.3949 0.517436 -2.63342 0.0485902 4
13.5164 0.613775 -2.63003 0.0102062 4
16.5576 0.751875 -2.62517 0.00984094 4
21.2967 0.967073 -2.61759 0.0242052 4
9.82566 0.480554 -2.63593 0.0222209 4
11.393 0.557209 -2.63342 0.0506801 4
13.5142 0.660952 -2.63003 0.0417123 4
16.5549 0.809667 -2.62517 0.0149437 4
9.82392 0.51485 -2.63593 0.0426402 4
11.391 0.596974 -2.63342 0.0188091 4
13.5118 0.708122 -2.63003 0.0186374 4
16.5519 0.867449 -2.62517 0.0240557 4
9.82207 0.549138 -2.63592 0.013813 4
11.3888 0.636733 -2.63342 0.0193316 4
13.5092 0.755282 -2.63003 0.0186374 4
16.5488 0.925221 -2.62517 0.0131213 4
9.82009 0.583421 -2.63592 0.0660623 4
11.3865 0.676483 -2.63342 0.0156743 4
13.5065 0.802434 -2.63003 0.0208562 4
16.5455 0.982982 -2.62517 0.0240557 4
9.81799 0.617694 -2.63592 0.0108102 4
11.3841 0.716223 -2.63342 0.030826 4
13.5036 0.849573 -2.63003 0.051031 4
16.5419 1.04073 -2.62517 0.00838303 4
23.6268 1.48646 -2.07116 0.0714384 6
9.81578 0.651961 -2.63592 0.0234221 4
11.3815 0.755957 -2.63342 0.0261238 4
13.5006 0.896704 -2.63003 0.0323936 4
16.5382 1.09846 -2.62517 0.0142147 4
22.6311 1.50315 -1.98433 0.0784549 6
9.81344 0.686221 -2.63593 0.0324306 4
11.3788 0.795682 -2.63342 0.0177642 4
13.4974 0.943825 -2.63003 0.0164187 4
16.5343 1.15619 -2.62517 0.0207753 4
21.2666 1.48711 -2.61759 0.0139536 4
21.7156 1.5185 -1.9045 0.0861343 6
9.81099 0.720473 -2.63593 0.0486459 4
11.376 0.835397 -2.63342 0.0182866 4
13.494 0.990935 -2.63003 0.0110937 4
21.2613 1.56133 -2.61759 0.0185099 4
21.1976 1.55665 -1.85954 0.259512 6
9.80842 0.754716 -2.63593 0.0204192 4
11.373 0.875102 -2.63342 0.0193316 4
13.4905 1.03803 -2.63003 0.0350561 4
16.5258 1.27159 -2.62517 0.0142147 4
21.2558 1.63554 -2.61759 0.0222118 4
20.9975 1.61567 -1.84247 0.331995 6
9.80573 0.788949 -2.63593 0.0480453 4
11.3699 0.914796 -2.63342 0.0151518 4
13.4868 1.08512 -2.63003 0.0230749 4
16.5213 1.32927 -2.62517 0.0120278 4
20.9504 1.68563 -1.83884 0.33265 6
9.80292 0.823174 -2.63593 0.013813 4
11.3666 0.95448 -2.63342 0.0344833 4
13.4829 1.13219 -2.63003 0.0173061 4
16.5166 1.38693 -2.62517 0.0178595 4
20.9034 1.75531 -1.83525 0.333302 6
50.1939 4.21489 -2.63981 0.252183 4
9.79999 0.857388 -2.63593 0.0894842 4
11.3632 0.994152 -2.63342 0.0470227 4
13.4789 1.17925 -2.63003 0.0115374 4
16.5116 1.44458 -2.62518 0.0233266 4
21.2375 1.85804 -2.6176 0.0233508 4
20.8565 1.82471 -1.83168 0.272399 6
49.5659 4.33645 -2.60756 0.255269 4
9.79694 0.891589 -2.63593 0.0210198 4
11.3597 1.03381 -2.63343 0.0250787 4
13.4747 1.22629 -2.63004 0.0457059 4
16.5065 1.50221 -2.62518 0.0247845 4
20.8064 1.89352 -1.82784 0.284527 6
48.7849 4.43976 -2.56727 0.357561 4
9.79378 0.925783 -2.63593 0.023422 4
11.356 1.07346 -2.63343 0.069489 4
13.4703 1.27332 -2.63004 0.0208561 4
16.5012 1.55982 -2.62518 0.0142146 4
21.2241 2.00626 -2.61761 0.0187945 4
20.7645 1.96281 -1.82475 0.211247 6
48.027 4.53987 -2.52821 0.28117 4
9.79049 0.959965 -2.63594 0.0294276 4
11.3522 1.11309 -2.63343 0.0397079 4
13.4658 1.32033 -2.63004 0.026181 4
16.4957 1.61741 -2.62518 0.0258779 4
20.722 2.0318 -1.82163 0.251657 6
47.2916 4.63697 -2.49033 0.283142 4
9.78709 0.994135 -2.63594 0.104498 4
11.3483 1.15271 -2.63343 0.0344832 4
13.4611 1.36733 -2.63004 0.0181935 4
16.4899 1.67498 -2.62519 0.0255134 4
21.2097 2.15439 -2.61762 0.0239202 4
20.6991 2.10254 -1.82026 0.189335 6
9.78357 1.02829 -2.63594 0.0360338 4
11.3442 1.19232 -2.63344 0.00522472 4
13.4563 1.41431 -2.63005 0.0505869 4
16.484 1.73254 -2.62519 0.0156725 4
20.6712 2.17263 -1.81846 0.189522 6
9.77993 1.06244 -2.63594 0.0114107 4
11.34 1.23191 -2.63344 0.0381404 4
13.4513 1.46128 -2.63005 0.0248497 4
16.4779 1.79007 -2.6252 0.0411858 4
20.6445 2.24271 -1.81678 0.186503 6
48.7768 5.29885 -2.57132 0.248748 4
9.77617 1.09657 -2.63594 0.0126118 4
11.3356 1.27149 -2.63344 0.0156741 4
13.4461 1.50823 -2.63006 0.0239621 4
16.4716 1.84758 -2.6252 0.0174948 4
20.6345 2.31453 -1.81661 0.183972 6
48.1153 5.39699 -2.53743 0.2505 4
9.77229 1.13069 -2.63595 0.0366342 4
11.3311 1.31105 -2.63345 0.0240336 4
13.4408 1.55515 -2.63006 0.0186372 4
21.1777 2.45034 -2.61764 0.0196486 4
20.616 2.38535 -1.8157 0.0315102 6
47.4703 5.4925 -2.50441 0.258391 4
9.7683 1.1648 -2.63595 0.0174163 4
11.3265 1.3506 -2.63345 0.0909097 4
13.4353 1.60207 -2.63006 0.0399368 4
16.4583 1.96254 -2.62521 0.01385 4
21.1691 2.52426 -2.61765 0.0216419 4
20.5935 2.45562 -1.81446 0.0315318 6
9.76419 1.19889 -2.63595 0.0360336 4
11.3217 1.39013 -2.63345 0.0292582 4
13.4297 1.64895 -2.63007 0.025737 4
20.5708 2.52578 -1.81323 0.0315531 6
9.75995 1.23297 -2.63596 0.0186173 4
11.3168 1.42964 -2.63346 0.0135842 4
13.4239 1.69582 -2.63007 0.0141997 4
16.4443 2.07739 -2.62522 0.0291578 4
21.151 2.67199 -2.61766 0.0230655 4
20.5582 2.5971 -1.8129 0.0290383 6
9.7556 1.26703 -2.63596 0.0156145 4
11.3118 1.46914 -2.63346 0.0762802 4
13.4179 1.74268 -2.63008 0.0208558 4
16.437 2.13479 -2.62523 0.018588 4
20.5779 2.67261 -1.81546 0.0289974 6
9.75114 1.30108 -2.63596 0.0228212 4
11.3066 1.50862 -2.63347 0.00626959 4
13.4117 1.78951 -2.63008 0.0155309 4
16.4295 2.19216 -2.62523 0.0331668 4
20.5977 2.74832 -1.81804 0.0289563 6
9.74655 1.33511 -2.63597 0.0408378 4
11.3013 1.54808 -2.63347 0.0454545 4
13.4054 1.83632 -2.63009 0.0146433 4
16.4218 2.2495 -2.62524 0.0229616 4
21.1221 2.89336 -2.61769 0.0247739 4
20.6174 2.82423 -1.82063 0.028915 6
9.74184 1.36913 -2.63597 0.0768711 4
11.2958 1.58752 -2.63347 0.00940436 4
13.399 1.8831 -2.63009 0.0164183 4
16.4138 2.30681 -2.62525 0.0142143 4
20.6337 2.89988 -1.82296 0.802897 6
9.73702 1.40313 -2.63598 0.01081 4
11.2902 1.62695 -2.63348 0.0198536 4
13.3924 1.92987 -2.6301 0.0594606 4
16.4057 2.3641 -2.62525 0.0112985 4
21.1015 3.04078 -2.6177 0.0156615 4
20.6487 2.97552 -1.82519 0.777952 6
9.73208 1.43711 -2.63598 0.0198183 4
11.2845 1.66635 -2.63349 0.0188086 4
13.3856 1.97661 -2.63011 0.0408236 4
21.0909 3.11443 -2.61771 0.0202175 4
20.6659 3.05168 -1.82764 0.784202 6
9.72703 1.47107 -2.63599 0.0474436 4
11.2786 1.70573 -2.63349 0.00835938 4
13.3786 2.02332 -2.63011 0.0372736 4
16.3889 2.47859 -2.62527 0.031344 4
20.6926 3.12946 -1.83095 0.705755 6
9.72185 1.50502 -2.63599 0.0384353 4
11.2726 1.7451 -2.6335 0.0355273 4
13.3715 2.07002 -2.63012 0.0368298 4
16.3802 2.53579 -2.62528 0.0225968 4
21.0688 3.26161 -2.61773 0.0205021 4
20.7354 3.21001 -1.83573 0.209261 6
9.71655 1.53895 -2.636 0.0348319 4
11.2665 1.78444 -2.6335 0.0559031 4
13.3642 2.11669 -2.63013 0.0266239 4
16.3713 2.59296 -2.62529 0.0200455 4
21.0573 3.33515 -2.61775 0.0176545 4
20.7961 3.29377 -1.8421 0.223979 6
9.71114 1.57286 -2.636 0.0432395 4
11.2602 1.82376 -2.63351 0.0141064 4
13.3568 2.16333 -2.63013 0.032836 4
16.3622 2.6501 -2.6253 0.0134851 4
20.8613 3.3788 -1.84891 0.223438 6
9.70562 1.60675 -2.63601 0.0474432 4
11.2538 1.86306 -2.63352 0.0350046 4
13.3492 2.20995 -2.63014 0.0452603 4
16.353 2.70721 -2.62531 0.0349882 4
20.9158 3.46259 -1.85481 0.222728 6
9.69997 1.64063 -2.63601 0.0174158 4
11.2473 1.90234 -2.63352 0.0109716 4
13.3415 2.25654 -2.63015 0.0150867 4
16.3435 2.76429 -2.62531 0.0196808 4
21.0216 3.55553 -2.61778 0.0159458 4
28.1059 4.75376 -2.49388 0.0309078 4
9.6942 1.67448 -2.63602 0.0240218 4
11.2406 1.94159 -2.63353 0.0303023 4
13.3335 2.3031 -2.63016 0.0173053 4
16.3338 2.82133 -2.62533 0.0207741 4
21.0091 3.6289 -2.61779 0.0652067 4
9.68832 1.70831 -2.63603 0.042038 4
11.2338 1.98082 -2.63354 0.0240328 4
13.3255 2.34964 -2.63017 0.0403789 4
16.3239 2.87834 -2.62533 0.0204096 4
20.9964 3.70224 -2.61781 0.0654911 4
9.68232 1.74212 -2.63603 0.0438396 4
11.2268 2.02003 -2.63354 0.0381389 4
13.3172 2.39615 -2.63017 0.00976191 4
16.3138 2.93532 -2.62535 0.0193161 4
29.2982 5.27158 -2.60442 0.0274276 4
9.67621 1.77591 -2.63604 0.0510459 4
11.2198 2.05921 -2.63355 0.0376163 4
13.3088 2.44262 -2.63018 0.0332791 4
16.3035 2.99225 -2.62536 0.0229606 4
21.0487 3.86316 -2.62762 0.0245281 4
29.2799 5.37385 -2.60444 0.0354099 4
9.66997 1.80968 -2.63604 0.0276248 4
11.2125 2.09837 -2.63356 0.0282122 4
13.3003 2.48907 -2.63019 0.0461469 4
16.2931 3.04916 -2.62537 0.0317073 4
21.1854 3.96473 -2.6464 0.0280072 4
29.2529 5.47452 -2.60373 0.0536003 4
9.66362 1.84343 -2.63605 0.0264236 4
11.2052 2.1375 -2.63357 0.0731425 4
13.2915 2.53549 -2.6302 0.0288417 4
16.2824 3.10603 -2.62538 0.0131202 4
21.3237 4.06771 -2.66543 0.0221651 4
28.8244 5.49855 -2.56728 0.0721692 4
9.65715 1.87716 -2.63606 0.0306273 4
11.1977 2.17661 -2.63357 0.0214202 4
13.2827 2.58188 -2.63021 0.0199673 4
16.2715 3.16286 -2.62539 0.0273336 4
21.4636 4.1721 -2.68473 0.0276073 4
28.4077 5.5219 -2.53187 0.0636749 4
50.4215 9.80095 2.69194 0.13112 10
50.4158 9.79983 6.30614 0.130326 10
50.4099 9.79869 9.9821 0.128897 10
50.4039 9.79752 13.7585 0.12684 10
9.65057 1.91086 -2.63607 0.0462411 4
11.19 2.21569 -2.63358 0.0653054 4
13.2736 2.62824 -2.63022 0.00621201 4
16.2605 3.21965 -2.6254 0.0160357 4
21.5223 4.26153 -2.69391 0.0469071 1
51.3267 10.163 -0.913305 0.171413 10
51.3238 10.1624 0.913252 0.171416 10
50.4212 9.98367 2.69377 0.133495 10
51.2892 10.1555 4.57434 0.67861 10
50.4155 9.98253 6.31042 0.132686 10
51.2874 10.1552 8.28083 0.672893 10
50.4096 9.98137 9.98887 0.131231 10
51.2856 10.1548 12.0701 0.663898 10
50.4036 9.98017 13.7678 0.129137 10
9.64387 1.94454 -2.63607 0.0414367 4
11.1823 2.25474 -2.63359 0.0292567 4
13.2644 2.67457 -2.63023 0.0212982 4
16.2492 3.27641 -2.62542 0.0185867 4
21.5074 4.33666 -2.69393 0.0469068 1
27.9447 5.63463 -2.49405 0.0296776 4
50.5166 10.1859 -0.899518 0.115236 10
50.5138 10.1854 0.899466 0.115238 10
48.5587 9.79114 2.59607 0.67976 10
50.3581 10.154 4.49443 0.678141 10
48.557 9.79081 6.08204 0.675696 10
50.3564 10.1536 8.13619 0.672428 10
48.5553 9.79047 9.62815 0.668341 10
50.3546 10.1533 11.8593 0.663439 10
48.5536 9.79012 13.2717 0.657729 10
9.63705 1.9782 -2.63608 0.0246218 4
11.1744 2.29377 -2.6336 0.0376156 4
13.255 2.72087 -2.63024 0.00621196 4
21.4923 4.41173 -2.69395 0.0469065 1
27.9251 5.73219 -2.49407 0.0249699 4
49.4623 10.1531 -2.64626 0.871046 10
49.4615 10.153 -0.881355 0.576083 10
49.4606 10.1528 0.881339 0.576116 10
48.5014 9.95591 2.59485 0.13824 10
49.459 10.1525 4.41733 0.677664 10
48.4959 9.95477 6.0787 0.137403 10
49.4574 10.1521 7.9966 0.671955 10
48.4902 9.95361 9.62207 0.135896 10
49.4557 10.1518 11.6558 0.662972 10
48.4844 9.95242 13.2622 0.133727 10
9.63011 2.01183 -2.63609 0.0270238 4
11.1663 2.33277 -2.63361 0.038138 4
13.2455 2.76713 -2.63025 0.0124239 4
16.2261 3.3898 -2.62544 0.0200443 4
21.4769 4.48676 -2.69396 0.0469062 1
27.9052 5.82969 -2.49409 0.0309051 4
48.5934 10.1517 -2.60165 0.870422 10
49.4364 10.3278 -0.881544 0.119258 10
49.4335 10.3272 0.881493 0.11926 10
48.5011 10.1324 2.59671 0.14061 10
48.5902 10.151 4.34287 0.677178 10
48.4956 10.1313 6.08306 0.139758 10
48.5886 10.1507 7.86182 0.671474 10
48.4899 10.1301 9.62897 0.138225 10
47.168 9.85391 11.1247 0.137206 10
48.4841 10.1289 13.2717 0.136019 10
9.62306 2.04544 -2.6361 0.0210185 4
11.1582 2.37174 -2.63362 0.0151506 4
13.2358 2.81336 -2.63026 0.0563509 4
21.4613 4.56173 -2.69398 0.0469059 1
27.8849 5.92712 -2.49411 0.0294722 4
47.7533 10.1503 -2.55855 0.869787 10
51.6853 10.9861 -0.922326 0.121267 10
51.6824 10.9854 0.922273 0.121269 10
46.4617 9.87575 2.48935 0.142979 10
47.7502 10.1496 4.27093 0.676685 10
46.0424 9.78662 5.7796 0.674245 10
46.0417 9.78646 7.4552 0.670984 10
47.86 10.173 9.51088 0.0897267 10
46.4482 9.87288 10.963 0.139517 10
47.8543 10.1717 13.109 0.0882944 10
9.61589 2.07903 -2.6361 0.0180158 4
11.1499 2.41068 -2.63363 0.039705 4
13.226 2.85956 -2.63027 0.0217416 4
21.1967 4.58289 -2.66277 0.0790891 4
27.8643 6.02447 -2.49414 0.0268113 4
46.9406 10.1489 -2.5169 0.869142 10
46.9399 10.1488 -0.838271 0.870252 10
46.9392 10.1486 0.838257 0.870301 10
45.262 9.78598 2.42689 0.145345 10
46.9377 10.1483 4.2014 0.676183 10
45.2589 9.78532 5.6855 0.673745 10
45.2582 9.78516 7.33382 0.670486 10
46.9354 10.1478 9.33412 0.666411 10
45.2567 9.78484 10.6898 0.661523 10
46.9338 10.1474 12.8665 0.65583 10
9.60861 2.11259 -2.63611 0.0408356 4
11.1414 2.4496 -2.63364 0.0104486 4
13.216 2.90572 -2.63029 0.0110926 4
16.1899 3.55959 -2.62548 0.0655985 4
20.8967 4.59444 -2.62708 0.0619194 4
27.8434 6.12175 -2.49416 0.0288576 4
46.1539 10.1476 -2.4766 0.868486 10
46.6464 10.2559 -0.833663 0.189667 10
46.6437 10.2553 0.833615 0.18967 10
44.662 9.81956 2.39654 0.14771 10
46.1511 10.147 4.13413 0.675672 10
45.2565 9.95028 5.68952 0.146815 10
44.6542 9.81786 7.24146 0.146098 10
46.1489 10.1465 9.18469 0.665908 10
44.649 9.8167 10.5542 0.144133 10
46.1474 10.1461 12.6605 0.655335 10
9.60121 2.14612 -2.63612 0.0264229 4
11.1328 2.48848 -2.63365 0.0344804 4
13.2058 2.95185 -2.6303 0.0106489 4
16.1775 3.6161 -2.6255 0.0750734 4
20.6046 4.60568 -2.59236 0.0683512 4
27.8221 6.21897 -2.49419 0.0259921 4
45.392 10.1463 -2.4376 0.867819 10
45.3913 10.1462 -0.811861 0.573949 10
45.3906 10.146 0.811848 0.573982 10
44.6617 9.98306 2.39838 0.150073 10
43.7666 9.78298 3.92357 0.675154 10
45.2562 10.116 5.69389 0.149163 10
44.654 9.98134 7.24702 0.148436 10
45.3871 10.1452 9.04008 0.665397 10
44.6487 9.98016 10.5623 0.146439 10
45.3857 10.1449 12.4612 0.654833 10
9.59369 2.17963 -2.63613 0.0564488 4
11.1241 2.52734 -2.63366 0.0224644 4
13.1955 2.99794 -2.63031 0.0150858 4
16.1649 3.67257 -2.62551 0.0634111 4
20.3201 4.61661 -2.55858 0.0658479 4
27.8005 6.31611 -2.49421 0.0292664 4
44.6537 10.1451 -2.39984 0.867142 10
44.653 10.1449 -0.799285 0.573501 10
44.6524 10.1448 0.799272 0.573534 10
43.462 9.87431 2.33579 0.152434 10
43.4595 9.87375 3.89911 0.152065 10
44.6503 10.1443 5.62209 0.672195 10
43.4544 9.8726 7.0579 0.150771 10
44.649 10.144 8.90005 0.664878 10
43.4493 9.87143 10.2867 0.148743 10
44.6476 10.1437 12.2682 0.654322 10
9.58605 2.21311 -2.63614 0.0168145 4
13.185 3.044 -2.63032 0.0270656 4
16.1521 3.72899 -2.62553 0.0641396 4
20.0428 4.62725 -2.52568 0.0885572 4
27.7786 6.41318 -2.49424 0.0253776 4
43.9379 10.1439 -2.36326 0.866455 10
44.0365 10.1666 -0.788879 0.131288 10
44.0339 10.166 0.788833 0.13129 10
43.4617 10.0339 2.33765 0.154794 10
43.4592 10.0333 3.9022 0.154419 10
43.9347 10.1431 5.5364 0.671662 10
43.4542 10.0322 7.0635 0.153105 10
43.9333 10.1428 8.76441 0.664351 10
43.449 10.031 10.2949 0.151045 10
43.932 10.1425 12.0812 0.653803 10
9.5783 2.24657 -2.63615 0.0150129 4
11.1063 2.60496 -2.63368 0.03448 4
13.1744 3.09002 -2.63033 0.0332772 4
16.139 3.78537 -2.62554 0.0324341 4
19.8784 4.66243 -2.507 0.03502 4
27.7563 6.51018 -2.49426 0.0251727 4
43.2436 10.1427 -2.32781 0.865756 10
43.7663 10.2653 -0.784676 0.133288 10
43.7638 10.2647 0.78463 0.13329 10
42.1421 9.88433 2.26851 0.157151 10
42.1396 9.88376 3.78679 0.15677 10
42.1372 9.88319 5.31421 0.156199 10
42.1347 9.88261 6.85459 0.155436 10
41.9659 9.84302 8.37873 0.131368 10
42.1298 9.88144 9.99038 0.153345 10
43.2379 10.1413 11.9 0.653277 10
9.57043 2.28 -2.63616 0.0318272 4
13.1636 3.136 -2.63035 0.0408198 4
16.1878 3.85648 -2.63565 0.0363588 4
19.8622 4.73183 -2.50702 0.0350197 4
27.7337 6.6071 -2.49429 0.0300841 4
42.5699 10.1416 -2.29343 0.865048 10
42.1418 10.0396 2.27037 0.159507 10
42.1394 10.039 3.78989 0.15912 10
42.1369 10.0384 5.31856 0.15854 10
42.1345 10.0378 6.86021 0.157766 10
41.9311 9.9894 8.37869 0.131369 10
42.1295 10.0367 9.99856 0.155643 10
42.5643 10.1402 11.7242 0.652742 10
9.56245 2.3134 -2.63617 0.0234199 4
11.0879 2.68246 -2.6337 0.0276882 4
13.1526 3.18195 -2.63036 0.0102049 4
16.263 3.93444 -2.65012 0.0234132 4
20.7249 5.01389 -2.61811 0.0723165 4
41.9157 10.1405 -2.26008 0.864328 10
41.9151 10.1403 -0.752737 0.865432 10
41.9145 10.1402 0.752726 0.865482 10
42.1115 10.1879 2.27064 0.103329 10
42.1067 10.1867 5.3192 0.102702 10
42.1042 10.1861 6.86103 0.102201 10
41.8958 10.1357 8.37864 0.131369 10
42.0992 10.1849 9.99976 0.100826 10
41.9102 10.1392 11.5538 0.6522 10
9.55436 2.34677 -2.63618 0.0180153 4
11.0786 2.72115 -2.63371 0.0861989 4
13.1415 3.22785 -2.63037 0.00621165 4
16.3388 4.01319 -2.66473 0.036997 4
20.7075 5.08624 -2.61813 0.0481157 4
27.6875 6.8007 -2.49434 0.0253765 4
41.2803 10.1394 -2.22771 0.863599 10
41.2797 10.1393 -0.741957 0.864702 10
41.2791 10.1391 0.741946 0.864751 10
40.2222 9.87951 2.17061 0.164212 10
40.2199 9.87895 3.62338 0.163814 10
40.2176 9.87838 5.08488 0.163216 10
40.2152 9.8778 6.55879 0.16242 10
41.2762 10.1384 8.26177 0.662162 10
40.2104 9.87662 9.55925 0.160234 10
40.208 9.87602 11.0939 0.158848 10
9.54614 2.38012 -2.63619 0.0348294 4
11.069 2.75982 -2.63372 0.0271656 4
13.1302 3.27373 -2.63039 0.0270649 4
16.4151 4.09275 -2.67949 0.0383369 4
20.6898 5.15854 -2.61816 0.0267624 4
27.6639 6.89738 -2.49437 0.0274227 4
40.6628 10.1384 -2.19629 0.862858 10
40.6622 10.1382 -0.731491 0.86396 10
40.6617 10.1381 0.73148 0.86401 10
40.222 10.0285 2.17248 0.166562 10
40.2196 10.0279 3.62648 0.166158 10
40.2173 10.0273 5.08924 0.165552 10
40.215 10.0267 6.56442 0.164744 10
40.6588 10.1374 8.14523 0.661595 10
40.2102 10.0255 9.56744 0.162527 10
40.2077 10.0249 11.1034 0.161121 10
9.53781 2.41344 -2.6362 0.0246207 4
11.0594 2.79845 -2.63373 0.0135827 4
13.1188 3.31956 -2.6304 0.0177474 4
16.492 4.17312 -2.69441 0.0376129 4
20.6718 5.23077 -2.61818 0.0176516 4
27.64 6.99399 -2.4944 0.0257852 4
40.0625 10.1374 -2.16576 0.862107 10
38.9068 9.84494 -0.700526 0.216889 10
40.0614 10.1371 0.721313 0.863258 10
38.6287 9.77455 2.08825 0.672311 10
38.9001 9.84324 3.51058 0.1685 10
40.0597 10.1367 5.07374 0.668293 10
38.8956 9.84209 6.35462 0.167066 10
40.0586 10.1364 8.03203 0.661019 10
38.9424 9.85392 9.27391 0.155077 10
38.8886 9.84032 10.7486 0.163392 10
11.0496 2.83705 -2.63375 0.0261205 4
13.1072 3.36535 -2.63041 0.0359383 4
16.5231 4.2424 -2.70188 0.0600335 1
20.6536 5.30294 -2.6182 0.0279007 4
29.6767 7.61967 -2.68059 0.0337127 1
39.4786 10.1364 -2.1361 0.861346 10
38.9066 9.98951 -0.701145 0.219901 10
39.4775 10.1361 0.711434 0.862496 10
38.8999 9.98779 3.51369 0.17084 10
39.476 10.1357 5.00426 0.667703 10
38.8954 9.98662 6.36024 0.169386 10
39.4749 10.1354 7.92202 0.660435 10
38.9075 9.98975 9.27387 0.155078 10
38.8883 9.98483 10.7581 0.16566 10
9.5208 2.47998 -2.63622 0.0330275 4
11.0397 2.87562 -2.63376 0.0177619 4
13.0954 3.4111 -2.63043 0.00709888 4
16.5083 4.30008 -2.7019 0.0600331 1
20.6351 5.37505 -2.61822 0.0310322 4
29.6503 7.72331 -2.68062 0.0337123 1
38.9105 10.1354 -2.10726 0.860574 10
37.7069 9.8219 -0.680138 0.22291 10
38.9095 10.1352 0.70183 0.861723 10
37.7003 9.8202 3.40841 0.173178 10
38.9079 10.1347 4.9367 0.667105 10
37.6959 9.81905 6.16967 0.171703 10
38.9069 10.1345 7.81508 0.659844 10
38.8723 10.1255 9.27383 0.155079 10
37.6891 9.81728 10.4358 0.167927 10
9.51213 2.51321 -2.63623 0.0198164 4
11.0296 2.91415 -2.63377 0.0114929 4
13.0835 3.45681 -2.63044 0.028839 4
16.4933 4.35771 -2.70192 0.0600327 1
20.6164 5.44709 -2.61824 0.044982 4
29.6235 7.82686 -2.68065 0.0337119 1
38.3575 10.1345 -2.07921 0.859791 10
37.7066 9.96252 -0.680757 0.225917 10
38.3565 10.1342 0.69249 0.860939 10
37.7001 9.96079 3.41151 0.175513 10
38.355 10.1338 4.87101 0.666499 10
37.6957 9.95963 6.17529 0.174019 10
38.354 10.1336 7.71109 0.659244 10
38.3535 10.1334 9.15844 0.65441 10
37.6889 9.95783 10.4452 0.170192 10
9.50333 2.54641 -2.63624 0.0210173 4
11.0194 2.95265 -2.63378 0.0182841 4
13.0714 3.50248 -2.63046 0.0106482 4
16.4781 4.41529 -2.70194 0.0600323 1
20.4282 5.47373 -2.59676 0.0770938 4
29.5963 7.93031 -2.68069 0.0337115 1
37.8191 10.1336 -2.05193 0.858998 10
37.7064 10.1034 -0.681385 0.22892 10
37.8181 10.1333 0.683403 0.860145 10
37.8176 10.1332 2.05185 0.669888 10
37.6999 10.1016 3.41466 0.177847 10
37.8166 10.1329 4.8071 0.665884 10
37.6954 10.1005 6.18098 0.176333 10
37.8156 10.1327 7.60992 0.658636 10
37.8151 10.1325 9.03828 0.653807 10
37.6886 10.0986 10.4549 0.172454 10
9.49443 2.57958 -2.63625 0.0534438 4
11.0091 2.99111 -2.6338 0.0219408 4
13.0592 3.5481 -2.63047 0.0882909 4
16.4627 4.47281 -2.70196 0.0600319 1
20.2087 5.49058 -2.57127 0.0811293 4
29.5689 8.03368 -2.68072 0.033711 1
37.2946 10.1327 -2.02538 0.858195 10
37.2941 10.1326 -0.67457 0.859292 10
37.2936 10.1324 0.674561 0.859341 10
37.2931 10.1323 2.0253 0.669261 10
37.2927 10.1322 3.38096 0.667668 10
37.2922 10.1321 4.7449 0.665262 10
37.2917 10.1319 6.12054 0.662044 10
37.2912 10.1318 7.51145 0.658021 10
37.2907 10.1317 8.92134 0.653195 10
37.2902 10.1315 10.3541 0.647574 10
9.4854 2.61272 -2.63626 0.0444362 4
10.9987 3.02954 -2.63381 0.0428366 4
13.0468 3.59369 -2.63049 0.0723182 4
16.4471 4.53028 -2.70198 0.0600314 1
19.9934 5.50709 -2.5463 0.0905137 4
29.541 8.13695 -2.68076 0.0337106 1
35.6688 9.82484 -1.93894 0.234631 10
35.6668 9.82427 -0.645752 0.23492 10
36.7825 10.1316 0.665952 0.858526 10
35.6627 9.82313 1.93861 0.182951 10
35.6606 9.82257 3.23609 0.182507 10
36.7811 10.1312 4.68434 0.664631 10
35.6564 9.82141 5.85774 0.180953 10
35.6543 9.82083 7.1886 0.179845 10
35.6522 9.82024 8.53748 0.178524 10
35.65 9.81964 9.90813 0.176973 10
9.47627 2.64582 -2.63627 0.0558453 4
10.9881 3.06792 -2.63382 0.0282094 4
13.0343 3.63923 -2.6305 0.0918392 4
16.3612 4.56812 -2.69046 0.0935463 4
19.7821 5.52327 -2.52184 0.0913917 4
29.5128 8.24012 -2.68079 0.0337102 1
35.6686 9.95885 -1.94081 0.23763 10
35.6666 9.95827 -0.646373 0.237915 10
36.2843 10.1308 0.657568 0.857701 10
35.6624 9.95712 1.94047 0.18529 10
35.6604 9.95655 3.2392 0.184834 10
36.283 10.1304 4.62538 0.663992 10
35.6562 9.95538 5.86338 0.18326 10
35.6541 9.95479 7.19551 0.182138 10
34.9845 9.76785 8.38573 0.651949 10
35.6497 9.95357 9.91766 0.179229 10
9.46702 2.67889 -2.63628 0.0240194 4
10.9774 3.10628 -2.63383 0.0229853 4
13.0216 3.68473 -2.63052 0.102043 4
16.1755 4.57721 -2.66255 0.093827 4
19.6486 5.56 -2.50728 0.0318845 4
29.4843 8.3432 -2.68083 0.0337097 1
35.6684 10.0931 -1.9427 0.240618 10
35.6663 10.0926 -0.647003 0.240915 10
35.7985 10.1299 0.6494 0.856865 10
35.6622 10.0914 1.94236 0.18762 10
35.6601 10.0908 3.24236 0.187165 10
35.7972 10.1296 4.56793 0.663345 10
35.656 10.0896 5.86909 0.185565 10
35.6538 10.089 7.20253 0.184429 10
34.874 9.86833 8.36743 0.155083 10
35.6495 10.0878 9.92733 0.181489 10
9.45765 2.71194 -2.6363 0.0432347 4
10.9665 3.14459 -2.63385 0.0229852 4
13.0087 3.73018 -2.63054 0.0780845 4
15.9936 4.5861 -2.63523 0.0947996 4
19.6293 5.6286 -2.5073 0.0421327 4
29.4554 8.44618 -2.68086 0.0337093 1
35.5792 10.2022 -1.93977 0.243597 10
35.5771 10.2016 -0.646027 0.243897 10
35.3246 10.1292 0.641441 0.856019 10
35.573 10.2004 1.93943 0.121255 10
35.5709 10.1998 3.23747 0.120961 10
35.3233 10.1288 4.51194 0.66269 10
35.5668 10.1986 5.86024 0.119931 10
35.5646 10.198 7.19166 0.119197 10
34.8391 9.98995 8.36738 0.155084 10
35.5603 10.1967 9.91234 0.117293 10
9.44817 2.74495 -2.63631 0.0384307 4
10.9555 3.18287 -2.63386 0.0282089 4
12.9957 3.77559 -2.63055 0.0164154 4
15.8154 4.5948 -2.60849 0.100774 4
19.6097 5.69714 -2.50733 0.0261904 4
29.4261 8.54907 -2.6809 0.0337088 1
33.7487 9.8049 -1.84183 0.246579 10
33.7468 9.80434 -0.613408 0.246883 10
33.7448 9.80377 0.613372 0.246886 10
33.7428 9.8032 1.84151 0.192268 10
33.7409 9.80263 3.074 0.191801 10
34.8609 10.128 4.45736 0.662027 10
33.7369 9.80148 5.56434 0.190168 10
33.7349 9.80089 6.82854 0.189003 10
34.8039 10.1115 8.36734 0.155085 10
33.7308 9.7997 9.41185 0.185985 10
9.43857 2.77792 -2.63632 0.0144114 4
10.9444 3.22111 -2.63388 0.0193282 4
13.0129 3.8299 -2.63673 0.0497518 4
15.6408 4.60333 -2.58232 0.0830249 4
19.5899 5.76562 -2.50735 0.0378618 4
29.3965 8.65185 -2.68094 0.0337083 1
33.7485 9.93272 -1.8437 0.249559 10
33.7466 9.93215 -0.614031 0.249867 10
33.7446 9.93157 0.613995 0.24987 10
33.7426 9.93099 1.84338 0.194591 10
33.7407 9.93042 3.07712 0.194119 10
34.4095 10.1273 4.40414 0.661356 10
33.7367 9.92925 5.56999 0.192466 10
33.7347 9.92865 6.83546 0.191287 10
34.4083 10.1269 8.28068 0.649362 10
33.7306 9.92744 9.4214 0.188232 10
9.42886 2.81087 -2.63633 0.00720568 4
10.9331 3.25931 -2.63389 0.0381339 4
13.0568 3.89239 -2.64836 0.0320697 4
15.4695 4.61167 -2.55669 0.0947949 4
19.5698 5.83402 -2.50738 0.0387154 4
29.3665 8.75454 -2.68097 0.0337079 1
33.7483 10.0608 -1.84559 0.252536 10
33.7463 10.0602 -0.614662 0.252847 10
33.7444 10.0596 0.614626 0.25285 10
33.7424 10.059 1.84527 0.196912 10
33.7405 10.0585 3.08028 0.196435 10
33.9688 10.1265 4.35223 0.660677 10
33.7365 10.0573 5.57571 0.194762 10
33.7345 10.0567 6.84249 0.193569 10
33.9676 10.1262 8.18308 0.648695 10
33.7303 10.0554 9.43108 0.190478 10
9.41904 2.84377 -2.63634 0.0270212 4
10.9218 3.29748 -2.6339 0.0224623 4
13.1008 3.95537 -2.66007 0.0322445 4
15.3017 4.61984 -2.53159 0.109727 4
19.5496 5.90236 -2.5074 0.0384304 4
29.3362 8.85712 -2.68101 0.0337074 1
33.5403 10.1264 -1.83614 0.851393 10
33.5399 10.1263 -0.611542 0.852481 10
33.5395 10.1262 0.611534 0.85253 10
33.5391 10.126 1.83607 0.663957 10
33.5387 10.1259 3.06508 0.662377 10
33.5383 10.1258 4.30158 0.65999 10
33.5379 10.1257 5.54871 0.656799 10
33.5375 10.1256 6.80968 0.652807 10
33.5371 10.1255 8.08785 0.64802 10
33.5367 10.1253 9.38677 0.642444 10
9.4091 2.87665 -2.63636 0.0300234 4
10.9103 3.3356 -2.63392 0.0141042 4
13.145 4.01884 -2.67188 0.0538181 4
15.1821 4.64164 -2.51449 0.0357091 4
19.529 5.97063 -2.50743 0.0327366 4
29.3055 8.9596 -2.68105 0.0337069 1
33.1197 10.1257 -1.81504 0.850496 10
33.1193 10.1256 -0.604514 0.851583 10
33.1189 10.1255 0.604506 0.851632 10
33.1185 10.1253 1.81497 0.663258 10
33.1181 10.1252 3.02985 0.661679 10
33.1178 10.1251 4.25215 0.659295 10
33.1174 10.125 5.48494 0.656107 10
33.117 10.1249 6.73142 0.65212 10
33.1166 10.1248 7.99491 0.647338 10
33.1162 10.1246 9.2789 0.641767 10
9.39905 2.90949 -2.63637 0.0420325 4
10.8986 3.37368 -2.63393 0.0214173 4
13.1894 4.0828 -2.68379 0.0225597 4
15.166 4.69465 -2.51451 0.0200407 4
19.5083 6.03882 -2.50745 0.030459 4
29.2745 9.06197 -2.68109 0.0337064 1
32.7086 10.125 -1.79444 0.849588 10
32.7082 10.1249 -0.597653 0.850674 10
32.7079 10.1248 0.597646 0.850724 10
32.7075 10.1247 1.79438 0.66255 10
32.7071 10.1245 2.99547 0.660974 10
32.7068 10.1244 4.20389 0.658592 10
32.7064 10.1243 5.4227 0.655407 10
32.706 10.1242 6.65503 0.651424 10
32.7056 10.1241 7.90418 0.646648 10
32.7053 10.124 9.1736 0.641083 10
9.38888 2.94229 -2.63638 0.0318245 4
10.8868 3.41172 -2.63395 0.0788779 4
13.234 4.14727 -2.69578 0.0411755 4
15.1496 4.7476 -2.51453 0.0240486 4
19.4873 6.10695 -2.50748 0.0384291 4
29.2431 9.16424 -2.68113 0.0337059 1
32.6079 10.2187 -1.79086 0.264412 10
32.606 10.2181 -0.596433 0.264738 10
32.6041 10.2175 0.596398 0.264741 10
32.6022 10.2169 1.79055 0.206172 10
32.6003 10.2163 2.98893 0.205672 10
32.5984 10.2157 4.19452 0.204921 10
32.5965 10.2151 5.41035 0.20392 10
32.5945 10.2145 6.63955 0.202671 10
32.5925 10.2139 7.88541 0.201175 10
32.5905 10.2132 9.15136 0.199434 10
9.3786 2.97507 -2.6364 0.0396303 4
13.2747 4.21099 -2.70706 0.073085 1
15.8036 5.01318 -2.62596 0.0382588 4
19.4661 6.175 -2.50751 0.0313123 4
29.2114 9.2664 -2.68117 0.0337054 1
32.6077 10.3438 -1.79282 0.267373 10
32.6058 10.3432 -0.597086 0.267702 10
32.6039 10.3426 0.597051 0.267705 10
32.602 10.342 1.79251 0.208481 10
32.6001 10.3414 2.9922 0.207975 10
32.5982 10.3407 4.19911 0.207216 10
32.5962 10.3401 5.41627 0.206204 10
32.5943 10.3395 6.64682 0.204941 10
32.5923 10.3389 7.89404 0.203428 10
32.5903 10.3382 9.16138 0.201667 10
9.3682 3.0078 -2.63641 0.0300228 4
10.8629 3.48768 -2.63398 0.0276853 4
13.26 4.25733 -2.70708 0.0730845 1
15.7861 5.06836 -2.62598 0.0346148 4
19.4446 6.24298 -2.50754 0.0455447 4
29.1793 9.36845 -2.68121 0.0337049 1
32.6075 10.4691 -1.79481 0.270331 10
32.6056 10.4685 -0.597748 0.270664 10
32.6037 10.4679 0.597713 0.270667 10
32.6018 10.4673 1.79449 0.210787 10
32.5999 10.4667 2.99552 0.210276 10
32.598 10.4661 4.20376 0.209508 10
32.596 10.4654 5.42227 0.208485 10
32.5941 10.4648 6.65418 0.207208 10
32.5921 10.4642 7.90279 0.205678 10
32.5901 10.4635 9.17153 0.203898 10
9.3577 3.0405 -2.63642 0.0456344 4
10.8507 3.5256 -2.634 0.0219392 4
13.2452 4.30362 -2.7071 0.073084 1
15.7684 5.12348 -2.626 0.0211331 4
19.4229 6.31089 -2.50756 0.0387125 4
29.1469 9.4704 -2.68125 0.0337043 1
32.6073 10.5948 -1.79682 0.273286 10
32.6054 10.5941 -0.598418 0.273622 10
32.6035 10.5935 0.598383 0.273625 10
32.6016 10.5929 1.7965 0.213091 10
32.5997 10.5923 2.99888 0.212574 10
32.5978 10.5916 4.20848 0.211798 10
32.5958 10.591 5.42835 0.210763 10
32.5938 10.5904 6.66165 0.209472 10
32.5919 10.5897 7.91165 0.207926 10
32.5898 10.5891 9.18181 0.206126 10
9.34707 3.07316 -2.63644 0.00900674 4
10.8384 3.56348 -2.63401 0.100293 4
13.2302 4.34986 -2.70712 0.0730835 1
15.7506 5.17853 -2.62603 0.0648562 4
19.401 6.37872 -2.50759 0.0381428 4
29.1141 9.57224 -2.6813 0.0337038 1
32.6071 10.7207 -1.79886 0.276237 10
32.6052 10.72 -0.599098 0.276577 10
32.6033 10.7194 0.599062 0.27658 10
32.6014 10.7188 1.79854 0.215392 10
32.5995 10.7182 3.00228 0.214869 10
32.5975 10.7175 4.21325 0.214085 10
32.5956 10.7169 5.43451 0.213039 10
32.5936 10.7162 6.66921 0.211734 10
32.5916 10.7156 7.92062 0.210171 10
32.5896 10.7149 9.19223 0.208352 10
9.33634 3.10579 -2.63645 0.0276205 4
10.8259 3.60131 -2.63403 0.107083 4
13.215 4.39605 -2.70714 0.0730829 1
15.7326 5.23353 -2.62605 0.0688635 4
19.3788 6.44648 -2.50762 0.0333034 4
29.081 9.67396 -2.68134 0.0337033 1
32.6069 10.8469 -1.80093 0.279185 10
32.605 10.8462 -0.599786 0.279528 10
32.6031 10.8456 0.59975 0.279531 10
32.6012 10.845 1.80061 0.217691 10
32.5993 10.8443 3.00573 0.217162 10
32.5973 10.8437 4.21809 0.216369 10
32.5954 10.843 5.44075 0.215312 10
32.5934 10.8424 6.67686 0.213993 10
32.5914 10.8417 7.92972 0.212414 10
32.5894 10.841 9.20278 0.210575 10
9.32549 3.13837 -2.63646 0.0264195 4
10.8134 3.6391 -2.63404 0.102903 4
13.1997 4.44219 -2.70716 0.0730824 1
15.7143 5.28846 -2.62607 0.0477304 4
19.3564 6.51416 -2.50765 0.0347262 4
29.0475 9.77557 -2.68138 0.0337027 1
32.6067 10.9734 -1.80302 0.282129 10
32.6048 10.9727 -0.600483 0.282476 10
32.6029 10.9721 0.600447 0.282479 10
32.601 10.9714 1.8027 0.219986 10
32.599 10.9708 3.00922 0.219452 10
32.5971 10.9701 4.22299 0.218651 10
32.5951 10.9695 5.44707 0.217583 10
32.5932 10.9688 6.68462 0.21625 10
32.5912 10.9681 7.93893 0.214654 10
32.5891 10.9675 9.21347 0.212796 10
9.31453 3.17092 -2.63648 0.0276202 4
10.8007 3.67685 -2.63406 0.082531 4
13.1842 4.48827 -2.70718 0.0730818 1
15.6959 5.34333 -2.6261 0.05611 4
19.3338 6.58176 -2.50768 0.0355797 4
29.0137 9.87707 -2.68143 0.0337022 1
32.6065 11.1002 -1.80514 0.28507 10
32.6046 11.0995 -0.601189 0.285421 10
32.6027 11.0988 0.601153 0.285424 10
32.6007 11.0982 1.80482 0.22228 10
32.5988 11.0975 3.01276 0.22174 10
32.5969 11.0969 4.22796 0.22093 10
32.5949 11.0962 5.45348 0.219851 10
32.593 11.0955 6.69248 0.218504 10
32.591 11.0949 7.94826 0.216891 10
32.5889 11.0942 9.2243 0.215014 10
9.30346 3.20343 -2.63649 0.0684498 4
10.7878 3.71455 -2.63408 0.104469 4
13.1686 4.5343 -2.7072 0.0730813 1
15.6773 5.39814 -2.62612 0.0338843 4
19.3109 6.64929 -2.50771 0.0321637 4
28.9795 9.97845 -2.68147 0.0337016 1
32.6063 11.2272 -1.80729 0.288007 10
32.6044 11.2266 -0.601904 0.288362 10
32.6024 11.2259 0.601868 0.288365 10
32.6005 11.2252 1.80697 0.22457 10
32.5986 11.2246 3.01634 0.224025 10
32.5967 11.2239 4.23298 0.223206 10
32.5947 11.2232 5.45996 0.222116 10
32.5927 11.2226 6.70043 0.220756 10
32.5907 11.2219 7.95771 0.219126 10
32.5887 11.2212 9.23526 0.217229 10
9.29227 3.23591 -2.63651 0.0264191 4
10.7749 3.75221 -2.63409 0.0360416 4
13.1012 4.56233 -2.69662 0.128177 4
15.6549 5.45161 -2.62553 0.10281 4
19.2879 6.71674 -2.50774 0.04241 4
28.945 10.0797 -2.68152 0.033701 1
32.6061 11.3546 -1.80946 0.290941 10
32.6041 11.354 -0.602628 0.291299 10
32.6022 11.3533 0.602592 0.291302 10
32.6003 11.3526 1.80914 0.226858 10
32.5984 11.3519 3.01997 0.226307 10
32.5964 11.3513 4.23808 0.22548 10
32.5945 11.3506 5.46653 0.224379 10
32.5925 11.3499 6.70849 0.223004 10
32.5905 11.3492 7.96728 0.221358 10
32.5885 11.3485 9.24637 0.219442 10
9.28097 3.26834 -2.63652 0.00300215 4
10.7618 3.78982 -2.63411 0.0172372 4
12.9763 4.56966 -2.67416 0.119049 4
15.5179 5.46472 -2.60574 0.0538671 4
19.2645 6.78411 -2.50777 0.0381401 4
28.9101 10.1809 -2.68156 0.0337005 1
32.6059 11.4823 -1.81166 0.293872 10
32.6039 11.4817 -0.603361 0.294233 10
32.602 11.481 0.603325 0.294236 10
32.6001 11.4803 1.81134 0.229142 10
32.5982 11.4796 3.02364 0.228586 10
32.5962 11.4789 4.24323 0.227751 10
32.5943 11.4782 5.47318 0.226639 10
32.5923 11.4775 6.71665 0.22525 10
32.5903 11.4768 7.97697 0.223587 10
32.5882 11.4761 9.25761 0.221652 10
9.26956 3.30074 -2.63654 0.0192137 4
10.7844 3.84013 -2.6429 0.0468887 4
12.8534 4.57687 -2.65211 0.117467 4
15.3829 5.47761 -2.58627 0.129419 4
19.241 6.8514 -2.5078 0.0409858 4
28.8749 10.2819 -2.68161 0.0336999 1
32.6056 11.6103 -1.81389 0.296799 10
32.6037 11.6097 -0.604104 0.297164 10
32.6018 11.609 0.604067 0.297167 10
32.5999 11.6083 1.81357 0.231425 10
32.5979 11.6076 3.02736 0.230863 10
32.596 11.6069 4.24845 0.230019 10
32.594 11.6062 5.47991 0.228896 10
32.592 11.6055 6.72491 0.227494 10
32.59 11.6048 7.98678 0.225814 10
32.588 11.6041 9.269 0.223859 10
9.25803 3.3331 -2.63655 0.0228161 4
10.8102 3.89192 -2.65256 0.0459705 4
12.7324 4.58395 -2.63044 0.106332 4
15.2499 5.4903 -2.56711 0.11272 4
19.2172 6.9186 -2.50783 0.0261851 4
28.8394 10.3828 -2.68166 0.0336993 1
32.6054 11.7387 -1.81615 0.299722 10
32.6035 11.738 -0.604855 0.300091 10
32.6016 11.7373 0.604819 0.300094 10
32.5997 11.7366 1.81583 0.233704 10
32.5977 11.7359 3.03113 0.233136 10
32.5958 11.7352 4.25373 0.232285 10
32.5938 11.7345 5.48672 0.23115 10
32.5918 11.7338 6.73327 0.229734 10
32.5898 11.733 7.99671 0.228038 10
32.5878 11.7323 9.28052 0.226064 10
9.2464 3.36541 -2.63657 0.0384269 4
10.8361 3.94403 -2.66227 0.0532503 4
12.6134 4.59091 -2.60915 0.0409623 4
15.1188 5.50278 -2.54826 0.0338967 4
19.1931 6.98573 -2.50786 0.0441156 4
28.8035 10.4836 -2.6817 0.0336987 1
32.4327 11.8045 -1.80881 0.83581 10
32.4324 11.8044 -0.602441 0.836876 10
32.6014 11.8659 0.60558 0.303017 10
32.4318 11.8042 1.80876 0.651805 10
32.4315 11.8041 3.01948 0.650254 10
32.5955 11.8638 4.25908 0.234547 10
32.4308 11.8039 5.46619 0.644779 10
32.4305 11.8037 6.70842 0.640862 10
32.5896 11.8616 8.00676 0.230259 10
32.4298 11.8035 9.24723 0.630689 10
9.23465 3.39769 -2.63658 0.0732508 4
10.862 3.99645 -2.67204 0.0385859 4
12.4963 4.59775 -2.58823 0.107187 4
14.9895 5.51507 -2.5297 0.106704 4
20.5995 7.57912 -2.69506 0.0468871 1
28.7672 10.5843 -2.68175 0.0336981 1
32.2452 11.8639 -1.80065 0.305558 10
32.2433 11.8632 -0.599694 0.305933 10
32.6011 11.9949 0.60635 0.305936 10
32.2395 11.8618 1.80033 0.238254 10
32.2375 11.8611 3.00526 0.237675 10
32.5953 11.9927 4.2645 0.236807 10
32.2337 11.8597 5.4399 0.235651 10
32.2317 11.859 6.67582 0.234207 10
32.5893 11.9905 8.01694 0.232478 10
32.2277 11.8575 9.20132 0.230465 10
9.22278 3.42992 -2.6366 0.0258177 4
10.8879 4.04918 -2.68188 0.0414016 4
12.381 4.60447 -2.56767 0.116902 4
14.8824 5.53473 -2.51488 0.055377 4
20.5731 7.65108 -2.6951 0.0468865 1
28.7306 10.6848 -2.6818 0.0336975 1
32.6009 12.1242 0.607129 0.308852 10
32.5951 12.122 4.26998 0.239064 10
32.5891 12.1198 8.02724 0.234693 10
32.6545 12.1441 9.33524 0.148526 10
9.21081 3.46211 -2.63662 0.0630429 4
10.9138 4.10224 -2.69177 0.0486155 4
12.2676 4.61107 -2.54746 0.114259 4
14.8632 5.5867 -2.5149 0.0499117 4
20.5466 7.72295 -2.69513 0.0468859 1
28.6937 10.7852 -2.68185 0.0336969 1
32.6007 12.2538 0.607918 0.311764 10
32.5949 12.2516 4.27553 0.241318 10
32.5889 12.2493 8.03767 0.236906 10
32.6543 12.2739 9.34736 0.149926 10
9.19873 3.49427 -2.63663 0.0180122 4
10.9398 4.15562 -2.70173 0.0473355 4
12.1558 4.61756 -2.52759 0.130451 4
14.8438 5.63861 -2.51493 0.0440821 4
20.5198 7.79473 -2.69517 0.0468853 1
28.6564 10.8855 -2.6819 0.0336962 1
32.6005 12.3838 0.608716 0.314672 10
32.5947 12.3815 4.28114 0.243569 10
32.5886 12.3793 8.04822 0.239115 10
32.654 12.4041 9.35963 0.151324 10
9.18653 3.52638 -2.63665 0.0108072 4
10.9617 4.20779 -2.71075 0.0860451 1
12.1003 4.64487 -2.5194 0.0541168 4
14.8241 5.69045 -2.51495 0.0495463 4
20.4927 7.86641 -2.6952 0.0468847 1
28.6187 10.9857 -2.68195 0.0336956 1
32.6003 12.5141 0.609524 0.317576 10
32.5944 12.5118 4.28682 0.245817 10
32.5884 12.5095 8.05889 0.241322 10
32.6538 12.5346 9.37205 0.152721 10
9.17422 3.55844 -2.63666 0.114676 4
10.947 4.24606 -2.71077 0.0860445 1
12.0841 4.68712 -2.51942 0.0625443 4
14.8043 5.74222 -2.51498 0.0422596 4
20.4654 7.93801 -2.69524 0.046884 1
28.5808 11.0857 -2.682 0.033695 1
32.6714 12.6724 -1.83653 0.320081 10
32.6695 12.6717 -0.611642 0.320474 10
32.6001 12.6447 0.610341 0.320477 10
32.6656 12.6701 1.8362 0.159326 10
32.6636 12.6694 3.06513 0.158939 10
32.5942 12.6424 4.29257 0.248062 10
32.6597 12.6678 5.54827 0.157584 10
32.6577 12.6671 6.8088 0.156619 10
32.5882 12.6401 8.0697 0.243526 10
32.6536 12.6655 9.38461 0.154117 10
9.1618 3.59047 -2.63668 0.105669 4
10.9322 4.28428 -2.71079 0.0860439 1
12.0678 4.72931 -2.51944 0.0483494 4
14.7844 5.79393 -2.51501 0.0510025 4
20.4379 8.00951 -2.69528 0.0468834 1
28.5424 11.1857 -2.68205 0.0336943 1
32.5998 12.7757 0.611168 0.323373 10
32.594 12.7734 4.29838 0.250304 10
32.5879 12.7711 8.08063 0.245727 10
9.14927 3.62245 -2.6367 0.106869 4
10.9173 4.32245 -2.71081 0.0860432 1
12.5853 4.98285 -2.63109 0.0487926 4
14.7642 5.84556 -2.51503 0.0433516 4
20.4101 8.08091 -2.69531 0.0468827 1
28.5038 11.2854 -2.6821 0.0336937 1
32.5996 12.9071 0.612005 0.326266 10
32.5937 12.9048 4.30427 0.252543 10
32.5877 12.9024 8.09169 0.247925 10
9.13663 3.65439 -2.63672 0.114073 4
10.9022 4.36056 -2.71083 0.0860426 1
12.5679 5.0268 -2.63111 0.0452436 4
14.7439 5.89713 -2.51506 0.0473584 4
20.382 8.15222 -2.69535 0.0468821 1
28.4648 11.3851 -2.68216 0.033693 1
32.5994 13.0388 0.612852 0.329155 10
32.5935 13.0365 4.31022 0.254779 10
32.5875 13.034 8.10288 0.25012 10
9.12388 3.68629 -2.63673 0.10987 4
10.887 4.39862 -2.71085 0.0860419 1
12.5504 5.07068 -2.63114 0.0660906 4
14.7234 5.94862 -2.51509 0.0393435 4
20.3537 8.22343 -2.69539 0.0468814 1
28.4254 11.4846 -2.68221 0.0336924 1
32.5992 13.1709 0.613708 0.33204 10
32.5933 13.1685 4.31624 0.257012 10
32.5872 13.1661 8.1142 0.252312 10
9.11102 3.71814 -2.63675 0.105066 4
10.8716 4.43663 -2.71087 0.0860413 1
12.5327 5.11451 -2.63116 0.0354845 4
14.7027 6.00005 -2.51512 0.0579217 4
20.3252 8.29455 -2.69543 0.0468807 1
28.3857 11.584 -2.68226 0.0336917 1
32.6703 13.3325 -1.84927 0.334506 10
32.6684 13.3317 -0.615884 0.334917 10
32.5989 13.3034 0.614574 0.33492 10
32.6645 13.3301 1.84893 0.166506 10
32.6625 13.3293 3.08639 0.166101 10
32.593 13.301 4.32233 0.259241 10
32.6585 13.3277 5.58674 0.164686 10
32.6565 13.3269 6.85601 0.163677 10
32.587 13.2985 8.12564 0.254501 10
32.6523 13.3252 9.44967 0.161062 10
9.09804 3.74994 -2.63677 0.0600374 4
10.8562 4.47459 -2.71089 0.0860406 1
12.5149 5.15827 -2.63119 0.0172986 4
14.6818 6.0514 -2.51515 0.0568282 4
20.2964 8.36557 -2.69547 0.0468801 1
28.3457 11.6832 -2.68232 0.033691 1
32.4248 13.3645 -1.838 0.822395 10
32.4245 13.3644 -0.612162 0.823448 10
32.5987 13.4362 0.615451 0.337797 10
32.424 13.3642 1.83795 0.641348 10
32.4237 13.3641 3.06821 0.639823 10
32.5928 13.4338 4.3285 0.261468 10
32.4231 13.3638 5.55442 0.634437 10
32.4228 13.3637 6.81671 0.630582 10
32.5867 13.4313 8.13723 0.256686 10
32.4222 13.3635 9.39652 0.620575 10
9.08496 3.7817 -2.63679 0.0204126 4
10.8406 4.51249 -2.71091 0.08604 1
12.4969 5.20197 -2.63121 0.0660888 4
14.6607 6.10268 -2.51517 0.0429849 4
20.2674 8.43649 -2.69551 0.0468794 1
28.3053 11.7824 -2.68237 0.0336903 1
32.2426 13.4213 -1.83031 0.340248 10
32.2407 13.4205 -0.609573 0.340666 10
32.5985 13.5694 0.616337 0.340669 10
32.2368 13.4189 1.82998 0.265302 10
32.2349 13.4181 3.05476 0.264658 10
32.5926 13.567 4.33473 0.263691 10
32.2309 13.4164 5.52948 0.262403 10
32.2289 13.4156 6.78574 0.260795 10
32.5865 13.5644 8.14894 0.258869 10
32.2248 13.4139 9.35282 0.256628 10
9.09215 3.82199 -2.64273 0.0539516 4
10.8248 4.55034 -2.71093 0.0860393 1
12.4788 5.24561 -2.63123 0.0243949 4
14.6395 6.15389 -2.5152 0.0509985 4
18.4617 7.76057 -2.45894 0.0725386 10
28.2646 11.8813 -2.68243 0.0336896 1
32.6022 13.7047 -1.85343 0.343113 10
32.6002 13.7039 -0.617271 0.343534 10
32.5983 13.703 0.617233 0.343537 10
32.5963 13.7022 1.85309 0.267536 10
32.5943 13.7014 3.09334 0.266886 10
32.5923 13.7006 4.34103 0.265911 10
32.5903 13.6997 5.59931 0.264612 10
32.5883 13.6989 6.87144 0.26299 10
32.5863 13.698 8.16079 0.261048 10
32.5842 13.6971 9.47093 0.258788 10
9.10672 3.86557 -2.65087 0.049483 4
10.7434 4.56032 -2.69452 0.108448 4
12.4606 5.28919 -2.63126 0.0523378 4
14.6181 6.20502 -2.51523 0.0440768 4
18.4347 7.82508 -2.45898 0.0725375 10
28.2235 11.9802 -2.68248 0.0336889 1
32.602 13.8387 -1.85615 0.345973 10
32.6 13.8379 -0.618178 0.346398 10
