VERSION 0.7
FIELDS x y z intensity label
SIZE 4 4 4 4 4
TYPE F F F F F
COUNT 1 1 1 1 1
WIDTH 1223
HEIGHT 1
VIEWPOINT 12.9031 47.4926 2.72829 0.96916 -0.000144602 -0.0003776 0.246432
POINTS 1223
DATA ascii
-8.69061 -4.69899 -2.64724 0.118964 4
-10.0843 -5.45255 -2.64667 0.0410559 4
-11.9738 -6.47418 -2.6459 0.0233701 4
-14.6889 -7.94223 -2.64479 0.018083 4
-18.3541 -9.924 -2.56193 0.133215 4
-22.5304 -12.1822 -2.24085 0.4838 10
-22.6381 -12.2403 -1.34873 0.485007 10
-22.6369 -12.2397 -0.449189 0.485624 10
-22.527 -12.1803 0.447007 0.485649 10
-22.5258 -12.1796 1.34204 0.378225 10
-22.6334 -12.2378 2.25109 0.240875 10
-22.6322 -12.2372 3.15909 0.240005 10
-22.5223 -12.1777 4.05523 0.374139 10
-22.5211 -12.1771 4.9766 0.371863 10
-22.6286 -12.2352 5.93899 0.235648 10
-22.6274 -12.2346 6.89251 0.233618 10
-8.67424 -4.72935 -2.64727 0.111192 4
-10.0653 -5.48778 -2.6467 0.0368979 4
-11.9512 -6.51602 -2.64593 0.0171967 4
-14.6613 -7.99358 -2.64483 0.0231459 4
-18.4052 -10.0349 -2.57394 0.252928 4
-22.6091 -12.3269 -2.25294 0.481203 10
-22.608 -12.3263 -1.34949 0.482404 10
-22.6068 -12.3256 -0.449443 0.483017 10
-22.6056 -12.325 0.449419 0.483042 10
-22.6045 -12.3243 1.34929 0.376195 10
-22.6033 -12.3237 2.25236 0.239582 10
-22.6021 -12.3231 3.16087 0.238717 10
-22.6009 -12.3224 4.07711 0.372131 10
-22.5997 -12.3218 5.00344 0.369867 10
-22.5985 -12.3211 5.94234 0.234383 10
-22.5973 -12.3204 6.89639 0.232365 10
-8.65775 -4.75964 -2.64729 0.104017 4
-10.0462 -5.52294 -2.64673 0.0613226 4
-11.9286 -6.55779 -2.64597 0.0185193 4
-14.6335 -8.04484 -2.64487 0.0126577 4
-18.4569 -10.1468 -2.5861 0.256966 4
-22.6887 -12.4732 -2.26519 0.4786 10
-22.5187 -12.3797 -1.34674 0.748367 10
-22.5188 -12.3798 -0.448549 0.749277 10
-22.6852 -12.4713 0.451863 0.48043 10
-22.684 -12.4706 1.35662 0.37416 10
-22.519 -12.3799 2.24825 0.582079 10
-22.5191 -12.38 3.15529 0.579945 10
-22.6804 -12.4687 4.09928 0.370119 10
-22.6792 -12.468 5.03065 0.367867 10
-22.5194 -12.3801 5.93287 0.569318 10
-22.5195 -12.3802 6.8858 0.564382 10
-8.64117 -4.78988 -2.64732 0.0197272 4
-10.027 -5.55804 -2.64676 0.0155903 4
-11.9058 -6.59947 -2.646 0.0242511 4
-14.6056 -8.096 -2.64492 0.0289315 4
-18.509 -10.2597 -2.59841 0.223979 4
-22.7691 -12.6211 -2.27761 0.475991 10
-22.4253 -12.4305 -1.34374 0.750038 10
-22.4254 -12.4306 -0.44755 0.75095 10
-22.7656 -12.6192 0.454339 0.477811 10
-22.7644 -12.6185 1.36406 0.372121 10
-22.4256 -12.4307 2.24325 0.583379 10
-22.4257 -12.4308 3.14826 0.58124 10
-22.7608 -12.6165 4.12174 0.368102 10
-22.7595 -12.6158 5.05821 0.365863 10
-22.426 -12.4309 5.91965 0.570589 10
-22.4261 -12.431 6.87047 0.565642 10
-8.62448 -4.82006 -2.64734 0.0251071 4
-10.0076 -5.59306 -2.64679 0.0478098 4
-11.8828 -6.64108 -2.64604 0.0132277 4
-14.5775 -8.14707 -2.64496 0.0267612 4
-18.5615 -10.3737 -2.61085 0.235034 4
-22.8505 -12.7707 -2.29019 0.473376 10
-22.3323 -12.4811 -1.34077 0.751699 10
-22.3324 -12.4811 -0.446561 0.752613 10
-22.8469 -12.7687 0.456849 0.475187 10
-22.8457 -12.768 1.37159 0.370077 10
-22.3326 -12.4813 2.23829 0.584671 10
-22.3327 -12.4813 3.1413 0.582527 10
-22.842 -12.766 4.14449 0.366081 10
-22.8408 -12.7653 5.08613 0.363854 10
-22.333 -12.4815 5.90657 0.571853 10
-22.3331 -12.4815 6.85528 0.566894 10
-8.60768 -4.85018 -2.64737 0.0675493 4
-9.98814 -5.62803 -2.64682 0.0145506 4
-11.8597 -6.6826 -2.64607 0.0313051 4
-14.5492 -8.19804 -2.645 0.0188049 4
-18.6146 -10.4888 -2.62345 0.219568 4
-22.9327 -12.9219 -2.30294 0.470756 10
-22.3407 -12.5883 -1.3439 0.471931 10
-22.3395 -12.5877 -0.447579 0.472532 10
-22.9291 -12.9199 0.459391 0.472557 10
-22.9278 -12.9192 1.37922 0.368029 10
-22.3359 -12.5857 2.24301 0.367151 10
-22.3348 -12.585 3.14775 0.365826 10
-22.9242 -12.9171 4.16755 0.364055 10
-22.9229 -12.9164 5.11443 0.361841 10
-22.3311 -12.5829 5.91765 0.359186 10
-22.3299 -12.5822 6.86774 0.356093 10
-8.59078 -4.88024 -2.64739 0.0358665 4
-9.96854 -5.66292 -2.64685 0.0270223 4
-11.8365 -6.72405 -2.64611 0.0582003 4
-14.5207 -8.2489 -2.64504 0.0426719 4
-18.6681 -10.605 -2.63619 0.241295 4
-23.0158 -13.0748 -2.31586 0.46813 10
-23.0146 -13.0741 -1.38718 0.469299 10
-23.0134 -13.0734 -0.461993 0.469896 10
-23.0122 -13.0727 0.461968 0.469921 10
-23.0109 -13.072 1.38696 0.365977 10
-23.0097 -13.0713 2.31524 0.365104 10
-23.0085 -13.0706 3.24911 0.363786 10
-23.0072 -13.0699 4.19093 0.362025 10
-23.006 -13.0692 5.14311 0.359823 10
-23.0047 -13.0685 6.10821 0.357183 10
-23.0034 -13.0678 7.08888 0.354107 10
-8.57378 -4.91025 -2.64742 0.0502127 4
-9.94882 -5.69774 -2.64687 0.0316989 4
-11.8131 -6.76541 -2.64614 0.0220453 4
-14.492 -8.29967 -2.64509 0.0206123 4
-18.6822 -10.6994 -2.64344 0.0256523 4
-23.0999 -13.2294 -2.32895 0.465498 10
-23.0987 -13.2287 -1.39502 0.466661 10
-23.0975 -13.228 -0.464604 0.467255 10
-23.0962 -13.2273 0.464579 0.46728 10
-23.095 -13.2266 1.3948 0.36392 10
-23.0937 -13.2259 2.32833 0.363052 10
-23.0925 -13.2252 3.26748 0.361742 10
-23.0912 -13.2245 4.21461 0.359991 10
-23.09 -13.2237 5.17217 0.357801 10
-23.0887 -13.223 6.14272 0.355176 10
-23.0874 -13.2223 7.12893 0.352118 10
-8.55666 -4.94019 -2.64744 0.0155419 4
-9.92898 -5.7325 -2.6469 0.0223449 4
-11.7895 -6.8067 -2.64618 0.0096998 4
-14.4632 -8.35035 -2.64513 0.0339917 4
-18.6451 -10.7648 -2.64349 0.0532768 4
-23.185 -13.3859 -2.34222 0.46286 10
-23.1837 -13.3851 -1.40297 0.464017 10
-23.1825 -13.3844 -0.467252 0.464608 10
-23.1812 -13.3837 0.467226 0.464633 10
-23.18 -13.383 1.40274 0.361858 10
-23.1787 -13.3823 2.34159 0.360995 10
-23.1775 -13.3815 3.28609 0.359693 10
-23.1762 -13.3808 4.23862 0.357952 10
-23.1749 -13.3801 5.20164 0.355775 10
-23.1736 -13.3793 6.17771 0.353164 10
-23.1723 -13.3785 7.16954 0.350124 10
-8.53945 -4.97008 -2.64747 0.0842839 4
-9.90902 -5.76719 -2.64693 0.0270214 4
-11.7659 -6.8479 -2.64621 0.0242492 4
-14.4342 -8.40091 -2.64517 0.0260358 4
-18.6078 -10.83 -2.64355 0.0256513 4
-23.271 -13.544 -2.35567 0.460217 10
-23.2697 -13.5433 -1.41103 0.461367 10
-23.2685 -13.5426 -0.469935 0.461955 10
-23.2672 -13.5418 0.469909 0.46198 10
-23.266 -13.5411 1.4108 0.359792 10
-23.2647 -13.5404 2.35503 0.358934 10
-23.2634 -13.5396 3.30496 0.357639 10
-23.2621 -13.5389 4.26295 0.355909 10
-23.2609 -13.5381 5.2315 0.353744 10
-23.2595 -13.5374 6.21317 0.351149 10
-23.2582 -13.5366 7.21069 0.348126 10
-8.52213 -4.9999 -2.64749 0.0179326 4
-9.88894 -5.80181 -2.64696 0.0244229 4
-11.742 -6.88902 -2.64625 0.0242489 4
-14.405 -8.45138 -2.64522 0.0506244 4
-17.7822 -10.4327 -2.53141 0.029597 4
-23.358 -13.7041 -2.36931 0.457569 10
-23.3567 -13.7033 -1.41919 0.458712 10
-23.3555 -13.7026 -0.472655 0.459296 10
-23.3542 -13.7018 0.472629 0.459321 10
-23.3529 -13.7011 1.41896 0.357722 10
-23.3517 -13.7003 2.36866 0.356869 10
-23.3504 -13.6996 3.32408 0.355581 10
-23.3491 -13.6988 4.28762 0.353861 10
-23.3478 -13.6981 5.26177 0.351709 10
-23.3464 -13.6973 6.24912 0.349129 10
-23.3451 -13.6965 7.25241 0.346123 10
-8.50471 -5.02967 -2.64752 0.0239099 4
-9.86874 -5.83635 -2.64699 0.033776 4
-11.7181 -6.93005 -2.64628 0.0141082 4
-14.3757 -8.50175 -2.64526 0.0198878 4
-17.746 -10.495 -2.53146 0.0326969 4
-23.446 -13.8659 -2.38313 0.454914 10
-23.4448 -13.8652 -1.42747 0.456051 10
-23.4435 -13.8644 -0.475412 0.456632 10
-23.4422 -13.8637 0.475386 0.456657 10
-23.4409 -13.8629 1.42724 0.355647 10
-23.4396 -13.8622 2.38248 0.354799 10
-23.4383 -13.8614 3.34347 0.353519 10
-23.437 -13.8606 4.31263 0.351809 10
-23.4357 -13.8598 5.29245 0.34967 10
-23.4344 -13.859 6.28556 0.347104 10
-23.433 -13.8582 7.2947 0.344116 10
-8.48718 -5.05937 -2.64754 0.0280938 4
-9.84842 -5.87083 -2.64702 0.0213047 4
-11.694 -6.97101 -2.64632 0.0171942 4
-14.3462 -8.55202 -2.6453 0.0376054 4
-17.7096 -10.5571 -2.53152 0.0369242 4
-23.5351 -14.0297 -2.39715 0.452254 10
-23.5338 -14.029 -1.43587 0.453385 10
-23.5325 -14.0282 -0.478208 0.453963 10
-23.5312 -14.0274 0.478182 0.453988 10
-23.5299 -14.0266 1.43563 0.353568 10
-23.5286 -14.0259 2.39649 0.352725 10
-23.5273 -14.0251 3.36313 0.351453 10
-23.526 -14.0243 4.33798 0.349753 10
-23.5247 -14.0235 5.32357 0.347626 10
-23.5233 -14.0227 6.32251 0.345076 10
-23.5219 -14.0219 7.33758 0.342105 10
-8.46955 -5.08902 -2.64757 0.0400483 4
-9.82797 -5.90524 -2.64705 0.0171475 4
-11.6697 -7.01188 -2.64635 0.0193983 4
-14.3164 -8.60219 -2.64534 0.0238646 4
-17.7529 -10.667 -2.543 0.266728 4
-23.5418 -14.1454 -2.40285 0.764374 10
-23.5419 -14.1454 -1.43937 0.766235 10
-23.542 -14.1455 -0.479402 0.767167 10
-23.6213 -14.1931 0.481016 0.451313 10
-23.5422 -14.1456 1.43939 0.597439 10
-23.5423 -14.1456 2.40289 0.595977 10
-23.5424 -14.1457 3.37232 0.593792 10
-23.616 -14.1899 4.36369 0.347692 10
-23.5426 -14.1458 5.33876 0.587256 10
-23.5427 -14.1459 6.34094 0.582912 10
-23.5428 -14.1459 7.35943 0.577858 10
-8.45182 -5.1186 -2.64759 0.0627616 4
-9.80741 -5.93958 -2.64708 0.0498829 4
-11.6453 -7.05267 -2.64639 0.048936 4
-14.2866 -8.65225 -2.64539 0.0191637 4
-17.8135 -10.7882 -2.55706 0.241703 4
-23.4443 -14.1984 -2.39794 0.765939 10
-23.4444 -14.1984 -1.43643 0.767804 10
-23.4445 -14.1985 -0.478422 0.768738 10
-23.7125 -14.3608 0.48389 0.448632 10
-23.4447 -14.1986 1.43644 0.598663 10
-23.4448 -14.1987 2.39798 0.597198 10
-23.4449 -14.1987 3.36543 0.595008 10
-23.7071 -14.3576 4.38976 0.345627 10
-23.445 -14.1988 5.32785 0.588458 10
-23.4451 -14.1989 6.32799 0.584105 10
-23.4452 -14.1989 7.34439 0.579041 10
-8.43398 -5.14812 -2.64762 0.0430361 4
-9.78672 -5.97384 -2.64711 0.0275392 4
-11.6208 -7.09337 -2.64642 0.0233655 4
-14.2565 -8.70221 -2.64543 0.0159092 4
-17.8747 -10.9108 -2.57131 0.287456 4
-23.3472 -14.2512 -2.39308 0.767494 10
-23.3473 -14.2512 -1.43352 0.769367 10
-23.3474 -14.2513 -0.477452 0.770299 10
-23.8047 -14.5305 0.486805 0.445946 10
-23.3476 -14.2514 1.43353 0.599878 10
-23.3476 -14.2515 2.39312 0.598414 10
-23.3477 -14.2515 3.35861 0.596216 10
-23.7993 -14.5272 4.41619 0.343558 10
-23.3479 -14.2516 5.31705 0.589653 10
-23.348 -14.2517 6.31516 0.585292 10
-23.3481 -14.2517 7.3295 0.580217 10
-8.41604 -5.17758 -2.64765 0.0508061 4
-9.76592 -6.00803 -2.64714 0.0322153 4
-11.5961 -7.13398 -2.64646 0.021161 4
-14.2263 -8.75206 -2.64547 0.0289254 4
-17.9366 -11.0347 -2.58574 0.222911 4
-23.2863 -14.3258 -2.39195 0.44156 10
-23.285 -14.325 -1.43275 0.442664 10
-23.2837 -14.3242 -0.47717 0.443229 10
-23.8981 -14.7022 0.489761 0.443254 10
-23.2811 -14.3226 1.43251 0.345209 10
-23.2798 -14.3218 2.39128 0.344387 10
-23.2784 -14.321 3.35581 0.343145 10
-23.8927 -14.6988 4.443 0.341486 10
-23.2757 -14.3193 5.31197 0.33941 10
-23.2744 -14.3185 6.30872 0.33692 10
-23.273 -14.3176 7.32157 0.33402 10
-8.398 -5.20698 -2.64767 0.0203222 4
-9.745 -6.04215 -2.64717 0.0192251 4
-11.5713 -7.17451 -2.64649 0.0110212 4
-14.1959 -8.80181 -2.64552 0.0188012 4
-17.9992 -11.16 -2.60036 0.262864 4
-24.1126 -14.9504 -2.48217 0.438872 10
-24.121 -14.9556 -1.4874 0.772454 10
-24.1211 -14.9557 -0.495398 0.773393 10
-23.9926 -14.876 0.492759 0.440557 10
-24.1213 -14.9558 1.48741 0.384487 10
-24.1214 -14.9559 2.48307 0.383548 10
-24.1214 -14.9559 3.48484 0.382142 10
-23.9871 -14.8726 4.47019 0.339408 10
-24.1216 -14.956 5.5169 0.377935 10
-24.1217 -14.9561 6.55252 0.37514 10
-23.365 -14.4869 7.36637 0.331989 10
-8.37985 -5.23631 -2.6477 0.0286899 4
-9.72396 -6.0762 -2.6472 0.0394889 4
-11.5463 -7.21496 -2.64653 0.0290955 4
-14.1653 -8.85146 -2.64556 0.0285629 4
-18.0625 -11.2867 -2.61518 0.207917 4
-24.2087 -15.1273 -2.49749 0.436179 10
-24.0883 -15.052 0.4958 0.437855 10
-24.0827 -15.0486 4.49778 0.337327 10
-23.4581 -14.6582 7.41182 0.329953 10
-8.3616 -5.26558 -2.64772 0.0442299 4
-9.7028 -6.11018 -2.64723 0.027538 4
-11.5212 -7.25531 -2.64656 0.026891 4
-14.1345 -8.901 -2.6456 0.0126542 4
-18.1265 -11.4149 -2.6302 0.240049 4
-24.2708 -15.2841 -2.50938 0.0778614 10
-24.1852 -15.2302 0.498885 0.435147 10
-24.1796 -15.2267 4.52576 0.335241 10
-23.5524 -14.8317 7.45792 0.327914 10
-8.34325 -5.29479 -2.64775 0.0173332 4
-9.68152 -6.14408 -2.64726 0.0410467 4
-11.496 -7.29558 -2.6466 0.015429 4
-14.1036 -8.95043 -2.64565 0.0188003 4
-18.1913 -11.5445 -2.64543 0.262359 4
-24.2875 -15.4133 -2.51665 0.43078 10
-24.2832 -15.4106 0.502015 0.432434 10
-24.2776 -15.407 4.55414 0.333152 10
-24.2732 -15.4042 7.70315 0.32587 10
-8.3248 -5.32393 -2.64777 0.0131492 4
-9.66012 -6.17791 -2.64729 0.0233808 4
-11.4706 -7.33577 -2.64663 0.0423191 4
-14.0725 -8.99975 -2.64569 0.0151846 4
-18.2567 -11.6757 -2.66086 0.252888 4
-24.3868 -15.596 -2.53257 0.428071 10
-24.3826 -15.5933 0.505191 0.429716 10
-24.3769 -15.5896 4.58295 0.331058 10
-24.3724 -15.5868 7.75186 0.323822 10
-8.30624 -5.35301 -2.6478 0.0316772 4
-9.63861 -6.21166 -2.64732 0.0207827 4
-11.4451 -7.37586 -2.64667 0.0105796 4
-14.0413 -9.04897 -2.64573 0.0133767 4
-18.323 -11.8083 -2.6765 0.26133 4
-24.4875 -15.7811 -2.54873 0.425358 10
-24.4878 -15.7813 -1.52677 0.780016 10
-24.4879 -15.7814 -0.508512 0.780964 10
-24.4832 -15.7783 0.508413 0.426993 10
-24.4881 -15.7815 1.52679 0.388251 10
-24.4882 -15.7816 2.5488 0.387303 10
-24.4883 -15.7816 3.57709 0.385883 10
-24.4774 -15.7746 4.61217 0.32896 10
-24.4885 -15.7817 5.66294 0.381635 10
-24.4886 -15.7818 6.72597 0.378812 10
-24.4729 -15.7717 7.80128 0.321771 10
-8.28759 -5.38202 -2.64783 0.0286885 4
-9.61698 -6.24534 -2.64735 0.0233803 4
-11.4194 -7.41587 -2.6467 0.0114611 4
-18.3899 -11.9426 -2.69236 0.311768 4
-24.4156 -15.8557 -2.547 0.779597 10
-24.4157 -15.8558 -1.52572 0.781499 10
-24.4158 -15.8558 -0.508161 0.78245 10
-24.4159 -15.8559 0.508163 0.782447 10
-24.416 -15.8559 1.52573 0.609338 10
-24.4161 -15.856 2.54704 0.60785 10
-24.4162 -15.8561 3.57462 0.605622 10
-24.5792 -15.9619 4.64183 0.326858 10
-24.4164 -15.8562 5.65903 0.598955 10
-24.4165 -15.8562 6.72133 0.594524 10
-24.5747 -15.959 7.85143 0.319716 10
-8.26883 -5.41097 -2.64785 0.0119534 4
-9.59523 -6.27894 -2.64738 0.0503969 4
-11.3936 -7.45578 -2.64674 0.0242443 4
-13.9782 -9.14708 -2.64582 0.0253064 4
-18.4577 -12.0784 -2.70844 0.10411 4
-24.3143 -15.9108 -2.5422 0.781068 10
-24.3144 -15.9109 -1.52284 0.782974 10
-24.3144 -15.9109 -0.507204 0.783926 10
-24.3145 -15.911 0.507206 0.783923 10
-24.3146 -15.9111 1.52286 0.610488 10
-24.3147 -15.9111 2.54225 0.608997 10
-24.3148 -15.9112 3.56789 0.606764 10
-24.6824 -16.1517 4.67193 0.324753 10
-24.315 -15.9113 5.64837 0.600085 10
-24.3151 -15.9114 6.70868 0.595646 10
-24.6778 -16.1487 7.90233 0.317656 10
-8.24998 -5.43986 -2.64788 0.0346646 4
-9.57336 -6.31247 -2.64741 0.0228602 4
-11.3677 -7.49561 -2.64678 0.0202768 4
-13.9464 -9.19596 -2.64587 0.0191602 4
-18.5026 -12.2002 -2.72125 0.0464215 1
-24.2133 -15.9657 -2.53745 0.782529 10
-24.2134 -15.9658 -1.52 0.784438 10
-24.2135 -15.9658 -0.506257 0.785393 10
-24.2136 -15.9659 0.506259 0.78539 10
-24.2136 -15.966 1.52002 0.61163 10
-24.2137 -15.966 2.5375 0.610136 10
-24.2138 -15.9661 3.56123 0.607899 10
-24.7868 -16.3439 4.70247 0.322643 10
-24.214 -15.9662 5.63783 0.601207 10
-24.2141 -15.9663 6.69615 0.59676 10
-24.7822 -16.3408 7.95399 0.315593 10
-8.23102 -5.46867 -2.6479 0.0430315 4
-9.55138 -6.34592 -2.64744 0.0322117 4
-11.3416 -7.53535 -2.64681 0.0268884 4
-18.4603 -12.265 -2.72131 0.0464205 1
-24.9032 -16.5457 -2.61579 0.414452 10
-24.9017 -16.5447 -1.56683 0.41549 10
-24.9002 -16.5437 -0.52182 0.416022 10
-24.8987 -16.5427 0.521788 0.416047 10
-24.8972 -16.5417 1.56654 0.324021 10
-24.8957 -16.5407 2.61501 0.323251 10
-24.8942 -16.5397 3.66976 0.322086 10
-24.8927 -16.5387 4.73348 0.32053 10
-24.8912 -16.5376 5.80889 0.318582 10
-24.8896 -16.5366 6.89887 0.316247 10
-24.888 -16.5356 8.00643 0.313526 10
-8.21196 -5.49743 -2.64793 0.0233085 4
-9.52927 -6.37929 -2.64747 0.0119494 4
-11.3154 -7.57499 -2.64685 0.0339407 4
-18.4178 -12.3296 -2.72137 0.0464195 1
-25.0106 -16.7431 -2.6332 0.411713 10
-25.0091 -16.7421 -1.57725 0.412745 10
-25.0076 -16.7411 -0.525291 0.413273 10
-25.0061 -16.7401 0.525259 0.413298 10
-25.0046 -16.7391 1.57696 0.32188 10
-25.003 -16.7381 2.6324 0.321115 10
-25.0015 -16.737 3.69417 0.319959 10
-25 -16.736 4.76496 0.318412 10
-24.9984 -16.735 5.84752 0.316478 10
-24.9968 -16.7339 6.94474 0.314158 10
-24.9952 -16.7328 8.05966 0.311455 10
-8.1928 -5.52611 -2.64796 0.0334683 4
-9.50706 -6.41259 -2.6475 0.0114297 4
-11.289 -7.61455 -2.64688 0.0264469 4
-13.85 -9.34197 -2.646 0.0162673 4
-18.375 -12.3941 -2.72143 0.0464185 1
-25.7639 -17.3779 -2.71887 0.0332278 1
-42.09 -28.39 -2.66073 0.261011 4
-49.3823 -33.3087 -1.03972 0.410519 10
-49.3793 -33.3067 1.03966 0.410544 10
-49.141 -33.146 5.18587 0.613509 10
-49.2043 -33.1887 7.28739 0.390217 10
-48.805 -32.9194 9.32401 0.608266 10
-49.1416 -33.1464 11.522 0.604531 10
-49.142 -33.1467 15.8829 0.594857 10
-8.17354 -5.55473 -2.64798 0.0197222 4
-9.48472 -6.44581 -2.64753 0.0275349 4
-11.2625 -7.65401 -2.64692 0.0449592 4
-13.8176 -9.39041 -2.64604 0.0173515 4
-18.332 -12.4584 -2.72149 0.0464175 1
-25.7038 -17.4683 -2.71895 0.0332268 1
-41.9163 -28.4863 -2.65602 0.267416 4
-49.924 -33.9283 -1.05362 0.269336 10
-49.921 -33.9263 1.05355 0.269352 10
-48.9991 -33.2998 3.10482 0.393321 10
-48.9365 -33.2572 5.17651 0.614619 10
-48.6019 -33.0298 9.30718 0.609366 10
-48.9371 -33.2576 11.5012 0.605625 10
-48.9375 -33.2579 15.8543 0.595933 10
-8.15418 -5.58328 -2.64801 0.0412369 4
-9.46227 -6.47895 -2.64756 0.025976 4
-11.2359 -7.69338 -2.64696 0.0559778 4
-13.7849 -9.43875 -2.64609 0.0289187 4
-25.6435 -17.5584 -2.71904 0.0332258 1
-41.7433 -28.5822 -2.65136 0.198434 4
-50.1499 -34.3383 -1.06091 0.523521 10
-50.1501 -34.3385 1.06091 0.523519 10
-48.7327 -33.368 5.16724 0.615721 10
-48.3995 -33.1398 9.29052 0.610459 10
-48.7333 -33.3684 11.4806 0.60671 10
-48.7337 -33.3686 15.8259 0.597001 10
-8.13472 -5.61177 -2.64803 0.0203194 4
-9.43971 -6.51202 -2.64759 0.0311708 4
-11.2091 -7.73266 -2.64699 0.0185121 4
-13.7521 -9.48697 -2.64613 0.0130132 4
-25.5828 -17.6484 -2.71912 0.0332248 1
-41.5708 -28.6778 -2.64675 0.276304 4
-50.4392 -34.7957 -1.06959 0.524451 10
-48.1973 -33.2491 3.06865 0.618325 10
-48.5297 -33.4784 5.15807 0.616816 10
-48.1977 -33.2494 7.18949 0.614554 10
-48.1979 -33.2495 9.27403 0.611544 10
-48.5303 -33.4788 11.4602 0.607789 10
-48.1982 -33.2497 13.5183 0.603293 10
-48.5306 -33.479 15.7978 0.598063 10
-8.11517 -5.64019 -2.64806 0.00896437 4
-9.41703 -6.545 -2.64762 0.0270144 4
-11.1822 -7.77185 -2.64703 0.00925592 4
-13.7192 -9.53507 -2.64617 0.0343398 4
-25.5218 -17.7381 -2.7192 0.0332238 1
-41.399 -28.773 -2.64218 0.270808 4
-60.1254 -41.7882 -1.27808 0.79539 10
-48.3272 -33.5883 3.08436 0.619415 10
-48.3274 -33.5884 5.149 0.617903 10
-48.3276 -33.5885 7.22631 0.615637 10
-48.3278 -33.5886 9.32153 0.612622 10
-48.3279 -33.5888 11.4401 0.60886 10
-48.3281 -33.5889 13.5876 0.604356 10
-48.3283 -33.589 15.77 0.599117 10
-8.09551 -5.66854 -2.64809 0.0316738 4
-9.39423 -6.57791 -2.64765 0.0176631 4
-11.1552 -7.81094 -2.64706 0.0176301 4
-13.686 -9.58306 -2.64622 0.0206035 4
-17.6453 -12.3554 -2.6449 0.054939 4
-23.6918 -16.5892 -2.53038 0.0256118 4
-41.2277 -28.8679 -2.63767 0.239357 4
-59.944 -41.9732 -1.27733 0.396673 10
-48.2878 -33.8115 1.02895 0.262029 10
-48.1256 -33.6979 3.07898 0.620497 10
-48.1258 -33.698 5.14002 0.618982 10
-48.1259 -33.6982 7.21371 0.616713 10
-48.1261 -33.6983 9.30527 0.613692 10
-48.1263 -33.6984 11.4201 0.609924 10
-48.1265 -33.6985 13.5639 0.605412 10
-48.1267 -33.6987 15.7425 0.600163 10
-8.07575 -5.69682 -2.64811 0.0346615 4
-9.37132 -6.61074 -2.64768 0.0140264 4
-11.128 -7.84994 -2.6471 0.0110187 4
-13.6527 -9.63094 -2.64626 0.0159042 4
-17.6025 -12.4172 -2.64495 0.0425416 4
-41.057 -28.9625 -2.6332 0.24376 4
-48.0144 -33.8704 -1.02564 0.260174 10
-48.0114 -33.8683 1.02557 0.260191 10
-47.9247 -33.8071 3.07366 0.621572 10
-47.9249 -33.8073 5.13113 0.620054 10
-47.925 -33.8074 7.20124 0.617781 10
-47.9252 -33.8075 9.28918 0.614755 10
-47.9254 -33.8076 11.4004 0.61098 10
-47.9256 -33.8078 13.5404 0.606461 10
-47.9258 -33.8079 15.7153 0.601203 10
-8.0559 -5.72503 -2.64814 0.06992 4
-9.3483 -6.64349 -2.64771 0.0670142 4
-11.1007 -7.88884 -2.64714 0.0066111 4
-13.6193 -9.6787 -2.64631 0.0101207 4
-17.5594 -12.4788 -2.64501 0.0555001 4
-23.5768 -16.7552 -2.53053 0.0288368 4
-40.8868 -29.0567 -2.62878 0.274191 4
-47.7365 -33.9246 -1.02222 0.258333 10
-47.7335 -33.9224 1.02216 0.258349 10
-47.7245 -33.916 3.06839 0.622639 10
-47.7246 -33.9161 5.12234 0.621118 10
-47.7248 -33.9162 7.1889 0.618841 10
-47.725 -33.9164 9.27326 0.61581 10
-47.7252 -33.9165 11.3808 0.612029 10
-47.7253 -33.9166 13.5172 0.607502 10
-47.7255 -33.9168 15.6884 0.602235 10
-8.03594 -5.75317 -2.64816 0.0364537 4
-9.32516 -6.67616 -2.64774 0.0249352 4
-11.0732 -7.92765 -2.64717 0.0233589 4
-13.5856 -9.72634 -2.64635 0.00975908 4
-23.5189 -16.8379 -2.53061 0.0302475 4
-40.7172 -29.1507 -2.6244 0.254601 4
-47.5246 -34.0242 -1.02022 0.529008 10
-47.5247 -34.0244 1.02023 0.529006 10
-47.5249 -34.0245 3.06318 0.623698 10
-47.5251 -34.0246 5.11364 0.622175 10
-47.5253 -34.0247 7.17668 0.619894 10
-47.5254 -34.0249 9.25751 0.616858 10
-47.5256 -34.025 11.3615 0.61307 10
-47.5258 -34.0251 13.4943 0.608536 10
-47.526 -34.0253 15.6617 0.603259 10
-8.01589 -5.78124 -2.64819 0.022111 4
-9.3019 -6.70874 -2.64777 0.0561036 4
-11.0456 -7.96636 -2.64721 0.00969602 4
-13.5518 -9.77387 -2.6464 0.0343369 4
-17.4726 -12.6016 -2.64512 0.0183114 4
-23.4607 -16.9204 -2.53068 0.0246005 4
-40.5482 -29.2443 -2.62007 0.248997 4
-47.3257 -34.1324 -1.01851 0.5299 10
-47.3259 -34.1325 1.01851 0.529898 10
-47.326 -34.1326 3.05802 0.62475 10
-47.3262 -34.1327 5.10503 0.623224 10
-47.3264 -34.1329 7.1646 0.62094 10
-47.3266 -34.133 9.24193 0.617898 10
-47.3267 -34.1331 11.3424 0.614104 10
-47.3269 -34.1332 13.4715 0.609562 10
-47.3271 -34.1334 15.6353 0.604277 10
-7.99574 -5.80925 -2.64822 0.0191229 4
-9.27854 -6.74125 -2.6478 0.0420772 4
-11.0179 -8.00498 -2.64724 0.0132217 4
-13.5178 -9.82128 -2.64644 0.0253005 4
-23.4022 -17.0027 -2.53076 0.0274227 4
-40.3797 -29.3376 -2.61578 0.269519 4
-51.6917 -37.5562 -1.11528 0.382707 10
-47.1278 -34.2404 3.05292 0.625794 10
-47.128 -34.2405 5.09651 0.624266 10
-47.1282 -34.2406 7.15265 0.621977 10
-47.1284 -34.2407 9.2265 0.618931 10
-47.1285 -34.2409 11.3234 0.615131 10
-47.1287 -34.241 13.4491 0.610581 10
-47.1289 -34.2411 15.6093 0.605287 10
-7.9755 -5.83718 -2.64824 0.0525873 4
-9.25506 -6.77368 -2.64784 0.0259733 4
-10.9901 -8.04351 -2.64728 0.0132215 4
-13.4837 -9.86858 -2.64648 0.0180715 4
-17.3849 -12.7239 -2.64524 0.0185923 4
-23.3434 -17.0848 -2.53084 0.0286316 4
-40.2118 -29.4306 -2.61154 0.273986 4
-46.9303 -34.3478 3.04787 0.626831 10
-46.9305 -34.3479 5.08808 0.6253 10
-46.9306 -34.348 7.14082 0.623008 10
-46.9308 -34.3482 9.21125 0.619956 10
-46.931 -34.3483 11.3047 0.616149 10
-46.9312 -34.3484 13.4268 0.611592 10
-46.9313 -34.3485 15.5834 0.606289 10
-7.95515 -5.86504 -2.64827 0.0191225 4
-9.23146 -6.80602 -2.64787 0.0275314 4
-10.9621 -8.08193 -2.64732 0.0312904 4
-13.4494 -9.91575 -2.64653 0.0122884 4
-17.3408 -12.7847 -2.6453 0.0146482 4
-23.2844 -17.1667 -2.53092 0.0286308 4
-40.0443 -29.5232 -2.60734 0.230034 4
-46.8371 -34.5313 -1.01572 0.249076 10
-46.834 -34.529 1.01565 0.249093 10
-46.7334 -34.4548 3.04288 0.62786 10
-46.7336 -34.455 5.07975 0.626327 10
-46.7337 -34.4551 7.12912 0.62403 10
-46.7339 -34.4552 9.19615 0.620974 10
-46.7341 -34.4553 11.2862 0.617161 10
-46.7343 -34.4555 13.4048 0.612596 10
-46.7344 -34.4556 15.5579 0.607285 10
-7.93471 -5.89283 -2.6483 0.0227077 4
-9.20775 -6.83828 -2.6479 0.0223365 4
-10.9339 -8.12025 -2.64735 0.0352563 4
-13.4149 -9.9628 -2.64657 0.0314433 4
-17.2965 -12.8455 -2.64535 0.0174647 4
-23.225 -17.2484 -2.53099 0.0272186 4
-39.8775 -29.6156 -2.60319 0.286991 4
-46.5523 -34.5728 -1.01215 0.247216 10
-46.5492 -34.5705 1.01208 0.247233 10
-46.2598 -34.3555 3.01983 0.291508 10
-46.5373 -34.5617 5.0715 0.627345 10
-46.2535 -34.3509 7.07411 0.289771 10
-46.5377 -34.5619 9.18122 0.621984 10
-46.5378 -34.562 11.2679 0.618165 10
-46.244 -34.3438 13.2985 0.284523 10
-46.5382 -34.5623 15.5326 0.608272 10
-7.91417 -5.92056 -2.64832 0.0358539 4
-9.18393 -6.87046 -2.64793 0.0129862 4
-10.9057 -8.15849 -2.64739 0.0242384 4
-13.3803 -10.0097 -2.64662 0.0401166 4
-17.2519 -12.9061 -2.64541 0.0205629 4
-23.1654 -17.3299 -2.53107 0.0270161 4
-39.7111 -29.7077 -2.59909 0.238862 4
-46.3412 -34.6676 -1.01019 0.534264 10
-46.3414 -34.6678 1.01019 0.534262 10
-46.401 -34.7124 3.03694 0.402113 10
-46.3417 -34.668 5.06333 0.628357 10
-46.4013 -34.7126 7.1152 0.39966 10
-46.342 -34.6683 9.16644 0.622987 10
-46.3422 -34.6684 11.2497 0.619161 10
-46.4018 -34.713 13.3787 0.392337 10
-46.3426 -34.6687 15.5076 0.609253 10
-7.89354 -5.9482 -2.64835 0.0185243 4
-9.16 -6.90256 -2.64796 0.0509053 4
-10.8773 -8.19662 -2.64743 0.0268822 4
-13.3455 -10.0566 -2.64666 0.0242141 4
-17.2071 -12.9665 -2.64547 0.0171823 4
-39.5452 -29.7995 -2.59502 0.285867 4
-46.1462 -34.7736 -1.00858 0.535117 10
-46.1464 -34.7738 1.00858 0.535115 10
-46.1467 -34.774 5.05526 0.62936 10
-46.147 -34.7743 9.15183 0.623981 10
-46.1472 -34.7744 11.2318 0.62015 10
-46.1476 -34.7747 15.4829 0.610226 10
-7.8728 -5.97578 -2.64838 0.0555725 4
-9.13596 -6.93457 -2.64799 0.0218163 4
-13.3105 -10.1032 -2.64671 0.00867356 4
-39.3799 -29.8909 -2.591 0.123865 4
-45.9523 -34.8797 5.04728 0.630356 10
-45.9527 -34.88 9.13737 0.624969 10
-45.9528 -34.8801 11.2141 0.621131 10
-45.9532 -34.8804 15.4585 0.611191 10
-7.85197 -6.00329 -2.6484 0.0358528 4
-9.1118 -6.9665 -2.64802 0.014544 4
-10.8201 -8.27258 -2.6475 0.0171865 4
-13.2754 -10.1498 -2.64675 0.0209608 4
-22.9847 -17.5732 -2.5313 0.0272152 4
-39.215 -29.9821 -2.58703 0.300986 4
-45.7581 -34.9847 -1.00541 0.812692 10
-45.7582 -34.9848 1.00541 0.812689 10
-45.7586 -34.9851 5.03938 0.631344 10
-45.7589 -34.9853 9.12307 0.625948 10
-45.7591 -34.9854 11.1965 0.622105 10
-45.7594 -34.9857 15.4343 0.612149 10
-7.83105 -6.03072 -2.64843 0.0382426 4
-9.08754 -6.99834 -2.64805 0.0384374 4
-10.7913 -8.31042 -2.64754 0.0118982 4
-13.2401 -10.1963 -2.6468 0.0307178 4
-17.0715 -13.1468 -2.64564 0.0140829 4
-22.924 -17.6538 -2.53138 0.0258033 4
-39.0507 -30.073 -2.58309 0.297371 4
-45.5649 -35.0897 -1.00385 0.813954 10
-45.5651 -35.0898 1.00385 0.813951 10
-45.2533 -34.8498 2.99338 0.633872 10
-45.2535 -34.8499 4.99712 0.632324 10
-45.2537 -34.85 7.01316 0.630006 10
-45.2538 -34.8501 9.04657 0.626921 10
-45.254 -34.8503 11.1026 0.623071 10
-45.2542 -34.8504 13.1868 0.618462 10
-45.2544 -34.8505 15.3048 0.6131 10
-7.81003 -6.05808 -2.64846 0.0239014 4
-9.06316 -7.0301 -2.64808 0.0280486 4
-10.7624 -8.34815 -2.64757 0.0753541 4
-13.2047 -10.2426 -2.64684 0.0205987 4
-17.0259 -13.2066 -2.6457 0.0174625 4
-22.8629 -17.7343 -2.53146 0.0298341 4
-38.8868 -30.1637 -2.5792 0.2815 4
-45.6943 -35.4441 -1.00942 0.357278 10
-45.6911 -35.4416 1.00935 0.357302 10
-45.0621 -34.9537 2.98879 0.634847 10
-45.0623 -34.9539 4.98945 0.633297 10
-45.0624 -34.954 7.00238 0.630975 10
-45.0626 -34.9541 9.03267 0.627885 10
-45.0627 -34.9542 11.0856 0.62403 10
-45.0629 -34.9544 13.1665 0.619414 10
-45.0631 -34.9545 15.2813 0.614043 10
-7.78891 -6.08537 -2.64848 0.0233036 4
-9.03867 -7.06178 -2.64811 0.01766 4
-10.7333 -8.38579 -2.64761 0.0859289 4
-13.1691 -10.2888 -2.64689 0.0122867 4
-22.8016 -17.8145 -2.53154 0.0336631 4
-38.7234 -30.254 -2.57536 0.296221 4
-54.7675 -42.7891 -1.21314 0.539285 10
-44.8714 -35.0574 2.98424 0.635815 10
-44.8716 -35.0575 4.98185 0.634262 10
-44.8718 -35.0577 6.99173 0.631937 10
-44.8719 -35.0578 9.01893 0.628842 10
-44.8721 -35.0579 11.0687 0.62498 10
-44.8723 -35.058 13.1465 0.620358 10
-44.8724 -35.0582 15.2581 0.614979 10
-7.7677 -6.11258 -2.64851 0.0430217 4
-9.01407 -7.09337 -2.64814 0.0290867 4
-10.7041 -8.42332 -2.64765 0.0995881 4
-13.1333 -10.3349 -2.64693 0.0216821 4
-38.5605 -30.3441 -2.57155 0.161628 4
-55.0159 -43.2932 -1.22199 0.232226 10
-44.6814 -35.1608 2.97974 0.636774 10
-44.6815 -35.1609 4.97435 0.63522 10
-44.6817 -35.161 6.98119 0.632891 10
-44.6818 -35.1611 9.00534 0.629791 10
-44.682 -35.1613 11.052 0.625924 10
-44.6822 -35.1614 13.1267 0.621294 10
-44.6823 -35.1615 15.2351 0.615907 10
-7.7464 -6.13972 -2.64854 0.0113528 4
-8.98936 -7.12488 -2.64817 0.0316834 4
-10.6748 -8.46075 -2.64768 0.0775542 4
-13.0974 -10.3808 -2.64698 0.0177067 4
-16.8878 -13.3851 -2.64588 0.016898 4
-22.7952 -18.0673 -2.54478 0.24509 4
-38.3981 -30.4339 -2.56779 0.315535 4
-55.4541 -43.9524 -1.23512 0.540906 10
-44.4919 -35.2638 2.97529 0.637726 10
-44.492 -35.2639 4.96692 0.636169 10
-44.4922 -35.264 6.97077 0.633837 10
-44.4923 -35.2642 8.9919 0.630732 10
-44.4925 -35.2643 11.0355 0.626859 10
-44.4927 -35.2644 13.1071 0.622223 10
-44.4928 -35.2646 15.2123 0.616828 10
-7.72499 -6.16678 -2.64856 0.0239004 4
-8.96454 -7.1563 -2.64821 0.00675211 4
-10.6454 -8.49808 -2.64772 0.0286418 4
-13.0613 -10.4267 -2.64702 0.0339674 4
-16.8413 -13.4442 -2.64593 0.0168977 4
-22.8956 -18.2773 -2.56308 0.20796 4
-38.2361 -30.5235 -2.56406 0.231865 4
-55.6766 -44.4461 -1.24352 0.541707 10
-44.3029 -35.3665 2.9709 0.63867 10
-44.303 -35.3667 4.95958 0.637111 10
-44.3032 -35.3668 6.96047 0.634775 10
-44.3034 -35.3669 8.97861 0.631666 10
-44.3035 -35.367 11.0192 0.627787 10
-44.3037 -35.3672 13.0877 0.623144 10
-44.3039 -35.3673 15.1899 0.617741 10
-7.7035 -6.19377 -2.64859 0.0143401 4
-8.93961 -7.18763 -2.64824 0.0753112 4
-10.6158 -8.5353 -2.64776 0.0277601 4
-13.025 -10.4724 -2.64707 0.0104791 4
-22.9973 -18.4903 -2.58168 0.236388 4
-38.0746 -30.6127 -2.56038 0.269186 4
-55.9246 -44.9645 -1.25256 0.226558 10
-44.1145 -35.469 2.96655 0.639607 10
-44.1147 -35.4691 4.95232 0.638045 10
-44.1148 -35.4692 6.95028 0.635706 10
-44.115 -35.4693 8.96546 0.632592 10
-44.1151 -35.4695 11.0031 0.628708 10
-44.1153 -35.4696 13.0685 0.624057 10
-44.1155 -35.4697 15.1676 0.618647 10
-7.68191 -6.22069 -2.64862 0.0412274 4
-8.91457 -7.21887 -2.64827 0.00623257 4
-10.5861 -8.57243 -2.6478 0.0198284 4
-12.9886 -10.518 -2.64712 0.0249327 4
-23.1005 -18.7064 -2.60058 0.232953 4
-37.9135 -30.7017 -2.55674 0.24076 4
-43.9267 -35.5711 2.96225 0.640535 10
-43.9268 -35.5712 4.94514 0.638971 10
-43.927 -35.5713 6.9402 0.636629 10
-43.9271 -35.5715 8.95246 0.633511 10
-43.9273 -35.5716 10.9871 0.629621 10
-43.9274 -35.5717 13.0496 0.624963 10
-43.9276 -35.5719 15.1456 0.619545 10
-7.66023 -6.24753 -2.64864 0.0346546 4
-8.88942 -7.25003 -2.6483 0.0161006 4
-10.5562 -8.60945 -2.64783 0.0149812 4
-16.7007 -13.6208 -2.64611 0.0166149 4
-23.2052 -18.9257 -2.61979 0.253961 4
-37.7529 -30.7905 -2.55314 0.156612 4
-47.9595 -39.1148 -1.08025 0.823692 10
-43.7393 -35.6729 2.95799 0.641456 10
-43.7395 -35.673 4.93804 0.63989 10
-43.7396 -35.6732 6.93024 0.637544 10
-43.7398 -35.6733 8.93961 0.634421 10
-43.74 -35.6734 10.9713 0.630526 10
-43.7401 -35.6736 13.0309 0.625862 10
-43.7403 -35.6737 15.1239 0.620436 10
-8.86416 -7.28111 -2.64833 0.0161004 4
-10.5263 -8.64636 -2.64787 0.0123373 4
-12.9153 -10.6088 -2.64721 0.0148146 4
-16.6534 -13.6793 -2.64617 0.0225282 4
-23.3114 -19.1482 -2.63931 0.244882 4
-37.5927 -30.879 -2.54958 0.268262 4
-47.7547 -39.2261 -1.07872 0.824864 10
-43.5526 -35.7745 2.95379 0.642369 10
-43.5527 -35.7746 4.93102 0.6408 10
-43.5529 -35.7747 6.92039 0.638451 10
-43.553 -35.7749 8.92691 0.635324 10
-43.5532 -35.775 10.9558 0.631423 10
-43.5534 -35.7751 13.0124 0.626753 10
-43.5535 -35.7753 15.1024 0.621319 10
-7.61658 -6.30098 -2.6487 0.0304715 4
-8.8388 -7.31209 -2.64836 0.0119453 4
-10.4962 -8.68318 -2.64791 0.0154214 4
-12.8784 -10.654 -2.64725 0.014453 4
-37.4329 -30.9672 -2.54607 0.252102 4
-43.3663 -35.8757 2.94964 0.643274 10
-43.3665 -35.8759 4.92409 0.641703 10
-43.3666 -35.876 6.91066 0.639351 10
-43.3668 -35.8761 8.91435 0.636219 10
-43.3669 -35.8762 10.9403 0.632313 10
-43.3671 -35.8764 12.994 0.627636 10
-43.3673 -35.8765 15.0811 0.622194 10
-7.59462 -6.3276 -2.64872 0.00418232 4
-8.81332 -7.34298 -2.64839 0.00934842 4
-10.4659 -8.71988 -2.64794 0.0321642 4
-12.8414 -10.699 -2.6473 0.0115622 4
-37.2736 -31.0552 -2.54259 0.225547 4
-43.4985 -36.2416 -0.988267 0.217055 10
-43.4952 -36.2388 0.988191 0.217072 10
-43.1806 -35.9767 2.94553 0.644171 10
-43.1807 -35.9768 4.91723 0.642598 10
-43.1809 -35.977 6.90103 0.640242 10
-43.1811 -35.9771 8.90193 0.637107 10
-43.1812 -35.9772 10.9251 0.633195 10
-43.1814 -35.9774 12.9759 0.628511 10
-43.1815 -35.9775 15.0601 0.623062 10
-7.57256 -6.35413 -2.64875 0.00716962 4
-8.78774 -7.37379 -2.64842 0.0618027 4
-10.4356 -8.75649 -2.64798 0.0127774 4
-12.8042 -10.744 -2.64734 0.0314341 4
-37.1147 -31.143 -2.53915 0.250716 4
-43.2914 -36.3258 -0.986437 0.547127 10
-43.2916 -36.3259 0.98644 0.547125 10
-42.9954 -36.0774 2.94147 0.645061 10
-42.9955 -36.0775 4.91045 0.643486 10
-42.9957 -36.0777 6.89151 0.641126 10
-42.9958 -36.0778 8.88966 0.637986 10
-42.996 -36.0779 10.91 0.634069 10
-42.9962 -36.0781 12.9581 0.629379 10
-42.9963 -36.0782 15.0394 0.623922 10
-7.55041 -6.38059 -2.64878 0.0394325 4
-8.76205 -7.40451 -2.64845 0.030122 4
-16.4623 -13.9117 -2.6464 0.0475867 4
-22.1207 -18.6934 -2.5338 0.264002 4
-36.9563 -31.2305 -2.53575 0.176359 4
-42.8107 -36.1778 2.93745 0.645942 10
-42.8108 -36.178 4.90375 0.644365 10
-42.811 -36.1781 6.88211 0.642003 10
-42.8111 -36.1782 8.87753 0.638858 10
-42.8113 -36.1783 10.8951 0.634935 10
-42.8115 -36.1785 12.9404 0.630239 10
-42.8116 -36.1786 15.0189 0.624775 10
-7.52817 -6.40697 -2.6488 0.0149364 4
-8.73626 -7.43513 -2.64849 0.0280443 4
-10.3745 -8.82937 -2.64805 0.0286382 4
-12.7293 -10.8335 -2.64743 0.00867119 4
-22.2401 -18.9278 -2.55503 0.28323 4
-36.7982 -31.3177 -2.53239 0.305402 4
-42.6265 -36.278 2.93348 0.646816 10
-42.6266 -36.2781 4.89712 0.645236 10
-42.6268 -36.2782 6.87282 0.642871 10
-42.6269 -36.2784 8.86553 0.639722 10
-42.6271 -36.2785 10.8804 0.635794 10
-42.6273 -36.2786 12.9229 0.631091 10
-42.6274 -36.2788 14.9986 0.62562 10
-7.50583 -6.43328 -2.64883 0.0274827 4
-8.71035 -7.46567 -2.64852 0.0259666 4
-10.3437 -8.86566 -2.64809 0.0149798 4
-12.6916 -10.878 -2.64748 0.00975492 4
-16.3655 -14.0269 -2.64652 0.0416717 4
-22.3615 -19.1661 -2.57665 0.254187 4
-36.6406 -31.4048 -2.52907 0.224672 4
-42.832 -36.7114 -0.984674 0.209405 10
-42.8286 -36.7085 0.984596 0.209422 10
-42.4428 -36.3779 2.92956 0.647682 10
-42.4429 -36.378 4.89058 0.6461 10
-42.4431 -36.3781 6.86363 0.643731 10
-42.4432 -36.3782 8.85368 0.640579 10
-42.4434 -36.3784 10.8659 0.636645 10
-42.4435 -36.3785 12.9056 0.631936 10
-42.4437 -36.3786 14.9785 0.626457 10
-7.48341 -6.4595 -2.64886 0.0286773 4
-8.68434 -7.49612 -2.64855 0.0420654 4
-10.3129 -8.90184 -2.64813 0.0101332 4
-12.6538 -10.9225 -2.64752 0.0180644 4
-22.4849 -19.4084 -2.59866 0.26503 4
-42.5505 -36.7286 -0.981146 0.550078 10
-42.5507 -36.7288 0.981148 0.550076 10
-42.6054 -36.776 2.94963 0.414015 10
-42.551 -36.729 4.91777 0.646956 10
-42.6057 -36.7763 6.91065 0.41149 10
-42.5513 -36.7293 8.90291 0.641427 10
-42.2603 -36.4781 12.8885 0.632773 10
-42.5518 -36.7297 15.0618 0.627287 10
-7.46089 -6.48565 -2.64889 0.0418207 4
-8.65823 -7.52648 -2.64858 0.0358331 4
-10.2819 -8.93791 -2.64817 0.0149793 4
-12.6158 -10.9667 -2.64757 0.00830946 4
-22.6105 -19.655 -2.62109 0.246412 4
-42.3665 -36.8287 -0.979861 0.550799 10
-42.3667 -36.8288 0.979864 0.550797 10
-42.4212 -36.8762 2.94577 0.414558 10
-42.367 -36.829 4.91133 0.647804 10
-42.3673 -36.8293 8.89126 0.642268 10
-42.4218 -36.8767 10.926 0.407494 10
-42.0776 -36.5775 12.8717 0.633603 10
-42.3678 -36.8297 15.0421 0.628109 10
-7.43828 -6.51172 -2.64891 0.0215076 4
-8.632 -7.55675 -2.64861 0.0109056 4
-10.2508 -8.97387 -2.6482 0.0303988 4
-12.5777 -11.0109 -2.64762 0.0137284 4
-16.2188 -14.1985 -2.6467 0.0166112 4
-22.7382 -19.9058 -2.64393 0.219308 4
-36.8684 -32.2758 -2.56799 0.259261 4
-42.2374 -36.9761 2.94195 0.415095 10
-42.1835 -36.9288 4.90497 0.648644 10
-42.1838 -36.9291 8.87974 0.643101 10
-42.238 -36.9766 10.9119 0.408022 10
-41.8953 -36.6766 12.855 0.634424 10
-42.1842 -36.9295 15.0226 0.628924 10
-7.41558 -6.53772 -2.64894 0.040625 4
-8.60568 -7.58692 -2.64864 0.0223302 4
-10.2195 -9.00972 -2.64824 0.0361256 4
-12.5394 -11.0549 -2.64766 0.0260113 4
-16.1695 -14.2553 -2.64676 0.0188632 4
-22.8682 -20.161 -2.66721 0.268142 4
-36.7102 -32.3644 -2.56482 0.270786 4
-41.7128 -36.7748 2.91433 0.651066 10
-42.0004 -37.0284 4.89869 0.649476 10
-41.7131 -36.775 6.82795 0.647095 10
-42.0007 -37.0286 8.86837 0.643926 10
-41.7134 -36.7753 10.8094 0.639972 10
-41.7135 -36.7754 12.8385 0.635238 10
-42.0012 -37.029 15.0034 0.629731 10
-7.39279 -6.56363 -2.64897 0.0197149 4
-8.57924 -7.617 -2.64867 0.00467371 4
-10.1882 -9.04547 -2.64828 0.0132165 4
-12.5009 -11.0988 -2.64771 0.0148117 4
-16.12 -14.312 -2.64682 0.0202704 4
-23.0004 -20.4207 -2.69093 0.186028 4
-41.8174 -37.1272 -0.9761 0.837093 10
-41.8176 -37.1273 0.976103 0.83709 10
-41.8177 -37.1275 2.9307 0.651892 10
-41.8179 -37.1276 4.89248 0.6503 10
-41.818 -37.1277 6.8663 0.647916 10
-41.8182 -37.1279 8.85713 0.644743 10
-41.8183 -37.128 10.8701 0.640784 10
-41.8185 -37.1281 12.9106 0.636044 10
-41.8186 -37.1283 14.9843 0.63053 10
-7.36991 -6.58946 -2.64899 0.0442086 4
-8.5527 -7.647 -2.64871 0.0186946 4
-10.1567 -9.08111 -2.64832 0.0277543 4
-12.4623 -11.1426 -2.64775 0.0227591 4
-23.135 -20.6851 -2.71511 0.281498 4
-36.3949 -32.5408 -2.5586 0.23962 4
-41.7178 -37.3 -0.976808 0.299541 10
-41.7143 -37.2969 0.976726 0.299566 10
-41.6356 -37.2265 2.92703 0.65271 10
-41.6357 -37.2266 4.88635 0.651116 10
-41.6359 -37.2268 6.85769 0.64873 10
-41.636 -37.2269 8.84602 0.645552 10
-41.6362 -37.227 10.8565 0.641588 10
-41.6363 -37.2272 12.8944 0.636843 10
-41.6365 -37.2273 14.9656 0.631321 10
-7.34694 -6.61521 -2.64902 0.0221041 4
-8.52606 -7.6769 -2.64874 0.0207716 4
-10.125 -9.11663 -2.64835 0.022908 4
-12.4236 -11.1862 -2.6478 0.0119212 4
-23.1231 -20.8201 -2.72222 0.0331869 1
-36.2377 -32.6286 -2.55554 0.164936 4
-55.6413 -50.0996 -1.30691 0.839184 10
-41.4539 -37.3253 2.9234 0.65352 10
-41.4541 -37.3254 4.88029 0.651925 10
-41.4542 -37.3255 6.84919 0.649535 10
-41.4544 -37.3257 8.83506 0.646354 10
-41.4545 -37.3258 10.843 0.642385 10
-41.4547 -37.3259 12.8785 0.637633 10
-41.4548 -37.3261 14.947 0.632105 10
-7.32388 -6.64089 -2.64905 0.0209091 4
-8.49931 -7.7067 -2.64877 0.0337534 4
-10.0933 -9.15205 -2.64839 0.0409694 4
-12.3847 -11.2297 -2.64785 0.0223971 4
-15.9703 -14.481 -2.64699 0.0177355 4
-23.051 -20.9013 -2.72231 0.0331859 1
-36.081 -32.7162 -2.55253 0.238313 4
-55.398 -50.2319 -1.30531 0.840214 10
-41.2727 -37.4238 2.91981 0.654323 10
-41.2729 -37.4239 4.8743 0.652725 10
-41.273 -37.4241 6.84079 0.650332 10
-41.2732 -37.4242 8.82422 0.647147 10
-41.2733 -37.4243 10.8297 0.643173 10
-41.2734 -37.4245 12.8627 0.638416 10
-41.2736 -37.4246 14.9287 0.632881 10
-7.30073 -6.66648 -2.64908 0.0489864 4
-8.47246 -7.73642 -2.6488 0.0721795 4
-10.0614 -9.18735 -2.64843 0.0171805 4
-12.3456 -11.2731 -2.64789 0.0671901 4
-22.9786 -20.9823 -2.72239 0.0331848 1
-35.9246 -32.8036 -2.54955 0.259257 4
-53.0458 -48.4375 -1.25386 0.841234 10
-41.0919 -37.5221 2.91627 0.655117 10
-41.0921 -37.5222 4.86839 0.653518 10
-41.0922 -37.5224 6.83249 0.651122 10
-41.0924 -37.5225 8.81352 0.647933 10
-41.0925 -37.5226 10.8166 0.643954 10
-41.0927 -37.5228 12.8471 0.639191 10
-41.0928 -37.5229 14.9106 0.633649 10
-7.27749 -6.69199 -2.6491 0.00657128 4
-8.4455 -7.76604 -2.64883 0.0290791 4
-10.0295 -9.22255 -2.64847 0.0114535 4
-12.3064 -11.3163 -2.64794 0.0700788 4
-35.7685 -32.8908 -2.54661 0.261438 4
-52.8427 -48.5913 -1.25306 0.28781 10
-40.9116 -37.6201 2.91278 0.655904 10
-40.9117 -37.6203 4.86256 0.654302 10
-40.9119 -37.6204 6.8243 0.651904 10
-40.912 -37.6205 8.80295 0.648711 10
-40.9122 -37.6207 10.8036 0.644727 10
-40.9123 -37.6208 12.8317 0.639959 10
-40.9125 -37.6209 14.8927 0.63441 10
-7.25416 -6.71743 -2.64913 0.0292718 4
-8.41844 -7.79556 -2.64886 0.0467338 4
-9.99734 -9.25764 -2.6485 0.0356815 4
-12.267 -11.3594 -2.64798 0.0715224 4
-35.6128 -32.9778 -2.5437 0.192066 4
-40.7317 -37.718 2.90932 0.656682 10
-40.7318 -37.7181 4.85679 0.655079 10
-40.732 -37.7182 6.81621 0.652677 10
-40.7321 -37.7183 8.79252 0.649481 10
-40.7323 -37.7185 10.7908 0.645493 10
-40.7324 -37.7186 12.8165 0.640718 10
-40.7326 -37.7188 14.875 0.635163 10
-7.23074 -6.74278 -2.64916 0.041219 4
-8.39128 -7.825 -2.6489 0.00830813 4
-9.9651 -9.29261 -2.64854 0.0317165 4
-15.768 -14.7039 -2.64723 0.0140745 4
-22.1173 -20.6247 -2.6458 0.0412908 4
-35.4574 -33.0646 -2.54083 0.23187 4
-44.1605 -41.1803 -1.05397 0.844233 10
-44.1606 -41.1804 1.05397 0.84423 10
-40.5522 -37.8155 2.90591 0.657452 10
-40.5523 -37.8157 4.8511 0.655847 10
-40.5525 -37.8158 6.80822 0.653443 10
-40.5526 -37.8159 8.78222 0.650243 10
-40.5528 -37.8161 10.7782 0.64625 10
-40.5529 -37.8162 12.8014 0.64147 10
-40.5531 -37.8163 14.8576 0.635908 10
-7.20724 -6.76804 -2.64919 0.0191159 4
-8.36401 -7.85433 -2.64893 0.0545214 4
-9.93275 -9.32747 -2.64858 0.037002 4
-12.1878 -11.4451 -2.64808 0.016977 4
-22.0459 -20.7025 -2.64588 0.039074 4
-35.3024 -33.1511 -2.538 0.252888 4
-43.9655 -41.2863 -1.05275 0.845212 10
-43.9656 -41.2865 1.05275 0.845209 10
-40.3731 -37.9129 2.90255 0.658215 10
-40.3733 -37.913 4.84548 0.656608 10
-40.3734 -37.9132 6.80034 0.654201 10
-40.3736 -37.9133 8.77204 0.650997 10
-40.3737 -37.9134 10.7657 0.646999 10
-40.3738 -37.9136 12.7866 0.642214 10
-40.374 -37.9137 14.8404 0.636646 10
-7.18364 -6.79323 -2.64921 0.0185183 4
-8.33665 -7.88357 -2.64896 0.0192121 4
-9.90027 -9.36222 -2.64862 0.0114528 4
-12.148 -11.4878 -2.64812 0.00866893 4
-35.1477 -33.2375 -2.5352 0.272061 4
-44.1245 -41.7265 -1.06004 0.276023 10
-44.1206 -41.7227 1.05994 0.276047 10
-40.1945 -38.01 2.89923 0.658969 10
-40.1946 -38.0102 4.83993 0.65736 10
-40.1948 -38.0103 6.79255 0.65495 10
-40.1949 -38.0104 8.762 0.651743 10
-40.1951 -38.0106 10.7534 0.647741 10
-40.1952 -38.0107 12.772 0.64295 10
-40.1953 -38.0108 14.8234 0.637375 10
-7.15996 -6.81834 -2.64924 0.0340494 4
-8.30918 -7.91272 -2.64899 0.0186926 4
-9.86767 -9.39685 -2.64865 0.0281912 4
-12.1081 -11.5304 -2.64817 0.0140868 4
-15.6142 -14.8692 -2.64741 0.0250509 4
-34.9933 -33.3236 -2.53244 0.0699807 4
-39.7737 -37.876 2.87839 0.212693 10
-40.0164 -38.1071 4.83446 0.658105 10
-39.7663 -37.869 6.74245 0.211436 10
-40.0166 -38.1073 8.75209 0.652481 10
-39.7589 -37.8619 10.672 0.20915 10
-40.0169 -38.1076 12.7575 0.643678 10
-40.0171 -38.1078 14.8066 0.638097 10
-7.13619 -6.84336 -2.64927 0.0143365 4
-8.28161 -7.94177 -2.64902 0.0264809 4
-9.83495 -9.43137 -2.64869 0.0180597 4
-12.068 -11.5727 -2.64821 0.0166149 4
-39.8895 -38.2526 2.89642 0.421621 10
-39.8385 -38.2038 4.82905 0.658841 10
-39.8898 -38.2529 6.78598 0.41905 10
-39.8388 -38.204 8.7423 0.653211 10
-39.8901 -38.2532 10.743 0.414437 10
-39.8391 -38.2043 12.7433 0.644398 10
-39.8392 -38.2044 14.7901 0.638811 10
-7.11233 -6.8683 -2.64929 0.0244912 4
-8.25393 -7.97073 -2.64905 0.0218075 4
-9.80211 -9.46578 -2.64873 0.0158571 4
-15.5107 -14.9785 -2.64753 0.0177319 4
-39.6611 -38.3003 4.82372 0.65957 10
-39.6614 -38.3005 8.73265 0.653933 10
-39.6616 -38.3008 12.7292 0.645111 10
-39.3903 -38.0388 14.6726 0.639518 10
-7.08839 -6.89315 -2.64932 0.029867 4
-8.22616 -7.99959 -2.64909 0.00674987 4
-9.76914 -9.50007 -2.64877 0.0339161 4
-11.9873 -11.6571 -2.64831 0.0213096 4
-39.484 -38.3965 4.81846 0.66029 10
-39.4843 -38.3968 8.72312 0.654648 10
-39.4846 -38.3971 12.7153 0.645816 10
-39.2144 -38.1344 14.6566 0.640216 10
-7.06435 -6.91793 -2.64935 0.028672 4
-8.19828 -8.02835 -2.64912 0.0342682 4
-9.73606 -9.53425 -2.6488 0.0427249 4
-11.9467 -11.6991 -2.64835 0.0111964 4
-46.3024 -45.3427 -1.1312 0.850869 10
-39.3073 -38.4926 4.81326 0.661003 10
-39.3076 -38.4928 8.71372 0.655354 10
-39.3079 -38.4931 12.7016 0.646512 10
-39.039 -38.2298 14.6408 0.640907 10
-7.04024 -6.94262 -2.64938 0.0232958 4
-8.17031 -8.05702 -2.64915 0.0207683 4
-9.70286 -9.56832 -2.64884 0.029951 4
-11.906 -11.7409 -2.6484 0.0126409 4
-15.354 -15.1411 -2.64771 0.0146348 4
-39.1306 -38.588 -0.959273 0.56262 10
-39.1308 -38.5882 0.959276 0.562618 10
-39.131 -38.5884 4.80814 0.661707 10
-39.1313 -38.5887 8.70444 0.656052 10
-39.1316 -38.589 12.6881 0.647201 10
-38.8639 -38.325 14.6252 0.64159 10
-7.01603 -6.96722 -2.6494 0.0471884 4
-8.14223 -8.08558 -2.64918 0.059189 4
-9.66954 -9.60227 -2.64888 0.0537349 4
-11.8652 -11.7826 -2.64845 0.0169746 4
-26.0853 -25.9038 -0.641684 0.838113 8
-38.7205 -38.4511 2.85984 0.19883 10
-38.9551 -38.6841 4.80309 0.662403 10
-38.7129 -38.4435 6.6989 0.197658 10
-38.9554 -38.6844 8.69529 0.656743 10
-38.7051 -38.4358 10.6029 0.195523 10
-38.9556 -38.6846 12.6747 0.647882 10
-38.6972 -38.4279 14.6129 0.192435 10
-6.99174 -6.99174 -2.64943 0.0352416 4
-8.11405 -8.11405 -2.64921 0.0482852 4
-9.6361 -9.6361 -2.64892 0.011892 4
-11.8242 -11.8242 -2.64849 0.00902888 4
-15.2486 -15.2486 -2.64783 0.021107 4
-25.9677 -25.9677 -0.641018 0.838984 8
-38.8956 -38.8956 0.960145 0.166659 10
-38.7794 -38.7794 2.87417 0.664715 10
-38.7795 -38.7795 4.7981 0.663092 10
-38.7797 -38.7797 6.73384 0.660661 10
-38.7798 -38.7798 8.68627 0.657425 10
-38.7799 -38.7799 10.6604 0.653388 10
-38.7801 -38.7801 12.6616 0.648556 10
-38.7802 -38.7802 14.6953 0.642933 10
-6.96737 -7.01618 -2.64946 0.0238924 4
-8.08578 -8.14242 -2.64925 0.0259595 4
-9.60254 -9.66981 -2.64896 0.0136536 4
-25.8504 -26.0315 -0.640361 0.839844 8
-38.6041 -38.8745 0.956292 0.564373 10
-38.6042 -38.8747 2.87122 0.665396 10
-38.6044 -38.8748 4.79318 0.663772 10
-38.6045 -38.8749 6.72694 0.661338 10
-38.6046 -38.8751 8.67737 0.658099 10
-38.6048 -38.8752 10.6495 0.654058 10
-38.6049 -38.8753 12.6486 0.649221 10
-38.605 -38.8755 14.6802 0.643592 10
-6.9429 -7.04053 -2.64949 0.0209056 4
-8.0574 -8.1707 -2.64928 0.048284 4
-9.56887 -9.70341 -2.64899 0.00616603 4
-25.7441 -26.1061 -1.9215 0.536732 8
-25.7333 -26.0951 -0.639713 0.840695 8
-38.4294 -38.9697 2.86832 0.66607 10
-38.4295 -38.9699 4.78834 0.664444 10
-38.4296 -38.97 6.72014 0.662008 10
-38.4298 -38.9701 8.66859 0.658766 10
-38.4299 -38.9703 10.6387 0.654721 10
-38.43 -38.9704 12.6358 0.649878 10
-38.4302 -38.9706 14.6654 0.644244 10
-6.91836 -7.06479 -2.64951 0.0149324 4
-8.02893 -8.19887 -2.64931 0.0244013 4
-9.53508 -9.7369 -2.64903 0.0246638 4
-11.7003 -11.948 -2.64863 0.0187791 4
-15.0891 -15.4085 -2.64801 0.0146332 4
-25.6165 -26.1587 -0.639074 0.841535 8
-38.2549 -39.0646 2.86545 0.666736 10
-38.255 -39.0647 4.78356 0.665108 10
-38.2551 -39.0649 6.71343 0.662669 10
-38.2553 -39.065 8.65994 0.659424 10
-38.2554 -39.0651 10.6281 0.655375 10
-38.2556 -39.0653 12.6232 0.650527 10
-38.2557 -39.0654 14.6507 0.644887 10
-8.00036 -8.22695 -2.64934 0.0327078 4
-9.50116 -9.77026 -2.64907 0.0123317 4
-25.4998 -26.2221 -0.638445 0.842364 8
-38.163 -39.2438 0.955493 0.158771 10
-38.0807 -39.1593 2.86263 0.667393 10
-38.0809 -39.1594 4.77884 0.665764 10
-38.081 -39.1596 6.70682 0.663323 10
-38.0811 -39.1597 8.65141 0.660074 10
-38.0813 -39.1598 10.6176 0.656021 10
