VERSION 0.7
FIELDS x y z intensity label
SIZE 4 4 4 4 4
TYPE F F F F F
COUNT 1 1 1 1 1
WIDTH 1248
HEIGHT 1
VIEWPOINT 16.0478 54.9915 2.72816 0.999996 0.000116157 0.000752697 -0.00257704
POINTS 1248
DATA ascii
-13.2729 13.1806 1.63653 0.482545 10
-12.3216 12.2359 2.13214 0.196001 10
-13.2733 13.1809 2.96275 0.409837 10
-13.2734 13.1811 3.63613 0.407291 10
-13.2736 13.1812 4.31874 0.404248 10
-13.2738 13.1814 5.01245 0.400713 10
-7.28176 7.18079 -2.74027 0.0978987 1
-8.4576 8.34033 -2.7423 0.0850249 1
-10.0553 9.91592 -2.74507 0.0720475 1
-12.3585 12.1872 -2.74906 0.0589824 1
-13.3645 13.1792 -2.30463 0.482675 10
-13.3647 13.1794 -1.64216 0.484413 10
-13.3648 13.1795 -0.983701 0.48556 10
-13.365 13.1797 -0.327638 0.486117 10
-13.3651 13.1798 0.327641 0.486081 10
-13.3653 13.18 0.983736 0.485452 10
-13.3655 13.1801 1.64225 0.484233 10
-12.4036 12.2316 2.13892 0.196755 10
-13.3658 13.1804 2.97311 0.411271 10
-13.3659 13.1806 3.64885 0.408715 10
-13.3661 13.1808 4.33384 0.405662 10
-13.3663 13.1809 5.02999 0.402115 10
-7.30687 7.15541 -2.7403 0.0978975 1
-8.48678 8.31086 -2.74234 0.0850237 1
-10.0901 9.88091 -2.74511 0.0720464 1
-12.4012 12.1442 -2.74911 0.0589812 1
-13.4577 13.1787 -2.31275 0.48435 10
-13.4578 13.1789 -1.64794 0.486094 10
-13.458 13.179 -0.987166 0.487246 10
-13.4581 13.1792 -0.328792 0.487804 10
-13.4583 13.1793 0.328795 0.487768 10
-13.4585 13.1795 0.987201 0.487138 10
-13.4586 13.1796 1.64804 0.485914 10
-12.4861 12.2273 2.14577 0.197506 10
-13.4589 13.18 2.98358 0.412699 10
-13.4591 13.1801 3.6617 0.410135 10
-13.4593 13.1803 4.34911 0.407072 10
-13.4594 13.1805 5.0477 0.403512 10
-7.33188 7.12995 -2.74033 0.0978964 1
-8.51585 8.2813 -2.74238 0.0850226 1
-10.1246 9.84579 -2.74516 0.0720452 1
-12.4438 12.1011 -2.74917 0.05898 1
-13.5515 13.1782 -2.32095 0.486019 10
-13.5516 13.1784 -1.65378 0.48777 10
-13.5518 13.1785 -0.990667 0.488926 10
-13.552 13.1787 -0.329958 0.489486 10
-13.5521 13.1789 0.329962 0.48945 10
-13.5523 13.179 0.990702 0.488818 10
-13.5524 13.1792 1.65388 0.48759 10
-12.5717 12.2255 2.15315 0.208166 10
-13.5528 13.1795 2.99416 0.414122 10
-13.5529 13.1797 3.67469 0.41155 10
-13.5531 13.1798 4.36453 0.408476 10
-13.5533 13.18 5.06561 0.404904 10
-7.35681 7.10439 -2.74036 0.0978952 1
-8.54482 8.25164 -2.74241 0.0850214 1
-10.1591 9.81055 -2.7452 0.0720441 1
-12.4862 12.0578 -2.74922 0.0589789 1
-13.6459 13.1777 -2.32924 0.487683 10
-13.6461 13.1779 -1.65969 0.489439 10
-13.6463 13.1781 -0.994205 0.490599 10
-13.6464 13.1782 -0.331136 0.491162 10
-13.6466 13.1784 0.33114 0.491126 10
-13.6468 13.1785 0.99424 0.490491 10
-13.6469 13.1787 1.65979 0.489259 10
-12.6594 12.225 2.16084 0.208879 10
-13.6472 13.179 3.00486 0.41554 10
-13.6474 13.1792 3.68781 0.412959 10
-13.6476 13.1793 4.38012 0.409875 10
-13.6478 13.1795 5.0837 0.406291 10
-7.38165 7.07875 -2.74039 0.0978941 1
-8.57369 8.22187 -2.74245 0.0850203 1
-10.1935 9.77518 -2.74524 0.0720429 1
-12.5285 12.0144 -2.74927 0.0589777 1
-13.7411 13.1773 -2.33761 0.48934 10
-13.7413 13.1774 -1.66566 0.491103 10
-13.7414 13.1776 -0.997781 0.492267 10
-13.7416 13.1777 -0.332327 0.492831 10
-13.7418 13.1779 0.332331 0.492795 10
-13.7419 13.178 0.997816 0.492159 10
-13.7421 13.1782 1.66576 0.490923 10
-12.7477 12.2246 2.16861 0.209589 10
-13.7424 13.1785 3.01566 0.416954 10
-13.7426 13.1787 3.70108 0.414364 10
-13.7428 13.1788 4.39587 0.411269 10
-13.7429 13.179 5.10199 0.407673 10
-7.4064 7.05302 -2.74043 0.097893 1
-8.60245 8.192 -2.74249 0.0850192 1
-10.2277 9.73969 -2.74529 0.0720418 1
-12.5706 11.9708 -2.74933 0.0589766 1
-13.837 13.1768 -2.34608 0.490992 10
-13.8371 13.1769 -1.67169 0.49276 10
-13.8373 13.1771 -1.00139 0.493929 10
-13.8375 13.1772 -0.333531 0.494495 10
-13.8376 13.1774 0.333535 0.494459 10
-13.8378 13.1775 1.00143 0.493821 10
-13.8379 13.1777 1.67179 0.49258 10
-12.8366 12.2241 2.17647 0.210297 10
-13.8383 13.178 3.02659 0.418362 10
-13.8385 13.1782 3.71448 0.415763 10
-13.8386 13.1784 4.4118 0.412658 10
-13.8388 13.1785 5.12046 0.40905 10
-7.43106 7.0272 -2.74046 0.0978919 1
-8.63111 8.16203 -2.74252 0.085018 1
-10.2618 9.70408 -2.74533 0.0720406 1
-12.6125 11.9271 -2.74938 0.0589754 1
-13.9335 13.1763 -2.35464 0.492638 10
-13.9337 13.1764 -1.67779 0.494412 10
-13.9338 13.1766 -1.00505 0.495584 10
-13.934 13.1767 -0.334747 0.496153 10
-13.9342 13.1769 0.334751 0.496117 10
-13.9343 13.177 1.00508 0.495476 10
-13.9345 13.1772 1.67789 0.494232 10
-12.9262 12.2237 2.1844 0.211002 10
-13.9348 13.1775 3.03763 0.419765 10
-13.935 13.1777 3.72803 0.417158 10
-13.9352 13.1779 4.42789 0.414042 10
-13.9354 13.178 5.13914 0.410422 10
-7.45563 7.0013 -2.74049 0.0978908 1
-8.65966 8.13196 -2.74256 0.0850169 1
-10.2958 9.66836 -2.74537 0.0720395 1
-12.6543 11.8832 -2.74943 0.0589743 1
-14.0308 13.1758 -2.36328 0.494277 10
-14.0309 13.1759 -1.68395 0.496058 10
-14.0311 13.1761 -1.00874 0.497234 10
-14.0313 13.1762 -0.335977 0.497805 10
-14.0314 13.1764 0.335981 0.497769 10
-14.0316 13.1765 1.00877 0.497126 10
-14.0318 13.1767 1.68405 0.495878 10
-13.0164 12.2232 2.19243 0.211705 10
-14.0321 13.177 3.04878 0.421163 10
-14.0323 13.1772 3.74172 0.418547 10
-14.0325 13.1774 4.44415 0.415421 10
-14.0326 13.1775 5.15802 0.411789 10
-7.48011 6.97531 -2.74052 0.0978897 1
-8.68811 8.10179 -2.7426 0.0850158 1
-10.3296 9.63251 -2.74542 0.0720384 1
-12.696 11.8392 -2.74949 0.0589732 1
-14.1287 13.1752 -2.37203 0.495911 10
-14.1289 13.1754 -1.69018 0.497698 10
-14.1291 13.1756 -1.01247 0.498878 10
-14.1292 13.1757 -0.33722 0.49945 10
-14.1294 13.1759 0.337223 0.499414 10
-14.1296 13.176 1.01251 0.49877 10
-14.1297 13.1762 1.69028 0.497518 10
-13.1073 12.2227 2.20054 0.212405 10
-14.1301 13.1765 3.06006 0.422556 10
-14.1303 13.1767 3.75557 0.419931 10
-14.1305 13.1769 4.46059 0.416795 10
-14.1306 13.177 5.1771 0.413151 10
-7.50449 6.94924 -2.74055 0.0978886 1
-8.71645 8.07152 -2.74263 0.0850147 1
-10.3633 9.59654 -2.74546 0.0720373 1
-12.7375 11.795 -2.74954 0.0589721 1
-14.2274 13.1747 -2.38086 0.497539 10
-14.2276 13.1749 -1.69647 0.499331 10
-14.2278 13.1751 -1.01624 0.0142942 10
-14.2279 13.1752 -0.338476 0.0143106 10
-14.2281 13.1754 0.338479 0.0143096 10
-14.2283 13.1755 1.01628 0.0142911 10
-14.2284 13.1757 1.69658 0.499153 10
-13.1988 12.2223 2.20873 0.213102 10
-14.2288 13.176 3.07146 0.423943 10
-14.229 13.1762 3.76955 0.0140437 10
-14.2292 13.1763 4.47721 0.0139388 10
-14.2293 13.1765 5.19638 0.0138169 10
-7.52879 6.92308 -2.74058 0.0978875 1
-8.74468 8.04115 -2.74267 0.0850136 1
-10.3969 9.56045 -2.7455 0.0720361 1
-12.7788 11.7507 -2.74959 0.0589709 1
-14.3269 13.1742 -2.38979 0.49916 10
-14.327 13.1744 -1.70284 0.500959 10
-14.416 13.2562 -1.02638 0.0143407 10
-14.4166 13.2567 1.02641 0.0143376 10
-14.3279 13.1752 1.70294 0.500781 10
-13.2911 12.2218 2.21702 0.213797 10
-14.3283 13.1755 3.08298 0.425326 10
-14.4173 13.2574 3.80715 0.0140894 10
-7.55299 6.89683 -2.74061 0.0978864 1
-8.77281 8.01068 -2.7427 0.0850125 1
-10.4304 9.52425 -2.74554 0.072035 1
-12.82 11.7063 -2.74964 0.0589698 1
-14.427 13.1737 -2.39882 0.500776 10
-14.4272 13.1739 -1.70927 0.50258 10
-14.5168 13.2557 -1.03025 0.0143872 10
-14.5174 13.2562 1.03029 0.0143841 10
-14.4281 13.1747 1.70937 0.502402 10
-13.384 12.2213 2.22539 0.214489 10
-14.4285 13.175 3.09463 0.426703 10
-14.5181 13.2568 3.82153 0.014135 10
-7.5771 6.8705 -2.74064 0.0978853 1
-8.80083 7.98011 -2.74274 0.0850114 1
-10.4637 9.48793 -2.74559 0.0720339 1
-12.861 11.6617 -2.74969 0.0589687 1
-14.528 13.1732 -2.40794 0.502385 10
-14.5282 13.1733 -1.71577 0.504195 10
-14.619 13.2557 1.03421 0.0144303 10
-14.5291 13.1742 1.71587 0.504017 10
-13.4777 12.2208 2.23386 0.215179 10
-14.5294 13.1745 3.1064 0.428075 10
-14.6197 13.2563 3.83607 0.0141805 10
-7.60113 6.84409 -2.74067 0.0978842 1
-8.82875 7.94944 -2.74277 0.0850103 1
-10.4969 9.45149 -2.74563 0.0720329 1
-12.9019 11.6169 -2.74974 0.0589676 1
-14.6297 13.1727 -2.41716 0.503988 10
-14.6299 13.1728 -1.72234 0.505804 10
-14.7213 13.2551 1.03817 0.0144764 10
-14.6308 13.1736 1.72245 0.505626 10
-13.5721 12.2203 2.24242 0.215866 10
-14.6312 13.174 3.1183 0.429442 10
-7.62505 6.81759 -2.7407 0.0978832 1
-8.85655 7.91868 -2.74281 0.0850092 1
-10.53 9.41494 -2.74567 0.0720318 1
-12.9426 11.572 -2.7498 0.0589665 1
-14.7322 13.1721 -2.42649 0.505585 10
-14.7324 13.1723 -1.72899 0.507407 10
-14.7326 13.1725 -1.03572 0.0145255 10
-14.8245 13.2546 1.04218 0.0145223 10
-14.7333 13.1731 1.72909 0.507229 10
-13.6672 12.2199 2.25107 0.21655 10
-14.7337 13.1734 3.13033 0.430803 10
-7.64889 6.791 -2.74073 0.0978821 1
-8.88426 7.88781 -2.74284 0.0850082 1
-10.563 9.37826 -2.74571 0.0720307 1
-12.9832 11.527 -2.74985 0.0589654 1
-14.8355 13.1716 -2.43592 0.507176 10
-14.8357 13.1718 -1.7357 0.509004 10
-14.8359 13.1719 -1.03974 0.0145712 10
-14.9284 13.2541 1.04623 0.014568 10
-14.8366 13.1726 1.73581 0.508826 10
-13.763 12.2194 2.25981 0.217232 10
-14.837 13.1729 3.14249 0.43216 10
-7.67263 6.76433 -2.74076 0.097881 1
-8.91184 7.85685 -2.74288 0.0850071 1
-10.5958 9.34147 -2.74575 0.0720296 1
-13.0235 11.4818 -2.7499 0.0589643 1
-14.9396 13.1711 -2.44544 0.508761 10
-14.9398 13.1712 -1.74249 0.510594 10
-14.94 13.1714 -1.04381 0.0146167 10
-14.9407 13.172 1.7426 0.510416 10
-13.8596 12.2189 2.26865 0.217911 10
-14.9411 13.1724 3.15479 0.433511 10
-7.69628 6.73758 -2.74079 0.09788 1
-8.93933 7.82579 -2.74291 0.085006 1
-10.6285 9.30456 -2.74579 0.0720285 1
-13.0638 11.4365 -2.74995 0.0589633 1
-15.0446 13.1705 -2.45508 0.510339 10
-15.0447 13.1707 -1.74936 0.512179 10
-15.0449 13.1708 -1.04792 0.0146621 10
-15.0455 13.1713 1.04796 0.014659 10
-15.0457 13.1715 1.74947 0.512001 10
-13.9569 12.2184 2.27759 0.218588 10
-15.0461 13.1718 3.16722 0.434857 10
-7.71983 6.71075 -2.74082 0.0978789 1
-8.9667 7.79464 -2.74294 0.085005 1
-10.6611 9.26755 -2.74583 0.0720275 1
-13.1039 11.391 -2.75 0.0589622 1
-15.1503 13.17 -2.46482 0.511912 10
-15.1505 13.1701 -1.7563 0.513757 10
-15.1507 13.1703 -1.05208 0.0147072 10
-15.276 13.2792 -0.353306 0.0129329 10
-15.277 13.2801 0.35333 0.0129328 10
-15.1513 13.1708 1.05212 0.0147041 10
-15.1514 13.171 1.75641 0.513579 10
-14.055 12.2179 2.28663 0.219261 10
-15.1518 13.1713 3.17979 0.436197 10
-7.74329 6.68383 -2.74085 0.0978779 1
-8.99397 7.76339 -2.74298 0.0850039 1
-10.6935 9.23041 -2.74587 0.0720264 1
-13.1438 11.3454 -2.75005 0.0589611 1
-15.2569 13.1694 -2.47467 0.513478 10
-15.2571 13.1696 -1.76332 0.515329 10
-15.2573 13.1697 -1.05628 0.0147522 10
-15.3521 13.2516 -0.353994 0.0147691 10
-15.3523 13.2517 0.353998 0.0147681 10
-15.2579 13.1702 1.05632 0.0147491 10
-15.2581 13.1704 1.76343 0.51515 10
-14.1539 12.2174 2.29577 0.219932 10
-15.2584 13.1707 3.19249 0.437532 10
-15.3532 13.2526 3.94239 0.0144939 10
-15.3534 13.2527 4.68249 0.0143857 10
-15.3536 13.2529 5.43464 0.0142599 10
-7.76666 6.65683 -2.74088 0.0978768 1
-9.02112 7.73204 -2.74301 0.0850029 1
-10.7258 9.19316 -2.74591 0.0720254 1
-13.1835 11.2997 -2.7501 0.0589601 1
-15.3644 13.1689 -2.48463 0.515038 10
-15.3646 13.169 -1.77041 0.516894 10
-15.3648 13.1692 -1.06053 0.0147971 10
-15.365 13.1694 -0.353229 0.014814 10
-15.3651 13.1695 0.353233 0.014813 10
-15.3653 13.1697 1.06057 0.014794 10
-15.3655 13.1699 1.77053 0.516716 10
-14.2536 12.2168 2.30501 0.220601 10
-15.3659 13.1702 3.20534 0.438862 10
-15.3661 13.1704 3.93387 0.0145395 10
-15.3663 13.1705 4.67237 0.0144309 10
-15.3665 13.1707 5.4229 0.0143048 10
-7.78993 6.62975 -2.74091 0.0978758 1
-9.04817 7.7006 -2.74305 0.0850018 1
-10.758 9.1558 -2.74595 0.0720243 1
-13.2231 11.2538 -2.75015 0.058959 1
-15.4727 13.1683 -2.4947 0.516591 10
-15.4729 13.1685 -1.77759 0.518453 10
-15.4731 13.1686 -1.06483 0.519684 10
-15.4733 13.1688 -0.35466 0.520282 10
-15.4735 13.169 0.354664 0.520246 10
-15.4737 13.1691 1.06487 0.519576 10
-15.4739 13.1693 1.7777 0.518273 10
-14.3541 12.2163 2.31435 0.221267 10
-15.4743 13.1696 3.21833 0.440187 10
-15.4745 13.1698 3.94981 0.437454 10
-15.4747 13.17 4.69131 0.434188 10
-15.4749 13.1702 5.44488 0.430394 10
-7.81311 6.60259 -2.74094 0.0978748 1
-9.0751 7.66906 -2.74308 0.0850008 1
-10.7901 9.11832 -2.74599 0.0720233 1
-13.2626 11.2078 -2.75019 0.058958 1
-15.5819 13.1677 -2.50488 0.518138 10
-15.5821 13.1679 -1.78484 0.520006 10
-15.5823 13.1681 -1.06918 0.521241 10
-15.5825 13.1682 -0.356108 0.521841 10
-15.5827 13.1684 0.356112 0.521805 10
-15.5829 13.1686 1.06922 0.521133 10
-15.5831 13.1687 1.78496 0.519826 10
-14.4555 12.2158 2.3238 0.22193 10
-15.5835 13.1691 3.23147 0.441506 10
-15.5837 13.1693 3.96593 0.438765 10
-15.5839 13.1694 4.71046 0.43549 10
-15.5841 13.1696 5.4671 0.431684 10
-7.83618 6.57534 -2.74096 0.0978738 1
-9.10193 7.63743 -2.74311 0.0849998 1
-10.822 9.08074 -2.74603 0.0720222 1
-13.3019 11.1616 -2.75024 0.0589569 1
-15.692 13.1672 -2.51518 0.519679 10
-15.6922 13.1673 -1.79218 0.521553 10
-15.6924 13.1675 -1.07357 0.522792 10
-15.6926 13.1677 -0.357571 0.523393 10
-15.6928 13.1678 0.357576 0.523357 10
-15.693 13.168 1.07361 0.522683 10
-15.6932 13.1682 1.79229 0.521371 10
-14.5576 12.2153 2.33335 0.22259 10
-15.6936 13.1685 3.24475 0.44282 10
-15.6938 13.1687 3.98224 0.440071 10
-15.694 13.1689 4.72982 0.436786 10
-15.6942 13.169 5.48958 0.432969 10
-7.85917 6.54802 -2.74099 0.0978728 1
-9.12864 7.6057 -2.74315 0.0849988 1
-10.8538 9.04303 -2.74607 0.0720212 1
-13.341 11.1153 -2.75029 0.0589559 1
-15.803 13.1666 -2.52559 0.521214 10
-15.8032 13.1668 -1.7996 0.523093 10
-15.8034 13.1669 -1.07802 0.524336 10
-15.8036 13.1671 -0.359052 0.524939 10
-15.8038 13.1673 0.359056 0.524903 10
-15.804 13.1674 1.07806 0.524226 10
-15.8042 13.1676 1.79972 0.522912 10
-14.6606 12.2148 2.34301 0.223248 10
-15.8047 13.1679 3.25819 0.444128 10
-15.8049 13.1681 3.99873 0.441371 10
-15.8051 13.1683 4.74941 0.438077 10
-15.8053 13.1685 5.51231 0.434249 10
-7.88206 6.52061 -2.74102 0.0978718 1
-9.15524 7.57388 -2.74318 0.0849978 1
-10.8854 9.00522 -2.74611 0.0720202 1
-13.3799 11.0688 -2.75034 0.0589549 1
-15.915 13.166 -2.53612 0.522742 10
-15.9152 13.1662 -1.8071 0.524627 10
-15.9154 13.1663 -1.08251 0.525873 10
-15.9156 13.1665 -0.360549 0.526479 10
-15.9158 13.1667 0.360553 0.526442 10
-15.916 13.1669 1.08255 0.525764 10
-15.9162 13.167 1.80722 0.524446 10
-14.7645 12.2142 2.35278 0.223903 10
-15.9166 13.1674 3.27177 0.445431 10
-15.9168 13.1675 4.0154 0.442666 10
-15.917 13.1677 4.76921 0.439362 10
-15.9173 13.1679 5.53529 0.435523 10
-7.90486 6.49312 -2.74105 0.0978708 1
-9.18174 7.54196 -2.74321 0.0849967 1
-10.917 8.96729 -2.74615 0.0720192 1
-13.4187 11.0223 -2.75039 0.0589538 1
-16.0278 13.1654 -2.54677 0.524264 10
-16.0281 13.1656 -1.81469 0.526155 10
-16.0283 13.1658 -1.08706 0.527405 10
-16.0285 13.1659 -0.362063 0.528012 10
-16.0287 13.1661 0.362067 0.527974 10
-16.0289 13.1663 1.0871 0.527295 10
-16.0291 13.1664 1.81481 0.525973 10
-14.8692 12.2137 2.36266 0.224555 10
-16.0295 13.1668 3.28551 0.446728 10
-16.0297 13.167 4.03226 0.443956 10
-16.0299 13.1671 4.78924 0.440642 10
-16.0302 13.1673 5.55854 0.436792 10
-7.92755 6.46556 -2.74108 0.0978698 1
-9.20812 7.50996 -2.74324 0.0849957 1
-10.9483 8.92926 -2.74619 0.0720181 1
-13.4573 10.9755 -2.75043 0.0589528 1
-16.1417 13.1648 -2.55754 0.525779 10
-16.1419 13.165 -1.82237 0.527676 10
-16.1421 13.1652 -1.09165 0.528929 10
-16.1423 13.1653 -0.363594 0.529538 10
-16.1425 13.1655 0.363598 0.529501 10
-16.1427 13.1657 1.0917 0.52882 10
-16.1429 13.1659 1.82248 0.527494 10
-14.9748 12.2131 2.37265 0.225204 10
-16.1434 13.1662 3.29941 0.448021 10
-16.1436 13.1664 4.04931 0.44524 10
-16.1438 13.1666 4.80949 0.441917 10
-16.144 13.1667 5.58205 0.438055 10
-7.95015 6.43791 -2.7411 0.0978688 1
-9.23438 7.47786 -2.74328 0.0849947 1
-10.9796 8.89111 -2.74623 0.0720171 1
-13.4958 10.9287 -2.75048 0.0589518 1
-16.2565 13.1642 -2.56843 0.527288 10
-16.2567 13.1644 -1.83013 0.52919 10
-16.2569 13.1646 -1.0963 0.530447 10
-16.2571 13.1648 -0.365142 0.531057 10
-16.2573 13.1649 0.365147 0.531021 10
-16.2575 13.1651 1.09635 0.530338 10
-16.2577 13.1653 1.83025 0.529009 10
-15.0813 12.2126 2.38276 0.225851 10
-16.2582 13.1656 3.31346 0.449307 10
-16.2584 13.1658 4.06656 0.446518 10
-16.2586 13.166 4.82998 0.443186 10
-16.2588 13.1662 5.60583 0.439313 10
-7.97266 6.41018 -2.74113 0.0978678 1
-9.26054 7.44566 -2.74331 0.0849937 1
-11.0107 8.85285 -2.74626 0.0720161 1
-13.5341 10.8817 -2.75053 0.0589508 1
-16.3723 13.1636 -2.57945 0.528791 10
-16.3725 13.1638 -1.83798 0.530699 10
-16.3727 13.164 -1.10101 0.53196 10
-16.3729 13.1642 -0.366709 0.532571 10
-16.3731 13.1643 0.366713 0.532535 10
-16.3733 13.1645 1.10105 0.53185 10
-16.3736 13.1647 1.8381 0.530517 10
-15.1887 12.2121 2.39298 0.226495 10
-16.374 13.165 3.32768 0.450588 10
-16.3742 13.1652 4.08401 0.447792 10
-16.3744 13.1654 4.8507 0.44445 10
-16.3747 13.1656 5.62988 0.440567 10
-7.99507 6.38238 -2.74116 0.0978668 1
-9.28658 7.41338 -2.74334 0.0849928 1
-11.0417 8.81449 -2.7463 0.0720152 1
-13.5722 10.8346 -2.75058 0.0589498 1
-16.489 13.163 -2.59059 0.530287 10
-16.4893 13.1632 -1.84592 0.5322 10
-16.4895 13.1634 -1.10576 0.533463 10
-16.4897 13.1636 -0.368293 0.534078 10
-16.4899 13.1637 0.368298 0.534042 10
-16.4901 13.1639 1.10581 0.533355 10
-16.4903 13.1641 1.84604 0.532019 10
-15.2971 12.2115 2.40332 0.227136 10
-16.4908 13.1644 3.34205 0.451864 10
-16.491 13.1646 4.10166 0.44906 10
-16.4912 13.1648 4.87166 0.445708 10
-16.4915 13.165 5.6542 0.441814 10
-8.01738 6.35449 -2.74119 0.0978658 1
-9.31251 7.381 -2.74337 0.0849918 1
-11.0726 8.77601 -2.74634 0.0720142 1
-13.6102 10.7873 -2.75062 0.0589488 1
-16.6068 13.1624 -2.60186 0.531777 10
-16.6071 13.1626 -1.85395 0.533694 10
-16.6073 13.1628 -1.11058 0.534962 10
-16.6075 13.1629 -0.369896 0.535579 10
-16.6077 13.1631 0.369901 0.535543 10
-16.6079 13.1633 1.11062 0.534854 10
-16.6082 13.1635 1.85407 0.533514 10
-15.4064 12.2109 2.41378 0.227774 10
-16.6086 13.1638 3.3566 0.453134 10
-16.6088 13.164 4.11951 0.450322 10
-16.6091 13.1642 4.89286 0.446961 10
-16.6093 13.1644 5.67881 0.443056 10
-8.03959 6.32653 -2.74121 0.0978649 1
-9.33832 7.34854 -2.7434 0.0849908 1
-11.1033 8.73743 -2.74638 0.0720132 1
-13.648 10.7399 -2.75067 0.0589478 1
-16.7257 13.1618 -2.61327 0.53326 10
-16.7259 13.162 -1.86208 0.535183 10
-16.7261 13.1622 -1.11544 0.536455 10
-16.7263 13.1623 -0.371517 0.537073 10
-16.7266 13.1625 0.371522 0.537037 10
-16.7268 13.1627 1.11549 0.536347 10
-16.727 13.1629 1.8622 0.535003 10
-15.5166 12.2104 2.42436 0.22841 10
-16.7275 13.1632 3.37131 0.454399 10
-16.7277 13.1634 4.13756 0.451579 10
-16.7279 13.1636 4.91431 0.448209 10
-16.7282 13.1638 5.7037 0.444293 10
-8.0617 6.29849 -2.74124 0.0978639 1
-9.36402 7.31598 -2.74343 0.0849898 1
-11.1339 8.69873 -2.74642 0.0720122 1
-13.6856 10.6924 -2.75071 0.0589468 1
-16.8456 13.1612 -2.6248 0.534737 10
-16.8458 13.1614 -1.8703 0.536667 10
-16.846 13.1615 -1.12037 0.537942 10
-16.8462 13.1617 -0.373157 0.0153808 10
-16.8465 13.1619 0.373162 0.0153797 10
-16.8467 13.1621 1.12041 0.537834 10
-16.8469 13.1622 1.87042 0.536487 10
-15.6278 12.2098 2.43506 0.229043 10
-16.8474 13.1626 3.3862 0.455658 10
-16.8476 13.1628 4.15583 0.0150943 10
-16.8478 13.163 4.93601 0.0149817 10
-16.8481 13.1632 5.72889 0.0148508 10
-8.08372 6.27038 -2.74127 0.097863 1
-9.38961 7.28333 -2.74346 0.0849889 1
-11.1643 8.65993 -2.74645 0.0720112 1
-13.7231 10.6447 -2.75076 0.0589459 1
-16.9665 13.1606 -2.63647 0.536207 10
-16.9667 13.1607 -1.87861 0.538142 10
-16.9669 13.1609 -1.12535 0.539421 10
-16.9676 13.1614 1.12539 0.539313 10
-16.9678 13.1616 1.87874 0.537962 10
-15.74 12.2092 2.44589 0.229673 10
-16.9683 13.162 3.40125 0.456911 10
-17.0742 13.2441 5.79004 0.0148917 10
-8.10564 6.24218 -2.74129 0.097862 1
-9.41508 7.25059 -2.7435 0.0849879 1
-11.1946 8.62102 -2.74649 0.0720103 1
-13.7604 10.5969 -2.7508 0.0589449 1
-17.0885 13.1599 -2.64828 0.537671 10
-17.0888 13.1601 -1.88703 0.539611 10
-17.089 13.1603 -1.13039 0.540894 10
-17.0897 13.1608 1.13043 0.540786 10
-17.0899 13.161 1.88715 0.539431 10
-15.8532 12.2086 2.45685 0.2303 10
-17.0904 13.1614 3.41649 0.458159 10
-17.1971 13.2435 5.81597 0.0149324 10
-8.12745 6.21391 -2.74132 0.0978611 1
-9.44044 7.21776 -2.74353 0.084987 1
-11.2248 8.58201 -2.74653 0.0720093 1
-13.7975 10.549 -2.75085 0.0589439 1
-17.2116 13.1593 -2.66023 0.539128 10
-17.2119 13.1595 -1.89554 0.541074 10
-17.2121 13.1596 -1.13549 0.54236 10
-17.2128 13.1602 1.13553 0.542252 10
-17.213 13.1604 1.89567 0.540894 10
-15.9675 12.2081 2.46793 0.230925 10
-17.2135 13.1607 3.4319 0.459402 10
-17.321 13.2429 5.84221 0.0149729 10
-8.14917 6.18556 -2.74135 0.0978601 1
-9.46568 7.18485 -2.74356 0.084986 1
-11.2548 8.54289 -2.74656 0.0720084 1
-13.8345 10.501 -2.75089 0.058943 1
-17.3359 13.1586 -2.67231 0.540579 10
-17.3361 13.1588 -1.90415 0.54253 10
-17.3363 13.159 -1.14065 0.54382 10
-17.337 13.1595 1.14069 0.543711 10
-17.3373 13.1597 1.90428 0.54235 10
-16.0827 12.2075 2.47914 0.231546 10
-17.3378 13.1601 3.4475 0.460638 10
-8.17079 6.15713 -2.74137 0.0978592 1
-9.49081 7.15184 -2.74359 0.0849851 1
-11.2847 8.50366 -2.7466 0.0720074 1
-13.8713 10.4528 -2.75094 0.058942 1
-17.4613 13.158 -2.68454 0.542023 10
-17.4615 13.1582 -1.91287 0.543979 10
-17.4617 13.1584 -1.14587 0.545273 10
-17.4624 13.1589 1.14591 0.545164 10
-17.4627 13.1591 1.913 0.543799 10
-16.1991 12.2069 2.49049 0.232165 10
-17.4632 13.1594 3.46328 0.46187 10
-17.4639 13.16 5.8593 0.0150533 10
-8.19231 6.12863 -2.7414 0.0978583 1
-9.51582 7.11875 -2.74362 0.0849841 1
-11.3145 8.46433 -2.74663 0.0720065 1
-13.9079 10.4045 -2.75098 0.0589411 1
-17.5878 13.1573 -2.69692 0.54346 10
-17.588 13.1575 -1.92168 0.545422 10
-17.5883 13.1577 -1.15115 0.546719 10
-17.589 13.1582 1.1512 0.546611 10
-17.5892 13.1584 1.92181 0.545242 10
-16.3164 12.2063 2.50197 0.232781 10
-17.5897 13.1588 3.47924 0.463095 10
-17.5905 13.1594 5.88631 0.452798 10
-8.21373 6.10006 -2.74142 0.0978574 1
-9.54072 7.08556 -2.74365 0.0849832 1
-11.3441 8.42489 -2.74667 0.0720055 1
-13.9444 10.356 -2.75103 0.0589401 1
-17.7155 13.1567 -2.70944 0.544891 10
-17.7157 13.1569 -1.93061 0.546858 10
-17.716 13.157 -1.1565 0.548158 10
-17.7167 13.1576 1.15654 0.54805 10
-17.717 13.1578 1.93074 0.546678 10
-16.4349 12.2057 2.51359 0.233394 10
-17.7175 13.1581 3.4954 0.464315 10
-17.7182 13.1587 5.91365 0.453991 10
-8.23505 6.07141 -2.74145 0.0978564 1
-9.56549 7.05229 -2.74368 0.0849823 1
-11.3736 8.38535 -2.7467 0.0720046 1
-13.9807 10.3074 -2.75107 0.0589392 1
-17.8444 13.156 -2.72212 0.546315 10
-17.8446 13.1562 -1.93964 0.548287 10
-17.8449 13.1564 -1.16191 0.549591 10
-17.9557 13.2381 -0.389392 0.0157139 10
-17.956 13.2383 0.389397 0.0157128 10
-17.8456 13.1569 1.16195 0.549483 10
-17.8459 13.1571 1.93977 0.548107 10
-17.8461 13.1573 2.72238 0.46785 10
-17.8464 13.1575 3.51175 0.465529 10
-17.9573 13.2392 4.33664 0.0154214 10
-17.9575 13.2394 5.15077 0.0153063 10
-17.8471 13.1581 5.94131 0.455178 10
-8.25627 6.04268 -2.74147 0.0978555 1
-9.59016 7.01893 -2.74371 0.0849814 1
-11.403 8.3457 -2.74674 0.0720037 1
-14.0168 10.2587 -2.75111 0.0589383 1
-17.9745 13.1553 -2.73494 0.547733 10
-17.9747 13.1555 -1.94878 0.54971 10
-17.975 13.1557 -1.16738 0.551018 10
-17.9757 13.1563 1.16743 0.55091 10
-17.976 13.1564 1.94891 0.54953 10
-17.9763 13.1566 2.73521 0.469065 10
-17.9765 13.1568 3.5283 0.466738 10
-17.9773 13.1574 5.96932 0.45636 10
-8.27739 6.01388 -2.7415 0.0978546 1
-9.6147 6.98549 -2.74374 0.0849805 1
-11.4322 8.30595 -2.74677 0.0720028 1
-14.0527 10.2099 -2.75116 0.0589374 1
-18.1058 13.1547 -2.74792 0.549144 10
-18.1061 13.1548 -1.95803 0.551126 10
-18.1063 13.155 -1.17292 0.552437 10
-18.1066 13.1552 -0.390662 0.553075 10
-18.1068 13.1554 0.390667 0.553039 10
-18.1071 13.1556 1.17297 0.552329 10
-18.1073 13.1558 1.95816 0.550946 10
-18.1076 13.156 2.74819 0.470273 10
-18.1079 13.1561 3.54505 0.467941 10
-18.1081 13.1563 4.35079 0.465038 10
-18.1084 13.1565 5.16757 0.461568 10
-18.1087 13.1567 5.99765 0.457536 10
-8.29841 5.985 -2.74153 0.0978537 1
-9.63913 6.95196 -2.74377 0.0849796 1
-11.4612 8.2661 -2.74681 0.0720019 1
-14.0885 10.1609 -2.7512 0.0589364 1
-18.2189 13.1399 -2.7581 0.0457992 1
-18.2387 13.1542 -1.96739 0.552536 10
-18.239 13.1543 -1.17853 0.55385 10
-18.2392 13.1545 -0.39253 0.554489 10
-18.2395 13.1547 0.392535 0.554453 10
-18.2397 13.1549 1.17858 0.553742 10
-18.24 13.1551 1.96753 0.552356 10
-18.2402 13.1553 2.76134 0.471476 10
-18.2405 13.1555 3.562 0.469138 10
-18.2408 13.1557 4.3716 0.466228 10
-18.241 13.1558 5.19228 0.462749 10
-18.2413 13.156 6.02634 0.458707 10
-8.31932 5.95605 -2.74155 0.0978528 1
-9.66344 6.91834 -2.74379 0.0849787 1
-11.4902 8.22615 -2.74684 0.072001 1
-14.1241 10.1119 -2.75124 0.0589355 1
-18.265 13.0764 -2.75815 0.0457983 1
-18.3726 13.1535 -1.97687 0.553938 10
-18.3728 13.1537 -1.18421 0.555256 10
-18.3731 13.1538 -0.39442 0.555897 10
-18.3733 13.154 0.394426 0.555861 10
-18.3736 13.1542 1.18426 0.555148 10
-18.3739 13.1544 1.97701 0.553758 10
-18.3741 13.1546 2.77464 0.472674 10
-18.3744 13.1548 3.57916 0.470329 10
-18.3747 13.155 4.39266 0.467412 10
-18.3749 13.1552 5.21729 0.463925 10
-18.3752 13.1554 6.05536 0.459872 10
-8.34014 5.92703 -2.74157 0.097852 1
-9.68763 6.88464 -2.74382 0.0849778 1
-11.5189 8.18609 -2.74688 0.0720001 1
-14.1595 10.0627 -2.75128 0.0589346 1
-18.3109 13.0129 -2.75821 0.0457974 1
-18.5077 13.1528 -1.98646 0.555334 10
-18.508 13.153 -1.18995 0.556655 10
-18.5083 13.1531 -0.396334 0.557298 10
-18.5085 13.1533 0.396339 0.557262 10
-18.5088 13.1535 1.19 0.556547 10
-18.509 13.1537 1.9866 0.555154 10
-18.5093 13.1539 2.7881 0.473865 10
-18.5096 13.1541 3.59653 0.471515 10
-18.5098 13.1543 4.41397 0.46859 10
-18.5101 13.1545 5.24261 0.465094 10
-18.5104 13.1547 6.08475 0.461032 10
-8.36085 5.89793 -2.7416 0.0978511 1
-9.71171 6.85085 -2.74385 0.0849769 1
-11.5476 8.14593 -2.74691 0.0719992 1
-14.1948 10.0133 -2.75132 0.0589337 1
-18.3565 12.9491 -2.75826 0.0457965 1
-18.6442 13.1521 -1.99617 0.556723 10
-18.6445 13.1522 -1.19577 0.558048 10
-18.6448 13.1524 -0.398272 0.558692 10
-18.645 13.1526 0.398277 0.558656 10
-18.6453 13.1528 1.19582 0.55794 10
-18.6456 13.153 1.99631 0.556543 10
-18.6458 13.1532 2.80173 0.475051 10
-18.6461 13.1534 3.61411 0.472695 10
-18.6464 13.1536 4.43555 0.469763 10
-18.6467 13.1538 5.26824 0.466258 10
-18.6469 13.154 6.1145 0.462186 10
-8.38146 5.86877 -2.74162 0.0978502 1
-9.73566 6.81699 -2.74388 0.084976 1
-11.5761 8.10568 -2.74695 0.0719983 1
-14.2299 9.96385 -2.75137 0.0589328 1
-18.402 12.8852 -2.75832 0.0457956 1
-18.7821 13.1513 -2.006 0.558105 10
-18.7823 13.1515 -1.20166 0.559433 10
-18.7826 13.1517 -0.400233 0.56008 10
-18.7829 13.1519 0.400238 0.560044 10
-18.7831 13.1521 1.20171 0.559325 10
-18.7834 13.1523 2.00614 0.557925 10
-18.7837 13.1525 2.81553 0.476231 10
-18.784 13.1527 3.63191 0.473869 10
-18.7842 13.1529 4.4574 0.47093 10
-18.7845 13.1531 5.29419 0.467417 10
-18.7848 13.1533 6.14462 0.463334 10
-8.40197 5.83952 -2.74165 0.0978494 1
-9.7595 6.78303 -2.74391 0.0849752 1
-11.6045 8.06531 -2.74698 0.0719974 1
-14.2648 9.91427 -2.75141 0.058932 1
-18.4472 12.8212 -2.75837 0.0457947 1
-18.9213 13.1506 -2.01595 0.559481 10
-18.9215 13.1508 -1.20762 0.560812 10
-18.9218 13.151 -0.402219 0.56146 10
-18.9221 13.1512 0.402224 0.561424 10
-18.9224 13.1514 1.20767 0.560704 10
-18.9226 13.1516 2.0161 0.559301 10
-18.9229 13.1518 2.8295 0.477405 10
-18.9232 13.152 3.64993 0.475038 10
-18.9235 13.1522 4.47952 0.472091 10
-18.9238 13.1524 5.32046 0.46857 10
-18.924 13.1526 6.17511 0.464477 10
-8.42238 5.81021 -2.74167 0.0978485 1
-9.78321 6.74899 -2.74394 0.0849743 1
-11.6327 8.02486 -2.74701 0.0719965 1
-14.2995 9.86456 -2.75145 0.0589311 1
-18.4922 12.7569 -2.75842 0.0457938 1
-19.0619 13.1499 -2.02603 0.56085 10
-19.0621 13.1501 -1.21366 0.562184 10
-19.0624 13.1503 -0.404229 0.562834 10
-19.0627 13.1505 0.404235 0.562798 10
-19.063 13.1507 1.21371 0.562076 10
-19.0632 13.1509 2.02617 0.56067 10
-19.0635 13.1511 2.84364 0.478574 10
-19.0638 13.1512 3.66818 0.4762 10
-19.0641 13.1514 4.50191 0.473247 10
-19.0644 13.1516 5.34706 0.469716 10
-19.0647 13.1518 6.20597 0.465614 10
-8.44268 5.78083 -2.7417 0.0978477 1
-9.80681 6.71487 -2.74396 0.0849734 1
-11.6608 7.9843 -2.74705 0.0719957 1
-14.3341 9.81473 -2.75149 0.0589302 1
-18.537 12.6925 -2.75848 0.0457929 1
-19.2039 13.1492 -2.03623 0.562212 10
-19.2042 13.1494 -1.21977 0.563549 10
-19.2044 13.1495 -0.406265 0.564201 10
-19.2047 13.1497 0.406271 0.564165 10
-19.205 13.1499 1.21982 0.563441 10
-19.2053 13.1501 2.03638 0.562032 10
-19.2056 13.1503 2.85797 0.479736 10
-19.2058 13.1505 3.68665 0.477357 10
-19.2061 13.1507 4.52458 0.474396 10
-19.2064 13.1509 5.37399 0.470858 10
-19.2067 13.1511 6.23723 0.466745 10
-8.46288 5.75137 -2.74172 0.0978468 1
-9.83029 6.68066 -2.74399 0.0849726 1
-11.6887 7.94364 -2.74708 0.0719948 1
-14.3684 9.76478 -2.75153 0.0589294 1
-18.5815 12.628 -2.75853 0.0457921 1
-19.3473 13.1484 -2.04656 0.563567 10
-19.3476 13.1486 -1.22596 0.564908 10
-19.3479 13.1488 -0.408326 0.565561 10
-19.3482 13.149 0.408332 0.565525 10
-19.3484 13.1492 1.22601 0.5648 10
-19.2835 13.105 2.03981 0.026035 10
-19.349 13.1496 2.87247 0.480893 10
-19.3493 13.1498 3.70536 0.478508 10
-19.3496 13.15 4.54754 0.47554 10
-19.3499 13.1502 5.40126 0.471993 10
-19.3502 13.1504 6.26888 0.467871 10
-8.48298 5.72185 -2.74174 0.097846 1
-9.85365 6.64637 -2.74402 0.0849717 1
-11.7165 7.90289 -2.74711 0.071994 1
-14.4026 9.71471 -2.75157 0.0589285 1
-18.6258 12.5633 -2.75858 0.0457912 1
-19.4922 13.1477 -2.05702 0.564915 10
-19.4925 13.1479 -1.23222 0.566259 10
-19.4928 13.1481 -0.410413 0.566914 10
-19.4931 13.1483 0.410419 0.566878 10
-19.4934 13.1484 1.23228 0.566151 10
-19.3286 13.0373 2.03975 0.0260357 10
-19.4939 13.1488 2.88715 0.482044 10
-19.4942 13.149 3.7243 0.479653 10
-19.4945 13.1492 4.57079 0.476678 10
-19.4948 13.1494 5.42887 0.473123 10
-19.4951 13.1496 6.30093 0.468991 10
-8.50297 5.69225 -2.74177 0.0978451 1
-9.87689 6.612 -2.74405 0.0849709 1
-11.7442 7.86203 -2.74714 0.0719931 1
-14.4367 9.66451 -2.75161 0.0589276 1
-18.6699 12.4984 -2.75863 0.0457904 1
-19.6386 13.1469 -2.06762 0.566256 10
-19.6389 13.1471 -1.23857 0.567604 10
-19.6392 13.1473 -0.412527 0.56826 10
-19.6395 13.1475 0.412533 0.568224 10
-19.6398 13.1477 1.23862 0.567496 10
-19.3735 12.9694 2.0397 0.0260364 10
-19.6404 13.1481 2.90202 0.483189 10
-19.6407 13.1483 3.74348 0.480793 10
-19.641 13.1485 4.59433 0.477811 10
-19.6413 13.1487 5.45684 0.474247 10
-19.6416 13.1489 6.33339 0.470105 10
-8.52286 5.66258 -2.74179 0.0978443 1
-9.9 6.57755 -2.74407 0.0849701 1
-11.7717 7.82108 -2.74718 0.0719923 1
-14.4705 9.6142 -2.75165 0.0589268 1
-18.7138 12.4334 -2.75868 0.0457895 1
-19.7924 13.15 -2.07896 0.585613 10
-19.7926 13.1502 -1.24536 0.587008 10
-19.7928 13.1503 -0.414787 0.587687 10
-19.793 13.1505 0.414791 0.587651 10
-19.7933 13.1506 1.2454 0.586899 10
-19.4182 12.9014 2.03965 0.026037 10
-23.7322 15.7677 5.53843 0.559004 10
-23.7326 15.7679 6.57817 0.554835 10
-21.2517 14.1196 6.83662 0.178543 10
-8.54265 5.63284 -2.74181 0.0978435 1
-9.923 6.54301 -2.7441 0.0849692 1
-11.799 7.78003 -2.74721 0.0719914 1
-14.5042 9.56376 -2.75169 0.058926 1
-18.7574 12.3682 -2.75873 0.0457887 1
-19.9538 13.1571 -2.09108 0.586841 10
-19.9541 13.1573 -1.25262 0.588239 10
-19.9543 13.1574 -0.417206 0.588921 10
-19.9545 13.1576 0.41721 0.588884 10
-19.9547 13.1577 1.25266 0.588131 10
-19.4626 12.8332 2.0396 0.0260377 10
-23.9115 15.7667 5.56739 0.560313 10
-23.9119 15.767 6.61257 0.556134 10
-21.3006 14.0452 6.83656 0.178544 10
-8.56233 5.60303 -2.74184 0.0978427 1
-9.94587 6.5084 -2.74413 0.0849684 1
-11.8263 7.73889 -2.74724 0.0719906 1
-14.5377 9.51321 -2.75173 0.0589251 1
-18.8008 12.3029 -2.75878 0.0457878 1
-20.1172 13.1643 -2.10337 0.588063 10
-20.1174 13.1645 -1.25998 0.589464 10
-20.1176 13.1646 -0.419657 0.590146 10
-20.1178 13.1648 0.419662 0.59011 10
-20.1181 13.1649 1.26002 0.589355 10
-19.5068 12.7649 2.03955 0.0260383 10
-24.0927 15.7658 5.59673 0.561614 10
-24.093 15.7661 6.64741 0.557425 10
-21.3494 13.9706 6.83651 0.178546 10
-8.58191 5.57316 -2.74186 0.0978419 1
-9.96863 6.4737 -2.74415 0.0849676 1
-11.8533 7.69764 -2.74727 0.0719898 1
-14.571 9.46254 -2.75177 0.0589243 1
-18.844 12.2374 -2.75883 0.045787 1
-20.2824 13.1716 -2.11583 0.589277 10
-20.2827 13.1717 -1.26745 0.590681 10
-20.2829 13.1719 -0.422144 0.591365 10
-20.2831 13.172 0.422148 0.591329 10
-20.2833 13.1722 1.26749 0.590572 10
-19.5507 12.6964 2.0395 0.026039 10
-24.2758 15.7649 5.62644 0.562908 10
-24.2762 15.7651 6.68271 0.55871 10
-21.3978 13.8959 6.83645 0.178547 10
-8.60138 5.54321 -2.74188 0.0978411 1
-9.99126 6.43893 -2.74418 0.0849668 1
-11.8803 7.65631 -2.7473 0.071989 1
-14.6042 9.41175 -2.7518 0.0589235 1
-18.887 12.1718 -2.75888 0.0457862 1
-20.4497 13.1789 -2.12846 0.590484 10
-20.4499 13.1791 -1.27501 0.591891 10
-20.4501 13.1792 -0.424664 0.592577 10
-20.4504 13.1794 0.424669 0.59254 10
-20.4506 13.1795 1.27506 0.591782 10
-19.5944 12.6278 2.03945 0.0260396 10
-24.4608 15.7639 5.65655 0.564196 10
-24.4612 15.7642 6.71846 0.559988 10
-21.446 13.821 6.8364 0.178548 10
-8.62075 5.5132 -2.7419 0.0978403 1
-10.0138 6.40407 -2.7442 0.084966 1
-11.9071 7.61488 -2.74733 0.0719882 1
-14.6371 9.36084 -2.75184 0.0589227 1
-18.9297 12.106 -2.75893 0.0457854 1
-20.6189 13.1864 -2.14128 0.591684 10
-20.6192 13.1865 -1.28269 0.593094 10
-20.6194 13.1867 -0.427221 0.593781 10
-20.6196 13.1868 0.427225 0.593745 10
-20.6199 13.187 1.28273 0.592985 10
-19.6379 12.559 2.0394 0.0260402 10
-24.6479 15.763 5.68704 0.565476 10
-24.6483 15.7632 6.75468 0.561259 10
-21.494 13.746 6.83634 0.17855 10
-8.64001 5.48312 -2.74192 0.0978395 1
-10.0362 6.36914 -2.74423 0.0849652 1
-11.9337 7.57335 -2.74736 0.0719874 1
-14.6699 9.30982 -2.75188 0.0589219 1
-18.9721 12.0401 -2.75898 0.0457845 1
-20.7796 13.1872 -2.15317 0.568111 10
-20.78 13.1874 -1.28982 0.569464 10
-20.7803 13.1876 -0.429598 0.570122 10
-20.7807 13.1878 0.429605 0.570086 10
-20.781 13.188 1.28989 0.569356 10
-19.6812 12.4901 2.03935 0.0260409 10
-24.8369 15.762 5.71793 0.56675 10
-24.8373 15.7623 6.79138 0.562523 10
-21.5416 13.6708 6.83629 0.178551 10
-8.65916 5.45297 -2.74195 0.0978387 1
-10.0584 6.33413 -2.74426 0.0849644 1
-11.9602 7.53174 -2.74739 0.0719866 1
-14.7025 9.25869 -2.75192 0.0589211 1
-19.0144 11.974 -2.75903 0.0457837 1
-20.9347 13.1833 -2.16446 0.569436 10
-20.9351 13.1835 -1.29658 0.570791 10
-20.9354 13.1838 -0.431851 0.571452 10
-20.9358 13.184 0.431858 0.571416 10
-20.9361 13.1842 1.29665 0.570684 10
-19.7242 12.421 2.0393 0.0260415 10
-25.0285 15.7613 6.82856 0.563781 10
-21.5891 13.5954 6.83623 0.178553 10
-8.67822 5.42275 -2.74197 0.0978379 1
-10.0806 6.29904 -2.74428 0.0849636 1
-11.9865 7.49002 -2.74742 0.0719858 1
-14.735 9.20743 -2.75195 0.0589203 1
-19.0564 11.9078 -2.75908 0.0457829 1
-21.0915 13.1794 -2.1759 0.570754 10
-21.0918 13.1797 -1.30344 0.572113 10
-21.0922 13.1799 -0.434133 0.572775 10
-21.0926 13.1801 0.43414 0.572739 10
-21.0929 13.1803 1.3035 0.572005 10
-19.7669 12.3518 2.03925 0.0260421 10
-25.0904 15.6782 6.83048 0.155319 10
-21.6362 13.5198 6.83618 0.178554 10
-8.69716 5.39247 -2.74199 0.0978371 1
-10.1026 6.26387 -2.74431 0.0849628 1
-12.0127 7.44822 -2.74745 0.071985 1
-14.7672 9.15607 -2.75199 0.0589195 1
-19.0982 11.8414 -2.75913 0.0457821 1
-21.2499 13.1755 -2.18748 0.572064 10
-21.2503 13.1757 -1.31038 0.573427 10
-21.2506 13.176 -0.436445 0.57409 10
-21.251 13.1762 0.436452 0.574054 10
-21.2513 13.1764 1.31044 0.573319 10
-19.8095 12.2824 2.0392 0.0260427 10
-25.1448 15.5904 6.83042 0.15532 10
-21.6831 13.4441 6.83613 0.178556 10
-8.716 5.36212 -2.74201 0.0978364 1
-10.1245 6.22862 -2.74433 0.0849621 1
-12.0388 7.40632 -2.74748 0.0719842 1
-14.7993 9.10458 -2.75203 0.0589187 1
-19.1397 11.7748 -2.75917 0.0457814 1
-21.41 13.1715 -2.19922 0.573368 10
-21.4104 13.1718 -1.31741 0.574734 10
-21.4108 13.172 -0.438787 0.575399 10
-21.4111 13.1722 0.438794 0.575363 10
-21.4115 13.1724 1.31748 0.574626 10
-19.8518 12.2129 2.03915 0.0260433 10
-25.1988 15.5024 6.83036 0.155322 10
-21.7297 13.3682 6.83607 0.178557 10
-8.12791 4.9613 -2.55154 0.0766104 4
-10.1462 6.1933 -2.74436 0.0849613 1
-12.0647 7.36433 -2.74751 0.0719834 1
-14.8312 9.05299 -2.75206 0.0589179 1
-19.181 11.7082 -2.75922 0.0457806 1
-21.5645 13.163 -2.21035 0.541632 10
-21.565 13.1633 -1.32408 0.54292 10
-21.5654 13.1636 -0.441012 0.543547 10
-21.5659 13.1639 0.441021 0.543512 10
-21.5664 13.1642 1.32417 0.542815 10
-19.9871 12.2002 2.04867 0.256248 10
-25.8141 15.757 5.87868 0.573015 10
-25.2525 15.4142 6.8303 0.155323 10
-21.7761 13.2922 6.83602 0.178558 10
-8.14525 4.93294 -2.55156 0.0801731 4
-10.1679 6.1579 -2.74438 0.0849605 1
-12.0905 7.32225 -2.74754 0.0719827 1
-14.8629 9.00128 -2.7521 0.0589171 1
-19.2221 11.6413 -2.75927 0.0457798 1
-21.7088 13.1473 -2.22042 0.543086 10
-21.7092 13.1476 -1.33012 0.544378 10
-21.7097 13.1479 -0.443022 0.545006 10
-21.7102 13.1482 0.443031 0.544971 10
-21.7107 13.1485 1.3302 0.544272 10
-20.1567 12.2073 2.06167 0.256742 10
-26.0162 15.756 5.91214 0.574247 10
-25.306 15.3258 6.83024 0.155324 10
-21.8222 13.216 6.83597 0.17856 10
-8.16248 4.90451 -2.55158 0.0831418 4
-10.1894 6.12243 -2.7444 0.0849598 1
-12.1161 7.28008 -2.74757 0.0719819 1
-14.8944 8.94946 -2.75214 0.0589164 1
-19.263 11.5744 -2.75931 0.045779 1
-21.8543 13.1314 -2.23061 0.544532 10
-21.8548 13.1317 -1.33622 0.545828 10
-21.8553 13.132 -0.445055 0.546458 10
-21.8558 13.1323 0.445064 0.546423 10
-21.8563 13.1326 1.33631 0.545722 10
-20.3285 12.2146 2.07487 0.257233 10
-26.2206 15.7549 5.94606 0.575472 10
-25.3591 15.2373 6.83018 0.155326 10
-21.868 13.1396 6.83592 0.178561 10
-8.17961 4.87603 -2.5516 0.0736393 4
-10.2108 6.08687 -2.74443 0.084959 1
-12.1415 7.23781 -2.7476 0.0719812 1
-14.9257 8.89752 -2.75217 0.0589156 1
-19.3036 11.5072 -2.75936 0.0457783 1
-22.0013 13.1154 -2.24092 0.545973 10
-22.0018 13.1157 -1.3424 0.547272 10
-22.0023 13.116 -0.447112 0.547904 10
-22.0028 13.1163 0.447122 0.547869 10
-22.0033 13.1166 1.34249 0.547166 10
-20.5025 12.2219 2.08826 0.257721 10
-26.4274 15.7539 5.98044 0.57669 10
-25.4119 15.1485 6.83012 0.155327 10
-22.0064 13.1184 6.8648 0.529037 10
-8.19664 4.84748 -2.55162 0.0831406 4
-10.2321 6.05125 -2.74445 0.0849583 1
-12.1669 7.19546 -2.74763 0.0719804 1
-14.9569 8.84548 -2.75221 0.0589149 1
-19.3439 11.44 -2.75941 0.0457775 1
-22.1496 13.0992 -2.25136 0.547406 10
-22.1501 13.0995 -1.34865 0.548709 10
-22.1506 13.0998 -0.449194 0.549343 10
-22.1511 13.1001 0.449204 0.549307 10
-22.1516 13.1004 1.34874 0.548603 10
-20.6787 12.2294 2.10185 0.258205 10
-26.6365 15.7528 6.01529 0.577901 10
-25.4644 15.0596 6.83006 0.155328 10
-22.1547 13.1023 6.89677 0.530427 10
-8.21357 4.81888 -2.55164 0.087297 4
-10.2532 6.01555 -2.74448 0.0849576 1
-12.192 7.15302 -2.74766 0.0719797 1
-14.9879 8.79334 -2.75224 0.0589141 1
-19.3841 11.3726 -2.75945 0.0457768 1
-22.2859 13.0751 -2.26056 0.505857 10
-22.2865 13.0755 -1.35417 0.507059 10
-22.2872 13.0758 -0.451035 0.507643 10
-22.2878 13.0762 0.451047 0.507609 10
-22.2884 13.0765 1.35428 0.506957 10
-20.8406 12.2271 2.11395 0.248976 10
-26.8481 15.7517 6.05063 0.579105 10
-25.5166 14.9705 6.83 0.15533 10
-22.2922 13.0788 6.92532 0.49015 10
-8.2304 4.79021 -2.55165 0.0979857 4
-10.2743 5.97977 -2.7445 0.0849568 1
-12.217 7.11049 -2.74768 0.071979 1
-15.0187 8.74107 -2.75227 0.0589134 1
-19.424 11.305 -2.7595 0.045776 1
-22.4176 13.0474 -2.26929 0.50746 10
-22.4182 13.0477 -1.35939 0.508666 10
-22.4189 13.0481 -0.452776 0.509252 10
-22.4195 13.0484 0.452788 0.509218 10
-22.4201 13.0488 1.35951 0.508563 10
-21.0015 12.2232 2.12594 0.249513 10
-27.0623 15.7506 6.08646 0.580302 10
-25.5685 14.8812 6.82995 0.155331 10
-22.424 13.0511 6.95205 0.491704 10
-8.24713 4.76149 -2.55167 0.0700741 4
-10.2952 5.94392 -2.74452 0.0849561 1
-12.2419 7.06788 -2.74771 0.0719782 1
-15.0493 8.6887 -2.75231 0.0589127 1
-19.4636 11.2373 -2.75954 0.0457753 1
-22.5503 13.0194 -2.2781 0.509056 10
-22.5509 13.0198 -1.36468 0.510266 10
-22.5515 13.0202 -0.454535 0.510854 10
-22.5522 13.0205 0.454547 0.51082 10
-22.5528 13.0209 1.36479 0.510164 10
-21.1643 12.2192 2.13808 0.250047 10
-27.2789 15.7495 6.12279 0.581492 10
-25.6201 14.7918 6.82989 0.155332 10
-22.5567 13.0231 6.97907 0.493252 10
-8.26377 4.7327 -2.55169 0.0730428 4
-10.3159 5.90799 -2.74455 0.0849554 1
-12.2666 7.02517 -2.74774 0.0719775 1
-15.0797 8.63622 -2.75234 0.0589119 1
-19.503 11.1695 -2.75958 0.0457746 1
-22.684 12.9913 -2.28702 0.510647 10
-22.6847 12.9916 -1.37002 0.511861 10
-22.6853 12.992 -0.456314 0.512451 10
-22.6859 12.9924 0.456326 0.512417 10
-22.6866 12.9927 1.37013 0.511758 10
-21.329 12.2152 2.1504 0.250579 10
-27.4978 15.7481 5.01889 0.586309 10
-27.4982 15.7484 6.15963 0.582674 10
-25.6713 14.7021 6.82983 0.155334 10
-22.6905 12.995 7.00639 0.494794 10
-8.28029 4.70386 -2.55171 0.0671039 4
-10.3366 5.872 -2.74457 0.0849547 1
-12.2912 6.98238 -2.74777 0.0719768 1
-15.1099 8.58364 -2.75238 0.0589112 1
-19.5422 11.1015 -2.75963 0.0457739 1
-22.8119 12.959 -2.29534 0.459445 10
-22.8126 12.9594 -1.37501 0.460535 10
-22.8134 12.9598 -0.457978 0.461065 10
-22.8141 12.9602 0.457992 0.461032 10
-22.8149 12.9607 1.37514 0.460438 10
-21.49 12.208 2.16233 0.237626 10
-27.7197 15.747 5.04933 0.587492 10
-27.7202 15.7473 6.197 0.58385 10
-25.7223 14.6123 6.82977 0.155335 10
-22.8194 12.9632 7.03218 0.445165 10
-8.29672 4.67496 -2.55173 0.0807616 4
-10.3571 5.83593 -2.74459 0.084954 1
-12.3156 6.9395 -2.74779 0.0719761 1
-15.14 8.53094 -2.75241 0.0589105 1
-19.5811 11.0334 -2.75967 0.0457731 1
-22.9298 12.9203 -2.30264 0.46121 10
-22.9305 12.9207 -1.37938 0.462305 10
-22.9312 12.9211 -0.459435 0.462836 10
-22.932 12.9215 0.45945 0.462803 10
-22.9327 12.9219 1.37952 0.462207 10
-21.6374 12.1921 2.17286 0.238223 10
-27.9444 15.7458 5.08021 0.588668 10
-27.9448 15.7461 6.23489 0.585019 10
-25.7729 14.5223 6.82972 0.155336 10
-22.9373 12.9245 7.05457 0.446876 10
-8.31305 4.64601 -2.55175 0.0795734 4
-10.3775 5.79979 -2.74461 0.0849533 1
-12.3399 6.89654 -2.74782 0.0719754 1
-15.1698 8.47814 -2.75244 0.0589098 1
-19.6198 10.9652 -2.75971 0.0457724 1
-23.0483 12.8813 -2.31002 0.462969 10
-23.0491 12.8817 -1.3838 0.464068 10
-23.0498 12.8821 -0.460908 0.464602 10
-23.0506 12.8825 0.460923 0.464569 10
-23.0514 12.883 1.38394 0.46397 10
-21.7862 12.1759 2.18353 0.238817 10
-28.1718 15.7447 5.11153 0.589836 10
-28.1722 15.7449 6.27333 0.58618 10
-25.8232 14.4321 6.82966 0.155337 10
-23.056 12.8856 7.07719 0.448582 10
-8.32928 4.61699 -2.55176 0.0878864 4
-10.3978 5.76357 -2.74464 0.0849526 1
-12.364 6.85348 -2.74785 0.0719747 1
-15.1995 8.42524 -2.75248 0.0589091 1
-19.6583 10.8968 -2.75975 0.0457717 1
-23.1677 12.8421 -2.31748 0.464723 10
-23.1685 12.8425 -1.38827 0.465826 10
-23.1692 12.8429 -0.462396 0.466362 10
-23.17 12.8433 0.46241 0.466329 10
-23.1707 12.8437 1.38841 0.465728 10
-21.9366 12.1596 2.19433 0.239408 10
-28.402 15.7435 5.14331 0.590998 10
-28.4025 15.7438 6.31233 0.587334 10
-25.8733 14.3418 6.82961 0.155339 10
-23.1754 12.8463 7.10004 0.450282 10
-8.3454 4.58792 -2.55178 0.0712588 4
-10.4179 5.72729 -2.74466 0.0849519 1
-12.388 6.81035 -2.74787 0.071974 1
-15.229 8.37223 -2.75251 0.0589084 1
-19.6965 10.8283 -2.7598 0.045771 1
-23.2824 12.7996 -2.32447 0.408429 10
-23.2833 12.8001 -1.39246 0.409396 10
-23.2841 12.8006 -0.463795 0.409865 10
-23.285 12.801 0.463811 0.409835 10
-23.2858 12.8015 1.39262 0.409305 10
-22.0832 12.1404 2.20474 0.222231 10
-28.6351 15.7423 5.17554 0.592152 10
-28.6356 15.7426 6.35189 0.588481 10
-25.923 14.2513 6.82956 0.15534 10
-23.291 12.8044 7.12173 0.395718 10
-8.36142 4.5588 -2.5518 0.0748212 4
-10.4379 5.69094 -2.74468 0.0849513 1
-12.4118 6.76713 -2.7479 0.0719733 1
-15.2583 8.31912 -2.75254 0.0589077 1
-19.7345 10.7596 -2.75984 0.0457704 1
-23.3879 12.7515 -2.33054 0.41034 10
-23.3888 12.752 -1.3961 0.411312 10
-23.3896 12.7524 -0.465006 0.411784 10
-23.3905 12.7529 0.465023 0.411753 10
-23.3913 12.7534 1.39625 0.411221 10
-22.2159 12.1125 2.21376 0.222896 10
-28.8572 15.7335 5.20572 0.327519 10
-28.859 15.7344 6.38921 0.325504 10
-25.9723 14.1606 6.8295 0.155341 10
-23.3966 12.7562 7.14034 0.397572 10
-8.37734 4.52961 -2.55182 0.0789774 4
-10.4578 5.65451 -2.7447 0.0849506 1
-12.4355 6.72383 -2.74792 0.0719727 1
-15.2875 8.2659 -2.75257 0.0589071 1
-19.7722 10.6908 -2.75988 0.0457697 1
-23.494 12.7031 -2.33668 0.412247 10
-23.4948 12.7036 -1.39978 0.413224 10
-23.4957 12.7041 -0.46623 0.413697 10
-23.4965 12.7045 0.466247 0.413667 10
-23.4974 12.705 1.39993 0.413132 10
-22.3497 12.0844 2.22287 0.223558 10
-28.8565 15.6027 5.19573 0.325446 10
-28.8583 15.6036 6.37696 0.323443 10
-26.0214 14.0697 6.82945 0.155342 10
-23.5027 12.7078 7.15913 0.39942 10
-8.39316 4.50037 -2.55183 0.0771954 4
-10.4776 5.61802 -2.74472 0.0849499 1
-12.459 6.68044 -2.74795 0.071972 1
-15.3164 8.21258 -2.7526 0.0589064 1
-19.8097 10.6219 -2.75992 0.045769 1
-23.6005 12.6545 -2.34287 0.414148 10
-23.6014 12.655 -1.40349 0.41513 10
-23.6023 12.6554 -0.467466 0.415606 10
-23.6031 12.6559 0.467482 0.415575 10
-23.604 12.6564 1.40364 0.415038 10
-22.4846 12.0561 2.23209 0.224217 10
-28.8558 15.4724 5.18586 0.323368 10
-28.8576 15.4733 6.36483 0.321378 10
-26.0702 13.9787 6.8294 0.155343 10
-23.6093 12.6592 7.17812 0.401264 10
-8.40887 4.47108 -2.55185 0.0635373 4
-10.4972 5.58145 -2.74474 0.0849493 1
-12.4823 6.63697 -2.74798 0.0719713 1
-15.3451 8.15916 -2.75263 0.0589057 1
-19.847 10.5528 -2.75996 0.0457683 1
-23.7017 12.6024 -2.34853 0.362439 10
-23.7026 12.6029 -1.40688 0.363297 10
-23.7035 12.6034 -0.468597 0.363711 10
-23.7044 12.6039 0.468615 0.363683 10
-23.7054 12.6044 1.40704 0.363211 10
-22.6073 12.0205 2.24009 0.202807 10
-28.8551 15.3425 5.17607 0.321287 10
-28.8569 15.3435 6.35283 0.319309 10
-26.1186 13.8875 6.82934 0.155345 10
-23.7111 12.6074 7.19564 0.351146 10
-8.42448 4.44173 -2.55187 0.0789758 4
-10.5167 5.54482 -2.74477 0.0849486 1
-12.5055 6.59342 -2.748 0.0719707 1
-15.3737 8.10564 -2.75266 0.0589051 1
-19.884 10.4836 -2.76 0.0457677 1
-23.7976 12.547 -2.35368 0.364461 10
-23.7985 12.5475 -1.40996 0.365323 10
-23.7994 12.548 -0.469624 0.36574 10
-23.8004 12.5485 0.469642 0.365712 10
-23.8013 12.549 1.41013 0.365238 10
-22.7254 11.9817 2.24763 0.203544 10
-28.8544 15.2132 5.1664 0.319201 10
-28.8562 15.2142 6.34095 0.317237 10
-26.1667 13.7961 6.82929 0.155346 10
-23.8071 12.552 7.21142 0.353106 10
-8.43999 4.41232 -2.55188 0.0522543 4
-10.5361 5.50811 -2.74479 0.084948 1
-12.5286 6.54978 -2.74802 0.07197 1
-15.4021 8.05201 -2.75269 0.0589044 1
-19.9207 10.4143 -2.76004 0.045767 1
-23.8939 12.4914 -2.35888 0.366478 10
-23.8948 12.4919 -1.41308 0.367345 10
-23.8958 12.4924 -0.470662 0.367765 10
-23.8967 12.4929 0.47068 0.367736 10
-23.8977 12.4934 1.41325 0.36726 10
-22.8443 11.9427 2.25525 0.204278 10
