VERSION 0.7
FIELDS x y z intensity label
SIZE 4 4 4 4 4
TYPE F F F F F
COUNT 1 1 1 1 1
WIDTH 1250
HEIGHT 1
VIEWPOINT 17.016 44.9961 2.71921 0.999999 0.000454004 0.00111937 -0.000238038
POINTS 1250
DATA ascii
-25.0816 22.4255 -1.76326 0.172182 10
-25.0834 22.4272 -0.587319 0.172359 10
-25.0852 22.4288 0.587361 0.172326 10
-25.087 22.4304 1.76364 0.172084 10
-28.939 25.8745 4.76644 0.507401 10
-28.9404 25.8757 6.1487 0.504864 10
-26.0837 23.3216 6.80124 0.132484 10
-28.9447 25.8796 10.4037 0.493577 10
-7.43575 6.60177 -2.66436 0.0503144 4
-8.64195 7.67268 -2.66803 0.0143855 4
-10.2834 9.13002 -2.67303 0.0291434 4
-12.6546 11.2352 -2.68025 0.019561 4
-15.6948 13.9345 -2.57701 0.0358668 4
-23.8588 21.1828 -2.79136 0.0322572 1
-25.1827 22.3582 -1.76487 0.174496 10
-25.1845 22.3598 -0.587855 0.174676 10
-25.1863 22.3615 0.587897 0.174644 10
-25.1881 22.3631 1.76525 0.174399 10
-29.143 25.8744 4.78513 0.508984 10
-29.1444 25.8756 6.17282 0.506439 10
-26.1646 23.23 6.80115 0.132486 10
-29.1488 25.8795 10.4445 0.495118 10
-7.45883 6.57585 -2.66439 0.0591928 4
-8.66878 7.64256 -2.66807 0.0333945 4
-10.3153 9.0942 -2.67307 0.014354 4
-12.6939 11.1912 -2.6803 0.0110251 4
-15.7437 13.88 -2.57707 0.0350383 4
-23.9334 21.1001 -2.79145 0.0322561 1
-25.2839 22.2908 -1.76651 0.176809 10
-25.2858 22.2924 -0.588399 0.176992 10
-25.2876 22.294 0.588441 0.176959 10
-25.2894 22.2956 1.76689 0.176711 10
-29.3486 25.8743 4.80403 0.51056 10
-29.3501 25.8756 6.19721 0.508008 10
-26.2452 23.1382 6.80105 0.132488 10
-29.3545 25.8795 10.4858 0.496652 10
-7.48182 6.54984 -2.66442 0.0171657 4
-8.69551 7.61235 -2.6681 0.0416142 4
-10.3472 9.05827 -2.67311 0.0221831 4
-12.7331 11.147 -2.68035 0.0167151 4
-15.7925 13.8252 -2.57713 0.0375205 4
-24.0077 21.0171 -2.79154 0.0322551 1
-25.3854 22.2232 -1.76816 0.178168 10
-25.3872 22.2248 -0.588951 0.178352 10
-25.3891 22.2264 0.588993 0.17832 10
-25.3909 22.228 1.76855 0.17807 10
-29.5559 25.8742 4.82315 0.512131 10
-29.5573 25.8755 6.22186 0.50957 10
-26.3254 23.0461 6.80095 0.132489 10
-29.5618 25.8794 10.5275 0.49818 10
-7.50471 6.52375 -2.66445 0.0443937 4
-8.72214 7.58204 -2.66813 0.02466 4
-10.3789 9.02222 -2.67315 0.00652436 4
-12.7722 11.1027 -2.68039 0.0480107 4
-15.841 13.7704 -2.57719 0.0350367 4
-24.0817 20.9339 -2.79163 0.0322541 1
-25.4869 22.1554 -1.76984 0.180477 10
-25.4887 22.157 -0.589509 0.180664 10
-25.4906 22.1586 0.589551 0.180632 10
-25.4924 22.1602 1.77022 0.180379 10
-29.7593 25.8694 4.84157 0.447065 10
-29.7624 25.8721 6.24599 0.444855 10
-26.4053 22.9538 6.80086 0.132491 10
-29.7708 25.8793 10.5697 0.499702 10
-7.52751 6.49758 -2.66447 0.0426175 4
-8.74865 7.55164 -2.66816 0.0205497 4
-10.4105 8.98607 -2.67318 0.00826407 4
-12.8111 11.0583 -2.68044 0.0284503 4
-15.8893 13.7153 -2.57724 0.0452432 4
-24.1554 20.8504 -2.79172 0.032253 1
-25.5886 22.0875 -1.77153 0.182783 10
-25.5904 22.0891 -0.590074 0.182974 10
-25.5923 22.0907 0.590116 0.182941 10
-25.5942 22.0923 1.77192 0.182686 10
-29.7592 25.6874 4.82693 0.445269 10
-29.7623 25.6901 6.2271 0.443068 10
-26.4849 22.8612 6.80076 0.132493 10
-29.7719 25.6985 10.5382 0.433239 10
-7.55023 6.47133 -2.6645 0.0822747 4
-8.77506 7.52114 -2.66819 0.0041099 4
-10.4419 8.9498 -2.67322 0.0130484 4
-12.8499 11.0137 -2.68049 0.0181368 4
-15.9374 13.66 -2.5773 0.0416559 4
-24.2288 20.7666 -2.79181 0.032252 1
-25.6905 22.0194 -1.77326 0.185088 10
-25.6924 22.021 -0.590648 0.185281 10
-25.6942 22.0226 0.59069 0.185249 10
-25.6961 22.0242 1.77364 0.184991 10
-29.759 25.5066 4.81244 0.443467 10
-29.7622 25.5093 6.20841 0.441274 10
-26.5642 22.7683 6.80067 0.132495 10
-29.7718 25.5175 10.5066 0.431485 10
-7.57284 6.445 -2.66453 0.0337382 4
-8.80136 7.49055 -2.66823 0.0349337 4
-10.4732 8.91342 -2.67326 0.0243566 4
-12.8884 10.9689 -2.68053 0.021337 4
-15.9854 13.6046 -2.57736 0.0391723 4
-24.3019 20.6825 -2.7919 0.032251 1
-25.7926 21.9512 -1.775 0.18739 10
-25.7945 21.9528 -0.59123 0.187586 10
-25.7964 21.9544 0.591273 0.187554 10
-25.7982 21.956 1.77539 0.187293 10
-29.7589 25.3268 4.7981 0.441659 10
-29.762 25.3295 6.1899 0.439476 10
-26.6431 22.6751 6.80058 0.132497 10
-29.7716 25.3377 10.4752 0.429727 10
-7.59537 6.41859 -2.66455 0.00828649 4
-8.82756 7.45987 -2.66826 0.0123294 4
-10.5044 8.87693 -2.6733 0.0239213 4
-12.9269 10.9241 -2.68058 0.0152913 4
-16.0331 13.549 -2.57742 0.0386197 4
-24.3747 20.5982 -2.79199 0.03225 1
-25.9031 21.8898 -1.77734 0.245036 10
-25.9049 21.8913 -0.592006 0.245298 10
-25.9067 21.8929 0.592046 0.245261 10
-25.9085 21.8944 1.77771 0.244926 10
-27.1833 22.9717 4.36987 0.591138 10
-27.1868 22.9746 5.63759 0.588206 10
-26.7218 22.5816 6.80049 0.132499 10
-27.1976 22.9837 9.54125 0.575128 10
-7.61781 6.3921 -2.66458 0.0136134 4
-8.85365 7.4291 -2.66829 0.0226037 4
-10.5355 8.84033 -2.67333 0.0134827 4
-12.9651 10.879 -2.68062 0.0248923 4
-16.0814 13.4939 -2.57758 0.144771 4
-24.4472 20.5136 -2.79207 0.032249 1
-26.0142 21.8285 -1.77972 0.247268 10
-26.016 21.8301 -0.592801 0.247533 10
-26.0179 21.8316 0.592842 0.247497 10
-26.0197 21.8331 1.7801 0.247159 10
-27.1909 22.8159 4.35826 0.233266 10
-27.1933 22.8179 5.62239 0.232122 10
-26.8001 22.4879 6.8004 0.1325 10
-27.201 22.8244 9.51445 0.227021 10
-7.64015 6.36553 -2.6646 0.0278184 4
-8.87963 7.39823 -2.66832 0.0241446 4
-10.5664 8.80361 -2.67337 0.0139175 4
-13.0033 10.8339 -2.68067 0.0241807 4
-16.1883 13.4876 -2.58716 0.132342 4
-24.5194 20.4288 -2.79216 0.032248 1
-26.1257 21.7671 -1.78214 0.249498 10
-26.1275 21.7686 -0.593606 0.249766 10
-26.1294 21.7702 0.593647 0.249729 10
-26.1312 21.7717 1.78252 0.249389 10
-26.8781 22.394 6.80031 0.132502 10
-7.6624 6.33889 -2.66463 0.0278181 4
-8.9055 7.36727 -2.66835 0.0313362 4
-10.5972 8.76679 -2.6734 0.020441 4
-13.0412 10.7886 -2.68071 0.0099566 4
-16.296 13.4812 -2.59684 0.128522 4
-24.5913 20.3437 -2.79224 0.0322471 1
-26.2374 21.7055 -1.78459 0.251725 10
-26.2393 21.707 -0.594421 0.251995 10
-26.2411 21.7086 0.594462 0.251959 10
-26.243 21.7101 1.78496 0.251615 10
-27.3331 22.6119 4.35564 0.23702 10
-27.3351 22.6135 5.61891 0.235824 10
-26.9557 22.2997 6.80022 0.132504 10
-27.3411 22.6186 9.508 0.230532 10
-7.68455 6.31216 -2.66466 0.036104 4
-8.93126 7.33622 -2.66838 0.0282536 4
-10.6279 8.72986 -2.67344 0.0182662 4
-13.079 10.7432 -2.68075 0.0184905 4
-16.4045 13.4748 -2.60661 0.143758 4
-24.6629 20.2583 -2.79232 0.0322461 1
-26.3595 21.652 -1.78774 0.342633 10
-26.3613 21.6534 -0.595468 0.343009 10
-26.363 21.6548 0.595506 0.342966 10
-26.3648 21.6563 1.78809 0.342506 10
-27.4616 22.5572 4.36355 0.442871 10
-27.4633 22.5586 5.62905 0.440654 10
-27.033 22.2052 6.80013 0.132505 10
-27.4684 22.5628 9.52479 0.430794 10
-7.70661 6.28536 -2.66468 0.0461654 4
-8.95691 7.30508 -2.66841 0.0318492 4
-10.6585 8.69283 -2.67347 0.0221801 4
-13.1166 10.6977 -2.6808 0.0216905 4
-16.5138 13.4683 -2.61649 0.124124 4
-24.7341 20.1727 -2.7924 0.0322452 1
-26.4885 21.6035 -1.79136 0.344703 10
-26.4902 21.6049 -0.596673 0.345081 10
-26.492 21.6063 0.596712 0.345039 10
-26.4937 21.6078 1.79171 0.344576 10
-27.6909 22.5841 4.38743 0.672166 10
-27.6888 22.5825 5.65909 0.668819 10
-27.11 22.1104 6.80005 0.132507 10
-27.6825 22.5773 9.57167 0.653908 10
-7.72857 6.25848 -2.66471 0.0254499 4
-8.98245 7.27385 -2.66843 0.0174655 4
-10.6889 8.65568 -2.67351 0.0113074 4
-13.1541 10.652 -2.68084 0.0110229 4
-16.6239 13.4618 -2.62648 0.141311 4
-24.8051 20.0868 -2.79248 0.0322442 1
-26.6179 21.5548 -1.79501 0.346769 10
-26.6197 21.5562 -0.597891 0.347149 10
-26.6214 21.5576 0.59793 0.347107 10
-26.6232 21.5591 1.79537 0.346641 10
-29.7581 24.0977 4.70161 0.428859 10
-29.7612 24.1001 6.06541 0.426738 10
-27.1867 22.0154 6.79996 0.132509 10
-29.7706 24.1078 10.2645 0.417269 10
-7.75044 6.23152 -2.66473 0.020123 4
-9.00788 7.24253 -2.66846 0.071916 4
-10.7192 8.61842 -2.67354 0.0439242 4
-13.1914 10.6062 -2.68088 0.0216898 4
-16.7348 13.4551 -2.63657 0.134363 4
-24.8758 20.0007 -2.79257 0.0322433 1
-26.7479 21.5059 -1.7987 0.348831 10
-26.7497 21.5073 -0.599121 0.349214 10
-26.7515 21.5087 0.59916 0.349171 10
-26.7532 21.5102 1.79906 0.348703 10
-29.758 23.9261 4.68837 0.427009 10
-29.761 23.9285 6.04832 0.424897 10
-27.2631 21.9201 6.79988 0.13251 10
-29.7704 23.936 10.2356 0.415469 10
-7.77222 6.20448 -2.66475 0.0290005 4
-9.03321 7.21112 -2.66849 0.0349303 4
-10.7493 8.58107 -2.67358 0.0330515 4
-13.2285 10.5602 -2.68092 0.0160004 4
-16.8466 13.4484 -2.64676 0.124367 4
-24.9462 19.9143 -2.79264 0.0322424 1
-26.8808 21.4586 -1.80259 0.43937 10
-26.8824 21.4599 -0.600412 0.439858 10
-26.884 21.4613 0.600448 0.43981 10
-26.8857 21.4626 1.80292 0.439226 10
-29.7579 23.7554 4.67526 0.425154 10
-29.7609 23.7579 6.03141 0.423051 10
-27.3391 21.8245 6.79979 0.132512 10
-29.7703 23.7653 10.2069 0.413664 10
-7.7939 6.17737 -2.66478 0.0443882 4
-9.05842 7.17961 -2.66852 0.0277385 4
-10.7793 8.54359 -2.67361 0.0530556 4
-13.2655 10.5141 -2.68096 0.0280892 4
-16.9592 13.4417 -2.65706 0.0381541 4
-25.0162 19.8276 -2.79272 0.0322415 1
-27.0345 21.4273 -1.80787 0.441204 10
-27.0361 21.4286 -0.602171 0.441694 10
-27.0378 21.4299 0.602207 0.441646 10
-27.0394 21.4312 1.8082 0.44106 10
-29.7578 23.5857 4.66228 0.423294 10
-29.7608 23.5881 6.01466 0.4212 10
-27.4148 21.7287 6.79971 0.132514 10
-29.7701 23.5955 10.1786 0.411853 10
-7.81548 6.15018 -2.6648 0.0437959 4
-9.08352 7.14803 -2.66855 0.0154101 4
-10.8092 8.50602 -2.67364 0.0113068 4
-13.3024 10.4679 -2.681 0.0355554 4
-17.0724 13.4346 -2.66744 0.0546099 4
-25.086 19.7407 -2.7928 0.0322406 1
-27.1891 21.3957 -1.8132 0.443032 10
-27.1907 21.397 -0.603948 0.443524 10
-27.1924 21.3983 0.603984 0.443476 10
-27.1941 21.3996 1.81354 0.442888 10
-29.7577 23.417 4.64943 0.421428 10
-29.7607 23.4194 5.99808 0.419344 10
-27.4901 21.6326 6.79963 0.132515 10
-29.77 23.4267 10.1505 0.410038 10
-7.83697 6.12291 -2.66483 0.0319589 4
-9.10851 7.11635 -2.66857 0.0344155 4
-10.839 8.46834 -2.67367 0.00565333 4
-13.339 10.4216 -2.68104 0.00995536 4
-17.1867 13.4277 -2.67796 0.115424 4
-25.1554 19.6536 -2.79288 0.0322397 1
-27.3446 21.364 -1.81859 0.444855 10
-27.3463 21.3653 -0.605742 0.44535 10
-27.348 21.3666 0.605779 0.445301 10
-27.3497 21.3679 1.81893 0.444711 10
-29.7576 23.2492 4.6367 0.419558 10
-29.7606 23.2515 5.98166 0.417482 10
-27.5651 21.5362 6.79955 0.132517 10
-29.7698 23.2588 10.1227 0.408218 10
-7.85837 6.09558 -2.66485 0.027224 4
-9.13338 7.08458 -2.6686 0.0893767 4
-10.8686 8.43056 -2.67371 0.00913219 4
-13.3755 10.3751 -2.68108 0.0145773 4
-17.3019 13.4207 -2.6886 0.146683 4
-25.2246 19.5662 -2.79295 0.0322388 1
-27.5011 21.332 -1.82403 0.446672 10
-27.5028 21.3333 -0.607555 0.447169 10
-27.5044 21.3346 0.607592 0.447121 10
-27.5061 21.336 1.82437 0.446528 10
-29.7575 23.0823 4.6241 0.417682 10
-29.7605 23.0846 5.9654 0.415616 10
-27.6398 21.4396 6.79947 0.132518 10
-29.7697 23.0918 10.0952 0.406393 10
-7.87966 6.06816 -2.66487 0.0355093 4
-9.15815 7.05272 -2.66863 0.0457152 4
-13.4118 10.3285 -2.68112 0.0206212 4
-17.3756 13.381 -2.69277 0.04054 4
-25.2934 19.4785 -2.79303 0.032238 1
-27.6682 21.3074 -1.83018 0.516005 10
-27.6697 21.3086 -0.609597 0.516582 10
-27.6713 21.3097 0.60963 0.51653 10
-27.6728 21.3109 1.83048 0.515848 10
-29.7574 22.9162 4.61163 0.415801 10
-29.7603 22.9185 5.94931 0.413745 10
-27.7142 21.3428 6.79939 0.13252 10
-29.7696 22.9256 10.0679 0.404562 10
-7.90086 6.04067 -2.66489 0.0319581 4
-9.1828 7.02078 -2.66865 0.0261961 4
-10.9275 8.35467 -2.67377 0.0108714 4
-13.448 10.2818 -2.68116 0.0351978 4
-17.4225 13.3205 -2.69282 0.0350237 4
-25.3619 19.3906 -2.7931 0.0322371 1
-27.8537 21.2958 -1.83752 0.517576 10
-27.8553 21.297 -0.612043 0.518155 10
-27.8568 21.2982 0.612077 0.518103 10
-27.8584 21.2994 1.83783 0.51742 10
-29.7572 22.7511 4.59927 0.413916 10
-29.7602 22.7534 5.93337 0.411868 10
-27.8647 21.3042 6.81804 0.508402 10
-29.7694 22.7605 10.041 0.402727 10
-7.92197 6.0131 -2.66492 0.0230807 4
-9.20734 6.98876 -2.66868 0.00821831 4
-10.9567 8.31657 -2.6738 0.0339184 4
-16.7253 12.6952 -2.57819 0.0361261 4
-25.4301 19.3025 -2.79317 0.0322363 1
-28.0408 21.2841 -1.84495 0.519141 10
-28.0424 21.2853 -0.614517 0.519723 10
-28.0439 21.2865 0.614551 0.51967 10
-28.0455 21.2877 1.84526 0.518985 10
-29.7571 22.5869 4.58704 0.412025 10
-29.7601 22.5892 5.91759 0.409987 10
-28.0519 21.2925 6.84561 0.509941 10
-29.7693 22.5961 10.0143 0.400887 10
-7.94298 5.98546 -2.66494 0.0384674 4
-9.23177 6.95664 -2.6687 0.0467412 4
-10.9858 8.27837 -2.67383 0.0447892 4
-13.5198 10.1879 -2.68124 0.0110212 4
-16.7698 12.6369 -2.57824 0.0303344 4
-25.498 19.2141 -2.79324 0.0322355 1
-28.2294 21.2724 -1.85246 0.520701 10
-28.231 21.2736 -0.617019 0.521284 10
-28.2325 21.2748 0.617053 0.521231 10
-28.2341 21.2759 1.85277 0.520544 10
-29.757 22.4235 4.57493 0.410129 10
-29.76 22.4258 5.90197 0.4081 10
-28.2406 21.2808 6.87349 0.511473 10
-29.7692 22.4327 9.98781 0.399042 10
-7.96388 5.95775 -2.66496 0.0432015 4
-9.25608 6.92444 -2.66873 0.0169499 4
-11.0147 8.24006 -2.67386 0.0334828 4
-13.5555 10.1408 -2.68127 0.0213311 4
-16.8329 12.5926 -2.58117 0.110559 4
-25.5655 19.1255 -2.79332 0.0322346 1
-28.4195 21.2605 -1.86005 0.522253 10
-28.4211 21.2617 -0.619549 0.522838 10
-28.4227 21.2629 0.619583 0.522786 10
-28.4243 21.2641 1.86037 0.522097 10
-29.7569 22.261 4.56294 0.408229 10
-29.7599 22.2633 5.8865 0.406209 10
-28.4308 21.269 6.90168 0.512999 10
-29.769 22.2701 9.96162 0.397192 10
-7.9847 5.92996 -2.66498 0.0384668 4
-9.28028 6.89215 -2.66875 0.0431449 4
-11.0435 8.20165 -2.67389 0.0547894 4
-13.591 10.0936 -2.68131 0.014576 4
-16.9509 12.5889 -2.59251 0.0290126 4
-25.6328 19.0366 -2.79339 0.0322338 1
-28.6218 21.2564 -1.86843 0.568521 10
-28.6233 21.2575 -0.622334 0.56916 10
-28.6247 21.2586 0.622365 0.569105 10
-28.6261 21.2596 1.86871 0.568357 10
-29.7568 22.0994 4.55107 0.406323 10
-29.7598 22.1016 5.87118 0.404312 10
-28.632 21.264 6.93245 0.558464 10
-29.7689 22.1083 9.93569 0.395338 10
-8.00541 5.9021 -2.665 0.017162 4
-9.30437 6.85978 -2.66878 0.045199 4
-11.0722 8.16315 -2.67392 0.0113056 4
-17.0697 12.5849 -2.60394 0.0302977 4
-25.6997 18.9475 -2.79345 0.032233 1
-28.8455 21.2667 -1.87817 0.569854 10
-28.8469 21.2678 -0.62558 0.570495 10
-28.8484 21.2689 0.625611 0.57044 10
-28.8499 21.27 1.87846 0.56969 10
-29.7567 21.9386 4.53931 0.404412 10
-29.7597 21.9407 5.85601 0.402411 10
-28.8558 21.2743 6.96862 0.559775 10
-29.7687 21.9474 9.91002 0.393478 10
-8.02603 5.87416 -2.66502 0.00710145 4
-11.1008 8.12453 -2.67395 0.0186976 4
-13.6615 9.99871 -2.68138 0.0273738 4
-17.1898 12.581 -2.61555 0.172754 4
-25.7663 18.8581 -2.79352 0.0322323 1
-29.0715 21.2771 -1.88804 0.57118 10
-29.073 21.2782 -0.628868 0.571822 10
-29.0745 21.2793 0.628899 0.571768 10
-29.076 21.2804 1.88833 0.571017 10
-29.7566 21.7786 4.52767 0.402496 10
-29.7596 21.7807 5.841 0.400504 10
-29.082 21.2848 7.00525 0.561078 10
-29.7686 21.7873 9.88459 0.391614 10
-8.04654 5.84616 -2.66504 0.0390577 4
-9.3522 6.79478 -2.66883 0.0174629 4
-11.1292 8.08582 -2.67398 0.0204367 4
-13.6965 9.95109 -2.68142 0.0159975 4
-17.311 12.5772 -2.62729 0.21566 4
-25.8326 18.7685 -2.79359 0.0322315 1
-29.2999 21.2877 -1.89804 0.572499 10
-29.3014 21.2887 -0.632198 0.573143 10
-29.3029 21.2898 0.632229 0.573088 10
-29.3044 21.2909 1.89833 0.572336 10
-29.7565 21.6194 4.51615 0.400576 10
-29.7595 21.6215 5.82613 0.398593 10
-29.3105 21.2953 7.04236 0.562375 10
-29.7685 21.6281 9.85942 0.389745 10
-8.06696 5.81808 -2.66506 0.0278136 4
-9.37595 6.76215 -2.66885 0.0354392 4
-11.1575 8.04701 -2.67401 0.0213061 4
-13.7313 9.90335 -2.68145 0.0163527 4
-17.4332 12.5732 -2.63916 0.206537 4
-25.8986 18.6786 -2.79366 0.0322307 1
-29.5308 21.2983 -1.90817 0.573812 10
-29.5323 21.2994 -0.635571 0.574457 10
-29.5338 21.3005 0.635603 0.574402 10
-29.5354 21.3016 1.90846 0.573648 10
-29.7564 21.461 4.50474 0.39865 10
-29.7593 21.4631 5.8114 0.396677 10
-29.5415 21.306 7.07995 0.563665 10
-29.7683 21.4696 9.8345 0.387871 10
-8.08728 5.78993 -2.66508 0.0692376 4
-9.39958 6.72944 -2.66887 0.0308164 4
-11.1856 8.0081 -2.67403 0.0347851 4
-13.766 9.85548 -2.68149 0.0142196 4
-17.5565 12.5692 -2.65117 0.190722 4
-25.9642 18.5886 -2.79372 0.03223 1
-29.7627 21.308 -1.91833 0.557155 10
-29.7643 21.3092 -0.638959 0.557781 10
-29.7659 21.3103 0.638993 0.557727 10
-29.7676 21.3115 1.91864 0.556994 10
-29.7534 21.3014 3.20143 0.170641 10
-29.7563 21.3034 4.49344 0.170006 10
-29.7592 21.3055 5.79682 0.169165 10
-29.7622 21.3076 7.11496 0.168117 10
-29.7652 21.3098 8.45139 0.166865 10
-29.7682 21.312 9.80982 0.165409 10
-8.1075 5.76171 -2.6651 0.0372815 4
-9.42309 6.69665 -2.6689 0.0184897 4
-11.2136 7.96909 -2.67406 0.027393 4
-13.8005 9.8075 -2.68152 0.0135085 4
-17.681 12.5652 -2.66332 0.193891 4
-26.0296 18.4983 -2.79378 0.0322292 1
-29.9831 21.3079 -1.92773 0.558545 10
-29.9847 21.309 -0.64209 0.559173 10
-29.9864 21.3102 0.642125 0.559119 10
-29.988 21.3114 1.92805 0.558384 10
-29.7533 21.1446 3.19346 0.169808 10
-29.7562 21.1467 4.48225 0.169177 10
-29.7591 21.1487 5.78239 0.16834 10
-29.7621 21.1508 7.09724 0.167297 10
-29.7651 21.1529 8.43034 0.166051 10
-29.7681 21.1551 9.78538 0.164602 10
-8.12763 5.73341 -2.66512 0.0692366 4
-9.44649 6.66377 -2.66892 0.0390334 4
-11.2415 7.92997 -2.67409 0.0360888 4
-13.8348 9.75938 -2.68155 0.00853155 4
-17.8065 12.5611 -2.67562 0.19166 4
-26.0946 18.4077 -2.79385 0.0322285 1
-30.2057 21.3078 -1.93725 0.559928 10
-30.2073 21.3089 -0.645261 0.560558 10
-30.209 21.3101 0.645296 0.560504 10
-30.2107 21.3113 1.93757 0.559768 10
-29.7532 20.9886 3.18557 0.168974 10
-29.7561 20.9906 4.47117 0.168346 10
-29.759 20.9927 5.76809 0.167512 10
-29.762 20.9948 7.0797 0.166475 10
-29.7649 20.9969 8.40949 0.165235 10
-29.768 20.999 9.76118 0.163793 10
-8.14765 5.70505 -2.66514 0.00414233 4
-9.46977 6.63081 -2.66894 0.035438 4
-11.2692 7.89076 -2.67411 0.0230444 4
-13.869 9.71115 -2.68159 0.00888692 4
-17.9333 12.557 -2.68806 0.181434 4
-26.1592 18.3169 -2.79391 0.0322278 1
-30.4305 21.3076 -1.94688 0.561305 10
-30.4321 21.3088 -0.64847 0.561936 10
-30.4338 21.31 0.648505 0.561882 10
-30.4355 21.3112 1.94721 0.561144 10
-29.7531 20.8334 3.17775 0.168138 10
-29.756 20.8354 4.4602 0.167512 10
-29.7589 20.8374 5.75394 0.166683 10
-29.7618 20.8395 7.06232 0.165651 10
-29.7648 20.8416 8.38886 0.164417 10
-29.7678 20.8437 9.73723 0.162982 10
-8.16757 5.67661 -2.66516 0.0473406 4
-9.49294 6.59776 -2.66896 0.0333833 4
-11.2968 7.85145 -2.67414 0.0239138 4
-13.9029 9.66279 -2.68162 0.0174182 4
-18.0612 12.5528 -2.70064 0.177933 4
-26.2236 18.2259 -2.79397 0.0322271 1
-30.6575 21.3075 -1.95664 0.562675 10
-30.6592 21.3087 -0.651719 0.563307 10
-30.6609 21.3099 0.651755 0.563254 10
-30.6626 21.3111 1.95697 0.562514 10
-29.753 20.6789 3.17001 0.167299 10
-29.7559 20.6809 4.44933 0.166677 10
-29.7588 20.6829 5.73992 0.165852 10
-29.7617 20.6849 7.04512 0.164825 10
-29.7647 20.687 8.36842 0.163597 10
-29.7677 20.6891 9.7135 0.162169 10
-8.18739 5.64811 -2.66518 0.0278124 4
-9.51599 6.56464 -2.66899 0.0236249 4
-11.3242 7.81205 -2.67417 0.0373921 4
-13.9367 9.61432 -2.68165 0.0177734 4
-18.1902 12.5486 -2.71338 0.187671 4
-26.2876 18.1346 -2.79403 0.0322264 1
-30.8868 21.3074 -1.96652 0.564038 10
-30.8886 21.3086 -0.65501 0.564672 10
-30.8903 21.3098 0.655046 0.564618 10
-30.892 21.311 1.96685 0.563877 10
-29.753 20.5252 3.16235 0.166459 10
-29.7558 20.5272 4.43858 0.16584 10
-29.7587 20.5292 5.72605 0.165019 10
-29.7616 20.5312 7.02809 0.163996 10
-29.7646 20.5332 8.34818 0.162774 10
-29.7676 20.5353 9.69001 0.161354 10
-8.20712 5.61953 -2.6652 0.00650924 4
-9.53892 6.53144 -2.66901 0.0184889 4
-11.3515 7.77254 -2.67419 0.0147828 4
-13.9704 9.56572 -2.68168 0.0259489 4
-18.3205 12.5443 -2.72627 0.195992 4
-26.3513 18.0431 -2.79409 0.0322257 1
-31.1185 21.3073 -1.97652 0.565394 10
-31.1203 21.3085 -0.658342 0.56603 10
-31.122 21.3097 0.658378 0.565976 10
-31.1238 21.3109 1.97685 0.565233 10
-29.7529 20.3722 3.15476 0.165616 10
-29.7557 20.3742 4.42793 0.165 10
-29.7586 20.3761 5.7123 0.164183 10
-29.7615 20.3781 7.01122 0.163166 10
-29.7645 20.3801 8.32815 0.16195 10
-29.7675 20.3822 9.66675 0.160537 10
-8.22674 5.59089 -2.66522 0.0201193 4
-9.56173 6.49815 -2.66903 0.0143802 4
-11.3787 7.73295 -2.67422 0.0226087 4
-14.0038 9.51701 -2.68171 0.0117302 4
-18.4521 12.54 -2.73931 0.167567 4
-26.4147 17.9514 -2.79415 0.032225 1
-31.3526 21.3072 -1.98665 0.566743 10
-31.3543 21.3084 -0.661715 0.56738 10
-31.3561 21.3096 0.661752 0.567327 10
-31.3579 21.3108 1.98698 0.566582 10
-29.9495 20.3537 3.16806 0.242182 10
-29.9512 20.3549 4.44642 0.241272 10
-29.953 20.356 5.73594 0.240068 10
-29.9547 20.3572 7.03995 0.238572 10
-29.9565 20.3584 8.36194 0.236784 10
-29.9583 20.3596 9.70558 0.234709 10
-8.24625 5.56217 -2.66523 0.0295871 4
-9.58443 6.46479 -2.66905 0.0215701 4
-11.4057 7.69325 -2.67424 0.0369563 4
-14.0371 9.46818 -2.68174 0.0149292 4
-18.5848 12.5356 -2.75251 0.19282 4
-26.4778 17.8595 -2.79421 0.0322243 1
-31.589 21.3071 -1.9969 0.568085 10
-31.5908 21.3083 -0.665132 0.568724 10
-31.5944 21.3107 1.99724 0.567924 10
-30.1754 20.3536 3.18443 0.242756 10
-30.1772 20.3548 4.46939 0.241844 10
-30.1789 20.3559 5.76556 0.240637 10
-30.1807 20.3571 7.07631 0.239137 10
-30.1825 20.3583 8.40513 0.237346 10
-30.1843 20.3596 9.75571 0.235265 10
-8.26568 5.53339 -2.66525 0.0325456 4
-9.60701 6.43134 -2.66907 0.0184885 4
-11.4326 7.65346 -2.67426 0.0160867 4
-14.0703 9.41922 -2.68177 0.0277253 4
-18.7189 12.5312 -2.76586 0.204855 4
-26.5405 17.7673 -2.79427 0.0322237 1
-31.8279 21.3069 -2.00729 0.56942 10
-31.8297 21.3081 -0.668593 0.570061 10
-31.8334 21.3106 2.00764 0.569259 10
-31.8352 21.3118 3.35171 0.567818 10
-31.837 21.313 4.70417 0.565684 10
-31.8389 21.3143 6.06844 0.562862 10
-31.8407 21.3155 7.44805 0.559353 10
-31.8426 21.3168 8.84668 0.555163 10
-8.28499 5.50454 -2.66527 0.0278115 4
-9.62948 6.39781 -2.66909 0.0190019 4
-11.4593 7.61358 -2.67429 0.0252168 4
-14.1032 9.37016 -2.6818 0.0319903 4
-18.8052 12.4942 -2.77216 0.0454174 1
-26.6029 17.6749 -2.79432 0.032223 1
-32.0693 21.3068 -2.01782 0.570748 10
-32.0711 21.308 -0.672097 0.571391 10
-32.0748 21.3105 2.01816 0.570587 10
-32.0767 21.3117 3.36928 0.569143 10
-32.0785 21.3129 4.72884 0.567004 10
-32.0804 21.3142 6.10026 0.564175 10
-32.0823 21.3154 7.4871 0.560659 10
-32.0842 21.3167 8.89307 0.556459 10
-8.30421 5.47562 -2.66528 0.0295865 4
-9.65182 6.3642 -2.66911 0.0287595 4
-11.486 7.57359 -2.67431 0.0452159 4
-14.136 9.32096 -2.68183 0.0163504 4
-18.849 12.4286 -2.7722 0.0454168 1
-26.6649 17.5823 -2.79438 0.0322224 1
-32.3133 21.3067 -2.02847 0.57207 10
-32.3151 21.3079 -0.675648 0.572714 10
-32.3189 21.3104 2.02883 0.571909 10
-32.3207 21.3116 3.38708 0.570461 10
-32.3226 21.3128 4.75382 0.568318 10
-32.3245 21.3141 6.1325 0.565482 10
-32.3264 21.3154 7.52667 0.561958 10
-32.3284 21.3167 8.94007 0.557749 10
-8.32332 5.44663 -2.6653 0.0266277 4
-9.67405 6.33052 -2.66913 0.0287593 4
-11.5124 7.53352 -2.67433 0.0117386 4
-18.8925 12.3629 -2.77224 0.0454162 1
-26.7266 17.4894 -2.79443 0.0322218 1
-32.5598 21.3066 -2.03927 0.573384 10
-32.5617 21.3078 -0.679244 0.57403 10
-32.5655 21.3103 2.03962 0.573223 10
-32.5674 21.3115 3.40511 0.571772 10
-32.5693 21.3128 4.77913 0.569624 10
-32.5712 21.314 6.16514 0.566782 10
-32.5732 21.3153 7.56674 0.56325 10
-32.5751 21.3166 8.98767 0.559031 10
-8.34234 5.41758 -2.66532 0.0473378 4
-9.69615 6.29676 -2.66915 0.0154066 4
-11.5387 7.49335 -2.67436 0.0126081 4
-14.201 9.22224 -2.68189 0.00888593 4
-18.9358 12.2971 -2.77227 0.0454156 1
-26.788 17.3964 -2.79448 0.0322212 1
-32.809 21.3064 -2.05021 0.574692 10
-32.8109 21.3077 -0.682887 0.575339 10
-32.8148 21.3102 2.05057 0.574531 10
-32.8167 21.3114 3.42338 0.573076 10
-32.8186 21.3127 4.80477 0.570924 10
-32.8206 21.3139 6.19822 0.568075 10
-32.8225 21.3152 7.60734 0.564535 10
-32.8245 21.3165 9.03589 0.560307 10
-8.36125 5.38846 -2.66533 0.0159764 4
-9.71814 6.26292 -2.66916 0.020542 4
-11.5649 7.45309 -2.67438 0.0113037 4
-14.2333 9.17271 -2.68191 0.0266575 4
-18.9789 12.2311 -2.77231 0.045415 1
-26.8491 17.3031 -2.79454 0.0322206 1
-33.0609 21.3063 -2.06129 0.575992 10
-33.0628 21.3075 -0.686577 0.576641 10
-33.0667 21.31 2.06165 0.575831 10
-33.0687 21.3113 3.44188 0.574374 10
-33.0706 21.3126 4.83074 0.572216 10
-33.0726 21.3138 6.23173 0.569361 10
-33.0746 21.3151 7.64847 0.565813 10
-33.0766 21.3164 9.08475 0.561575 10
-8.38005 5.35927 -2.66535 0.0355029 4
-9.74001 6.229 -2.66918 0.0539225 4
-11.591 7.41273 -2.6744 0.0295632 4
-14.2653 9.12306 -2.68194 0.0142172 4
-26.9098 17.2096 -2.79459 0.03222 1
-33.3155 21.3062 -2.07251 0.577285 10
-33.3175 21.3074 -0.690317 0.577936 10
-33.3214 21.3099 2.07288 0.577125 10
-33.3234 21.3112 3.46063 0.575664 10
-33.3254 21.3125 4.85706 0.573502 10
-33.3274 21.3137 6.26568 0.570641 10
-33.3294 21.315 7.69014 0.567085 10
-33.3314 21.3163 9.13425 0.562838 10
-8.39876 5.33002 -2.66536 0.0278105 4
-9.76176 6.195 -2.6692 0.0148928 4
-11.6169 7.37228 -2.67442 0.027824 4
-14.2972 9.0733 -2.68197 0.0124399 4
-18.5244 11.7559 -2.69387 0.0170915 4
-26.9702 17.1158 -2.79464 0.0322194 1
-33.5729 21.306 -2.08389 0.578572 10
-33.5749 21.3073 -0.694106 0.579224 10
-33.5789 21.3098 2.08426 0.578411 10
-33.5809 21.3111 3.47963 0.576947 10
-33.5849 21.3137 6.30008 0.571913 10
-33.587 21.315 7.73236 0.568349 10
-33.5891 21.3163 9.1844 0.564093 10
-33.5912 21.3176 10.6602 0.559149 10
-8.41736 5.3007 -2.66538 0.079289 4
-9.78339 6.16093 -2.66922 0.0308124 4
-11.6426 7.33175 -2.67444 0.0256501 4
-4.52455 2.84926 -0.846873 0.0400975 9
-18.5655 11.6913 -2.6939 0.053755 4
-27.0303 17.0219 -2.79469 0.0322188 1
-33.8332 21.3059 -2.09541 0.579851 10
-33.8352 21.3072 -0.697944 0.580505 10
-33.8372 21.3084 0.697985 0.580451 10
-33.8392 21.3097 2.09578 0.57969 10
-33.8412 21.311 3.49888 0.578223 10
-33.8433 21.3123 4.91074 0.576052 10
-33.8453 21.3136 6.33493 0.573178 10
-33.8474 21.3149 7.77514 0.569606 10
-33.8495 21.3162 9.23522 0.565341 10
-33.8517 21.3175 10.7192 0.560386 10
-8.43586 5.27131 -2.66539 0.0331355 4
-9.8049 6.12678 -2.66923 0.0349205 4
-11.6682 7.29112 -2.67446 0.0330405 4
-4.549 2.84253 -0.849587 0.345181 9
-18.6064 11.6266 -2.69393 0.0521003 4
-27.09 16.9277 -2.79473 0.0322183 1
-34.0963 21.3058 -2.10709 0.581123 10
-34.0984 21.307 -0.701835 0.581779 10
-34.1004 21.3083 0.701876 0.581725 10
-34.1025 21.3096 2.10747 0.580962 10
-34.1045 21.3109 3.51838 0.579492 10
-34.1066 21.3122 4.93812 0.577316 10
-34.1087 21.3135 6.37025 0.574437 10
-34.1108 21.3148 7.8185 0.570857 10
-34.1129 21.3161 9.28672 0.566582 10
-34.1151 21.3175 10.779 0.561617 10
-8.45425 5.24186 -2.66541 0.0260349 4
-9.82629 6.09256 -2.66925 0.030812 4
-11.6937 7.2504 -2.67448 0.0147812 4
-4.5845 2.84251 -0.854358 0.34121 9
-18.6471 11.5617 -2.69396 0.0559589 4
-27.1494 16.8333 -2.79478 0.0322177 1
-34.3624 21.3056 -2.11893 0.582388 10
-34.3645 21.3069 -0.705777 0.583045 10
-34.3666 21.3082 0.705819 0.582992 10
-34.3686 21.3095 2.11931 0.582228 10
-34.3707 21.3108 3.53815 0.580754 10
-34.3728 21.3121 4.96587 0.578574 10
-34.3749 21.3134 6.40605 0.575688 10
-34.3771 21.3147 7.86243 0.572101 10
-34.3792 21.316 9.33891 0.567817 10
-34.3814 21.3174 10.8396 0.562841 10
-8.47254 5.21235 -2.66542 0.0260348 4
-9.84756 6.05826 -2.66927 0.0344066 4
-4.62701 2.84656 -1.05597 0.031379 9
-4.6204 2.84249 -0.859194 0.335226 9
-27.2084 16.7387 -2.79483 0.0322172 1
-34.6316 21.3055 -2.13092 0.583647 10
-34.6337 21.3068 -0.709773 0.584305 10
-34.6358 21.3081 0.709816 0.584251 10
-34.6379 21.3094 2.13131 0.583486 10
-34.64 21.3107 3.55819 0.582009 10
-34.6421 21.312 4.99399 0.579824 10
-34.6442 21.3133 6.44233 0.576932 10
-34.6464 21.3146 7.90697 0.573337 10
-34.6486 21.316 9.39181 0.569044 10
-34.6508 21.3173 10.901 0.564058 10
-4.74127 2.89409 -1.48839 0.0970357 9
-4.74173 2.89437 -1.28254 0.0554622 9
-4.65641 2.84229 -1.06041 0.341339 9
-4.6567 2.84247 -0.864096 0.454533 9
-4.74453 2.89608 -0.682508 0.0126532 9
-27.2671 16.6439 -2.79487 0.0322167 1
-34.9037 21.3053 -2.14308 0.584897 10
-34.9059 21.3066 -0.713823 0.585557 10
-34.908 21.3079 0.713866 0.585504 10
-34.9101 21.3092 2.14347 0.584737 10
-34.9123 21.3105 3.57849 0.583257 10
-34.9144 21.3119 5.02249 0.581067 10
-34.9166 21.3132 6.4791 0.578169 10
-34.9188 21.3145 7.9521 0.574567 10
-34.921 21.3159 9.44542 0.570265 10
-34.9232 21.3173 10.9632 0.565268 10
-4.74127 2.87141 -1.48524 0.0421382 9
-4.74173 2.87169 -1.27982 0.0425024 9
-4.69314 2.84226 -1.06651 0.331402 9
-4.69343 2.84244 -0.869065 0.317358 9
-4.78688 2.89904 -0.68714 0.0233063 9
-27.3255 16.5489 -2.79492 0.0322162 1
-35.1791 21.3052 -2.15541 0.586141 10
-35.1812 21.3065 -0.717929 0.586803 10
-35.1834 21.3078 0.717972 0.586749 10
-35.1855 21.3091 2.1558 0.585981 10
-35.1877 21.3104 3.59908 0.584498 10
-35.1899 21.3118 5.05139 0.582304 10
-35.1921 21.3131 6.51638 0.5794 10
-35.1943 21.3144 7.99786 0.57579 10
-35.1966 21.3158 9.49977 0.571478 10
-35.1988 21.3172 11.0263 0.566471 10
-4.78506 2.87516 -1.4958 0.0682129 9
-4.78553 2.87543 -1.28893 0.108118 9
-4.73028 2.84224 -1.07269 0.343387 9
-4.73058 2.84242 -0.874101 0.445336 9
-4.78688 2.87625 -0.685694 0.0266919 9
-27.3835 16.4537 -2.79496 0.0322157 1
-35.4576 21.3051 -2.1679 0.587378 10
-35.4641 21.309 2.1683 0.587217 10
-35.4663 21.3103 3.61995 0.585732 10
-35.4707 21.313 6.55416 0.580623 10
-35.473 21.3143 8.04423 0.577005 10
-35.4776 21.3171 11.0902 0.567667 10
-4.78506 2.85247 -1.49268 0.0618456 9
-4.78552 2.85274 -1.28624 0.0689466 9
-4.76787 2.84222 -1.07896 0.440061 9
-4.76817 2.8424 -0.879207 0.35142 9
-4.78687 2.85355 -0.684262 0.0267478 9
-27.4412 16.3582 -2.795 0.0322152 1
-35.7393 21.3049 -2.18057 0.588608 10
-35.746 21.3089 2.18097 0.588447 10
-35.7482 21.3102 3.6411 0.586958 10
-35.7527 21.3129 6.59248 0.581839 10
-35.755 21.3142 8.09126 0.578214 10
-35.7596 21.317 11.1551 0.568856 10
-8.56244 5.06381 -2.66549 0.0130171 4
-9.95208 5.88564 -2.66935 0.0359461 4
-4.80589 2.84219 -1.08531 0.325662 9
-4.80619 2.84238 -0.884384 0.40463 9
-27.4986 16.2626 -2.79505 0.0322147 1
-36.0244 21.3048 -2.19341 0.58983 10
-36.0311 21.3088 2.19382 0.589669 10
-36.0379 21.3128 6.63131 0.583048 10
-36.0403 21.3142 8.13893 0.579416 10
-36.045 21.317 11.2208 0.570039 10
-8.5801 5.03392 -2.6655 0.0195255 4
-9.97261 5.8509 -2.66936 0.0164324 4
-4.84436 2.84217 -1.09175 0.32374 9
-4.84467 2.84235 -0.889633 0.406167 9
-27.5556 16.1668 -2.79509 0.0322142 1
-36.3128 21.3046 -2.20643 0.591045 10
-36.3196 21.3086 2.20684 0.590884 10
-36.3266 21.3127 6.67069 0.58425 10
-36.3289 21.3141 8.18726 0.58061 10
-36.3337 21.3169 11.2875 0.571214 10
-8.59766 5.00396 -2.66551 0.0159753 4
-9.99303 5.81608 -2.66937 0.0349187 4
-11.8922 6.92144 -2.67463 0.0269524 4
-4.88361 2.84233 -0.894956 0.31988 9
-18.9643 11.0375 -2.6942 0.0228778 4
-36.6047 21.3045 -2.21963 0.592253 10
-36.6071 21.3058 -0.739323 0.592922 10
-36.6094 21.3072 0.739369 0.592868 10
-36.6117 21.3085 2.22005 0.592092 10
-36.614 21.3099 3.70635 0.590595 10
-36.6163 21.3112 5.20196 0.588378 10
-36.6187 21.3126 6.71063 0.585445 10
-36.6211 21.314 8.23628 0.581798 10
-36.6235 21.3154 9.78299 0.577442 10
-36.6259 21.3168 11.3551 0.572382 10
-8.61511 4.97394 -2.66552 0.0284005 4
-10.0133 5.7812 -2.66939 0.031324 4
-11.9164 6.87993 -2.67465 0.0165191 4
-4.92302 2.84231 -0.900354 0.30633 9
-25.74 14.861 -2.60034 0.0277667 4
-36.9001 21.3043 -2.23302 0.593454 10
-36.9025 21.3057 -0.743784 0.594124 10
-36.9048 21.307 0.74383 0.594071 10
-36.9072 21.3084 2.23345 0.593293 10
-36.9095 21.3097 3.72872 0.591793 10
-36.9119 21.3111 5.23335 0.589572 10
-36.9143 21.3125 6.75113 0.586632 10
-36.9167 21.3139 8.28599 0.582978 10
-36.9191 21.3153 9.84204 0.578613 10
-36.9216 21.3167 11.4236 0.573544 10
-8.63246 4.94386 -2.66554 0.0508839 4
-10.0335 5.74623 -2.6694 0.0261888 4
-11.9404 6.83833 -2.67466 0.0117372 4
-4.9629 2.84228 -0.905829 0.308332 9
-37.1992 21.3042 -2.2466 0.594648 10
-37.2015 21.3055 -0.748308 0.595319 10
-37.2039 21.3069 0.748355 0.595266 10
-37.2063 21.3082 2.24703 0.594487 10
-37.2087 21.3096 3.7514 0.592984 10
-37.2111 21.311 5.26519 0.590758 10
-37.2135 21.3124 6.7922 0.587813 10
-37.216 21.3138 8.33641 0.584151 10
-37.2184 21.3152 9.90193 0.579778 10
-37.221 21.3166 11.4931 0.574698 10
-8.6497 4.91371 -2.66555 0.043192 4
-10.0535 5.71121 -2.66941 0.0133511 4
-11.9643 6.79665 -2.67468 0.0465138 4
-14.7251 8.36504 -2.68228 0.0131492 4
-37.5018 21.304 -2.26038 0.595834 10
-37.5042 21.3054 -0.752896 0.596507 10
-37.5066 21.3067 0.752943 0.596453 10
-37.509 21.3081 2.26081 0.595673 10
-37.5115 21.3095 3.77441 0.594167 10
-37.5139 21.3109 5.29748 0.591937 10
-37.5164 21.3123 6.83386 0.588986 10
-37.5188 21.3137 8.38754 0.585317 10
-37.5214 21.3151 9.96267 0.580935 10
-37.5239 21.3166 11.5636 0.575846 10
-8.66683 4.88351 -2.66556 0.0325418 4
-10.0735 5.6761 -2.66943 0.0333775 4
-11.988 6.75488 -2.67469 0.0343418 4
-14.7543 8.31364 -2.6823 0.00888455 4
-25.8953 14.5912 -2.60044 0.0344138 4
-37.8082 21.3038 -2.27435 0.597013 10
-37.8107 21.3052 -0.75755 0.597687 10
-37.8131 21.3066 0.757598 0.597634 10
-37.8156 21.308 2.27479 0.596852 10
-37.818 21.3094 3.79775 0.595343 10
-37.8205 21.3108 5.33023 0.593109 10
-37.823 21.3122 6.87612 0.590152 10
-37.8255 21.3136 8.43941 0.586476 10
-37.8281 21.315 10.0243 0.582086 10
-37.8307 21.3165 11.6351 0.576986 10
-8.68386 4.85325 -2.66557 0.0153833 4
-10.0933 5.64093 -2.66944 0.0148914 4
-12.0116 6.71304 -2.67471 0.0217352 4
-14.7834 8.26215 -2.68232 0.0195459 4
-19.155 10.7054 -2.69432 0.0165374 4
-38.1185 21.3037 -2.28852 0.598185 10
-38.1259 21.3078 2.28897 0.598024 10
-38.1334 21.3121 6.91899 0.591311 10
-38.1412 21.3164 11.7077 0.57812 10
-8.70079 4.82292 -2.66558 0.0230749 4
-10.1129 5.60569 -2.66945 0.0241343 4
-12.035 6.6711 -2.67472 0.0173881 4
-14.8122 8.21054 -2.68234 0.0284302 4
-25.9971 14.4104 -2.60051 0.0295247 4
-38.4326 21.3035 -2.30291 0.599349 10
-38.4401 21.3077 2.30336 0.599188 10
-38.4478 21.3119 6.96249 0.592463 10
-38.4557 21.3163 11.7813 0.579246 10
-8.7176 4.79254 -2.66559 0.0337247 4
-10.1325 5.57038 -2.66946 0.0189993 4
-12.0583 6.62909 -2.67474 0.0321677 4
-14.8409 8.15884 -2.68235 0.019901 4
-26.0476 14.3198 -2.60054 0.0258094 4
-38.7507 21.3034 -2.3175 0.600506 10
-38.7583 21.3076 2.31795 0.600345 10
-38.7661 21.3118 7.00661 0.593607 10
-38.7741 21.3162 11.856 0.580365 10
-10.1519 5.535 -2.66947 0.0333769 4
-12.0814 6.58699 -2.67475 0.0208654 4
-14.8694 8.10705 -2.68237 0.0113719 4
-26.0977 14.2289 -2.60057 0.0287419 4
-39.0728 21.3032 -2.3323 0.601656 10
-39.0806 21.3074 2.33276 0.601495 10
-39.0884 21.3117 7.05139 0.594744 10
-39.0966 21.3161 11.9318 0.581477 10
-8.75091 4.7316 -2.66561 0.024258 4
-10.1712 5.49955 -2.66949 0.0179721 4
-12.1044 6.54481 -2.67476 0.0186919 4
-14.8977 8.05514 -2.68239 0.0234545 4
-26.1475 14.1379 -2.6006 0.0281551 4
-39.3991 21.303 -2.34732 0.602799 10
-39.407 21.3073 2.34779 0.602638 10
-39.415 21.3116 7.09683 0.595875 10
-39.4232 21.3161 12.0087 0.582583 10
-8.7674 4.70104 -2.66562 0.0408242 4
-10.1904 5.46404 -2.6695 0.0215665 4
-12.1272 6.50255 -2.67478 0.0247775 4
-14.9258 8.00314 -2.6824 0.0223882 4
-26.197 14.0467 -2.60062 0.0258085 4
-39.7296 21.3029 -2.36257 0.603934 10
-39.7376 21.3071 2.36305 0.603773 10
-39.7457 21.3115 7.14295 0.596997 10
-39.7541 21.316 12.0867 0.58368 10
-8.78379 4.67042 -2.66563 0.0266244 4
-10.2094 5.42845 -2.66951 0.016945 4
-12.1499 6.4602 -2.67479 0.00695505 4
-14.9537 7.95103 -2.68242 0.0202559 4
-26.2461 13.9553 -2.60065 0.0293276 4
-40.0645 21.3027 -2.37805 0.605062 10
-40.0726 21.307 2.37853 0.604901 10
-40.0809 21.3114 7.18976 0.598113 10
-40.0894 21.3159 12.166 0.584771 10
-8.80006 4.63975 -2.66564 0.0165662 4
-10.2284 5.39281 -2.66952 0.029782 4
-12.1724 6.41779 -2.6748 0.0291241 4
-14.9815 7.89883 -2.68243 0.0152807 4
-40.4038 21.3025 -2.39376 0.606182 10
-40.4065 21.304 -0.797325 0.606868 10
-40.4093 21.3054 0.797379 0.606814 10
-40.412 21.3069 2.39425 0.606021 10
-40.4148 21.3083 3.99719 0.60449 10
-40.4176 21.3098 5.61017 0.602222 10
-40.4204 21.3113 7.23728 0.599221 10
-40.4232 21.3127 8.88271 0.595489 10
-40.4261 21.3143 10.5509 0.591032 10
-40.429 21.3158 12.2464 0.585855 10
-8.81623 4.60901 -2.66564 0.0349073 4
-10.2472 5.35709 -2.66953 0.0498077 4
-12.1948 6.37528 -2.67481 0.0308628 4
-15.009 7.84652 -2.68245 0.0241647 4
-19.4476 10.167 -2.69449 0.0231509 4
-26.3434 13.772 -2.6007 0.0269808 4
-40.7476 21.3023 -2.40971 0.607295 10
-40.7504 21.3038 -0.802638 0.607982 10
-40.7532 21.3052 0.802692 0.607929 10
-40.756 21.3067 2.4102 0.607135 10
-40.7588 21.3082 4.02383 0.605601 10
-40.7616 21.3096 5.64757 0.603329 10
-40.7644 21.3111 7.28552 0.600322 10
-40.7673 21.3126 8.94192 0.596584 10
-40.7702 21.3142 10.6212 0.592118 10
-40.7732 21.3157 12.328 0.586932 10
-8.83229 4.57823 -2.66565 0.0496984 4
-10.2658 5.32131 -2.66954 0.0174583 4
-12.217 6.3327 -2.67482 0.0265158 4
-15.0364 7.79413 -2.68246 0.021677 4
-19.4831 10.0991 -2.69451 0.0220483 4
-41.0191 21.2623 -2.42136 0.292507 10
-41.0988 21.3036 -0.808032 0.609089 10
-41.1017 21.3051 0.808087 0.609036 10
-41.03 21.268 2.42201 0.341334 10
-41.1073 21.308 4.05087 0.606703 10
-41.1102 21.3095 5.68553 0.604428 10
-41.116 21.3125 9.00203 0.59767 10
-41.119 21.3141 10.6926 0.593197 10
-8.84825 4.54739 -2.66566 0.0218909 4
-10.2844 5.28546 -2.66954 0.0179717 4
-12.2391 6.29005 -2.67483 0.0221688 4
-15.0636 7.74163 -2.68247 0.0131483 4
-19.5184 10.0311 -2.69453 0.0148825 4
-41.0111 21.0769 -2.41653 0.290728 10
-41.452 21.3034 -0.813508 0.610189 10
-41.4549 21.3049 0.813564 0.610135 10
-41.022 21.0825 2.41717 0.339257 10
-41.4606 21.3079 4.07833 0.607799 10
-41.4635 21.3094 5.72407 0.605519 10
-41.4694 21.3124 9.06307 0.59875 10
-41.4724 21.314 10.7651 0.594269 10
-8.86409 4.51648 -2.66567 0.0331321 4
-10.3028 5.24954 -2.66955 0.0272142 4
-12.261 6.24731 -2.67484 0.0165179 4
-15.0906 7.68904 -2.68249 0.0163464 4
-41.0032 20.8922 -2.41175 0.288945 10
-41.014 20.8977 2.41239 0.337177 10
-41.8308 21.3139 10.8388 0.595333 10
-8.87983 4.48553 -2.66567 0.102946 4
-10.3211 5.21356 -2.66956 0.0600765 4
-12.2828 6.2045 -2.67485 0.0169525 4
-15.1174 7.63635 -2.6825 0.0131482 4
-19.5882 9.8947 -2.69456 0.0358279 4
-26.6841 13.4791 -2.6155 0.126291 4
-40.9952 20.7082 -2.40702 0.287159 10
-41.0061 20.7137 2.40765 0.335092 10
-42.194 21.3138 10.9135 0.59639 10
-8.89545 4.45451 -2.66568 0.014791 4
-10.3393 5.17752 -2.66957 0.0302949 4
-12.3044 6.1616 -2.67486 0.0147791 4
-15.144 7.58356 -2.68251 0.0138588 4
-19.6227 9.82632 -2.69457 0.0148823 4
-26.8961 13.4686 -2.63165 0.100413 4
-40.9873 20.5249 -2.40233 0.28537 10
-40.9981 20.5303 2.40296 0.333003 10
-42.553 21.309 5.84335 0.60875 10
-42.5624 21.3136 10.9895 0.59744 10
-8.91097 4.42345 -2.66569 0.014791 4
-10.3573 5.14141 -2.66958 0.0107829 4
-12.3259 6.11864 -2.67487 0.0169524 4
-15.1705 7.53069 -2.68252 0.0582779 4
-19.657 9.75782 -2.69459 0.0327959 4
-27.1106 13.4578 -2.64803 0.131456 4
-40.9923 20.3488 -2.39845 0.19291 10
-41.0029 20.354 2.39907 0.225117 10
-42.9263 21.3088 5.88436 0.609811 10
-42.9358 21.3135 11.0666 0.598482 10
-8.92638 4.39232 -2.66569 0.0343151 4
-10.3752 5.10524 -2.66958 0.0313217 4
-15.1967 7.47772 -2.68253 0.0213211 4
-27.3278 13.447 -2.66465 0.123008 4
-41.0135 20.1812 -2.39555 0.190973 10
-41.0241 20.1864 2.39617 0.222856 10
-43.305 21.3087 5.92603 0.610866 10
-41.0349 20.1917 7.2435 0.22037 10
-43.3146 21.3134 11.145 0.599518 10
-8.94168 4.36115 -2.6657 0.0313568 4
-10.393 5.06901 -2.66959 0.0174579 4
-12.3684 6.03247 -2.67489 0.0278192 4
-15.2228 7.42465 -2.68254 0.0206103 4
-27.5477 13.4359 -2.6815 0.12034 4
-41.0347 20.014 -2.39269 0.189033 10
-41.0453 20.0192 2.39331 0.220593 10
-43.689 21.3085 5.96837 0.611913 10
-41.0561 20.0244 7.23485 0.218131 10
-43.6988 21.3133 11.2247 0.600546 10
-8.95686 4.32992 -2.6657 0.0183407 4
-10.4107 5.03271 -2.6696 0.0246464 4
-12.3894 5.98928 -2.6749 0.0130402 4
-15.2487 7.3715 -2.68255 0.00888372 4
-19.7584 9.55157 -2.69463 0.0165355 4
-27.7704 13.4247 -2.69859 0.123344 4
-41.0559 19.8472 -2.38987 0.187092 10
-41.0665 19.8523 2.39049 0.218326 10
-44.0786 21.3084 6.01139 0.612953 10
-41.0772 19.8575 7.22632 0.21589 10
-44.0885 21.3132 11.3056 0.601566 10
-8.97194 4.29864 -2.66571 0.0562053 4
-10.4282 4.99635 -2.6696 0.0302945 4
-12.4103 5.94601 -2.6749 0.0204296 4
-15.2744 7.31825 -2.68256 0.0170567 4
-27.9959 13.4134 -2.71594 0.100103 4
-41.077 19.6808 -2.38709 0.185148 10
-44.4606 21.302 -0.860541 0.618717 10
-44.4639 21.3035 0.860603 0.618663 10
-41.0876 19.6859 2.3877 0.216057 10
-44.4704 21.3067 4.31417 0.616296 10
-44.4737 21.3083 6.0551 0.613985 10
-41.0983 19.691 7.21789 0.213646 10
-44.4804 21.3115 9.58728 0.607123 10
-44.4838 21.3131 11.3878 0.602579 10
-8.98691 4.2673 -2.66572 0.0301733 4
-10.4456 4.95993 -2.66961 0.0302944 4
-12.431 5.90268 -2.67491 0.00695473 4
-15.2999 7.26491 -2.68257 0.0152799 4
-41.1158 19.5232 -2.38537 0.0804487 10
-44.8614 21.3018 -0.866853 0.619749 10
-44.8647 21.3034 0.866916 0.619696 10
-41.1262 19.5282 2.38597 0.0938833 10
-44.8714 21.3065 4.34582 0.617324 10
-44.8747 21.3081 6.09953 0.61501 10
-41.1368 19.5332 7.21264 0.092841 10
-44.8815 21.3113 9.65764 0.608136 10
-44.885 21.313 11.4714 0.603585 10
-9.00177 4.23591 -2.66572 0.064488 4
-10.4629 4.92345 -2.66962 0.0297809 4
-12.4516 5.85926 -2.67492 0.0299922 4
-15.3252 7.21148 -2.68258 0.0273616 4
-19.8576 9.34426 -2.69466 0.0250785 4
-41.164 19.3703 -2.38423 0.0784176 10
-45.2681 21.3016 -0.87327 0.620774 10
-45.2715 21.3032 0.873335 0.62072 10
-41.1745 19.3753 2.38484 0.0915128 10
-45.2783 21.3063 4.378 0.618345 10
-45.2817 21.3079 6.1447 0.616027 10
-41.1851 19.3802 7.2092 0.0904964 10
-45.2886 21.3112 9.72917 0.609142 10
-45.2921 21.3129 11.5564 0.604584 10
-9.01651 4.20447 -2.66573 0.0236653 4
-10.48 4.88691 -2.66962 0.0729117 4
-12.472 5.81578 -2.67492 0.0243414 4
-15.3503 7.15797 -2.68259 0.00852827 4
-19.8901 9.27493 -2.69467 0.017362 4
-26.9929 12.587 -2.60571 0.128934 4
-41.2123 19.2176 -2.38312 0.076386 10
-45.6809 21.3014 -0.879793 0.621791 10
-45.6843 21.303 0.879858 0.621737 10
-41.2227 19.2225 2.38373 0.0891414 10
-45.6912 21.3062 4.41071 0.619359 10
-45.6947 21.3078 6.19061 0.617036 10
-41.2334 19.2274 7.20586 0.088151 10
-45.7017 21.3111 9.80187 0.61014 10
-45.3806 21.1613 11.56 0.155997 10
-9.03115 4.17298 -2.66573 0.0248485 4
-10.497 4.8503 -2.66963 0.0179712 4
-12.4922 5.77221 -2.67493 0.0226027 4
-15.3752 7.10436 -2.68259 0.0131477 4
-27.2276 12.5809 -2.62411 0.135848 4
-41.2605 19.065 -2.38205 0.074353 10
-62.1629 28.7233 -1.19529 0.533596 10
-62.1325 28.7093 1.19471 0.291386 10
-41.2709 19.0699 2.38265 0.0867687 10
-62.1433 28.7142 5.98917 0.290277 10
-62.1487 28.7167 8.40613 0.289192 10
-41.2816 19.0748 7.2026 0.0858043 10
-62.1597 28.7218 13.3101 0.285966 10
-45.4541 21.0027 11.56 0.155997 10
-9.04567 4.14143 -2.66573 0.0420057 4
-10.5139 4.81364 -2.66963 0.0138635 4
-12.5123 5.72859 -2.67493 0.018256 4
-27.4656 12.5747 -2.6428 0.113538 4
-41.3086 18.9126 -2.381 0.0723195 10
-62.1473 28.4533 -1.19307 0.534454 10
-62.1324 28.4465 1.19279 0.289185 10
-41.3191 18.9174 2.38161 0.0843952 10
-61.8342 28.3099 5.94982 0.628425 10
-62.1485 28.4538 8.39263 0.287008 10
-41.3297 18.9222 7.19944 0.0834568 10
-61.8486 28.3165 13.2223 0.619072 10
-45.527 20.8439 11.56 0.155997 10
-9.06009 4.10984 -2.66574 0.0283982 4
-10.5307 4.77692 -2.66963 0.0128365 4
-12.5323 5.68488 -2.67494 0.00651999 4
-15.4245 6.99688 -2.68261 0.0753324 4
-27.707 12.5684 -2.66179 0.122363 4
-62.1298 28.1833 -1.19084 0.535306 10
-62.1323 28.1845 1.19089 0.286981 10
-62.2105 28.2199 5.97651 0.182506 10
-62.1484 28.1918 8.37927 0.28482 10
-62.2268 28.2273 13.282 0.179795 10
-45.5995 20.6848 11.56 0.155998 10
-9.07439 4.07819 -2.66574 0.0272149 4
-10.5473 4.74014 -2.66964 0.0410768 4
-12.552 5.64112 -2.67494 0.0186906 4
-15.4489 6.94301 -2.68261 0.0700022 4
-27.9518 12.5621 -2.68108 0.154006 4
-62.1268 27.9209 -1.18891 0.241262 10
-62.1322 27.9233 1.18901 0.284774 10
-62.1482 27.9305 8.36605 0.282628 10
-45.6713 20.5255 11.5599 0.155998 10
-9.08858 4.0465 -2.66574 0.0195237 4
-10.5638 4.70329 -2.66964 0.024646 4
-12.5717 5.59727 -2.67495 0.0134746 4
-15.4731 6.88905 -2.68262 0.0682253 4
-20.0493 8.92651 -2.69471 0.0325188 4
-28.2003 12.5556 -2.70069 0.104457 4
-62.1267 27.6606 -1.18705 0.239389 10
-62.132 27.663 1.18715 0.282563 10
-62.1481 27.6701 8.35298 0.280434 10
-45.7426 20.3659 11.5599 0.155998 10
-9.10266 4.01475 -2.66575 0.0313562 4
-10.5801 4.6664 -2.66965 0.0164307 4
-12.5912 5.55336 -2.67495 0.0160826 4
-15.497 6.83501 -2.68262 0.0767534 4
-20.0804 8.8565 -2.69472 0.0148815 4
-28.4523 12.549 -2.72062 0.129144 4
-62.1266 27.4011 -1.18522 0.359582 10
-62.1319 27.4034 1.18532 0.280349 10
-62.1479 27.4105 8.34005 0.278235 10
-45.8134 20.2061 11.5599 0.155998 10
-9.11662 3.98296 -2.66575 0.0508799 4
-10.5964 4.62945 -2.66965 0.0225921 4
-12.6105 5.50939 -2.67496 0.00999726 4
-15.5208 6.78089 -2.68263 0.0692911 4
-20.1112 8.78637 -2.69472 0.0214954 4
-28.7081 12.5423 -2.74087 0.12164 4
-41.6947 18.216 -2.38456 0.152758 10
-62.4486 27.2832 -1.18953 0.815484 10
-61.7717 26.9874 1.17664 0.278131 10
-41.7051 18.2205 2.38516 0.178247 10
-61.7823 26.992 5.89859 0.277071 10
-61.7876 26.9944 8.279 0.276034 10
-41.7157 18.2252 7.21016 0.176244 10
-61.7984 26.9991 13.1088 0.272953 10
-45.8836 20.0461 11.5599 0.155998 10
-9.13048 3.95111 -2.66575 0.0165655 4
-10.6125 4.59243 -2.66965 0.0154037 4
-12.6297 5.46534 -2.67496 0.0243411 4
-15.5444 6.72668 -2.68263 0.066093 4
-20.1418 8.71613 -2.69473 0.0206686 4
-28.9677 12.5355 -2.76147 0.114232 4
-41.7976 18.0874 -2.38682 0.154736 10
-73.2956 31.7179 -1.39403 0.539468 10
-61.7716 26.7309 1.17485 0.27591 10
-41.808 18.092 2.38742 0.180556 10
-61.7821 26.7355 5.88963 0.274858 10
-61.7874 26.7378 8.26642 0.273829 10
-41.8187 18.0966 7.21699 0.178528 10
-61.7982 26.7425 13.0889 0.270772 10
-45.9533 19.8858 11.5599 0.155999 10
-9.14422 3.91922 -2.66575 0.049105 4
-10.6285 4.55536 -2.66965 0.0277267 4
-12.6487 5.42123 -2.67496 0.0417276 4
-15.5678 6.67239 -2.68263 0.0678696 4
-29.2312 12.5285 -2.7824 0.121668 4
-41.9006 17.9587 -2.38912 0.156713 10
-74.0982 31.7586 -1.40718 0.231869 10
-61.7714 26.4753 1.17308 0.273686 10
-41.9111 17.9631 2.38971 0.182862 10
-61.782 26.4798 5.88077 0.272642 10
-61.7873 26.4821 8.25398 0.271621 10
-41.9218 17.9677 7.22392 0.180809 10
-61.7981 26.4867 13.0692 0.268589 10
-46.0223 19.7252 11.5599 0.155999 10
-9.15785 3.88728 -2.66575 0.0177488 4
-10.6443 4.51824 -2.66965 0.0256728 4
-15.591 6.61801 -2.68264 0.0540114 4
-20.2022 8.57532 -2.69474 0.0165348 4
-29.417 12.4868 -2.79591 0.0322047 1
-42.0039 17.8296 -2.39144 0.158687 10
-74.721 31.7172 -1.4169 0.541086 10
-61.7713 26.2204 1.17134 0.271458 10
-42.0145 17.8341 2.39204 0.185167 10
-61.7818 26.2248 5.872 0.270422 10
-61.7871 26.2271 8.24168 0.269409 10
-42.0252 17.8386 7.23096 0.183089 10
-61.7979 26.2317 13.0497 0.266401 10
