VERSION 0.7
FIELDS x y z intensity label
SIZE 4 4 4 4 4
TYPE F F F F F
COUNT 1 1 1 1 1
WIDTH 1252
HEIGHT 1
VIEWPOINT 20.8949 49.5022 2.72661 0.968575 -0.000181994 0.000655143 -0.248722
POINTS 1252
DATA ascii
-20.3508 9.23154 -2.74384 0.0460112 1
-20.9673 9.51118 -2.01431 0.557975 10
-20.9667 9.51093 -1.20659 0.559308 10
-20.9662 9.51068 -0.401858 0.55996 10
-20.9656 9.51042 0.401847 0.559929 10
-20.965 9.51017 1.20649 0.559216 10
-20.9645 9.50991 2.01404 0.557822 10
-18.7299 8.49627 2.52529 0.265552 10
-24.3119 11.0283 5.18923 0.403343 10
-24.3118 11.0283 6.16331 0.400328 10
-23.2918 10.5656 6.85311 0.178153 10
-9.18918 4.12979 -2.69946 0.167993 4
-10.2406 4.6023 -2.59201 0.17377 4
-11.952 5.37142 -2.54706 0.057421 4
-15.7788 7.09128 -2.7399 0.059146 1
-20.3836 9.16074 -2.74392 0.0460097 1
-21.1045 9.48474 -2.0243 0.559351 10
-21.1039 9.48448 -1.21257 0.560688 10
-21.1034 9.48423 -0.403851 0.561341 10
-21.1028 9.48397 0.40384 0.56131 10
-21.1022 9.48372 1.21247 0.560595 10
-21.1016 9.48346 2.02403 0.559198 10
-24.4141 10.9721 5.20284 0.405223 10
-24.4141 10.9721 6.17948 0.402194 10
-23.3282 10.4841 6.85301 0.178156 10
-9.22544 4.10743 -2.70588 0.18245 4
-10.2793 4.57666 -2.59776 0.15877 4
-11.9709 5.32977 -2.54711 0.0407637 4
-15.8038 7.03632 -2.73997 0.0591445 1
-20.4161 9.08981 -2.74401 0.0460083 1
-21.2431 9.45802 -2.03441 0.560721 10
-21.2425 9.45777 -1.21863 0.56206 10
-21.2419 9.45751 -0.405868 0.562715 10
-21.2413 9.45726 0.405857 0.562684 10
-21.2408 9.457 1.21853 0.561968 10
-21.2402 9.45674 2.03414 0.560567 10
-24.5169 10.9156 5.2166 0.407099 10
-24.5168 10.9156 6.19582 0.404056 10
-23.3643 10.4025 6.85292 0.178158 10
-9.26185 4.08496 -2.71237 0.156558 4
-10.3183 4.55089 -2.60356 0.131874 4
-11.9896 5.28806 -2.54716 0.0661849 4
-15.8287 6.98129 -2.74003 0.0591431 1
-20.4483 9.01878 -2.74409 0.0460069 1
-21.383 9.43105 -2.04465 0.562083 10
-21.3825 9.43079 -1.22476 0.563426 10
-21.3819 9.43053 -0.407911 0.564082 10
-21.3813 9.43028 0.4079 0.564052 10
-21.3807 9.43002 1.22466 0.563334 10
-21.3801 9.42976 2.04437 0.561929 10
-24.6202 10.8588 5.23048 0.40897 10
-24.6202 10.8588 6.21231 0.405913 10
-23.4002 10.3207 6.85282 0.178161 10
-9.29843 4.06239 -2.71891 0.123383 4
-10.3573 4.52501 -2.60942 0.15653 4
-12.0083 5.24628 -2.54721 0.0398855 4
-15.8533 6.92616 -2.7401 0.0591416 1
-20.4803 8.94763 -2.74418 0.0460054 1
-21.5094 9.39722 -2.05358 0.517542 10
-21.509 9.39706 -1.23012 0.518775 10
-21.5087 9.39691 -0.409702 0.519376 10
-21.5083 9.39676 0.409695 0.519344 10
-21.508 9.39661 1.23006 0.51868 10
-21.5076 9.39646 2.05342 0.517383 10
-24.7241 10.8017 5.24451 0.410835 10
-24.724 10.8017 6.22897 0.407765 10
-23.4357 10.2388 6.85272 0.178163 10
-9.33517 4.03969 -2.72551 0.180807 4
-10.3965 4.49899 -2.61533 0.165535 4
-12.0267 5.20443 -2.54726 0.0718801 4
-15.8778 6.87094 -2.74016 0.0591402 1
-20.512 8.87636 -2.74427 0.046004 1
-21.6296 9.35997 -2.06193 0.519099 10
-21.6293 9.35982 -1.23512 0.520336 10
-21.6289 9.35967 -0.411367 0.520939 10
-21.6286 9.35952 0.41136 0.520907 10
-21.6282 9.35937 1.23507 0.52024 10
-21.5497 9.32541 2.05432 0.0258704 10
-24.8285 10.7443 5.25868 0.412696 10
-24.8285 10.7442 6.2458 0.409612 10
-23.471 10.1568 6.85262 0.178166 10
-9.37209 4.01688 -2.73218 0.186165 4
-10.4359 4.47285 -2.62129 0.0985121 4
-12.0451 5.16253 -2.54731 0.0582919 4
-15.9021 6.81565 -2.74023 0.0591388 1
-20.5435 8.80498 -2.74435 0.0460025 1
-21.7508 9.32242 -2.07037 0.520649 10
-21.7505 9.32227 -1.24018 0.52189 10
-21.7501 9.32212 -0.413051 0.522494 10
-21.7498 9.32197 0.413044 0.522463 10
-21.7494 9.32182 1.24012 0.521794 10
-21.5812 9.24974 2.05423 0.0258715 10
-24.9335 10.6865 5.27298 0.414552 10
-24.9335 10.6865 6.26279 0.411454 10
-23.5059 10.0747 6.85253 0.178168 10
-9.39395 3.9875 -2.73448 0.0980502 1
-10.4755 4.44657 -2.62731 0.149042 4
-12.0632 5.12055 -2.54736 0.0705625 4
-15.9262 6.76026 -2.7403 0.0591374 1
-20.5748 8.73349 -2.74444 0.0460011 1
-21.8731 9.28456 -2.07891 0.522193 10
-21.8727 9.28441 -1.24529 0.523438 10
-21.8723 9.28426 -0.414754 0.524044 10
-21.872 9.28411 0.414747 0.524012 10
-21.8716 9.28396 1.24523 0.523342 10
-21.6125 9.17395 2.05414 0.0258727 10
-25.0391 10.6285 5.28743 0.416403 10
-25.0391 10.6285 6.27995 0.413291 10
-23.5406 9.99241 6.85243 0.178171 10
-9.40795 3.95474 -2.73452 0.0980489 1
-10.5152 4.42018 -2.63338 0.111989 4
-12.0813 5.07851 -2.54741 0.0569748 4
-15.95 6.70479 -2.74036 0.0591359 1
-20.6058 8.66188 -2.74452 0.0459997 1
-21.995 9.24586 -2.08742 0.477744 10
-21.9948 9.24578 -1.2504 0.478879 10
-21.9947 9.24571 -0.416459 0.479431 10
-21.9945 9.24563 0.416455 0.479399 10
-21.9943 9.24556 1.25037 0.478782 10
-21.6434 9.09806 2.05405 0.0258738 10
-25.1453 10.5701 5.30203 0.418248 10
-25.1452 10.5701 6.29728 0.415123 10
-23.575 9.91004 6.85233 0.178173 10
-9.42183 3.92193 -2.73456 0.0980475 1
-10.555 4.39364 -2.63951 0.153895 4
-12.0992 5.0364 -2.54746 0.0416346 4
-15.9737 6.64922 -2.74043 0.0591345 1
-20.6365 8.59016 -2.74461 0.0459983 1
-22.1026 9.20044 -2.09457 0.479449 10
-22.1025 9.20036 -1.25469 0.480588 10
-22.1023 9.20029 -0.417886 0.481142 10
-22.1021 9.20021 0.417882 0.48111 10
-22.1019 9.20014 1.25466 0.480491 10
-21.6741 9.02207 2.05396 0.0258749 10
-25.252 10.5114 5.31677 0.420089 10
-25.252 10.5114 6.31479 0.41695 10
-23.6092 9.82755 6.85224 0.178176 10
-9.43559 3.88907 -2.73459 0.0980461 1
-10.5951 4.36698 -2.64569 0.0948262 4
-12.1169 4.99424 -2.54751 0.0661758 4
-15.9972 6.59359 -2.74049 0.0591331 1
-20.667 8.51834 -2.74469 0.0459968 1
-22.211 9.15472 -2.1018 0.481147 10
-22.2108 9.15464 -1.25902 0.482291 10
-22.2106 9.15456 -0.419328 0.482847 10
-22.2104 9.15449 0.419324 0.482814 10
-22.2103 9.15442 1.25899 0.482194 10
-21.7046 8.94598 2.05388 0.025876 10
-25.3594 10.4524 5.33165 0.421924 10
-25.3593 10.4524 6.33247 0.418772 10
-23.643 9.74494 6.85214 0.178178 10
-9.44924 3.85616 -2.73463 0.0980447 1
-10.6353 4.34017 -2.65193 0.17849 4
-12.1345 4.952 -2.54756 0.0442624 4
-16.0205 6.53786 -2.74056 0.0591317 1
-20.6973 8.4464 -2.74478 0.0459954 1
-22.3201 9.10867 -2.1091 0.48284 10
-22.3199 9.10859 -1.26339 0.483988 10
-22.3197 9.10852 -0.420785 0.484546 10
-22.3196 9.10844 0.420781 0.484514 10
-22.3194 9.10837 1.26336 0.483891 10
-21.7347 8.86978 2.05379 0.0258771 10
-25.4575 10.389 5.34463 0.448593 10
-25.4595 10.3898 6.34839 0.445277 10
-23.6765 9.66221 6.85205 0.178181 10
-9.46278 3.82321 -2.73467 0.0980433 1
-10.6756 4.31324 -2.65823 0.156936 4
-12.152 4.90971 -2.54761 0.0692409 4
-16.0436 6.48205 -2.74062 0.0591303 1
-20.7273 8.37437 -2.74486 0.045994 1
-22.43 9.0623 -2.11648 0.484527 10
-22.4298 9.06223 -1.26781 0.485679 10
-22.4296 9.06215 -0.422257 0.486239 10
-22.4294 9.06208 0.422254 0.486207 10
-22.4292 9.062 1.26778 0.485582 10
-21.7646 8.79349 2.0537 0.0258782 10
-25.3843 10.2559 5.32171 0.447323 10
-25.3863 10.2567 6.32117 0.444016 10
-23.7098 9.57938 6.85195 0.178183 10
-9.4762 3.79021 -2.73471 0.098042 1
-10.693 4.2769 -2.65882 0.0553183 4
-12.1693 4.86736 -2.54766 0.0731836 4
-16.0665 6.42616 -2.74069 0.0591289 1
-20.757 8.30222 -2.74494 0.0459926 1
-22.5406 9.01561 -2.12394 0.486208 10
-22.5404 9.01554 -1.27228 0.487364 10
-22.5402 9.01546 -0.423745 0.487926 10
-22.5401 9.01539 0.423741 0.487894 10
-22.5399 9.01531 1.27225 0.487267 10
-21.7943 8.7171 2.05362 0.0258793 10
-25.3117 10.124 5.29905 0.446047 10
-25.3137 10.1248 6.29425 0.44275 10
-23.7428 9.49643 6.85186 0.178186 10
-9.4895 3.75716 -2.73475 0.0980406 1
-10.708 4.23961 -2.65886 0.0832346 4
-12.1864 4.82494 -2.54771 0.0517096 4
-16.0893 6.37019 -2.74075 0.0591275 1
-20.7865 8.22996 -2.74503 0.0459912 1
-22.6487 8.96727 -2.13117 0.446074 10
-22.6487 8.96725 -1.27662 0.447132 10
-22.6486 8.96723 -0.425192 0.447645 10
-22.6486 8.96721 0.42519 0.447612 10
-22.6485 8.96719 1.27661 0.447034 10
-21.8237 8.6406 2.05353 0.0258804 10
-25.2397 9.99311 5.27665 0.444765 10
-25.2417 9.99389 6.26763 0.441477 10
-23.7754 9.41336 6.85176 0.178188 10
-9.50269 3.72407 -2.73479 0.0980392 1
-10.7229 4.20228 -2.6589 0.0470449 4
-12.2034 4.78247 -2.54776 0.0657312 4
-16.1118 6.31414 -2.74082 0.0591261 1
-20.8157 8.15761 -2.74511 0.0459898 1
-22.7484 8.915 -2.1376 0.44788 10
-22.7483 8.91498 -1.28047 0.448942 10
-22.7483 8.91496 -0.426476 0.449457 10
-22.7482 8.91493 0.426474 0.449425 10
-22.7482 8.91491 1.28046 0.448845 10
-21.8528 8.56401 2.05344 0.0258814 10
-25.1683 9.86337 5.2545 0.443478 10
-25.1703 9.86414 6.24132 0.4402 10
-23.8078 9.33018 6.85167 0.178191 10
-9.51576 3.69092 -2.73482 0.0980379 1
-10.7377 4.16489 -2.65895 0.049629 4
-12.2203 4.73993 -2.5478 0.048202 4
-16.1341 6.258 -2.74088 0.0591247 1
-20.8447 8.08514 -2.7452 0.0459884 1
-22.8486 8.8624 -2.1441 0.449681 10
-22.8486 8.86238 -1.28436 0.450747 10
-22.8485 8.86236 -0.427773 0.451265 10
-22.8485 8.86234 0.427771 0.451232 10
-22.8484 8.86232 1.28436 0.45065 10
-21.8816 8.48732 2.05336 0.0258825 10
-25.0976 9.7347 5.23259 0.442186 10
-25.0995 9.73545 6.2153 0.438917 10
-23.8399 9.24689 6.85157 0.178193 10
-9.52872 3.65774 -2.73486 0.0980365 1
-10.7524 4.12745 -2.65899 0.0873663 4
-12.237 4.69733 -2.54785 0.0692343 4
-16.1562 6.2018 -2.74095 0.0591233 1
-20.8735 8.01257 -2.74528 0.045987 1
-22.9495 8.80949 -2.15067 0.451476 10
-22.9494 8.80947 -1.2883 0.452547 10
-22.9494 8.80945 -0.429083 0.453066 10
-22.9493 8.80943 0.429081 0.453034 10
-22.9493 8.8094 1.28829 0.452449 10
-21.9102 8.41054 2.05327 0.0258836 10
-25.0274 9.60711 5.21094 0.440888 10
-25.0293 9.60785 6.18958 0.437629 10
-23.8717 9.1635 6.85148 0.178196 10
-9.54156 3.6245 -2.7349 0.0980352 1
-10.7669 4.08995 -2.65903 0.125102 4
-12.2535 4.65468 -2.5479 0.0687948 4
-16.1782 6.1455 -2.74101 0.059122 1
-20.9019 7.9399 -2.74536 0.0459856 1
-23.051 8.75625 -2.1573 0.453266 10
-23.0509 8.75623 -1.29227 0.454341 10
-23.0509 8.7562 -0.430406 0.454863 10
-23.0508 8.75618 0.430405 0.45483 10
-23.0508 8.75616 1.29226 0.454243 10
-21.9385 8.33366 2.05318 0.0258847 10
-24.9578 9.48056 5.18952 0.439585 10
-24.9597 9.48128 6.16413 0.436336 10
-23.9032 9.07998 6.85138 0.178198 10
-9.55429 3.59122 -2.73494 0.0980338 1
-10.7813 4.05241 -2.65907 0.0997701 4
-12.2699 4.61197 -2.54795 0.0490756 4
-16.1999 6.08914 -2.74108 0.0591206 1
-20.9301 7.86713 -2.74544 0.0459842 1
-23.1531 8.70268 -2.164 0.45505 10
-23.153 8.70266 -1.29628 0.456129 10
-23.153 8.70264 -0.431743 0.456653 10
-23.1529 8.70262 0.431741 0.456621 10
-23.1529 8.70259 1.29627 0.456032 10
-21.9665 8.25669 2.0531 0.0258858 10
-24.8887 9.35506 5.16834 0.438277 10
-24.8906 9.35577 6.13898 0.435037 10
-23.9344 8.99637 6.85129 0.1782 10
-9.5669 3.5579 -2.73497 0.0980325 1
-10.7955 4.01482 -2.65912 0.101836 4
-12.2862 4.56919 -2.548 0.0455693 4
-16.2214 6.03269 -2.74114 0.0591192 1
-20.9581 7.79425 -2.74553 0.0459829 1
-23.2559 8.64877 -2.17077 0.456829 10
-23.2558 8.64875 -1.30034 0.457913 10
-23.2557 8.64873 -0.433093 0.458438 10
-23.2557 8.64871 0.433092 0.458406 10
-23.2556 8.64869 1.30033 0.457815 10
-22.0256 8.19125 2.05593 0.213147 10
-24.8202 9.23056 5.1474 0.436963 10
-24.8221 9.23126 6.1141 0.433733 10
-23.9654 8.91264 6.8512 0.178203 10
-9.57939 3.52453 -2.73501 0.0980311 1
-10.8096 3.97717 -2.65916 0.0387695 4
-12.3023 4.52636 -2.54805 0.0503882 4
-16.2428 5.97617 -2.7412 0.0591178 1
-20.9858 7.72128 -2.74561 0.0459815 1
-23.3583 8.59418 -2.17752 0.422731 10
-23.3583 8.5942 -1.30439 0.423732 10
-23.3584 8.59421 -0.434444 0.424216 10
-23.3584 8.59423 0.434444 0.424183 10
-23.3585 8.59424 1.30439 0.423634 10
-22.1362 8.14452 2.06359 0.213847 10
-24.7523 9.10708 5.12669 0.435644 10
-24.7542 9.10776 6.0895 0.432424 10
-23.996 8.82882 6.8511 0.178205 10
-9.58764 3.48962 -2.73387 0.129605 4
-10.8236 3.93948 -2.6592 0.0656487 4
-12.3182 4.48348 -2.54809 0.058274 4
-16.2639 5.91958 -2.74127 0.0591165 1
-21.0133 7.64821 -2.74569 0.0459801 1
-23.4527 8.53608 -2.18353 0.424604 10
-23.4527 8.5361 -1.30799 0.425609 10
-23.4528 8.53612 -0.435642 0.426096 10
-23.4528 8.53613 0.435642 0.426063 10
-23.4528 8.53615 1.30799 0.425512 10
-22.2441 8.09618 2.071 0.197131 10
-24.6849 8.98459 5.1062 0.43432 10
-24.6868 8.98526 6.06517 0.431109 10
-24.0264 8.74489 6.85101 0.178208 10
-9.56724 3.44442 -2.72461 0.102681 4
-10.8375 3.90173 -2.65924 0.0423867 4
-12.3341 4.44053 -2.54814 0.0762367 4
-16.2848 5.8629 -2.74133 0.0591151 1
-21.0405 7.57503 -2.74577 0.0459787 1
-23.5476 8.47766 -2.18959 0.426473 10
-23.5476 8.47767 -1.31162 0.427482 10
-23.5477 8.47769 -0.436853 0.427971 10
-23.5477 8.4777 0.436853 0.427938 10
-23.5478 8.47772 1.31163 0.427385 10
-22.3433 8.04408 2.07761 0.197886 10
-24.6181 8.86305 5.08594 0.43299 10
-24.6199 8.86371 6.0411 0.429789 10
-24.0564 8.66084 6.85092 0.17821 10
-9.54673 3.39944 -2.71537 0.115057 4
-10.8512 3.86394 -2.65928 0.0242944 4
-12.3497 4.39754 -2.54819 0.0648438 4
-16.3056 5.80616 -2.74139 0.0591137 1
-21.0674 7.50177 -2.74585 0.0459774 1
-23.643 8.41891 -2.19572 0.428335 10
-23.6431 8.41892 -1.31529 0.42935 10
-23.6431 8.41894 -0.438075 0.429841 10
-23.6432 8.41895 0.438076 0.429808 10
-23.6432 8.41897 1.3153 0.429252 10
-22.4431 7.99164 2.08429 0.198639 10
-24.5517 8.74249 5.06591 0.431655 10
-24.5536 8.74314 6.0173 0.428464 10
-24.0862 8.57671 6.85083 0.178212 10
-9.52611 3.35467 -2.70616 0.117606 4
-10.4034 3.66362 -2.54639 0.078568 4
-12.3652 4.35448 -2.54824 0.0521369 4
-16.3261 5.74933 -2.74145 0.0591124 1
-21.0941 7.4284 -2.74593 0.045976 1
-23.739 8.35982 -2.20191 0.430193 10
-23.739 8.35984 -1.319 0.431212 10
-23.7391 8.35985 -0.43931 0.431705 10
-23.7391 8.35987 0.439311 0.431673 10
-23.7392 8.35989 1.31901 0.431114 10
-22.5436 7.93887 2.09104 0.19939 10
-24.4859 8.62286 5.04609 0.430315 10
-24.4878 8.6235 5.99375 0.427134 10
-24.1157 8.49246 6.85074 0.178215 10
-9.50539 3.31013 -2.69698 0.126379 4
-10.4163 3.62734 -2.54643 0.0434185 4
-12.3806 4.31137 -2.54828 0.0503835 4
-16.3464 5.69244 -2.74152 0.059111 1
-21.1205 7.35494 -2.74602 0.0459747 1
-23.8355 8.30041 -2.20816 0.432046 10
-23.8356 8.30043 -1.32274 0.433069 10
-23.8356 8.30044 -0.440558 0.433565 10
-23.8356 8.30046 0.440558 0.433532 10
-23.8357 8.30047 1.32275 0.432971 10
-22.6448 7.88575 2.09785 0.200138 10
-24.4206 8.50417 5.02648 0.428969 10
-24.4225 8.5048 5.97047 0.425799 10
-24.1448 8.40812 6.85064 0.178217 10
-9.48457 3.2658 -2.68782 0.104905 4
-10.4291 3.59101 -2.54647 0.0584073 4
-12.3958 4.26821 -2.54833 0.0608972 4
-16.3666 5.63547 -2.74158 0.0591097 1
-21.1467 7.28138 -2.7461 0.0459733 1
-23.9326 8.24065 -2.21448 0.433893 10
-23.9326 8.24067 -1.32653 0.434921 10
-23.9327 8.24068 -0.441817 0.435419 10
-23.9327 8.2407 0.441818 0.435386 10
-23.9328 8.24071 1.32653 0.434823 10
-22.7466 7.83229 2.10474 0.200883 10
-24.3559 8.38639 5.00709 0.427619 10
-24.3577 8.38701 5.94743 0.424458 10
-24.1737 8.32367 6.85055 0.17822 10
-9.46365 3.22169 -2.67869 0.151856 4
-10.4417 3.55464 -2.54651 0.0770137 4
-12.4108 4.22499 -2.54838 0.0556388 4
-16.3865 5.57843 -2.74164 0.0591084 1
-21.1726 7.20774 -2.74618 0.045972 1
-24.0302 8.18056 -2.22086 0.435735 10
-24.0303 8.18057 -1.33035 0.436767 10
-24.0303 8.18059 -0.44309 0.437267 10
-24.0303 8.1806 0.44309 0.437235 10
-24.0304 8.18062 1.33036 0.436669 10
-22.8491 7.77847 2.1117 0.201626 10
-24.2898 8.26893 4.06394 0.428894 10
-24.2916 8.26953 4.98791 0.426263 10
-24.2934 8.27014 5.92465 0.423112 10
-24.2023 8.23913 6.85046 0.178222 10
-9.44263 3.1778 -2.66958 0.125964 4
-10.4542 3.51823 -2.54655 0.0723607 4
-12.4257 4.18172 -2.54843 0.056514 4
-16.4063 5.52133 -2.7417 0.059107 1
-21.1982 7.134 -2.74626 0.0459706 1
-24.1284 8.12012 -2.2273 0.437571 10
-24.1284 8.12013 -1.33421 0.438608 10
-24.1285 8.12014 -0.444375 0.43911 10
-24.1285 8.12016 0.444375 0.439078 10
-24.1286 8.12017 1.33421 0.43851 10
-22.9455 7.72202 2.1181 0.187837 10
-24.226 8.15296 4.04848 0.427525 10
-24.2278 8.15356 4.96894 0.424902 10
-24.2295 8.15415 5.90211 0.421761 10
-24.2306 8.1545 6.85037 0.178224 10
-9.42151 3.13412 -2.6605 0.0700014 4
-10.4712 3.48332 -2.54772 0.205962 4
-12.4405 4.1384 -2.54847 0.06177 4
-16.4258 5.46415 -2.74177 0.0591057 1
-21.2236 7.06016 -2.74634 0.0459693 1
-24.2306 8.06047 -2.23412 0.464574 10
-24.2306 8.06046 -1.33829 0.465677 10
-24.2306 8.06045 -0.445734 0.466212 10
-24.2306 8.06044 0.445733 0.46618 10
-24.2305 8.06043 1.33829 0.465579 10
-23.0397 7.66427 2.12431 0.188621 10
-24.2305 8.0604 3.13542 0.396408 10
-24.2304 8.06039 4.04449 0.394439 10
-24.2304 8.06038 4.96368 0.39199 10
-24.2304 8.06037 5.89542 0.389064 10
-24.2303 8.06036 6.84231 0.385664 10
-9.42395 3.09844 -2.65812 0.042839 4
-10.5142 3.45689 -2.55522 0.146584 4
-12.4551 4.09502 -2.54852 0.05695 4
-16.4452 5.4069 -2.74183 0.0591044 1
-21.2488 6.98624 -2.74642 0.0459679 1
-24.3374 8.00175 -2.24138 0.466322 10
-24.3374 8.00174 -1.34264 0.467429 10
-24.3374 8.00173 -0.447182 0.467967 10
-24.3373 8.00172 0.447181 0.467934 10
-24.3373 8.00171 1.34263 0.467332 10
-23.1344 7.6062 2.13058 0.189402 10
-24.3372 8.00169 3.14561 0.3979 10
-24.3372 8.00168 4.05763 0.395924 10
-24.3372 8.00167 4.9798 0.393466 10
-24.3372 8.00166 5.91457 0.390529 10
-24.3371 8.00165 6.86453 0.387116 10
-9.43484 3.06556 -2.65816 0.0404585 4
-10.5573 3.43029 -2.56279 0.151615 4
-12.4695 4.05159 -2.54857 0.0538825 4
-16.4643 5.34958 -2.74189 0.059103 1
-21.2736 6.91222 -2.7465 0.0459666 1
-24.4449 7.94264 -2.24871 0.468065 10
-24.4449 7.94263 -1.34703 0.469176 10
-24.4449 7.94262 -0.448645 0.469716 10
-24.4448 7.94261 0.448644 0.469683 10
-24.4448 7.9426 1.34703 0.469079 10
-23.2297 7.54777 2.13692 0.190181 10
-24.4447 7.94258 3.1559 0.399388 10
-24.4447 7.94257 4.07091 0.397405 10
-24.4447 7.94256 4.99609 0.394938 10
-24.4447 7.94255 5.93392 0.39199 10
-24.4446 7.94254 6.88699 0.388564 10
-9.4456 3.03265 -2.65819 0.115424 4
-10.6008 3.40354 -2.57043 0.212036 4
-12.4838 4.00812 -2.54861 0.0389874 4
-16.4833 5.2922 -2.74195 0.0591017 1
-21.2982 6.83812 -2.74658 0.0459653 1
-24.5531 7.88315 -2.25612 0.469802 10
-24.5531 7.88314 -1.35147 0.470917 10
-24.5531 7.88313 -0.450123 0.471459 10
-24.553 7.88312 0.450122 0.471427 10
-24.553 7.88311 1.35146 0.47082 10
-23.3255 7.48901 2.14332 0.190958 10
-24.5529 7.88309 3.1663 0.40087 10
-24.5529 7.88308 4.08432 0.39888 10
-24.5529 7.88307 5.01255 0.396404 10
-24.5528 7.88306 5.95347 0.393445 10
-24.5528 7.88305 6.90968 0.390007 10
-9.45626 2.9997 -2.65823 0.120777 4
-10.6444 3.37661 -2.57814 0.165688 4
-12.498 3.96459 -2.54866 0.0674602 4
-16.502 5.23474 -2.74201 0.0591004 1
-21.3226 6.76392 -2.74665 0.045964 1
-24.662 7.82326 -2.26361 0.471533 10
-24.662 7.82325 -1.35595 0.472653 10
-24.662 7.82324 -0.451616 0.473197 10
-24.662 7.82323 0.451616 0.473164 10
-24.6619 7.82322 1.35595 0.472555 10
-23.4219 7.42987 2.14978 0.191732 10
-24.6619 7.8232 3.1768 0.402348 10
-24.6618 7.82319 4.09787 0.400351 10
-24.6618 7.82318 5.02918 0.397866 10
-24.6618 7.82317 5.97322 0.394896 10
-24.6617 7.82316 6.9326 0.391445 10
-9.46679 2.96671 -2.65826 0.114826 4
-10.6884 3.34953 -2.58593 0.132057 4
-12.5119 3.92101 -2.5487 0.0464328 4
-16.5205 5.17722 -2.74207 0.0590991 1
-21.3467 6.68965 -2.74673 0.0459626 1
-24.7717 7.76298 -2.27117 0.473259 10
-24.7717 7.76297 -1.36048 0.474383 10
-24.7716 7.76296 -0.453125 0.474929 10
-24.7716 7.76295 0.453124 0.474896 10
-24.7716 7.76294 1.36048 0.474285 10
-23.5189 7.37039 2.15631 0.192504 10
-24.7715 7.76292 3.18741 0.403821 10
-24.7715 7.76291 4.11156 0.401816 10
-24.7714 7.7629 5.04598 0.399322 10
-24.7714 7.76289 5.99317 0.396342 10
-24.7714 7.76288 6.95576 0.392878 10
-9.47722 2.93369 -2.6583 0.120774 4
-10.7325 3.32227 -2.5938 0.12334 4
-12.5258 3.87738 -2.54875 0.0451178 4
-16.5389 5.11963 -2.74213 0.0590978 1
-21.3705 6.61528 -2.74681 0.0459613 1
-24.8821 7.70229 -2.27881 0.474978 10
-24.882 7.70227 -1.36506 0.476107 10
-24.882 7.70226 -0.45465 0.476655 10
-24.882 7.70225 0.454649 0.476622 10
-24.8819 7.70225 1.36505 0.476009 10
-23.6166 7.31054 2.16291 0.193274 10
-24.8819 7.70223 3.19814 0.405289 10
-24.8818 7.70222 4.12539 0.403277 10
-24.8818 7.70221 5.06296 0.400774 10
-24.8818 7.7022 6.01334 0.397783 10
-24.8817 7.70219 6.97916 0.394307 10
-9.48752 2.90063 -2.65833 0.0999498 4
-10.777 3.29485 -2.60174 0.133796 4
-12.5395 3.8337 -2.5488 0.0560678 4
-16.557 5.06199 -2.74219 0.0590965 1
-21.3941 6.54083 -2.74689 0.04596 1
-24.9932 7.64119 -2.28653 0.476692 10
-24.9932 7.64118 -1.36968 0.477825 10
-24.9931 7.64117 -0.45619 0.478375 10
-24.9931 7.64116 0.456189 0.478342 10
-24.9931 7.64115 1.36968 0.477727 10
-23.7147 7.25033 2.16957 0.194041 10
-24.993 7.64113 3.20897 0.406752 10
-24.993 7.64112 4.13937 0.404733 10
-24.9929 7.64111 5.08011 0.402221 10
-24.9929 7.6411 6.03371 0.399219 10
-24.9929 7.64109 7.00281 0.395731 10
-9.49771 2.86753 -2.65836 0.103518 4
-10.8217 3.26725 -2.60976 0.167288 4
-12.553 3.78998 -2.54884 0.0508105 4
-16.5749 5.00427 -2.74225 0.0590952 1
-21.4174 6.4663 -2.74697 0.0459587 1
-25.1051 7.57968 -2.29433 0.4784 10
-25.105 7.57967 -1.37436 0.479537 10
-25.105 7.57966 -0.457746 0.480089 10
-25.105 7.57965 0.457745 0.480057 10
-25.1049 7.57964 1.37435 0.479439 10
-23.8202 7.19176 2.17691 0.204939 10
-25.1049 7.57962 3.21992 0.40821 10
-25.1048 7.57961 4.15349 0.406184 10
-25.1048 7.5796 5.09744 0.403663 10
-25.1048 7.57959 6.05429 0.400651 10
-25.1047 7.57958 7.0267 0.39715 10
-9.50779 2.8344 -2.6584 0.129099 4
-10.8666 3.23948 -2.61786 0.158518 4
-12.5664 3.7462 -2.54889 0.0595699 4
-16.5927 4.94649 -2.74231 0.0590939 1
-21.4404 6.39168 -2.74705 0.0459574 1
-25.2177 7.51773 -2.30222 0.480103 10
-25.2177 7.51772 -1.37908 0.481243 10
-25.2177 7.51771 -0.459319 0.481798 10
-25.2176 7.5177 0.459318 0.481765 10
-25.2176 7.51769 1.37907 0.481146 10
-23.9271 7.13299 2.18439 0.205669 10
-25.2175 7.51768 3.23098 0.409663 10
-25.2175 7.51766 4.16776 0.40763 10
-25.2175 7.51765 5.11496 0.4051 10
-25.2174 7.51764 6.0751 0.402077 10
-25.2174 7.51763 7.05084 0.398564 10
-9.51774 2.80123 -2.65843 0.115414 4
-10.9118 3.21153 -2.62604 0.175451 4
-12.5796 3.70238 -2.54893 0.0604448 4
-16.6102 4.88865 -2.74237 0.0590926 1
-21.4632 6.31698 -2.74712 0.0459561 1
-25.3311 7.45537 -2.31018 0.481799 10
-25.3311 7.45536 -1.38385 0.482944 10
-25.3311 7.45535 -0.460908 0.4835 10
-25.331 7.45534 0.460907 0.483468 10
-25.331 7.45533 1.38385 0.482846 10
-24.0347 7.07382 2.19195 0.206396 10
-25.3309 7.45531 3.24216 0.411111 10
-25.3309 7.4553 4.18218 0.409071 10
-25.3309 7.45529 5.13265 0.406533 10
-25.3308 7.45528 6.09611 0.403499 10
-25.3308 7.45527 7.07523 0.399973 10
-9.52759 2.76802 -2.65847 0.0255811 4
-10.9573 3.1834 -2.6343 0.139814 4
-12.5927 3.65851 -2.54898 0.0643857 4
-16.6275 4.83074 -2.74243 0.0590913 1
-21.4858 6.24219 -2.7472 0.0459548 1
-25.4454 7.39256 -2.31823 0.48349 10
-25.4453 7.39255 -1.38867 0.484639 10
-25.4453 7.39254 -0.462514 0.485197 10
-25.4453 7.39253 0.462513 0.485165 10
-25.4452 7.39252 1.38867 0.484541 10
-24.1431 7.01422 2.19959 0.20712 10
-25.4452 7.39251 3.25346 0.412555 10
-25.4451 7.3925 4.19675 0.410507 10
-25.4451 7.39249 5.15054 0.40796 10
-25.4451 7.39248 6.11735 0.404915 10
-25.445 7.39247 7.09989 0.401378 10
-9.53731 2.73478 -2.6585 0.0261756 4
-11.0031 3.15509 -2.64264 0.170066 4
-12.6056 3.6146 -2.54902 0.0547488 4
-16.6446 4.77278 -2.74249 0.05909 1
-21.508 6.16733 -2.74728 0.0459535 1
-25.5604 7.32933 -2.32636 0.485174 10
-25.5603 7.32932 -1.39354 0.486327 10
-25.5603 7.32931 -0.464137 0.486888 10
-25.5603 7.3293 0.464136 0.486856 10
-25.5602 7.32929 1.39354 0.48623 10
-24.2522 6.95422 2.2073 0.207842 10
-25.5602 7.32927 3.26487 0.413993 10
-25.5601 7.32926 4.21147 0.411938 10
-25.5601 7.32925 5.16861 0.409382 10
-25.5601 7.32924 6.13881 0.406327 10
-25.56 7.32923 7.12479 0.402777 10
-9.54692 2.70151 -2.65854 0.0285549 4
-11.0492 3.1266 -2.65106 0.177397 4
-12.6183 3.57063 -2.54907 0.0652594 4
-16.6616 4.71475 -2.74255 0.0590887 1
-21.53 6.09238 -2.74735 0.0459523 1
-25.6762 7.26563 -2.33458 0.486853 10
-25.6762 7.26563 -1.39847 0.488011 10
-25.6761 7.2656 1.39846 0.487915 10
-24.3621 6.89379 2.2151 0.208561 10
-25.676 7.26558 3.27641 0.415426 10
-25.6759 7.26555 6.16051 0.407734 10
-25.6759 7.26554 7.14997 0.404172 10
-9.55642 2.6682 -2.65857 0.0184415 4
-11.0955 3.09792 -2.65957 0.159421 4
-12.631 3.52663 -2.54911 0.0560608 4
-16.6783 4.65666 -2.74261 0.0590875 1
-21.5518 6.01736 -2.74743 0.045951 1
-25.7929 7.2015 -2.34289 0.488526 10
-25.7928 7.20149 -1.40344 0.489687 10
-25.7927 7.20146 1.40344 0.489592 10
-24.4728 6.83294 2.22298 0.209278 10
-25.7927 7.20144 3.28806 0.416854 10
-25.7925 7.20141 6.18242 0.409136 10
-25.7925 7.2014 7.17541 0.405561 10
-9.56579 2.63486 -2.6586 0.0172515 4
-11.1421 3.06904 -2.66816 0.169367 4
-12.6434 3.48257 -2.54916 0.0586876 4
-16.6948 4.59851 -2.74267 0.0590862 1
-21.5732 5.94226 -2.74751 0.0459497 1
-25.9103 7.1369 -2.35128 0.490193 10
-25.9103 7.13689 -1.40847 0.491359 10
-25.9102 7.13686 1.40847 0.491263 10
-24.5843 6.77164 2.23095 0.209993 10
-25.9101 7.13684 3.29985 0.418277 10
-25.91 7.13681 6.20458 0.410533 10
-25.91 7.1368 7.20112 0.406946 10
-9.57505 2.60149 -2.65864 0.00773332 4
-11.189 3.03999 -2.67683 0.139691 4
-12.6557 3.43848 -2.5492 0.0578107 4
-16.7111 4.54031 -2.74273 0.0590849 1
-21.5944 5.86708 -2.74758 0.0459484 1
-26.0287 7.07184 -2.35977 0.491854 10
-26.0286 7.07183 -1.41355 0.493023 10
-26.0285 7.0718 1.41355 0.492927 10
-24.6966 6.70991 2.239 0.210704 10
-26.0285 7.07178 3.31175 0.419694 10
-26.0284 7.07175 6.22696 0.411925 10
-26.0283 7.07174 7.2271 0.408326 10
-9.5842 2.56808 -2.65867 0.0779271 4
-11.2362 3.01073 -2.68559 0.149623 4
-12.6679 3.39435 -2.54925 0.0591236 4
-16.7272 4.48205 -2.74279 0.0590837 1
-21.6154 5.79183 -2.74766 0.0459472 1
-26.1479 7.00631 -2.36834 0.493509 10
-26.1478 7.0063 -1.41869 0.494682 10
-26.1477 7.00627 1.41868 0.494586 10
-24.8097 6.64773 2.24713 0.211413 10
-26.1477 7.00625 3.32378 0.421107 10
-26.1475 7.00622 6.24959 0.413311 10
-26.1475 7.00621 7.25336 0.409701 10
-9.59322 2.53464 -2.6587 0.0791158 4
-11.2837 2.98128 -2.69444 0.188223 4
-12.6798 3.35016 -2.54929 0.0573708 4
-16.7431 4.42372 -2.74285 0.0590824 1
-21.6361 5.7165 -2.74773 0.0459459 1
-26.2679 6.94029 -2.37701 0.495158 10
-26.2679 6.94028 -1.42388 0.496335 10
-26.2678 6.94025 1.42388 0.496239 10
-24.9236 6.58509 2.25535 0.21212 10
-26.2677 6.94023 3.33595 0.422515 10
-26.2676 6.9402 6.27245 0.414693 10
-26.2676 6.94019 7.2799 0.411071 10
-9.60213 2.50117 -2.65874 0.0339064 4
-11.3315 2.95163 -2.70337 0.162713 4
-12.6917 3.30594 -2.54933 0.0683182 4
-16.7588 4.36534 -2.7429 0.0590812 1
-21.6565 5.64109 -2.74781 0.0459446 1
-26.3889 6.87379 -2.38576 0.496801 10
-26.3888 6.87378 -1.42913 0.497982 10
-26.3887 6.87375 1.42912 0.497886 10
-25.0383 6.522 2.26366 0.212824 10
-26.3887 6.87374 3.34824 0.423917 10
-26.3885 6.87371 6.29556 0.41607 10
-26.3885 6.8737 7.30672 0.412435 10
-9.61092 2.46767 -2.65877 0.0101123 4
-11.3796 2.92178 -2.7124 0.176296 4
-12.7261 3.26751 -2.55394 0.129809 4
-16.7743 4.3069 -2.74296 0.0590799 1
-21.6766 5.56561 -2.74788 0.0459434 1
-26.5107 6.80679 -2.39462 0.498438 10
-26.5107 6.80679 -1.43443 0.499623 10
-26.5106 6.80676 1.43443 0.499527 10
-25.1539 6.45843 2.27206 0.213526 10
-26.5105 6.80674 3.36066 0.425314 10
-26.5104 6.80671 6.31893 0.417442 10
-26.5103 6.8067 7.33383 0.413795 10
-9.6196 2.43413 -2.6588 0.032121 4
-11.428 2.89173 -2.72151 0.182011 4
-12.7775 3.23321 -2.56198 0.151097 4
-16.7896 4.24842 -2.74302 0.0590787 1
-21.6965 5.49007 -2.74796 0.0459421 1
-26.6335 6.73931 -2.40357 0.500068 10
-26.6334 6.7393 -1.43979 0.501258 10
-26.6333 6.73927 1.43979 0.501162 10
-25.2704 6.3944 2.28055 0.214224 10
-26.6332 6.73925 3.37322 0.426706 10
-26.6331 6.73922 6.34254 0.418808 10
-26.6331 6.73921 7.36124 0.41515 10
-9.62816 2.40057 -2.65884 0.0154655 4
-11.4767 2.86146 -2.73072 0.168389 4
-12.8292 3.19868 -2.57009 0.0414895 4
-16.8047 4.18987 -2.74308 0.0590774 1
-21.7161 5.41444 -2.74803 0.0459409 1
-26.7571 6.6713 -2.41261 0.501693 10
-26.7571 6.67129 -1.44521 0.502886 10
-26.7571 6.67128 -0.481344 0.503467 10
-26.757 6.67128 0.481343 0.503435 10
-26.757 6.67127 1.4452 0.502789 10
-25.3877 6.32987 2.28914 0.214921 10
-26.7569 6.67125 3.38591 0.428093 10
-26.7569 6.67124 4.36761 0.42597 10
-26.7568 6.67123 5.36023 0.423328 10
-26.7568 6.67122 6.36641 0.42017 10
-26.7568 6.67121 7.38894 0.4165 10
-9.63659 2.36698 -2.65887 0.0344995 4
-11.5163 2.82867 -2.73777 0.0851175 1
-12.8812 3.16393 -2.57827 0.125954 4
-16.8195 4.13127 -2.74313 0.0590762 1
-21.7355 5.33875 -2.74811 0.0459397 1
-26.8817 6.60279 -2.42175 0.503311 10
-26.8817 6.60278 -1.45069 0.504509 10
-26.8817 6.60277 -0.483168 0.505092 10
-26.8816 6.60277 0.483167 0.505059 10
-26.8816 6.60276 1.45068 0.504411 10
-25.506 6.26487 2.29781 0.215614 10
-26.8815 6.60274 3.39874 0.429475 10
-26.8815 6.60273 4.38416 0.427345 10
-26.8814 6.60272 5.38054 0.424694 10
-26.8814 6.60271 6.39053 0.421526 10
-26.8814 6.6027 7.41693 0.417844 10
-9.64492 2.33335 -2.6589 0.12491 4
-11.5262 2.78849 -2.73781 0.0851162 1
-12.9335 3.12894 -2.58654 0.135639 4
-16.8342 4.07262 -2.74319 0.059075 1
-21.7546 5.26298 -2.74818 0.0459384 1
-27.0073 6.53375 -2.431 0.504924 10
-27.0073 6.53374 -1.45622 0.506125 10
-27.0072 6.53373 -0.485012 0.50671 10
-27.0072 6.53372 0.485011 0.506678 10
-27.0072 6.53372 1.45622 0.506026 10
-25.6251 6.19936 2.30658 0.216305 10
-27.0071 6.5337 3.41171 0.430851 10
-27.007 6.53369 4.40089 0.428715 10
-27.007 6.53368 5.40107 0.426055 10
-27.007 6.53367 6.41492 0.422877 10
-27.0069 6.53366 7.44524 0.419184 10
-9.65312 2.2997 -2.65893 0.129073 4
-11.5361 2.74828 -2.73784 0.085115 1
-12.9861 3.09373 -2.59489 0.141133 4
-16.8487 4.01392 -2.74325 0.0590737 1
-21.7734 5.18716 -2.74826 0.0459372 1
-27.1338 6.46419 -2.44034 0.50653 10
-27.1338 6.46418 -1.46182 0.507735 10
-27.1337 6.46417 -0.486876 0.508322 10
-27.1337 6.46416 0.486875 0.50829 10
-27.1337 6.46415 1.46181 0.507636 10
-25.7451 6.13336 2.31544 0.216994 10
-27.1336 6.46414 3.42482 0.432223 10
-27.1336 6.46413 4.4178 0.430079 10
-27.1335 6.46412 5.42183 0.427411 10
-27.1335 6.46411 6.43957 0.424223 10
-27.1334 6.4641 7.47385 0.420518 10
-9.6612 2.26602 -2.65896 0.113011 4
-11.5457 2.70803 -2.73788 0.0851138 1
-13.039 3.05828 -2.60332 0.104837 4
-16.8629 3.95517 -2.7433 0.0590725 1
-21.7919 5.11126 -2.74833 0.045936 1
-27.2613 6.39409 -2.44978 0.50813 10
-27.2613 6.39408 -1.46747 0.509339 10
-27.2612 6.39407 -0.48876 0.509928 10
-27.2612 6.39406 0.488759 0.509894 10
-27.2612 6.39405 1.46747 0.50924 10
-25.8661 6.06685 2.3244 0.217679 10
-27.2611 6.39404 3.43808 0.433588 10
-27.261 6.39403 4.4349 0.431438 10
-27.261 6.39402 5.44281 0.428762 10
-27.261 6.39401 6.46449 0.425564 10
-27.2609 6.394 7.50277 0.421847 10
-9.66917 2.23231 -2.659 0.130854 4
-11.5553 2.66775 -2.73792 0.0851126 1
-13.0923 3.02259 -2.61182 0.126617 4
-16.877 3.89635 -2.74336 0.0590713 1
-21.8102 5.03529 -2.7484 0.0459347 1
-27.3898 6.32344 -2.45933 0.509724 10
-27.3898 6.32343 -1.47319 0.510937 10
-27.3897 6.32342 -0.490665 0.511528 10
-27.3897 6.32341 0.490664 0.511494 10
-27.3897 6.3234 1.47319 0.510838 10
-25.988 5.99981 2.33346 0.218362 10
-27.3896 6.32338 3.45148 0.434949 10
-27.3895 6.32338 4.45219 0.432792 10
-27.3895 6.32337 5.46402 0.430108 10
-27.3895 6.32336 6.48968 0.4269 10
-27.3894 6.32335 7.53202 0.423172 10
-9.67702 2.19857 -2.65903 0.120741 4
-11.5647 2.62744 -2.73796 0.0851114 1
-13.1459 2.98667 -2.62042 0.0987873 4
-16.8908 3.8375 -2.74342 0.0590701 1
-21.8283 4.95926 -2.74847 0.0459335 1
-27.5193 6.25224 -2.46898 0.511312 10
-27.5193 6.25223 -1.47898 0.512529 10
-27.5192 6.25222 -0.492591 0.51312 10
-27.5192 6.25221 0.49259 0.513087 10
-27.5191 6.2522 1.47897 0.512429 10
-26.1109 5.93226 2.34262 0.219043 10
-27.5191 6.25219 3.46503 0.436304 10
-27.519 6.25218 4.46966 0.434141 10
-27.519 6.25217 5.48547 0.431448 10
-27.5189 6.25216 6.51516 0.42823 10
-27.5189 6.25215 7.56158 0.42449 10
-9.68476 2.1648 -2.65906 0.115981 4
-11.574 2.58709 -2.738 0.0851102 1
-13.1998 2.9505 -2.62909 0.118367 4
-16.9044 3.77859 -2.74347 0.0590689 1
-21.846 4.88316 -2.74855 0.0459323 1
-27.6498 6.18047 -2.47874 0.512893 10
-27.6498 6.18046 -1.48482 0.514114 10
-27.6497 6.18045 -0.494538 0.514707 10
-27.6497 6.18044 0.494537 0.514675 10
-27.6497 6.18043 1.48482 0.514015 10
-26.2347 5.86416 2.35188 0.21972 10
-27.6496 6.18042 3.47872 0.437654 10
-27.6496 6.18041 4.48733 0.435484 10
-27.6495 6.1804 5.50715 0.432784 10
-27.6495 6.18039 6.54091 0.429556 10
-27.6494 6.18038 7.59147 0.425804 10
-9.69237 2.13101 -2.65909 0.14096 4
-11.5831 2.54671 -2.73804 0.0851091 1
-13.254 2.91408 -2.63785 0.142739 4
-16.9179 3.71964 -2.74353 0.0590677 1
-21.8635 4.80701 -2.74862 0.0459311 1
-27.7814 6.10814 -2.48861 0.514468 10
-27.7813 6.10813 -1.49073 0.515692 10
-27.7813 6.10812 -0.496507 0.516288 10
-27.7812 6.10811 0.496506 0.516256 10
-27.7812 6.1081 1.49073 0.515594 10
-26.3596 5.79553 2.36124 0.220395 10
-27.7811 6.10809 3.49257 0.438999 10
-27.7811 6.10808 4.50519 0.436822 10
-27.7811 6.10807 5.52907 0.434113 10
-27.781 6.10806 6.56695 0.430876 10
-27.781 6.10805 7.62169 0.427113 10
-9.69987 2.09718 -2.65913 0.0618552 4
-11.5921 2.50629 -2.73807 0.0851079 1
-13.3086 2.87741 -2.6467 0.110248 4
-16.9311 3.66063 -2.74358 0.0590665 1
-21.8807 4.73078 -2.74869 0.0459299 1
-27.914 6.03522 -2.49859 0.516036 10
-27.9139 6.03521 -1.49671 0.517265 10
-27.9139 6.0352 -0.498497 0.517863 10
-27.9139 6.03519 0.498496 0.51783 10
-27.9138 6.03518 1.4967 0.517167 10
-26.4854 5.72634 2.37071 0.221068 10
-27.9138 6.03517 3.50657 0.440338 10
-27.9137 6.03516 4.52325 0.438155 10
-27.9137 6.03515 5.55124 0.435438 10
-27.9136 6.03514 6.59327 0.43219 10
-27.9136 6.03513 7.65224 0.428416 10
-9.70724 2.06334 -2.65916 0.0261692 4
-11.6009 2.46585 -2.73811 0.0851067 1
-13.3635 2.8405 -2.65563 0.112661 4
-16.9441 3.60159 -2.74364 0.0590653 1
-21.8977 4.6545 -2.74876 0.0459287 1
-28.0477 5.96172 -2.50867 0.5176 10
-28.0476 5.96171 -1.50275 0.518832 10
-28.0475 5.96169 1.50275 0.518735 10
-26.6122 5.65661 2.38028 0.221737 10
-28.0474 5.96167 3.52073 0.441672 10
-28.0473 5.96164 6.61989 0.4335 10
-28.0473 5.96164 7.68314 0.429714 10
-9.7145 2.02947 -2.65919 0.0243846 4
-11.6096 2.42537 -2.73815 0.0851055 1
-13.4105 2.80161 -2.66302 0.0665508 4
-15.7782 3.29625 -2.55298 0.0283238 4
-21.9144 4.57816 -2.74883 0.0459275 1
-28.1824 5.88762 -2.51887 0.519156 10
-28.1824 5.88762 -1.50886 0.520393 10
-28.1823 5.88759 1.50886 0.520295 10
-26.7401 5.5863 2.38996 0.222404 10
-28.1822 5.88758 3.53504 0.443001 10
-28.1821 5.88755 6.64681 0.434804 10
-28.182 5.88754 7.71437 0.431007 10
-9.72164 1.99557 -2.65922 0.0380634 4
-11.6181 2.38486 -2.73819 0.0851044 1
-13.4205 2.75482 -2.66306 0.0669876 4
-15.79 3.24121 -2.55303 0.0383619 4
-21.9308 4.50174 -2.74891 0.0459263 1
-28.3183 5.81291 -2.52919 0.520707 10
-28.3183 5.81291 -1.51504 0.521946 10
-28.3181 5.81288 1.51503 0.521849 10
-26.869 5.51542 2.39975 0.223069 10
-28.3181 5.81287 3.54952 0.444324 10
-28.3179 5.81284 6.67403 0.436103 10
-28.3179 5.81283 7.74597 0.432295 10
-9.72866 1.96165 -2.65925 0.0249788 4
-11.5802 2.33498 -2.7273 0.110065 4
-13.4302 2.70801 -2.66311 0.0385282 4
-15.8015 3.18614 -2.55308 0.0340589 4
-21.9469 4.42528 -2.74898 0.0459251 1
-28.4553 5.7376 -2.53962 0.52225 10
-28.4552 5.73759 -1.52129 0.523494 10
-28.4551 5.73757 1.52128 0.523396 10
-26.999 5.44396 2.40964 0.22373 10
-28.455 5.73755 3.56416 0.445642 10
-28.4549 5.73753 6.70155 0.437397 10
-28.4549 5.73752 7.77791 0.433577 10
-9.73556 1.92769 -2.65928 0.0214102 4
-11.5355 2.2841 -2.71489 0.105263 4
-13.4398 2.66115 -2.66315 0.039841 4
-15.8128 3.13103 -2.55313 0.0340583 4
-21.9628 4.34875 -2.74905 0.045924 1
-28.5934 5.66165 -2.55017 0.523788 10
-28.5934 5.66164 -1.52761 0.525035 10
-28.5932 5.66162 1.5276 0.524937 10
-27.13 5.37189 2.41965 0.224389 10
-28.5932 5.6616 3.57896 0.446954 10
-28.593 5.66158 6.72938 0.438685 10
-28.593 5.66157 7.81021 0.434855 10
-9.74235 1.89372 -2.65931 0.0386568 4
-11.491 2.23362 -2.70256 0.103566 4
-13.4492 2.61427 -2.66319 0.0582282 4
-15.824 3.07587 -2.55318 0.0473221 4
-21.9784 4.27217 -2.74912 0.0459228 1
-28.7327 5.58507 -2.56083 0.525318 10
-28.7326 5.58507 -1.534 0.52657 10
-28.7325 5.58504 1.53399 0.526472 10
-27.2622 5.29924 2.42977 0.225045 10
-28.7324 5.58503 3.59393 0.448261 10
-28.7323 5.585 6.75753 0.439968 10
-28.7323 5.58499 7.84288 0.436126 10
-9.74901 1.85972 -2.65934 0.0344933 4
-11.4465 2.18354 -2.69029 0.117308 4
-13.4585 2.56734 -2.66324 0.0166364 4
-15.8349 3.02067 -2.55323 0.0480382 4
-21.9937 4.19553 -2.74919 0.0459216 1
-28.8731 5.50784 -2.57162 0.526843 10
-28.8731 5.50784 -1.54046 0.528098 10
-28.873 5.50781 1.54045 0.528 10
-27.3954 5.22596 2.44001 0.225698 10
-28.8729 5.5078 3.60907 0.449562 10
-28.8728 5.50777 6.786 0.441245 10
-28.8727 5.50776 7.87592 0.437393 10
-9.75556 1.8257 -2.65937 0.0410347 4
-11.4022 2.13387 -2.67811 0.0909353 4
-13.4676 2.52039 -2.66328 0.0512216 4
-15.8457 2.96544 -2.55328 0.0437354 4
-22.0088 4.11884 -2.74926 0.0459204 1
-29.0148 5.42997 -2.58253 0.528361 10
-29.0147 5.42996 -1.547 0.52962 10
-29.0146 5.42994 1.54699 0.529522 10
-27.5298 5.15207 2.45036 0.226349 10
-29.0145 5.42992 3.62438 0.450858 10
-29.0144 5.4299 6.81479 0.442518 10
-29.0143 5.42989 7.90934 0.438654 10
-9.76198 1.79166 -2.65941 0.0261667 4
-11.358 2.08458 -2.666 0.108501 4
-15.8563 2.91017 -2.55333 0.044093 4
-22.0236 4.04209 -2.74933 0.0459193 1
-29.1576 5.35142 -2.59357 0.529873 10
-29.1576 5.35142 -1.55361 0.531135 10
-29.1575 5.35141 -0.517448 0.531751 10
-29.1575 5.3514 0.517446 0.531718 10
-29.1575 5.35139 1.5536 0.531038 10
-27.6654 5.07754 2.46083 0.226997 10
-29.1574 5.35138 3.63987 0.452149 10
-29.1573 5.35137 4.6952 0.449908 10
-29.1573 5.35136 5.76227 0.447118 10
-29.1572 5.35135 6.84391 0.443785 10
-29.1572 5.35134 7.94314 0.43991 10
-9.76829 1.75759 -2.65944 0.0243824 4
-11.3443 2.04117 -2.6611 0.0346088 4
-13.4853 2.42638 -2.66336 0.0529711 4
-15.8666 2.85486 -2.55338 0.0473184 4
-22.0381 3.96529 -2.7494 0.0459181 1
-29.3017 5.27221 -2.60473 0.531378 10
-29.3016 5.2722 -1.56029 0.532644 10
-29.3016 5.27219 -0.519675 0.533261 10
-29.3016 5.27219 0.519673 0.533229 10
-29.3015 5.27218 1.56029 0.532546 10
-27.802 5.00238 2.47142 0.227642 10
-29.3014 5.27216 3.65554 0.453434 10
-29.3014 5.27216 4.71541 0.451186 10
-29.3013 5.27215 5.78707 0.448389 10
-29.3013 5.27214 6.87337 0.445046 10
-29.3013 5.27213 7.97732 0.44116 10
-9.77448 1.72351 -2.65947 0.0297343 4
-11.3515 2.00159 -2.66114 0.0309926 4
-12.9208 2.2783 -2.5503 0.0590991 4
-15.8768 2.79951 -2.55343 0.0376389 4
-22.0524 3.88844 -2.74947 0.045917 1
-29.447 5.19231 -2.61602 0.532877 10
-29.447 5.1923 -1.56706 0.534146 10
-29.4469 5.1923 -0.521927 0.534765 10
-29.4469 5.19229 0.521926 0.534733 10
-29.4468 5.19228 1.56705 0.534049 10
-27.9399 4.92657 2.48214 0.228284 10
-29.4467 5.19227 3.67138 0.454713 10
-29.4467 5.19226 4.73585 0.452459 10
-29.4467 5.19225 5.81215 0.449654 10
-29.4466 5.19224 6.90316 0.446302 10
-29.4466 5.19223 8.0119 0.442405 10
-9.78055 1.68939 -2.6595 0.033302 4
-11.3586 1.96197 -2.66117 0.0748977 4
-12.9289 2.23321 -2.55034 0.0647891 4
-15.8868 2.74413 -2.55348 0.0516181 4
-22.0664 3.81153 -2.74953 0.0459158 1
-29.5936 5.1117 -2.62744 0.534369 10
-29.5936 5.1117 -1.5739 0.535643 10
-29.5935 5.11169 -0.524206 0.536263 10
-29.5935 5.11168 0.524205 0.536231 10
-29.5934 5.11167 1.57389 0.535545 10
-28.079 4.85009 2.49297 0.228923 10
-29.5933 5.11166 3.68741 0.455987 10
-29.5933 5.11165 4.75653 0.453727 10
-29.5933 5.11164 5.83753 0.450914 10
-29.5932 5.11164 6.9333 0.447552 10
-29.5932 5.11163 8.04688 0.443645 10
-9.78649 1.65526 -2.65953 0.0463844 4
-11.3655 1.92234 -2.66121 0.0924587 4
-12.9368 2.1881 -2.55038 0.0551574 4
-15.8966 2.68871 -2.55353 0.0458819 4
-22.0801 3.73458 -2.7496 0.0459147 1
-29.7415 5.0304 -2.639 0.535855 10
-29.7414 5.03039 -1.58082 0.537132 10
-29.7414 5.03039 -0.526511 0.537754 10
-29.7413 5.03038 0.52651 0.537722 10
-29.7413 5.03037 1.58081 0.537034 10
-28.2193 4.77295 2.50394 0.22956 10
-29.7412 5.03036 3.70363 0.457255 10
-29.7412 5.03035 4.77744 0.454989 10
-29.7411 5.03034 5.86319 0.452169 10
-29.7411 5.03033 6.96379 0.448797 10
-29.741 5.03033 8.08227 0.444879 10
-9.79232 1.62111 -2.65956 0.0410319 4
-11.3723 1.88268 -2.66124 0.0965897 4
-12.9446 2.14296 -2.55042 0.0564698 4
-15.9062 2.63325 -2.55358 0.0580681 4
-22.0936 3.65757 -2.74967 0.0459135 1
-29.8907 4.94837 -2.65069 0.537334 10
-29.8906 4.94836 -1.58782 0.538615 10
-29.8906 4.94835 -0.528843 0.539239 10
-29.8905 4.94835 0.528842 0.539207 10
-29.8905 4.94834 1.58782 0.538517 10
-28.3609 4.69512 2.51503 0.230194 10
-29.8904 4.94832 3.72003 0.458518 10
-29.8904 4.94832 4.7986 0.456246 10
-29.8903 4.94831 5.88917 0.453418 10
-29.8903 4.9483 6.99463 0.450037 10
-29.8902 4.94829 8.11807 0.446108 10
-9.79803 1.58694 -2.65959 0.0499513 4
-11.379 1.84299 -2.66128 0.113117 4
-12.9799 2.10229 -2.55592 0.166968 4
-15.9156 2.57776 -2.55363 0.0559164 4
-22.1067 3.58052 -2.74974 0.0459124 1
-30.0412 4.86561 -2.66251 0.538807 10
-30.0411 4.86561 -1.59491 0.540091 10
-30.0411 4.8656 -0.531202 0.540717 10
-30.041 4.86559 0.531201 0.540685 10
-30.041 4.86559 1.5949 0.539993 10
-30.0409 4.86558 2.66249 0.461493 10
-30.0409 4.86557 3.73663 0.459775 10
-30.0409 4.86556 4.82001 0.457497 10
-30.0408 4.86556 5.91544 0.454661 10
-30.0408 4.86555 7.02583 0.451271 10
-30.0407 4.86554 8.15428 0.447332 10
-9.80362 1.55274 -2.65962 0.0297326 4
-11.3855 1.80328 -2.66131 0.105884 4
-13.04 2.06533 -2.56632 0.153173 4
-15.9248 2.52223 -2.55368 0.0444455 4
-22.1196 3.50341 -2.74981 0.0459113 1
-30.193 4.78211 -2.67448 0.540273 10
-30.193 4.7821 -1.60207 0.541561 10
-30.1929 4.78209 -0.533589 0.542189 10
-30.1929 4.78209 0.533588 0.542156 10
-30.1929 4.78208 1.60206 0.541463 10
-30.1928 4.78207 2.67446 0.462749 10
-30.1928 4.78206 3.75342 0.461027 10
-30.1927 4.78206 4.84167 0.458742 10
-30.1927 4.78205 5.94202 0.455899 10
-30.1926 4.78204 7.05741 0.4525 10
-30.1926 4.78203 8.19092 0.44855 10
-9.80909 1.51853 -2.65965 0.0440037 4
-11.3919 1.76355 -2.66135 0.0521667 4
-13.1006 2.02808 -2.57683 0.0937861 4
-15.9338 2.46668 -2.55372 0.0412189 4
-22.1323 3.42626 -2.74987 0.0459102 1
-30.3463 4.69786 -2.68658 0.541733 10
-30.3462 4.69785 -1.60932 0.543024 10
-30.3462 4.69784 -0.536004 0.543654 10
-30.3461 4.69783 0.536003 0.543621 10
-30.3461 4.69783 1.60932 0.542926 10
-30.346 4.69782 2.68656 0.464 10
-30.346 4.69781 3.7704 0.462272 10
-30.346 4.69781 4.86358 0.459982 10
-30.3459 4.6978 5.96891 0.457131 10
-30.3459 4.69779 7.08935 0.453723 10
-30.3458 4.69778 8.22799 0.449762 10
-9.81444 1.48429 -2.65968 0.0404354 4
-11.3981 1.7238 -2.66138 0.0387372 4
-13.1616 1.99051 -2.58745 0.151629 4
-15.9426 2.41109 -2.55377 0.0516122 4
-22.1446 3.34906 -2.74994 0.045909 1
-30.5021 4.613 -2.69893 0.562905 10
-30.5019 4.61297 -1.61671 0.564249 10
-30.5017 4.61295 -0.538464 0.564904 10
-30.5015 4.61292 0.53846 0.564872 10
-30.5014 4.6129 1.61669 0.564151 10
-34.7727 5.25887 6.83598 0.131669 10
-30.5005 4.61276 7.12167 0.45494 10
-30.5004 4.61276 8.2655 0.450969 10
-9.81967 1.45004 -2.65971 0.0380564 4
-11.4042 1.68402 -2.66141 0.0516489 4
-13.2231 1.95263 -2.59819 0.172902 4
-15.9512 2.35547 -2.55382 0.0433678 4
-22.1567 3.27183 -2.75001 0.0459079 1
-30.6734 4.52946 -2.71268 0.564257 10
-30.6732 4.52943 -1.62495 0.565603 10
-30.6731 4.52941 -0.541206 0.566261 10
-30.6729 4.52938 0.541203 0.566228 10
-30.6727 4.52936 1.62492 0.565506 10
-34.7903 5.13739 6.83588 0.131671 10
-30.6718 4.52922 7.15793 0.551608 10
-9.82478 1.41578 -2.65973 0.0517324 4
-11.4101 1.64423 -2.66145 0.0408021 4
-13.2852 1.91443 -2.60905 0.146614 4
-15.9596 2.29982 -2.55387 0.0537607 4
-22.1686 3.19455 -2.75007 0.0459068 1
-30.8465 4.44506 -2.7266 0.565601 10
-30.8463 4.44504 -1.63329 0.566951 10
-30.8462 4.44501 -0.543984 0.56761 10
-30.846 4.44498 0.54398 0.567578 10
-30.8458 4.44496 1.63326 0.566854 10
-35.1556 5.06601 5.62561 0.541182 10
-34.8075 5.01585 6.83578 0.131673 10
-30.8449 4.44483 7.19466 0.552923 10
-9.82977 1.38148 -2.65976 0.0214063 4
-11.416 1.60441 -2.66148 0.00671418 4
-13.3477 1.8759 -2.62003 0.15504 4
-15.9679 2.24414 -2.55391 0.0512509 4
-22.1801 3.11721 -2.75014 0.0459057 1
-31.0214 4.35978 -2.7407 0.566939 10
-31.0213 4.35976 -1.64173 0.568292 10
-31.0211 4.35973 -0.546796 0.568953 10
-31.0209 4.3597 0.546793 0.56892 10
-31.0207 4.35968 1.6417 0.568195 10
-35.3369 4.96629 5.65182 0.542603 10
-34.8243 4.89423 6.83567 0.131675 10
-31.0198 4.35955 7.23186 0.554231 10
-9.83464 1.34718 -2.65979 0.0493528 4
-11.4216 1.56457 -2.66152 0.0232411 4
-13.4108 1.83705 -2.63113 0.0982495 4
-15.9759 2.18843 -2.55396 0.0501748 4
-22.1914 3.03985 -2.75021 0.0459046 1
-31.1982 4.27362 -2.75497 0.56827 10
-31.198 4.2736 -1.65029 0.569626 10
-31.1978 4.27357 -0.549645 0.570289 10
-31.1976 4.27355 0.549641 0.570256 10
-31.1974 4.27352 1.65026 0.569529 10
-35.52 4.86564 5.67835 0.544017 10
-34.8406 4.77258 6.83557 0.131677 10
-31.1965 4.2734 7.26954 0.555533 10
-9.83939 1.31286 -2.65982 0.0541091 4
-11.4272 1.52471 -2.66155 0.021175 4
-13.4743 1.79786 -2.64236 0.137506 4
-15.9837 2.13268 -2.55401 0.04659 4
-22.2024 2.96243 -2.75027 0.0459035 1
-31.2714 4.17249 -2.76014 0.0327109 1
-31.3755 4.18639 -1.65889 0.543596 10
-31.3755 4.18639 -0.552516 0.544226 10
-31.3755 4.18639 0.552515 0.544194 10
-31.3755 4.18639 1.65889 0.543498 10
-35.7048 4.76403 5.7052 0.545425 10
-34.8565 4.65085 6.83547 0.131679 10
-31.3751 4.18633 7.3077 0.556828 10
-9.84402 1.27852 -2.65985 0.0243786 4
-11.4326 1.48483 -2.66158 0.0459646 4
-13.5384 1.75834 -2.65371 0.132253 4
-15.9914 2.07692 -2.55406 0.058774 4
-22.2131 2.88499 -2.75034 0.0459024 1
-31.2868 4.06345 -2.76023 0.0327098 1
-31.5334 4.09549 -1.66648 0.54505 10
-31.5334 4.09549 -0.555041 0.545682 10
-31.5334 4.09549 0.555041 0.545649 10
-31.5335 4.09549 1.66648 0.544952 10
-35.8913 4.66147 5.73237 0.546826 10
-34.872 4.5291 6.83537 0.131681 10
-9.84853 1.24416 -2.65988 0.0356756 4
-11.4378 1.44493 -2.66162 0.030987 4
-13.6031 1.71847 -2.66519 0.146161 4
-15.9988 2.02112 -2.5541 0.0462299 4
-22.2236 2.80749 -2.7504 0.0459014 1
-31.3018 3.95434 -2.76032 0.0327087 1
-31.6928 4.00374 -1.67415 0.546497 10
-31.6928 4.00374 -0.557598 0.547131 10
-31.6928 4.00374 0.557597 0.547098 10
-31.6928 4.00374 1.67415 0.546399 10
-36.0796 4.55792 5.75987 0.54822 10
-34.8871 4.40727 6.83527 0.131683 10
-9.85292 1.20979 -2.65991 0.037459 4
-13.6683 1.67825 -2.67679 0.144253 4
-16.0061 1.9653 -2.55415 0.0523213 4
-22.2338 2.72997 -2.75047 0.0459003 1
-31.3165 3.84519 -2.76041 0.0327076 1
-31.8537 3.91115 -1.68192 0.547937 10
-31.8537 3.91115 -0.560184 0.548573 10
-31.8537 3.91115 0.560184 0.548541 10
-31.8537 3.91115 1.68192 0.54784 10
-36.2698 4.45337 5.78771 0.549607 10
-34.9018 4.28541 6.83517 0.131684 10
-9.85719 1.1754 -2.65994 0.0142699 4
-11.4479 1.36508 -2.66168 0.024789 4
-13.734 1.63768 -2.68853 0.14458 4
-16.0131 1.90945 -2.5542 0.041928 4
-22.2437 2.6524 -2.75053 0.0458992 1
-31.3307 3.73596 -2.7605 0.0327065 1
