VERSION 0.7
FIELDS x y z intensity label
SIZE 4 4 4 4 4
TYPE F F F F F
COUNT 1 1 1 1 1
WIDTH 1282
HEIGHT 1
VIEWPOINT 18.8884 52.509 2.72658 0.968602 0.000027 0.000740241 -0.248617
POINTS 1282
DATA ascii
55.3431 20.3623 9.33995 0.678015 10
55.6818 20.4869 11.5328 0.673889 10
55.3373 20.3602 13.6129 0.668942 10
55.3344 20.3591 15.7985 0.66318 10
9.21603 3.42741 -2.63467 0.0354163 4
10.6869 3.97443 -2.63237 0.0161877 4
12.678 4.7149 -2.62925 0.0288245 4
15.5329 5.77662 -2.62478 0.0142032 4
19.9832 7.4317 -2.61782 0.013939 4
20.7207 7.70596 -1.93413 0.359956 6
63.7839 23.721 -1.18785 0.880513 10
55.6563 20.6984 3.112 0.437788 10
55.6535 20.6973 5.19486 0.436743 10
55.6507 20.6963 7.29027 0.435165 10
55.6478 20.6952 9.40352 0.433057 10
55.581 20.6704 11.5268 0.674241 10
55.642 20.6931 13.7056 0.427262 10
55.6391 20.692 15.906 0.423582 10
9.20403 3.45957 -2.63468 0.00360165 4
10.673 4.01172 -2.63237 0.0109658 4
12.6615 4.75914 -2.62926 0.022616 4
19.9573 7.50146 -2.61784 0.031007 4
20.881 7.84866 -1.95164 0.355322 6
55.547 20.8787 9.39874 0.433278 10
55.4803 20.8536 11.5209 0.674584 10
9.19193 3.49168 -2.63468 0.0162074 4
10.659 4.04896 -2.63238 0.0245424 4
12.6449 4.80333 -2.62927 0.0310415 4
21.0443 7.99398 -1.9695 0.345142 6
68.1407 25.8842 -1.27232 0.881398 10
55.4463 21.062 9.39408 0.433493 10
55.3797 21.0367 11.5152 0.674918 10
9.17971 3.52376 -2.63469 0.0312141 4
10.6448 4.08616 -2.63239 0.0438629 4
15.4717 5.93904 -2.62482 0.0287701 4
21.2106 8.14198 -1.98771 0.332327 6
68.017 26.1093 -1.27171 0.881825 10
55.3456 21.2452 9.38953 0.433702 10
55.2791 21.2197 11.5096 0.675245 10
9.16738 3.55579 -2.6347 0.0120054 4
10.6305 4.12331 -2.6324 0.0506511 4
12.6111 4.89153 -2.62929 0.0332585 4
15.451 5.99304 -2.62483 0.0218506 4
21.38 8.29275 -2.00628 0.323786 6
55.2451 21.4281 9.38511 0.433907 10
55.1787 21.4024 11.5042 0.675563 10
9.15494 3.58778 -2.63471 0.00840375 4
10.6161 4.16041 -2.63241 0.0313305 4
12.594 4.93554 -2.6293 0.0283805 4
15.43 6.04697 -2.62485 0.0131103 4
19.8511 7.77957 -2.6179 0.0233258 4
21.5526 8.44637 -2.02524 0.320756 6
55.153 21.6142 3.10448 0.438848 10
55.1502 21.6131 5.18231 0.4378 10
55.1474 21.612 7.27266 0.436219 10
55.1446 21.6109 9.3808 0.434106 10
55.0784 21.585 11.4989 0.675873 10
55.1389 21.6087 13.6725 0.428297 10
55.136 21.6075 15.8676 0.424608 10
9.14239 3.61973 -2.63471 0.0402178 4
10.6016 4.19745 -2.63242 0.0093991 4
15.4089 6.10082 -2.62486 0.0411515 4
21.7285 8.60291 -2.04457 0.311019 6
55.0443 21.7936 9.37661 0.4343 10
54.9782 21.7674 11.4938 0.676175 10
9.12972 3.65163 -2.63472 0.0240106 4
10.5869 4.23445 -2.63243 0.0292416 4
12.5594 5.02338 -2.62933 0.0363621 4
15.3876 6.1546 -2.62487 0.0174802 4
21.9078 8.76248 -2.06431 0.309373 6
54.8947 21.9563 -1.03199 0.583524 10
54.8919 21.9552 1.03194 0.583553 10
54.944 21.976 9.37254 0.434489 10
54.878 21.9496 11.4888 0.676469 10
9.11695 3.68349 -2.63473 0.036616 4
10.5721 4.27139 -2.63244 0.0511725 4
12.5418 5.06721 -2.62934 0.032371 4
15.3661 6.20831 -2.62489 0.0284052 4
19.769 7.98718 -2.61795 0.0173518 4
22.0905 8.92516 -2.08445 0.301124 6
54.7946 22.1384 -1.03156 0.58377 10
54.7918 22.1373 1.0315 0.583799 10
54.8438 22.1583 9.36859 0.434672 10
54.778 22.1317 11.484 0.676754 10
9.10407 3.7153 -2.63474 0.0342148 4
10.5571 4.30829 -2.63245 0.0600492 4
12.5241 5.11099 -2.62935 0.0146334 4
15.3444 6.26195 -2.6249 0.0156592 4
22.2963 9.09895 -2.10685 0.203166 6
54.7437 22.3405 9.36476 0.43485 10
54.678 22.3137 11.4793 0.677031 10
9.09107 3.74707 -2.63475 0.0144062 4
10.5421 4.34513 -2.63246 0.0287191 4
22.6016 9.3157 -2.13876 0.0564877 6
54.2543 22.362 3.0754 0.688892 10
54.2516 22.3609 5.13376 0.687246 10
54.2488 22.3597 7.20453 0.684764 10
54.246 22.3586 9.29292 0.681447 10
54.5781 22.4955 11.4747 0.6773 10
54.2404 22.3563 13.5444 0.672328 10
54.2376 22.3551 15.719 0.666537 10
9.07797 3.77879 -2.63476 0.0228097 4
10.5269 4.38192 -2.63247 0.0699698 4
12.4882 5.19834 -2.62937 0.0235019 4
15.3005 6.36899 -2.62493 0.0174798 4
22.9434 9.5504 -2.17424 0.229153 6
54.4893 22.6817 3.09319 0.689157 10
54.4866 22.6806 5.16346 0.687511 10
54.4838 22.6794 7.24621 0.685027 10
54.4811 22.6783 9.34668 0.681709 10
54.4783 22.6771 11.4703 0.677561 10
54.4754 22.6759 13.6227 0.672587 10
54.4725 22.6747 15.8099 0.666793 10
9.06476 3.81047 -2.63477 0.0234099 4
10.5116 4.41865 -2.63248 0.0120097 4
12.4701 5.24193 -2.62939 0.0731661 4
54.395 22.8655 -1.02994 0.584684 10
54.3923 22.8644 1.02989 0.584713 10
54.3895 22.8633 3.09204 0.689413 10
54.3868 22.8621 5.16154 0.687767 10
54.3841 22.861 7.24351 0.685283 10
54.3813 22.8598 9.3432 0.681963 10
54.3785 22.8586 11.466 0.677813 10
54.3757 22.8574 13.6177 0.672837 10
54.3728 22.8562 15.804 0.667041 10
9.05143 3.8421 -2.63478 0.0222093 4
10.4961 4.45534 -2.63249 0.0114875 4
12.4517 5.28545 -2.6294 0.0177371 4
15.2559 6.47573 -2.62496 0.0131097 4
54.2899 23.0447 3.09092 0.689662 10
54.2871 23.0435 5.15968 0.688015 10
54.2844 23.0424 7.2409 0.685529 10
54.2816 23.0412 9.33984 0.682209 10
54.2788 23.04 11.4619 0.678057 10
54.276 23.0388 13.6128 0.673079 10
54.2731 23.0376 15.7983 0.667282 10
9.038 3.87369 -2.63479 0.0426177 4
10.4805 4.49197 -2.6325 0.0229749 4
12.4333 5.32891 -2.62941 0.0274924 4
15.2333 6.52898 -2.62498 0.0105605 4
19.5982 8.39982 -2.61807 0.0150754 4
54.1902 23.226 3.08985 0.689902 10
54.1875 23.2248 5.15788 0.688254 10
54.1848 23.2236 7.23838 0.685768 10
54.182 23.2224 9.33659 0.682446 10
54.1792 23.2212 11.4579 0.678293 10
54.1764 23.22 13.608 0.673314 10
54.1736 23.2188 15.7928 0.667514 10
9.02445 3.90523 -2.63479 0.0306126 4
10.4649 4.52854 -2.63251 0.027152 4
12.4147 5.3723 -2.62942 0.0159633 4
15.2105 6.58216 -2.625 0.0145662 4
54.0961 23.4095 -1.02887 0.886104 10
54.0934 23.4083 1.02882 0.886148 10
54.0907 23.4071 3.08881 0.690133 10
54.088 23.4059 5.15615 0.688485 10
54.0852 23.4048 7.23595 0.685998 10
54.0825 23.4036 9.33346 0.682675 10
54.0797 23.4024 11.4541 0.678521 10
54.0769 23.4012 13.6035 0.673539 10
54.074 23.3999 15.7875 0.667738 10
9.0108 3.93672 -2.6348 0.0192079 4
10.449 4.56507 -2.63252 0.0266297 4
12.3959 5.41563 -2.62944 0.0257185 4
15.1875 6.63525 -2.62501 0.0371435 4
53.9966 23.5905 -1.02854 0.88639 10
53.9939 23.5893 1.02849 0.886435 10
53.9912 23.5882 3.08781 0.690356 10
53.9885 23.587 5.15448 0.688708 10
53.9858 23.5858 7.23362 0.68622 10
53.983 23.5846 9.33044 0.682896 10
53.9802 23.5834 11.4504 0.67874 10
53.9774 23.5822 13.5991 0.673757 10
53.9746 23.5809 15.7824 0.667953 10
8.99704 3.96817 -2.63481 0.00960389 4
10.4331 4.60153 -2.63254 0.0261075 4
12.377 5.4589 -2.62945 0.0141894 4
15.1643 6.68827 -2.62503 0.0251263 4
27.2521 12.0196 -2.60585 0.0351525 4
53.8971 23.7715 -1.02822 0.886666 10
53.8944 23.7703 1.02817 0.88671 10
53.8917 23.7691 3.08685 0.690571 10
53.889 23.7679 5.15288 0.688922 10
53.8863 23.7667 7.23137 0.686433 10
53.8836 23.7655 9.32754 0.683108 10
53.8808 23.7643 11.4468 0.678951 10
53.878 23.763 13.5948 0.673967 10
53.8752 23.7618 15.7775 0.668161 10
8.98317 3.99956 -2.63482 0.047419 4
10.417 4.63794 -2.63255 0.0360282 4
12.3579 5.5021 -2.62947 0.0146328 4
15.141 6.7412 -2.62505 0.0142017 4
19.4797 8.67291 -2.61816 0.0162127 4
55.888 24.8829 -1.06785 0.585841 10
55.8852 24.8817 1.06779 0.58587 10
53.7924 23.9499 3.08593 0.690777 10
53.7897 23.9487 5.15134 0.689128 10
53.787 23.9475 7.22921 0.686638 10
53.7842 23.9463 9.32475 0.683312 10
53.7815 23.945 11.4434 0.679154 10
53.7787 23.9438 13.5908 0.674168 10
53.7758 23.9425 15.7728 0.668361 10
8.96918 4.03091 -2.63483 0.0516205 4
10.4008 4.6743 -2.63256 0.0313287 4
12.3387 5.54523 -2.62948 0.0292654 4
15.1175 6.79406 -2.62506 0.0214845 4
19.4495 8.74093 -2.61818 0.0142215 4
59.9576 26.946 -1.1474 0.586009 10
59.9546 26.9446 1.14734 0.586038 10
54.846 24.6487 3.15129 0.690975 10
57.9723 26.0538 5.56058 0.689325 10
54.8405 24.6463 7.38232 0.686835 10
57.9635 26.0498 12.3525 0.679348 10
54.832 24.6425 13.8786 0.674361 10
56.8598 25.5538 16.7034 0.668552 10
8.9551 4.06221 -2.63485 0.0192076 4
10.3845 4.7106 -2.63257 0.0417714 4
12.3193 5.5883 -2.62949 0.0332559 4
15.0938 6.84683 -2.62508 0.0324086 4
60.8332 27.5951 -1.16599 0.586169 10
56.7721 25.7529 3.2671 0.691165 10
57.8652 26.2488 5.55906 0.689514 10
57.8622 26.2475 7.80138 0.687023 10
56.7635 25.7491 9.87221 0.683695 10
57.8563 26.2448 12.3491 0.679535 10
56.7577 25.7464 14.3887 0.674546 10
56.7547 25.745 16.6988 0.668735 10
8.9409 4.09346 -2.63486 0.0420164 4
10.368 4.74684 -2.63258 0.0537804 4
12.2998 5.6313 -2.62951 0.0155193 4
15.0699 6.89953 -2.6251 0.0178428 4
64.3309 29.453 -1.23499 0.586323 10
8.92659 4.12466 -2.63487 0.0222086 4
10.3514 4.78302 -2.6326 0.0224519 4
12.2802 5.67423 -2.62952 0.0536523 4
15.0458 6.95214 -2.62512 0.0098317 4
19.3574 8.94436 -2.61825 0.0153588 4
65.8464 30.4253 1.26612 0.692328 10
63.2772 29.2381 3.65312 0.691518 10
63.274 29.2367 6.09814 0.689867 10
65.8365 30.4207 8.90495 0.687375 10
63.2676 29.2337 11.0386 0.684045 10
63.2644 29.2322 13.5467 0.679882 10
65.8264 30.4161 16.7411 0.674891 10
65.8229 30.4145 19.429 0.850589 10
8.91218 4.15582 -2.63488 0.0204078 4
10.3347 4.81915 -2.63261 0.0506471 4
12.2604 5.7171 -2.62954 0.0159626 4
65.7242 30.6477 1.26582 0.692492 10
65.7209 30.6462 3.80035 0.691683 10
65.7177 30.6446 6.34392 0.690031 10
65.7143 30.6431 8.90283 0.687538 10
65.711 30.6415 11.4835 0.684208 10
65.7076 30.64 14.0926 0.680044 10
65.7042 30.6384 16.7372 0.675051 10
65.7008 30.6368 19.4244 0.850791 10
8.89765 4.18692 -2.63489 0.00360136 4
10.3179 4.85522 -2.63262 0.0167082 4
12.2404 5.75989 -2.62955 0.0141889 4
14.9971 7.05711 -2.62515 0.0131087 4
19.2948 9.07945 -2.6183 0.0250288 4
8.88302 4.21797 -2.6349 0.0270101 4
10.3009 4.89123 -2.63264 0.084585 4
12.2203 5.80262 -2.62957 0.0283776 4
14.9725 7.10947 -2.62517 0.036777 4
8.86828 4.24897 -2.63491 0.0174064 4
10.2838 4.92718 -2.63265 0.0130532 4
12.2 5.84528 -2.62959 0.0243868 4
14.9477 7.16174 -2.62519 0.0145651 4
8.85344 4.27992 -2.63492 0.0108039 4
10.2666 4.96308 -2.63266 0.0281947 4
12.1796 5.88786 -2.6296 0.0221697 4
14.9227 7.21393 -2.62521 0.011652 4
8.83848 4.31081 -2.63494 0.00900323 4
10.2493 4.99891 -2.63268 0.042814 4
12.1591 5.93038 -2.62962 0.0110848 4
14.8976 7.26603 -2.62523 0.0338633 4
19.1669 9.34832 -2.6184 0.0164956 4
8.82342 4.34166 -2.63495 0.0312111 4
10.2318 5.03468 -2.63269 0.0365483 4
12.1384 5.97282 -2.62964 0.0527632 4
14.8722 7.31804 -2.62525 0.0225753 4
19.1343 9.41526 -2.61842 0.0150734 4
8.80826 4.37246 -2.63496 0.0498174 4
10.2142 5.07039 -2.6327 0.0543001 4
12.1175 6.01519 -2.62965 0.0261598 4
14.8467 7.36997 -2.62527 0.018934 4
19.1015 9.48209 -2.61845 0.0275869 4
8.79298 4.4032 -2.63497 0.0138048 4
10.1965 5.10605 -2.63272 0.0318489 4
12.0965 6.0575 -2.62967 0.0536493 4
14.821 7.42181 -2.62529 0.0149286 4
19.0685 9.5488 -2.61847 0.0207611 4
26.6372 13.3389 -2.60632 0.0300377 4
8.7776 4.43388 -2.63499 0.0354121 4
12.0754 6.09972 -2.62969 0.00576394 4
14.7951 7.47356 -2.62532 0.0236671 4
19.0353 9.61541 -2.6185 0.0147886 4
8.76211 4.46452 -2.635 0.0498167 4
10.1608 5.17717 -2.63275 0.0600423 4
14.7691 7.52522 -2.62534 0.0160207 4
8.74652 4.4951 -2.63501 0.0390129 4
10.1427 5.21263 -2.63276 0.0130526 4
12.0327 6.18396 -2.62972 0.0283759 4
14.7428 7.57679 -2.62536 0.0233026 4
26.4972 13.6177 -2.60644 0.0302407 4
8.73082 4.52562 -2.63502 0.0138045 4
10.1245 5.24803 -2.63278 0.0443786 4
12.0111 6.22596 -2.62974 0.0177348 4
14.7164 7.62827 -2.62538 0.0207537 4
18.9341 9.81452 -2.61859 0.0182007 4
8.71501 4.55609 -2.63504 0.0114037 4
10.1062 5.28337 -2.63279 0.0250607 4
11.9894 6.2679 -2.62976 0.0181781 4
14.6898 7.67966 -2.6254 0.0236663 4
18.9 9.88066 -2.61861 0.0190537 4
8.6991 4.58651 -2.63505 0.0336106 4
10.0877 5.31865 -2.63281 0.0266269 4
11.9675 6.30975 -2.62978 0.0137443 4
14.6631 7.73095 -2.62543 0.0127433 4
18.8656 9.94669 -2.61864 0.0218973 4
8.68308 4.61687 -2.63506 0.0150047 4
10.0692 5.35386 -2.63283 0.0991975 4
11.9455 6.35154 -2.62979 0.0181778 4
14.6361 7.78216 -2.62545 0.0265786 4
18.831 10.0126 -2.61867 0.0187689 4
8.66695 4.64718 -2.63508 0.118236 4
10.0505 5.38901 -2.63284 0.0417671 4
11.9233 6.39324 -2.62981 0.0243847 4
14.609 7.83327 -2.62547 0.0112867 4
18.7961 10.0784 -2.6187 0.0159249 4
8.65072 4.67743 -2.63509 0.120636 4
10.0317 5.42409 -2.63286 0.0344577 4
11.901 6.43487 -2.62983 0.0882277 4
14.5817 7.88429 -2.62549 0.0724529 4
8.63439 4.70762 -2.63511 0.112233 4
10.0127 5.45911 -2.63287 0.00574291 4
11.8786 6.47642 -2.62985 0.0851236 4
14.5542 7.93521 -2.62552 0.0731804 4
18.7257 10.2096 -2.61876 0.0563047 4
8.61795 4.73776 -2.63512 0.122435 4
9.99366 5.49406 -2.63289 0.0140961 4
11.856 6.51789 -2.62987 0.09532 4
14.5266 7.98604 -2.62554 0.0702671 4
18.6902 10.275 -2.61879 0.0491949 4
8.60141 4.76784 -2.63513 0.0996283 4
9.97449 5.52895 -2.63291 0.048031 4
11.8333 6.55929 -2.62989 0.0837923 4
14.4987 8.03677 -2.62557 0.0720868 4
18.6544 10.3403 -2.61882 0.0551659 4
8.58476 4.79786 -2.63515 0.10803 4
9.95519 5.56377 -2.63292 0.0167063 4
11.8104 6.6006 -2.62991 0.0137436 4
14.4707 8.08741 -2.62559 0.0324023 4
8.56801 4.82782 -2.63516 0.0282077 4
9.93578 5.59852 -2.63294 0.0448979 4
11.7874 6.64184 -2.62993 0.0283737 4
18.5822 10.4705 -2.61889 0.018483 4
8.55116 4.85773 -2.63518 0.0156042 4
9.91624 5.63321 -2.63296 0.0516845 4
11.7642 6.683 -2.62995 0.0297034 4
14.4142 8.18839 -2.62564 0.0294892 4
8.5342 4.88758 -2.63519 0.0762199 4
9.89658 5.66782 -2.63298 0.0647357 4
11.7409 6.72408 -2.62997 0.0203933 4
14.3856 8.23874 -2.62567 0.00910152 4
8.51713 4.91737 -2.63521 0.0372095 4
9.8768 5.70237 -2.63299 0.0203603 4
11.7175 6.76507 -2.62999 0.0234964 4
14.3569 8.28898 -2.62569 0.0298527 4
8.49997 4.9471 -2.63523 0.0192048 4
9.8569 5.73685 -2.63301 0.0292351 4
11.6939 6.80599 -2.63002 0.0217229 4
14.3281 8.33913 -2.62572 0.0156543 4
18.4352 10.7295 -2.61902 0.0216098 4
25.7546 14.9895 -2.60708 0.0275776 4
43.3929 25.2553 -2.63125 0.145742 4
8.48269 4.97677 -2.63524 0.0918224 4
9.83689 5.77127 -2.63303 0.0266246 4
11.6701 6.84682 -2.63004 0.0274859 4
14.299 8.38918 -2.62574 0.00837315 4
18.3978 10.7939 -2.61905 0.0477684 4
43.2004 25.3455 -2.62493 0.145042 4
8.46532 5.00638 -2.63526 0.0198047 4
9.81675 5.80561 -2.63305 0.032889 4
11.6463 6.88757 -2.63006 0.0336921 4
14.2698 8.43913 -2.62577 0.0171102 4
18.3603 10.8582 -2.61909 0.0150696 4
42.937 25.3929 -2.61429 0.271486 4
8.44785 5.03592 -2.63527 0.017404 4
9.79649 5.83988 -2.63307 0.012007 4
11.6222 6.92824 -2.63008 0.0132994 4
14.2404 8.48897 -2.6258 0.0112853 4
18.3225 10.9224 -2.61912 0.0145007 4
42.6661 25.4341 -2.60319 0.216599 4
8.43027 5.06541 -2.63529 0.0330074 4
9.77612 5.87408 -2.63309 0.0589906 4
11.5981 6.96883 -2.6301 0.00709296 4
18.2845 10.9864 -2.61916 0.0136476 4
42.3975 25.475 -2.59221 0.221232 4
8.41259 5.09484 -2.6353 0.0180039 4
9.75562 5.90821 -2.6331 0.0125289 4
11.5738 7.00933 -2.63013 0.0261551 4
14.1811 8.58836 -2.62585 0.0185658 4
42.1311 25.5155 -2.58136 0.211936 4
8.3948 5.12421 -2.63532 0.037808 4
9.73501 5.94227 -2.63312 0.0266237 4
11.5493 7.04975 -2.63015 0.0155156 4
14.1512 8.6379 -2.62588 0.0138332 4
41.867 25.5557 -2.57062 0.159377 4
8.37692 5.15351 -2.63534 0.0540112 4
9.71428 5.97626 -2.63314 0.0428064 4
11.5248 7.09008 -2.63017 0.0150721 4
14.1211 8.68733 -2.62591 0.026938 4
18.1692 11.1778 -2.61926 0.0153529 4
41.605 25.5956 -2.56 0.255628 4
8.35893 5.18276 -2.63535 0.0534107 4
9.69343 6.01018 -2.63316 0.0344537 4
11.5 7.13033 -2.63019 0.00930918 4
14.0908 8.73667 -2.62594 0.0302139 4
18.1303 11.2413 -2.6193 0.0247349 4
41.3451 25.6351 -2.54951 0.206682 4
8.34084 5.21194 -2.63537 0.0174034 4
9.67247 6.04403 -2.63318 0.0302772 4
11.4752 7.17049 -2.63022 0.0217212 4
41.0874 25.6743 -2.53913 0.25762 4
8.32265 5.24105 -2.63539 0.0252047 4
9.65138 6.0778 -2.6332 0.0177486 4
11.4502 7.21057 -2.63024 0.0243808 4
14.0298 8.83502 -2.62599 0.0160167 4
40.8318 25.7131 -2.52886 0.212357 4
8.30436 5.27011 -2.63541 0.0540098 4
9.63018 6.1115 -2.63322 0.0271447 4
11.4251 7.25056 -2.63026 0.0270402 4
13.999 8.88404 -2.62602 0.0218407 4
40.5781 25.7517 -2.5187 0.245899 4
8.28597 5.2991 -2.63542 0.0180031 4
9.60887 6.14512 -2.63324 0.0172263 4
11.3998 7.29046 -2.63029 0.0186177 4
13.9681 8.93295 -2.62605 0.0160163 4
17.9726 11.494 -2.61945 0.0133618 4
40.3266 25.7899 -2.50866 0.221349 4
8.26748 5.32802 -2.63544 0.0426071 4
11.3744 7.33028 -2.63031 0.0390081 4
13.937 8.98175 -2.62608 0.0141961 4
17.9326 11.5568 -2.61949 0.0162045 4
40.077 25.8278 -2.49872 0.188447 4
8.24889 5.35689 -2.63546 0.0288046 4
11.3488 7.37 -2.63034 0.0323587 4
8.23019 5.38569 -2.63548 0.0288044 4
9.54421 6.24555 -2.6333 0.0120059 4
11.3231 7.40964 -2.63036 0.015071 4
13.8742 9.07904 -2.62614 0.0134678 4
24.942 16.3216 -2.60784 0.0292034 4
39.4624 25.8234 -2.47159 0.262818 4
8.2114 5.41442 -2.6355 0.0222033 4
9.52243 6.27888 -2.63333 0.0297536 4
11.2973 7.44919 -2.63039 0.0261525 4
13.8426 9.12752 -2.62617 0.0160156 4
8.19251 5.44309 -2.63551 0.0102014 4
9.50053 6.31213 -2.63335 0.00521989 4
11.2713 7.48866 -2.63041 0.0195033 4
13.8108 9.17589 -2.6262 0.0200193 4
40.1672 26.687 -2.52734 0.191473 4
8.17351 5.47169 -2.63553 0.0636085 4
9.47851 6.34531 -2.63337 0.0417588 4
11.2452 7.52803 -2.63044 0.0101948 4
13.7789 9.22415 -2.62623 0.0331224 4
17.7295 11.8689 -2.61968 0.0233099 4
39.9246 26.7272 -2.51793 0.2345 4
8.15442 5.50023 -2.63555 0.0222028 4
9.45638 6.37841 -2.63339 0.0224452 4
11.219 7.56731 -2.63046 0.0168435 4
13.7468 9.2723 -2.62627 0.0116473 4
17.6883 11.9309 -2.61972 0.016203 4
39.6143 26.7202 -2.50422 0.239196 4
8.13523 5.52869 -2.63557 0.0258031 4
9.43414 6.41143 -2.63341 0.0365383 4
11.1926 7.6065 -2.63049 0.0208325 4
13.7145 9.32034 -2.6263 0.0181987 4
39.2685 26.6869 -2.48824 0.190661 4
8.11594 5.5571 -2.63559 0.0318035 4
9.41178 6.44438 -2.63343 0.0480214 4
11.1661 7.6456 -2.63051 0.00975129 4
13.682 9.36827 -2.62633 0.00982716 4
38.9271 26.654 -2.47249 0.0889415 4
8.09655 5.58543 -2.63561 0.0246026 4
9.38931 6.47725 -2.63345 0.0114833 4
11.1395 7.6846 -2.63054 0.0616098 4
13.6494 9.41609 -2.62636 0.0222018 4
8.07706 5.6137 -2.63563 0.00960093 4
9.36672 6.51004 -2.63348 0.0375813 4
11.1127 7.72352 -2.63057 0.0279236 4
8.05748 5.64191 -2.63565 0.033003 4
9.34402 6.54275 -2.6335 0.0193125 4
11.0858 7.76234 -2.63059 0.0221613 4
17.4787 12.2387 -2.61993 0.0198969 4
8.0378 5.67004 -2.63567 0.0144012 4
9.3212 6.57538 -2.63352 0.0271416 4
11.0587 7.80107 -2.63062 0.035901 4
13.5506 9.55886 -2.62646 0.00909878 4
8.01801 5.69811 -2.63569 0.0114009 4
9.29828 6.60794 -2.63355 0.0213999 4
11.0315 7.8397 -2.63065 0.0336846 4
13.5173 9.60623 -2.62649 0.0258402 4
17.3934 12.3609 -2.62001 0.0201804 4
7.99814 5.7261 -2.63571 0.0120008 4
9.27523 6.64042 -2.63357 0.0328825 4
11.0042 7.87825 -2.63068 0.0310249 4
13.4838 9.65348 -2.62653 0.0360302 4
17.3505 12.4217 -2.62005 0.0176221 4
7.97816 5.75403 -2.63573 0.0252015 4
9.25208 6.67281 -2.63359 0.0187898 4
10.9768 7.91669 -2.6307 0.019058 4
13.4502 9.70061 -2.62656 0.0167411 4
24.1829 17.4412 -2.60858 0.0257243 4
7.95809 5.78189 -2.63575 0.0222012 4
9.22881 6.70512 -2.63362 0.0140923 4
10.9492 7.95504 -2.63073 0.0221602 4
13.4165 9.74763 -2.62659 0.016377 4
7.93792 5.80968 -2.63577 0.0402018 4
9.20543 6.73736 -2.63364 0.0114825 4
10.9215 7.9933 -2.63076 0.0416607 4
13.3825 9.79453 -2.62663 0.0214717 4
7.91765 5.8374 -2.63579 0.0378014 4
9.18194 6.76951 -2.63366 0.0610653 4
10.8936 8.03146 -2.63079 0.0279213 4
13.3484 9.84131 -2.62666 0.0145569 4
7.89729 5.86504 -2.63581 0.0156004 4
9.15834 6.80158 -2.63369 0.0234865 4
10.8656 8.06953 -2.63082 0.0106366 4
13.3142 9.88798 -2.6267 0.0156485 4
23.9392 17.7788 -2.60883 0.0359289 4
7.87683 5.89262 -2.63583 0.0228005 4
9.13463 6.83357 -2.63371 0.00730683 4
10.8375 8.10749 -2.63084 0.0314661 4
23.8776 17.8627 -2.60889 0.043277 4
7.85628 5.92013 -2.63585 0.0408005 4
9.1108 6.86548 -2.63374 0.0323585 4
10.8093 8.14537 -2.63087 0.0296931 4
13.2452 9.98096 -2.62677 0.016012 4
17.0438 12.8434 -2.62037 0.0255774 4
7.83563 5.94757 -2.63587 0.0210001 4
9.08687 6.89731 -2.63376 0.0459278 4
10.7809 8.18314 -2.6309 0.0163975 4
13.2104 10.0273 -2.6268 0.0196508 4
16.9992 12.9031 -2.62041 0.0397863 4
7.81488 5.97493 -2.63589 0.0371999 4
9.06282 6.92905 -2.63378 0.0287046 4
10.7524 8.22081 -2.63093 0.0327946 4
13.1755 10.0735 -2.62684 0.0221978 4
16.9543 12.9626 -2.62046 0.0204612 4
7.79404 6.00222 -2.63591 0.0491994 4
9.03867 6.96071 -2.63381 0.00574087 4
10.7237 8.25838 -2.63096 0.0177266 4
13.1405 10.1195 -2.62688 0.0163752 4
24.315 18.725 -2.68498 0.0336262 1
7.77311 6.02944 -2.63594 0.0299994 4
9.0144 6.99228 -2.63383 0.0120035 4
10.695 8.29586 -2.63099 0.0257033 4
13.1053 10.1655 -2.62691 0.0156472 4
24.2501 18.8103 -2.68505 0.0336253 1
7.75208 6.05658 -2.63596 0.0503986 4
8.99002 7.02377 -2.63386 0.02766 4
10.6661 8.33324 -2.63102 0.0212714 4
13.0699 10.2113 -2.62695 0.0214691 4
16.8186 13.1401 -2.6206 0.028701 4
24.1849 18.8953 -2.68512 0.0336245 1
7.73095 6.08366 -2.63598 0.0359987 4
8.96554 7.05518 -2.63389 0.0193096 4
10.637 8.37052 -2.63105 0.0172828 4
13.0343 10.257 -2.62699 0.00982471 4
24.1194 18.9801 -2.68518 0.0336236 1
7.70974 6.11066 -2.636 0.0185992 4
8.94094 7.0865 -2.63391 0.0219188 4
10.6079 8.40769 -2.63108 0.0265887 4
12.9986 10.3026 -2.62702 0.0236517 4
16.727 13.2577 -2.62069 0.0312573 4
23.6683 18.7593 -2.64224 0.056133 4
7.68842 6.13759 -2.63602 0.0323983 4
8.91624 7.11774 -2.63394 0.0166999 4
10.5786 8.44477 -2.63111 0.00797651 4
16.681 13.3162 -2.62074 0.0295519 4
23.1967 18.5177 -2.5968 0.0322636 4
7.66702 6.16444 -2.63605 0.015599 4
8.89143 7.14889 -2.63396 0.0667989 4
10.5492 8.48175 -2.63114 0.0212705 4
12.9268 10.3934 -2.6271 0.0127352 4
22.7411 18.2843 -2.55292 0.0518883 4
7.64552 6.19122 -2.63607 0.070795 4
8.86651 7.17996 -2.63399 0.0537517 4
10.5196 8.51862 -2.63117 0.0474148 4
12.8906 10.4386 -2.62714 0.0134627 4
16.5882 13.4329 -2.62084 0.0193216 4
22.3005 18.0586 -2.51052 0.0450979 4
7.62393 6.21792 -2.63609 0.024598 4
8.84148 7.21093 -2.63402 0.0323551 4
10.4899 8.55539 -2.63121 0.0261443 4
16.5415 13.4909 -2.62089 0.0321074 4
22.134 18.052 -2.49886 0.0285705 4
7.60224 6.24455 -2.63612 0.0281975 4
8.81634 7.24182 -2.63404 0.020874 4
10.4601 8.59205 -2.63124 0.0310183 4
16.4946 13.5488 -2.62094 0.0176161 4
23.0503 18.9337 -2.60975 0.038161 4
7.58047 6.2711 -2.63614 0.0365965 4
8.7911 7.27263 -2.63407 0.0615778 4
10.4302 8.62862 -2.63127 0.0345628 4
12.7811 10.5735 -2.62725 0.052757 4
16.4476 13.6066 -2.62099 0.0173317 4
22.9847 19.0146 -2.60982 0.0395884 4
7.55859 6.29758 -2.63616 0.0317966 4
8.76575 7.30335 -2.6341 0.0213954 4
10.4002 8.66508 -2.6313 0.0128501 4
12.7443 10.6182 -2.62729 0.0189195 4
16.4003 13.6642 -2.62104 0.0556876 4
22.9188 19.0952 -2.60989 0.0322413 4
7.53663 6.32399 -2.63618 0.0551937 4
8.7403 7.33398 -2.63412 0.0292227 4
10.37 8.70144 -2.63133 0.017281 4
12.7074 10.6628 -2.62733 0.0185553 4
16.3528 13.7216 -2.62109 0.0477313 4
22.8526 19.1756 -2.60996 0.0316282 4
7.51458 6.35031 -2.63621 0.0281965 4
8.71473 7.36452 -2.63415 0.061054 4
10.3397 8.73769 -2.63137 0.0261427 4
12.6703 10.7072 -2.62737 0.0214657 4
16.3051 13.7789 -2.62114 0.0161942 4
22.7862 19.2558 -2.61003 0.0414217 4
7.49244 6.37656 -2.63623 0.0509932 4
8.68906 7.39497 -2.63418 0.0234821 4
10.3092 8.77384 -2.6314 0.0319026 4
12.633 10.7515 -2.62741 0.0192824 4
16.3086 13.8797 -2.62947 0.027204 4
22.4604 19.1153 -2.58034 0.0737022 4
7.4702 6.40273 -2.63626 0.0389945 4
8.66329 7.42533 -2.63421 0.0579218 4
10.2787 8.80988 -2.63143 0.0199389 4
12.5956 10.7957 -2.62745 0.0189183 4
16.3821 14.0411 -2.6492 0.0264227 4
22.1036 18.9451 -2.54693 0.0575153 4
7.44787 6.42883 -2.63628 0.0203969 4
8.63741 7.45561 -2.63423 0.025047 4
10.248 8.84582 -2.63146 0.00886161 4
12.558 10.8398 -2.62749 0.0149161 4
16.4564 14.2048 -2.66922 0.0222047 4
21.7559 18.7791 -2.5144 0.0664361 4
7.42545 6.45485 -2.6363 0.018597 4
8.61142 7.48579 -2.63426 0.0344393 4
10.2172 8.88165 -2.6315 0.0389906 4
12.5203 10.8837 -2.62753 0.0174625 4
16.5315 14.3706 -2.68953 0.0237468 4
21.5613 18.743 -2.49947 0.0257072 4
7.40295 6.48079 -2.63633 0.0197966 4
8.58533 7.51589 -2.63429 0.0182631 4
10.1862 8.91737 -2.63153 0.0203812 4
12.4824 10.9275 -2.62757 0.0203726 4
16.5306 14.4715 -2.69759 0.0467995 1
21.4964 18.8186 -2.49954 0.031215 4
7.38035 6.50665 -2.63635 0.0245956 4
8.55914 7.54589 -2.63432 0.0318296 4
10.1552 8.95299 -2.63156 0.0345589 4
12.4444 10.9712 -2.62761 0.0138241 4
16.4804 14.5294 -2.69765 0.0467985 1
21.4312 18.8941 -2.49961 0.030602 4
7.35766 6.53243 -2.63638 0.0227957 4
8.53284 7.5758 -2.63435 0.0286985 4
10.124 8.9885 -2.6316 0.0141778 4
12.4062 11.0148 -2.62766 0.0272839 4
16.4299 14.5871 -2.6977 0.0467976 1
21.3657 18.9693 -2.49968 0.0338653 4
7.33488 6.55814 -2.6364 0.0503901 4
8.50643 7.60563 -2.63438 0.0360031 4
10.0927 9.0239 -2.63163 0.0221526 4
12.3679 11.0582 -2.6277 0.0156425 4
16.3792 14.6447 -2.69776 0.0467966 1
34.9722 31.2687 -2.45858 0.866098 10
34.9745 31.2708 -0.818915 0.867199 10
34.9768 31.2728 0.818968 0.867243 10
34.0997 30.4886 2.39725 0.156011 10
34.9813 31.2769 4.10539 0.673799 10
34.0962 30.4855 5.61586 0.15504 10
34.0944 30.4839 7.24373 0.154271 10
34.0926 30.4823 8.88953 0.153314 10
34.0908 30.4807 10.5577 0.152171 10
34.089 30.4791 12.2527 0.150841 10
7.31201 6.58376 -2.63643 0.00899814 4
8.47992 7.63536 -2.6344 0.0161751 4
10.0613 9.05919 -2.63167 0.0115192 4
12.3294 11.1015 -2.62774 0.0178249 4
16.3283 14.7021 -2.69781 0.0467957 1
21.2339 19.1191 -2.49982 0.0283555 4
34.3442 30.9236 -2.42201 0.865395 10
34.3464 30.9256 -0.806732 0.572342 10
34.3486 30.9276 0.806783 0.572371 10
34.0207 30.6324 2.39919 0.158368 10
33.182 29.8772 3.90644 0.673251 10
34.0172 30.6292 5.62042 0.157383 10
34.0154 30.6276 7.24962 0.156602 10
34.0136 30.626 8.89676 0.155631 10
34.0118 30.6244 10.5662 0.15447 10
33.2008 29.8941 11.9709 0.178783 10
7.28906 6.60931 -2.63645 0.0179961 4
8.45331 7.665 -2.63443 0.0339153 4
10.0297 9.09438 -2.6317 0.0132912 4
12.2908 11.1446 -2.62778 0.0280101 4
16.0908 14.5903 -2.66697 0.0730139 4
21.1677 19.1937 -2.49989 0.0240708 4
33.7346 30.5886 -2.38653 0.86468 10
33.808 30.6552 -0.796593 0.136338 10
33.8062 30.6536 0.796552 0.136329 10
33.9187 30.7556 2.39956 0.102602 10
32.5929 29.5535 3.84921 0.672696 10
33.9152 30.7525 5.62128 0.101964 10
33.9135 30.7509 7.25072 0.101458 10
33.9117 30.7492 8.89812 0.100829 10
33.9099 30.7476 10.5679 0.100077 10
33.0959 30.0096 11.9708 0.178785 10
7.26601 6.63478 -2.63648 0.0257942 4
8.4266 7.69454 -2.63446 0.0250448 4
9.99803 9.12945 -2.63174 0.0194935 4
15.8431 14.4667 -2.63426 0.0703146 4
21.1012 19.268 -2.49997 0.0299857 4
33.1426 30.2633 -2.35211 0.863955 10
33.1446 30.2652 -0.783449 0.57139 10
33.1467 30.2671 0.783497 0.571419 10
32.4036 29.5886 2.29967 0.163075 10
32.402 29.5871 3.83883 0.162667 10
32.4003 29.5855 5.38727 0.162061 10
32.3986 29.584 6.94888 0.161258 10
32.3969 29.5824 8.52769 0.160258 10
32.3952 29.5809 10.1279 0.159063 10
32.9907 30.1246 11.9707 0.178787 10
7.24288 6.66017 -2.6365 0.0281934 4
8.39978 7.724 -2.63449 0.0448715 4
9.96623 9.16442 -2.63177 0.0093036 4
15.6013 14.3461 -2.60238 0.0669178 4
32.5674 29.9472 -2.31869 0.86322 10
33.0359 30.3781 -0.783381 0.140327 10
33.0343 30.3766 0.783341 0.140318 10
32.3277 29.7268 2.30163 0.165426 10
32.326 29.7253 3.8421 0.165012 10
32.3243 29.7238 5.39186 0.164397 10
32.3227 29.7222 6.9548 0.163583 10
32.321 29.7206 8.53496 0.162568 10
32.3192 29.7191 10.1365 0.161356 10
32.5858 29.9641 11.8617 0.651327 10
7.21966 6.68547 -2.63653 0.0107973 4
8.37287 7.75336 -2.63452 0.0260878 4
9.93432 9.19927 -2.63181 0.0124046 4
12.174 11.2733 -2.62791 0.080025 4
15.3653 14.2284 -2.57128 0.0886608 4
32.0083 29.64 -2.28624 0.862474 10
34.6597 32.0952 -0.824537 0.142319 10
34.658 32.0936 0.824495 0.14231 10
32.0142 29.6454 2.28666 0.672585 10
32.0161 29.6472 3.81754 0.67098 10
32.0181 29.649 5.358 0.668557 10
32.0201 29.6509 6.91191 0.665319 10
32.022 29.6527 8.4833 0.661271 10
32.0241 29.6546 10.0764 0.656417 10
32.0262 29.6565 11.6956 0.650764 10
7.19634 6.7107 -2.63656 0.0323917 4
8.34585 7.78262 -2.63455 0.0198265 4
9.90228 9.23402 -2.63184 0.0314542 4
12.1348 11.3159 -2.62795 0.0618365 4
15.1349 14.1135 -2.54094 0.0872272 4
20.9001 19.4896 -2.50019 0.0259037 4
31.4647 29.3413 -2.25471 0.861718 10
34.6844 32.3437 -0.827805 0.56991 10
34.6865 32.3456 0.827854 0.569939 10
30.3976 28.3462 2.17825 0.671995 10
30.6348 28.5674 3.66471 0.169695 10
31.4741 29.3501 5.28409 0.66797 10
30.6317 28.5645 6.6337 0.168226 10
31.478 29.3537 8.36627 0.660691 10
30.6284 28.5614 9.66854 0.165937 10
31.482 29.3574 11.5342 0.650194 10
7.17295 6.73584 -2.63658 0.0167955 4
8.31872 7.8118 -2.63458 0.0474787 4
9.87012 9.26865 -2.63188 0.042529 4
12.0954 11.3584 -2.628 0.0647454 4
14.9097 14.0012 -2.51134 0.0277374 4
30.9358 29.0507 -2.22407 0.860951 10
30.9376 29.0524 -0.740798 0.862045 10
30.9395 29.0541 0.740841 0.862089 10
29.8866 28.0654 2.14864 0.671397 10
30.5621 28.6997 3.66798 0.172034 10
30.945 29.0593 5.21225 0.667376 10
30.559 28.6968 6.6396 0.170545 10
30.9487 29.0628 8.25251 0.660104 10
30.5557 28.6937 9.67715 0.168224 10
29.9414 28.1168 11.0056 0.178794 10
7.14946 6.76091 -2.63661 0.0251931 4
8.2915 7.84088 -2.63461 0.0213912 4
9.83784 9.30318 -2.63191 0.00797408 4
12.0559 11.4007 -2.62804 0.0785661 4
14.8567 14.0493 -2.51065 0.0372061 4
30.4211 28.7678 -2.19427 0.860173 10
30.6291 28.9645 -0.735828 0.224494 10
30.6276 28.963 0.735789 0.224481 10
29.5899 27.9818 2.13432 0.174807 10
29.5884 27.9803 3.56281 0.174371 10
30.43 28.7762 5.1424 0.666774 10
29.5853 27.9774 6.44924 0.172862 10
30.4336 28.7796 8.1419 0.659508 10
29.5822 27.9744 9.39969 0.17051 10
29.5805 27.9729 10.9088 0.169022 10
7.12589 6.78589 -2.63663 0.0377892 4
8.26418 7.86987 -2.63464 0.0459124 4
9.80544 9.33759 -2.63195 0.00974597 4
12.0162 11.4429 -2.62808 0.014549 4
14.8079 14.1014 -2.51071 0.0474296 4
20.6967 19.7092 -2.50041 0.0283488 4
29.92 28.4925 -2.16529 0.859386 10
30.5558 29.0979 -0.736502 0.2275 10
30.5543 29.0964 0.736464 0.227487 10
28.9051 27.526 2.09184 0.670177 10
29.0682 27.6813 3.51179 0.176706 10
29.9287 28.5007 5.07445 0.666163 10
29.0652 27.6784 6.35687 0.175176 10
29.9322 28.504 8.03432 0.658904 10
29.0594 27.6729 9.26422 0.155282 10
29.0605 27.6739 10.7526 0.171285 10
7.10223 6.81079 -2.63666 0.00839752 4
8.23675 7.89876 -2.63467 0.00678243 4
9.77292 9.37189 -2.63199 0.0124038 4
12.0159 11.5228 -2.63679 0.0350714 4
15.4135 14.781 -2.62211 0.0210163 4
20.6284 19.7819 -2.50049 0.0301834 4
29.432 28.2243 -2.13709 0.858587 10
29.5408 28.3286 -0.714416 0.152252 10
29.5393 28.3272 0.714379 0.152244 10
28.4336 27.2668 2.06459 0.669554 10
28.9983 27.8084 3.51505 0.179038 10
29.4404 28.2323 5.00834 0.665544 10
28.9953 27.8055 6.36278 0.177489 10
29.4438 28.2356 7.92963 0.658292 10
28.9623 27.7738 9.26411 0.155284 10
28.9906 27.801 10.7626 0.173547 10
7.07848 6.83561 -2.63669 0.013196 4
8.20922 7.92755 -2.63471 0.0119995 4
12.0444 11.6311 -2.65194 0.0346237 4
15.3621 14.835 -2.62217 0.0448716 4
22.0958 21.3377 -2.68737 0.0335963 1
28.9565 27.963 -2.10964 0.857778 10
29.067 28.0697 -0.705322 0.154234 10
29.0655 28.0682 0.705285 0.154225 10
28.0339 27.072 3.40958 0.181368 10
28.9646 27.9708 4.94399 0.664918 10
28.031 27.0692 6.17187 0.179799 10
28.968 27.974 7.82773 0.657672 10
28.8648 27.8744 9.264 0.155286 10
28.0265 27.0648 10.4397 0.175806 10
7.05465 6.86035 -2.63671 0.0395875 4
8.18159 7.95625 -2.63474 0.0250422 4
9.70752 9.44015 -2.63206 0.0172762 4
12.073 11.7405 -2.66725 0.022868 4
15.3106 14.8889 -2.62223 0.0281151 4
22.0219 21.4153 -2.68745 0.0335953 1
28.4931 27.7083 -2.08291 0.856959 10
28.5949 27.8074 -0.696219 0.156213 10
28.5935 27.8059 0.696182 0.156205 10
27.9659 27.1957 3.41284 0.183696 10
28.501 27.716 4.88134 0.664283 10
27.963 27.1928 6.17777 0.182107 10
28.5042 27.7191 7.72852 0.657044 10
28.5059 27.7207 9.1798 0.652222 10
27.9585 27.1885 10.4496 0.178064 10
7.03073 6.885 -2.63674 0.0221928 4
8.15387 7.98486 -2.63477 0.0313024 4
9.67465 9.47411 -2.6321 0.0358809 4
12.1018 11.8509 -2.68272 0.0278701 4
15.2589 14.9426 -2.62229 0.0269786 4
21.9476 21.4927 -2.68753 0.0335942 1
28.0412 27.46 -2.05687 0.856129 10
28.1247 27.5418 -0.687107 0.158191 10
28.1233 27.5403 0.687071 0.158182 10
28.0458 27.4645 2.05721 0.667638 10
27.8978 27.3196 3.41615 0.186022 10
28.0489 27.4675 4.8203 0.66364 10
27.8949 27.3167 6.18375 0.184413 10
28.052 27.4706 7.63187 0.656408 10
28.0537 27.4722 9.065 0.65159 10
27.8904 27.3123 10.4598 0.180319 10
7.00673 6.90957 -2.63677 0.0353881 4
8.12605 8.01337 -2.6348 0.00939062 4
9.64165 9.50796 -2.63213 0.0252492 4
12.1306 11.9624 -2.69836 0.0274655 4
15.2069 14.9961 -2.62234 0.0389051 4
21.8732 21.5699 -2.68762 0.0335932 1
27.6006 27.2179 -2.03151 0.855289 10
28.0559 27.6669 -0.687781 0.160166 10
28.0545 27.6655 0.687745 0.160157 10
26.8543 26.4819 1.97658 0.188816 10
26.8529 26.4806 3.29949 0.188345 10
27.608 27.2252 4.76084 0.662989 10
26.8501 26.4778 5.97259 0.186717 10
26.8487 26.4764 7.32958 0.185561 10
26.8472 26.475 8.70498 0.184178 10
26.8458 26.4735 10.1026 0.182572 10
6.98264 6.93406 -2.63679 0.0449844 4
8.09812 8.04178 -2.63483 0.0203461 4
9.60854 9.54169 -2.63217 0.0310073 4
12.1174 12.0331 -2.70475 0.059914 1
15.1548 15.0494 -2.6224 0.0247056 4
21.7984 21.6468 -2.6877 0.0335921 1
27.1706 26.9816 -2.00678 0.854439 10
26.7883 26.602 1.97854 0.191143 10
26.787 26.6006 3.30278 0.190667 10
27.1779 26.9888 4.70288 0.662329 10
26.7841 26.5978 5.97853 0.189018 10
26.7827 26.5964 7.33688 0.187848 10
26.7813 26.5949 8.71364 0.186449 10
26.7798 26.5935 10.1126 0.184823 10
6.95846 6.95846 -2.63682 0.036587 4
8.0701 8.07009 -2.63486 0.0266061 4
9.57531 9.57531 -2.63221 0.00974501 4
12.0756 12.0756 -2.7048 0.059913 1
15.0104 15.0104 -2.60646 0.0785866 4
21.7234 21.7234 -2.68779 0.0335911 1
26.751 26.751 -1.98267 0.853577 10
26.7524 26.7524 -0.660389 0.854663 10
26.7538 26.7538 0.660423 0.854707 10
26.7222 26.7222 1.98054 0.193467 10
26.7209 26.7208 3.30611 0.192986 10
26.7581 26.7581 4.64637 0.661662 10
26.7181 26.718 5.98456 0.191317 10
26.7166 26.7166 7.34427 0.190133 10
25.8502 25.8502 8.44 0.649649 10
26.7137 26.7137 10.1228 0.187071 10
6.9342 6.98278 -2.63685 0.0197927 4
8.04198 8.09831 -2.63489 0.0130421 4
9.54197 9.60881 -2.63225 0.0208186 4
12.0335 12.1178 -2.70484 0.0599119 1
14.8208 14.9246 -2.58256 0.0556588 4
21.6481 21.7998 -2.68787 0.03359 1
26.3413 26.5259 -1.95916 0.852706 10
26.3427 26.5273 -0.652557 0.853791 10
26.3441 26.5286 0.65259 0.853835 10
26.3482 26.5328 4.59125 0.660987 10
26.5193 26.7051 7.31562 0.417363 10
25.5109 25.6896 8.35846 0.155297 10
6.90986 7.00702 -2.63688 0.0137948 4
8.01375 8.12643 -2.63493 0.0109552 4
9.5085 9.6422 -2.63228 0.0199324 4
11.9914 12.16 -2.70489 0.0599108 1
14.6345 14.8403 -2.55912 0.0842528 4
21.5726 21.8759 -2.68796 0.033589 1
25.9413 26.306 -1.93622 0.851825 10
25.9426 26.3074 -0.644916 0.852908 10
25.9439 26.3087 0.644949 0.852952 10
25.1829 25.537 1.87962 0.19811 10
25.1816 25.5357 3.13764 0.197616 10
25.948 26.3128 4.53748 0.660304 10
25.179 25.533 5.67961 0.195908 10
25.1776 25.5316 6.97004 0.194696 10
25.4208 25.7782 8.35836 0.155299 10
25.1749 25.5289 9.60701 0.191561 10
6.88543 7.03117 -2.6369 0.0347865 4
7.98544 8.15446 -2.63496 0.0396469 4
9.47493 9.67547 -2.63232 0.0270191 4
11.9491 12.202 -2.70494 0.0599098 1
14.4516 14.7575 -2.53613 0.0935183 4
21.4968 21.9518 -2.68804 0.0335879 1
25.5505 26.0913 -1.91384 0.850932 10
25.5518 26.0926 -0.63746 0.852015 10
25.553 26.0939 0.637492 0.852059 10
25.1199 25.6516 1.88159 0.200427 10
25.1186 25.6503 3.14093 0.199928 10
25.557 26.0979 4.48501 0.659612 10
25.116 25.6476 5.68556 0.1982 10
25.1146 25.6462 6.97734 0.196974 10
25.3303 25.8665 8.35825 0.155301 10
25.1119 25.6434 9.61707 0.193802 10
6.86092 7.05524 -2.63693 0.037785 4
9.44123 9.70863 -2.63236 0.018603 4
11.9066 12.2438 -2.70499 0.0599087 1
14.2719 14.6762 -2.51357 0.0729127 4
21.4207 22.0274 -2.68813 0.0335868 1
25.1686 25.8814 -1.89199 0.85003 10
25.1698 25.8827 -0.630182 0.851111 10
25.1711 25.884 0.630213 0.851155 10
25.0568 25.7665 1.88359 0.202742 10
25.0555 25.7651 3.14427 0.202237 10
25.1749 25.8879 4.4338 0.658913 10
25.0529 25.7624 5.6916 0.20049 10
25.0515 25.7611 6.98475 0.199249 10
25.1788 25.8919 8.33803 0.64695 10
25.0488 25.7582 9.62728 0.196042 10
7.92851 8.21021 -2.63502 0.034951 4
9.40742 9.74167 -2.6324 0.0168311 4
11.8116 12.2313 -2.69309 0.0603665 4
14.2082 14.7131 -2.51138 0.0437258 4
21.3444 22.1027 -2.68822 0.0335857 1
24.7953 25.6763 -1.87066 0.849117 10
24.0362 24.8902 -0.603971 0.263334 10
24.7978 25.6788 0.623107 0.850241 10
24.799 25.6801 1.87093 0.66217 10
24.0325 24.8863 3.02676 0.204544 10
24.8015 25.6827 4.38379 0.658205 10
24.8027 25.684 5.65511 0.655019 10
24.0286 24.8824 6.72373 0.201523 10
24.8053 25.6866 8.24398 0.646256 10
23.9962 24.8488 9.256 0.17882 10
6.81164 7.10311 -2.63699 0.014394 4
7.8999 8.23794 -2.63506 0.0083464 4
9.3735 9.77459 -2.63244 0.0668804 4
11.6576 12.1564 -2.66763 0.125694 4
14.1571 14.7629 -2.51144 0.0278248 4
21.2678 22.1778 -2.6883 0.0335846 1
24.4304 25.4757 -1.84982 0.848194 10
23.9752 25.0011 -0.604628 0.2663 10
24.4328 25.4783 0.616166 0.849317 10
24.434 25.4795 1.85009 0.66145 10
23.9715 24.9972 3.03006 0.206848 10
24.4364 25.482 4.33496 0.65749 10
24.4376 25.4833 5.5921 0.654307 10
23.9677 24.9933 6.73104 0.203793 10
24.4401 25.4859 8.15213 0.645553 10
23.909 24.9321 9.2559 0.178822 10
6.78688 7.12692 -2.63702 0.0179923 4
7.87119 8.26556 -2.63509 0.0297337 4
9.33946 9.80739 -2.63248 0.08371 4
11.5064 12.083 -2.64268 0.0984288 4
14.1058 14.8126 -2.5115 0.0403167 4
21.1909 22.2527 -2.68839 0.0335836 1
24.0735 25.2796 -1.82947 0.84726 10
23.9141 25.1123 -0.605295 0.269263 10
24.0758 25.2821 0.609386 0.848382 10
24.077 25.2833 1.82973 0.660722 10
23.9104 25.1084 3.0334 0.20915 10
24.0793 25.2858 4.28725 0.656766 10
24.0805 25.287 5.53055 0.653587 10
23.9066 25.1044 6.73846 0.206061 10
24.0829 25.2896 8.06239 0.644843 10
23.8216 25.0151 9.2558 0.178824 10
6.76203 7.15065 -2.63705 0.0389828 4
7.84239 8.29309 -2.63512 0.0657263 4
9.30531 9.84008 -2.63251 0.0974388 4
11.3581 12.0108 -2.61821 0.107886 4
14.0544 14.8621 -2.51156 0.0397479 4
21.1138 22.3272 -2.68848 0.0335824 1
23.7243 25.0878 -1.80958 0.846316 10
22.9869 24.3079 -0.583969 0.272223 10
23.7266 25.0902 0.60276 0.847437 10
23.7277 25.0914 1.80984 0.659986 10
22.9833 24.3041 2.92652 0.21145 10
23.73 25.0938 4.24062 0.656035 10
23.7312 25.095 5.47041 0.652859 10
22.9796 24.3003 6.50104 0.208327 10
23.7336 25.0975 7.97471 0.644125 10
23.7339 25.0979 9.2557 0.178826 10
6.7371 7.17428 -2.63707 0.0449797 4
7.81349 8.32052 -2.63515 0.0292113 4
9.27104 9.87265 -2.63255 0.0788356 4
11.2124 11.94 -2.59423 0.119067 4
14.0027 14.9114 -2.51162 0.0349206 4
21.0364 22.4015 -2.68857 0.0335813 1
23.3827 24.9 -1.79014 0.845362 10
22.9277 24.4156 -0.584628 0.275179 10
23.3849 24.9024 0.596284 0.846481 10
23.386 24.9036 1.79039 0.659242 10
22.9242 24.4117 2.92982 0.213746 10
23.3882 24.9059 4.19506 0.655295 10
23.3894 24.9071 5.41163 0.652123 10
22.9205 24.4078 6.50838 0.21059 10
23.3917 24.9096 7.889 0.643399 10
23.3929 24.9109 9.15656 0.637858 10
6.71209 7.19784 -2.6371 0.0443795 4
7.7845 8.34785 -2.63519 0.0187785 4
9.23666 9.9051 -2.63259 0.0349883 4
11.0693 11.8704 -2.5707 0.100394 4
13.9509 14.9605 -2.51168 0.0360553 4
20.9588 22.4756 -2.68866 0.0335802 1
23.0483 24.7163 -1.77113 0.844397 10
22.8685 24.5234 -0.585296 0.278132 10
23.0504 24.7186 0.589953 0.845516 10
23.0515 24.7197 1.77138 0.65849 10
22.8649 24.5196 2.93317 0.21604 10
23.0537 24.7221 4.15051 0.654548 10
23.0548 24.7233 5.35415 0.651379 10
22.8612 24.5157 6.51581 0.212851 10
23.0571 24.7257 7.80521 0.642665 10
23.0582 24.7269 9.05931 0.637131 10
6.687 7.2213 -2.63713 0.0347835 4
7.75541 8.37508 -2.63522 0.0610292 4
9.21366 9.94984 -2.63592 0.0318664 4
10.9289 11.8021 -2.54762 0.126031 4
13.899 15.0095 -2.51174 0.0468424 4
20.8809 22.5493 -2.68875 0.0335791 1
22.7209 24.5364 -1.75255 0.843423 10
22.722 24.5375 -0.583735 0.844496 10
22.723 24.5386 0.583762 0.84454 10
22.7241 24.5398 1.75279 0.65773 10
22.7252 24.5409 2.92622 0.656161 10
22.7262 24.5421 4.10695 0.653792 10
22.7273 24.5432 5.29796 0.650627 10
22.7284 24.5444 6.50233 0.646669 10
22.7295 24.5456 7.72328 0.641924 10
22.7306 24.5468 8.9642 0.636396 10
6.66182 7.24468 -2.63716 0.0695663 4
7.72623 8.40221 -2.63525 0.0125187 4
9.22104 10.0278 -2.64803 0.0365543 4
10.7908 11.7349 -2.52498 0.118308 4
13.8468 15.0583 -2.5118 0.0383247 4
20.8028 22.6229 -2.68883 0.033578 1
22.4003 24.3602 -1.73437 0.842438 10
22.4014 24.3613 -0.57768 0.843509 10
22.4024 24.3624 0.577706 0.843553 10
22.4034 24.3636 1.73461 0.656962 10
22.4045 24.3647 2.89586 0.655395 10
22.4055 24.3658 4.06434 0.653029 10
22.4066 24.367 5.24299 0.649868 10
22.4076 24.3681 6.43486 0.645914 10
22.4087 24.3693 7.64314 0.641174 10
22.4098 24.3705 8.87118 0.635653 10
6.63657 7.26797 -2.63719 0.0203899 4
7.69695 8.42924 -2.63529 0.0140833 4
9.22832 10.1063 -2.66024 0.036988 4
10.7174 11.7371 -2.51737 0.0338145 4
13.7945 15.1069 -2.51186 0.0320784 4
20.7244 22.6961 -2.68893 0.0335769 1
22.0864 24.1877 -1.71658 0.841442 10
22.0874 24.1888 -0.571756 0.842513 10
22.0884 24.1899 0.571782 0.842557 10
22.0894 24.191 1.71682 0.656186 10
22.0904 24.1921 2.86616 0.654621 10
22.0914 24.1932 4.02265 0.652258 10
22.0924 24.1943 5.18921 0.6491 10
22.0935 24.1954 6.36886 0.645152 10
22.0945 24.1966 7.56474 0.640417 10
22.0956 24.1978 8.78018 0.634902 10
6.61123 7.29117 -2.63722 0.0299848 4
7.66758 8.45616 -2.63532 0.0318174 4
9.23551 10.1854 -2.67254 0.00868059 4
10.6766 11.7746 -2.51742 0.0490846 4
13.742 15.1553 -2.51192 0.042581 4
20.6457 22.7691 -2.68902 0.0335757 1
21.1817 23.3602 -1.6526 0.28957 10
21.1806 23.3589 -0.550391 0.28991 10
21.7807 24.0208 0.565984 0.84155 10
21.1784 23.3565 1.65234 0.225757 10
21.1773 23.3553 2.75825 0.22519 10
21.0411 23.2051 3.84613 0.651478 10
21.175 23.3528 4.99284 0.223247 10
21.1739 23.3515 6.12722 0.221867 10
21.1727 23.3502 7.27699 0.220216 10
21.0451 23.2095 8.39487 0.634144 10
6.58582 7.31429 -2.63725 0.0179907 4
7.63812 8.48298 -2.63536 0.0328602 4
9.24261 10.2649 -2.68495 0.0166851 4
10.6356 11.812 -2.51747 0.0414484 4
13.6894 15.2036 -2.51198 0.0326446 4
20.5668 22.8418 -2.68911 0.0335746 1
21.1256 23.4623 -1.6546 0.29251 10
21.1245 23.4611 -0.551057 0.292846 10
21.4792 23.8551 0.560311 0.840533 10
21.1223 23.4586 1.65434 0.228043 10
21.1211 23.4574 2.76158 0.227471 10
20.7499 23.045 3.80757 0.650691 10
21.1189 23.4549 4.99888 0.225508 10
21.1177 23.4536 6.13463 0.224114 10
21.1166 23.4523 7.28579 0.222446 10
20.8542 23.1609 8.35092 0.178839 10
6.56032 7.33731 -2.63728 0.0371803 4
7.60856 8.5097 -2.63539 0.025036 4
9.2496 10.3451 -2.69745 0.0332154 4
11.0644 12.3748 -2.62917 0.0487192 4
13.6365 15.2516 -2.51204 0.0354824 4
20.4877 22.9142 -2.6892 0.0335734 1
21.0693 23.5647 -1.65663 0.295438 10
21.0682 23.5635 -0.551731 0.295785 10
21.1837 23.6927 0.554756 0.839506 10
21.066 23.561 1.65637 0.230326 10
21.0649 23.5598 2.76496 0.229754 10
20.5764 23.0135 3.79047 0.0837626 10
20.4653 22.8891 4.86305 0.64675 10
21.0615 23.556 6.14214 0.226358 10
21.0603 23.5547 7.2947 0.224674 10
20.773 23.2333 8.35083 0.178842 10
6.53474 7.36025 -2.63731 0.040778 4
7.57891 8.53632 -2.63543 0.0464203 4
9.25424 10.4233 -2.7094 0.0729539 1
11.0213 12.4136 -2.62922 0.060716 4
13.5835 15.2995 -2.5121 0.0431455 4
20.4083 22.9864 -2.68929 0.0335723 1
20.9924 23.6443 -1.65706 0.298356 10
20.9913 23.6431 -0.551876 0.298707 10
20.894 23.5335 0.549317 0.838468 10
20.9891 23.6406 1.6568 0.148488 10
20.988 23.6393 2.76569 0.148119 10
20.4955 23.0846 3.79037 0.0837647 10
20.1853 22.7353 4.81536 0.645951 10
20.9846 23.6355 6.14375 0.145934 10
20.9835 23.6342 7.29661 0.144848 10
20.6915 23.3054 8.35073 0.178844 10
6.50908 7.3831 -2.63734 0.0209884 4
7.54916 8.56284 -2.63546 0.0312942 4
9.21795 10.4557 -2.70944 0.0729527 1
10.9781 12.4523 -2.62927 0.0385376 4
13.5304 15.3472 -2.51216 0.0374676 4
20.3286 23.0583 -2.68938 0.0335711 1
20.7398 23.5247 -1.64359 0.836312 10
20.6099 23.3773 0.54399 0.83742 10
20.4143 23.1554 3.79028 0.0837668 10
19.9109 22.5844 4.76866 0.645144 10
20.6098 23.3772 8.35063 0.178846 10
6.48334 7.40586 -2.63737 0.0221875 4
7.51932 8.58925 -2.63549 0.0365094 4
9.18154 10.488 -2.70949 0.0729516 1
10.9348 12.4907 -2.62932 0.0450808 4
13.4771 15.3947 -2.51222 0.012205 4
19.6357 22.4297 -2.60806 0.833175 10
19.6365 22.4306 -1.56236 0.835255 10
20.3313 23.2242 0.538772 0.836362 10
20.3328 23.226 3.79018 0.083769 10
19.7507 22.561 4.74913 0.107765 10
20.3375 23.2314 8.27313 0.630236 10
6.45753 7.42853 -2.6374 0.0245859 4
7.4894 8.61556 -2.63553 0.0229485 4
9.14502 10.5201 -2.70953 0.0729504 1
10.8914 12.5291 -2.62937 0.0319922 4
13.4236 15.4421 -2.51229 0.0351951 4
19.5015 22.4339 -2.60062 0.306373 10
19.5004 22.4327 -1.55775 0.307109 10
19.4994 22.4315 -0.5188 0.30747 10
19.4984 22.4303 0.518772 0.307457 10
19.4973 22.4291 1.5575 0.239426 10
19.4963 22.4279 2.59993 0.238832 10
19.4953 22.4267 3.64863 0.237947 10
19.6714 22.6294 4.74904 0.107767 10
19.4932 22.4243 5.77552 0.235309 10
19.4921 22.4231 6.85929 0.233559 10
20.064 23.081 8.1946 0.629432 10
6.43163 7.45111 -2.63743 0.0245856 4
7.45938 8.64177 -2.63557 0.016168 4
9.10838 10.5522 -2.70957 0.0729493 1
10.8478 12.5673 -2.62942 0.0425343 4
13.3699 15.4892 -2.51235 0.0411545 4
19.4482 22.5309 -2.60398 0.309276 10
19.4471 22.5297 -1.55976 0.310019 10
19.4461 22.5285 -0.519471 0.310384 10
19.4451 22.5273 0.519443 0.310371 10
19.444 22.5261 1.55951 0.241695 10
19.443 22.5249 2.60329 0.241096 10
19.442 22.5237 3.65335 0.240202 10
19.5919 22.6975 4.74894 0.107769 10
19.4398 22.5213 5.78299 0.237539 10
19.4388 22.52 6.86816 0.235773 10
19.7957 22.9335 8.11765 0.628619 10
6.40566 7.47361 -2.63746 0.0203878 4
7.42927 8.66787 -2.6356 0.0876191 4
9.07164 10.5841 -2.70962 0.0729481 1
10.804 12.6053 -2.62947 0.0290827 4
13.3161 15.5362 -2.51241 0.0405858 4
19.3947 22.6282 -2.60738 0.312175 10
19.3937 22.627 -1.5618 0.312925 10
19.3926 22.6258 -0.520149 0.313294 10
19.3916 22.6246 0.520121 0.313281 10
19.3906 22.6234 1.56155 0.243961 10
19.3896 22.6222 2.60669 0.243356 10
19.3885 22.621 3.65812 0.242455 10
19.5122 22.7653 4.74885 0.107771 10
19.3864 22.6185 5.79054 0.239767 10
19.3853 22.6172 6.87713 0.237984 10
19.5323 22.7888 8.04223 0.627799 10
6.3796 7.49601 -2.63749 0.0287825 4
7.39906 8.69387 -2.63564 0.110044 4
9.03478 10.6158 -2.70966 0.072947 1
10.7602 12.6432 -2.62952 0.0109058 4
13.2621 15.583 -2.51248 0.0428553 4
19.2657 22.6371 -2.60065 0.828857 10
19.2665 22.6381 -1.55791 0.830927 10
19.2673 22.639 -0.518904 0.831985 10
19.2681 22.6399 0.518925 0.832029 10
19.2689 22.6409 1.55811 0.647987 10
19.2697 22.6418 2.60118 0.646442 10
19.2705 22.6428 3.65074 0.644109 10
19.2713 22.6437 4.70943 0.640991 10
19.2721 22.6447 5.77998 0.637092 10
19.273 22.6457 6.86526 0.632417 10
