VERSION 0.7
FIELDS x y z intensity label
SIZE 4 4 4 4 4
TYPE F F F F F
COUNT 1 1 1 1 1
WIDTH 1248
HEIGHT 1
VIEWPOINT 18.9538 52.4395 2.72762 0.968142 -0.000104344 0.000756855 -0.250401
POINTS 1248
DATA ascii
5.42776 -11.3286 -0.658334 0.887405 10
5.42772 -11.3285 -0.219265 0.888493 10
5.42769 -11.3285 0.219264 0.888498 10
5.42766 -11.3284 0.658322 0.887421 10
5.2718 -11.0031 1.06743 0.690251 10
5.27177 -11.003 1.49806 0.687727 10
5.27173 -11.003 1.9324 0.684365 10
5.2717 -11.0029 2.37155 0.68017 10
5.27167 -11.0028 2.81671 0.675146 10
5.27163 -11.0027 3.2691 0.669299 10
4.42816 -9.16009 -2.72619 0.0983849 1
5.13911 -10.6308 -2.72604 0.0855153 1
5.4663 -11.3076 -2.44133 0.87245 10
5.46627 -11.3075 -1.98922 0.877842 10
5.46623 -11.3075 -1.5421 0.882166 10
5.4662 -11.3074 -1.0988 0.885414 10
5.46617 -11.3073 -0.658201 0.887583 10
5.46613 -11.3072 -0.219221 0.888672 10
5.4661 -11.3072 0.219219 0.888677 10
5.46606 -11.3071 0.658189 0.8876 10
5.46603 -11.307 1.09876 0.69039 10
5.466 -11.307 1.54203 0.687865 10
5.46596 -11.3069 1.98911 0.684503 10
5.46593 -11.3068 2.44116 0.434295 10
5.46589 -11.3067 2.89938 0.431087 10
5.46586 -11.3067 3.36505 0.427354 10
4.46002 -9.1444 -2.72613 0.0983868 1
5.17606 -10.6125 -2.72598 0.0855173 1
5.5047 -11.2863 -2.44087 0.872615 10
5.50467 -11.2862 -1.98885 0.878009 10
5.50463 -11.2862 -1.54181 0.882333 10
5.5046 -11.2861 -1.09859 0.885581 10
5.50456 -11.286 -0.658077 0.887751 10
5.50453 -11.286 -0.219179 0.88884 10
5.50449 -11.2859 0.219178 0.888845 10
5.50446 -11.2858 0.658065 0.887768 10
5.50443 -11.2858 1.09856 0.69052 10
5.50439 -11.2857 1.54174 0.687996 10
5.50436 -11.2856 1.98874 0.684633 10
5.53394 -11.3463 2.45383 0.434377 10
5.5339 -11.3462 2.91443 0.431168 10
5.53387 -11.3461 3.38251 0.427435 10
4.49182 -9.12859 -2.72608 0.0983888 1
5.21296 -10.5941 -2.72591 0.0855193 1
5.54308 -11.265 -2.44044 0.872769 10
5.54305 -11.265 -1.9885 0.878164 10
5.54301 -11.2649 -1.54153 0.882489 10
5.54298 -11.2648 -1.0984 0.885738 10
5.54294 -11.2648 -0.657961 0.887909 10
5.54291 -11.2647 -0.219141 0.888997 10
5.54287 -11.2646 0.219139 0.889003 10
5.54284 -11.2645 0.657948 0.887925 10
5.54281 -11.2645 1.09836 0.690642 10
5.54277 -11.2644 1.54147 0.688117 10
5.54274 -11.2643 1.98838 0.684754 10
5.57606 -11.3321 2.45495 0.0211384 10
4.52357 -9.11267 -2.72603 0.0983907 1
5.24979 -10.5756 -2.72585 0.0855213 1
5.58145 -11.2438 -2.44003 0.872913 10
5.58142 -11.2437 -1.98817 0.878309 10
5.58138 -11.2436 -1.54128 0.882634 10
5.58135 -11.2435 -1.09821 0.885884 10
5.58131 -11.2435 -0.657852 0.888055 10
5.58128 -11.2434 -0.219105 0.889144 10
5.58124 -11.2433 0.219103 0.889149 10
5.58121 -11.2433 0.65784 0.888071 10
5.58117 -11.2432 1.09818 0.690756 10
5.58114 -11.2431 1.54121 0.688231 10
5.5811 -11.2431 1.98806 0.684867 10
4.55526 -9.09665 -2.72597 0.0983927 1
5.28655 -10.557 -2.72579 0.0855232 1
5.61981 -11.2225 -2.43966 0.873046 10
5.61977 -11.2224 -1.98787 0.878443 10
5.61974 -11.2224 -1.54105 0.882769 10
5.6197 -11.2223 -1.09805 0.886019 10
5.61967 -11.2222 -0.657752 0.88819 10
5.61963 -11.2221 -0.219071 0.889279 10
5.6196 -11.2221 0.21907 0.889285 10
5.61956 -11.222 0.65774 0.888207 10
5.61953 -11.2219 1.09801 0.690862 10
5.61949 -11.2219 1.54098 0.688336 10
5.61946 -11.2218 1.98775 0.684971 10
4.5869 -9.08051 -2.72592 0.0983946 1
5.32324 -10.5382 -2.72572 0.0855252 1
5.65815 -11.2012 -2.43932 0.873169 10
5.65812 -11.2012 -1.98759 0.878566 10
7.7698 -15.3816 -2.1159 0.882893 10
7.76975 -15.3815 -1.50765 0.886144 10
7.7697 -15.3814 -0.903112 0.888315 10
7.76965 -15.3813 -0.300791 0.889404 10
7.7696 -15.3812 0.300789 0.88941 10
7.76956 -15.3811 0.903095 0.888332 10
5.65787 -11.2007 1.09786 0.690959 10
5.65784 -11.2006 1.54076 0.688432 10
5.6578 -11.2005 1.98748 0.685067 10
4.61847 -9.06427 -2.72586 0.0983966 1
5.35987 -10.5193 -2.72566 0.0855272 1
5.69649 -11.18 -2.43901 0.873281 10
5.69645 -11.1799 -1.98733 0.878679 10
7.82243 -15.3524 -2.11563 0.883006 10
7.82239 -15.3523 -1.50746 0.886257 10
7.82234 -15.3522 -0.902996 0.888429 10
7.82229 -15.3521 -0.300752 0.889518 10
7.82224 -15.352 0.30075 0.889524 10
7.82219 -15.3519 0.902979 0.888445 10
5.6962 -11.1794 1.09772 0.691047 10
5.69617 -11.1794 1.54056 0.688521 10
5.69613 -11.1793 1.98722 0.685155 10
4.64999 -9.04791 -2.72581 0.0983985 1
5.39643 -10.5003 -2.7256 0.0855291 1
5.73481 -11.1587 -2.43872 0.873382 10
5.73478 -11.1587 -1.9871 0.87878 10
7.87506 -15.3232 -2.11538 0.883108 10
7.87502 -15.3231 -1.50728 0.88636 10
7.87497 -15.323 -0.902891 0.888532 10
7.87492 -15.3229 -0.300717 0.889621 10
7.87487 -15.3228 0.300715 0.889627 10
7.87482 -15.3228 0.902875 0.888548 10
5.73453 -11.1582 1.09759 0.691127 10
5.73449 -11.1581 1.54039 0.6886 10
5.73446 -11.158 1.98699 0.685235 10
4.68145 -9.03144 -2.72576 0.0984005 1
5.43293 -10.4812 -2.72554 0.0855311 1
5.77313 -11.1375 -2.43847 0.873473 10
5.77309 -11.1374 -1.98689 0.878872 10
9.53812 -18.4009 -2.54484 0.108607 10
10.0822 -19.4506 -1.91674 0.886452 10
10.0822 -19.4505 -1.14816 0.888624 10
10.0821 -19.4504 -0.382408 0.889714 10
10.0821 -19.4503 0.382405 0.889719 10
9.26487 -17.8737 1.05509 0.0339832 10
5.77284 -11.1369 1.09748 0.691199 10
5.77281 -11.1369 1.54023 0.688672 10
5.77277 -11.1368 1.98678 0.685306 10
4.71286 -9.01487 -2.7257 0.0984024 1
5.46936 -10.4619 -2.72547 0.0855331 1
5.81144 -11.1163 -2.43825 0.873553 10
5.8114 -11.1162 -1.98671 0.878952 10
9.60188 -18.3667 -2.54473 0.108611 10
10.1491 -19.4135 -1.91656 0.886533 10
10.1491 -19.4134 -1.14806 0.888705 10
10.149 -19.4133 -0.382373 0.889795 10
10.149 -19.4132 0.38237 0.889801 10
9.32815 -17.8431 1.0552 0.0339798 10
5.81115 -11.1157 1.09738 0.691262 10
5.81112 -11.1156 1.54009 0.688735 10
5.81108 -11.1156 1.9866 0.685368 10
4.7442 -8.99818 -2.72565 0.0984044 1
5.50572 -10.4425 -2.72541 0.085535 1
5.84974 -11.095 -2.43805 0.873622 10
5.84971 -11.095 -1.98656 0.879022 10
9.66552 -18.3323 -2.54462 0.108616 10
12.987 -24.6321 -2.43622 0.886603 10
12.9869 -24.6319 -1.45934 0.888776 10
12.9869 -24.6318 -0.486049 0.889866 10
12.9868 -24.6316 0.486046 0.889871 10
9.39133 -17.8123 1.0553 0.0339763 10
5.84945 -11.0945 1.09729 0.691317 10
5.84942 -11.0944 1.53996 0.68879 10
5.84938 -11.0943 1.98644 0.685423 10
4.77549 -8.98139 -2.72559 0.0984063 1
5.54201 -10.423 -2.72535 0.085537 1
5.88804 -11.0738 -2.43789 0.873681 10
5.88801 -11.0737 -1.98642 0.879081 10
9.72903 -18.2976 -2.54451 0.108621 10
13.2411 -24.9029 -2.46755 0.886663 10
23.4817 -44.1626 -2.62129 0.293466 4
9.45441 -17.7812 1.05541 0.0339729 10
5.88775 -11.0732 1.09722 0.691364 10
5.88771 -11.0732 1.53986 0.688836 10
5.88768 -11.0731 1.98631 0.685469 10
4.80672 -8.96449 -2.72554 0.0984083 1
5.57823 -10.4034 -2.72529 0.085539 1
5.92634 -11.0526 -2.43776 0.873729 10
5.9263 -11.0525 -1.98631 0.879129 10
9.79242 -18.2628 -2.5444 0.108626 10
13.3272 -24.8551 -2.46742 0.886712 10
23.6344 -44.0779 -2.62115 0.291259 4
34.594 -64.5175 -1.27783 0.587851 10
9.51739 -17.7499 1.05552 0.0339694 10
5.92604 -11.052 1.09715 0.691402 10
5.926 -11.052 1.53978 0.688874 10
5.92597 -11.0519 1.9862 0.685507 10
5.95781 -11.1113 2.4507 0.434931 10
5.95777 -11.1112 2.91071 0.431719 10
5.95774 -11.1111 3.3782 0.42798 10
4.83788 -8.94748 -2.72549 0.0984102 1
5.61438 -10.3836 -2.72522 0.0855409 1
5.96463 -11.0313 -2.43765 0.873766 10
5.96459 -11.0313 -1.98623 0.879167 10
9.85568 -18.2277 -2.54429 0.10863 10
13.4133 -24.8074 -2.46731 0.88675 10
13.4132 -24.8073 -1.47797 0.587156 10
13.4131 -24.8071 -0.492253 0.587876 10
13.4131 -24.8069 0.49225 0.58788 10
9.58026 -17.7183 1.05562 0.033966 10
5.96433 -11.0308 1.09711 0.691431 10
5.96429 -11.0307 1.53971 0.688903 10
5.96425 -11.0307 1.98612 0.685536 10
4.86899 -8.93036 -2.72543 0.0984122 1
5.65046 -10.3637 -2.72516 0.0855429 1
6.00291 -11.0101 -2.43758 0.873793 10
6.00287 -11.01 -1.98617 0.879194 10
9.91882 -18.1924 -2.54418 0.108635 10
13.4994 -24.7597 -2.46724 0.886777 10
23.9397 -43.9085 -2.62095 0.342422 4
27.5445 -50.5201 -1.00438 0.587894 10
27.5443 -50.5198 1.00438 0.587898 10
9.64303 -17.6866 1.05573 0.0339625 10
6.00261 -11.0096 1.09707 0.691452 10
6.00258 -11.0095 1.53966 0.688924 10
6.00254 -11.0094 1.98606 0.685557 10
4.90003 -8.91313 -2.72538 0.0984141 1
5.68647 -10.3437 -2.7251 0.0855448 1
6.04119 -10.9889 -2.43753 0.873809 10
6.04116 -10.9888 -1.98613 0.87921 10
9.98183 -18.1569 -2.54407 0.10864 10
13.5855 -24.712 -2.46719 0.886793 10
13.5854 -24.7118 -1.4779 0.587185 10
13.5853 -24.7116 -0.492229 0.587905 10
13.5853 -24.7115 0.492225 0.587909 10
9.70569 -17.6546 1.05584 0.0339591 10
6.04089 -10.9883 1.09705 0.691465 10
6.04086 -10.9883 1.53963 0.688937 10
6.04082 -10.9882 1.98602 0.685569 10
4.93102 -8.8958 -2.72532 0.0984161 1
5.72241 -10.3235 -2.72503 0.0855468 1
6.07948 -10.9677 -2.43752 0.873814 10
6.07944 -10.9676 -1.98612 0.879215 10
10.0447 -18.1212 -2.54396 0.108644 10
13.6716 -24.6642 -2.46718 0.886799 10
24.245 -43.7391 -2.62088 0.295736 4
35.4879 -64.0219 -1.27771 0.587909 10
9.76825 -17.6224 1.05595 0.0339556 10
6.07918 -10.9671 1.09705 0.691469 10
6.07914 -10.9671 1.53962 0.688941 10
6.0791 -10.967 1.98601 0.685574 10
4.96194 -8.87836 -2.72527 0.098418 1
5.75828 -10.3032 -2.72497 0.0855488 1
6.11776 -10.9465 -2.43753 0.873809 10
6.11772 -10.9464 -1.98613 0.87921 10
10.1075 -18.0852 -2.54385 0.108649 10
13.7577 -24.6165 -2.46719 0.886793 10
24.3976 -43.6544 -2.62089 0.237922 4
28.0714 -50.228 -1.00437 0.587905 10
28.0713 -50.2276 1.00436 0.587909 10
9.8307 -17.59 1.05605 0.0339522 10
6.11746 -10.9459 1.09705 0.691465 10
6.11742 -10.9458 1.53963 0.688937 10
6.11738 -10.9458 1.98602 0.68557 10
4.99281 -8.86081 -2.72522 0.09842 1
5.79408 -10.2828 -2.72491 0.0855507 1
6.15605 -10.9252 -2.43758 0.873793 10
6.15601 -10.9252 -1.98617 0.879194 10
10.1701 -18.049 -2.54374 0.108654 10
13.8438 -24.5688 -2.46723 0.886777 10
13.8437 -24.5686 -1.47792 0.587175 10
13.8436 -24.5685 -0.492238 0.587894 10
13.8435 -24.5683 0.492234 0.587898 10
9.89305 -17.5573 1.05616 0.0339488 10
6.15574 -10.9247 1.09707 0.691453 10
6.1557 -10.9246 1.53966 0.688925 10
6.15566 -10.9245 1.98605 0.685557 10
5.02361 -8.84315 -2.72516 0.0984219 1
5.8298 -10.2623 -2.72485 0.0855527 1
6.19433 -10.904 -2.43765 0.873767 10
6.19429 -10.9039 -1.98623 0.879168 10
10.2326 -18.0126 -2.54363 0.108658 10
13.9299 -24.521 -2.46731 0.886751 10
24.7029 -43.4849 -2.621 0.275711 4
9.95528 -17.5245 1.05627 0.0339453 10
6.19403 -10.9035 1.09711 0.691432 10
6.19399 -10.9034 1.53971 0.688904 10
6.19395 -10.9033 1.98611 0.685537 10
5.05435 -8.82539 -2.72511 0.0984238 1
5.86546 -10.2417 -2.72479 0.0855547 1
6.23262 -10.8828 -2.43775 0.87373 10
6.23258 -10.8827 -1.98631 0.87913 10
10.295 -17.976 -2.54352 0.108663 10
14.016 -24.4733 -2.46741 0.886713 10
24.8555 -43.4002 -2.62111 0.284593 4
37.5449 -65.5571 -1.31868 0.889975 10
10.0174 -17.4914 1.05637 0.0339419 10
6.23231 -10.8822 1.09715 0.691402 10
6.23227 -10.8822 1.53977 0.688875 10
6.23223 -10.8821 1.9862 0.685507 10
5.08502 -8.80752 -2.72505 0.0984258 1
5.90104 -10.2209 -2.72472 0.0855566 1
6.27092 -10.8615 -2.43789 0.873682 10
6.27088 -10.8615 -1.98642 0.879082 10
10.3572 -17.9392 -2.54341 0.108668 10
14.1021 -24.4256 -2.46755 0.886664 10
14.102 -24.4254 -1.47811 0.5871 10
14.1019 -24.4253 -0.4923 0.58782 10
14.1018 -24.4251 0.492297 0.587823 10
10.0794 -17.4581 1.05648 0.0339384 10
6.2706 -10.861 1.09721 0.691365 10
6.27057 -10.8609 1.53986 0.688837 10
6.27053 -10.8609 1.98631 0.68547 10
5.11563 -8.78954 -2.725 0.0984277 1
5.93654 -10.2 -2.72466 0.0855586 1
6.30921 -10.8403 -2.43805 0.873624 10
6.30917 -10.8402 -1.98655 0.879023 10
10.4193 -17.9022 -2.5433 0.108672 10
14.1882 -24.3778 -2.46771 0.886605 10
25.1608 -43.2306 -2.62141 0.262329 4
10.1413 -17.4246 1.05659 0.033935 10
6.3089 -10.8398 1.09729 0.691319 10
6.30886 -10.8397 1.53996 0.688791 10
6.30882 -10.8396 1.98644 0.685424 10
5.14618 -8.77146 -2.72495 0.0984297 1
5.97197 -10.179 -2.7246 0.0855605 1
6.34752 -10.8191 -2.43824 0.873554 10
6.34748 -10.819 -1.98671 0.878954 10
10.4813 -17.865 -2.54319 0.108677 10
14.2744 -24.3301 -2.46791 0.886535 10
25.3135 -43.1458 -2.62161 0.257863 4
10.2031 -17.3908 1.05669 0.0339316 10
6.3472 -10.8185 1.09737 0.691264 10
6.34716 -10.8185 1.54008 0.688736 10
6.34712 -10.8184 1.9866 0.68537 10
6.38123 -10.8765 2.45119 0.434845 10
6.38119 -10.8765 2.9113 0.431633 10
6.38115 -10.8764 3.37887 0.427895 10
5.17667 -8.75327 -2.72489 0.0984316 1
6.00733 -10.1578 -2.72454 0.0855625 1
6.38582 -10.7978 -2.43846 0.873475 10
6.38579 -10.7978 -1.98689 0.878874 10
10.5431 -17.8275 -2.54309 0.108682 10
14.3605 -24.2823 -2.46813 0.886454 10
14.3604 -24.2822 -1.47846 0.58696 10
14.3603 -24.282 -0.492417 0.58768 10
14.3602 -24.2819 0.492414 0.587684 10
10.2648 -17.3568 1.0568 0.0339281 10
6.38551 -10.7973 1.09747 0.691201 10
6.38547 -10.7972 1.54022 0.688673 10
6.38543 -10.7972 1.98678 0.685307 10
6.38539 -10.7971 2.4383 0.434805 10
6.38535 -10.797 2.89598 0.431593 10
6.3853 -10.797 3.3611 0.427856 10
5.20709 -8.73497 -2.72484 0.0984335 1
6.04261 -10.1366 -2.72447 0.0855644 1
6.42414 -10.7766 -2.43872 0.873384 10
6.4241 -10.7765 -1.9871 0.878783 10
10.6049 -17.7898 -2.54298 0.108686 10
14.4467 -24.2346 -2.46839 0.886362 10
25.6189 -42.9761 -2.6221 0.293375 4
29.4773 -49.4486 -1.00485 0.587619 10
29.4771 -49.4483 1.00485 0.587623 10
10.3264 -17.3227 1.05691 0.0339247 10
6.42382 -10.7761 1.09759 0.691129 10
6.42378 -10.776 1.54038 0.688602 10
6.42374 -10.7759 1.98698 0.685236 10
6.23928 -10.4665 2.36854 0.681036 10
6.23924 -10.4664 2.81313 0.676005 10
6.2392 -10.4664 3.26494 0.670151 10
5.23744 -8.71657 -2.72479 0.0984355 1
6.07782 -10.1152 -2.72441 0.0855664 1
6.46247 -10.7554 -2.439 0.873283 10
6.46243 -10.7553 -1.98733 0.878681 10
10.6664 -17.7519 -2.54287 0.108691 10
14.5329 -24.1868 -2.46868 0.88626 10
14.5328 -24.1866 -1.47879 0.586832 10
14.5327 -24.1865 -0.492525 0.587551 10
14.5326 -24.1863 0.492522 0.587555 10
10.3878 -17.2882 1.05702 0.0339213 10
6.46215 -10.7548 1.09771 0.691049 10
6.46211 -10.7548 1.54056 0.688523 10
6.46207 -10.7547 1.98721 0.685157 10
6.2765 -10.4459 2.36881 0.680957 10
6.27646 -10.4458 2.81345 0.675927 10
6.27642 -10.4457 3.26532 0.670074 10
5.26773 -8.69806 -2.72473 0.0984374 1
6.11295 -10.0937 -2.72435 0.0855683 1
6.5008 -10.7341 -2.43931 0.873172 10
6.50076 -10.734 -1.98758 0.878569 10
10.7279 -17.7138 -2.54276 0.108696 10
14.6191 -24.139 -2.46899 0.886147 10
25.9244 -42.8063 -2.62272 0.29775 4
32.2552 -53.2597 -1.08685 0.889407 10
10.4492 -17.2536 1.05712 0.0339179 10
6.50048 -10.7336 1.09785 0.690961 10
6.50044 -10.7335 1.54076 0.688435 10
6.5004 -10.7334 1.98747 0.68507 10
6.31374 -10.4252 2.36912 0.68087 10
6.3137 -10.4252 2.81381 0.675841 10
6.31365 -10.4251 3.26573 0.669988 10
5.29796 -8.67945 -2.72468 0.0984393 1
6.14801 -10.0721 -2.72429 0.0855703 1
6.53915 -10.7128 -2.43965 0.873049 10
6.53911 -10.7128 -1.98786 0.878446 10
10.7892 -17.6755 -2.54265 0.1087 10
14.7053 -24.0912 -2.46934 0.886023 10
26.0772 -42.7214 -2.62308 0.208841 4
30.005 -49.1561 -1.00524 0.889283 10
30.0048 -49.1558 1.00523 0.889288 10
10.5104 -17.2188 1.05723 0.0339144 10
6.53882 -10.7123 1.09801 0.690864 10
6.53878 -10.7122 1.54097 0.688338 10
6.53874 -10.7122 1.98775 0.684974 10
6.5387 -10.7121 2.43948 0.680775 10
6.53866 -10.712 2.89739 0.675746 10
6.53861 -10.712 3.36273 0.669894 10
5.32812 -8.66074 -2.72463 0.0984413 1
6.18299 -10.0503 -2.72423 0.0855722 1
6.57751 -10.6916 -2.44002 0.872917 10
6.57746 -10.6915 -1.98816 0.878312 10
10.8503 -17.637 -2.54254 0.108705 10
14.7916 -24.0434 -2.46971 0.885888 10
14.7915 -24.0432 -1.47941 0.586585 10
14.7914 -24.0431 -0.492732 0.587305 10
14.7913 -24.0429 0.492729 0.587308 10
10.5715 -17.1837 1.05734 0.033911 10
6.57718 -10.6911 1.09818 0.690759 10
6.57714 -10.691 1.54121 0.688233 10
6.5771 -10.6909 1.98805 0.684869 10
6.57705 -10.6908 2.43986 0.680671 10
6.57701 -10.6908 2.89783 0.675643 10
6.57697 -10.6907 3.36325 0.669792 10
5.35821 -8.64192 -2.72457 0.0984432 1
6.21789 -10.0284 -2.72416 0.0855742 1
6.61588 -10.6703 -2.44043 0.872773 10
6.61583 -10.6702 -1.98849 0.878168 10
6.61579 -10.6702 -1.54153 0.582909 10
6.61575 -10.6701 -1.09839 0.585055 10
6.61571 -10.67 -0.657958 0.586489 10
6.61567 -10.67 -0.21914 0.587208 10
6.61563 -10.6699 0.219138 0.587212 10
6.61559 -10.6698 0.657945 0.5865 10
6.61555 -10.6698 1.09836 0.690645 10
6.6155 -10.6697 1.54146 0.68812 10
6.61546 -10.6696 1.98838 0.684757 10
6.61542 -10.6696 2.44026 0.680559 10
6.61538 -10.6695 2.89831 0.675532 10
6.61533 -10.6694 3.3638 0.669682 10
5.38824 -8.62299 -2.72452 0.0984451 1
6.25272 -10.0064 -2.7241 0.0855761 1
6.65426 -10.649 -2.44086 0.872619 10
6.65421 -10.649 -1.98884 0.878013 10
6.65417 -10.6489 -1.5418 0.582806 10
6.65413 -10.6488 -1.09858 0.584952 10
6.65409 -10.6488 -0.658074 0.586385 10
6.65405 -10.6487 -0.219178 0.587104 10
6.65401 -10.6486 0.219177 0.587108 10
6.65397 -10.6486 0.658062 0.586396 10
6.65393 -10.6485 1.09855 0.690523 10
6.65388 -10.6484 1.54173 0.687999 10
6.65384 -10.6484 1.98873 0.684636 10
6.6538 -10.6483 2.44069 0.680439 10
6.65376 -10.6482 2.89882 0.675413 10
6.65371 -10.6482 3.36439 0.669564 10
5.4182 -8.60396 -2.72447 0.0984471 1
6.28747 -9.98433 -2.72404 0.0855781 1
6.69265 -10.6278 -2.44132 0.872454 10
6.69261 -10.6277 -1.98921 0.877847 10
11.033 -17.5202 -2.54221 0.108719 10
15.0505 -23.8998 -2.47102 0.885418 10
15.0504 -23.8997 -1.48019 0.586275 10
15.0503 -23.8995 -0.492993 0.586993 10
15.0502 -23.8994 0.49299 0.586997 10
10.7541 -17.0773 1.05766 0.0467632 10
6.69232 -10.6272 1.09876 0.690393 10
6.69228 -10.6272 1.54202 0.687869 10
6.69223 -10.6271 1.9891 0.684506 10
6.69219 -10.627 2.44115 0.68031 10
6.69215 -10.627 2.89937 0.675285 10
6.6921 -10.6269 3.36503 0.669437 10
5.4481 -8.58483 -2.72441 0.098449 1
6.32213 -9.96209 -2.72398 0.08558 1
6.73106 -10.6065 -2.44181 0.872279 10
6.73102 -10.6064 -1.98961 0.87767 10
11.0936 -17.4808 -2.54211 0.108724 10
15.1369 -23.8519 -2.47152 0.88524 10
16.4436 -25.911 -1.6083 0.0526123 10
16.4289 -25.8878 -0.535186 0.0527237 10
16.4142 -25.8646 0.534707 0.0527708 10
10.8148 -17.0413 1.05776 0.0467585 10
6.73073 -10.6059 1.09898 0.690254 10
6.73068 -10.6059 1.54233 0.68773 10
6.73064 -10.6058 1.9895 0.684369 10
6.7306 -10.6057 2.44164 0.680173 10
6.73055 -10.6057 2.89995 0.675149 10
6.73051 -10.6056 3.36571 0.669303 10
5.47792 -8.56559 -2.72436 0.0984509 1
6.35673 -9.93974 -2.72392 0.085582 1
6.76949 -10.5852 -2.44233 0.872092 10
6.76944 -10.5851 -1.99004 0.877483 10
11.1541 -17.4412 -2.542 0.108728 10
15.2233 -23.804 -2.47205 0.885051 10
16.4864 -25.7791 -1.60368 0.88722 10
16.4863 -25.779 -0.534123 0.888308 10
16.4862 -25.7788 0.53412 0.888313 10
10.8753 -17.0052 1.05787 0.0467538 10
6.76915 -10.5846 1.09921 0.690107 10
6.76911 -10.5846 1.54266 0.687584 10
6.76907 -10.5845 1.98993 0.684223 10
6.76902 -10.5844 2.44216 0.680028 10
6.76898 -10.5844 2.90057 0.675005 10
6.76894 -10.5843 3.36642 0.66916 10
5.50768 -8.54625 -2.72431 0.0984528 1
6.39124 -9.91726 -2.72385 0.0855839 1
6.80793 -10.5638 -2.44288 0.871896 10
6.80789 -10.5638 -1.99049 0.877285 10
11.2145 -17.4014 -2.54189 0.108733 10
15.3098 -23.7561 -2.4726 0.884852 10
15.3097 -23.7559 -1.48114 0.585899 10
15.3096 -23.7558 -0.493309 0.586618 10
15.3095 -23.7556 0.493305 0.586621 10
10.9357 -16.9688 1.05798 0.0467491 10
6.80759 -10.5633 1.09946 0.689951 10
6.80755 -10.5633 1.54301 0.687429 10
6.80751 -10.5632 1.99038 0.684069 10
6.80746 -10.5631 2.44271 0.679875 10
6.80742 -10.5631 2.90122 0.674853 10
6.80738 -10.563 3.36718 0.669009 10
5.53737 -8.5268 -2.72425 0.0984548 1
6.42567 -9.89467 -2.72379 0.0855858 1
6.84639 -10.5425 -2.44346 0.871688 10
6.84635 -10.5425 -1.99096 0.877076 10
6.84631 -10.5424 -1.54345 0.582185 10
6.84626 -10.5423 -1.09976 0.584328 10
6.84622 -10.5423 -0.658776 0.58576 10
6.84618 -10.5422 -0.219412 0.586478 10
6.84614 -10.5421 0.219411 0.586482 10
6.84609 -10.5421 0.658764 0.585771 10
6.84605 -10.542 1.09972 0.689787 10
6.84601 -10.5419 1.54338 0.687265 10
6.84597 -10.5419 1.99085 0.683906 10
6.84592 -10.5418 2.44329 0.679713 10
6.84588 -10.5417 2.90191 0.674693 10
6.84583 -10.5417 3.36798 0.66885 10
5.56699 -8.50726 -2.7242 0.0984567 1
6.46003 -9.87196 -2.72373 0.0855878 1
6.88487 -10.5212 -2.44407 0.871471 10
6.88483 -10.5211 -1.99146 0.876857 10
6.88479 -10.5211 -1.54383 0.582039 10
6.88474 -10.521 -1.10003 0.584182 10
6.8847 -10.5209 -0.658941 0.585614 10
6.88466 -10.5209 -0.219467 0.586332 10
6.88462 -10.5208 0.219466 0.586335 10
6.88457 -10.5207 0.658929 0.585625 10
6.88453 -10.5207 1.1 0.689615 10
6.88449 -10.5206 1.54376 0.687093 10
6.88444 -10.5205 1.99135 0.683735 10
6.8844 -10.5205 2.4439 0.679543 10
6.88436 -10.5204 2.90264 0.674524 10
6.88431 -10.5203 3.36883 0.668683 10
5.59655 -8.48761 -2.72415 0.0984586 1
6.4943 -9.84912 -2.72367 0.0855897 1
6.92337 -10.4998 -2.44471 0.871242 10
6.92333 -10.4998 -1.99198 0.876627 10
11.3946 -17.2808 -2.54156 0.108747 10
15.5694 -23.6122 -2.47446 0.884188 10
16.8612 -25.5714 -1.60525 0.886355 10
16.8611 -25.5712 -0.534645 0.887441 10
16.861 -25.571 0.534641 0.887447 10
11.1161 -16.8585 1.05829 0.046735 10
6.92303 -10.4993 1.10029 0.689434 10
6.92299 -10.4993 1.54417 0.686913 10
6.92294 -10.4992 1.99187 0.683556 10
6.9229 -10.4991 2.44455 0.679365 10
6.92285 -10.4991 2.9034 0.674347 10
6.92281 -10.499 3.36971 0.668507 10
5.62603 -8.46786 -2.72409 0.0984605 1
6.52849 -9.82617 -2.72361 0.0855917 1
6.9619 -10.4785 -2.44539 0.871003 10
6.96185 -10.4784 -1.99253 0.876386 10
11.4544 -17.2402 -2.54146 0.108751 10
15.656 -23.5642 -2.47514 0.883945 10
16.955 -25.5194 -1.60569 0.886111 10
16.9549 -25.5192 -0.534792 0.887198 10
16.9548 -25.519 0.534788 0.887203 10
11.176 -16.8212 1.0584 0.0467303 10
6.96155 -10.478 1.10059 0.689245 10
6.9615 -10.4779 1.54459 0.686725 10
6.96146 -10.4778 1.99242 0.683368 10
6.96142 -10.4778 2.44522 0.679179 10
6.96137 -10.4777 2.9042 0.674162 10
6.96133 -10.4776 3.37064 0.668324 10
5.65544 -8.448 -2.72404 0.0984625 1
6.5626 -9.8031 -2.72355 0.0855936 1
7.00044 -10.4571 -2.44609 0.870753 10
7.00039 -10.4571 -1.9931 0.876135 10
11.514 -17.1994 -2.54135 0.108756 10
15.7427 -23.5161 -2.47585 0.883692 10
15.7426 -23.516 -1.48308 0.585131 10
15.7425 -23.5158 -0.493956 0.585849 10
15.7424 -23.5157 0.493953 0.585853 10
11.2358 -16.7838 1.05851 0.0467256 10
7.00009 -10.4566 1.1009 0.689047 10
7.00004 -10.4565 1.54504 0.686528 10
7 -10.4565 1.99299 0.683172 10
6.99995 -10.4564 2.44592 0.678984 10
6.99991 -10.4563 2.90503 0.673968 10
6.99986 -10.4563 3.3716 0.668132 10
5.68479 -8.42804 -2.72399 0.0984644 1
6.59663 -9.77991 -2.72348 0.0855955 1
7.039 -10.4358 -2.44682 0.870493 10
7.03896 -10.4357 -1.9937 0.875873 10
11.5735 -17.1584 -2.54124 0.108761 10
15.8294 -23.468 -2.47659 0.883428 10
28.0685 -41.6133 -2.63059 0.276921 4
32.2986 -47.8846 -1.00819 0.585674 10
32.2984 -47.8843 1.00818 0.585677 10
11.2954 -16.7462 1.05861 0.0467209 10
7.03865 -10.4352 1.10123 0.688841 10
7.03861 -10.4352 1.5455 0.686322 10
7.03856 -10.4351 1.99359 0.682968 10
7.03852 -10.435 2.44665 0.678781 10
7.03847 -10.435 2.9059 0.673767 10
7.03842 -10.4349 3.37261 0.667932 10
5.71406 -8.40799 -2.72393 0.0984663 1
6.63058 -9.75661 -2.72342 0.0855975 1
7.07759 -10.4144 -2.44758 0.870222 10
7.07754 -10.4143 -1.99432 0.8756 10
7.0775 -10.4142 -1.54605 0.581205 10
7.07745 -10.4142 -1.10161 0.583345 10
7.07741 -10.4141 -0.659887 0.584774 10
7.07736 -10.414 -0.219782 0.585491 10
7.07732 -10.414 0.219781 0.585495 10
7.07728 -10.4139 0.659875 0.584785 10
7.07724 -10.4138 1.10158 0.688626 10
7.07719 -10.4138 1.54598 0.686109 10
7.07715 -10.4137 1.99421 0.682755 10
7.0771 -10.4136 2.44741 0.678569 10
7.07705 -10.4136 2.90681 0.673557 10
7.07701 -10.4135 3.37366 0.667724 10
5.74326 -8.38783 -2.72388 0.0984682 1
6.66445 -9.73318 -2.72336 0.0855994 1
7.1162 -10.393 -2.44837 0.86994 10
7.11616 -10.3929 -1.99496 0.875317 10
7.11611 -10.3928 -1.54655 0.581017 10
7.11607 -10.3928 -1.10197 0.583156 10
7.11602 -10.3927 -0.6601 0.584585 10
7.11598 -10.3926 -0.219853 0.585302 10
7.11593 -10.3926 0.219852 0.585306 10
7.11589 -10.3925 0.660088 0.584596 10
7.11585 -10.3924 1.10193 0.688404 10
7.1158 -10.3924 1.54648 0.685887 10
7.11576 -10.3923 1.99485 0.682534 10
7.11571 -10.3922 2.4482 0.67835 10
7.11566 -10.3922 2.90775 0.673339 10
7.11562 -10.3921 3.37475 0.667508 10
5.7724 -8.36757 -2.72383 0.0984701 1
6.69823 -9.70964 -2.7233 0.0856013 1
7.15484 -10.3715 -2.4492 0.869648 10
7.15479 -10.3715 -1.99563 0.875023 10
11.751 -17.0341 -2.54092 0.108774 10
16.0899 -23.3236 -2.479 0.88257 10
28.5298 -41.3563 -2.63309 0.241246 4
11.4736 -16.632 1.05893 0.0467069 10
7.15448 -10.371 1.1023 0.688172 10
7.15444 -10.3709 1.547 0.685656 10
7.15439 -10.3709 1.99552 0.682305 10
7.15435 -10.3708 2.44903 0.678122 10
7.1543 -10.3707 2.90872 0.673113 10
7.15425 -10.3707 3.37589 0.667284 10
5.80145 -8.3472 -2.72377 0.098472 1
6.73193 -9.68598 -2.72324 0.0856033 1
7.1935 -10.3501 -2.45005 0.869345 10
7.19346 -10.35 -1.99633 0.874718 10
11.8099 -16.9922 -2.54081 0.108779 10
16.1768 -23.2754 -2.47986 0.882263 10
16.2067 -23.3184 -1.48824 0.0592672 10
16.1982 -23.3061 -0.495416 0.0593707 10
16.1897 -23.2939 0.495155 0.0594018 10
11.5328 -16.5935 1.05904 0.0467022 10
7.19315 -10.3496 1.10269 0.687933 10
7.1931 -10.3495 1.54754 0.685417 10
7.19305 -10.3495 1.99622 0.682067 10
7.19301 -10.3494 2.44988 0.677886 10
7.19296 -10.3493 2.90974 0.672879 10
7.19291 -10.3492 3.37706 0.667052 10
5.83044 -8.32674 -2.72372 0.0984739 1
6.76555 -9.6622 -2.72318 0.0856052 1
7.2322 -10.3286 -2.45093 0.869031 10
7.23215 -10.3286 -1.99705 0.874403 10
11.8686 -16.9502 -2.5407 0.108784 10
16.2638 -23.2272 -2.48075 0.881945 10
28.8378 -41.1846 -2.63491 0.283102 4
33.185 -47.3932 -1.00989 0.584691 10
33.1848 -47.3929 1.00988 0.584694 10
11.5918 -16.5548 1.05914 0.0466976 10
7.23184 -10.3281 1.10308 0.687685 10
7.23179 -10.3281 1.5481 0.68517 10
7.23174 -10.328 1.99694 0.681821 10
7.2317 -10.3279 2.45076 0.677641 10
7.23165 -10.3279 2.91079 0.672636 10
7.2316 -10.3278 3.37828 0.666811 10
5.85936 -8.30617 -2.72367 0.0984759 1
6.79908 -9.63831 -2.72312 0.0856071 1
7.27092 -10.3072 -2.45185 0.868707 10
7.27087 -10.3071 -1.99779 0.874077 10
11.9272 -16.9079 -2.5406 0.108788 10
16.3509 -23.1789 -2.48168 0.881616 10
28.992 -41.0987 -2.63588 0.172452 4
11.6507 -16.5159 1.05925 0.0466929 10
7.27055 -10.3067 1.1035 0.687428 10
7.27051 -10.3066 1.54867 0.684915 10
7.27046 -10.3065 1.99768 0.681567 10
7.27042 -10.3065 2.45168 0.677389 10
7.27037 -10.3064 2.91187 0.672385 10
7.27032 -10.3063 3.37954 0.666563 10
5.88821 -8.28551 -2.72362 0.0984778 1
6.83253 -9.6143 -2.72305 0.085609 1
7.30967 -10.2857 -2.45279 0.868373 10
7.30962 -10.2856 -1.99856 0.87374 10
7.30957 -10.2856 -1.54934 0.57997 10
7.30953 -10.2855 -1.10396 0.582106 10
7.30948 -10.2854 -0.661291 0.583532 10
7.30944 -10.2854 -0.22025 0.584248 10
7.30939 -10.2853 0.220249 0.584251 10
7.30935 -10.2852 0.661279 0.583543 10
7.3093 -10.2852 1.10392 0.687164 10
7.30926 -10.2851 1.54927 0.684651 10
7.30921 -10.2851 1.99845 0.681305 10
7.30916 -10.285 2.45262 0.677128 10
7.30912 -10.2849 2.91299 0.672126 10
7.30907 -10.2849 3.38084 0.666306 10
5.91698 -8.26475 -2.72356 0.0984797 1
6.86589 -9.59018 -2.72299 0.085611 1
7.34845 -10.2642 -2.45377 0.868028 10
7.3484 -10.2641 -1.99936 0.873393 10
7.34835 -10.2641 -1.54995 0.57974 10
7.34831 -10.264 -1.1044 0.581874 10
7.34826 -10.2639 -0.661555 0.5833 10
7.34821 -10.2639 -0.220338 0.584015 10
7.34817 -10.2638 0.220336 0.584019 10
7.34812 -10.2638 0.661542 0.583311 10
7.34808 -10.2637 1.10436 0.68689 10
7.34803 -10.2636 1.54989 0.684379 10
7.34798 -10.2636 1.99925 0.681034 10
7.34794 -10.2635 2.4536 0.676859 10
7.34789 -10.2634 2.91415 0.671859 10
7.34784 -10.2634 3.38219 0.666041 10
5.94567 -8.24388 -2.72351 0.0984816 1
6.89917 -9.56594 -2.72293 0.0856129 1
7.38726 -10.2427 -2.45477 0.867672 10
7.38721 -10.2426 -2.00018 0.873035 10
12.1021 -16.78 -2.54027 0.108802 10
16.6126 -23.0339 -2.48464 0.880565 10
16.6971 -23.1511 -1.49593 0.105149 10
16.6896 -23.1407 -0.498016 0.105325 10
16.6821 -23.1304 0.497793 0.105372 10
11.8265 -16.3979 1.05957 0.0466789 10
7.38689 -10.2422 1.10481 0.686609 10
7.38684 -10.2421 1.55052 0.684099 10
7.38679 -10.242 2.00007 0.680755 10
7.38675 -10.242 2.4546 0.676582 10
7.3867 -10.2419 2.91535 0.671584 10
7.38665 -10.2418 3.38357 0.665768 10
5.9743 -8.22292 -2.72346 0.0984835 1
6.93237 -9.54159 -2.72287 0.0856148 1
7.4261 -10.2212 -2.45581 0.867306 10
7.42605 -10.2211 -2.00102 0.872666 10
12.1601 -16.7369 -2.54017 0.108807 10
16.4867 -22.692 -2.45396 0.880193 10
16.4866 -22.6919 -1.46997 0.88235 10
16.4865 -22.6917 -0.489589 0.883432 10
16.4864 -22.6916 0.489585 0.883438 10
11.8849 -16.3581 1.05967 0.0466743 10
7.42573 -10.2206 1.10528 0.686319 10
7.42568 -10.2206 1.55118 0.68381 10
7.42564 -10.2205 2.00091 0.680467 10
7.42559 -10.2204 2.45564 0.676296 10
7.42554 -10.2204 2.91658 0.6713 10
7.42549 -10.2203 3.385 0.665487 10
6.00285 -8.20186 -2.72341 0.0984854 1
6.96547 -9.51712 -2.72281 0.0856167 1
7.46498 -10.1996 -2.45688 0.866929 10
7.46493 -10.1995 -2.00189 0.872287 10
12.2179 -16.6937 -2.54006 0.108811 10
16.573 -22.6442 -2.45502 0.879811 10
16.5729 -22.644 -1.47061 0.881967 10
16.5728 -22.6439 -0.489802 0.883048 10
16.5727 -22.6437 0.489798 0.883054 10
11.9431 -16.3181 1.05978 0.0466696 10
7.46461 -10.1991 1.10576 0.686021 10
7.46456 -10.199 1.55185 0.683513 10
7.46451 -10.199 2.00178 0.680172 10
7.46446 -10.1989 2.45671 0.676002 10
7.46441 -10.1988 2.91785 0.671009 10
7.46437 -10.1988 3.38647 0.665198 10
6.03133 -8.18069 -2.72335 0.0984873 1
6.9985 -9.49253 -2.72275 0.0856186 1
7.50389 -10.178 -2.45798 0.866541 10
7.50384 -10.178 -2.00279 0.871897 10
12.2756 -16.6502 -2.53995 0.108816 10
16.6594 -22.5963 -2.45612 0.879418 10
16.6593 -22.5961 -1.47127 0.881573 10
16.6592 -22.596 -0.490021 0.882653 10
16.6591 -22.5958 0.490017 0.882659 10
12.0012 -16.278 1.05988 0.046665 10
7.50352 -10.1775 1.10625 0.685714 10
7.50347 -10.1775 1.55255 0.683207 10
7.50342 -10.1774 2.00267 0.679868 10
7.50337 -10.1773 2.4578 0.6757 10
7.50332 -10.1773 2.91915 0.670709 10
7.50327 -10.1772 3.38799 0.664901 10
6.05973 -8.15943 -2.7233 0.0984892 1
7.03143 -9.46783 -2.72269 0.0856206 1
7.54284 -10.1564 -2.4591 0.866143 10
7.54279 -10.1564 -2.00371 0.871497 10
7.54274 -10.1563 -1.55333 0.578481 10
7.54269 -10.1562 -1.1068 0.580611 10
7.54265 -10.1562 -0.662994 0.582034 10
7.5426 -10.1561 -0.220817 0.582748 10
7.54255 -10.1561 0.220815 0.582751 10
7.54251 -10.156 0.662981 0.582045 10
7.54246 -10.1559 1.10676 0.685399 10
7.54241 -10.1559 1.55326 0.682893 10
7.54237 -10.1558 2.0036 0.679555 10
7.54232 -10.1557 2.45893 0.67539 10
7.54227 -10.1557 2.92049 0.670401 10
7.54222 -10.1556 3.38954 0.664595 10
6.08806 -8.13808 -2.72325 0.0984911 1
7.06428 -9.44302 -2.72263 0.0856225 1
7.58182 -10.1348 -2.46027 0.865735 10
7.58177 -10.1348 -2.00465 0.871086 10
7.58172 -10.1347 -1.55406 0.578208 10
7.58168 -10.1346 -1.10732 0.580337 10
7.58163 -10.1346 -0.663307 0.581759 10
7.58158 -10.1345 -0.220921 0.582473 10
7.58153 -10.1344 0.22092 0.582476 10
7.58149 -10.1344 0.663294 0.58177 10
7.58144 -10.1343 1.10729 0.685076 10
7.58139 -10.1343 1.55399 0.682571 10
7.58135 -10.1342 2.00454 0.679235 10
7.5813 -10.1341 2.46009 0.675071 10
7.58125 -10.1341 2.92187 0.670085 10
7.5812 -10.134 3.39114 0.664282 10
6.11631 -8.11662 -2.7232 0.098493 1
7.09704 -9.41809 -2.72257 0.0856244 1
7.62084 -10.1132 -2.46146 0.865316 10
7.62079 -10.1131 -2.00562 0.870664 10
12.4477 -16.5187 -2.53963 0.108829 10
17.4475 -23.1536 -2.53642 0.0779287 10
30.3847 -40.3219 -2.64599 0.359004 4
40.6977 -54.0076 -1.1804 0.881405 10
12.1746 -16.1562 1.0602 0.0466511 10
7.62046 -10.1127 1.10782 0.684745 10
7.62041 -10.1126 1.55474 0.682241 10
7.62036 -10.1126 2.00551 0.678906 10
7.62031 -10.1125 2.46129 0.674744 10
7.62027 -10.1124 2.92328 0.66976 10
7.62021 -10.1124 3.39279 0.66396 10
6.14448 -8.09506 -2.72314 0.0984949 1
7.12971 -9.39305 -2.72251 0.0856263 1
7.6599 -10.0915 -2.46268 0.864886 10
7.65985 -10.0915 -2.00662 0.870232 10
12.5048 -16.4745 -2.53953 0.108834 10
17.5272 -23.0912 -2.53627 0.0779332 10
30.5401 -40.2351 -2.64727 0.248759 4
12.2321 -16.1152 1.0603 0.0466465 10
7.65951 -10.091 1.10837 0.684405 10
7.65946 -10.091 1.55552 0.681902 10
7.65942 -10.0909 2.00651 0.678569 10
7.65937 -10.0908 2.46251 0.674409 10
7.65932 -10.0908 2.92474 0.669428 10
7.65927 -10.0907 3.39447 0.663631 10
6.17259 -8.07341 -2.72309 0.0984967 1
7.1623 -9.3679 -2.72245 0.0856282 1
7.699 -10.0699 -2.46393 0.864446 10
7.69895 -10.0698 -2.00764 0.869789 10
12.5617 -16.43 -2.53942 0.108839 10
17.6066 -23.0285 -2.53613 0.0779378 10
30.6957 -40.1483 -2.64859 0.231033 4
12.2895 -16.074 1.06041 0.0466418 10
7.69861 -10.0694 1.10894 0.684056 10
7.69856 -10.0693 1.55631 0.681555 10
7.69851 -10.0692 2.00753 0.678224 10
7.69846 -10.0692 2.46376 0.674066 10
7.69841 -10.0691 2.92623 0.669087 10
7.69836 -10.069 3.3962 0.663293 10
6.20061 -8.05166 -2.72304 0.0984986 1
7.19479 -9.34263 -2.72238 0.0856301 1
7.73813 -10.0482 -2.46522 0.863995 10
7.73809 -10.0481 -2.00869 0.869335 10
12.6184 -16.3854 -2.53931 0.108843 10
13.7922 -17.9095 -1.97766 0.132453 10
13.7872 -17.9031 -1.18424 0.132824 10
13.7823 -17.8967 -0.394286 0.133034 10
13.7775 -17.8904 0.394146 0.133081 10
12.3468 -16.0326 1.06051 0.0466372 10
7.73775 -10.0477 1.10951 0.683699 10
7.7377 -10.0476 1.55712 0.6812 10
7.73765 -10.0475 2.00858 0.67787 10
7.7376 -10.0475 2.46505 0.673715 10
7.73755 -10.0474 2.92775 0.668738 10
7.7375 -10.0473 3.39797 0.662947 10
6.22856 -8.02981 -2.72299 0.0985005 1
7.2272 -9.31726 -2.72232 0.085632 1
7.77731 -10.0265 -2.46654 0.863534 10
7.77726 -10.0264 -2.00976 0.868871 10
7.77721 -10.0263 -1.55802 0.576738 10
7.77717 -10.0263 -1.11014 0.578862 10
7.77712 -10.0262 -0.664997 0.58028 10
7.77707 -10.0261 -0.221484 0.580992 10
7.77702 -10.0261 0.221483 0.580996 10
7.77697 -10.026 0.664985 0.580291 10
7.77692 -10.026 1.11011 0.683335 10
7.77687 -10.0259 1.55795 0.680836 10
7.77682 -10.0258 2.00965 0.677508 10
7.77677 -10.0258 2.46636 0.673355 10
7.77672 -10.0257 2.92932 0.668381 10
7.77667 -10.0256 3.39979 0.662593 10
6.25643 -8.00787 -2.72293 0.0985024 1
7.25952 -9.29177 -2.72226 0.0856339 1
7.81654 -10.0047 -2.46788 0.863062 10
7.81649 -10.0046 -2.01086 0.868397 10
7.81644 -10.0046 -1.55887 0.576423 10
7.81639 -10.0045 -1.11075 0.578546 10
7.81634 -10.0045 -0.665361 0.579963 10
7.81629 -10.0044 -0.221605 0.580675 10
7.81624 -10.0043 0.221604 0.580678 10
7.81619 -10.0043 0.665348 0.579974 10
7.81614 -10.0042 1.11071 0.682961 10
7.81609 -10.0041 1.5588 0.680464 10
7.81604 -10.0041 2.01075 0.677138 10
7.81599 -10.004 2.46771 0.672987 10
7.81594 -10.004 2.93092 0.668016 10
7.81589 -10.0039 3.40164 0.662231 10
6.28423 -7.98583 -2.72288 0.0985043 1
7.29175 -9.26616 -2.7222 0.0856358 1
7.8558 -9.98295 -2.46926 0.86258 10
7.85575 -9.98288 -2.01199 0.867911 10
12.7877 -16.2503 -2.539 0.108857 10
13.7194 -17.4343 -1.94094 0.875397 10
13.7193 -17.4342 -1.16266 0.877542 10
13.7193 -17.4341 -0.387237 0.878618 10
13.7192 -17.434 0.387234 0.878624 10
12.5177 -15.9072 1.06083 0.0466234 10
7.85541 -9.98244 1.11134 0.68258 10
7.85536 -9.98238 1.55968 0.680084 10
7.85531 -9.98232 2.01187 0.67676 10
7.85526 -9.98225 2.46909 0.672611 10
7.85521 -9.98219 2.93256 0.667643 10
7.85515 -9.98212 3.40355 0.661861 10
6.31194 -7.96369 -2.72283 0.0985062 1
7.32389 -9.24045 -2.72214 0.0856377 1
7.89511 -9.96115 -2.47068 0.862087 10
7.89506 -9.96109 -2.01314 0.867415 10
12.8439 -16.2049 -2.53889 0.108861 10
13.7881 -17.3962 -1.94205 0.874897 10
13.788 -17.3961 -1.16333 0.877041 10
13.7879 -17.396 -0.387459 0.878116 10
13.7878 -17.3959 0.387456 0.878122 10
12.5744 -15.8649 1.06093 0.0466188 10
7.89472 -9.96065 1.11197 0.68219 10
7.89467 -9.96059 1.56057 0.679695 10
7.89462 -9.96053 2.01302 0.676373 10
7.89456 -9.96046 2.4705 0.672227 10
7.89451 -9.9604 2.93423 0.667261 10
7.89446 -9.96033 3.40549 0.661483 10
6.33958 -7.94146 -2.72278 0.0985081 1
7.35594 -9.21462 -2.72208 0.0856396 1
7.93447 -9.93934 -2.47212 0.861583 10
7.93442 -9.93927 -2.01431 0.866909 10
12.8998 -16.1593 -2.53879 0.108866 10
13.8568 -17.3581 -1.94319 0.874386 10
13.8567 -17.358 -1.16401 0.876529 10
13.8566 -17.3579 -0.387685 0.877604 10
13.8566 -17.3578 0.387682 0.877609 10
12.6309 -15.8225 1.06104 0.0466142 10
7.93407 -9.93884 1.11262 0.681791 10
7.93402 -9.93877 1.56148 0.679299 10
7.93397 -9.93871 2.0142 0.675978 10
7.93392 -9.93865 2.47195 0.671834 10
7.93386 -9.93858 2.93595 0.666872 10
7.93381 -9.93851 3.40748 0.661097 10
6.36714 -7.91913 -2.72273 0.0985099 1
7.38789 -9.18869 -2.72202 0.0856415 1
7.97387 -9.91749 -2.47359 0.86107 10
7.97382 -9.91743 -2.01551 0.866392 10
12.9556 -16.1135 -2.53868 0.10887 10
18.1566 -22.5822 -2.53509 0.0779697 10
31.789 -39.5376 -2.65876 0.333168 4
42.583 -52.9625 -1.18622 0.877081 10
12.6873 -15.7799 1.06114 0.0466096 10
7.97347 -9.91699 1.11328 0.681385 10
7.97342 -9.91693 1.56241 0.678894 10
7.97337 -9.91687 2.0154 0.675575 10
7.97332 -9.9168 2.47342 0.671434 10
7.97326 -9.91674 2.9377 0.666474 10
7.97321 -9.91667 3.40952 0.660703 10
6.39463 -7.89671 -2.72268 0.0985118 1
7.41976 -9.16264 -2.72196 0.0856434 1
8.01332 -9.89563 -2.4751 0.860545 10
8.01326 -9.89556 -2.01674 0.865865 10
8.01321 -9.8955 -1.56343 0.574742 10
8.01316 -9.89544 -1.114 0.576859 10
8.01311 -9.89537 -0.667306 0.578272 10
8.01306 -9.89531 -0.222253 0.578981 10
8.01301 -9.89525 0.222252 0.578985 10
8.01296 -9.89519 0.667294 0.578283 10
8.01291 -9.89513 1.11396 0.68097 10
8.01286 -9.89507 1.56336 0.67848 10
8.01281 -9.895 2.01663 0.675164 10
8.01276 -9.89494 2.47493 0.671025 10
8.01271 -9.89487 2.93949 0.666068 10
8.01265 -9.89481 3.41159 0.6603 10
6.42203 -7.87419 -2.72262 0.0985137 1
7.45153 -9.13648 -2.7219 0.0856453 1
8.05282 -9.87373 -2.47664 0.860011 10
8.05276 -9.87367 -2.018 0.865326 10
8.05271 -9.8736 -1.5644 0.574385 10
8.05266 -9.87354 -1.11469 0.5765 10
8.05261 -9.87348 -0.667721 0.577913 10
8.05256 -9.87342 -0.222392 0.578622 10
8.05251 -9.87335 0.22239 0.578625 10
8.05246 -9.87329 0.667709 0.577924 10
8.05241 -9.87323 1.11465 0.680547 10
8.05236 -9.87317 1.56433 0.678059 10
8.05231 -9.87311 2.01788 0.674744 10
8.05225 -9.87304 2.47647 0.670608 10
8.0522 -9.87298 2.94132 0.665654 10
8.05215 -9.87291 3.41371 0.65989 10
6.44935 -7.85157 -2.72257 0.0985156 1
7.48321 -9.11021 -2.72184 0.0856472 1
8.09236 -9.85181 -2.47821 0.859465 10
8.09231 -9.85174 -2.01928 0.864778 10
13.122 -15.975 -2.53836 0.108884 10
18.3889 -22.387 -2.53465 0.0779833 10
32.2602 -39.2742 -2.66363 0.175032 4
37.1319 -45.2052 -1.02113 0.578255 10
37.1317 -45.2049 1.02112 0.578258 10
12.8557 -15.6508 1.06145 0.0465959 10
8.09195 -9.85131 1.11536 0.680115 10
8.0919 -9.85125 1.56533 0.677629 10
8.09185 -9.85118 2.01916 0.674317 10
8.0918 -9.85112 2.47804 0.670183 10
8.09175 -9.85106 2.94318 0.665232 10
8.09169 -9.85099 3.41588 0.659472 10
6.4766 -7.82886 -2.72252 0.0985174 1
7.5148 -9.08384 -2.72178 0.0856491 1
8.13196 -9.82985 -2.47982 0.85891 10
8.13191 -9.82979 -2.02058 0.864219 10
13.1771 -15.9284 -2.53826 0.108888 10
18.4658 -22.3214 -2.5345 0.0779878 10
32.4176 -39.1862 -2.66531 0.258008 4
40.3485 -48.773 -1.1049 0.87488 10
12.9115 -15.6073 1.06156 0.0465913 10
8.13155 -9.82936 1.11608 0.679676 10
8.1315 -9.8293 1.56634 0.67719 10
8.13145 -9.82923 2.02047 0.673881 10
8.13139 -9.82917 2.47964 0.669749 10
8.13134 -9.82911 2.94509 0.664802 10
8.13129 -9.82904 3.41809 0.659045 10
6.50376 -7.80606 -2.72247 0.0985193 1
7.5463 -9.05735 -2.72172 0.085651 1
8.17161 -9.80787 -2.48145 0.858343 10
8.17156 -9.80781 -2.02192 0.863649 10
11.5476 -13.8598 -2.21503 0.165361 10
11.5443 -13.8559 -1.57784 0.166016 10
11.541 -13.8519 -0.944897 0.166469 10
11.5377 -13.848 -0.314621 0.166719 10
11.5345 -13.8441 0.314531 0.166766 10
11.5312 -13.8402 0.944095 0.16661 10
8.1712 -9.80738 1.11682 0.679228 10
8.17115 -9.80732 1.56737 0.676744 10
8.17109 -9.80725 2.0218 0.673436 10
8.17104 -9.80719 2.48128 0.669308 10
8.17099 -9.80713 2.94703 0.664364 10
8.17093 -9.80706 3.42034 0.658611 10
6.53085 -7.78316 -2.72242 0.0985212 1
7.5777 -9.03076 -2.72166 0.0856528 1
8.21131 -9.78586 -2.48312 0.857767 10
8.21126 -9.7858 -2.02328 0.863069 10
11.3873 -13.5709 -2.17519 0.168389 10
11.3841 -13.5671 -1.54947 0.169056 10
11.3809 -13.5633 -0.927912 0.169516 10
11.3778 -13.5595 -0.308967 0.16977 10
11.3746 -13.5557 0.308881 0.169817 10
11.3715 -13.552 0.927138 0.169658 10
8.2109 -9.78537 1.11757 0.678771 10
8.21085 -9.78531 1.56843 0.676289 10
8.21079 -9.78524 2.02316 0.672984 10
8.21074 -9.78518 2.48294 0.668858 10
8.21069 -9.78512 2.94901 0.663918 10
8.21063 -9.78505 3.42264 0.658168 10
6.55785 -7.76017 -2.72236 0.098523 1
7.60901 -9.00405 -2.7216 0.0856547 1
8.25107 -9.76383 -2.48482 0.85718 10
8.25102 -9.76376 -2.02466 0.862478 10
8.25097 -9.7637 -1.56957 0.572494 10
8.25091 -9.76364 -1.11837 0.574603 10
8.25086 -9.76357 -0.669927 0.576011 10
8.25081 -9.76351 -0.223126 0.576717 10
8.25076 -9.76345 0.223124 0.576721 10
8.2507 -9.76339 0.669914 0.576022 10
8.25065 -9.76333 1.11834 0.678307 10
8.2506 -9.76327 1.5695 0.675827 10
8.25055 -9.76321 2.02455 0.672523 10
8.25049 -9.76314 2.48465 0.668401 10
8.25044 -9.76308 2.95103 0.663463 10
8.25039 -9.76301 3.42499 0.657718 10
6.58478 -7.73709 -2.72231 0.0985249 1
7.64023 -8.97724 -2.72154 0.0856566 1
8.29088 -9.74176 -2.48655 0.856582 10
8.29083 -9.74169 -2.02607 0.861877 10
8.29078 -9.74163 -1.57067 0.572095 10
8.29072 -9.74157 -1.11915 0.574202 10
8.29067 -9.74151 -0.670394 0.575609 10
8.29062 -9.74144 -0.223282 0.576315 10
8.29057 -9.74138 0.22328 0.576319 10
8.29051 -9.74132 0.670381 0.57562 10
8.29046 -9.74126 1.11912 0.677834 10
8.29041 -9.7412 1.5706 0.675355 10
8.29036 -9.74114 2.02596 0.672054 10
8.2903 -9.74107 2.48638 0.667935 10
8.29025 -9.74101 2.95309 0.663001 10
8.29019 -9.74094 3.42738 0.65726 10
6.61162 -7.71391 -2.72226 0.0985268 1
7.67135 -8.95032 -2.72148 0.0856585 1
8.33075 -9.71966 -2.48832 0.855974 10
8.3307 -9.71959 -2.02751 0.861265 10
11.4398 -13.3471 -2.1584 0.865507 10
11.4397 -13.347 -1.53793 0.868694 10
11.4397 -13.3469 -0.921253 0.870822 10
11.4396 -13.3468 -0.306833 0.87189 10
11.4395 -13.3467 0.306831 0.871896 10
11.4394 -13.3466 0.921235 0.870839 10
8.33033 -9.71916 1.11991 0.677353 10
8.33027 -9.7191 1.57171 0.674876 10
8.33022 -9.71904 2.0274 0.671578 10
8.33017 -9.71898 2.48814 0.667461 10
8.33011 -9.71891 2.95518 0.66253 10
8.33006 -9.71885 3.42981 0.656793 10
6.63838 -7.69064 -2.72221 0.0985286 1
7.70238 -8.92329 -2.72142 0.0856603 1
8.37067 -9.69752 -2.49012 0.855356 10
8.37062 -9.69746 -2.02898 0.860643 10
11.4946 -13.3167 -2.15996 0.864881 10
11.4946 -13.3166 -1.53905 0.868066 10
11.4945 -13.3165 -0.921919 0.870193 10
11.4944 -13.3164 -0.307055 0.87126 10
11.4943 -13.3163 0.307052 0.871266 10
11.4943 -13.3162 0.921901 0.87021 10
8.37025 -9.69703 1.12072 0.676863 10
8.3702 -9.69697 1.57285 0.674389 10
8.32757 -9.64759 2.01854 0.10825 10
8.28542 -9.59876 2.46476 0.139504 10
8.28318 -9.59616 2.92664 0.13851 10
8.28091 -9.59353 3.39577 0.137348 10
6.66506 -7.66727 -2.72216 0.0985305 1
7.73331 -8.89616 -2.72136 0.0856622 1
8.41066 -9.67536 -2.49195 0.854727 10
8.4106 -9.67529 -2.03047 0.86001 10
11.5495 -13.2862 -2.16155 0.864245 10
11.5495 -13.2861 -1.54018 0.867428 10
11.5494 -13.2861 -0.922597 0.869553 10
11.5493 -13.286 -0.307281 0.87062 10
11.5492 -13.2859 0.307278 0.870625 10
11.5492 -13.2858 0.92258 0.86957 10
8.41023 -9.67487 1.12155 0.676366 10
8.41018 -9.6748 1.574 0.673893 10
8.36147 -9.61877 2.01861 0.108246 10
8.18237 -9.41275 2.42431 0.141832 10
8.1802 -9.41025 2.87863 0.14082 10
8.17799 -9.4077 3.34007 0.139638 10
6.69166 -7.64382 -2.72211 0.0985323 1
7.76415 -8.86891 -2.7213 0.0856641 1
8.4507 -9.65316 -2.49382 0.854088 10
8.45065 -9.6531 -2.03199 0.859367 10
8.56915 -9.78846 -1.59735 0.123199 10
8.56697 -9.78598 -1.13789 0.123683 10
8.56481 -9.78351 -0.681448 0.124017 10
8.56266 -9.78105 -0.226908 0.124199 10
8.56051 -9.7786 0.226851 0.12423 10
8.55837 -9.77614 0.680935 0.12411 10
8.45027 -9.65267 1.12238 0.67586 10
8.45022 -9.65261 1.57518 0.673389 10
8.39526 -9.58984 2.01867 0.108243 10
8.20751 -9.37537 2.42205 0.66599 10
8.20746 -9.3753 2.87668 0.66107 10
8.2074 -9.37524 3.3387 0.655346 10
6.71817 -7.62027 -2.72206 0.0985342 1
7.79489 -8.84157 -2.72125 0.0856659 1
8.4908 -9.63093 -2.49571 0.853438 10
8.49075 -9.63087 -2.03354 0.858713 10
8.49069 -9.6308 -1.57645 0.569995 10
8.49064 -9.63074 -1.12327 0.572094 10
8.49058 -9.63068 -0.672864 0.573496 10
8.49053 -9.63062 -0.224104 0.5742 10
8.49048 -9.63056 0.224103 0.574203 10
8.49042 -9.6305 0.672851 0.573507 10
8.49037 -9.63044 1.12324 0.675346 10
8.49032 -9.63038 1.57638 0.672877 10
8.42896 -9.56077 2.01874 0.108239 10
8.24646 -9.35378 2.42389 0.665483 10
8.24641 -9.35371 2.87887 0.660568 10
8.24635 -9.35365 3.34124 0.654847 10
6.7446 -7.59663 -2.72201 0.098536 1
7.82553 -8.81411 -2.72119 0.0856678 1
8.53097 -9.60866 -2.49765 0.852778 10
8.53091 -9.6086 -2.03511 0.858049 10
8.53086 -9.60854 -1.57767 0.569555 10
8.5308 -9.60848 -1.12414 0.571652 10
8.53075 -9.60842 -0.673385 0.573053 10
8.53069 -9.60835 -0.224278 0.573755 10
8.53064 -9.60829 0.224276 0.573759 10
8.53059 -9.60823 0.673372 0.573064 10
8.53053 -9.60817 1.12411 0.674824 10
8.53048 -9.60811 1.5776 0.672356 10
8.46255 -9.5316 2.0188 0.108236 10
6.77095 -7.5729 -2.72196 0.0985379 1
7.85608 -8.78655 -2.72113 0.0856697 1
8.5712 -9.58636 -2.49961 0.852107 10
8.57114 -9.5863 -2.03671 0.857374 10
13.7726 -15.4039 -2.53711 0.108938 10
19.2969 -21.5824 -2.5329 0.0780372 10
13.5156 -15.1164 1.0627 0.0465414 10
8.57076 -9.58587 1.12499 0.674293 10
8.57071 -9.58581 1.57884 0.671828 10
8.49604 -9.5023 2.01887 0.108232 10
6.79722 -7.54908 -2.7219 0.0985397 1
7.88653 -8.75888 -2.72107 0.0856715 1
8.61149 -9.56403 -2.50161 0.851426 10
8.61143 -9.56397 -2.03834 0.856689 10
13.8258 -15.3551 -2.53701 0.108942 10
19.371 -21.5137 -2.53275 0.0780416 10
13.5696 -15.0706 1.0628 0.0465369 10
8.61105 -9.56354 1.12589 0.673754 10
8.61099 -9.56348 1.58011 0.671291 10
8.52943 -9.47289 2.01893 0.108229 10
6.8234 -7.52516 -2.72185 0.0985416 1
7.91689 -8.73111 -2.72101 0.0856734 1
8.65184 -9.54166 -2.50364 0.850735 10
8.65179 -9.54159 -2.04 0.855994 10
13.8787 -15.3061 -2.53691 0.108946 10
19.4449 -21.4447 -2.53261 0.0780461 10
13.6234 -15.0246 1.0629 0.0465324 10
8.6514 -9.54117 1.12681 0.673207 10
8.65135 -9.54111 1.58139 0.670746 10
8.56271 -9.44336 2.019 0.108225 10
6.8495 -7.50116 -2.7218 0.0985434 1
7.94714 -8.70323 -2.72095 0.0856753 1
8.69226 -9.51925 -2.50571 0.850034 10
8.69221 -9.51919 -2.04168 0.855288 10
8.7848 -9.62059 -1.59964 0.135118 10
8.78277 -9.61837 -1.13954 0.135646 10
8.78075 -9.61615 -0.682453 0.136009 10
8.77874 -9.61395 -0.227248 0.136206 10
8.77673 -9.61175 0.227195 0.136237 10
8.77472 -9.60955 0.681985 0.136102 10
8.69182 -9.51876 1.12774 0.672652 10
8.69176 -9.5187 1.58269 0.670193 10
8.5959 -9.41371 2.01906 0.108222 10
