VERSION 0.7
FIELDS x y z intensity label
SIZE 4 4 4 4 4
TYPE F F F F F
COUNT 1 1 1 1 1
WIDTH 1280
HEIGHT 1
VIEWPOINT 18.9066 52.4873 2.72792 0.968569 0.000033 0.000328714 -0.248744
POINTS 1280
DATA ascii
54.0786 23.4019 1.02854 0.886114 10
54.0774 23.4014 3.08805 0.690088 10
54.0762 23.4009 5.15503 0.68842 10
54.075 23.4003 7.23459 0.685914 10
54.0738 23.3998 9.33196 0.682572 10
54.0726 23.3993 11.4526 0.678398 10
54.0714 23.3988 13.6021 0.673398 10
54.0701 23.3982 15.7864 0.667578 10
9.04266 3.95064 -2.64412 0.0616384 4
10.4911 4.58343 -2.64311 0.0910563 4
12.4539 5.44098 -2.64175 0.0269362 4
15.2729 6.67259 -2.63978 0.0144918 4
20.2744 8.85768 -1.93568 0.0650652 6
20.4757 8.94563 -1.17103 0.0507905 6
53.9802 23.5834 -1.02823 0.886383 10
53.979 23.5829 1.0282 0.886402 10
53.9779 23.5823 3.08705 0.690311 10
53.9767 23.5818 5.15336 0.688643 10
53.9755 23.5813 7.23224 0.686136 10
53.9743 23.5808 9.32894 0.682793 10
53.9731 23.5803 11.4489 0.678618 10
53.9719 23.5797 13.5977 0.673617 10
53.9706 23.5792 15.7813 0.667794 10
9.02884 3.98219 -2.64413 0.0233388 4
10.475 4.62003 -2.64312 0.0166502 4
12.4349 5.48444 -2.64175 0.0269362 4
15.2496 6.72589 -2.63979 0.0199262 4
20.198 8.9084 -1.93134 0.0615425 6
20.4018 8.99826 -1.16859 0.0508966 6
53.8808 23.7642 -1.02791 0.886659 10
53.8796 23.7637 1.02788 0.886678 10
53.8784 23.7632 3.08609 0.690527 10
53.8772 23.7627 5.15175 0.688858 10
53.876 23.7622 7.22999 0.68635 10
53.8749 23.7616 9.32603 0.683006 10
53.8736 23.7611 11.4453 0.67883 10
53.8724 23.7606 13.5934 0.673827 10
53.8712 23.76 15.7764 0.668003 10
9.0149 4.01369 -2.64413 0.0281261 4
10.4589 4.65658 -2.64313 0.00624382 4
12.4157 5.52783 -2.64176 0.0132473 4
15.2261 6.7791 -2.6398 0.0224622 4
20.1202 8.95809 -1.92688 0.0647556 6
20.3275 9.05036 -1.16613 0.0506245 6
55.6241 24.7654 -1.06281 0.585837 10
55.6229 24.7649 1.06278 0.585849 10
53.779 23.944 3.08517 0.690734 10
53.7779 23.9434 5.15021 0.689065 10
53.7767 23.9429 7.22782 0.686556 10
53.7755 23.9424 9.32324 0.683211 10
53.7743 23.9418 11.4419 0.679034 10
53.7731 23.9413 13.5893 0.674029 10
53.7718 23.9407 15.7716 0.668203 10
9.00086 4.04514 -2.64414 0.0478742 4
10.4426 4.69307 -2.64313 0.0275768 4
12.3964 5.57115 -2.64177 0.0220787 4
15.2024 6.83223 -2.63981 0.0286211 4
20.0417 9.0071 -1.92236 0.0631906 6
20.253 9.10206 -1.16368 0.050738 6
53.6785 24.1241 5.14873 0.689263 10
53.6773 24.1235 7.22575 0.686753 10
53.6762 24.123 9.32056 0.683407 10
53.675 24.1225 11.4386 0.679229 10
53.6737 24.1219 13.5854 0.674222 10
53.6725 24.1214 15.7671 0.668395 10
8.98671 4.07655 -2.64415 0.0484725 4
10.4261 4.72951 -2.64314 0.0260158 4
12.3769 5.61441 -2.64178 0.045482 4
15.1785 6.88528 -2.63982 0.0206506 4
19.5567 8.8713 -2.63677 0.0268439 4
19.9646 9.05632 -1.91798 0.0696216 6
20.1799 9.15399 -1.1613 0.0515161 6
60.3236 27.364 -1.15622 0.586166 10
57.8562 26.2447 1.10893 0.69195 10
56.7589 25.747 3.26634 0.691122 10
57.8536 26.2436 5.55795 0.689452 10
57.8524 26.243 7.80005 0.686942 10
56.7551 25.7453 9.87075 0.683595 10
57.8498 26.2418 12.3477 0.679416 10
56.7526 25.7441 14.3874 0.674408 10
56.7513 25.7435 16.6978 0.668579 10
8.97244 4.1079 -2.64415 0.0448818 4
10.4096 4.76588 -2.64315 0.0286173 4
12.3573 5.65759 -2.64179 0.037092 4
15.1545 6.93825 -2.63983 0.00833265 4
19.8869 9.10492 -1.91356 0.063599 6
20.1072 9.20579 -1.15897 0.0514737 6
64.3145 29.4455 -1.23468 0.58632 10
8.95807 4.13921 -2.64416 0.0335117 4
10.3929 4.80221 -2.64316 0.0176906 4
12.3375 5.70071 -2.6418 0.0141302 4
15.1302 6.99114 -2.63984 0.0351419 4
19.8023 9.14995 -1.90848 0.376715 6
20.0244 9.25255 -1.15605 0.0606677 6
65.8319 30.4186 1.26584 0.692306 10
63.2643 29.2322 3.65237 0.691477 10
63.2629 29.2316 6.09707 0.689806 10
65.8275 30.4166 8.90373 0.687295 10
63.2601 29.2303 11.0373 0.683946 10
63.2587 29.2296 13.5454 0.679764 10
65.8231 30.4145 16.7403 0.674754 10
65.8216 30.4138 19.4286 0.850392 10
8.94359 4.17046 -2.64416 0.0251337 4
10.3761 4.83847 -2.64316 0.0603562 4
12.3175 5.74376 -2.6418 0.0114808 4
15.1058 7.04394 -2.63985 0.0181143 4
19.7294 9.19996 -1.90454 0.439984 6
19.9511 9.30333 -1.15368 0.0640268 6
65.7096 30.6409 1.26554 0.692471 10
65.7082 30.6402 3.79961 0.691642 10
65.7067 30.6395 6.34287 0.689971 10
65.7053 30.6389 8.90161 0.687459 10
65.7038 30.6382 11.4823 0.684109 10
65.7024 30.6375 14.0915 0.679926 10
65.7009 30.6368 16.7363 0.674915 10
65.6994 30.6361 19.424 0.850594 10
8.929 4.20167 -2.64417 0.0251336 4
10.3592 4.87467 -2.64317 0.0525513 4
12.2975 5.78674 -2.64181 0.0181042 4
15.0812 7.09666 -2.63987 0.039489 4
19.9871 9.4052 -1.93257 0.0607756 6
19.8784 9.35405 -1.15136 0.0612506 6
8.9143 4.23282 -2.64418 0.0353067 4
10.3422 4.91082 -2.64318 0.0244545 4
12.2772 5.82966 -2.64182 0.0194289 4
15.0564 7.14929 -2.63988 0.0188387 4
19.9602 9.47779 -1.93316 0.050631 6
19.8738 9.43675 -1.15299 0.0347236 6
8.89949 4.26392 -2.64418 0.0406924 4
10.325 4.9469 -2.64319 0.0395433 4
12.2568 5.8725 -2.64183 0.0114807 4
15.0314 7.20183 -2.63989 0.0369527 4
19.3672 9.27922 -2.63685 0.0276907 4
19.9225 9.54524 -1.93272 0.0540138 6
19.9558 9.56122 -1.15968 0.0324299 6
8.88457 4.29497 -2.64419 0.0173541 4
10.3077 4.98293 -2.64319 0.0244544 4
12.2363 5.91526 -2.64184 0.0185456 4
15.0062 7.25428 -2.6399 0.00978156 4
19.3348 9.34682 -2.63686 0.0175185 4
19.8488 9.59528 -1.92881 0.0507405 6
20.0399 9.68764 -1.16653 0.0315326 6
8.86955 4.32597 -2.6442 0.0365033 4
10.2903 5.01889 -2.6432 0.00936547 4
12.2156 5.95796 -2.64185 0.0242858 4
14.9809 7.30665 -2.63991 0.0275332 4
19.3022 9.4143 -2.63688 0.0135627 4
19.5755 9.54759 -1.90548 0.0140782 6
20.1264 9.81632 -1.17355 0.0312193 6
8.85442 4.35691 -2.6442 0.0317159 4
10.2727 5.0548 -2.64321 0.0353806 4
12.1948 6.00059 -2.64186 0.0247273 4
14.9553 7.35893 -2.63992 0.0260839 4
20.2162 9.94758 -1.1808 0.0306338 6
10.255 5.09064 -2.64322 0.074403 4
12.1738 6.04314 -2.64187 0.0397401 4
14.9296 7.41113 -2.63993 0.0206497 4
19.2362 9.54893 -2.63691 0.0138451 4
19.6296 9.7442 -1.91732 0.0612536 6
20.3048 10.0794 -1.18802 0.0314462 6
8.82383 4.41865 -2.64422 0.0167555 4
10.2372 5.12642 -2.64322 0.0187308 4
12.1527 6.08562 -2.64188 0.0441556 4
19.5571 9.79345 -1.91356 0.0545545 6
20.3917 10.2114 -1.19519 0.0308623 6
8.80838 4.44943 -2.64423 0.0885643 4
10.2193 5.16214 -2.64323 0.0993769 4
12.1314 6.12803 -2.64189 0.011922 4
14.8777 7.51524 -2.63996 0.0242722 4
19.1693 9.68311 -2.63694 0.0223214 4
19.0777 9.63682 -1.86994 0.411899 6
20.4824 10.3464 -1.20262 0.0305496 6
8.79282 4.48016 -2.64423 0.0185506 4
10.2013 5.1978 -2.64324 0.0239336 4
12.11 6.17036 -2.6419 0.0150128 4
14.8514 7.56716 -2.63997 0.0105058 4
19.1355 9.75002 -2.63695 0.0525538 4
19.0147 9.68848 -1.86707 0.462837 6
20.5758 10.4839 -1.21024 0.0296343 6
8.77715 4.51084 -2.64424 0.0317154 4
10.1831 5.23339 -2.64325 0.0660774 4
12.0884 6.21262 -2.64191 0.0189867 4
14.825 7.61899 -2.63998 0.0108681 4
19.1015 9.81682 -2.63697 0.018648 4
18.9547 9.74139 -1.86451 0.463474 6
20.6713 10.6236 -1.21803 0.03911 6
8.76137 4.54146 -2.64425 0.0484706 4
10.1648 5.26892 -2.64326 0.0317379 4
12.0667 6.2548 -2.64192 0.0211944 4
14.7983 7.67073 -2.63999 0.0177511 4
19.0672 9.88349 -2.63699 0.0135621 4
18.8978 9.7957 -1.86226 0.0646201 6
8.74549 4.57203 -2.64425 0.0353057 4
10.1464 5.30439 -2.64327 0.0468262 4
12.0449 6.2969 -2.64193 0.0816863 4
14.7715 7.72237 -2.64001 0.0239095 4
19.0327 9.95005 -2.637 0.0226034 4
18.8199 9.83882 -1.85796 0.0647698 6
8.72951 4.60254 -2.64426 0.0221408 4
10.1278 5.33979 -2.64328 0.0218522 4
12.0229 6.33894 -2.64194 0.0176618 4
14.7446 7.77393 -2.64002 0.0199245 4
18.7496 9.88553 -1.85441 0.0693881 6
8.71341 4.633 -2.64427 0.011968 4
10.1092 5.37513 -2.64328 0.0249738 4
12.0007 6.38089 -2.64195 0.0415051 4
14.7174 7.82539 -2.64003 0.0112301 4
18.6817 9.93325 -1.85112 0.0695115 6
8.69721 4.6634 -2.64428 0.0161567 4
10.0904 5.4104 -2.64329 0.0322577 4
11.9784 6.42277 -2.64196 0.0216356 4
14.6901 7.87675 -2.64004 0.0152149 4
18.9278 10.149 -2.63705 0.0364473 4
18.6136 9.98052 -1.84781 0.0662277 6
8.6809 4.69375 -2.64428 0.108309 4
10.0714 5.44561 -2.6433 0.053069 4
11.956 6.46457 -2.64197 0.0256093 4
14.6626 7.92802 -2.64006 0.0220978 4
18.5476 10.0287 -1.84472 0.0689058 6
8.66449 4.72403 -2.64429 0.13404 4
10.0524 5.48075 -2.64331 0.0140476 4
11.9334 6.50629 -2.64198 0.0865416 4
14.6349 7.97919 -2.64007 0.056512 4
18.4868 10.0793 -1.84216 0.0726333 6
8.64797 4.75426 -2.6443 0.10053 4
10.0333 5.51583 -2.64332 0.00572309 4
11.9106 6.54793 -2.64199 0.089632 4
14.607 8.03027 -2.64008 0.0594098 4
18.8208 10.3468 -2.6371 0.0242977 4
18.4403 10.1376 -1.84104 0.0781797 6
8.63135 4.78444 -2.64431 0.115489 4
10.014 5.55083 -2.64333 0.0535887 4
11.8878 6.58949 -2.642 0.0671133 4
14.579 8.08125 -2.6401 0.0786089 4
18.3967 10.1975 -1.84023 0.0763447 6
8.61462 4.81455 -2.64432 0.117882 4
9.99457 5.58577 -2.64334 0.0322572 4
11.8647 6.63097 -2.64201 0.0825667 4
14.5507 8.13213 -2.64011 0.0326026 4
18.7484 10.4781 -2.63714 0.0240149 4
18.3984 10.2825 -1.84398 0.0609811 6
44.3888 24.8081 -2.66498 0.179817 4
8.59779 4.84461 -2.64432 0.125063 4
9.97505 5.62065 -2.64335 0.0530681 4
11.8416 6.67238 -2.64202 0.00838909 4
14.5223 8.18291 -2.64012 0.0105052 4
18.7118 10.5436 -2.63715 0.0276876 4
18.4599 10.4016 -1.85377 0.034889 6
44.1915 24.9006 -2.65833 0.208152 4
8.58086 4.8746 -2.64433 0.067019 4
9.9554 5.65545 -2.64336 0.0275745 4
11.8183 6.7137 -2.64204 0.0198688 4
18.675 10.6089 -2.63717 0.0228845 4
18.5535 10.5398 -1.86685 0.0346381 6
43.9951 24.9927 -2.65175 0.209859 4
8.56381 4.90454 -2.64434 0.0257304 4
9.93564 5.69019 -2.64337 0.0437028 4
11.7948 6.75494 -2.64205 0.0123628 4
14.465 8.28418 -2.64015 0.0329643 4
43.7997 25.0843 -2.64523 0.197051 4
8.54667 4.93442 -2.64435 0.0388947 4
9.91575 5.72486 -2.64338 0.0202905 4
11.7712 6.7961 -2.64206 0.0309068 4
14.4361 8.33467 -2.64017 0.0220969 4
18.6008 10.7392 -2.63721 0.0197764 4
18.766 10.8346 -1.89581 0.0138972 6
43.6052 25.1755 -2.63878 0.1752 4
8.52942 4.96424 -2.64436 0.0299189 4
9.89574 5.75946 -2.64339 0.052547 4
11.7475 6.83718 -2.64207 0.0220762 4
14.407 8.38506 -2.64018 0.0086938 4
18.9165 11.0096 -1.91487 0.014483 6
43.4116 25.2662 -2.63239 0.197787 4
8.51207 4.994 -2.64437 0.0496652 4
9.87561 5.79399 -2.6434 0.0306957 4
11.7236 6.87818 -2.64208 0.0167778 4
14.3777 8.43534 -2.64019 0.0130406 4
18.5256 10.8689 -2.63724 0.0214713 4
19.07 11.1883 -1.93436 0.0143371 6
8.49461 5.0237 -2.64437 0.0107707 4
9.85536 5.82844 -2.64341 0.0286145 4
11.6995 6.91909 -2.64209 0.0278158 4
14.3482 8.48552 -2.64021 0.0170252 4
18.4877 10.9336 -2.63726 0.0166684 4
19.2248 11.3695 -1.95408 0.0323071 6
42.9765 25.4162 -2.6167 0.215422 4
8.47705 5.05333 -2.64438 0.0532551 4
9.835 5.86283 -2.64342 0.0260131 4
11.6754 6.95991 -2.6421 0.0136871 4
19.3319 11.5241 -1.96903 0.0304585 6
42.7052 25.4574 -2.60558 0.21309 4
8.45939 5.08291 -2.64439 0.0203446 4
9.81451 5.89715 -2.64342 0.011966 4
11.6511 7.00066 -2.64212 0.0256079 4
14.2888 8.58558 -2.64024 0.0177495 4
19.3122 11.6039 -1.97114 0.0777049 6
42.4362 25.4982 -2.59458 0.242118 4
8.44162 5.11242 -2.6444 0.052058 4
9.7939 5.9314 -2.64344 0.0338168 4
11.6266 7.04132 -2.64213 0.0105963 4
42.1694 25.5387 -2.5837 0.23624 4
8.42375 5.14188 -2.64441 0.0203445 4
9.77317 5.96557 -2.64345 0.0228913 4
11.602 7.08189 -2.64214 0.0114793 4
14.2287 8.68522 -2.64027 0.0108669 4
18.3337 11.191 -2.63734 0.0163854 4
41.9048 25.5788 -2.57294 0.211296 4
8.40578 5.17127 -2.64442 0.0281231 4
9.75233 5.99967 -2.64346 0.0468229 4
11.5773 7.12238 -2.64215 0.0317887 4
14.1984 8.73488 -2.64028 0.0137647 4
41.6424 25.6186 -2.56231 0.245248 4
8.3877 5.2006 -2.64443 0.0442788 4
9.73137 6.0337 -2.64347 0.0119658 4
11.5524 7.16278 -2.64216 0.0105962 4
14.1679 8.78444 -2.6403 0.0170246 4
41.3822 25.658 -2.55179 0.260057 4
8.36953 5.22986 -2.64444 0.0197459 4
9.71028 6.06766 -2.64348 0.0130062 4
11.5274 7.2031 -2.64218 0.0247243 4
14.1372 8.83389 -2.64031 0.0184734 4
18.2159 11.3826 -2.63739 0.0226 4
41.1241 25.6972 -2.54139 0.195778 4
8.35125 5.25906 -2.64444 0.0353031 4
9.68908 6.10154 -2.64349 0.0312149 4
11.5022 7.24333 -2.64219 0.0379693 4
14.1064 8.88324 -2.64033 0.00833109 4
40.868 25.736 -2.5311 0.23118 4
8.33287 5.2882 -2.64445 0.0388931 4
9.66776 6.13535 -2.6435 0.0197693 4
11.4769 7.28347 -2.6422 0.0150111 4
14.0753 8.93248 -2.64034 0.0152132 4
18.1363 11.5097 -2.63743 0.0299446 4
40.614 25.7744 -2.52093 0.216855 4
8.31439 5.31727 -2.64446 0.0436798 4
9.64633 6.16908 -2.64351 0.00780365 4
11.4515 7.32352 -2.64221 0.011479 4
14.0442 8.98161 -2.64036 0.013402 4
18.0962 11.573 -2.63745 0.0186446 4
40.3621 25.8126 -2.51087 0.250279 4
8.29581 5.34628 -2.64447 0.0347044 4
9.62477 6.20274 -2.64352 0.0244514 4
11.4259 7.36348 -2.64223 0.0150109 4
14.0128 9.03063 -2.64037 0.020284 4
18.0558 11.6362 -2.63747 0.0240118 4
8.27712 5.37522 -2.64448 0.0107703 4
9.6031 6.23633 -2.64353 0.0218501 4
11.4002 7.40336 -2.64224 0.0233992 4
18.0152 11.6992 -2.63749 0.0350287 4
40.9564 26.5974 -2.55933 0.202204 4
8.25834 5.4041 -2.64449 0.0359009 4
9.58132 6.26983 -2.64354 0.0426595 4
11.3743 7.44314 -2.64225 0.00927135 4
13.9496 9.12835 -2.6404 0.0115907 4
17.9744 11.7621 -2.63751 0.0158193 4
40.7078 26.6384 -2.54959 0.22739 4
8.23945 5.43292 -2.6445 0.067613 4
9.55941 6.30327 -2.64355 0.0156071 4
11.3483 7.48284 -2.64227 0.00662236 4
13.9177 9.17704 -2.64042 0.0228191 4
17.9334 11.8249 -2.63754 0.0158192 4
40.461 26.6791 -2.53995 0.166266 4
8.22047 5.46167 -2.64451 0.0203437 4
9.53739 6.33663 -2.64356 0.0332949 4
11.3222 7.52244 -2.64228 0.0141276 4
13.8857 9.22562 -2.64044 0.00977957 4
17.8921 11.8875 -2.63756 0.0144066 4
40.216 26.7195 -2.53041 0.168793 4
8.20139 5.49035 -2.64452 0.0179502 4
9.51525 6.36991 -2.64357 0.0260115 4
11.2959 7.56196 -2.64229 0.03267 4
13.8535 9.27409 -2.64045 0.0242677 4
39.9729 26.7595 -2.52097 0.133734 4
8.1822 5.51896 -2.64453 0.0227369 4
9.493 6.40311 -2.64359 0.0723118 4
11.2695 7.60138 -2.64231 0.0194253 4
13.8211 9.32245 -2.64047 0.0112283 4
39.6997 26.7778 -2.50962 0.108838 4
8.16292 5.54751 -2.64454 0.0359002 4
9.47063 6.43623 -2.6436 0.00884385 4
11.243 7.64071 -2.64232 0.0176593 4
13.7886 9.3707 -2.64049 0.0297004 4
8.14353 5.57599 -2.64455 0.0167534 4
9.44815 6.46928 -2.64361 0.0202887 4
11.2163 7.67995 -2.64233 0.0198666 4
13.7559 9.41883 -2.6405 0.00941713 4
17.725 12.1365 -2.63764 0.0200556 4
8.12405 5.6044 -2.64456 0.0353016 4
9.42555 6.50225 -2.64362 0.0130055 4
11.1895 7.71909 -2.64235 0.0247227 4
17.6826 12.1984 -2.63766 0.0172308 4
8.10447 5.63275 -2.64457 0.0508581 4
9.40284 6.53514 -2.64363 0.0478602 4
11.1625 7.75814 -2.64236 0.0291374 4
13.6899 9.51476 -2.64054 0.0108658 4
17.6401 12.2602 -2.63768 0.0161007 4
8.08479 5.66103 -2.64458 0.0173515 4
9.38001 6.56795 -2.64364 0.00728304 4
11.1354 7.7971 -2.64237 0.0150101 4
13.6567 9.56255 -2.64055 0.0318728 4
17.5973 12.3218 -2.63771 0.0194902 4
8.06501 5.68924 -2.64459 0.0520543 4
9.35707 6.60068 -2.64365 0.0249703 4
11.1082 7.83597 -2.64239 0.0282541 4
13.6234 9.61022 -2.64057 0.055777 4
8.04513 5.71737 -2.6446 0.0239329 4
9.33401 6.63334 -2.64367 0.0109245 4
11.0808 7.87474 -2.6424 0.00706349 4
13.5898 9.65778 -2.64059 0.00905464 4
8.02516 5.74545 -2.64461 0.0544472 4
9.31084 6.66591 -2.64368 0.0208084 4
11.0533 7.91341 -2.64242 0.0379661 4
13.5561 9.70522 -2.6406 0.0365805 4
8.00508 5.77345 -2.64462 0.0400873 4
9.28756 6.6984 -2.64369 0.040056 4
11.0257 7.95199 -2.64243 0.0176585 4
13.5222 9.75255 -2.64062 0.0115898 4
17.4242 12.5667 -2.63779 0.0161001 4
7.98491 5.80138 -2.64463 0.0221377 4
9.26416 6.7308 -2.6437 0.00728288 4
10.9979 7.99047 -2.64245 0.0313437 4
13.4882 9.79975 -2.64064 0.0217307 4
7.96464 5.82924 -2.64464 0.0299157 4
9.24065 6.76313 -2.64371 0.0130051 4
10.97 8.02885 -2.64246 0.0238388 4
13.454 9.84684 -2.64066 0.0228171 4
17.3363 12.6883 -2.63784 0.0135577 4
7.94428 5.85703 -2.64465 0.0203426 4
9.21703 6.79538 -2.64373 0.028611 4
10.942 8.06714 -2.64247 0.0260459 4
13.4196 9.89382 -2.64068 0.0155735 4
17.2921 12.7488 -2.63786 0.0265503 4
7.92382 5.88475 -2.64466 0.0358985 4
9.1933 6.82754 -2.64374 0.0400553 4
10.9138 8.10533 -2.64249 0.0110363 4
13.3851 9.94067 -2.64069 0.0257142 4
24.1598 17.9426 -2.63286 0.0402736 4
7.90326 5.91239 -2.64467 0.0281204 4
9.16945 6.85963 -2.64375 0.0915544 4
10.8855 8.14343 -2.6425 0.0331088 4
13.3504 9.9874 -2.64071 0.0134002 4
24.0973 18.0271 -2.6329 0.0420945 4
7.88261 5.93997 -2.64468 0.0209406 4
9.1455 6.89162 -2.64376 0.0171664 4
10.8571 8.18142 -2.64252 0.0353159 4
13.3156 10.034 -2.64073 0.0387518 4
7.86186 5.96747 -2.64469 0.0191457 4
9.12143 6.92354 -2.64378 0.00624229 4
13.2806 10.0805 -2.64075 0.00905409 4
17.113 12.9895 -2.63796 0.0217479 4
7.84101 5.9949 -2.6447 0.0358979 4
9.09725 6.95537 -2.64379 0.0369334 4
10.7999 8.25711 -2.64255 0.0366398 4
13.2454 10.1269 -2.64077 0.0191945 4
7.82007 6.02226 -2.64472 0.0251285 4
10.771 8.2948 -2.64256 0.0185405 4
13.2101 10.1731 -2.64078 0.0213674 4
17.0222 13.1089 -2.638 0.0172285 4
24.5372 18.8962 -2.70952 0.0333379 1
7.79903 6.04955 -2.64473 0.0341028 4
9.04856 7.01878 -2.64381 0.0322514 4
10.7421 8.3324 -2.64258 0.0114774 4
13.1746 10.2192 -2.6408 0.0304211 4
24.4714 18.9819 -2.70955 0.0333375 1
7.7779 6.07676 -2.64474 0.047265 4
9.02404 7.05035 -2.64383 0.0723051 4
10.713 8.36989 -2.64259 0.0331077 4
13.1389 10.2652 -2.64082 0.0278858 4
16.9306 13.2276 -2.63805 0.0144039 4
24.4053 19.0675 -2.70959 0.0333371 1
7.75667 6.1039 -2.64475 0.0317093 4
8.99942 7.08185 -2.64384 0.0130045 4
10.6838 8.40729 -2.64261 0.0326661 4
13.1031 10.3111 -2.64084 0.0210048 4
24.3132 19.1326 -2.70676 0.060877 4
7.73535 6.13096 -2.64476 0.0197435 4
8.97469 7.11325 -2.64385 0.0234079 4
10.6544 8.44458 -2.64263 0.0273687 4
13.0671 10.3569 -2.64086 0.0126752 4
23.8205 18.8799 -2.65923 0.0431619 4
7.71394 6.15795 -2.64477 0.0323073 4
8.94985 7.14457 -2.64387 0.0202867 4
10.6249 8.48177 -2.64264 0.0233957 4
13.031 10.4025 -2.64088 0.0278852 4
23.3447 18.6358 -2.61337 0.0634875 4
7.69243 6.18487 -2.64478 0.0131622 4
8.9249 7.17581 -2.64388 0.0156051 4
10.5953 8.51886 -2.64266 0.0110356 4
16.7449 13.4632 -2.63815 0.0290892 4
22.885 18.4 -2.56908 0.0592738 4
7.67083 6.21171 -2.64479 0.021538 4
8.89985 7.20695 -2.64389 0.0270487 4
10.5656 8.55584 -2.64267 0.0247197 4
12.9582 10.4933 -2.64092 0.0351276 4
16.6979 13.5217 -2.63818 0.0415152 4
22.4406 18.1721 -2.5263 0.0562291 4
7.64913 6.23848 -2.64481 0.0209397 4
8.87468 7.23801 -2.64391 0.0119638 4
10.5357 8.59272 -2.64269 0.0322237 4
12.9216 10.5386 -2.64094 0.018469 4
16.6508 13.58 -2.6382 0.0223107 4
22.3348 18.2159 -2.52153 0.0267097 4
7.62734 6.26517 -2.64482 0.0311102 4
8.84941 7.26898 -2.64392 0.0140444 4
10.5057 8.6295 -2.6427 0.0216295 4
12.8848 10.5837 -2.64096 0.0329543 4
23.2587 19.1049 -2.63334 0.0311609 4
7.60546 6.29178 -2.64483 0.0041879 4
8.82402 7.29986 -2.64393 0.0530563 4
10.4756 8.66617 -2.64272 0.0353132 4
12.8479 10.6287 -2.64098 0.0130368 4
16.5559 13.6962 -2.63825 0.0155325 4
7.58348 6.31832 -2.64484 0.00717922 4
8.79853 7.33066 -2.64395 0.0114435 4
10.4454 8.70274 -2.64274 0.0132424 4
12.8108 10.6736 -2.641 0.0253491 4
16.5081 13.7541 -2.63828 0.0463146 4
23.1253 19.2673 -2.63341 0.0315647 4
7.56142 6.34478 -2.64485 0.026922 4
8.77294 7.36137 -2.64396 0.0275682 4
10.415 8.7392 -2.64275 0.0498793 4
12.7736 10.7183 -2.64102 0.0155715 4
16.4602 13.8117 -2.6383 0.0474437 4
23.0583 19.3482 -2.63344 0.0358133 4
7.53926 6.37116 -2.64487 0.0448697 4
8.74723 7.39198 -2.64398 0.0504547 4
10.3845 8.77555 -2.64277 0.0180977 4
12.7362 10.7629 -2.64104 0.0137607 4
16.412 13.8692 -2.63833 0.0206152 4
22.9626 19.4049 -2.63024 0.0715366 4
7.517 6.39747 -2.64488 0.0293148 4
8.72142 7.42251 -2.64399 0.03485 4
10.3538 8.81181 -2.64279 0.0260428 4
12.6986 10.8074 -2.64106 0.0181061 4
16.4161 13.9712 -2.64681 0.0252509 4
22.5932 19.2283 -2.5956 0.0794424 4
7.49466 6.4237 -2.64489 0.0197425 4
8.69551 7.45295 -2.644 0.0306886 4
12.6609 10.8517 -2.64108 0.0376603 4
16.4909 14.1344 -2.6668 0.0170266 4
22.2333 19.0563 -2.56189 0.0628811 4
7.47223 6.44985 -2.6449 0.0143581 4
8.66948 7.48329 -2.64402 0.029128 4
10.2922 8.88398 -2.64282 0.0216285 4
12.6231 10.8959 -2.6411 0.0409191 4
16.5665 14.2998 -2.68708 0.0288597 4
21.8827 18.8886 -2.52906 0.078475 4
7.4497 6.47593 -2.64491 0.059227 4
8.64335 7.51355 -2.64403 0.00988267 4
10.2612 8.91991 -2.64283 0.0220698 4
12.5851 10.94 -2.64112 0.0170193 4
16.6429 14.4675 -2.70766 0.0229877 4
7.42709 6.50192 -2.64493 0.0514494 4
8.61712 7.54372 -2.64405 0.0140437 4
10.2301 8.95573 -2.64285 0.012359 4
12.5469 10.984 -2.64114 0.0293309 4
16.638 14.5655 -2.71511 0.0465203 1
21.6885 18.9868 -2.52188 0.0242782 4
7.40438 6.52784 -2.64494 0.0275193 4
8.59078 7.57379 -2.64406 0.0213255 4
10.1988 8.99145 -2.64287 0.0242765 4
12.5086 11.0278 -2.64116 0.0123117 4
16.5872 14.6236 -2.71514 0.0465198 1
21.6224 19.0627 -2.52191 0.0319658 4
7.38158 6.55367 -2.64495 0.0203403 4
8.56434 7.60377 -2.64407 0.0546139 4
10.1674 9.02705 -2.64289 0.0114761 4
12.4701 11.0715 -2.64118 0.010501 4
16.5362 14.6816 -2.71516 0.0465193 1
21.556 19.1383 -2.52195 0.0277168 4
7.35869 6.57943 -2.64496 0.0275191 4
8.53779 7.63366 -2.64409 0.0369292 4
10.1359 9.06254 -2.6429 0.0242761 4
12.4315 11.115 -2.6412 0.0257092 4
16.4851 14.7393 -2.71519 0.0465189 1
21.4894 19.2137 -2.52198 0.0321672 4
35.0854 31.3699 -2.46654 0.866189 10
35.0866 31.371 -0.821541 0.867265 10
35.0879 31.3722 0.82157 0.867284 10
34.0851 30.4756 2.39622 0.155841 10
35.0904 31.3744 4.11818 0.673791 10
34.0836 30.4742 5.61377 0.154881 10
34.0828 30.4735 7.24126 0.154117 10
34.082 30.4728 8.88676 0.153166 10
34.0812 30.4721 10.5547 0.152028 10
34.0804 30.4714 12.2496 0.150705 10
7.33572 6.60511 -2.64497 0.0346978 4
8.51114 7.66346 -2.6441 0.04109 4
10.1043 9.09793 -2.64292 0.0101518 4
12.3927 11.1584 -2.64122 0.0420035 4
16.4337 14.7969 -2.71522 0.0465184 1
34.4547 31.0231 -2.4298 0.865486 10
34.4885 31.0536 -0.810069 0.134189 10
34.4877 31.0529 0.810051 0.134184 10
34.0061 30.6192 2.39816 0.158198 10
34.4595 31.0275 4.05684 0.673245 10
34.0046 30.6178 5.61833 0.157223 10
34.0038 30.6172 7.24714 0.156448 10
34.003 30.6165 8.89398 0.155482 10
34.0022 30.6157 10.5633 0.154327 10
33.2933 29.9774 12.0043 0.652863 10
7.31265 6.63071 -2.64499 0.0227329 4
8.48438 7.69317 -2.64412 0.0582539 4
10.0725 9.1332 -2.64294 0.00926895 4
12.3538 11.2017 -2.64124 0.018829 4
16.1818 14.6727 -2.68204 0.0586548 4
21.3554 19.3639 -2.52206 0.0258949 4
33.8425 30.6865 -2.39417 0.864772 10
33.8437 30.6876 -0.797435 0.571914 10
33.8449 30.6886 0.797462 0.571927 10
33.9041 30.7424 2.39853 0.102494 10
32.6958 29.6467 3.86136 0.67269 10
33.9026 30.741 5.61918 0.101862 10
33.9018 30.7403 7.24823 0.10136 10
33.9011 30.7396 8.89533 0.100734 10
33.9003 30.7389 10.5649 0.0999862 10
33.0014 29.9238 11.9366 0.179277 10
7.28949 6.65622 -2.645 0.017947 4
8.45752 7.72278 -2.64413 0.0348481 4
10.0406 9.16837 -2.64295 0.0357514 4
12.3147 11.2449 -2.64126 0.0144837 4
15.9322 14.5481 -2.64908 0.0857777 4
33.248 30.3596 -2.35959 0.864048 10
33.3022 30.4091 -0.787174 0.138181 10
33.3015 30.4084 0.787155 0.138177 10
32.3891 29.5753 2.29864 0.162905 10
32.3883 29.5746 3.83722 0.162502 10
32.3876 29.574 5.38516 0.161902 10
32.3869 29.5733 6.94636 0.161104 10
32.3861 29.5726 8.52486 0.16011 10
32.3854 29.5719 10.1249 0.15892 10
32.8966 30.0387 11.9365 0.179278 10
7.26625 6.68166 -2.64501 0.0269203 4
8.43056 7.7523 -2.64415 0.0348479 4
10.0086 9.20342 -2.64297 0.0167722 4
12.2755 11.2879 -2.64129 0.0394678 4
15.6887 14.4265 -2.61695 0.0686147 4
32.6705 30.042 -2.32603 0.863314 10
33.0195 30.363 -0.78299 0.140175 10
33.0187 30.3623 0.782972 0.140171 10
32.3131 29.7134 2.30059 0.165256 10
31.7675 29.2118 3.77572 0.060116 10
32.3117 29.7121 5.38974 0.164238 10
32.3109 29.7114 6.95227 0.163429 10
32.3102 29.7107 8.53211 0.16242 10
32.3094 29.71 10.1335 0.161214 10
32.6805 30.0512 11.8961 0.651225 10
7.24292 6.70702 -2.64503 0.0496528 4
8.4035 7.78172 -2.64416 0.0156035 4
9.97653 9.23836 -2.64299 0.0172134 4
15.451 14.3078 -2.58562 0.0553111 4
32.1091 29.7334 -2.29344 0.862568 10
34.6431 32.0799 -0.824142 0.142167 10
34.6423 32.0791 0.824123 0.142163 10
32.1123 29.7363 2.29367 0.6726 10
31.6649 29.322 3.77567 0.0601169 10
32.1144 29.7383 5.37412 0.668533 10
32.1155 29.7393 6.93252 0.665276 10
32.1166 29.7403 8.50835 0.661209 10
32.1177 29.7413 10.1058 0.656336 10
32.1188 29.7424 11.7294 0.650663 10
7.2195 6.73229 -2.64504 0.0227325 4
8.37633 7.81105 -2.64418 0.0452498 4
9.94429 9.27319 -2.64301 0.0238338 4
12.1966 11.3735 -2.64133 0.0684339 4
15.2189 14.1918 -2.55505 0.0814716 4
31.5632 29.4332 -2.26178 0.861813 10
30.6219 28.5554 2.19432 0.169951 10
30.6212 28.5547 3.66308 0.169531 10
31.5684 29.438 5.29991 0.667948 10
30.6198 28.5534 6.63113 0.168073 10
31.5705 29.44 8.39086 0.66063 10
30.6184 28.5521 9.66539 0.165795 10
31.5727 29.442 11.5674 0.650093 10
7.19599 6.75748 -2.64505 0.0400808 4
9.91192 9.30791 -2.64302 0.0238337 4
12.1569 11.4161 -2.64135 0.0774854 4
15.0011 14.087 -2.52673 0.0378358 4
31.0322 29.1412 -2.231 0.861047 10
31.0332 29.1421 -0.743087 0.862116 10
31.0342 29.1431 0.74311 0.862136 10
30.5492 28.6876 2.19627 0.172296 10
30.5485 28.687 3.66634 0.17187 10
31.0372 29.1459 5.22779 0.667354 10
30.5471 28.6856 6.63703 0.170392 10
31.0393 29.1478 8.27666 0.660043 10
30.5457 28.6843 9.67398 0.168083 10
29.9854 28.1582 11.0218 0.649516 10
7.17239 6.78259 -2.64506 0.0400806 4
8.32169 7.86943 -2.64421 0.0182037 4
9.87944 9.34252 -2.64304 0.0247162 4
12.1171 11.4585 -2.64137 0.0658982 4
14.952 14.1394 -2.52676 0.0327531 4
20.947 19.8086 -2.52228 0.024072 4
30.5155 28.857 -2.20108 0.86027 10
30.6129 28.9491 -0.735437 0.224266 10
30.6122 28.9485 0.73542 0.224259 10
29.5754 27.9681 2.13327 0.174639 10
29.5748 27.9675 3.56117 0.174207 10
30.5203 28.8616 5.15766 0.666752 10
29.5734 27.9662 6.44664 0.172709 10
30.5223 28.8635 8.16562 0.659447 10
29.572 27.9649 9.39648 0.170368 10
29.5713 27.9642 10.9054 0.168886 10
7.14871 6.80762 -2.64508 0.0101697 4
8.29422 7.89847 -2.64422 0.00832165 4
12.0771 11.5009 -2.64139 0.014483 4
14.9027 14.1917 -2.52678 0.0344468 4
30.0124 28.5804 -2.17197 0.859483 10
30.5396 29.0824 -0.73611 0.227271 10
30.5389 29.0818 0.736093 0.227264 10
28.9942 27.6108 2.09829 0.670195 10
29.0546 27.6683 3.51014 0.176542 10
30.0171 28.5849 5.08945 0.666142 10
29.0533 27.667 6.35427 0.175023 10
30.019 28.5867 8.05762 0.658844 10
28.9988 27.6152 9.2449 0.653989 10
29.0512 27.6651 10.7492 0.17115 10
7.12494 6.83257 -2.64509 0.0346963 4
8.26664 7.92742 -2.64424 0.0431683 4
9.81411 9.41139 -2.64308 0.0304535 4
12.0709 11.5756 -2.64887 0.029668 4
15.5117 14.8752 -2.63882 0.0719987 4
20.8088 19.9549 -2.52236 0.0246781 4
29.5224 28.311 -2.14365 0.858685 10
29.5247 28.3131 -0.714025 0.152102 10
29.5243 28.3127 0.714015 0.567901 10
28.5208 27.3504 2.07092 0.669573 10
28.9847 27.7953 3.5134 0.178874 10
29.527 28.3154 5.02308 0.665524 10
28.9834 27.7941 6.36017 0.177336 10
29.5289 28.3172 7.95254 0.658233 10
28.8671 27.6826 9.23368 0.155773 10
28.9814 27.7921 10.7592 0.173412 10
7.10108 6.85743 -2.6451 0.0699905 4
8.23897 7.95628 -2.64425 0.00780146 4
9.78126 9.44565 -2.6431 0.0136819 4
12.0999 11.6847 -2.66415 0.0277771 4
15.4598 14.9294 -2.63885 0.0197641 4
22.2879 21.5231 -2.71073 0.033323 1
29.0451 28.0485 -2.11609 0.857877 10
29.0508 28.0541 -0.70493 0.154083 10
29.0502 28.0534 0.704914 0.154078 10
28.0596 27.0968 2.04429 0.668943 10
28.0605 27.0977 3.41281 0.667327 10
29.0495 28.0528 4.95848 0.664898 10
28.0622 27.0993 6.17874 0.661659 10
29.0513 28.0545 7.85026 0.657613 10
28.7702 27.783 9.23362 0.155774 10
28.0649 27.1019 10.454 0.647125 10
7.07713 6.88221 -2.64512 0.0221336 4
8.21119 7.98503 -2.64427 0.0265248 4
9.7483 9.4798 -2.64312 0.0167713 4
12.1289 11.7948 -2.67959 0.025173 4
15.4078 14.9834 -2.63887 0.0505392 4
22.2129 21.6011 -2.71077 0.0333225 1
28.5798 27.7927 -2.08925 0.857059 10
28.5807 27.7935 -0.695872 0.566813 10
28.5816 27.7943 0.695892 0.566825 10
27.953 27.1831 2.04343 0.183987 10
27.9523 27.1825 3.41118 0.183533 10
28.5841 27.7969 4.89558 0.664263 10
27.9511 27.1812 6.17513 0.181955 10
28.5859 27.7986 7.75067 0.656986 10
28.5868 27.7995 9.20587 0.652144 10
27.9491 27.1793 10.4461 0.177929 10
7.0531 6.90691 -2.64513 0.038285 4
8.18332 8.01369 -2.64428 0.022884 4
9.71521 9.51384 -2.64313 0.0194192 4
12.1581 11.906 -2.6952 0.0267281 4
15.3555 15.0373 -2.6389 0.0310573 4
22.1377 21.6789 -2.71081 0.033322 1
28.1262 27.5433 -2.06311 0.85623 10
28.1271 27.5441 -0.687164 0.566264 10
28.1279 27.5449 0.687184 0.566277 10
27.8849 27.3069 2.0454 0.186319 10
27.8843 27.3063 3.41448 0.185859 10
28.1304 27.5474 4.83431 0.663621 10
27.883 27.305 6.1811 0.184261 10
28.1321 27.549 7.65367 0.656351 10
28.133 27.5499 9.09065 0.651514 10
27.881 27.3031 10.4562 0.180184 10
7.02899 6.93152 -2.64514 0.0376866 4
8.15534 8.04226 -2.6443 0.011962 4
9.68201 9.54776 -2.64315 0.0264806 4
12.1873 12.0183 -2.71098 0.0285052 4
15.3031 15.0909 -2.63893 0.03868 4
22.0623 21.7564 -2.71086 0.0333215 1
27.6839 27.3 -2.03764 0.85539 10
28.0399 27.6511 -0.687388 0.160016 10
28.0393 27.6505 0.687372 0.160011 10
26.8399 26.4678 1.97552 0.188648 10
26.8393 26.4672 3.29782 0.188183 10
27.688 27.304 4.77462 0.662971 10
26.8381 26.466 5.96992 0.186565 10
26.8375 26.4653 7.32653 0.185414 10
26.8369 26.4647 8.70161 0.184038 10
26.8362 26.4641 10.099 0.182437 10
7.00478 6.95605 -2.64516 0.0125621 4
8.12727 8.07072 -2.64431 0.0358859 4
9.64869 9.58156 -2.64317 0.0419273 4
12.178 12.0933 -2.71827 0.0596452 1
15.2505 15.1444 -2.63896 0.0333152 4
21.9865 21.8336 -2.7109 0.033321 1
27.2523 27.0627 -2.01281 0.854541 10
26.774 26.5877 1.97748 0.190975 10
26.7734 26.5871 3.3011 0.190504 10
27.2563 27.0666 4.71644 0.662312 10
26.7722 26.5859 5.97586 0.188866 10
26.7715 26.5853 7.33381 0.187702 10
26.7709 26.5847 8.71027 0.186308 10
26.7703 26.584 10.109 0.184688 10
6.98049 6.98049 -2.64517 0.0352934 4
8.09909 8.09909 -2.64433 0.0244439 4
9.61526 9.61525 -2.64319 0.0207428 4
12.1358 12.1358 -2.71829 0.0596447 1
15.0858 15.0858 -2.61956 0.0447151 4
21.9105 21.9105 -2.71094 0.0333205 1
26.8311 26.8311 -1.98861 0.85368 10
26.8319 26.8318 -0.66235 0.854741 10
26.8326 26.8326 0.662368 0.85476 10
26.7079 26.7079 1.97948 0.1933 10
26.7073 26.7073 3.30443 0.192823 10
26.8349 26.8349 4.65971 0.661645 10
26.7061 26.7061 5.98188 0.191166 10
26.7055 26.7054 7.3412 0.189987 10
26.7048 26.7048 8.71904 0.188577 10
26.7042 26.7042 10.1192 0.186937 10
6.95612 7.00485 -2.64518 0.0173475 4
8.07082 8.12736 -2.64434 0.0187228 4
9.5817 9.64883 -2.64321 0.0414854 4
12.0935 12.1782 -2.71831 0.0596442 1
14.8949 14.9993 -2.59548 0.0798451 4
21.8343 21.9872 -2.71098 0.03332 1
26.4199 26.605 -1.965 0.85281 10
26.4206 26.6057 -0.654487 0.85387 10
26.4214 26.6065 0.654505 0.853889 10
26.5906 26.7768 1.9777 0.424518 10
26.5913 26.7776 3.30162 0.423492 10
26.4236 26.6087 4.60439 0.660971 10
26.5928 26.7791 5.97742 0.419895 10
26.5936 26.7799 7.33611 0.417328 10
25.527 25.7058 8.36373 0.648912 10
26.5952 26.7815 10.1133 0.410673 10
6.93166 7.02913 -2.6452 0.0185438 4
8.04245 8.15553 -2.64436 0.0119617 4
9.54803 9.68228 -2.64323 0.0207425 4
12.051 12.2204 -2.71834 0.0596436 1
14.7074 14.9142 -2.57187 0.0889863 4
21.7577 22.0636 -2.71102 0.0333194 1
26.0183 26.3841 -1.94197 0.851929 10
26.019 26.3849 -0.646816 0.852988 10
26.0198 26.3856 0.646834 0.853007 10
25.1687 25.5225 1.87855 0.197942 10
25.1681 25.522 3.13595 0.197454 10
26.0219 26.3878 4.55042 0.660288 10
25.1669 25.5208 5.6769 0.195757 10
25.1663 25.5202 6.96691 0.19455 10
25.3381 25.6944 8.33118 0.155781 10
25.1651 25.519 9.60329 0.191427 10
6.90712 7.05332 -2.64521 0.061613 4
8.01398 8.18361 -2.64438 0.0202828 4
9.51424 9.71562 -2.64324 0.00617858 4
12.0084 12.2625 -2.71836 0.0596431 1
14.5233 14.8307 -2.54871 0.090502 4
21.6809 22.1398 -2.71107 0.0333189 1
25.626 26.1684 -1.9195 0.851038 10
25.6267 26.1692 -0.639331 0.852095 10
25.6274 26.1699 0.639348 0.852114 10
25.1057 25.6371 1.88052 0.20026 10
25.1051 25.6365 3.13924 0.199766 10
25.6296 26.1721 4.49776 0.659597 10
25.1039 25.6353 5.68284 0.198049 10
25.1034 25.6347 6.97421 0.196828 10
25.2481 25.7825 8.33113 0.155782 10
25.1022 25.6335 9.61335 0.193669 10
6.88249 7.07742 -2.64522 0.0245254 4
7.98541 8.21158 -2.64439 0.0192426 4
9.48034 9.74885 -2.64326 0.0110331 4
11.9656 12.3045 -2.71838 0.0596426 1
14.3487 14.7551 -2.52709 0.0313372 4
21.6038 22.2157 -2.71111 0.0333184 1
25.2427 25.9577 -1.89756 0.850136 10
25.2434 25.9584 -0.632025 0.851192 10
25.2441 25.9591 0.632042 0.851212 10
25.0426 25.7518 1.88252 0.202575 10
25.042 25.7512 3.14257 0.202076 10
25.2462 25.9612 4.44635 0.658898 10
25.0408 25.7501 5.68887 0.200339 10
25.0403 25.7495 6.98161 0.199104 10
25.1578 25.8703 8.33108 0.155783 10
25.0391 25.7482 9.62354 0.195908 10
6.85778 7.10144 -2.64524 0.0430689 4
7.95675 8.23945 -2.64441 0.007801 4
9.44632 9.78195 -2.64328 0.0383949 4
11.8732 12.2951 -2.70713 0.118294 4
14.2973 14.8053 -2.52712 0.0398062 4
21.5265 22.2913 -2.71115 0.0333179 1
24.8681 25.7517 -1.87615 0.849224 10
24.0228 24.8763 -0.603634 0.850279 10
24.8694 25.7531 0.624908 0.850298 10
24.8701 25.7537 1.8763 0.662195 10
24.0247 24.8783 3.02579 0.660596 10
24.8715 25.7551 4.39616 0.658191 10
24.8721 25.7559 5.67093 0.654985 10
24.0267 24.8804 6.72319 0.650981 10
24.8735 25.7573 8.26667 0.646184 10
24.0281 24.8818 9.26831 0.640599 10
6.83299 7.12537 -2.64525 0.023927 4
7.92799 8.26723 -2.64442 0.0561669 4
9.41218 9.81493 -2.6433 0.0803199 4
11.7182 12.2196 -2.6815 0.103451 4
14.2457 14.8552 -2.52715 0.0400881 4
21.4489 22.3667 -2.71119 0.0333173 1
24.5018 25.5503 -1.85523 0.848302 10
23.9596 24.9849 -0.604235 0.266075 10
24.5031 25.5516 0.617941 0.849375 10
24.5038 25.5523 1.85538 0.661476 10
23.958 24.9832 3.02835 0.206687 10
24.5051 25.5537 4.34715 0.657477 10
24.5058 25.5544 5.6077 0.654274 10
23.9564 24.9814 6.72786 0.203648 10
24.5071 25.5558 8.17449 0.645482 10
23.8424 24.8627 9.23012 0.179295 10
6.80811 7.14922 -2.64527 0.072977 4
7.89913 8.2949 -2.64444 0.0317237 4
9.37793 9.8478 -2.64332 0.0794367 4
11.5661 12.1456 -2.65637 0.0975184 4
14.1939 14.905 -2.52718 0.0296422 4
21.371 22.4418 -2.71124 0.0333168 1
24.1436 25.3533 -1.8348 0.847369 10
23.8986 25.096 -0.6049 0.269038 10
24.1449 25.3546 0.611135 0.848441 10
24.1455 25.3553 1.83495 0.660749 10
23.8969 25.0942 3.03169 0.208989 10
24.1468 25.3566 4.29926 0.656754 10
24.1475 25.3573 5.54593 0.653554 10
23.8953 25.0925 6.73526 0.205916 10
24.1488 25.3587 8.08444 0.644772 10
23.7554 24.9456 9.23007 0.179296 10
6.78315 7.17298 -2.64528 0.00478535 4
7.87018 8.32247 -2.64446 0.0530458 4
9.34357 9.88054 -2.64334 0.0785535 4
11.4168 12.0729 -2.63174 0.102306 4
14.1419 14.9547 -2.52721 0.0324649 4
21.2929 22.5166 -2.71128 0.0333163 1
23.7932 25.1606 -1.81483 0.846425 10
22.9844 24.3053 -0.583906 0.847477 10
23.7945 25.1619 0.604484 0.847496 10
23.7951 25.1626 1.81498 0.660013 10
22.9862 24.3073 2.9269 0.658419 10
23.7963 25.1639 4.25247 0.656023 10
23.797 25.1646 5.48557 0.652827 10
22.9881 24.3092 6.50343 0.648836 10
23.7983 25.1659 7.99645 0.644055 10
23.668 25.0282 9.23002 0.179297 10
6.7581 7.19665 -2.64529 0.0382826 4
7.84113 8.34995 -2.64447 0.0130013 4
9.30909 9.91317 -2.64336 0.0812007 4
11.2702 12.0015 -2.60759 0.10169 4
14.0898 15.0041 -2.52723 0.0378283 4
21.2145 22.5912 -2.71133 0.0333157 1
23.4503 24.9721 -1.79532 0.845472 10
22.9123 24.3991 -0.584234 0.274954 10
23.4516 24.9734 0.597984 0.846542 10
23.4522 24.974 1.79546 0.65927 10
22.9107 24.3974 2.92811 0.213585 10
23.4534 24.9753 4.20674 0.655284 10
23.454 24.976 5.42658 0.652092 10
22.9091 24.3957 6.50515 0.210446 10
23.4553 24.9773 7.91044 0.643329 10
23.4559 24.978 9.18124 0.637769 10
6.73298 7.22023 -2.64531 0.0167486 4
7.81198 8.37732 -2.64449 0.0260025 4
9.2745 9.94568 -2.64338 0.0198587 4
11.1262 11.9314 -2.5839 0.102622 4
14.0375 15.0534 -2.52726 0.0386747 4
21.1359 22.6655 -2.71137 0.0333152 1
23.1148 24.7875 -1.77624 0.844508 10
22.853 24.5069 -0.5849 0.277908 10
23.1159 24.7888 0.591629 0.845577 10
23.1165 24.7894 1.77638 0.658518 10
22.8515 24.5052 2.93145 0.21588 10
23.1177 24.7907 4.16203 0.654537 10
23.1183 24.7914 5.3689 0.651349 10
22.8499 24.5035 6.51257 0.212706 10
23.1195 24.7927 7.82636 0.642596 10
23.1202 24.7934 9.08365 0.637043 10
6.70777 7.24373 -2.64532 0.0550307 4
7.78274 8.40459 -2.64451 0.0140413 4
9.24376 9.98234 -2.64453 0.0259767 4
10.9848 11.8625 -2.56067 0.100367 4
13.985 15.1025 -2.52729 0.038392 4
21.057 22.7395 -2.71141 0.0333146 1
22.7862 24.6069 -1.75759 0.843534 10
22.7868 24.6075 -0.585401 0.844582 10
22.7874 24.6081 0.585415 0.844602 10
22.788 24.6088 1.75772 0.657759 10
22.7885 24.6094 2.93438 0.65617 10
22.7891 24.61 4.11831 0.653782 10
22.7897 24.6106 5.31251 0.650598 10
22.7903 24.6113 6.52004 0.64662 10
22.7909 24.6119 7.74415 0.641855 10
22.7915 24.6126 8.98822 0.636308 10
6.68248 7.26714 -2.64534 0.0299078 4
7.7534 8.43176 -2.64452 0.0410835 4
9.25126 10.0607 -2.65671 0.0204455 4
10.8459 11.7949 -2.53788 0.106894 4
13.9324 15.1514 -2.52732 0.041779 4
20.9778 22.8132 -2.71146 0.0333141 1
22.4645 24.43 -1.73934 0.84255 10
22.4651 24.4306 -0.579323 0.843597 10
22.4657 24.4312 0.579337 0.843616 10
22.4662 24.4318 1.73947 0.656992 10
22.4668 24.4324 2.90391 0.655405 10
22.4674 24.4331 4.07555 0.653019 10
22.4679 24.4337 5.25735 0.649838 10
22.4685 24.4343 6.45234 0.645866 10
22.4691 24.435 7.66374 0.641106 10
22.4697 24.4356 8.89489 0.635566 10
6.65711 7.29046 -2.64535 0.0424689 4
7.72397 8.45882 -2.64454 0.026002 4
9.25867 10.1395 -2.66899 0.0065843 4
10.77 11.7946 -2.52972 0.0463375 4
13.8796 15.2001 -2.52735 0.0262527 4
20.8984 22.8867 -2.7115 0.0333135 1
22.1494 24.2567 -1.72149 0.841555 10
22.15 24.2573 -0.573377 0.842601 10
22.1505 24.2579 0.573391 0.84262 10
22.1511 24.2585 1.72162 0.656216 10
22.1516 24.2591 2.87411 0.654631 10
22.1522 24.2597 4.03372 0.652249 10
22.1528 24.2604 5.20338 0.649071 10
22.1533 24.261 6.38611 0.645104 10
22.1539 24.2616 7.58507 0.64035 10
22.1545 24.2622 8.80358 0.634816 10
6.63165 7.31369 -2.64537 0.0173463 4
7.69444 8.48579 -2.64456 0.0150811 4
9.26599 10.219 -2.68136 0.0393235 4
10.7288 11.8323 -2.52974 0.043441 4
13.8266 15.2486 -2.52738 0.028793 4
20.8187 22.9599 -2.71155 0.033313 1
21.1659 23.3427 -1.65137 0.289341 10
21.1654 23.3422 -0.549995 0.289687 10
21.8418 24.0882 0.567572 0.841614 10
21.1644 23.3411 1.65125 0.225586 10
21.1639 23.3406 2.75651 0.22503 10
21.1004 23.2705 3.85696 0.65147 10
21.1629 23.3395 4.98999 0.223098 10
21.1624 23.3389 6.12392 0.221723 10
21.1619 23.3384 7.27329 0.220078 10
21.1025 23.2728 8.41779 0.634058 10
6.60612 7.33684 -2.64538 0.0275147 4
7.66482 8.51265 -2.64457 0.0338022 4
9.27321 10.2989 -2.69384 0.0358796 4
10.6876 11.8697 -2.52977 0.0380105 4
13.7735 15.297 -2.52741 0.0440358 4
20.7388 23.0328 -2.71159 0.0333124 1
21.1098 23.4447 -1.65336 0.292281 10
21.1093 23.4442 -0.55066 0.292622 10
21.5393 23.9218 0.561878 0.840598 10
21.1083 23.4431 1.65325 0.227878 10
21.1078 23.4426 2.75984 0.227311 10
20.8081 23.1097 3.81826 0.650683 10
21.1068 23.4415 4.99602 0.225359 10
21.1063 23.4409 6.13132 0.22397 10
21.1058 23.4404 7.28208 0.222309 10
20.8102 23.1121 8.33332 0.633292 10
6.58051 7.35989 -2.64539 0.0436645 4
7.63511 8.5394 -2.64459 0.0447227 4
9.28033 10.3795 -2.70641 0.0407304 4
11.1181 12.4349 -2.64193 0.0503183 4
13.7202 15.3452 -2.52744 0.0375429 4
20.6586 23.1054 -2.71164 0.0333119 1
21.0535 23.547 -1.65538 0.295209 10
21.053 23.5465 -0.551334 0.295555 10
21.2428 23.7588 0.556303 0.839571 10
21.052 23.5454 1.65527 0.230162 10
21.0516 23.5449 2.76321 0.229595 10
20.5217 22.9522 3.78037 0.649889 10
21.0506 23.5438 5.00213 0.227618 10
21.0501 23.5432 6.13882 0.226215 10
21.0496 23.5427 7.29098 0.224537 10
20.7159 23.1695 8.32791 0.179305 10
6.55481 7.38286 -2.64541 0.0203368 4
7.60531 8.56606 -2.64461 0.0338018 4
9.28735 10.4606 -2.7191 0.0370152 4
11.0747 12.4737 -2.64195 0.0238919 4
13.6667 15.3931 -2.52747 0.0352842 4
20.5782 23.1778 -2.71168 0.0333113 1
20.9766 23.6266 -1.65582 0.298127 10
20.9762 23.626 -0.551477 0.298484 10
20.9521 23.5989 0.550844 0.838535 10
20.9752 23.6249 1.6557 0.148383 10
20.9747 23.6244 2.76393 0.148018 10
20.3727 22.9463 3.76766 0.0842398 10
20.2413 22.7983 4.82871 0.645925 10
20.9732 23.6227 6.14042 0.145843 10
20.9727 23.6222 7.29288 0.144761 10
20.6348 23.2416 8.32786 0.179306 10
6.52904 7.40574 -2.64542 0.0221311 4
7.57541 8.59261 -2.64462 0.0291214 4
9.255 10.4977 -2.72033 0.0726962 1
11.0312 12.5124 -2.64198 0.0456114 4
13.613 15.4409 -2.5275 0.0400824 4
20.4975 23.2498 -2.71173 0.0333108 1
20.7978 23.5905 -1.64819 0.836429 10
20.6671 23.4422 0.545498 0.837488 10
20.2922 23.017 3.76761 0.0842408 10
19.9659 22.6469 4.78184 0.645118 10
20.5535 23.3133 8.32781 0.179307 10
6.50318 7.42852 -2.64544 0.0478507 4
7.54541 8.61906 -2.64464 0.0098804 4
9.21837 10.5301 -2.72035 0.0726956 1
10.9876 12.551 -2.642 0.0492309 4
13.5592 15.4885 -2.52753 0.0403642 4
20.3861 23.2868 -2.70772 0.833317 10
20.5165 23.4358 -1.63237 0.835373 10
20.3875 23.2884 0.540262 0.83643 10
20.2115 23.0874 3.76757 0.0842418 10
19.6958 22.4983 4.73593 0.644304 10
20.3909 23.2923 8.29484 0.630153 10
6.47725 7.45122 -2.64545 0.0245233 4
7.51533 8.6454 -2.64466 0.0239208 4
9.18162 10.5622 -2.72038 0.0726951 1
10.9438 12.5894 -2.64203 0.0231673 4
13.5052 15.536 -2.52756 0.0375411 4
19.4853 22.4153 -2.59847 0.30614 10
19.4849 22.4148 -1.55651 0.306881 10
19.4844 22.4143 -0.518402 0.307248 10
19.484 22.4138 0.51839 0.307241 10
19.4836 22.4133 1.5564 0.239262 10
19.4831 22.4127 2.59816 0.238674 10
19.4826 22.4122 3.64627 0.237794 10
19.5806 22.5249 4.7271 0.108236 10
19.4817 22.4112 5.77214 0.235167 10
19.4813 22.4106 6.85548 0.233422 10
20.1166 23.1415 8.21605 0.629349 10
6.45123 7.47383 -2.64547 0.0239251 4
7.48516 8.67163 -2.64467 0.0421212 4
9.14477 10.5943 -2.7204 0.0726945 1
10.8999 12.6276 -2.64205 0.073121 4
13.4511 15.5832 -2.52759 0.0395165 4
19.4321 22.5122 -2.60182 0.309043 10
19.4316 22.5117 -1.55852 0.309792 10
19.4312 22.5112 -0.519072 0.310162 10
19.4307 22.5107 0.519059 0.310155 10
19.4303 22.5102 1.55841 0.241532 10
19.4298 22.5096 2.60152 0.240937 10
19.4294 22.5091 3.65098 0.240049 10
19.5016 22.5929 4.72706 0.108237 10
19.4284 22.5081 5.77959 0.237397 10
19.428 22.5075 6.86434 0.235637 10
19.8474 22.9934 8.13885 0.628537 10
6.42514 7.49634 -2.64548 0.0693823 4
7.45489 8.69776 -2.64469 0.0145603 4
9.1078 10.6263 -2.72042 0.072694 1
10.8558 12.6657 -2.64208 0.0923053 4
13.3968 15.6302 -2.52763 0.0327418 4
19.3786 22.6094 -2.60522 0.311943 10
19.3782 22.6089 -1.56055 0.312698 10
19.3777 22.6084 -0.519749 0.313072 10
19.3773 22.6078 0.519737 0.313065 10
19.3768 22.6073 1.56044 0.243798 10
19.3764 22.6068 2.60492 0.243198 10
19.3759 22.6063 3.65574 0.242302 10
19.4225 22.6606 4.72701 0.108238 10
19.375 22.6052 5.78714 0.239625 10
19.3745 22.6046 6.87329 0.237848 10
19.5832 22.8481 8.06318 0.627718 10
6.39897 7.51877 -2.6455 0.0328966 4
7.42453 8.72379 -2.64471 0.0920414 4
9.07072 10.6581 -2.72044 0.0726934 1
10.8117 12.7037 -2.6421 0.0390936 4
13.3423 15.6771 -2.52766 0.023427 4
19.3195 22.7003 -2.60791 0.829002 10
19.3199 22.7008 -1.56223 0.831047 10
19.3204 22.7013 -0.520333 0.83208 10
19.3208 22.7019 0.520344 0.8321 10
19.3212 22.7024 1.56234 0.648023 10
19.3217 22.7029 2.6082 0.646458 10
19.3221 22.7034 3.66052 0.644105 10
19.3225 22.7039 4.72195 0.640968 10
19.3214 22.7026 5.79477 0.24185 10
19.321 22.7021 6.88236 0.240056 10
19.3239 22.7055 7.98899 0.626891 10
6.37273 7.5411 -2.64551 0.0364851 4
7.39408 8.74971 -2.64473 0.0962008 4
9.03354 10.6897 -2.72046 0.0726928 1
10.7123 12.6763 -2.62861 0.107359 4
13.2876 15.7238 -2.52769 0.0206042 4
19.065 22.5604 -2.58417 0.827898 10
19.0655 22.5609 -1.54801 0.829941 10
19.0659 22.5614 -0.515597 0.830973 10
19.0663 22.5619 0.515608 0.830992 10
19.0667 22.5624 1.54812 0.64716 10
19.0672 22.5629 2.58446 0.645597 10
19.0676 22.5634 3.6272 0.643248 10
19.068 22.5639 4.67897 0.640115 10
19.0685 22.5645 5.74248 0.636202 10
19.0689 22.565 6.82059 0.631514 10
19.0693 22.5655 7.91627 0.626056 10
6.3464 7.56334 -2.64553 0.0161491 4
7.36354 8.77553 -2.64474 0.0920401 4
8.97961 10.7015 -2.71545 0.0183243 4
10.5937 12.625 -2.61031 0.132039 4
13.2328 15.7703 -2.52772 0.0307649 4
18.8151 22.423 -2.56089 0.826784 10
18.8155 22.4235 -1.53407 0.828824 10
18.8159 22.424 -0.510952 0.829854 10
18.8164 22.4245 0.510963 0.829874 10
18.8168 22.425 1.53417 0.646289 10
18.8172 22.4255 2.56117 0.644729 10
18.8176 22.426 3.59452 0.642382 10
18.818 22.4265 4.63681 0.639254 10
18.8185 22.427 5.69074 0.635346 10
18.8189 22.4275 6.75913 0.630664 10
18.8193 22.428 7.84494 0.625214 10
6.31999 7.58549 -2.64554 0.0263168 4
7.33292 8.80124 -2.64476 0.0889196 4
8.87455 10.6516 -2.69491 0.108014 4
10.4767 12.5745 -2.59228 0.133849 4
18.5697 22.288 -2.53806 0.82566 10
18.5701 22.2885 -1.52039 0.827697 10
18.5705 22.289 -0.506397 0.828726 10
18.5709 22.2895 0.506407 0.828745 10
18.5713 22.29 1.52049 0.645411 10
18.5717 22.2905 2.53834 0.643852 10
18.5721 22.291 3.56247 0.641509 10
18.5726 22.2915 4.59547 0.638385 10
18.573 22.292 5.64 0.634482 10
18.5734 22.2925 6.69886 0.629807 10
18.5738 22.293 7.77498 0.624364 10
6.29352 7.60755 -2.64556 0.00538296 4
7.3022 8.82684 -2.64478 0.0956789 4
8.77104 10.6024 -2.6747 0.114411 4
10.3613 12.5246 -2.57452 0.14196 4
14.1026 17.047 -2.71652 0.0464961 1
18.3286 22.1555 -2.51567 0.824526 10
18.329 22.156 -1.50698 0.82656 10
18.3294 22.1564 -0.501928 0.827588 10
18.3298 22.1569 0.501939 0.827607 10
18.3302 22.1574 1.50707 0.644524 10
18.3306 22.1579 2.51594 0.642968 10
18.331 22.1584 3.53103 0.640628 10
18.3314 22.1589 4.55491 0.637508 10
18.3318 22.1593 5.59022 0.633611 10
18.3322 22.1599 6.63974 0.628942 10
18.3327 22.1604 7.70636 0.623507 10
6.26696 7.62951 -2.64557 0.0370824 4
7.27139 8.85233 -2.6448 0.0353593 4
8.66905 10.5539 -2.65481 0.143382 4
10.2474 12.4753 -2.55703 0.139313 4
14.0431 17.0964 -2.71655 0.0464955 1
18.2757 22.2492 -2.51904 0.32926 10
18.2752 22.2486 -1.50893 0.330057 10
18.2748 22.2481 -0.502557 0.330453 10
18.2744 22.2476 0.502545 0.330446 10
18.274 22.2471 1.50883 0.257333 10
18.2735 22.2466 2.51875 0.2567 10
18.2731 22.246 3.53482 0.255755 10
18.2727 22.2455 4.55958 0.254497 10
18.2722 22.245 5.5957 0.25293 10
18.2718 22.2444 6.64593 0.251054 10
18.2713 22.2439 7.71318 0.248873 10
6.24032 7.65139 -2.64559 0.0215316 4
7.243 8.88079 -2.64573 0.0491198 4
8.56856 10.5061 -2.63525 0.110459 4
10.135 12.4267 -2.5398 0.0182153 4
13.9836 17.1455 -2.71659 0.0464949 1
18.2234 22.3441 -2.52258 0.332132 10
18.223 22.3436 -1.51105 0.332937 10
18.2226 22.3431 -0.503262 0.333336 10
18.2222 22.3426 0.50325 0.333328 10
18.2217 22.3421 1.51094 0.259578 10
18.2213 22.3415 2.52228 0.25894 10
18.2209 22.341 3.53978 0.257986 10
18.2205 22.3405 4.56598 0.256718 10
18.22 22.3399 5.60355 0.255137 10
18.2196 22.3394 6.65526 0.253245 10
