VERSION 0.7
FIELDS x y z intensity label
SIZE 4 4 4 4 4
TYPE F F F F F
COUNT 1 1 1 1 1
WIDTH 1256
HEIGHT 1
VIEWPOINT 11.1751 0 2.72711 0.999967 -0.000166307 0.000909501 -0.00807731
POINTS 1256
DATA ascii
-12.4704 5.76214 -2.67026 0.0174691 4
-15.3317 7.08425 -2.675 0.0125096 4
-27.9728 12.9253 -2.69593 0.0318112 4
-43.2167 19.9689 -2.49498 0.385858 10
-72.7955 33.6362 -1.39974 0.801871 10
-72.8006 33.6386 1.39983 0.625185 10
-42.0841 19.4456 2.4296 0.300881 10
-42.083 19.4451 4.05582 0.300155 10
-42.0819 19.4446 5.69193 0.299064 10
-42.0808 19.4441 7.34205 0.297608 10
-42.0797 19.4436 9.01043 0.295789 10
-42.0786 19.443 10.7015 0.29361 10
-42.0774 19.4425 12.42 0.291074 10
-9.17832 4.20217 -2.70483 0.0368064 4
-10.6622 4.88153 -2.70728 0.029899 4
-12.4907 5.71869 -2.67032 0.0458556 4
-15.3567 7.03086 -2.67506 0.0260908 4
-19.8645 9.0947 -2.68253 0.0147161 4
-26.8294 12.2834 -2.58158 0.0258825 4
-43.6023 19.9627 -2.51321 0.38306 10
-72.7197 33.2937 -1.39604 0.383537 10
-72.7956 33.3284 1.39749 0.626232 10
-42.4595 19.4395 2.44734 0.2987 10
-42.4584 19.439 4.08544 0.297979 10
-42.4573 19.4385 5.7335 0.296895 10
-42.4562 19.438 7.39566 0.29545 10
-42.4551 19.4375 9.07623 0.293645 10
-42.4539 19.4369 10.7797 0.291482 10
-42.4528 19.4364 12.5107 0.288964 10
-9.19307 4.17016 -2.70486 0.0201838 4
-10.6793 4.84436 -2.70733 0.02629 4
-12.5108 5.67516 -2.67037 0.0222723 4
-26.8762 12.1916 -2.58198 0.0696447 4
-43.9936 19.9564 -2.53173 0.380257 10
-72.7906 33.0193 1.39518 0.627273 10
-72.7957 33.0216 4.18923 0.626464 10
-72.8113 33.0287 12.6632 0.619468 10
-72.8166 33.0311 15.5423 0.615622 10
-72.8219 33.0335 18.4611 0.611026 10
-72.8274 33.036 21.4279 0.769999 10
-9.2077 4.1381 -2.7049 0.0397735 4
-10.6964 4.80714 -2.70737 0.01598 4
-12.5308 5.63157 -2.67042 0.0222719 4
-15.4062 6.9238 -2.67519 0.01644 4
-27.1062 12.182 -2.59997 0.130421 4
-44.3907 19.95 -2.55056 0.37745 10
-72.8485 32.7394 -1.39409 0.805873 10
-72.7856 32.7112 1.39288 0.628305 10
-72.7907 32.7135 4.18235 0.627495 10
-72.8639 32.7463 6.98895 0.399576 10
-72.869 32.7487 9.80923 0.398084 10
-72.8063 32.7204 12.6424 0.620488 10
-72.8115 32.7228 15.5167 0.616636 10
-72.8169 32.7252 18.4308 0.612032 10
-72.8223 32.7277 21.3927 0.771267 10
-9.22221 4.10599 -2.70494 0.0249323 4
-10.7132 4.76984 -2.70742 0.0247428 4
-12.5506 5.5879 -2.67047 0.0218347 4
-15.4306 6.87014 -2.67525 0.0396695 4
-19.9605 8.88699 -2.68278 0.0294294 4
-27.3395 12.1723 -2.61825 0.11185 4
-44.7938 19.9435 -2.5697 0.374638 10
-72.7807 32.404 1.39062 0.62933 10
-72.7858 32.4063 4.17553 0.628519 10
-72.8013 32.4132 12.6218 0.6215 10
-72.8065 32.4156 15.4915 0.617642 10
-72.8119 32.4179 18.4008 0.613031 10
-72.8173 32.4203 21.3578 0.772526 10
-9.23661 4.07383 -2.70498 0.024932 4
-10.73 4.7325 -2.70746 0.0484538 4
-12.5703 5.54416 -2.67052 0.0165941 4
-19.992 8.81753 -2.68286 0.0183234 4
-27.576 12.1625 -2.63682 0.112037 4
-45.2029 19.9369 -2.58917 0.371822 10
-72.7641 32.0928 -1.38815 0.372285 10
-72.7757 32.0979 1.38837 0.630347 10
-72.7808 32.1002 4.1688 0.629535 10
-72.7583 32.0903 6.95717 0.289238 10
-72.7564 32.0894 9.76367 0.288186 10
-72.7963 32.107 12.6014 0.622505 10
-72.8015 32.1093 15.4665 0.61864 10
-72.8069 32.1117 18.3711 0.614022 10
-72.8123 32.1141 21.3233 0.773775 10
-9.25091 4.04163 -2.70501 0.0320549 4
-10.7466 4.69509 -2.7075 0.0206183 4
-12.5898 5.50036 -2.67057 0.0170305 4
-27.8158 12.1524 -2.65568 0.128652 4
-72.7657 31.7906 -1.38606 0.809786 10
-72.7708 31.7928 1.38615 0.631356 10
-72.7759 31.795 4.16213 0.630543 10
-72.781 31.7973 6.94868 0.628961 10
-72.7861 31.7995 9.7527 0.626613 10
-72.7913 31.8018 12.5813 0.623502 10
-72.7966 31.8041 15.4417 0.619631 10
-72.8019 31.8064 18.3417 0.615005 10
-72.8073 31.8088 21.2892 0.775015 10
-9.26508 4.00936 -2.70505 0.0284929 4
-10.7631 4.65762 -2.70755 0.0154635 4
-12.6092 5.45648 -2.67062 0.0131001 4
-15.5028 6.70865 -2.67544 0.0343064 4
-20.0543 8.67827 -2.68302 0.0169343 4
-28.0591 12.1423 -2.67485 0.119087 4
-72.7608 31.4864 -1.38386 0.811071 10
-72.7659 31.4886 1.38396 0.632358 10
-72.7709 31.4908 4.15554 0.631543 10
-72.776 31.493 6.93767 0.629959 10
-72.7812 31.4952 9.73725 0.627608 10
-72.7864 31.4975 12.5613 0.624492 10
-72.7916 31.4997 15.4172 0.620615 10
-72.7969 31.502 18.3126 0.615982 10
-72.8023 31.5044 21.2555 0.776245 10
-9.27915 3.97705 -2.70509 0.0237437 4
-10.7795 4.6201 -2.70759 0.0288647 4
-12.6284 5.41253 -2.67067 0.00654993 4
-15.5265 6.65465 -2.6755 0.0189395 4
-20.0851 8.60848 -2.6831 0.0158234 4
-28.3059 12.132 -2.69433 0.102018 4
-72.7559 31.1832 -1.38169 0.812346 10
-72.7609 31.1854 1.38178 0.633352 10
-72.766 31.1876 4.14901 0.632536 10
-72.7711 31.1898 6.92678 0.63095 10
-72.7763 31.192 9.72196 0.628595 10
-72.7814 31.1942 12.5416 0.625474 10
-72.7867 31.1964 15.393 0.621591 10
-72.792 31.1987 18.2839 0.61695 10
-72.7973 31.201 21.2221 0.777466 10
-9.2931 3.94469 -2.70512 0.0184012 4
-10.7957 4.58251 -2.70763 0.0185556 4
-12.6474 5.36852 -2.67072 0.0419188 4
-15.55 6.60056 -2.67557 0.0164377 4
-20.1156 8.53856 -2.68318 0.0188764 4
-28.5564 12.1215 -2.71412 0.116418 4
-72.751 30.881 -1.37954 0.813611 10
-72.7561 30.8831 1.37964 0.634338 10
-72.7611 30.8853 4.14256 0.633521 10
-72.7662 30.8874 6.91601 0.631932 10
-72.7713 30.8896 9.70684 0.629574 10
-72.7765 30.8918 12.5221 0.626448 10
-72.7817 30.894 15.3691 0.622559 10
-72.787 30.8963 18.2554 0.617912 10
-72.7924 30.8985 21.1891 0.778677 10
-9.30694 3.91228 -2.70516 0.0284917 4
-10.8118 4.54487 -2.70767 0.0309255 4
-12.6663 5.32444 -2.67077 0.0301285 4
-15.5733 6.5464 -2.67563 0.0285867 4
-28.8105 12.1108 -2.73424 0.102408 4
-72.7461 30.5797 -1.37742 0.814866 10
-72.7512 30.5818 1.37751 0.635317 10
-72.7562 30.5839 4.13618 0.634499 10
-72.7613 30.5861 6.90535 0.632907 10
-72.7664 30.5882 9.69189 0.630545 10
-72.7716 30.5904 12.5028 0.627415 10
-72.7768 30.5926 15.3454 0.62352 10
-72.7821 30.5948 18.2273 0.618865 10
-72.7875 30.5971 21.1564 0.779879 10
-9.32066 3.87982 -2.7052 0.034427 4
-10.8278 4.50717 -2.70772 0.0273171 4
-12.6851 5.28028 -2.67082 0.030128 4
-15.5964 6.49214 -2.67569 0.00857581 4
-20.1759 8.39841 -2.68334 0.0147116 4
-29.0684 12.1 -2.75469 0.0951197 4
-72.3788 30.1284 -1.36846 0.816111 10
-72.3838 30.1305 1.36855 0.636288 10
-72.7514 30.2835 4.12987 0.635468 10
-72.3939 30.1347 6.86046 0.633875 10
-72.399 30.1368 9.62888 0.631509 10
-72.4041 30.1389 12.4215 0.628374 10
-72.7719 30.292 15.322 0.624473 10
-72.4145 30.1433 18.1088 0.619811 10
-72.7826 30.2965 21.1241 0.781071 10
-9.33427 3.84731 -2.70523 0.0314588 4
-10.8436 4.46942 -2.70776 0.0103082 4
-12.7037 5.23607 -2.67087 0.0187751 4
-15.6193 6.43781 -2.67575 0.0278708 4
-29.3301 12.089 -2.77547 0.111993 4
-72.8044 30.0078 -1.37452 0.817346 10
-72.8094 30.0099 1.37461 0.406809 10
-72.7465 29.984 4.12363 0.63643 10
-72.8195 30.0141 6.89082 0.405266 10
-72.8246 30.0162 9.67149 0.403753 10
-72.767 29.9924 15.2988 0.625418 10
-72.4097 29.8451 18.0814 0.62075 10
-72.7776 29.9968 21.0922 0.782254 10
-9.34777 3.81475 -2.70527 0.0255228 4
-10.8593 4.4316 -2.7078 0.0365935 4
-12.7221 5.19179 -2.67092 0.0397326 4
-15.642 6.38338 -2.67581 0.0189374 4
-29.3756 11.988 -2.7758 0.0325322 1
-72.7417 29.6853 4.11746 0.637384 10
-72.7622 29.6937 15.2759 0.626356 10
-72.4048 29.5479 18.0543 0.621681 10
-72.7728 29.698 21.0606 0.783427 10
-9.36115 3.78215 -2.7053 0.0106838 4
-10.8749 4.39374 -2.70784 0.0804014 4
-12.7404 5.14744 -2.67097 0.0388586 4
-15.6645 6.32889 -2.67587 0.029656 4
-20.2645 8.1874 -2.68358 0.0141552 4
-29.4185 11.8858 -2.77592 0.0325309 1
-72.7369 29.3876 4.11135 0.638331 10
-72.7573 29.3959 15.2533 0.627287 10
-72.7679 29.4001 21.0294 0.784591 10
-9.37442 3.7495 -2.70534 0.0397671 4
-10.8903 4.35582 -2.70788 0.0922541 4
-12.7585 5.10304 -2.67102 0.00654908 4
-15.6869 6.27432 -2.67593 0.0171501 4
-29.461 11.7836 -2.77603 0.0325296 1
-72.7321 29.0908 4.10532 0.639269 10
-72.8101 29.122 9.62854 0.405555 10
-72.8152 29.124 12.4211 0.403549 10
-72.7525 29.0989 15.2309 0.628209 10
-72.763 29.1032 20.9985 0.785745 10
-9.38757 3.7168 -2.70537 0.0712237 4
-10.9056 4.31784 -2.70792 0.0948296 4
-12.7765 5.05856 -2.67106 0.0144077 4
-15.709 6.21965 -2.67599 0.0135768 4
-72.7273 28.7948 4.09935 0.6402 10
-72.7476 28.8028 15.2087 0.629124 10
-72.7582 28.807 20.9679 0.78689 10
-9.40061 3.68406 -2.70541 0.065881 4
-10.9208 4.27982 -2.70796 0.0953435 4
-12.7943 5.01402 -2.67111 0.0209563 4
-15.731 6.16492 -2.67605 0.0178639 4
-28.7106 11.2516 -2.69785 0.0383042 4
-72.7225 28.4997 4.09344 0.641123 10
-72.7428 28.5076 15.1868 0.630031 10
-72.7534 28.5118 20.9377 0.788025 10
-9.41354 3.65127 -2.70544 0.0320498 4
-10.9358 4.24173 -2.708 0.0896731 4
-12.8119 4.96941 -2.67116 0.0279413 4
-15.7528 6.1101 -2.6761 0.017149 4
-28.7508 11.1517 -2.69796 0.0416591 4
-72.5388 28.1359 -1.35808 0.335228 10
-72.5367 28.1351 1.35804 0.261389 10
-72.7177 28.2054 4.08761 0.642038 10
-72.5323 28.1334 6.80639 0.260449 10
-72.5302 28.1326 9.55203 0.259503 10
-72.528 28.1318 12.3212 0.258241 10
-72.738 28.2132 15.1652 0.630931 10
-72.5236 28.13 17.9588 0.254774 10
-72.8183 28.2444 20.9279 0.321094 10
-9.42634 3.61844 -2.70548 0.0148377 4
-10.9507 4.2036 -2.70804 0.015976 4
-12.8294 4.92475 -2.67121 0.0484598 4
-15.7744 6.05521 -2.67616 0.0114324 4
-72.703 27.9081 -1.35932 0.825713 10
-72.708 27.91 1.35941 0.643774 10
-72.713 27.9119 4.08184 0.642946 10
-72.718 27.9138 6.81462 0.641334 10
-72.723 27.9158 9.56454 0.638941 10
-72.7281 27.9177 12.3385 0.635769 10
-72.7333 27.9197 15.1438 0.631823 10
-72.7385 27.9217 17.9877 0.627107 10
-73.5481 28.2325 21.1092 0.318336 10
-9.43904 3.58555 -2.70551 0.02374 4
-10.9655 4.1654 -2.70808 0.0288594 4
-12.8468 4.88002 -2.67125 0.00742164 4
-15.7957 6.00024 -2.67622 0.0128612 4
-72.6983 27.6155 -1.35742 0.826868 10
-72.7033 27.6174 1.35751 0.644675 10
-72.7082 27.6193 4.07614 0.643845 10
-72.7132 27.6212 6.8051 0.642231 10
-72.7183 27.6231 9.55117 0.639835 10
-72.7234 27.625 12.3213 0.636659 10
-72.7285 27.627 15.1226 0.632707 10
-72.7337 27.6289 17.9626 0.627985 10
-74.2909 28.2204 21.294 0.315574 10
-9.45162 3.55263 -2.70555 0.0243332 4
-10.9801 4.12716 -2.70812 0.00721476 4
-12.8639 4.83524 -2.6713 0.0340516 4
-15.8169 5.94519 -2.67628 0.0157189 4
-20.4625 7.69137 -2.68411 0.0163724 4
-72.6936 27.3237 -1.35555 0.828013 10
-72.6985 27.3256 1.35564 0.645568 10
-72.7035 27.3275 4.0705 0.644737 10
-72.7085 27.3294 6.79569 0.643121 10
-72.7135 27.3312 9.53796 0.640721 10
-72.7186 27.3331 12.3042 0.637541 10
-72.7237 27.3351 15.1017 0.633584 10
-72.7289 27.337 17.9377 0.628855 10
-75.0466 28.2082 21.4823 0.312808 10
-9.46408 3.51966 -2.70558 0.0189915 4
-10.9946 4.08887 -2.70816 0.0267973 4
-12.881 4.79038 -2.67135 0.0423455 4
-15.8379 5.89007 -2.67633 0.00928821 4
-72.6889 27.0327 -1.35369 0.829148 10
-72.6938 27.0346 1.35378 0.646453 10
-72.6988 27.0364 4.06493 0.645621 10
-72.7038 27.0383 6.78639 0.644003 10
-72.7088 27.0402 9.5249 0.6416 10
-72.7139 27.042 12.2874 0.638415 10
-72.719 27.0439 15.081 0.634453 10
-72.7242 27.0459 17.9132 0.629717 10
-75.8159 28.1957 21.6742 0.310039 10
-9.47643 3.48665 -2.70562 0.0284869 4
-11.009 4.05053 -2.7082 0.0401953 4
-12.8978 4.74548 -2.67139 0.0113501 4
-15.8587 5.83487 -2.67639 0.0367948 4
-73.3373 26.9829 -1.364 0.320787 10
-73.3351 26.9821 1.36396 0.250129 10
-73.3328 26.9812 4.09509 0.249832 10
-73.3305 26.9804 6.83605 0.249231 10
-73.3283 26.9796 9.59366 0.248326 10
-73.3259 26.9787 12.3748 0.247118 10
-73.3236 26.9778 15.1868 0.245609 10
-73.3213 26.977 18.0369 0.243801 10
-76.599 28.183 21.8698 0.307265 10
-9.48866 3.45359 -2.70565 0.0195845 4
-11.0232 4.01213 -2.70824 0.0401947 4
-12.9145 4.70051 -2.67144 0.0323037 4
-15.8793 5.77961 -2.67645 0.00857337 4
-74.1009 26.9706 -1.37645 0.317887 10
-74.0986 26.9697 1.3764 0.247868 10
-74.0963 26.9689 4.13244 0.247574 10
-74.094 26.968 6.89841 0.246978 10
-74.0917 26.9672 9.68116 0.246081 10
-74.0893 26.9663 12.4877 0.244884 10
-74.0869 26.9655 15.3253 0.243389 10
-74.0845 26.9646 18.2014 0.241598 10
-9.50077 3.42049 -2.70568 0.032047 4
-11.0373 3.97369 -2.70828 0.0180358 4
-12.9311 4.65548 -2.67148 0.00829405 4
-15.8997 5.72426 -2.6765 0.0239335 4
-20.5702 7.40573 -2.6844 0.0191453 4
-8.47403 3.05084 -0.787965 0.0870931 8
-8.47461 3.05105 -0.472042 0.224334 8
-74.3648 26.773 -1.3796 0.832487 10
-74.3699 26.7748 1.3797 0.649056 10
-74.874 26.9563 4.17054 0.245312 10
-74.3801 26.7785 6.9163 0.646596 10
-74.3852 26.7803 9.70724 0.644184 10
-74.3903 26.7822 12.5226 0.640987 10
-74.862 26.952 18.3692 0.239391 10
-9.51277 3.38735 -2.70572 0.0290793 4
-11.0513 3.93519 -2.70832 0.00876014 4
-12.9475 4.61039 -2.67153 0.00873043 4
-15.92 5.66885 -2.67656 0.0210753 4
-20.5965 7.33408 -2.68448 0.0160927 4
-8.47349 3.01728 -0.786931 0.207334 8
-8.47407 3.01748 -0.471423 0.225867 8
-75.8523 27.0098 -1.40544 0.312075 10
-75.6661 26.9435 4.20939 0.243048 10
-75.8542 27.0105 7.04457 0.41332 10
-75.8595 27.0124 9.88726 0.411778 10
-74.6893 26.5957 15.4111 0.23894 10
-75.6538 26.9391 18.5403 0.237182 10
-9.52466 3.35416 -2.70575 0.0213641 4
-11.0651 3.89664 -2.70836 0.0206118 4
-12.9637 4.56524 -2.67157 0.0405958 4
-15.94 5.61335 -2.67662 0.0139309 4
-20.6225 7.26233 -2.68455 0.0516063 4
-8.47295 2.9838 -0.785909 0.207774 8
-8.47353 2.984 -0.47081 0.22733 8
-75.9244 26.7372 -1.40504 0.83467 10
-75.9296 26.739 1.40513 0.650759 10
-76.4731 26.9304 4.24904 0.24078 10
-75.9399 26.7427 7.04381 0.648293 10
-75.9451 26.7445 9.8862 0.645874 10
-75.9504 26.7463 12.7535 0.642669 10
-75.9557 26.7482 15.653 0.63868 10
-76.4606 26.926 18.7149 0.234969 10
-9.53642 3.32093 -2.70578 0.025518 4
-11.0788 3.85805 -2.7084 0.0937824 4
-12.9798 4.52004 -2.67162 0.0144047 4
-15.9598 5.5578 -2.67667 0.00964424 4
-20.6483 7.1905 -2.68462 0.0477207 4
-8.47241 2.95041 -0.784899 0.209343 8
-8.47299 2.95061 -0.470205 0.228725 8
-77.3005 26.9189 -1.42876 0.306248 10
-77.298 26.918 1.42871 0.238793 10
-77.2955 26.9171 4.28948 0.23851 10
-77.2929 26.9163 7.16055 0.237936 10
-77.2904 26.9154 10.049 0.237072 10
-77.2879 26.9145 12.9622 0.23592 10
-77.2853 26.9136 15.9076 0.23448 10
-77.2827 26.9127 18.893 0.232754 10
-9.54807 3.28766 -2.70581 0.0249242 4
-11.0924 3.81941 -2.70843 0.0953269 4
-12.9957 4.47478 -2.67166 0.0266265 4
-15.9794 5.50216 -2.67673 0.0367902 4
-20.6738 7.11856 -2.68469 0.0524359 4
-8.47188 2.9171 -0.783901 0.209677 8
-8.47245 2.9173 -0.469607 0.230048 8
-80.6269 27.7621 1.48844 0.652426 10
-80.6323 27.7639 4.46925 0.651587 10
-80.6378 27.7658 7.4614 0.649954 10
-80.6433 27.7677 10.4723 0.647529 10
-80.6489 27.7696 13.5096 0.644316 10
-80.6545 27.7716 16.581 0.640317 10
-80.6602 27.7735 19.6949 0.807951 10
-9.5596 3.25436 -2.70585 0.0225502 4
-11.1058 3.78072 -2.70847 0.11336 4
-13.0115 4.42946 -2.67171 0.0349194 4
-15.9989 5.44646 -2.67678 0.0264313 4
-8.47134 2.88388 -0.782916 0.211117 8
-8.47192 2.88408 -0.469017 0.230144 8
-80.6218 27.4459 1.48657 0.653247 10
-80.6272 27.4478 4.46363 0.652407 10
-80.6327 27.4496 7.45202 0.650773 10
-80.6382 27.4515 10.4591 0.648345 10
-80.6438 27.4534 13.4926 0.645127 10
-80.6494 27.4553 16.5601 0.641124 10
-80.6551 27.4572 19.6701 0.808969 10
-9.57102 3.22101 -2.70588 0.0142421 4
-11.1191 3.74199 -2.70851 0.105114 4
-13.027 4.38409 -2.67175 0.0161499 4
-16.0181 5.3907 -2.67684 0.0407176 4
-20.7241 6.97444 -2.68483 0.0208068 4
-8.47081 2.85074 -0.781942 0.212488 8
-8.47138 2.85094 -0.468433 0.230193 8
-83.1453 27.9815 -1.53129 0.838906 10
-80.6167 27.1305 1.48472 0.654061 10
-80.6221 27.1324 4.45808 0.65322 10
-80.6276 27.1342 7.44275 0.651583 10
-80.6331 27.1361 10.4461 0.649152 10
-80.6386 27.1379 13.4758 0.645931 10
-80.6442 27.1398 16.5395 0.641922 10
-80.6499 27.1417 19.6456 0.809977 10
-9.58232 3.18761 -2.70591 0.0213629 4
-11.1322 3.7032 -2.70855 0.107174 4
-13.0425 4.33866 -2.6718 0.0157132 4
-16.0372 5.33485 -2.67689 0.034645 4
-20.7489 6.90223 -2.6849 0.0208063 4
-8.47027 2.81769 -0.78098 0.212656 8
-8.47085 2.81788 -0.467857 0.231326 8
-83.334 27.7215 -1.53297 0.29455 10
-80.6116 26.8159 1.48289 0.654867 10
-80.617 26.8177 4.45259 0.654025 10
-80.6225 26.8195 7.43359 0.652386 10
-80.628 26.8214 10.4333 0.649952 10
-80.6335 26.8232 13.4592 0.646727 10
-80.6391 26.8251 16.5192 0.642713 10
-80.6448 26.827 19.6214 0.810975 10
-9.5935 3.15419 -2.70594 0.016022 4
-11.1452 3.66437 -2.70858 0.10202 4
-13.0578 4.29318 -2.67184 0.0248788 4
-16.056 5.27895 -2.67694 0.0228581 4
-8.46974 2.78471 -0.78003 0.213898 8
-8.47031 2.7849 -0.467288 0.231268 8
-80.6065 26.5021 1.48109 0.655665 10
-80.612 26.5039 4.44718 0.654822 10
-80.6174 26.5057 7.42454 0.653181 10
-80.6229 26.5075 10.4206 0.650744 10
-80.6284 26.5093 13.4428 0.647515 10
-80.634 26.5111 16.4991 0.643497 10
-80.6397 26.513 19.5976 0.811963 10
-9.60456 3.12071 -2.70598 0.0201756 4
-11.1581 3.62549 -2.70862 0.116961 4
-13.0729 4.24764 -2.67188 0.0196409 4
-16.0746 5.22297 -2.677 0.0135717 4
-20.7976 6.75756 -2.68504 0.0180312 4
-8.46921 2.75181 -0.779092 0.215069 8
-8.46979 2.752 -0.466726 0.232272 8
-80.6618 26.2086 1.48041 0.656449 10
-80.9961 26.3172 4.46327 0.224828 10
-80.9933 26.3163 7.45065 0.224287 10
-80.6781 26.2139 10.4158 0.651524 10
-80.6837 26.2157 13.4367 0.648291 10
-80.6893 26.2175 16.4916 0.644268 10
-80.9819 26.3126 19.6583 0.278926 10
-9.61952 3.08849 -2.70713 0.0886616 4
-11.1708 3.58657 -2.70866 0.0994409 4
-13.0878 4.20205 -2.67193 0.0384082 4
-16.0931 5.16693 -2.67705 0.0378572 4
-20.8216 6.68509 -2.68511 0.0191403 4
-8.46868 2.719 -0.778165 0.215073 8
-8.46926 2.71918 -0.466171 0.227706 8
-82.1346 26.3706 1.50575 0.419567 10
-81.9219 26.3023 4.5092 0.222538 10
-81.919 26.3013 7.52732 0.222003 10
-82.1513 26.3759 10.5941 0.416418 10
-82.1569 26.3777 13.6666 0.414352 10
-81.9074 26.2976 19.8605 0.276085 10
-9.64866 3.06073 -2.71231 0.0870651 4
-11.1834 3.5476 -2.70869 0.0896502 4
-13.1026 4.1564 -2.67197 0.0109112 4
-16.1114 5.11082 -2.6771 0.0171426 4
-20.8453 6.61253 -2.68518 0.0202493 4
-8.46816 2.68626 -0.77725 0.216114 8
-8.46873 2.68644 -0.465623 0.221005 8
-82.22 26.0817 1.50563 0.65801 10
-82.867 26.287 4.55615 0.220245 10
-82.8641 26.286 7.60569 0.219715 10
-82.2366 26.087 10.5933 0.653072 10
-82.2422 26.0888 13.6656 0.649832 10
-82.2479 26.0906 16.7725 0.645799 10
-82.8522 26.2823 20.0673 0.273241 10
-8.42978 2.64173 -2.36707 0.16982 8
-8.43038 2.64192 -2.03964 0.171311 8
-8.43097 2.64211 -1.7174 0.172593 8
-8.43155 2.64229 -1.39947 0.173665 8
-8.43212 2.64247 -1.08498 0.174525 8
-8.43269 2.64265 -0.773144 0.175173 8
-8.43326 2.64283 -0.463163 0.175608 8
-8.44242 2.61337 -2.36804 0.513709 8
-8.4421 2.61327 -2.04026 0.518163 8
-8.44179 2.61317 -1.71774 0.521986 8
-8.44148 2.61307 -1.39959 0.525173 8
-8.44117 2.61298 -1.08497 0.52772 8
-8.44087 2.61288 -0.773052 0.529624 8
-8.44056 2.61279 -0.46306 0.530883 8
-9.73617 2.97665 -2.728 0.0865644 4
-11.2204 3.43043 -2.7088 0.0984052 4
-13.1461 4.01916 -2.6721 0.0270586 4
-16.1649 4.94212 -2.67726 0.0196414 4
-20.915 6.39437 -2.68538 0.0144231 4
-8.46658 2.5885 -0.774575 0.217764 8
-8.46715 2.58867 -0.46402 0.206704 8
-9.76537 2.94834 -2.73328 0.089938 4
-11.2266 3.38952 -2.70742 0.218462 4
-13.1602 3.97331 -2.67214 0.0253125 4
-16.1824 4.88576 -2.67731 0.0317827 4
-8.46606 2.55606 -0.773707 0.216454 8
-8.46663 2.55623 -0.4635 0.202386 8
-9.79459 2.91989 -2.73859 0.0862297 4
-11.2259 3.34659 -2.70442 0.10292 4
-13.1742 3.92741 -2.67218 0.0109104 4
-16.1997 4.82933 -2.67736 0.0153554 4
-8.46554 2.52369 -0.772849 0.211 8
-8.46611 2.52386 -0.462986 0.196047 8
-9.82211 2.89081 -2.74345 0.0977475 1
-11.2252 3.30377 -2.70146 0.120205 4
-13.188 3.88146 -2.67222 0.0257481 4
-16.2167 4.77285 -2.67741 0.0292818 4
-20.9824 6.17546 -2.68558 0.028012 4
-8.46502 2.49139 -0.772003 0.206631 8
-8.46558 2.49156 -0.462479 0.191838 8
-9.83225 2.85653 -2.74348 0.0977464 1
-11.2245 3.26103 -2.69854 0.126781 4
-13.2017 3.83545 -2.67226 0.0218201 4
-16.2336 4.7163 -2.67746 0.0432077 4
-8.4645 2.45916 -0.771168 0.202305 8
-8.46507 2.45933 -0.461979 0.187672 8
-9.84227 2.82223 -2.74351 0.0977454 1
-11.2239 3.21839 -2.69566 0.0946499 4
-13.2152 3.78941 -2.6723 0.0122191 4
-16.2503 4.65969 -2.67751 0.0232103 4
-8.46398 2.42701 -0.770344 0.197026 8
-8.46455 2.42717 -0.461485 0.182552 8
-9.85217 2.78788 -2.74354 0.0977443 1
-11.2232 3.17584 -2.69282 0.137818 4
-13.2286 3.74331 -2.67234 0.0379658 4
-16.2667 4.60302 -2.67756 0.0292802 4
-21.0474 5.95582 -2.68577 0.0183036 4
-8.46346 2.39492 -0.769532 0.192797 8
-8.46403 2.39508 -0.460998 0.178485 8
-9.86195 2.75351 -2.74357 0.0977433 1
-11.2225 3.13338 -2.69001 0.135806 4
-13.2418 3.69717 -2.67238 0.0200736 4
-16.283 4.5463 -2.67761 0.0174964 4
-21.0686 5.88246 -2.68584 0.0185805 4
-8.46295 2.3629 -0.76873 0.188612 8
-8.46351 2.36306 -0.460518 0.172512 8
-9.87161 2.71909 -2.7436 0.0977422 1
-11.2218 3.091 -2.68725 0.105735 4
-13.2548 3.65097 -2.67242 0.0130913 4
-21.0895 5.80901 -2.6859 0.0166388 4
-8.46243 2.33094 -0.76794 0.182548 8
-8.463 2.3311 -0.460045 0.168554 8
-74.2002 20.4381 -1.3434 0.3763 10
-74.2051 20.4395 1.34349 0.343351 10
-74.215 20.4422 6.73478 0.463877 10
-74.225 20.445 12.1939 0.209025 10
-74.2301 20.4464 14.9662 0.286203 10
-74.2352 20.4478 17.7768 0.334466 10
-74.2405 20.4492 20.6335 0.236168 10
-9.88114 2.68465 -2.74363 0.0977411 1
-11.2211 3.04872 -2.68452 0.123123 4
-13.2676 3.60474 -2.67246 0.0344732 4
-21.1101 5.7355 -2.68596 0.0199661 4
-8.46192 2.29905 -0.76716 0.179423 8
-8.46248 2.29921 -0.459578 0.165592 8
-74.1957 20.1585 -1.34204 0.343722 10
-74.2006 20.1599 1.34213 0.174204 10
-74.2307 20.168 17.7588 0.224733 10
-9.89056 2.65017 -2.74366 0.0977401 1
-11.2205 3.00652 -2.68183 0.0929757 4
-13.2803 3.55846 -2.6725 0.0309818 4
-16.3306 4.37578 -2.67776 0.0228512 4
-21.1305 5.66191 -2.68603 0.0152515 4
-8.46141 2.26723 -0.766391 0.173504 8
-8.46197 2.26738 -0.459117 0.160772 8
-74.201 19.8821 4.02589 0.357723 10
-74.206 19.8835 6.7212 0.394388 10
-74.2109 19.8848 9.43339 0.266622 10
-74.2159 19.8861 12.1693 0.56318 10
-74.221 19.8875 14.936 0.31916 10
-74.2313 19.8903 20.5919 0.268502 10
-9.89985 2.61565 -2.74368 0.0977391 1
-11.252 2.9729 -2.68686 0.0309273 4
-13.2929 3.51213 -2.67254 0.0863986 4
-16.3461 4.31882 -2.6778 0.0474867 4
-21.1506 5.58824 -2.68609 0.0194106 4
-8.46089 2.23547 -0.765634 0.169527 8
-8.46146 2.23561 -0.458663 0.156018 8
-74.1965 19.6036 4.02191 0.3675 10
-74.2015 19.6049 6.71455 0.375979 10
-74.2064 19.6062 9.42406 0.327755 10
-74.2114 19.6075 12.1573 0.433286 10
-74.2165 19.6088 14.9213 0.305585 10
-74.2216 19.6102 17.7234 0.206799 10
-74.2268 19.6116 20.5715 0.282434 10
-9.90903 2.58111 -2.74371 0.0977381 1
-11.2878 2.94026 -2.69295 0.0820806 4
-13.3052 3.46576 -2.67258 0.0183267 4
-16.3613 4.26181 -2.67785 0.0174948 4
-21.1705 5.51451 -2.68615 0.0141417 4
-8.46039 2.20377 -0.764887 0.16468 8
-8.46095 2.20391 -0.458216 0.152248 8
-73.5026 19.146 -1.3258 0.264461 10
-73.5075 19.1473 1.32589 0.354166 10
-73.5123 19.1486 3.98117 0.221659 10
-73.5172 19.1498 6.64654 0.343416 10
-73.5221 19.1511 9.32861 0.431185 10
-73.5271 19.1524 12.0341 0.424382 10
-73.5321 19.1537 14.7701 0.273442 10
-73.5423 19.1564 20.3631 0.27815 10
-9.91808 2.54653 -2.74374 0.0977371 1
-11.3237 2.90743 -2.69907 0.0972881 4
-13.3174 3.41934 -2.67261 0.0248716 4
-16.3764 4.20474 -2.6779 0.0417726 4
-21.1901 5.4407 -2.68621 0.0268963 4
-72.2672 18.5551 -1.30234 0.203264 10
-72.272 18.5563 1.30243 0.477403 10
-72.2767 18.5575 3.91073 0.20771 10
-72.2815 18.5587 6.52893 0.174228 10
-72.2863 18.56 9.16354 0.708388 10
-72.2912 18.5612 11.8212 0.527488 10
-72.3062 18.5651 20.0028 0.260161 10
-9.92701 2.51192 -2.74377 0.097736 1
-11.3596 2.87443 -2.70523 0.0810937 4
-13.3295 3.37288 -2.67265 0.0209442 4
-16.3913 4.14763 -2.67794 0.0310611 4
-21.2095 5.36682 -2.68627 0.0363231 4
-29.9331 7.57426 -2.70135 0.0309586 4
-72.3148 18.2985 14.4996 0.271147 10
-72.3213 18.3001 19.9892 0.266786 10
-9.93582 2.47728 -2.7438 0.097735 1
-11.3956 2.84124 -2.71142 0.0821344 4
-13.3414 3.32638 -2.67269 0.0161443 4
-16.4059 4.09046 -2.67799 0.0185649 4
-72.7015 18.1265 -1.30786 0.288896 10
-72.7134 18.1295 1.30807 0.24152 10
-72.7181 18.1307 3.92766 0.24594 10
-72.6149 18.1049 9.18894 0.296111 10
-72.7327 18.1343 11.8724 0.215135 10
-72.7477 18.138 20.0894 0.297236 10
-9.94451 2.44261 -2.74383 0.097734 1
-11.4316 2.80788 -2.71764 0.0831695 4
-13.3531 3.27983 -2.67273 0.0807203 4
-16.4204 4.03324 -2.67804 0.059264 4
-72.6972 17.8561 -1.30665 0.407673 10
-72.709 17.8591 1.30686 0.270184 10
-72.7138 17.8602 3.92404 0.274571 10
-72.6105 17.8349 9.18045 0.225817 10
-72.7283 17.8638 11.8614 0.31832 10
-72.7879 17.8784 14.5691 0.497779 10
-72.7433 17.8675 20.0709 0.421092 10
-9.95307 2.4079 -2.74385 0.0977331 1
-11.4677 2.77433 -2.7239 0.0841986 4
-13.3646 3.23325 -2.67276 0.0820281 4
-16.4346 3.97596 -2.67808 0.0121382 4
-21.2659 5.14477 -2.68645 0.0191307 4
-72.6928 17.5862 -1.30546 0.294171 10
-72.7046 17.5891 1.30567 0.298896 10
-72.6629 17.579 3.91796 0.497521 10
-72.6061 17.5653 9.17209 0.178935 10
-72.7239 17.5938 11.8506 0.299869 10
-72.7835 17.6082 14.5558 0.558765 10
-72.7389 17.5974 20.0526 0.192413 10
-9.41534 2.24305 -2.59344 0.0836484 4
-11.5038 2.7406 -2.73019 0.0766999 4
-13.376 3.18662 -2.6728 0.0759186 4
-16.4487 3.91864 -2.67813 0.018564 4
-72.6884 17.3168 -1.30429 0.261193 10
-72.7003 17.3197 1.3045 0.303914 10
-72.705 17.3208 3.91695 0.194445 10
-72.6018 17.2962 9.16385 0.221513 10
-72.7195 17.3242 11.84 0.356414 10
-72.7791 17.3384 14.5427 0.49402 10
-72.7295 17.3266 17.2608 0.305302 10
-72.6801 17.3148 20.0196 0.527319 10
-9.42321 2.2102 -2.59346 0.0717827 4
-11.54 2.70668 -2.73652 0.0686274 4
-13.3873 3.13996 -2.67284 0.0876978 4
-16.4626 3.86126 -2.67817 0.0285595 4
-72.6841 17.0479 -1.30314 0.166361 10
-72.6959 17.0507 1.30335 0.23289 10
-72.7007 17.0518 3.91348 0.213604 10
-72.7152 17.0552 11.8295 0.33326 10
-72.7747 17.0692 14.5299 0.52711 10
-72.7251 17.0575 17.2456 0.263903 10
-9.43096 2.17731 -2.59349 0.0723752 4
-11.5762 2.67258 -2.74288 0.0799806 4
-13.3983 3.09325 -2.67287 0.0855152 4
-16.4762 3.80383 -2.67822 0.02963 4
-30.0908 6.94702 -2.70185 0.0307557 4
-72.6798 16.7795 -1.302 0.275924 10
-72.6916 16.7822 1.30221 0.299691 10
-72.6963 16.7833 3.91007 0.247046 10
-72.7011 16.7844 6.52783 0.312774 10
-72.7108 16.7866 11.8192 0.253687 10
-72.7703 16.8004 14.5172 0.499557 10
-72.7207 16.7889 17.2305 0.310473 10
-9.43859 2.1444 -2.59351 0.0830527 4
-11.6019 2.63589 -2.74677 0.084854 1
-13.4092 3.0465 -2.67291 0.0218148 4
-16.4897 3.74636 -2.67826 0.01892 4
-21.3375 4.84777 -2.68669 0.0144161 4
-72.6754 16.5115 -1.30088 0.247593 10
-72.6872 16.5142 1.30109 0.323754 10
-72.692 16.5152 3.90671 0.166424 10
-72.6968 16.5163 6.52223 0.194466 10
-72.7065 16.5185 11.809 0.31503 10
-72.766 16.532 14.5047 0.532696 10
-72.7164 16.5208 17.2157 0.389585 10
-72.7214 16.5219 19.9822 0.252857 10
-9.47142 2.11711 -2.60049 0.112848 4
-11.6112 2.5954 -2.7468 0.084853 1
-13.4457 3.00548 -2.67808 0.0679037 4
-16.5029 3.68884 -2.67831 0.0360546 4
-21.3548 4.77336 -2.68674 0.0338217 4
-52.4183 11.7169 -2.81492 0.0942561 4
-72.6711 16.2439 -1.29978 0.295457 10
-72.6877 16.2476 3.90341 0.218914 10
-72.7021 16.2509 11.799 0.40471 10
-72.707 16.2519 14.4816 0.570561 10
-72.712 16.2531 17.2011 0.366705 10
-72.717 16.2542 19.9653 0.423319 10
-9.55768 2.10139 -2.62214 0.0794 4
-11.6203 2.55489 -2.74683 0.0848521 1
-13.4926 2.96654 -2.68534 0.0598458 4
-16.516 3.63127 -2.67835 0.0210612 4
-72.6204 15.9666 -1.29787 0.543712 10
-72.6786 15.9794 1.29891 0.267069 10
-72.6978 15.9837 11.7892 0.273171 10
-72.7573 15.9967 14.4804 0.533592 10
-72.7076 15.9858 17.1868 0.394885 10
-72.7127 15.9869 19.9487 0.317754 10
-9.64536 2.0854 -2.64418 0.0892366 4
-11.6293 2.51433 -2.74686 0.0848511 1
-13.5396 2.92736 -2.69264 0.0492127 4
-16.5288 3.57365 -2.67839 0.0189191 4
-21.3885 4.62435 -2.68686 0.0152468 4
-72.6625 15.7102 -1.29764 0.291172 10
-72.6743 15.7127 1.29784 0.267288 10
-72.679 15.7138 3.89696 0.209743 10
-72.6935 15.7169 11.7795 0.245113 10
-72.753 15.7297 14.4685 0.538714 10
-72.5293 15.6814 17.1316 0.237126 10
-72.7084 15.7201 19.9323 0.861866 10
-9.73446 2.06912 -2.66661 0.0646915 4
-11.6381 2.47375 -2.74689 0.0848502 1
-13.5867 2.88795 -2.69999 0.072574 4
-72.6118 15.4341 -1.29576 0.587592 10
-72.67 15.4465 1.2968 0.382149 10
-72.6747 15.4475 3.89381 0.224224 10
-72.6891 15.4506 11.77 0.231159 10
-72.7486 15.4632 14.4568 0.548526 10
-72.525 15.4157 17.1178 0.353649 10
-72.704 15.4537 19.9162 0.387461 10
-9.82503 2.05256 -2.68944 0.11059 4
-11.6468 2.43314 -2.74692 0.0848493 1
-13.6339 2.84828 -2.70738 0.068731 4
-16.5539 3.45829 -2.67848 0.0367661 4
-72.6539 15.1782 -1.29556 0.239048 10
-72.6657 15.1807 1.29577 0.439821 10
-72.6848 15.1847 11.7607 0.231343 10
-72.7443 15.1971 14.4453 0.492659 10
-72.6947 15.1867 17.1452 0.349274 10
-72.6997 15.1878 19.9004 1.08945 10
-9.89589 2.03134 -2.70688 0.0314396 4
-11.6553 2.3925 -2.74695 0.0848484 1
-13.6813 2.80837 -2.71482 0.0747738 4
-16.5661 3.40053 -2.67852 0.0214168 4
-21.4371 4.4004 -2.68702 0.0396393 4
-72.6496 14.9128 -1.29455 0.296652 10
-72.6614 14.9153 1.29475 0.291848 10
-72.6805 14.9192 11.7515 0.283498 10
-72.74 14.9314 14.434 0.521218 10
-72.6904 14.9212 17.1318 0.386832 10
-72.6954 14.9222 19.8848 0.619069 10
-9.90301 1.9968 -2.70691 0.0189822 4
-11.0242 2.22288 -2.59637 0.0710754 4
-13.7288 2.76821 -2.72231 0.075086 4
-16.5781 3.34274 -2.67856 0.0224873 4
-72.6453 14.6479 -1.29355 0.493204 10
-72.6571 14.6503 1.29376 0.258556 10
-72.6618 14.6512 3.88469 0.267788 10
-72.6762 14.6541 11.7424 0.312088 10
-72.7357 14.6661 14.4229 0.507522 10
-72.686 14.6561 17.1186 0.405787 10
-72.6911 14.6571 19.8695 0.388372 10
-9.91001 1.96224 -2.70693 0.0551666 4
-11.032 2.1844 -2.59639 0.07674 4
-13.7764 2.72779 -2.72984 0.0542226 4
-16.59 3.2849 -2.67861 0.0178468 4
-72.1984 14.2957 -1.2847 0.368985 10
-72.2031 14.2966 1.28478 0.340211 10
-72.2078 14.2975 3.85772 0.239278 10
-72.2125 14.2985 6.44043 0.214811 10
-72.2173 14.2994 9.03932 0.285347 10
-72.2269 14.3013 14.3121 0.343307 10
-9.91689 1.92765 -2.70696 0.00415228 4
-11.0397 2.14591 -2.59642 0.0669536 4
-13.8241 2.68713 -2.73742 0.0736415 4
-16.6016 3.22702 -2.67865 0.0681738 4
-21.4833 4.17593 -2.68718 0.0199571 4
-72.2018 14.0346 -1.28388 0.398392 10
-72.205 14.0352 1.28393 0.361412 10
-72.2082 14.0359 3.8551 0.332243 10
-72.2114 14.0365 6.43592 0.286411 10
-72.2146 14.0371 9.0328 0.362801 10
-72.2179 14.0378 11.6523 0.393459 10
-72.2226 14.0387 14.3014 0.409451 10
-72.2276 14.0396 16.9871 0.294287 10
-9.92365 1.89304 -2.70698 0.0444884 4
-11.0472 2.10738 -2.59645 0.0551074 4
-13.8719 2.64621 -2.74505 0.0498138 4
-16.613 3.1691 -2.67869 0.0756681 4
-59.2049 11.2939 -1.05206 0.168925 9
-72.7036 13.869 3.87894 0.340276 10
-72.6407 13.8569 11.7126 0.17061 10
-72.6682 13.8622 14.38 0.188391 10
-72.6732 13.8631 17.0805 0.38332 10
-72.6782 13.8641 19.8252 0.417042 10
-9.93028 1.8584 -2.70701 0.0747398 4
-11.1308 2.08307 -2.61436 0.0725115 4
-13.911 2.60338 -2.75097 0.0718652 1
-16.6242 3.11114 -2.67873 0.0774516 4
-21.5127 4.026 -2.68729 0.0152444 4
-72.6993 13.6053 3.87616 0.398073 10
-72.6364 13.5935 11.7042 0.213416 10
-72.664 13.5987 14.3697 0.226232 10
-72.6689 13.5996 17.0682 0.435054 10
-72.6739 13.6006 19.811 0.477625 10
-9.9368 1.82374 -2.70703 0.109736 4
-11.2052 2.05654 -2.63014 0.202834 4
-13.9202 2.55483 -2.75101 0.0718643 1
-16.6352 3.05313 -2.67877 0.0738813 4
-21.5271 3.95095 -2.68734 0.0171842 4
-72.6754 13.3384 -1.28974 0.163401 10
-72.6358 13.3312 1.28904 0.182613 10
-72.6951 13.342 3.87342 0.667123 10
-72.5868 13.3222 6.45659 0.229797 10
-72.6321 13.3305 11.6959 0.199329 10
-72.6597 13.3355 14.3595 0.306572 10
-72.4872 13.3039 17.0145 0.32301 10
-72.6696 13.3374 19.797 0.208818 10
-9.94319 1.78906 -2.70705 0.0972786 4
-11.29 2.03139 -2.64835 0.0814449 4
-13.9292 2.50626 -2.75104 0.0718635 1
-16.646 2.99509 -2.67881 0.0331926 4
-21.5411 3.87587 -2.68739 0.0171839 4
-72.6712 13.0756 -1.28885 0.567492 10
-72.6908 13.0792 3.87074 0.206519 10
-72.6279 13.0678 11.6878 0.18047 10
-72.6554 13.0728 14.3496 0.306784 10
-72.483 13.0418 17.0027 0.435663 10
-72.6653 13.0746 19.7833 0.278618 10
-9.94946 1.75436 -2.70708 0.109734 4
-11.3876 2.00795 -2.6696 0.0911553 4
-13.938 2.45765 -2.75107 0.0718626 1
-16.6986 2.94443 -2.68561 0.0580969 4
-21.5549 3.80073 -2.68744 0.0254982 4
-72.6669 12.8132 -1.28797 0.818129 10
-72.6236 12.8055 11.6799 0.185345 10
-72.6512 12.8104 14.3398 0.354223 10
-72.4787 12.78 16.9912 0.403145 10
-9.95561 1.71963 -2.7071 0.151254 4
-11.3947 1.96821 -2.66963 0.0597396 4
-13.9467 2.40901 -2.75111 0.0718617 1
-16.7651 2.89584 -2.69465 0.044177 4
-72.6278 12.545 3.86263 0.755052 10
-72.6469 12.5483 14.3302 0.302472 10
-72.6518 12.5492 17.0214 0.473777 10
-72.6568 12.55 19.7566 0.41849 10
-9.96163 1.68489 -2.70712 0.113884 4
-11.4016 1.92844 -2.66965 0.113813 4
-12.9853 2.1963 -2.55994 0.0558347 4
-16.8318 2.8469 -2.70376 0.020518 4
-72.6781 12.2926 3.863 0.178059 10
-72.6427 12.2866 14.3209 0.279024 10
-72.6476 12.2874 17.0102 0.492864 10
-72.6526 12.2883 19.7437 0.3164 10
-9.96754 1.65012 -2.70714 0.0954959 4
-11.4084 1.88864 -2.66968 0.0581935 4
-12.993 2.15099 -2.55997 0.0475461 4
-16.8989 2.79759 -2.71294 0.0673097 4
-72.6109 12.0207 11.657 0.176186 10
-72.6384 12.0252 14.3117 0.354919 10
-72.6433 12.026 16.9993 0.497877 10
-72.5898 12.0172 19.7151 0.442313 10
-9.97332 1.61533 -2.70717 0.0320294 4
-11.415 1.84883 -2.6697 0.0242041 4
-13.0006 2.10565 -2.56 0.0479818 4
-16.9662 2.74792 -2.72219 0.0522213 4
-72.6697 11.7699 3.85808 0.477034 10
-72.6067 11.7597 11.6496 0.204886 10
-72.6342 11.7642 14.3026 0.374084 10
-72.6391 11.765 16.9886 0.451192 10
-72.5855 11.7563 19.7027 0.377368 10
-9.97898 1.58052 -2.70719 0.0652446 4
-11.4215 1.80899 -2.66973 0.0999054 4
-13.0221 2.0625 -2.5628 0.0158644 4
-17.0337 2.69788 -2.73151 0.0490814 4
-21.62 3.42427 -2.68769 0.0157963 4
-72.6654 11.5091 3.8557 0.207324 10
-72.63 11.5035 14.2938 0.326933 10
-72.6349 11.5042 16.9781 0.489093 10
-72.5813 11.4957 19.6905 0.606026 10
-9.98452 1.54569 -2.70721 0.0676165 4
-11.4279 1.76913 -2.66976 0.0978446 4
-13.18 2.04038 -2.59246 0.0700127 4
-17.1016 2.64747 -2.7409 0.0552383 4
-72.6416 11.2455 -1.28307 0.850242 10
-72.6605 11.2485 1.2834 0.2367 10
-72.6612 11.2486 3.85337 0.467968 10
-72.6257 11.2431 14.2852 0.312908 10
-72.6306 11.2438 16.9678 0.508212 10
-72.5771 11.2355 19.6786 0.247222 10
-9.98994 1.51083 -2.70723 0.118031 4
-11.4341 1.72924 -2.66978 0.0865144 4
-13.3416 2.01773 -2.62284 0.0719699 4
-17.1698 2.59669 -2.75035 0.0537878 4
-72.6374 10.9854 -1.28231 0.79274 10
-72.6563 10.9882 1.28264 0.22234 10
-72.657 10.9883 3.85109 0.168954 10
-72.6215 10.983 14.2767 0.28463 10
-72.6264 10.9837 16.9578 0.461428 10
-9.99523 1.47597 -2.70726 0.00711741 4
-11.4401 1.68933 -2.66981 0.0736396 4
-13.5069 1.99453 -2.65395 0.0727676 4
-17.2203 2.54288 -2.757 0.0587897 1
-72.6528 10.7284 3.84886 0.236673 10
-72.5534 10.7138 9.00504 0.700803 10
-72.6173 10.7232 14.2684 0.213597 10
-72.6222 10.7239 16.948 0.447562 10
-10.0004 1.44108 -2.70728 0.0830358 4
-11.4461 1.64941 -2.66983 0.0968119 4
-13.6142 1.96184 -2.67366 0.0209363 4
-17.2293 2.48279 -2.75704 0.0587889 1
-21.6672 3.1223 -2.68788 0.0493254 4
-72.6486 10.4689 3.84668 0.46395 10
-72.5492 10.4545 8.99993 0.456261 10
-72.4956 10.4468 11.6008 0.234167 10
-72.6131 10.4637 14.2603 0.185222 10
-72.618 10.4644 16.9384 0.273404 10
-9.67736 1.36007 -2.61852 0.300423 4
-11.4519 1.60946 -2.66986 0.0669438 4
-13.6211 1.91432 -2.67369 0.0370744 4
-17.2381 2.42266 -2.75708 0.0587881 1
-21.6784 3.0467 -2.68793 0.0551438 4
-72.5899 10.2018 3.84166 0.382004 10
-72.4914 10.188 11.5943 0.210389 10
-72.6089 10.2045 14.2524 0.798322 10
-72.6188 10.2059 19.6494 0.172985 10
-9.67762 1.32567 -2.61733 0.246503 4
-11.4575 1.56949 -2.66988 0.0417108 4
-13.6278 1.86678 -2.67372 0.0488504 4
-17.2467 2.36251 -2.75712 0.0587873 1
-21.6893 2.97106 -2.68798 0.0471069 4
-72.1271 9.8802 -1.27074 0.416639 10
-72.1317 9.88084 1.27082 0.256749 10
-72.1364 9.88148 3.81581 0.169334 10
-72.1457 9.88276 8.94111 0.346177 10
-72.1505 9.88341 11.5342 0.234424 10
-72.1553 9.88406 14.1565 0.366096 10
-72.1601 9.88473 16.8151 0.410555 10
-72.1651 9.8854 19.5171 0.280669 10
-9.67785 1.2913 -2.61615 0.227144 4
-11.463 1.5295 -2.6699 0.0782714 4
-13.6344 1.81922 -2.67375 0.0396905 4
-16.0558 2.14231 -2.56553 0.0331866 4
-21.7047 2.89603 -2.68863 0.0381767 4
-72.5542 9.68079 1.27766 0.455608 10
-72.5279 9.67728 6.4016 0.347656 10
-72.483 9.6713 11.5819 0.181895 10
-72.6005 9.68698 14.2372 0.432888 10
-9.67807 1.25696 -2.61501 0.307319 4
-11.4684 1.48949 -2.66993 0.0478893 4
-13.6408 1.77163 -2.67377 0.087231 4
-16.0634 2.08628 -2.56557 0.0399661 4
-21.8099 2.83262 -2.70041 0.0400106 4
-72.568 9.42496 -1.27732 0.417075 10
-72.5773 9.42617 3.83556 0.217943 10
-72.582 9.42678 6.40344 0.454119 10
-72.4788 9.41337 11.5759 0.426237 10
-72.5963 9.42863 14.2298 0.290328 10
-72.6062 9.42991 19.6182 0.266915 10
-9.67827 1.22265 -2.6139 0.266313 4
-11.4736 1.44946 -2.66995 0.0669414 4
-13.6471 1.72402 -2.6738 0.0584442 4
-16.0708 2.03022 -2.5656 0.054239 4
-21.9158 2.7686 -2.7123 0.0398352 4
-72.5732 9.16812 3.83363 0.227744 10
-72.5779 9.16871 6.40021 0.352845 10
-72.4746 9.15567 11.5701 0.344995 10
-72.5921 9.17052 14.2226 0.299998 10
-72.602 9.17176 19.6083 0.243624 10
-9.67845 1.18837 -2.61281 0.30108 4
-11.1942 1.37448 -2.6038 0.178162 4
-13.6531 1.6764 -2.67383 0.0362001 4
-16.2453 1.99467 -2.59232 0.0427077 4
-22.0223 2.70401 -2.72431 0.0416426 4
-72.5597 8.90922 -1.27605 0.446618 10
-72.569 8.91037 3.83174 0.155136 10
-72.5737 8.91094 6.39706 0.285317 10
-72.4705 8.89827 11.5644 0.373929 10
-72.588 8.91269 14.2156 0.343024 10
-72.5521 8.90829 16.8758 0.217519 10
-72.5978 8.9139 19.5986 0.295305 10
-9.67861 1.1541 -2.61175 0.303369 4
-11.1695 1.33188 -2.59694 0.0664254 4
-13.659 1.62874 -2.67386 0.0283492 4
-16.4876 1.96603 -2.62988 0.0633731 4
-22.1296 2.6388 -2.73643 0.0480389 4
-72.5071 8.64595 -1.27458 0.373979 10
-72.5648 8.65283 3.8299 0.223115 10
-72.5695 8.65339 6.39399 0.246748 10
-72.4663 8.64108 11.5588 0.426867 10
-72.5838 8.65508 14.2088 0.30029 10
-72.548 8.65081 16.8677 0.165583 10
-72.5936 8.65626 19.5892 0.243861 10
-9.67876 1.11987 -2.61072 0.262301 4
-11.1741 1.29289 -2.59696 0.0705442 4
-13.6648 1.58107 -2.67388 0.0710904 4
-16.7369 1.93653 -2.66856 0.0606702 4
-22.2377 2.57299 -2.74866 0.0419289 4
-72.5514 8.39449 -1.27484 0.223521 10
-72.5144 8.39021 3.82567 0.499818 10
-72.5654 8.39611 6.391 0.324311 10
-72.4621 8.38416 11.5534 0.335895 10
-72.5796 8.39776 14.2022 0.362424 10
-72.5438 8.39361 16.8598 0.160928 10
-72.5894 8.39889 19.58 0.253359 10
-9.67888 1.08566 -2.60971 0.310112 4
-11.1787 1.25389 -2.59698 0.080327 4
-13.6703 1.53338 -2.67391 0.0436133 4
-16.8122 1.8858 -2.67949 0.0460295 4
-22.3464 2.50656 -2.761 0.0371759 4
-72.5472 8.1375 -1.27426 0.272236 10
-72.5565 8.13854 3.82637 0.213612 10
-72.5612 8.13907 6.38809 0.30993 10
-72.458 8.12749 11.5482 0.345649 10
-72.5755 8.14067 14.1957 0.31488 10
-72.5396 8.13665 16.8521 0.198883 10
-72.5853 8.14177 19.5711 0.267556 10
-9.67899 1.05148 -2.60874 0.288533 4
-11.1831 1.21487 -2.59701 0.0592149 4
-13.6758 1.48566 -2.67394 0.0423045 4
-16.8189 1.82712 -2.67953 0.015343 4
-22.3991 2.43333 -2.76645 0.0456434 1
-72.4947 7.87545 -1.27285 0.486351 10
-72.5251 7.87875 1.27338 0.170212 10
-72.5524 7.88172 3.82468 0.247705 10
-72.5571 7.88222 6.38527 0.26162 10
-72.4538 7.87101 11.5431 0.27376 10
-72.5713 7.88377 14.1894 0.281608 10
-72.5355 7.87988 16.8447 0.208446 10
-72.5811 7.88484 19.5625 0.305243 10
-9.67908 1.01732 -2.60779 0.284298 4
-11.1873 1.17584 -2.59703 0.0581846 4
-13.681 1.43793 -2.67396 0.0580045 4
-16.8254 1.76842 -2.67956 0.0478124 4
-22.4078 2.35517 -2.76649 0.0456427 1
-72.5389 7.62417 -1.27315 0.257877 10
-72.5209 7.62228 1.27283 0.180016 10
-72.5482 7.62515 3.82304 0.218657 10
-72.5529 7.62564 6.38252 0.29566 10
-72.4497 7.61479 11.5381 0.312317 10
-72.5671 7.62713 14.1833 0.405882 10
-72.5313 7.62337 16.8374 0.17062 10
-72.5769 7.62816 19.5541 0.333563 10
-9.67916 0.983173 -2.60687 0.254005 4
-11.1904 1.13668 -2.5968 0.0468935 4
-13.6861 1.39018 -2.67399 0.0702153 4
-16.8317 1.7097 -2.67959 0.029258 4
-22.4163 2.27696 -2.76653 0.045642 1
-72.5348 7.36781 -1.27261 0.26772 10
-72.5441 7.36876 3.82144 0.277082 10
-72.5488 7.36923 6.37985 0.295784 10
-72.4455 7.35875 11.5333 0.312448 10
-72.563 7.37068 14.1774 0.410828 10
-72.5728 7.37167 19.5459 0.343102 10
-9.67921 0.949057 -2.60597 0.308385 4
-11.1898 1.09717 -2.59575 0.254668 4
-13.1097 1.28542 -2.56048 0.0475366 4
-16.8377 1.65096 -2.67962 0.0617265 4
-20.866 2.04593 -2.5743 0.0310297 4
-72.5399 7.11262 3.81989 0.243153 10
-72.5446 7.11308 6.37727 0.344413 10
-72.4414 7.10296 11.5286 0.283721 10
-72.5588 7.11447 14.1716 0.281962 10
-72.5686 7.11543 19.538 0.310328 10
-9.67924 0.914958 -2.60511 0.280246 4
-11.1891 1.05768 -2.59473 0.091627 4
-13.1142 1.23966 -2.5605 0.0549501 4
-16.8436 1.59219 -2.67965 0.0331821 4
-20.8733 1.9731 -2.57434 0.0362931 4
-30.7754 2.90913 -2.7045 0.0354526 4
-72.5265 6.85577 -1.2716 0.35075 10
-72.5085 6.85407 1.27128 0.189977 10
-72.5358 6.85665 3.81839 0.170274 10
-72.4373 6.84733 11.5241 0.322319 10
-72.5547 6.85843 14.1661 0.310758 10
-72.5645 6.85936 19.5303 0.268116 10
-9.67927 0.880884 -2.60427 0.282509 4
-11.1885 1.01824 -2.59374 0.0760123 4
-13.1186 1.19388 -2.56053 0.0436108 4
-16.8492 1.5334 -2.67968 0.044599 4
-21.0776 1.91822 -2.5987 0.0510334 4
-30.786 2.80175 -2.70456 0.0399818 4
-72.5224 6.60007 -1.27111 0.36063 10
-72.5317 6.60091 3.81693 0.170339 10
-72.5363 6.60134 6.37233 0.286424 10
-72.4331 6.59194 11.5197 0.255066 10
-72.5505 6.60263 14.1607 0.349138 10
-72.5603 6.60352 19.5228 0.268218 10
-9.67926 0.84683 -2.60346 0.339116 4
-11.1879 0.978816 -2.59279 0.0939321 4
-13.1228 1.1481 -2.56055 0.0213691 4
-16.8547 1.4746 -2.67971 0.0239048 4
-21.4824 1.87947 -2.64778 0.0276707 4
-30.8993 2.70335 -2.71367 0.0282368 4
-72.5183 6.34455 -1.27065 0.297386 10
-72.5002 6.34298 1.27033 0.19012 10
-72.5275 6.34537 3.81553 0.258036 10
-72.4739 6.34067 6.36486 0.597341 10
-72.429 6.33674 11.5154 0.235902 10
-72.5464 6.34701 14.1555 0.291853 10
-72.5106 6.34388 16.8043 0.185203 10
-9.67924 0.81279 -2.60267 0.280508 4
-11.1872 0.939419 -2.59187 0.0872537 4
-13.1268 1.10229 -2.56057 0.0414295 4
-16.8599 1.41577 -2.67974 0.0371056 4
-21.8202 1.83229 -2.68861 0.0199465 4
-31.1019 2.6117 -2.73064 0.0313627 4
-72.5141 6.08919 -1.27019 0.487691 10
-72.4961 6.08768 1.26988 0.190187 10
-72.5234 6.08997 3.81417 0.248388 10
-72.5281 6.09036 6.36772 0.417802 10
-72.5423 6.09155 14.1504 0.253668 10
-72.552 6.09237 19.5087 0.244867 10
-9.67921 0.778774 -2.60192 0.308866 4
-11.1866 0.900056 -2.59098 0.230519 4
-13.1307 1.05648 -2.5606 0.0357599 4
-16.8649 1.35693 -2.67977 0.090979 4
-21.8267 1.75614 -2.68865 0.0462641 4
-72.51 5.83404 -1.26976 0.326865 10
-72.5193 5.83479 3.81286 0.185137 10
-72.5239 5.83516 6.36552 0.311029 10
-72.5381 5.8363 14.1455 0.196301 10
-72.5479 5.83709 19.502 0.193135 10
-9.67916 0.744771 -2.60119 0.304601 4
-11.186 0.860714 -2.59012 0.154476 4
-13.1344 1.01064 -2.56062 0.0601807 4
-16.1535 1.24294 -2.56602 0.0406725 4
-21.833 1.67996 -2.68869 0.0373986 4
-31.5136 2.42484 -2.76523 0.031436 4
-72.0571 5.54449 -1.26148 0.385536 10
-72.0617 5.54485 1.26156 0.419671 10
-72.0663 5.5452 3.788 0.360649 10
-72.0709 5.54556 6.32403 0.286825 10
-72.0756 5.54592 8.87593 0.397153 10
-72.0802 5.54628 11.4501 0.371087 10
-72.085 5.54664 14.0533 0.316101 10
-72.0898 5.54701 16.6924 0.480123 10
-72.0947 5.54739 19.3748 0.419383 10
-9.67908 0.71079 -2.60049 0.278567 4
-11.1853 0.821402 -2.58929 0.0739035 4
-13.138 0.964797 -2.56064 0.0540749 4
-16.1579 1.18657 -2.56605 0.0463805 4
-31.7229 2.3296 -2.78287 0.0312368 4
-9.67899 0.676821 -2.59981 0.317823 4
-11.1847 0.78211 -2.5885 0.11873 4
-13.1414 0.918935 -2.56066 0.0357589 4
-16.1621 1.13016 -2.56608 0.0488773 4
-21.8448 1.52754 -2.68876 0.0238236 4
-31.7379 2.21933 -2.78349 0.0324424 1
-73.2762 5.12397 -1.28216 0.185564 10
-73.2808 5.12429 1.28224 0.332041 10
-73.2855 5.12462 3.85011 0.238958 10
-73.2902 5.12495 6.42772 0.267547 10
-73.295 5.12528 9.02146 0.392555 10
-73.2997 5.12562 11.6379 0.313451 10
-73.3046 5.12595 14.2838 0.172527 10
-73.3094 5.1263 16.9661 0.275887 10
-73.3144 5.12664 19.6925 0.268762 10
-9.67889 0.642873 -2.59916 0.339677 4
-11.1841 0.742847 -2.58773 0.161341 4
-13.1446 0.873068 -2.56069 0.0710811 4
-16.1661 1.07376 -2.56611 0.0460227 4
-21.8503 1.4513 -2.6888 0.0290866 4
-31.746 2.10858 -2.78354 0.0324418 1
-73.272 4.86674 -1.28179 0.210042 10
-73.2767 4.86705 1.28187 0.302832 10
-73.2814 4.86736 3.84898 0.375616 10
-73.2861 4.86767 6.42583 0.330883 10
-73.2908 4.86798 9.01881 0.37328 10
-73.2956 4.8683 11.6345 0.371429 10
-73.3004 4.86862 14.2795 0.488971 10
-73.3053 4.86895 16.9611 0.361613 10
-73.3103 4.86928 19.6867 0.316007 10
-9.67876 0.608935 -2.59854 0.204726 4
-11.1834 0.703601 -2.587 0.152421 4
-13.1477 0.827183 -2.56071 0.0545096 4
-16.1699 1.01733 -2.56613 0.0456655 4
-29.547 1.85894 -2.59014 0.0271755 4
-73.2725 4.60991 1.2815 0.332232 10
-73.2772 4.61021 3.84789 0.605059 10
-73.2819 4.6105 6.42401 0.335843 10
-73.2866 4.6108 9.01626 0.412178 10
-73.2914 4.6111 11.6312 0.357058 10
-73.2962 4.6114 14.2755 0.374024 10
-73.3011 4.61171 16.9564 0.504498 10
-73.3061 4.61202 19.6811 0.316096 10
-9.67862 0.575017 -2.59795 0.324586 4
-11.1828 0.664382 -2.58631 0.235419 4
-13.1506 0.781293 -2.56073 0.0601781 4
-16.1736 0.960889 -2.56616 0.0463785 4
-21.8605 1.29876 -2.68887 0.0265927 4
-73.2684 4.35295 1.28116 0.405628 10
-73.273 4.35323 3.84685 0.409989 10
-73.2778 4.35351 6.42228 0.326197 10
-73.2825 4.35379 9.01382 0.242523 10
-73.2872 4.35408 11.628 0.352328 10
-73.2921 4.35436 14.2717 0.556392 10
-73.297 4.35465 16.9518 0.390378 10
-73.3019 4.35495 19.6758 0.297305 10
-9.67846 0.541113 -2.59738 0.313763 4
-11.1822 0.625184 -2.58564 0.154744 4
-13.1534 0.735393 -2.56075 0.056253 4
-16.177 0.904439 -2.56618 0.0463781 4
-20.9368 1.17056 -2.57474 0.0360105 4
-30.6778 1.71517 -2.68816 0.0296076 4
-73.2642 4.09613 1.28083 0.552384 10
-73.2689 4.09639 3.84586 0.400331 10
-73.2736 4.09666 6.42062 0.37985 10
-73.2783 4.09692 9.0115 0.334769 10
-73.2831 4.09719 11.625 0.376557 10
-73.2879 4.09746 14.268 0.244684 10
-73.2928 4.09773 16.9474 0.285716 10
-73.2978 4.09801 19.6707 0.330424 10
-9.67828 0.507218 -2.59685 0.316007 4
-11.1815 0.586001 -2.585 0.136836 4
-13.156 0.689476 -2.56077 0.0540722 4
-16.1802 0.84797 -2.56621 0.0445938 4
-20.9411 1.09748 -2.57477 0.0351791 4
-30.8774 1.61822 -2.70513 0.0285524 4
-73.2554 3.83916 -1.28043 0.239603 10
-73.2601 3.83941 1.28051 0.283594 10
-73.2647 3.83965 3.84491 0.361363 10
-73.2695 3.8399 6.41904 0.379943 10
-73.2742 3.84014 9.00928 0.315439 10
-73.2789 3.84039 11.6222 0.313875 10
-73.2837 3.84064 14.2645 0.412705 10
