VERSION 0.7
FIELDS x y z intensity label
SIZE 4 4 4 4 4
TYPE F F F F F
COUNT 1 1 1 1 1
WIDTH 1254
HEIGHT 1
VIEWPOINT 5.55226 20.8578 2.72909 0.878393 -0.000246106 0.000487814 0.477939
POINTS 1254
DATA ascii
8.81074 -78.5496 1.37969 0.293888 10
8.80283 -78.479 9.69645 0.627073 10
8.79979 -78.452 12.5035 0.260008 10
8.80217 -78.4732 18.2306 0.265065 10
1.0885 -9.40764 -2.53759 0.0806441 4
1.35748 -11.7324 -2.72671 0.0855403 1
1.51912 -13.1294 -2.56912 0.164586 4
1.84073 -15.909 -2.53654 0.0444282 4
3.47716 -30.0523 -2.64677 0.0396768 4
9.06915 -78.3824 1.3773 0.206518 10
9.06101 -78.312 9.67966 0.523467 10
9.05788 -78.2851 12.4819 0.247436 10
9.05287 -78.2417 18.184 0.471093 10
1.12132 -9.40365 -2.53755 0.0836321 4
1.39841 -11.7274 -2.72666 0.0855417 1
1.57608 -13.2174 -2.5874 0.140504 4
1.89621 -15.9021 -2.53648 0.047319 4
2.5536 -21.4151 -2.64808 0.0295559 4
3.58189 -30.0387 -2.64666 0.0336361 4
9.32503 -78.2021 -1.37469 0.202466 10
9.32667 -78.2158 1.37493 0.325714 10
9.3183 -78.1456 9.66305 0.419493 10
9.3176 -78.1398 18.1678 0.248821 10
1.15412 -9.39954 -2.53751 0.0943861 4
1.43931 -11.7223 -2.72662 0.0855431 1
1.63385 -13.3067 -2.60598 0.130598 4
1.95166 -15.895 -2.53642 0.0559894 4
9.58254 -78.0436 4.12081 0.224593 10
9.5747 -77.9798 9.64662 0.398322 10
9.5487 -77.768 12.4097 0.348468 10
9.57423 -77.9759 15.2708 0.255424 10
9.56667 -77.9144 18.123 0.186622 10
1.1869 -9.39533 -2.53748 0.0686997 4
1.4802 -11.717 -2.72658 0.0855445 1
1.69247 -13.3973 -2.62486 0.124747 4
2.00708 -15.8877 -2.53636 0.0487661 4
9.83025 -77.8145 9.63035 0.539301 10
9.82686 -77.7877 12.4183 0.222524 10
9.82433 -77.7677 15.2366 0.226917 10
9.82951 -77.8087 18.1063 0.266884 10
1.21968 -9.39099 -2.53744 0.08722 4
1.52106 -11.7115 -2.72653 0.0855459 1
1.75193 -13.4892 -2.64405 0.141394 4
2.06248 -15.8802 -2.5363 0.0520184 4
2.77746 -21.3853 -2.64783 0.050672 4
10.094 -77.7195 1.36799 0.190227 10
10.0932 -77.7133 4.10699 0.375581 10
10.0849 -77.6497 9.61426 0.18446 10
10.0815 -77.623 12.3975 0.236007 10
10.0844 -77.6459 15.2196 0.230221 10
10.0842 -77.644 18.0761 0.237148 10
1.25243 -9.38655 -2.53741 0.0322599 4
1.56191 -11.706 -2.72649 0.0855473 1
1.81228 -13.5824 -2.66355 0.124871 4
2.11785 -15.8725 -2.53624 0.0469622 4
2.852 -21.3748 -2.64775 0.0441986 4
10.3388 -77.4856 9.59835 0.48391 10
10.3352 -77.4588 12.377 0.236399 10
10.3315 -77.4311 15.1845 0.52212 10
10.338 -77.4798 18.0461 0.289369 10
1.28517 -9.38199 -2.53737 0.0328578 4
1.60273 -11.7003 -2.72644 0.0855487 1
1.87352 -13.677 -2.68338 0.147969 4
2.17319 -15.8647 -2.53618 0.0400994 4
2.92651 -21.364 -2.64767 0.0520827 4
10.6013 -77.3913 1.36349 0.252995 10
10.5923 -77.3256 4.09031 0.363523 10
10.5918 -77.3219 9.58259 0.603678 10
10.5881 -77.2953 12.3567 0.254327 10
10.591 -77.3162 18.0165 0.25091 10
1.31789 -9.37731 -2.53734 0.0179227 4
1.64354 -11.6944 -2.7264 0.0855501 1
1.93568 -13.7731 -2.70353 0.1297 4
2.2285 -15.8566 -2.53612 0.0494933 4
3.00129 -21.3553 -2.64787 0.0631608 4
10.8518 -77.2144 -1.36103 0.337868 10
10.8537 -77.2281 1.36127 0.262298 10
10.827 -77.0379 6.80618 0.270212 10
10.844 -77.1588 9.56701 0.472254 10
10.8402 -77.1322 12.3366 0.245957 10
10.8363 -77.1046 15.1349 0.488908 10
10.8431 -77.1531 17.9872 0.264318 10
1.3506 -9.37252 -2.5373 0.0591457 4
1.68432 -11.6884 -2.72635 0.0855515 1
1.99879 -13.8706 -2.72403 0.100329 4
2.28378 -15.8484 -2.53606 0.046243 4
3.08483 -21.4073 -2.65563 0.0575393 4
11.1033 -77.0517 -1.35884 0.25381 10
11.1044 -77.0592 4.08021 0.342465 10
11.0779 -76.8756 6.79521 0.266211 10
11.0953 -76.9962 9.5516 0.415547 10
11.0915 -76.9697 12.3167 0.197963 10
11.0875 -76.9421 15.1105 0.459091 10
11.0945 -76.9905 17.9583 0.473068 10
1.38329 -9.36762 -2.53727 0.0537695 4
1.72509 -11.6823 -2.72631 0.0855529 1
2.04859 -13.873 -2.72588 0.0725794 1
2.33903 -15.8399 -2.536 0.0415474 4
3.16884 -21.4594 -2.66345 0.0505943 4
11.275 -76.3542 -1.34722 0.330035 10
11.2745 -76.3505 4.04475 0.30292 10
11.2742 -76.3487 6.75208 0.355516 10
11.2739 -76.3469 9.47587 0.336511 10
11.2736 -76.345 12.223 0.378935 10
11.2734 -76.3431 15.0005 0.201447 10
11.2731 -76.3412 17.8159 0.412967 10
11.2728 -76.3393 20.6769 0.418017 10
1.41596 -9.3626 -2.53723 0.0920069 4
1.76582 -11.676 -2.72626 0.0855542 1
2.09696 -13.8655 -2.72583 0.0725808 1
2.39425 -15.8313 -2.53594 0.042271 4
3.25333 -21.5117 -2.67134 0.0540483 4
11.5264 -76.2151 1.34547 0.201729 10
11.5265 -76.2157 4.03972 0.42128 10
1.44861 -9.35747 -2.53719 0.0764744 4
1.80654 -11.6696 -2.72622 0.0855556 1
2.1453 -13.8578 -2.72578 0.0725822 1
2.44944 -15.8224 -2.53588 0.0570852 4
3.33829 -21.5641 -2.67928 0.0592769 4
11.8457 -76.5188 -1.35155 0.33555 10
11.8452 -76.5152 4.05776 0.174282 10
11.8446 -76.5115 9.50634 0.186554 10
11.844 -76.5078 15.0488 0.206476 10
1.48125 -9.35223 -2.53716 0.0675135 4
1.84723 -11.663 -2.72618 0.085557 1
2.19362 -13.85 -2.72572 0.0725836 1
2.5046 -15.8134 -2.53582 0.0426343 4
3.42374 -21.6167 -2.68728 0.0326843 4
12.0939 -76.3582 -1.34945 0.425692 10
12.0998 -76.395 1.3501 0.33608 10
12.0925 -76.3491 12.2432 0.261193 10
12.0922 -76.3473 15.0254 0.237597 10
12.0919 -76.3454 17.8454 0.248949 10
1.51386 -9.34687 -2.53712 0.0764765 4
1.8879 -11.6563 -2.72613 0.0855584 1
2.24191 -13.842 -2.72567 0.072585 1
2.55972 -15.8042 -2.53576 0.0458871 4
3.50967 -21.6694 -2.69534 0.0584772 4
12.3414 -76.1982 -1.34738 0.282736 10
12.3372 -76.172 1.34691 0.184007 10
12.3328 -76.1447 4.04258 0.484122 10
12.3402 -76.1909 9.47698 0.21832 10
12.3399 -76.1891 12.2244 0.226125 10
12.3396 -76.1872 15.0023 0.32169 10
12.3393 -76.1853 17.818 0.240584 10
1.54646 -9.3414 -2.53709 0.062138 4
1.92855 -11.6494 -2.72609 0.0855598 1
2.29017 -13.8338 -2.72562 0.0725864 1
2.61481 -15.7948 -2.5357 0.0552827 4
3.37164 -20.3664 -2.53472 0.0219646 4
7.92467 -47.869 -2.54286 0.106435 4
12.5881 -76.0386 -1.34532 0.233725 10
12.5942 -76.0752 1.34597 0.548368 10
12.5869 -76.0314 9.46254 0.187417 10
12.5866 -76.0295 12.2058 0.257554 10
12.5863 -76.0277 14.9794 0.26922 10
1.57903 -9.33581 -2.53705 0.0764786 4
1.96917 -11.6424 -2.72604 0.0855612 1
2.3384 -13.8255 -2.72557 0.0725878 1
2.66987 -15.7852 -2.53564 0.0545613 4
3.44261 -20.3539 -2.53464 0.030695 4
8.15185 -48.1967 -2.56176 0.107301 4
12.834 -75.8795 -1.34329 0.585196 10
12.8402 -75.9161 1.34394 0.351126 10
12.8226 -75.8116 6.72686 0.201842 10
12.8328 -75.8723 9.44826 0.196639 10
12.8325 -75.8705 12.1874 0.235707 10
12.8322 -75.8686 14.9568 0.304988 10
1.61159 -9.33011 -2.53702 0.0734922 4
2.00976 -11.6353 -2.726 0.0855626 1
2.3866 -13.8169 -2.72551 0.0725892 1
2.72489 -15.7754 -2.53558 0.0509492 4
3.51622 -20.3568 -2.53651 0.110258 4
8.38245 -48.5292 -2.58097 0.111417 4
13.0793 -75.7209 -1.34129 0.189346 10
13.0856 -75.7574 1.34193 0.284026 10
13.0786 -75.7173 4.02694 0.270178 10
13.0676 -75.6531 6.7168 0.220113 10
13.0777 -75.7119 12.1692 0.231606 10
13.0774 -75.71 14.9345 0.424966 10
13.0771 -75.7082 17.7374 0.285617 10
13.0767 -75.7063 20.5858 0.622928 10
1.64413 -9.3243 -2.53698 0.0884309 4
2.05033 -11.628 -2.72596 0.085564 1
2.43477 -13.8083 -2.72546 0.0725906 1
2.77987 -15.7655 -2.53552 0.0473369 4
3.6117 -20.483 -2.55379 0.125669 4
5.24951 -29.7715 -2.64485 0.0278141 4
8.61652 -48.8667 -2.6005 0.115459 4
13.3302 -75.5991 1.33994 0.605015 10
13.3231 -75.5591 4.02097 0.189405 10
13.3118 -75.4951 6.70686 0.260928 10
13.3222 -75.5537 12.1511 0.205186 10
13.3218 -75.5519 14.9124 0.270431 10
13.3215 -75.55 17.7112 0.250836 10
13.3212 -75.5482 20.5553 0.314107 10
1.67664 -9.31838 -2.53695 0.0764818 4
2.09088 -11.6206 -2.72591 0.0855653 1
2.48291 -13.7994 -2.72541 0.072592 1
2.83482 -15.7553 -2.53546 0.0437244 4
3.70848 -20.6109 -2.57134 0.10609 4
13.5675 -75.405 -1.33734 0.217035 10
13.574 -75.4414 1.33798 0.226083 10
13.5669 -75.4015 4.01508 0.198716 10
13.5554 -75.3376 6.69703 0.292849 10
13.5446 -75.278 9.3914 0.179559 10
13.5659 -75.3961 12.1333 0.192086 10
13.5656 -75.3943 14.8905 0.306346 10
13.5652 -75.3924 17.6852 0.308496 10
13.5649 -75.3905 20.5252 0.362627 10
1.70913 -9.31234 -2.53691 0.0896284 4
2.13139 -11.6131 -2.72587 0.0855667 1
2.53101 -13.7904 -2.72536 0.0725934 1
2.88973 -15.7449 -2.5354 0.0581801 4
3.8066 -20.7405 -2.58915 0.139889 4
13.8105 -75.2478 -1.33539 0.312441 10
13.8099 -75.2443 4.00925 0.203527 10
13.7982 -75.1805 6.6873 0.320346 10
13.8089 -75.2389 12.1157 0.187891 10
13.8086 -75.2371 14.8689 0.32013 10
13.8082 -75.2352 17.6595 0.220675 10
1.7416 -9.30619 -2.53688 0.0603506 4
2.17188 -11.6054 -2.72582 0.0855681 1
2.57908 -13.7812 -2.7253 0.0725948 1
2.9446 -15.7344 -2.53534 0.0332466 4
3.90607 -20.8719 -2.60724 0.131006 4
8.94416 -47.7927 -2.54819 0.0798201 4
14.0529 -75.091 -1.33347 0.26301 10
14.0597 -75.1272 1.33412 0.213134 10
14.0403 -75.0239 6.67769 0.325325 10
14.0292 -74.9645 9.36429 0.2296 10
14.0512 -75.0822 12.0983 0.179202 10
14.0509 -75.0803 14.8475 0.276065 10
14.0502 -75.0766 20.466 0.223464 10
1.77405 -9.29992 -2.53684 0.090826 4
2.21234 -11.5975 -2.72578 0.0855695 1
2.62712 -13.7719 -2.72525 0.0725962 1
2.99944 -15.7236 -2.53528 0.0426433 4
4.00694 -21.0051 -2.62561 0.112627 4
9.18568 -48.153 -2.5691 0.112732 4
14.2945 -74.9347 -1.33158 0.254303 10
14.2818 -74.8677 6.66819 0.343888 10
14.2705 -74.8085 9.35096 0.270503 10
14.2929 -74.9259 12.0811 0.23778 10
14.2925 -74.9241 14.8264 0.307671 10
1.80648 -9.29354 -2.53681 0.0866444 4
2.25278 -11.5895 -2.72574 0.0855708 1
2.67513 -13.7624 -2.7252 0.0725975 1
3.05424 -15.7127 -2.53522 0.0437285 4
4.10924 -21.1402 -2.64427 0.0156046 4
9.4312 -48.5193 -2.59038 0.127169 4
14.5355 -74.7788 -1.3297 0.236471 10
14.5305 -74.7531 1.32924 0.195548 10
14.5225 -74.712 6.65879 0.498436 10
14.511 -74.6529 9.33778 0.465019 10
14.5338 -74.77 12.0641 0.188696 10
14.5335 -74.7682 14.8055 0.281313 10
14.5331 -74.7664 17.5843 0.190593 10
1.83888 -9.28705 -2.53677 0.0926211 4
2.29318 -11.5814 -2.72569 0.0855722 1
2.7231 -13.7527 -2.72515 0.0725989 1
3.10899 -15.7016 -2.53517 0.0393927 4
9.6808 -48.8917 -2.61205 0.097336 4
14.7758 -74.6234 -1.32784 0.350649 10
14.7829 -74.6594 1.32848 0.173052 10
14.7751 -74.6199 3.98659 0.204685 10
14.7509 -74.4977 9.32475 0.325516 10
14.7741 -74.6146 12.0472 0.175462 10
14.7737 -74.6128 14.7848 0.304064 10
14.773 -74.6091 20.3796 0.347618 10
1.87127 -9.28045 -2.53674 0.069915 4
2.33356 -11.5732 -2.72565 0.0855736 1
2.77104 -13.7428 -2.7251 0.0726003 1
3.16371 -15.6902 -2.53511 0.0419235 4
4.25986 -21.1266 -2.64622 0.030985 4
9.93463 -49.2703 -2.63411 0.13429 4
14.9202 -73.9961 -1.3176 0.237129 10
14.9199 -73.9944 1.31757 0.437787 10
14.9195 -73.9927 3.95584 0.259626 10
14.9192 -73.9909 6.60365 0.240823 10
14.9188 -73.9892 9.26757 0.380293 10
14.9185 -73.9874 11.9543 0.400967 10
14.9181 -73.9857 14.6708 0.197019 10
14.9178 -73.9839 17.4243 0.31113 10
14.9174 -73.982 20.2224 0.387755 10
1.90362 -9.27373 -2.5367 0.0794771 4
2.3739 -11.5648 -2.7256 0.085575 1
2.81894 -13.7328 -2.72504 0.0726017 1
3.24169 -15.7923 -2.5534 0.0653995 4
4.33345 -21.1109 -2.64614 0.0157747 4
10.1928 -49.6553 -2.65659 0.120671 4
15.161 -73.8586 -1.31609 0.421856 10
15.1611 -73.8591 1.3161 0.332097 10
15.1614 -73.8608 9.25806 0.441037 10
1.93596 -9.2669 -2.53666 0.0645387 4
2.41422 -11.5562 -2.72556 0.0855763 1
2.8668 -13.7226 -2.72499 0.0726031 1
3.32659 -15.9235 -2.57648 0.0721976 4
4.40698 -21.095 -2.64606 0.0678895 4
10.4554 -50.047 -2.67948 0.0998373 4
1.96826 -9.25996 -2.53663 0.0854552 4
2.4545 -11.5475 -2.72552 0.0855777 1
2.91463 -13.7123 -2.72494 0.0726045 1
3.41303 -16.0571 -2.60001 0.103251 4
4.48045 -21.0789 -2.64598 0.0315513 4
10.7225 -50.4454 -2.70279 0.0997939 4
15.9035 -74.82 -1.33516 0.228938 10
15.9031 -74.8182 1.33513 0.169418 10
15.902 -74.813 9.3911 0.195467 10
15.9016 -74.8112 12.1136 0.185468 10
15.9012 -74.8094 14.8663 0.238285 10
15.9008 -74.8076 17.6565 0.281157 10
2.00055 -9.2529 -2.53659 0.0603573 4
2.49476 -11.5387 -2.72547 0.0855791 1
2.96242 -13.7017 -2.72489 0.0726058 1
3.50108 -16.1931 -2.624 0.105529 4
4.36066 -20.1689 -2.53365 0.0284533 4
16.1431 -74.6649 -1.3334 0.279675 10
16.142 -74.6597 6.6828 0.219283 10
16.1416 -74.658 9.37866 0.223037 10
16.1409 -74.6544 14.8466 0.265613 10
16.1405 -74.6526 17.6331 0.326218 10
16.1401 -74.6508 20.4648 0.283528 10
2.03281 -9.24574 -2.53656 0.0747007 4
2.53498 -11.5297 -2.72543 0.0855805 1
3.01017 -13.6911 -2.72484 0.0726072 1
3.59076 -16.3317 -2.64848 0.122113 4
4.43091 -20.1529 -2.53357 0.0273273 4
16.3821 -74.5103 -1.33165 0.339723 10
16.3818 -74.5086 1.33162 0.183638 10
16.3814 -74.5069 3.998 0.325568 10
16.381 -74.5051 6.67404 0.210422 10
16.3806 -74.5034 9.36636 0.391966 10
16.3802 -74.5016 12.0817 0.394593 10
16.3794 -74.498 17.61 0.264002 10
16.379 -74.4962 20.438 0.297208 10
2.06504 -9.23846 -2.53653 0.0627494 4
2.57517 -11.5206 -2.72539 0.0855818 1
3.05789 -13.6802 -2.72479 0.0726086 1
3.68214 -16.473 -2.67344 0.081439 4
4.50109 -20.1367 -2.53349 0.0385974 4
16.6206 -74.3561 -1.32992 0.220647 10
16.6198 -74.3527 3.99282 0.381088 10
16.6194 -74.3509 6.66539 0.206115 10
16.6182 -74.3457 14.808 0.343039 10
16.6178 -74.3439 17.5872 0.349472 10
16.6174 -74.342 20.4115 0.275385 10
2.09725 -9.23106 -2.53649 0.088448 4
2.61532 -11.5114 -2.72534 0.0855832 1
3.10556 -13.6692 -2.72473 0.07261 1
3.77526 -16.6169 -2.69892 0.098684 4
4.57122 -20.1203 -2.53342 0.0366264 4
16.8583 -74.2023 -1.32821 0.303779 10
16.858 -74.2006 1.32818 0.197921 10
16.8576 -74.1989 3.98769 0.422954 10
16.8572 -74.1971 6.65683 0.353139 10
16.8568 -74.1954 9.34221 0.370132 10
16.856 -74.1919 14.789 0.366077 10
16.8552 -74.1883 20.3853 0.329108 10
2.12943 -9.22356 -2.53645 0.0896445 4
2.65545 -11.502 -2.7253 0.0855846 1
3.1532 -13.658 -2.72468 0.0726114 1
3.86856 -16.7566 -2.7238 0.0595497 1
4.64128 -20.1036 -2.53334 0.0369093 4
17.0955 -74.0489 -1.32653 0.235037 10
17.0951 -74.0472 1.3265 0.24426 10
17.0947 -74.0454 3.98263 0.345237 10
17.0943 -74.0437 6.64838 0.275523 10
17.0935 -74.0403 12.0353 0.245865 10
17.0931 -74.0385 14.7702 0.190059 10
17.0927 -74.0367 17.5423 0.332398 10
17.0923 -74.0349 20.3594 0.396322 10
2.16158 -9.21595 -2.53642 0.0741071 4
2.69554 -11.4925 -2.72526 0.0855859 1
3.20079 -13.6467 -2.72463 0.0726127 1
3.92694 -16.7426 -2.72373 0.0595511 1
4.71129 -20.0867 -2.53327 0.0369104 4
6.89855 -29.4121 -2.64306 0.0340853 4
17.3317 -73.8941 1.32483 0.267639 10
17.3313 -73.8924 3.97763 0.405588 10
17.3309 -73.8907 6.64003 0.312652 10
17.3305 -73.889 9.31863 0.554312 10
17.3301 -73.8872 12.0202 0.196027 10
17.3297 -73.8855 14.7516 0.222014 10
17.3288 -73.8819 20.3338 0.343316 10
2.19371 -9.20822 -2.53639 0.079487 4
2.7356 -11.4828 -2.72521 0.0855873 1
3.24835 -13.6351 -2.72458 0.0726141 1
3.98527 -16.7284 -2.72367 0.0595525 1
4.78123 -20.0695 -2.53319 0.0366297 4
2.22581 -9.20038 -2.53635 0.0723162 4
2.77562 -11.473 -2.72517 0.0855887 1
3.29586 -13.6235 -2.72453 0.0726155 1
4.04354 -16.714 -2.72361 0.0595538 1
4.85111 -20.0521 -2.53311 0.0400121 4
18.0561 -74.6348 9.42836 0.173605 10
2.25788 -9.19243 -2.53632 0.0836728 4
2.8156 -11.4631 -2.72513 0.08559 1
3.34333 -13.6116 -2.72448 0.0726169 1
4.10176 -16.6994 -2.72354 0.0595552 1
4.92093 -20.0345 -2.53304 0.048185 4
2.28992 -9.18436 -2.53628 0.0609624 4
2.85555 -11.453 -2.72508 0.0855914 1
3.39076 -13.5996 -2.72442 0.0726182 1
4.15993 -16.6846 -2.72348 0.0595566 1
4.99068 -20.0166 -2.53296 0.0391691 4
18.7866 -75.349 -1.35549 0.30604 10
18.7862 -75.3473 1.35545 0.278224 10
18.7844 -75.3403 12.298 0.284028 10
18.784 -75.3385 15.0926 0.259526 10
18.7835 -75.3367 17.9253 0.185301 10
18.7831 -75.3349 20.8039 0.237466 10
2.32193 -9.17619 -2.53625 0.0705261 4
2.89547 -11.4428 -2.72504 0.0855927 1
3.43815 -13.5874 -2.72437 0.0726196 1
4.21805 -16.6696 -2.72342 0.059558 1
5.06038 -19.9984 -2.53289 0.0338161 4
19.0269 -75.1936 -1.35388 0.264621 10
19.0265 -75.1919 1.35384 0.362121 10
19.0256 -75.1884 6.78546 0.27755 10
19.0247 -75.1849 12.2834 0.311885 10
19.0233 -75.1795 20.7792 0.264663 10
2.35392 -9.1679 -2.53621 0.0675387 4
2.93535 -11.4324 -2.725 0.0855941 1
3.48549 -13.5751 -2.72432 0.072621 1
4.27612 -16.6544 -2.72335 0.0595594 1
5.13 -19.98 -2.53281 0.0411441 4
19.2666 -75.0385 -1.35229 0.371835 10
19.2662 -75.0368 1.35225 0.404379 10
19.2657 -75.0351 4.05997 0.352829 10
19.2653 -75.0333 6.77749 0.324189 10
19.2648 -75.0316 9.51155 0.249178 10
19.2644 -75.0299 12.269 0.316844 10
19.2639 -75.0281 15.057 0.351418 10
19.263 -75.0245 20.7548 0.211081 10
2.38587 -9.1595 -2.53618 0.0788958 4
2.97519 -11.4219 -2.72495 0.0855955 1
3.53279 -13.5626 -2.72427 0.0726223 1
4.33412 -16.639 -2.72329 0.0595607 1
5.19955 -19.9614 -2.53274 0.0357908 4
19.5058 -74.8838 -1.35072 0.4188 10
19.5053 -74.8821 1.35069 0.376929 10
19.5049 -74.8804 4.05526 0.367182 10
19.5044 -74.8787 6.76963 0.417299 10
19.504 -74.8769 9.50051 0.40192 10
19.5035 -74.8752 12.2548 0.289628 10
19.5031 -74.8734 15.0396 0.360964 10
19.5026 -74.8717 17.8623 0.349233 10
19.5021 -74.8698 20.7307 0.287763 10
2.4178 -9.151 -2.53614 0.0878624 4
3.01499 -11.4113 -2.72491 0.0855968 1
3.58004 -13.5499 -2.72422 0.0726237 1
4.39208 -16.6234 -2.72323 0.0595621 1
5.26905 -19.9425 -2.53266 0.0343827 4
20.2082 -76.485 18.2639 0.257941 10
2.44969 -9.14238 -2.53611 0.0729208 4
3.05476 -11.4005 -2.72487 0.0855982 1
3.62725 -13.5371 -2.72417 0.0726251 1
4.44997 -16.6075 -2.72317 0.0595635 1
5.33847 -19.9234 -2.53259 0.0374839 4
7.81606 -29.1699 -2.64207 0.0391422 4
2.48156 -9.13365 -2.53607 0.0585766 4
3.09449 -11.3896 -2.72482 0.0855995 1
3.67441 -13.5241 -2.72412 0.0726264 1
4.50782 -16.5915 -2.7231 0.0595648 1
5.40782 -19.9041 -2.53251 0.0439674 4
7.91751 -29.1413 -2.64196 0.0415651 4
21.2091 -78.0624 15.7239 0.371366 10
2.51339 -9.12481 -2.53604 0.0902569 4
3.13418 -11.3786 -2.72478 0.0856009 1
3.72153 -13.5109 -2.72407 0.0726278 1
4.5656 -16.5753 -2.72304 0.0595662 1
5.4771 -19.8845 -2.53244 0.0332584 4
8.01927 -29.1138 -2.64199 0.0403852 4
15.9518 -57.9128 -1.04852 0.199252 9
21.6636 -78.6494 1.42396 0.257096 10
21.6631 -78.6476 4.27525 0.336159 10
21.6626 -78.6458 7.13686 0.242195 10
21.6621 -78.644 10.0159 0.320205 10
21.6616 -78.6421 12.9196 0.304791 10
21.6611 -78.6403 15.8554 0.266209 10
21.6606 -78.6384 18.8312 0.291583 10
2.54519 -9.11585 -2.536 0.0866717 4
3.17383 -11.3674 -2.72474 0.0856022 1
3.7686 -13.4976 -2.72401 0.0726291 1
4.62332 -16.5589 -2.72298 0.0595676 1
5.54632 -19.8647 -2.53236 0.0355142 4
8.15596 -29.2114 -2.65341 0.033077 4
21.9146 -78.4892 -1.42243 0.26673 10
21.9141 -78.4874 1.4224 0.196543 10
21.9131 -78.4838 7.12906 0.256449 10
21.9126 -78.482 10.0049 0.334493 10
21.9115 -78.4783 15.8381 0.321639 10
21.902 -78.4441 21.8229 0.244164 10
2.57696 -9.10679 -2.53597 0.0926504 4
3.21344 -11.356 -2.72469 0.0856036 1
3.81562 -13.4841 -2.72396 0.0726305 1
4.68099 -16.5423 -2.72292 0.0595689 1
5.61546 -19.8446 -2.53229 0.0349516 4
8.29379 -29.3096 -2.66495 0.0455261 4
2.6087 -9.09761 -2.53594 0.0609707 4
3.25301 -11.3446 -2.72465 0.0856049 1
3.86259 -13.4705 -2.72391 0.0726319 1
4.73859 -16.5254 -2.72285 0.0595703 1
5.68453 -19.8243 -2.53221 0.0377713 4
8.43275 -29.4085 -2.6766 0.0417918 4
23.2823 -81.195 10.3713 0.318084 10
2.6404 -9.08833 -2.5359 0.0735245 4
3.29253 -11.333 -2.72461 0.0856062 1
3.90952 -13.4567 -2.72386 0.0726332 1
4.79614 -16.5084 -2.72279 0.0595717 1
5.75352 -19.8038 -2.53214 0.0338261 4
8.57288 -29.508 -2.68836 0.0425691 4
2.67207 -9.07893 -2.53587 0.0771121 4
3.33202 -11.3212 -2.72457 0.0856076 1
3.95639 -13.4427 -2.72381 0.0726346 1
4.85363 -16.4912 -2.72273 0.059573 1
5.82244 -19.783 -2.53206 0.0163498 4
8.1623 -27.7331 -2.52924 0.0278515 4
24.1772 -82.1471 1.49469 0.333663 10
24.1766 -82.1452 4.48763 0.445917 10
24.1755 -82.1415 10.5135 0.214612 10
24.175 -82.1396 13.5614 0.264637 10
24.1744 -82.1376 16.6431 0.281476 10
24.1738 -82.1357 19.7668 0.261081 10
2.70371 -9.06943 -2.53583 0.083091 4
3.37147 -11.3094 -2.72452 0.0856089 1
4.00322 -13.4285 -2.72376 0.0726359 1
4.91105 -16.4738 -2.72267 0.0595744 1
5.9611 -19.9961 -2.56199 0.0899868 4
8.25871 -27.7033 -2.52913 0.031082 4
25.01 -83.8945 -1.52807 0.37169 10
25.0091 -83.8913 10.7485 0.339779 10
2.73532 -9.05981 -2.5358 0.0669519 4
3.41087 -11.2973 -2.72448 0.0856103 1
4.04999 -13.4142 -2.72371 0.0726373 1
4.96841 -16.4562 -2.7226 0.0595757 1
6.10374 -20.2166 -2.59295 0.0984387 4
8.43266 -27.9303 -2.55253 0.0834948 4
24.7298 -81.9092 7.48561 0.33783 10
2.76689 -9.05009 -2.53576 0.0777131 4
3.45023 -11.2852 -2.72444 0.0856116 1
4.09672 -13.3998 -2.72366 0.0726386 1
5.02571 -16.4384 -2.72254 0.0595771 1
6.24987 -20.4424 -2.6247 0.0734065 4
8.61611 -28.182 -2.57827 0.0756669 4
26.2341 -85.8079 20.7155 0.274437 10
2.79842 -9.04025 -2.53573 0.0627691 4
3.48955 -11.2729 -2.7244 0.0856129 1
4.14339 -13.3851 -2.72361 0.0726399 1
5.08294 -16.4203 -2.72248 0.0595785 1
6.39963 -20.6739 -2.65727 0.0849011 4
8.80328 -28.4388 -2.60455 0.083086 4
26.5369 -85.7269 -1.56642 0.297256 10
26.5351 -85.7211 7.85072 0.291488 10
26.5345 -85.7191 11.0177 0.234216 10
2.82993 -9.03031 -2.5357 0.0675524 4
3.52882 -11.2605 -2.72435 0.0856143 1
4.19001 -13.3703 -2.72356 0.0726413 1
5.14011 -16.4021 -2.72242 0.0595798 1
6.55315 -20.9111 -2.69069 0.0703821 4
8.99428 -28.7008 -2.63141 0.0884682 4
2.86139 -9.02025 -2.53566 0.0860856 4
3.56805 -11.2479 -2.72431 0.0856156 1
4.23657 -13.3554 -2.72351 0.0726426 1
5.19722 -16.3837 -2.72236 0.0595812 1
6.69965 -21.12 -2.72056 0.0464471 1
9.12635 -28.7699 -2.64065 0.0270509 4
2.89282 -9.01009 -2.53563 0.0950541 4
3.60724 -11.2352 -2.72427 0.0856169 1
4.28309 -13.3403 -2.72346 0.072644 1
5.25426 -16.3651 -2.7223 0.0595825 1
6.77313 -21.0958 -2.72048 0.0464484 1
2.92422 -8.99982 -2.53559 0.0729356 4
3.64637 -11.2224 -2.72423 0.0856183 1
4.32955 -13.325 -2.72341 0.0726453 1
5.31123 -16.3463 -2.72223 0.0595839 1
6.84653 -21.0715 -2.7204 0.0464498 1
9.32621 -28.7031 -2.64043 0.0351287 4
2.95557 -8.98943 -2.53556 0.0603819 4
3.68547 -11.2094 -2.72418 0.0856196 1
4.37596 -13.3095 -2.72336 0.0726467 1
5.36813 -16.3273 -2.72217 0.0595852 1
6.91984 -21.0468 -2.72032 0.0464512 1
9.02605 -27.4529 -2.5283 0.025439 4
2.9869 -8.97894 -2.53553 0.0783182 4
3.72452 -11.1963 -2.72414 0.0856209 1
4.42231 -13.2939 -2.72331 0.072648 1
5.42497 -16.3081 -2.72211 0.0595865 1
6.99306 -21.0219 -2.72024 0.0464525 1
9.12145 -27.4201 -2.5282 0.0286706 4
3.01818 -8.96834 -2.53549 0.062775 4
3.76352 -11.1831 -2.7241 0.0856223 1
4.4686 -13.2782 -2.72326 0.0726493 1
5.48174 -16.2887 -2.72205 0.0595879 1
7.0662 -20.9968 -2.72016 0.0464539 1
9.21674 -27.387 -2.5281 0.028066 4
3.04943 -8.95763 -2.53546 0.0711459 4
3.80247 -11.1697 -2.72406 0.0856236 1
4.51484 -13.2623 -2.72321 0.0726507 1
5.53844 -16.2691 -2.72199 0.0595892 1
7.13924 -20.9714 -2.72008 0.0464552 1
9.3119 -27.3535 -2.52799 0.0262498 4
3.08063 -8.94681 -2.53543 0.0962575 4
3.84138 -11.1562 -2.72402 0.0856249 1
4.56102 -13.2462 -2.72316 0.072652 1
5.59507 -16.2493 -2.72193 0.0595906 1
7.21219 -20.9457 -2.72 0.0464565 1
9.40694 -27.3198 -2.52789 0.0272605 4
3.1118 -8.93589 -2.53539 0.0663648 4
3.88024 -11.1425 -2.72397 0.0856262 1
4.60715 -13.2299 -2.72311 0.0726533 1
5.65163 -16.2293 -2.72187 0.0595919 1
7.28505 -20.9198 -2.71992 0.0464579 1
9.50186 -27.2856 -2.52779 0.0272617 4
3.14294 -8.92485 -2.53536 0.0681593 4
3.91905 -11.1287 -2.72393 0.0856275 1
4.65322 -13.2135 -2.72306 0.0726546 1
5.70812 -16.2091 -2.7218 0.0595932 1
7.35782 -20.8937 -2.71984 0.0464592 1
9.59666 -27.2512 -2.52769 0.026455 4
24.6415 -69.9734 -1.29491 0.343136 10
24.641 -69.9718 1.29488 0.400334 10
24.6404 -69.9702 3.88772 0.476018 10
24.6398 -69.9687 6.48994 0.47012 10
24.6393 -69.9671 9.10801 0.198719 10
24.6382 -69.9639 14.4182 0.411801 10
24.637 -69.9606 19.8743 0.428258 10
3.17403 -8.91371 -2.53532 0.052017 4
3.95781 -11.1148 -2.72389 0.0856288 1
4.69923 -13.197 -2.72301 0.072656 1
5.76454 -16.1887 -2.72174 0.0595946 1
7.43049 -20.8672 -2.71977 0.0464606 1
24.8649 -69.8288 -1.29384 0.37681 10
24.8644 -69.8273 1.29381 0.400667 10
24.8638 -69.8257 3.88449 0.357311 10
24.8633 -69.8242 6.48455 0.4515 10
24.8627 -69.8226 9.10044 0.255708 10
24.8616 -69.8194 14.4062 0.421511 10
24.861 -69.8178 17.1101 0.302181 10
3.20508 -8.90246 -2.53529 0.0298952 4
3.99652 -11.1008 -2.72385 0.0856302 1
4.74518 -13.1802 -2.72296 0.0726573 1
5.82088 -16.1681 -2.72168 0.0595959 1
7.50307 -20.8406 -2.71969 0.0464619 1
9.78588 -27.1814 -2.52748 0.0264571 4
25.088 -69.6846 -1.29278 0.377118 10
25.0874 -69.683 1.29275 0.162308 10
25.0863 -69.6799 6.47925 0.242583 10
25.0857 -69.6783 9.09299 0.393354 10
25.0852 -69.6767 11.7291 0.31598 10
25.084 -69.6735 17.0961 0.381525 10
25.0834 -69.6719 19.8415 0.235239 10
3.23609 -8.8911 -2.53526 0.0795223 4
4.03519 -11.0866 -2.72381 0.0856315 1
4.79107 -13.1634 -2.72291 0.0726586 1
5.87715 -16.1473 -2.72162 0.0595972 1
7.57555 -20.8137 -2.71961 0.0464632 1
25.3107 -69.5405 -1.29174 0.310537 10
25.3101 -69.5389 1.29171 0.224547 10
25.3095 -69.5374 3.87818 0.224279 10
25.3084 -69.5343 9.08567 0.369956 10
25.3078 -69.5327 11.7197 0.387034 10
25.0693 -68.8773 16.9221 0.400458 10
25.0687 -68.8756 19.6396 0.212347 10
3.26707 -8.87963 -2.53522 0.0334835 4
4.0738 -11.0723 -2.72376 0.0856328 1
4.8369 -13.1463 -2.72286 0.0726599 1
5.93335 -16.1264 -2.72156 0.0595986 1
7.64794 -20.7865 -2.71953 0.0464646 1
25.2935 -68.7457 -1.2786 0.320346 10
25.2918 -68.7411 6.40821 0.390659 10
25.2912 -68.7395 8.9933 0.23734 10
25.2906 -68.738 11.6005 0.288144 10
25.2901 -68.7364 14.2367 0.389667 10
25.2895 -68.7348 16.9087 0.279611 10
3.298 -8.86806 -2.53519 0.0789265 4
4.11236 -11.0578 -2.72372 0.0856341 1
4.88267 -13.1291 -2.72281 0.0726613 1
5.98947 -16.1052 -2.7215 0.0595999 1
7.72023 -20.7591 -2.71945 0.0464659 1
25.0757 -67.4267 -1.25569 0.382801 10
25.0752 -67.4251 1.25566 0.21533 10
25.0746 -67.4236 3.76997 0.301102 10
25.0741 -67.4221 6.29338 0.543535 10
25.0735 -67.4206 8.83215 0.365788 10
25.0724 -67.4176 13.9815 0.507433 10
25.0718 -67.416 16.6057 0.499029 10
25.0712 -67.4144 19.2724 0.374505 10
3.32889 -8.85637 -2.53516 0.0777317 4
4.15087 -11.0432 -2.72368 0.0856354 1
4.92838 -13.1118 -2.72276 0.0726626 1
6.04552 -16.0838 -2.72144 0.0596012 1
7.79242 -20.7314 -2.71937 0.0464672 1
25.2956 -67.2978 -1.25493 0.3217 10
25.296 -67.2989 3.76791 0.267752 10
25.2962 -67.2995 6.29013 0.546522 10
25.2964 -67.3 8.82786 0.15967 10
25.2966 -67.3006 11.3875 0.281108 10
3.35974 -8.84459 -2.53512 0.0723512 4
4.18933 -11.0285 -2.72364 0.0856367 1
4.97403 -13.0942 -2.72271 0.0726639 1
6.10149 -16.0623 -2.72138 0.0596025 1
7.86451 -20.7035 -2.7193 0.0464686 1
25.6672 -67.5695 -1.26166 0.469646 10
25.6692 -67.5747 1.26175 0.282752 10
25.6686 -67.5732 3.78826 0.244121 10
25.6681 -67.5717 6.32391 0.20533 10
25.6675 -67.5702 8.875 0.214098 10
25.6644 -67.5619 11.4468 0.345622 10
25.6657 -67.5655 16.6862 0.378345 10
3.39055 -8.83269 -2.53509 0.0651767 4
4.22774 -11.0136 -2.7236 0.085638 1
5.01962 -13.0766 -2.72266 0.0726652 1
6.15738 -16.0405 -2.72132 0.0596039 1
7.93651 -20.6753 -2.71922 0.0464699 1
25.8837 -67.4294 -1.26072 0.532341 10
25.8857 -67.4346 1.26082 0.254186 10
25.8851 -67.4331 3.78545 0.349687 10
25.8846 -67.4316 6.31922 0.238933 10
25.8808 -67.4219 11.4383 0.331665 10
25.8822 -67.4255 16.6739 0.42537 10
3.42132 -8.82068 -2.53506 0.0508266 4
4.26609 -10.9986 -2.72356 0.0856393 1
5.06514 -13.0587 -2.72261 0.0726665 1
6.2132 -16.0186 -2.72126 0.0596052 1
8.0084 -20.6469 -2.71914 0.0464712 1
26.0999 -67.2896 -1.2598 0.335955 10
26.1019 -67.2948 1.2599 0.335963 10
26.0842 -67.2492 3.78021 0.69509 10
26.1008 -67.2918 6.31462 0.2678 10
26.097 -67.2821 11.43 0.21811 10
26.0984 -67.2857 16.6617 0.42568 10
26.0978 -67.2841 19.3374 0.162308 10
3.45204 -8.80857 -2.53502 0.0621886 4
4.30439 -10.9835 -2.72352 0.0856406 1
5.1106 -13.0407 -2.72256 0.0726678 1
6.26894 -15.9964 -2.7212 0.0596065 1
8.08019 -20.6182 -2.71906 0.0464726 1
10.7185 -27.3505 -2.57005 0.0604871 4
26.3158 -67.15 -1.2589 0.201718 10
26.3178 -67.1551 1.259 0.292977 10
26.3172 -67.1536 3.77998 0.28783 10
26.3002 -67.1102 6.30615 0.62691 10
26.316 -67.1507 8.85561 0.171653 10
26.3128 -67.1425 11.4218 0.208776 10
26.3142 -67.146 16.6498 0.416623 10
3.48272 -8.79635 -2.53499 0.0861084 4
4.34264 -10.9683 -2.72347 0.0856419 1
5.156 -13.0226 -2.72252 0.0726691 1
6.3246 -15.9741 -2.72114 0.0596078 1
8.15188 -20.5893 -2.71899 0.0464739 1
11.0027 -27.7897 -2.61492 0.0549455 4
26.5313 -67.0105 -1.25802 0.302789 10
26.5334 -67.0157 1.25811 0.350859 10
26.5154 -66.9703 3.77485 0.480054 10
26.5322 -67.0127 6.30566 0.220291 10
26.5284 -67.003 11.4138 0.204175 10
26.5298 -67.0066 16.6381 0.416916 10
3.51336 -8.78403 -2.53496 0.069964 4
4.38083 -10.9529 -2.72343 0.0856432 1
5.20133 -13.0043 -2.72247 0.0726704 1
6.38018 -15.9516 -2.72108 0.0596091 1
8.22347 -20.5602 -2.71891 0.0464752 1
11.297 -28.2446 -2.66141 0.0579681 4
26.7466 -66.8713 -1.25715 0.264523 10
26.7481 -66.8749 3.77471 0.220977 10
26.7475 -66.8735 6.3013 0.220443 10
26.7436 -66.8638 11.4059 0.242329 10
26.745 -66.8674 16.6266 0.44533 10
26.7444 -66.8658 19.2966 0.162651 10
3.54395 -8.7716 -2.53493 0.061593 4
4.41897 -10.9373 -2.72339 0.0856445 1
5.2466 -12.9858 -2.72242 0.0726717 1
6.43568 -15.9289 -2.72102 0.0596104 1
8.29496 -20.5307 -2.71883 0.0464765 1
11.602 -28.716 -2.70963 0.0612829 4
26.9439 -66.6885 -1.25547 0.572719 10
26.9636 -66.7374 1.25639 0.187702 10
26.9454 -66.6922 3.76968 0.581661 10
26.9624 -66.7344 6.29703 0.249366 10
26.9409 -66.6811 11.3907 0.475477 10
26.96 -66.7283 16.6153 0.389342 10
26.9594 -66.7268 19.2835 0.167412 10
3.5745 -8.75906 -2.53489 0.0813278 4
4.45706 -10.9217 -2.72335 0.0856458 1
5.2918 -12.9672 -2.72237 0.072673 1
6.4911 -15.906 -2.72096 0.0596118 1
8.36633 -20.5011 -2.71876 0.0464778 1
11.7246 -28.7301 -2.71481 0.0332873 1
27.1762 -66.5933 -1.25546 0.27451 10
27.1783 -66.5985 1.25555 0.467159 10
27.1777 -66.597 3.76964 0.283809 10
27.1771 -66.5955 6.29284 0.235136 10
27.1732 -66.5859 11.3905 0.209349 10
27.1747 -66.5895 16.6043 0.333273 10
3.60501 -8.74641 -2.53486 0.0729567 4
4.49509 -10.9059 -2.72331 0.0856471 1
5.33694 -12.9484 -2.72232 0.0726743 1
6.54644 -15.8829 -2.7209 0.0596131 1
8.4376 -20.4712 -2.71868 0.0464791 1
11.8243 -28.6879 -2.7147 0.0332886 1
27.3906 -66.4547 -1.25464 0.385529 10
27.3927 -66.4598 1.25473 0.279515 10
27.3742 -66.4148 3.76471 0.592055 10
27.3915 -66.4568 6.28873 0.273704 10
27.3876 -66.4473 11.3831 0.161875 10
27.389 -66.4508 16.5934 0.310006 10
3.63547 -8.73366 -2.53483 0.0609974 4
4.53306 -10.89 -2.72327 0.0856484 1
5.38201 -12.9294 -2.72227 0.0726756 1
6.6017 -15.8596 -2.72084 0.0596144 1
8.50877 -20.441 -2.7186 0.0464805 1
11.9239 -28.6453 -2.71459 0.0332899 1
27.6047 -66.3161 -1.25383 0.337554 10
27.6069 -66.3213 1.25393 0.33274 10
27.6063 -66.3198 3.76477 0.25046 10
27.6056 -66.3183 6.2847 0.26427 10
27.6017 -66.3088 11.3758 0.23344 10
3.66589 -8.72081 -2.53479 0.0926934 4
4.57098 -10.8739 -2.72323 0.0856496 1
5.42701 -12.9103 -2.72222 0.0726769 1
6.65687 -15.8361 -2.72078 0.0596157 1
8.57983 -20.4106 -2.71853 0.0464818 1
12.0233 -28.6024 -2.71449 0.0332912 1
27.8186 -66.1778 -1.25305 0.308815 10
27.8207 -66.1829 1.25314 0.308822 10
27.8201 -66.1815 3.76241 0.525333 10
27.8195 -66.18 6.28076 0.197125 10
27.7973 -66.1271 11.3612 0.65309 10
27.7891 -66.1077 13.9392 0.341131 10
3.69626 -8.70784 -2.53476 0.0926946 4
4.60884 -10.8577 -2.72319 0.0856509 1
5.47195 -12.8911 -2.72218 0.0726782 1
6.71196 -15.8124 -2.72072 0.059617 1
8.65078 -20.38 -2.71845 0.0464831 1
12.1226 -28.5591 -2.71438 0.0332925 1
28.0322 -66.0396 -1.25228 0.284864 10
28.0343 -66.0448 1.25237 0.449033 10
28.0337 -66.0433 3.76009 0.260417 10
28.0156 -66.0005 6.27297 0.423358 10
28.0107 -65.9891 11.3543 0.629642 10
28.0299 -66.0343 19.2219 0.167949 10
3.72658 -8.69478 -2.53473 0.0711664 4
4.64664 -10.8414 -2.72315 0.0856522 1
5.51681 -12.8717 -2.72213 0.0726795 1
6.76697 -15.7885 -2.72066 0.0596183 1
8.72162 -20.3491 -2.71837 0.0464844 1
12.2218 -28.5155 -2.71427 0.0332939 1
28.2455 -65.9017 -1.25152 0.318854 10
28.2477 -65.9068 1.25162 0.347848 10
28.2464 -65.9038 6.27311 0.327337 10
28.2239 -65.8512 11.3474 0.539337 10
28.1989 -65.7931 16.5259 0.211894 10
3.75686 -8.6816 -2.5347 0.0998735 4
4.68438 -10.825 -2.72311 0.0856535 1
5.56161 -12.8521 -2.72208 0.0726808 1
6.82189 -15.7645 -2.7206 0.0596196 1
8.79235 -20.3179 -2.7183 0.0464857 1
12.3207 -28.4716 -2.71417 0.0332952 1
28.4399 -65.7208 -1.24996 0.149853 10
28.4607 -65.7689 1.25088 0.314215 10
28.4601 -65.7675 3.75561 0.280041 10
28.4595 -65.766 6.26941 0.202298 10
28.4554 -65.7565 11.3481 0.544431 10
3.7871 -8.66833 -2.53466 0.0711682 4
4.72207 -10.8084 -2.72307 0.0856548 1
5.60634 -12.8324 -2.72203 0.0726821 1
6.87673 -15.7402 -2.72054 0.0596209 1
8.86298 -20.2866 -2.71822 0.046487 1
12.4196 -28.4273 -2.71406 0.0332965 1
28.6714 -65.6262 -1.25006 0.154776 10
28.6736 -65.6312 1.25016 0.261191 10
28.6729 -65.6298 3.75344 0.26571 10
28.6723 -65.6283 6.26579 0.197596 10
28.6717 -65.6269 8.79343 0.201678 10
28.6682 -65.6189 11.3416 0.520853 10
28.6241 -65.518 16.5066 0.216856 10
3.81728 -8.65494 -2.53463 0.0711692 4
4.7597 -10.7917 -2.72302 0.085656 1
5.651 -12.8125 -2.72198 0.0726834 1
6.93148 -15.7158 -2.72048 0.0596221 1
8.93349 -20.2549 -2.71814 0.0464883 1
12.5182 -28.3826 -2.71395 0.0332978 1
28.7036 -65.0798 -1.24156 0.450073 10
28.7024 -65.077 3.72753 0.348035 10
28.7017 -65.0755 6.22254 0.511146 10
28.7011 -65.0741 8.73273 0.321907 10
28.4964 -64.61 11.1843 0.415962 10
28.6998 -65.0711 13.8242 0.475194 10
28.6991 -65.0696 16.4188 0.283015 10
3.84742 -8.64146 -2.5346 0.0861218 4
4.79727 -10.7748 -2.72298 0.0856573 1
5.69559 -12.7925 -2.72193 0.0726847 1
6.98615 -15.6911 -2.72043 0.0596234 1
9.00388 -20.2231 -2.71807 0.0464896 1
12.6167 -28.3376 -2.71385 0.0332991 1
3.87751 -8.62786 -2.53457 0.0825344 4
4.83478 -10.7579 -2.72294 0.0856586 1
5.74011 -12.7723 -2.72189 0.0726859 1
7.04072 -15.6663 -2.72037 0.0596247 1
9.07417 -20.1909 -2.71799 0.0464909 1
12.7151 -28.2923 -2.71374 0.0333004 1
29.3348 -65.273 1.24912 0.436041 10
29.3325 -65.2679 3.7501 0.459715 10
29.3093 -65.2163 6.25541 0.39102 10
29.3087 -65.2148 8.77886 0.30302 10
29.308 -65.2133 11.3239 0.53129 10
29.3067 -65.2104 16.5055 0.406098 10
29.306 -65.2089 19.1561 0.224701 10
3.90756 -8.61416 -2.53453 0.0765546 4
4.87223 -10.7408 -2.7229 0.0856599 1
5.78455 -12.752 -2.72184 0.0726872 1
7.09521 -15.6413 -2.72031 0.059626 1
9.14434 -20.1586 -2.71792 0.0464922 1
12.8133 -28.2467 -2.71364 0.0333017 1
29.5469 -65.1358 1.24846 0.460508 10
29.5446 -65.1307 3.74813 0.450274 10
29.5212 -65.0792 6.25211 0.396056 10
29.5206 -65.0778 8.77422 0.356116 10
29.5199 -65.0763 11.318 0.44537 10
29.5186 -65.0733 16.4968 0.448834 10
29.5179 -65.0718 19.146 0.271656 10
3.93755 -8.60036 -2.5345 0.0813403 4
4.90962 -10.7235 -2.72286 0.0856611 1
5.82893 -12.7315 -2.72179 0.0726885 1
7.14961 -15.6161 -2.72025 0.0596273 1
9.21439 -20.126 -2.71784 0.0464934 1
12.9113 -28.2007 -2.71353 0.033303 1
29.7587 -64.9988 1.24781 0.208548 10
29.7564 -64.9937 3.74619 0.634584 10
29.7084 -64.8888 6.24373 0.531569 10
29.7094 -64.891 8.76298 0.601857 10
29.7316 -64.9394 11.3121 0.191656 10
29.7214 -64.9171 13.8783 0.152387 10
29.7302 -64.9364 16.4883 0.401795 10
29.7295 -64.9349 19.1361 0.281169 10
3.9675 -8.58646 -2.53447 0.0801452 4
4.94695 -10.7062 -2.72282 0.0856624 1
5.87323 -12.7108 -2.72174 0.0726898 1
7.20393 -15.5907 -2.72019 0.0596286 1
9.28433 -20.0931 -2.71777 0.0464947 1
13.0091 -28.1543 -2.71342 0.0333043 1
29.965 -64.8503 -1.24696 0.208648 10
29.9704 -64.8619 1.24719 1.16943 10
29.9443 -64.8055 6.24574 0.425469 10
29.9207 -64.7544 8.75857 0.496179 10
29.943 -64.8026 11.3064 0.191752 10
29.9416 -64.7997 16.48 0.359433 10
29.9409 -64.7982 19.1265 0.234425 10
3.9974 -8.57244 -2.53444 0.0729689 4
4.98422 -10.6887 -2.72278 0.0856636 1
5.91746 -12.69 -2.7217 0.072691 1
7.25815 -15.5652 -2.72013 0.0596299 1
9.35416 -20.0601 -2.71769 0.046496 1
13.1068 -28.1077 -2.71332 0.0333055 1
30.1764 -64.7136 -1.24635 0.237879 10
30.1818 -64.7251 1.24657 1.12631 10
30.1556 -64.6689 6.24268 0.372468 10
30.1318 -64.6178 8.75428 0.53498 10
30.1542 -64.666 11.3009 0.220623 10
30.1688 -64.6972 13.8759 0.171606 10
30.1529 -64.663 16.4719 0.378536 10
30.1522 -64.6615 19.1171 0.314284 10
4.02724 -8.55833 -2.5344 0.0717736 4
5.02142 -10.6711 -2.72274 0.0856649 1
5.96162 -12.6691 -2.72165 0.0726923 1
7.31228 -15.5394 -2.72008 0.0596311 1
9.42386 -20.0267 -2.71762 0.0464973 1
13.2043 -28.0607 -2.71321 0.0333068 1
30.393 -64.5885 1.24598 0.349711 10
30.3673 -64.5338 3.73781 0.800462 10
30.3666 -64.5324 6.2397 0.290374 10
30.3426 -64.4814 8.7501 0.52077 10
30.3653 -64.5295 11.2955 0.292705 10
30.3799 -64.5607 13.8693 0.166919 10
30.3639 -64.5265 16.4641 0.307708 10
30.3632 -64.525 19.108 0.248731 10
4.05704 -8.54411 -2.53437 0.0729708 4
5.05857 -10.6533 -2.7227 0.0856662 1
6.0057 -12.648 -2.7216 0.0726936 1
7.36632 -15.5134 -2.72002 0.0596324 1
9.49345 -19.9932 -2.71754 0.0464986 1
13.3017 -28.0133 -2.71311 0.0333081 1
30.604 -64.452 1.2454 0.208952 10
30.6016 -64.4469 3.73895 0.257238 10
30.5774 -64.396 6.23679 0.314718 10
30.5533 -64.3452 8.74602 0.477595 10
30.5761 -64.3931 11.2902 0.249636 10
30.5908 -64.4242 13.8628 0.190853 10
30.574 -64.3887 19.0991 0.281714 10
4.08679 -8.52979 -2.53434 0.0657941 4
5.09565 -10.6354 -2.72266 0.0856674 1
6.04971 -12.6267 -2.72155 0.0726948 1
7.42027 -15.4873 -2.71996 0.0596337 1
9.56291 -19.9594 -2.71747 0.0464999 1
13.3989 -27.9656 -2.71301 0.0333094 1
30.7894 -64.2625 1.24381 0.145847 10
30.7888 -64.2611 3.73438 0.42245 10
30.7627 -64.2068 6.22883 0.455337 10
30.7638 -64.209 8.74206 0.603297 10
30.7867 -64.2569 11.2851 0.240143 10
30.7762 -64.2348 13.8451 0.167072 10
30.7364 -64.1517 16.4228 0.369588 10
30.7846 -64.2524 19.0904 0.267749 10
4.11649 -8.51537 -2.53431 0.0753652 4
5.13267 -10.6174 -2.72262 0.0856687 1
6.09364 -12.6053 -2.72151 0.0726961 1
7.47413 -15.461 -2.7199 0.059635 1
9.63226 -19.9253 -2.71739 0.0465011 1
13.4959 -27.9176 -2.7129 0.0333107 1
31.0255 -64.1793 1.24429 0.209139 10
31.0231 -64.1743 3.7356 0.500362 10
30.9985 -64.1236 6.23122 0.324692 10
30.9741 -64.073 8.73821 0.680819 10
30.9972 -64.1207 11.2801 0.225834 10
31.0121 -64.1517 13.8505 0.210126 10
30.9465 -64.0158 16.4155 0.274943 10
30.995 -64.1163 19.082 0.230272 10
4.14614 -8.50084 -2.53428 0.0717772 4
5.16962 -10.5993 -2.72258 0.0856699 1
6.1375 -12.5837 -2.72146 0.0726974 1
7.52789 -15.4345 -2.71984 0.0596362 1
9.70149 -19.891 -2.71732 0.0465024 1
13.5928 -27.8693 -2.7128 0.033312 1
31.2359 -64.0432 1.24375 0.228692 10
31.2335 -64.0382 3.734 0.184679 10
31.2088 -63.9875 6.22855 0.349072 10
31.1842 -63.9371 8.73446 0.565177 10
31.2074 -63.9847 11.2753 0.235545 10
31.2225 -64.0156 13.8445 0.195883 10
31.1564 -63.88 16.4085 0.303516 10
31.2053 -63.9803 19.0739 0.235072 10
4.17573 -8.48621 -2.53425 0.0669929 4
5.20651 -10.581 -2.72254 0.0856712 1
6.18128 -12.562 -2.72141 0.0726986 1
7.58156 -15.4078 -2.71979 0.0596375 1
9.7706 -19.8565 -2.71724 0.0465037 1
13.6894 -27.8206 -2.71269 0.0333132 1
31.4406 -63.8958 -1.24301 0.199576 10
31.4462 -63.9072 1.24324 0.569534 10
31.4438 -63.9022 3.73245 0.544543 10
31.4189 -63.8516 6.22596 0.373469 10
31.4175 -63.8488 11.2706 0.264497 10
31.3661 -63.7444 16.4017 0.246709 10
31.4154 -63.8444 19.0659 0.26339 10
4.20528 -8.47147 -2.53421 0.0472545 4
5.24334 -10.5626 -2.7225 0.0856724 1
6.22498 -12.5401 -2.72136 0.0726999 1
7.63513 -15.3809 -2.71973 0.0596387 1
9.83958 -19.8217 -2.71717 0.046505 1
13.7859 -27.7716 -2.71259 0.0333145 1
31.6563 -63.7713 1.24273 0.248359 10
31.6539 -63.7663 3.73094 0.199422 10
31.6288 -63.7159 6.22345 0.44155 10
31.6274 -63.713 11.2661 0.153951 10
31.6427 -63.7438 13.8332 0.157792 10
31.5757 -63.6088 16.3951 0.360721 10
31.6252 -63.7087 19.0582 0.244676 10
4.23477 -8.45664 -2.53418 0.0813506 4
5.2801 -10.5441 -2.72246 0.0856737 1
6.26861 -12.5181 -2.72132 0.0727011 1
7.68862 -15.3538 -2.71967 0.05964 1
9.90845 -19.7867 -2.7171 0.0465062 1
13.8823 -27.7222 -2.71249 0.0333158 1
31.8663 -63.6355 1.24225 0.341018 10
31.8638 -63.6305 3.72948 0.238427 10
31.8123 -63.5278 6.21588 0.558221 10
31.8372 -63.5773 11.2617 0.216579 10
31.7851 -63.4734 16.3886 0.5223 10
31.835 -63.573 19.0508 0.174164 10
4.26421 -8.4417 -2.53415 0.0753699 4
5.3168 -10.5255 -2.72242 0.0856749 1
6.31216 -12.496 -2.72127 0.0727024 1
7.742 -15.3266 -2.71961 0.0596413 1
9.97718 -19.7515 -2.71702 0.0465075 1
13.9784 -27.6725 -2.71238 0.0333171 1
32.0503 -63.4487 -1.24078 0.209557 10
32.076 -63.4997 1.24178 0.185194 10
32.0735 -63.4948 3.72807 0.467299 10
32.0482 -63.4446 6.21865 0.373907 10
32.0249 -63.3984 11.2497 0.53443 10
31.9943 -63.338 16.3824 0.574748 10
32.0446 -63.4374 19.0436 0.164812 10
4.2936 -8.42666 -2.53412 0.0777635 4
5.35343 -10.5067 -2.72239 0.0856761 1
6.35563 -12.4736 -2.72122 0.0727036 1
7.79529 -15.2991 -2.71956 0.0596425 1
10.0458 -19.716 -2.71695 0.0465088 1
14.0744 -27.6225 -2.71228 0.0333183 1
32.2856 -63.3642 1.24132 0.165761 10
32.2831 -63.3592 3.7267 0.462601 10
32.2576 -63.3091 6.21637 0.325467 10
32.2034 -63.2028 16.3764 0.574959 10
32.254 -63.302 19.0366 0.160162 10
4.32293 -8.41151 -2.53409 0.0843446 4
5.39 -10.4878 -2.72235 0.0856774 1
6.39902 -12.4512 -2.72118 0.0727049 1
7.84848 -15.2715 -2.7195 0.0596438 1
10.1143 -19.6803 -2.71687 0.04651 1
14.1702 -27.5722 -2.71218 0.0333196 1
32.2631 -62.7772 -1.23202 0.326755 10
32.2624 -62.7759 1.23199 0.238975 10
32.2617 -62.7745 3.69891 0.36047 10
32.261 -62.7731 6.17476 0.315864 10
32.2603 -62.7717 8.66568 0.435758 10
32.2596 -62.7703 11.1779 0.221635 10
32.2588 -62.7689 13.718 0.440561 10
32.2574 -62.7661 18.9092 0.32515 10
4.35221 -8.39627 -2.53406 0.064007 4
5.42649 -10.4688 -2.72231 0.0856786 1
6.44234 -12.4285 -2.72113 0.0727061 1
7.90157 -15.2437 -2.71944 0.059645 1
10.1826 -19.6443 -2.7168 0.0465113 1
14.2658 -27.5215 -2.71207 0.0333209 1
32.4709 -62.6428 -1.2316 0.429318 10
32.4702 -62.6414 1.23157 0.370783 10
32.4695 -62.6401 3.69765 0.297246 10
32.4681 -62.6373 8.66272 0.503715 10
32.4674 -62.6359 11.1741 0.303648 10
32.4666 -62.6345 13.7133 0.373647 10
32.4659 -62.6331 16.2872 0.408933 10
32.4651 -62.6316 18.9027 0.39597 10
4.38144 -8.38092 -2.53402 0.0813557 4
5.46293 -10.4496 -2.72227 0.0856798 1
6.48557 -12.4058 -2.72108 0.0727074 1
7.95457 -15.2157 -2.71938 0.0596463 1
10.2509 -19.6081 -2.71673 0.0465125 1
14.3612 -27.4705 -2.71197 0.0333221 1
32.8872 -62.9074 -1.23905 0.200089 10
32.9031 -62.9378 1.23965 0.200093 10
32.8857 -62.9046 3.72002 0.243724 10
32.885 -62.9032 6.20999 0.418193 10
32.8821 -62.8976 16.3857 0.185507 10
4.41061 -8.36547 -2.53399 0.0711871 4
5.49929 -10.4303 -2.72223 0.0856811 1
6.52873 -12.3828 -2.72104 0.0727086 1
8.00747 -15.1875 -2.71933 0.0596475 1
10.319 -19.5717 -2.71665 0.0465138 1
14.4565 -27.4192 -2.71187 0.0333234 1
33.096 -62.7723 -1.23866 0.239207 10
33.1121 -62.8026 1.23926 0.956848 10
33.0946 -62.7695 3.71883 0.219422 10
33.0939 -62.7681 6.20802 0.481561 10
33.0931 -62.7668 8.71236 0.295639 10
33.0909 -62.7625 16.3805 0.228389 10
4.43973 -8.34992 -2.53396 0.0789648 4
5.53558 -10.4109 -2.72219 0.0856823 1
6.5718 -12.3598 -2.72099 0.0727098 1
8.06026 -15.1592 -2.71927 0.0596488 1
10.387 -19.535 -2.71658 0.046515 1
14.5516 -27.3675 -2.71177 0.0333246 1
33.3048 -62.6372 -1.23828 0.341828 10
33.3209 -62.6675 1.23888 0.976674 10
33.3033 -62.6345 3.7177 0.477997 10
33.3026 -62.6331 6.20613 0.301676 10
33.3019 -62.6317 8.7097 0.247249 10
33.3004 -62.6289 13.7877 0.153437 10
4.4688 -8.33427 -2.53393 0.0699924 4
5.57181 -10.3914 -2.72215 0.0856835 1
6.61479 -12.3365 -2.72095 0.0727111 1
8.11296 -15.1306 -2.71921 0.05965 1
10.4548 -19.4981 -2.71651 0.0465163 1
14.6465 -27.3155 -2.71167 0.0333259 1
33.5134 -62.5023 -1.23792 0.23935 10
33.5296 -62.5325 1.23852 1.20655 10
33.512 -62.4995 3.71661 0.180521 10
33.5112 -62.4982 6.20431 0.316366 10
33.5105 -62.4968 8.70715 0.363708 10
33.5367 -62.5456 13.7951 0.172667 10
33.4542 -62.3917 18.9694 0.193512 10
4.49781 -8.31852 -2.5339 0.0777703 4
5.60797 -10.3717 -2.72211 0.0856848 1
6.6577 -12.3132 -2.7209 0.0727123 1
8.16556 -15.1019 -2.71916 0.0596512 1
10.5225 -19.461 -2.71644 0.0465175 1
14.7412 -27.2632 -2.71156 0.0333271 1
33.7219 -62.3674 -1.23757 0.205215 10
33.7382 -62.3976 1.23817 0.483731 10
33.7205 -62.3647 3.71557 0.170811 10
33.6919 -62.3119 6.19746 0.579355 10
33.719 -62.3619 8.70471 0.24254 10
33.7453 -62.4106 13.7912 0.16312 10
33.6623 -62.2571 18.9641 0.188845 10
4.52676 -8.30267 -2.53387 0.0903343 4
5.64406 -10.3519 -2.72207 0.085686 1
6.70053 -12.2896 -2.72085 0.0727135 1
8.21805 -15.073 -2.7191 0.0596525 1
10.5901 -19.4236 -2.71636 0.0465188 1
14.8357 -27.2106 -2.71146 0.0333284 1
33.9303 -62.2326 -1.23724 0.219932 10
33.9288 -62.2299 3.71457 0.219674 10
33.9281 -62.2285 6.2009 0.272711 10
33.9538 -62.2757 13.7875 0.158365 10
33.8703 -62.1225 18.959 0.283344 10
4.55566 -8.28671 -2.53384 0.050851 4
5.68008 -10.332 -2.72203 0.0856872 1
6.74327 -12.266 -2.72081 0.0727147 1
8.27044 -15.0439 -2.71905 0.0596537 1
10.6576 -19.386 -2.71629 0.04652 1
14.93 -27.1576 -2.71136 0.0333296 1
34.1386 -62.0979 -1.23692 0.234654 10
34.1551 -62.1279 1.23752 0.3471 10
34.1371 -62.0951 3.71362 0.268559 10
34.1363 -62.0938 6.19931 0.443269 10
34.0782 -61.9881 18.9542 0.188944 10
4.5845 -8.27066 -2.53381 0.0807644 4
5.71603 -10.312 -2.722 0.0856884 1
6.78593 -12.2421 -2.72076 0.072716 1
8.32273 -15.0146 -2.71899 0.059655 1
10.7249 -19.3482 -2.71622 0.0465212 1
15.0242 -27.1043 -2.71126 0.0333309 1
34.3467 -61.9632 -1.23662 0.210262 10
34.3634 -61.9932 1.23722 0.298286 10
34.3452 -61.9605 3.71271 0.273508 10
34.3445 -61.9591 6.1978 0.311826 10
34.286 -61.8536 18.9495 0.212614 10
4.61329 -8.25451 -2.53378 0.0735862 4
5.75191 -10.2918 -2.72196 0.0856896 1
6.82851 -12.2182 -2.72072 0.0727172 1
8.37492 -14.9852 -2.71893 0.0596562 1
10.7921 -19.3101 -2.71615 0.0465225 1
15.1181 -27.0507 -2.71116 0.0333321 1
34.5548 -61.8286 -1.23633 0.239657 10
34.5715 -61.8585 1.23693 0.269008 10
34.5533 -61.8259 3.71185 0.288227 10
8.17249 -14.6229 1.46558 0.690056 10
8.17231 -14.6226 2.05681 0.687544 10
8.17212 -14.6223 2.65309 0.684194 10
8.17194 -14.622 3.25599 0.680011 10
8.17176 -14.6216 3.86709 0.674999 10
34.4937 -61.7193 18.9451 0.302455 10
4.64202 -8.23825 -2.53374 0.0903387 4
5.78772 -10.2715 -2.72192 0.0856908 1
6.871 -12.1941 -2.72067 0.0727184 1
8.42701 -14.9555 -2.71888 0.0596574 1
10.8591 -19.2718 -2.71607 0.0465237 1
15.2119 -26.9968 -2.71106 0.0333333 1
34.7391 -61.6519 -1.23522 0.450067 10
34.7796 -61.7239 1.23666 0.185901 10
34.7613 -61.6914 3.71104 0.288291 10
8.22167 -14.5911 1.46526 0.690208 10
8.22149 -14.5908 2.05636 0.687695 10
8.22131 -14.5905 2.65251 0.684345 10
8.22113 -14.5902 3.25527 0.68016 10
8.22094 -14.5898 3.86624 0.675147 10
8.64902 -15.3495 4.72088 0.179267 10
4.67069 -8.2219 -2.53371 0.0705967 4
5.82346 -10.2511 -2.72188 0.085692 1
6.91341 -12.1698 -2.72063 0.0727196 1
8.47899 -14.9257 -2.71882 0.0596586 1
10.926 -19.2333 -2.716 0.0465249 1
15.3055 -26.9425 -2.71096 0.0333346 1
34.9707 -61.5596 -1.23581 0.494197 10
