VERSION 0.7
FIELDS x y z intensity label
SIZE 4 4 4 4 4
TYPE F F F F F
COUNT 1 1 1 1 1
WIDTH 1279
HEIGHT 1
VIEWPOINT 4.56601 17.8806 2.72734 0.878892 -0.00111143 0.000445541 0.477019
POINTS 1279
DATA ascii
12.1894 5.73592 -2.61861 0.0075715 4
14.9198 7.0207 -2.61161 0.0347818 4
19.1654 9.01854 -2.60073 0.0569976 4
48.3952 22.773 4.67938 0.0929859 10
48.3911 22.7711 6.56664 0.0926387 10
48.3827 22.7672 10.3939 0.0916062 10
46.2122 21.7458 11.7911 0.152833 10
8.8567 4.20547 -2.62709 0.0216784 4
10.2651 4.87421 -2.62347 0.0246328 4
12.1692 5.77837 -2.61858 0.0182609 4
14.895 7.07265 -2.61158 0.0329516 4
19.1335 9.08523 -2.60069 0.013462 4
48.2925 22.931 4.67716 0.090621 10
48.2884 22.929 6.56354 0.0902824 10
48.2801 22.9251 10.389 0.0892758 10
46.1365 21.9072 11.7912 0.152831 10
8.8419 4.23633 -2.62707 0.0445616 4
10.2479 4.90997 -2.62345 0.0351151 4
12.1489 5.82075 -2.61855 0.0155887 4
14.87 7.12451 -2.61154 0.0153776 4
19.1013 9.15182 -2.60065 0.0229144 4
48.19 23.0888 4.67501 0.0882549 10
48.1859 23.0868 6.56051 0.087925 10
48.1776 23.0829 10.3842 0.0869444 10
46.0601 22.0683 11.7913 0.15283 10
8.82699 4.26713 -2.62705 0.0150547 4
10.2306 4.94567 -2.62343 0.018868 4
12.1283 5.86306 -2.61853 0.00623554 4
14.8449 7.17628 -2.61151 0.0223344 4
19.0689 9.21828 -2.6006 0.0252062 4
48.0835 23.2444 6.55758 0.0855668 10
45.9832 22.2291 11.7914 0.152829 10
8.81198 4.29789 -2.62703 0.0451644 4
10.2132 4.98131 -2.62341 0.0199164 4
12.1077 5.9053 -2.6185 0.0218246 4
14.8195 7.22796 -2.61148 0.00878743 4
45.0221 21.9588 4.38246 0.411674 10
45.0178 21.9566 6.14989 0.410189 10
45.0089 21.9523 9.73398 0.405723 10
45.0044 21.9501 11.56 0.402746 10
8.79686 4.32859 -2.62701 0.030712 4
10.1957 5.01688 -2.62338 0.0309231 4
12.0869 5.94747 -2.61847 0.0365232 4
14.794 7.27956 -2.61145 0.0153782 4
19.0035 9.35089 -2.60052 0.0346596 4
44.8743 22.0809 4.37554 0.197834 10
44.8703 22.0789 6.14024 0.197113 10
8.78163 4.35924 -2.627 0.0764795 4
10.178 5.0524 -2.62336 0.0131031 4
12.0659 5.98957 -2.61845 0.0111352 4
14.7683 7.33107 -2.61142 0.0186737 4
44.8206 22.2491 4.37785 0.271403 10
44.8173 22.2475 6.14357 0.270443 10
44.8106 22.2441 9.72443 0.267537 10
44.8071 22.2424 11.549 0.265594 10
8.7663 4.38983 -2.62698 0.0240882 4
10.1602 5.08786 -2.62334 0.0172963 4
12.0448 6.03159 -2.61842 0.0102445 4
18.9372 9.48304 -2.60044 0.0249213 4
26.3787 13.2095 -2.58103 0.0357071 4
44.8752 22.4718 4.39082 0.612433 10
44.8732 22.4708 6.16195 0.610246 10
44.8692 22.4688 9.75412 0.603646 10
44.8672 22.4678 11.5846 0.59924 10
8.75086 4.42038 -2.62696 0.0475745 4
10.1423 5.12325 -2.62332 0.015724 4
12.0236 6.07354 -2.6184 0.0387514 4
14.7165 7.43382 -2.61136 0.00878785 4
18.9037 9.54894 -2.6004 0.0191926 4
45.5902 23.0293 11.7919 0.152822 10
8.73532 4.45087 -2.62694 0.0120443 4
10.1243 5.15858 -2.6233 0.0152 4
12.0022 6.11542 -2.61837 0.0142535 4
14.6903 7.48506 -2.61132 0.0278285 4
43.5904 22.2104 -2.56393 0.172313 10
43.5871 22.2087 -0.853883 0.17255 10
43.5837 22.207 0.853817 0.172576 10
45.5099 23.1884 11.792 0.152821 10
8.71967 4.4813 -2.62692 0.0301109 4
10.1061 5.19385 -2.62328 0.00628969 4
11.9807 6.15722 -2.61835 0.0645868 4
18.836 9.6804 -2.60033 0.0180473 4
43.5524 22.3829 -2.56627 0.174628 10
43.549 22.3812 -0.854663 0.174867 10
43.5457 22.3794 0.854597 0.174893 10
42.6621 21.9253 2.51381 0.0746736 10
45.429 23.3473 11.7921 0.15282 10
8.70392 4.51168 -2.62691 0.0156578 4
10.0879 5.22905 -2.62326 0.0267314 4
11.959 6.19894 -2.61833 0.0191535 4
14.6373 7.58726 -2.61127 0.0574891 4
43.5143 22.5557 -2.56865 0.17694 10
43.5109 22.5539 -0.855455 0.177182 10
43.5076 22.5522 0.855389 0.177208 10
42.6247 22.0945 2.51614 0.0756646 10
45.3476 23.506 11.7922 0.152819 10
8.68806 4.54201 -2.62689 0.0283046 4
10.0695 5.2642 -2.62324 0.0450768 4
11.9372 6.24059 -2.6183 0.0316258 4
14.6106 7.63822 -2.61124 0.0150132 4
18.7675 9.81138 -2.60025 0.0226314 4
43.485 22.7334 -2.57159 0.272257 10
43.4817 22.7317 -0.856436 0.272622 10
43.4785 22.73 0.856371 0.272656 10
42.5872 22.264 2.51849 0.0766547 10
45.2656 23.6643 11.7923 0.152817 10
8.6721 4.57228 -2.62687 0.0313159 4
10.051 5.29927 -2.62322 0.0251593 4
11.9152 6.28217 -2.61828 0.0195993 4
14.5837 7.68909 -2.61121 0.0318577 4
43.4713 22.9198 -2.5755 0.274451 10
43.4681 22.9181 -0.857737 0.274819 10
43.4648 22.9164 0.857673 0.274852 10
42.5496 22.4338 2.52089 0.077644 10
45.1831 23.8223 11.7924 0.152816 10
8.65603 4.60249 -2.62686 0.0156581 4
10.0323 5.33429 -2.6232 0.0152006 4
11.8931 6.32367 -2.61826 0.0587984 4
14.5566 7.73987 -2.61118 0.0216049 4
18.698 9.94189 -2.60018 0.0286481 4
43.4576 23.1068 -2.57945 0.276641 10
43.4544 23.1051 -0.859053 0.277012 10
43.4511 23.1034 0.858989 0.277045 10
42.5237 22.6102 2.52401 0.117936 10
45.1 23.9801 11.7925 0.152815 10
8.63986 4.63265 -2.62684 0.0415543 4
10.0136 5.36924 -2.62318 0.0152007 4
14.5293 7.79056 -2.61115 0.00915471 4
43.4505 23.298 -2.58384 0.331069 10
43.4473 23.2963 -0.860517 0.33151 10
43.4442 23.2946 0.860453 0.331547 10
42.5098 22.7936 2.5279 0.118874 10
45.0163 24.1375 11.7926 0.152814 10
8.62358 4.66275 -2.62682 0.0271008 4
9.99471 5.40412 -2.62316 0.0146766 4
11.8485 6.40644 -2.61821 0.0432086 4
14.5019 7.84115 -2.61113 0.0153801 4
18.6276 10.0719 -2.60011 0.0197677 4
43.4529 23.4949 -2.58884 0.333162 10
43.4497 23.4932 -0.862183 0.333605 10
43.4466 23.4915 0.862119 0.333643 10
42.4959 22.9774 2.53182 0.119811 10
44.9321 24.2947 11.7927 0.152813 10
8.6072 4.6928 -2.62681 0.0114426 4
9.97572 5.43894 -2.62314 0.0204426 4
11.8259 6.4477 -2.61819 0.018709 4
14.4743 7.89164 -2.6111 0.0128169 4
18.5921 10.1367 -2.60008 0.0275032 4
43.4553 23.6926 -2.59389 0.33525 10
43.4521 23.6909 -0.863866 0.335697 10
43.4489 23.6891 0.863802 0.335734 10
42.4819 23.1619 2.53579 0.120746 10
44.8474 24.4516 11.7927 0.152812 10
8.59072 4.72279 -2.62679 0.0210787 4
9.9566 5.47369 -2.62313 0.0513688 4
11.8033 6.48889 -2.61817 0.00980005 4
14.4465 7.94204 -2.61108 0.025634 4
18.5564 10.2015 -2.60005 0.0163303 4
43.4575 23.8909 -2.59899 0.336477 10
43.4543 23.8892 -0.865562 0.336924 10
43.4511 23.8874 0.865498 0.336961 10
42.4824 23.3549 2.54067 0.144209 10
44.7621 24.6082 11.7928 0.152811 10
8.57413 4.75272 -2.62678 0.0325216 4
9.93737 5.50837 -2.62311 0.0152011 4
11.7804 6.53 -2.61815 0.0267276 4
14.4186 7.99234 -2.61105 0.021606 4
18.5204 10.266 -2.60001 0.013752 4
43.4596 24.09 -2.60413 0.338559 10
43.4564 24.0883 -0.867274 0.339009 10
43.4532 24.0865 0.867209 0.339046 10
42.4844 23.5495 2.54569 0.145101 10
44.6762 24.7644 11.7929 0.15281 10
8.55744 4.78259 -2.62676 0.0295105 4
9.91802 5.54299 -2.62309 0.00681432 4
11.7575 6.57103 -2.61813 0.0320734 4
18.4843 10.3305 -2.59998 0.0200552 4
43.4604 24.2892 -2.60924 0.299095 10
43.4571 24.2874 -0.868975 0.299494 10
43.4539 24.2855 0.868909 0.299528 10
42.4864 23.7449 2.55077 0.146311 10
44.5898 24.9204 11.793 0.152809 10
8.54064 4.8124 -2.62675 0.0102384 4
9.89854 5.57754 -2.62307 0.0193947 4
11.7344 6.61198 -2.61811 0.0761749 4
14.3621 8.09265 -2.611 0.013916 4
43.4459 24.4805 -0.870454 0.301647 10
43.4427 24.4787 0.870388 0.301681 10
42.4887 23.9412 2.55591 0.147199 10
44.5028 25.076 11.7931 0.152808 10
8.52375 4.84216 -2.62673 0.0608284 4
9.87895 5.61202 -2.62306 0.0304027 4
11.7111 6.65285 -2.61809 0.0347467 4
14.3337 8.14266 -2.61098 0.0270998 4
43.4347 24.6743 -0.871949 0.303796 10
43.4314 24.6725 0.871883 0.30383 10
42.4911 24.1383 2.5611 0.148085 10
44.4153 25.2314 11.7931 0.152807 10
8.50675 4.87186 -2.62672 0.0084317 4
9.85924 5.64644 -2.62304 0.025161 4
11.6878 6.69364 -2.61807 0.0209373 4
14.305 8.19257 -2.61095 0.0208743 4
43.4064 24.8591 -0.873117 0.24602 10
43.403 24.8571 0.87305 0.24605 10
42.487 24.3325 2.56596 0.131396 10
44.3272 25.3864 11.7932 0.152806 10
8.48965 4.9015 -2.62671 0.0505905 4
9.83941 5.68079 -2.62303 0.0330241 4
11.6642 6.73435 -2.61805 0.0245012 4
14.2762 8.24238 -2.61093 0.0153812 4
43.3778 25.0442 -0.874295 0.248255 10
43.3744 25.0422 0.874227 0.248284 10
42.4762 24.5236 2.57046 0.132312 10
44.2386 25.5412 11.7933 0.152805 10
8.47244 4.93108 -2.62669 0.00722725 4
9.81946 5.71506 -2.62301 0.0115323 4
11.6406 6.77498 -2.61803 0.0138099 4
14.2472 8.29209 -2.61091 0.019776 4
43.338 25.2233 -0.875262 0.178435 10
43.3345 25.2213 0.875193 0.178459 10
42.4524 24.7079 2.57422 0.107528 10
44.1495 25.6956 11.7934 0.152804 10
8.45513 4.9606 -2.62668 0.0301137 4
9.7994 5.74927 -2.62299 0.0518956 4
11.6168 6.81552 -2.61801 0.0102461 4
14.2181 8.3417 -2.61089 0.0102543 4
18.2626 10.7146 -2.5998 0.01318 4
43.2906 25.3984 -0.876091 0.180747 10
43.2872 25.3965 0.876022 0.180771 10
42.4244 24.8903 2.57778 0.108482 10
44.0598 25.8497 11.7934 0.152803 10
8.43773 4.99006 -2.62667 0.0355343 4
9.77921 5.78341 -2.62298 0.0319763 4
11.5928 6.85598 -2.618 0.0191559 4
14.1888 8.39122 -2.61086 0.0600616 4
43.2432 25.5739 -0.876933 0.183056 10
43.2398 25.5719 0.876862 0.18308 10
42.3804 25.0637 2.5804 0.0783591 10
43.9695 26.0035 11.7935 0.152802 10
8.42021 5.01945 -2.62665 0.0385459 4
9.75891 5.81747 -2.62297 0.0199197 4
11.5688 6.89636 -2.61798 0.0151466 4
18.187 10.8416 -2.59975 0.0252145 4
43.1814 25.7413 -0.877496 0.111764 10
43.1779 25.7392 0.877425 0.111782 10
42.3338 25.236 2.58291 0.0793466 10
43.8787 26.157 11.7936 0.152801 10
8.4026 5.04879 -2.62664 0.0204776 4
9.73849 5.85147 -2.62295 0.0429849 4
11.5445 6.93666 -2.61796 0.0343029 4
14.1296 8.48993 -2.61082 0.0230728 4
43.1164 25.9069 -0.878007 0.114127 10
43.1129 25.9048 0.877936 0.114145 10
43.7874 26.3101 11.7936 0.1528 10
8.38489 5.07807 -2.62663 0.0150571 4
9.71795 5.8854 -2.62294 0.0172989 4
11.5202 6.97687 -2.61795 0.0124739 4
14.0998 8.53913 -2.6108 0.0131846 4
43.0513 26.0728 -0.87853 0.116488 10
43.0478 26.0707 0.878459 0.116506 10
43.6955 26.463 11.7937 0.152799 10
8.36707 5.10728 -2.62662 0.0331258 4
9.6973 5.91926 -2.62292 0.0251622 4
11.4957 7.017 -2.61793 0.0227204 4
14.0698 8.58823 -2.61078 0.0223407 4
18.0719 11.0311 -2.59967 0.0214903 4
43.6031 26.6155 11.7938 0.152799 10
8.34916 5.13644 -2.62661 0.0265008 4
9.67653 5.95304 -2.62291 0.0288318 4
11.4711 7.05704 -2.61791 0.037422 4
14.0396 8.63723 -2.61076 0.0190446 4
43.5102 26.7676 11.7938 0.152798 10
8.33114 5.16553 -2.62659 0.0409559 4
9.65564 5.98675 -2.6229 0.0162507 4
14.0093 8.68612 -2.61074 0.0406533 4
43.4167 26.9195 11.7939 0.152797 10
8.31303 5.19455 -2.62658 0.0240918 4
9.63464 6.02039 -2.62288 0.0104844 4
11.4214 7.13687 -2.61788 0.036086 4
13.9788 8.73491 -2.61073 0.0146499 4
17.9549 11.2195 -2.5996 0.0183389 4
43.3227 27.071 11.7939 0.152796 10
8.29481 5.22352 -2.62657 0.0150575 4
9.61352 6.05396 -2.62287 0.02359 4
11.3963 7.17665 -2.61787 0.0231664 4
13.9481 8.78359 -2.61071 0.0164813 4
43.2281 27.2222 11.794 0.152796 10
8.27649 5.25242 -2.62656 0.0650485 4
9.59229 6.08745 -2.62286 0.0435107 4
11.3712 7.21635 -2.61785 0.0115833 4
13.9173 8.83217 -2.61069 0.00842383 4
17.8758 11.3443 -2.59955 0.0189123 4
43.1331 27.3731 11.7941 0.152795 10
8.25808 5.28126 -2.62655 0.0415589 4
9.57094 6.12087 -2.62285 0.0901671 4
11.3458 7.25596 -2.61784 0.017375 4
13.8863 8.88063 -2.61067 0.015749 4
17.836 11.4066 -2.59953 0.0163335 4
43.0374 27.5236 11.7941 0.152794 10
8.23956 5.31003 -2.62654 0.0246945 4
9.54947 6.15421 -2.62284 0.0157269 4
11.3204 7.29548 -2.61783 0.0160385 4
13.8551 8.929 -2.61066 0.0205105 4
42.9413 27.6738 11.7942 0.152793 10
8.22095 5.33874 -2.62653 0.0271038 4
9.52789 6.18748 -2.62283 0.0230662 4
11.2948 7.33492 -2.61781 0.0262855 4
13.8238 8.97725 -2.61064 0.00915651 4
17.7556 11.5306 -2.59949 0.0229246 4
42.8446 27.8236 11.7942 0.152793 10
8.20223 5.36739 -2.62652 0.0481848 4
9.50619 6.22068 -2.62281 0.0429872 4
11.2691 7.37426 -2.6178 0.0325229 4
13.7923 9.0254 -2.61063 0.0109879 4
42.7474 27.9731 11.7943 0.152792 10
8.18342 5.39597 -2.62651 0.0126485 4
9.48438 6.2538 -2.6228 0.0188725 4
11.2432 7.41352 -2.61779 0.0115836 4
13.7606 9.07343 -2.61061 0.0234409 4
42.6497 28.1223 11.7943 0.152792 10
8.1645 5.42448 -2.62651 0.0656522 4
9.46246 6.28684 -2.62279 0.0387936 4
11.2172 7.45269 -2.61778 0.0240583 4
13.7288 9.12136 -2.6106 0.0087904 4
42.5514 28.2711 11.7944 0.152791 10
8.14549 5.45293 -2.6265 0.0397528 4
9.44042 6.31981 -2.62278 0.00681512 4
11.1911 7.49176 -2.61777 0.0387607 4
13.6968 9.16918 -2.61058 0.0282027 4
42.4526 28.4196 11.7944 0.15279 10
8.12638 5.48131 -2.62649 0.0186718 4
9.41827 6.3527 -2.62278 0.0173 4
11.1648 7.53075 -2.61775 0.023613 4
13.6646 9.21689 -2.61057 0.0124532 4
17.551 11.8383 -2.5994 0.0169075 4
42.3533 28.5677 11.7944 0.15279 10
8.10718 5.50963 -2.62648 0.0481855 4
9.39601 6.38552 -2.62277 0.0173 4
11.1384 7.56964 -2.61774 0.0280684 4
13.6323 9.26448 -2.61056 0.0205113 4
8.08787 5.53788 -2.62647 0.0240928 4
9.37363 6.41825 -2.62276 0.00891217 4
11.1119 7.60845 -2.61773 0.0258408 4
13.5998 9.31196 -2.61054 0.0325984 4
8.06847 5.56606 -2.62647 0.0481858 4
9.35114 6.45091 -2.62275 0.0503277 4
11.0852 7.64716 -2.61772 0.0285141 4
13.5671 9.35933 -2.61053 0.017215 4
8.04897 5.59418 -2.62646 0.0216837 4
9.32853 6.4835 -2.62274 0.0230669 4
11.0584 7.68578 -2.61771 0.0236133 4
13.5343 9.4066 -2.61052 0.0252732 4
17.3836 12.0819 -2.59933 0.0343889 4
8.02937 5.62223 -2.62645 0.0584256 4
9.30581 6.516 -2.62273 0.025164 4
11.0315 7.72431 -2.6177 0.00579197 4
13.5013 9.45374 -2.61051 0.0201454 4
8.00968 5.65021 -2.62645 0.0228884 4
9.28299 6.54843 -2.62273 0.0225428 4
11.0044 7.76274 -2.6177 0.0102474 4
13.4682 9.50077 -2.6105 0.039192 4
17.2987 12.2029 -2.5993 0.0140423 4
7.98989 5.67812 -2.62644 0.038549 4
9.26005 6.58077 -2.62272 0.0319794 4
10.9772 7.80108 -2.61769 0.0227225 4
13.4349 9.54769 -2.61049 0.0245409 4
17.2559 12.2631 -2.59929 0.0160484 4
7.97 5.70596 -2.62643 0.0289118 4
9.23699 6.61304 -2.62271 0.0241157 4
10.9499 7.83933 -2.61768 0.0218315 4
13.4014 9.59449 -2.61048 0.0186805 4
17.2129 12.3232 -2.59928 0.0134693 4
7.95002 5.73373 -2.62643 0.0337305 4
9.21383 6.64523 -2.6227 0.0351251 4
10.9224 7.87748 -2.61767 0.021386 4
13.3678 9.64118 -2.61047 0.0146514 4
17.1697 12.3832 -2.59927 0.0189144 4
24.0806 17.3675 -2.59755 0.0286123 4
7.92994 5.76144 -2.62642 0.0222863 4
9.19056 6.67733 -2.6227 0.018349 4
10.8948 7.91553 -2.61766 0.0209405 4
13.334 9.68775 -2.61046 0.017948 4
17.1263 12.443 -2.59926 0.0593226 4
24.2156 17.5936 -2.61872 0.0312766 4
7.90976 5.78907 -2.62642 0.0367423 4
9.16718 6.70935 -2.62269 0.0492803 4
10.8671 7.95349 -2.61766 0.0102475 4
13.3001 9.7342 -2.61045 0.0329659 4
17.0827 12.5026 -2.59924 0.0555973 4
24.2902 17.7777 -2.63348 0.0298844 4
7.88949 5.81664 -2.62641 0.0403564 4
9.14368 6.7413 -2.62269 0.0288343 4
10.8392 7.99136 -2.61765 0.0285149 4
13.266 9.78054 -2.61044 0.0219773 4
17.0389 12.5621 -2.59923 0.0590365 4
24.2312 17.8648 -2.63383 0.0294334 4
7.86913 5.84413 -2.62641 0.0445728 4
9.12007 6.77316 -2.62268 0.0199219 4
10.8112 8.02913 -2.61764 0.0392081 4
13.2317 9.82676 -2.61043 0.00805837 4
16.9948 12.6215 -2.59923 0.0260793 4
24.1721 17.9518 -2.63421 0.0309582 4
7.84867 5.87155 -2.6264 0.0415612 4
9.09636 6.80494 -2.62268 0.0335527 4
10.7831 8.0668 -2.61764 0.0249506 4
13.1973 9.87286 -2.61043 0.0725255 4
17.0231 12.7349 -2.61033 0.0941429 4
7.82811 5.89891 -2.6264 0.0216842 4
9.07253 6.83664 -2.62267 0.0209705 4
10.7549 8.10437 -2.61763 0.0196041 4
13.1627 9.91884 -2.61042 0.075456 4
17.0773 12.8687 -2.62552 0.0800805 4
24.0536 18.1257 -2.63502 0.0285174 4
7.80746 5.92619 -2.6264 0.0638479 4
9.0486 6.86826 -2.62267 0.0639601 4
10.7265 8.14185 -2.61763 0.0249507 4
13.128 9.96471 -2.61041 0.0754562 4
17.1319 13.0039 -2.64088 0.0913063 4
7.78672 5.95339 -2.62639 0.0505965 4
9.02456 6.89979 -2.62266 0.0262132 4
10.698 8.17923 -2.61762 0.0253963 4
13.0931 10.0104 -2.61041 0.0750901 4
17.187 13.1404 -2.65642 0.0358146 4
7.76588 5.98053 -2.62639 0.0379474 4
9.00041 6.93124 -2.62266 0.0487566 4
10.6694 8.21651 -2.61762 0.0115843 4
13.0581 10.0561 -2.6104 0.0238091 4
17.2425 13.2785 -2.67214 0.0821495 4
22.3662 17.2243 -2.46979 0.0256107 4
7.74495 6.0076 -2.62639 0.00361404 4
8.97614 6.96261 -2.62266 0.00838824 4
10.6406 8.25369 -2.61762 0.0828725 4
13.0557 10.127 -2.61697 0.0980606 4
17.2125 13.3514 -2.67471 0.047213 1
23.2365 18.0241 -2.57283 0.220211 4
7.72393 6.03459 -2.62638 0.0210819 4
8.95178 6.99389 -2.62265 0.0246405 4
10.6117 8.29077 -2.61761 0.0770805 4
13.079 10.2184 -2.62878 0.0949324 4
17.1658 13.4114 -2.6747 0.0472131 1
23.18 18.1102 -2.57355 0.261306 4
7.70281 6.06151 -2.62638 0.0463803 4
8.9273 7.02509 -2.62265 0.0487568 4
10.5827 8.32775 -2.61761 0.0837638 4
13.1023 10.3105 -2.64069 0.106587 4
17.1188 13.4712 -2.67469 0.0472132 1
23.1234 18.1963 -2.5743 0.221858 4
7.6816 6.08836 -2.62638 0.0126492 4
8.90272 7.0562 -2.62265 0.0251648 4
10.5535 8.36463 -2.61761 0.0864372 4
13.1257 10.4033 -2.6527 0.0925666 4
17.0717 13.5308 -2.67469 0.0472132 1
23.0667 18.2825 -2.57509 0.225359 4
7.66029 6.11513 -2.62638 0.0722811 4
8.87802 7.08723 -2.62265 0.100135 4
10.5243 8.40141 -2.6176 0.0120299 4
13.1491 10.4968 -2.66482 0.101883 4
16.9389 13.5221 -2.66126 0.242239 4
23.0101 18.3687 -2.5759 0.289643 4
7.6389 6.14183 -2.62638 0.0572226 4
8.85322 7.11817 -2.62265 0.107475 4
10.5071 8.44789 -2.62064 0.0946705 4
13.1725 10.591 -2.67705 0.102641 4
16.4796 13.25 -2.59636 0.244221 4
22.9533 18.4549 -2.57674 0.271664 4
7.61741 6.16845 -2.62638 0.019275 4
8.82832 7.14903 -2.62265 0.102756 4
10.516 8.51567 -2.63026 0.112561 4
13.1806 10.6734 -2.68623 0.0603437 1
16.0422 12.9907 -2.53457 0.231716 4
22.8965 18.5412 -2.57762 0.219749 4
7.59583 6.195 -2.62638 0.0530062 4
8.80331 7.1798 -2.62264 0.103805 4
10.5248 8.58384 -2.63996 0.111689 4
13.1432 10.7193 -2.68623 0.0603437 1
15.7079 12.8111 -2.48881 0.038117 4
7.57415 6.22148 -2.62638 0.12348 4
8.77819 7.21048 -2.62264 0.101708 4
10.5336 8.6524 -2.64972 0.117635 4
13.1057 10.7651 -2.68623 0.0603437 1
15.6631 12.8658 -2.48881 0.0372572 4
21.8137 17.918 -2.46975 0.0254046 4
7.55239 6.24788 -2.62637 0.115048 4
8.75297 7.24108 -2.62264 0.0120582 4
10.5423 8.72135 -2.65955 0.115907 4
13.068 10.8108 -2.68623 0.0603438 1
16.3105 13.4932 -2.59915 0.0438489 4
21.7511 17.994 -2.46975 0.027057 4
7.53054 6.2742 -2.62638 0.098182 4
8.72764 7.27159 -2.62264 0.00733975 4
10.5509 8.79069 -2.66945 0.116736 4
13.0302 10.8564 -2.68623 0.0603438 1
16.2633 13.5501 -2.59915 0.0369706 4
21.6881 18.0699 -2.46975 0.0260243 4
7.50859 6.30045 -2.62638 0.122878 4
8.72885 7.32438 -2.63068 0.127814 4
10.5595 8.86044 -2.67942 0.0885993 4
12.9923 10.9018 -2.68623 0.0603437 1
16.2159 13.6068 -2.59915 0.0547394 4
21.6249 18.1455 -2.46975 0.0289158 4
7.48655 6.32663 -2.62638 0.102398 4
8.73018 7.37757 -2.63882 0.130567 4
10.5679 8.93058 -2.68946 0.0792115 4
12.8827 10.8867 -2.67141 0.267662 4
16.1684 13.6633 -2.59916 0.0243605 4
21.5615 18.2208 -2.46975 0.0233392 4
7.46443 6.35272 -2.62638 0.124685 4
8.73139 7.43099 -2.64701 0.10647 4
10.5532 8.98144 -2.69366 0.0734005 1
12.6003 10.7237 -2.6206 0.259429 4
38.6728 32.9131 -0.886412 0.0881593 10
38.6696 32.9104 0.886337 0.088166 10
38.6631 32.9048 4.44177 0.0752732 10
38.6598 32.9021 6.23321 0.0750032 10
7.44221 6.37874 -2.62638 0.11324 4
8.73249 7.48465 -2.65525 0.132366 4
10.5218 9.01823 -2.69366 0.0734004 1
12.3284 10.5667 -2.5717 0.297793 4
16.0726 13.7759 -2.59916 0.0475745 4
21.4338 18.371 -2.46975 0.0264372 4
38.5754 33.0631 -0.886818 0.0905342 10
38.5721 33.0603 0.886743 0.0905409 10
38.5657 33.0548 4.44381 0.0773005 10
38.5624 33.052 6.23606 0.0770231 10
38.5591 33.0491 8.04345 0.0766518 10
7.4199 6.40469 -2.62638 0.0277077 4
8.73348 7.53854 -2.66354 0.0953205 4
10.4902 9.05491 -2.69367 0.0734003 1
12.0664 10.4154 -2.52462 0.180207 4
16.0244 13.8319 -2.59916 0.0192017 4
21.3696 18.4457 -2.46976 0.0326334 4
38.4778 33.2132 -0.887236 0.092908 10
38.4746 33.2104 0.887161 0.0929147 10
38.4681 33.2048 4.4459 0.0793268 10
38.4649 33.202 6.239 0.079042 10
38.4616 33.1991 8.04723 0.0786609 10
38.4583 33.1963 9.87527 0.0781839 10
7.40867 6.44026 -2.63034 0.143768 4
8.73436 7.59266 -2.67187 0.0953 4
10.4586 9.09148 -2.69367 0.0734003 1
11.9106 10.3537 -2.49957 0.0512814 4
15.9761 13.8878 -2.59917 0.0538794 4
21.3051 18.5202 -2.46976 0.0270568 4
38.3802 33.3634 -0.887664 0.0952807 10
38.377 33.3606 0.887589 0.0952873 10
38.3705 33.355 4.44805 0.0813522 10
38.3673 33.3522 6.24202 0.08106 10
38.364 33.3493 8.05112 0.080669 10
38.3607 33.3464 9.88004 0.0801797 10
38.3573 33.3435 11.7336 0.0795927 10
7.40579 6.48327 -2.63734 0.151725 4
8.73513 7.64702 -2.68025 0.12118 4
10.4268 9.12794 -2.69367 0.0734002 1
11.8744 10.3952 -2.49957 0.0417577 4
15.8581 13.8827 -2.58784 0.212302 4
21.2404 18.5945 -2.46977 0.026024 4
38.2825 33.5138 -0.888105 0.097652 10
38.2793 33.511 0.888029 0.0976587 10
38.2728 33.5053 4.45025 0.0833765 10
38.2696 33.5025 6.24511 0.0830769 10
38.2663 33.4996 8.05511 0.082676 10
38.263 33.4967 9.88493 0.0821744 10
38.2597 33.4938 11.7394 0.0815727 10
38.2562 33.4908 13.6238 0.0808716 10
7.4028 6.52644 -2.64437 0.154687 4
8.73578 7.70162 -2.68869 0.143349 4
10.3949 9.16429 -2.69367 0.0734001 1
11.838 10.4366 -2.49957 0.0487172 4
15.5713 13.7279 -2.54884 0.213909 4
38.1847 33.6643 -0.888556 0.100022 10
38.1814 33.6615 0.888481 0.100029 10
38.175 33.6558 4.45252 0.0853999 10
38.1718 33.6529 6.24828 0.0850928 10
38.1685 33.6501 8.05921 0.0846821 10
38.1652 33.6472 9.88996 0.0841682 10
38.1619 33.6442 11.7454 0.0835518 10
38.1585 33.6412 13.6307 0.0828335 10
7.39969 6.56975 -2.65144 0.12971 4
8.73631 7.75646 -2.69717 0.0970847 4
10.3628 9.20054 -2.69368 0.0734 1
12.3248 10.9424 -2.6104 0.0571419 4
15.2929 13.5777 -2.51101 0.21034 4
21.1102 18.7425 -2.46978 0.0251977 4
38.0867 33.815 -0.889019 0.102391 10
38.0835 33.8121 0.888943 0.102398 10
38.0771 33.8064 4.45483 0.0874223 10
38.0739 33.8036 6.25153 0.0871078 10
38.0706 33.8007 8.0634 0.0866872 10
38.0673 33.7978 9.8951 0.086161 10
38.064 33.7948 11.7515 0.0855298 10
38.0606 33.7918 13.6378 0.0847944 10
7.39646 6.6132 -2.65854 0.0857897 4
8.71468 7.79182 -2.69887 0.0863672 1
10.2894 9.1998 -2.68293 0.259513 4
12.2865 10.9854 -2.61041 0.0369956 4
15.1108 13.5106 -2.48884 0.0421288 4
21.0447 18.8161 -2.46979 0.0249911 4
37.9887 33.9658 -0.889493 0.104759 10
37.9855 33.963 0.889417 0.104766 10
37.9791 33.9572 4.45721 0.0894435 10
37.9759 33.9544 6.25487 0.0891217 10
37.9726 33.9515 8.0677 0.0886912 10
37.9694 33.9485 9.90038 0.0881527 10
37.966 33.9455 11.7578 0.0875068 10
37.9626 33.9425 13.645 0.0867542 10
7.39312 6.6568 -2.66567 0.121675 4
8.68744 7.82221 -2.69887 0.0863671 1
10.0977 9.09197 -2.64119 0.308858 4
12.2481 11.0283 -2.61041 0.0531124 4
15.0636 13.5633 -2.48885 0.038403 4
20.9789 18.8895 -2.4698 0.0258171 4
37.8906 34.1168 -0.889978 0.107126 10
37.8874 34.114 0.889903 0.107132 10
37.881 34.1082 4.45964 0.0914637 10
37.8778 34.1053 6.25828 0.0911345 10
37.8745 34.1024 8.0721 0.0906941 10
37.8713 34.0994 9.90578 0.0901433 10
37.8679 34.0964 11.7642 0.0894827 10
37.8646 34.0934 13.6525 0.088713 10
7.38966 6.70053 -2.67284 0.126632 4
8.6601 7.8525 -2.69888 0.086367 1
9.91173 8.98741 -2.60075 0.273057 4
12.2096 11.071 -2.61042 0.0362629 4
15.0162 13.6158 -2.48885 0.0326711 4
20.913 18.9627 -2.46981 0.025817 4
37.7923 34.268 -0.890475 0.109491 10
37.7892 34.2651 0.890399 0.109498 10
37.7828 34.2593 4.46213 0.0934828 10
37.7796 34.2564 6.26177 0.0931461 10
37.7763 34.2535 8.0766 0.092696 10
37.7731 34.2505 9.9113 0.0921329 10
37.7697 34.2475 11.7708 0.0914575 10
37.7664 34.2444 13.6601 0.0906708 10
7.38608 6.74442 -2.68005 0.129593 4
8.63265 7.88269 -2.69888 0.0863669 1
9.73137 8.88597 -2.56155 0.195769 4
12.1709 11.1136 -2.61042 0.0355302 4
14.9686 13.6682 -2.48886 0.0358235 4
37.6997 34.4246 -0.891119 0.144933 10
37.6965 34.4217 0.891043 0.144942 10
39.66 36.2146 4.69873 0.111466 10
39.6566 36.2115 6.59379 0.111065 10
39.6498 36.2052 10.4368 0.109856 10
37.7272 34.4497 11.7949 0.152784 10
7.38238 6.78845 -2.68729 0.152485 4
8.60509 7.91279 -2.69889 0.0863667 1
9.55634 8.7875 -2.52353 0.288529 4
12.1321 11.156 -2.61043 0.061903 4
14.9208 13.7204 -2.48887 0.0389758 4
20.7802 19.1084 -2.46983 0.0311867 4
37.6079 34.5823 -0.891797 0.147273 10
37.6047 34.5793 0.891721 0.147283 10
39.5564 36.374 4.70147 0.11382 10
39.553 36.3709 6.59764 0.11341 10
39.5462 36.3646 10.4429 0.112176 10
37.6067 34.5811 11.7949 0.152784 10
7.37856 6.83262 -2.69456 0.13551 4
8.57744 7.94279 -2.69889 0.0863665 1
9.46138 8.76133 -2.50652 0.0458912 4
12.0931 11.1983 -2.61044 0.0820487 4
14.8729 13.7725 -2.48888 0.0361098 4
20.7135 19.1809 -2.46984 0.0260232 4
37.516 34.7402 -0.892487 0.149612 10
37.5128 34.7372 0.892411 0.149621 10
39.4527 36.5336 4.70427 0.116173 10
39.4493 36.5304 6.60157 0.115754 10
39.4425 36.5241 10.4491 0.114494 10
7.37462 6.87694 -2.70187 0.112565 4
8.54968 7.9727 -2.6989 0.0863664 1
9.43076 8.79432 -2.50652 0.0672773 4
12.054 11.2405 -2.61044 0.0560421 4
14.8248 13.8244 -2.48889 0.0415548 4
20.6466 19.2532 -2.46986 0.0276753 4
37.4239 34.8983 -0.893189 0.151949 10
37.4208 34.8954 0.893113 0.151958 10
39.3488 36.6934 4.70713 0.118524 10
39.3455 36.6902 6.60558 0.118096 10
39.3387 36.6839 10.4555 0.11681 10
7.35292 6.90485 -2.70274 0.0992283 1
8.52181 8.00251 -2.6989 0.0863662 1
9.40003 8.82721 -2.50653 0.0494554 4
12.0147 11.2825 -2.61045 0.0461521 4
14.7765 13.8761 -2.4889 0.042701 4
20.5793 19.3253 -2.46987 0.0276752 4
37.3317 35.0568 -0.893903 0.154284 10
37.3285 35.0538 0.893826 0.154293 10
39.2448 36.8533 4.71005 0.120873 10
39.2415 36.8502 6.60968 0.120437 10
39.2347 36.8438 10.462 0.119126 10
7.32879 6.93049 -2.70274 0.0992281 1
8.48531 8.02416 -2.6962 0.247084 4
9.78458 9.25282 -2.61767 0.0552473 4
11.9753 11.3244 -2.61046 0.0549428 4
14.7281 13.9276 -2.48891 0.0381155 4
37.2345 35.2109 -0.894514 0.110418 10
37.2314 35.208 0.894438 0.110424 10
39.1374 37.0104 6.61386 0.122777 10
7.30457 6.95604 -2.70275 0.0992279 1
8.34617 7.94795 -2.66078 0.227621 4
9.75225 9.28694 -2.61767 0.0476729 4
11.8486 11.2833 -2.59143 0.170928 4
14.6794 13.979 -2.48892 0.0449932 4
20.4442 19.4687 -2.4699 0.0303597 4
37.1328 35.361 -0.895029 0.112782 10
37.1296 35.3581 0.894953 0.112787 10
39.0332 37.1708 6.61814 0.125115 10
7.28026 6.98152 -2.70275 0.0992277 1
8.21061 7.87369 -2.62631 0.229385 4
9.7198 9.32095 -2.61768 0.0748507 4
11.6715 11.1926 -2.56122 0.325021 4
14.6306 14.0302 -2.48893 0.0329567 4
20.3762 19.5401 -2.46992 0.0318052 4
37.0309 35.5113 -0.895555 0.115144 10
37.0277 35.5083 0.895479 0.11515 10
38.9288 37.3313 6.62249 0.127452 10
7.25586 7.0069 -2.70276 0.0992275 1
8.07849 7.8013 -2.59275 0.256185 4
9.68724 9.35486 -2.61769 0.075296 4
11.4984 11.1039 -2.53172 0.228669 4
14.5816 14.0813 -2.48894 0.0275115 4
20.308 19.6112 -2.46993 0.0297397 4
36.9288 35.6618 -0.896093 0.117505 10
36.9257 35.6588 0.896017 0.11751 10
38.8243 37.4922 6.62694 0.129787 10
7.23138 7.0322 -2.70277 0.0992272 1
7.94967 7.73071 -2.56005 0.236747 4
9.65456 9.38865 -2.6177 0.048118 4
11.3292 11.0172 -2.50292 0.16392 4
14.5324 14.1322 -2.48896 0.0461389 4
20.2396 19.6821 -2.46995 0.0245764 4
36.8267 35.8124 -0.896643 0.119864 10
36.8236 35.8094 0.896566 0.119869 10
38.7196 37.6532 6.63147 0.13212 10
7.2068 7.05742 -2.70277 0.099227 1
7.82403 7.66186 -2.52819 0.255801 4
9.62176 9.42232 -2.61771 0.0334152 4
11.2761 11.0424 -2.49968 0.0428546 4
14.4831 14.1829 -2.48897 0.0315233 4
20.1709 19.7528 -2.46997 0.0282936 4
38.6148 37.8144 6.63609 0.134452 10
7.18214 7.08255 -2.70278 0.0992267 1
7.74545 7.63805 -2.5114 0.0723462 4
9.58885 9.45588 -2.61772 0.0859881 4
11.2375 11.0817 -2.49969 0.0377265 4
14.4336 14.2334 -2.48898 0.0366814 4
20.102 19.8233 -2.46999 0.0276739 4
38.5099 37.9759 6.64079 0.136782 10
7.1574 7.1076 -2.70279 0.0992264 1
7.71877 7.66507 -2.5114 0.068152 4
9.55581 9.48933 -2.61773 0.0712852 4
11.1988 11.1209 -2.49971 0.0300346 4
14.3839 14.2838 -2.489 0.0412664 4
20.0328 19.8935 -2.47001 0.0291193 4
38.4048 38.1376 6.64558 0.139111 10
7.13256 7.13256 -2.70279 0.0992262 1
7.69199 7.69199 -2.51141 0.0844034 4
9.52267 9.52267 -2.61774 0.0498994 4
11.16 11.16 -2.49972 0.0501795 4
14.334 14.334 -2.48901 0.0315227 4
19.9634 19.9634 -2.47003 0.0233365 4
38.2995 38.2995 6.65047 0.141438 10
7.04944 7.09882 -2.68067 0.181808 4
7.66512 7.71882 -2.51142 0.0398425 4
9.48941 9.55589 -2.61775 0.0271773 4
11.121 11.1989 -2.49973 0.0322319 4
14.284 14.3841 -2.48903 0.0381136 4
19.8938 20.0332 -2.47005 0.0247819 4
38.1941 38.4617 6.65543 0.143763 10
6.94593 7.04359 -2.65064 0.185402 4
7.97681 8.08897 -2.62278 0.0849271 4
9.45604 9.589 -2.61776 0.0588096 4
11.0819 11.2377 -2.49974 0.0307667 4
14.2338 14.4339 -2.48905 0.0406925 4
19.8239 20.1027 -2.47007 0.0247817 4
38.0886 38.6241 6.66049 0.146086 10
6.84468 6.98956 -2.6213 0.209569 4
7.94855 8.1168 -2.62279 0.0209696 4
9.42255 9.62199 -2.61777 0.0200486 4
11.0427 11.2764 -2.49976 0.046516 4
14.1834 14.4836 -2.48906 0.0469966 4
37.9828 38.7868 6.66564 0.148408 10
6.74563 6.93668 -2.59262 0.265473 4
7.9202 8.14452 -2.6228 0.0513753 4
9.38894 9.65486 -2.61778 0.0583635 4
11.0033 11.3149 -2.49977 0.0571375 4
14.1329 14.5332 -2.48908 0.0283697 4
19.6835 20.241 -2.47012 0.0276724 4
37.8802 38.9531 4.75366 0.151275 10
37.8769 38.9497 6.67088 0.150727 10
37.8703 38.9429 10.5588 0.149083 10
37.8635 38.9359 14.5525 0.146712 10
6.6487 6.88493 -2.56459 0.2036 4
7.89176 8.17215 -2.62281 0.0938381 4
9.28967 9.61973 -2.59945 0.146081 4
10.9638 11.3533 -2.49978 0.052742 4
14.0822 14.5825 -2.4891 0.0361066 4
19.6129 20.3098 -2.47015 0.0299437 4
37.7741 39.1163 4.75746 0.153601 10
37.7709 39.1129 6.6762 0.153045 10
37.7643 39.1061 10.5673 0.151375 10
37.7575 39.099 14.5641 0.148967 10
6.55382 6.83426 -2.53718 0.257538 4
7.86321 8.19968 -2.62282 0.094362 4
9.16843 9.56075 -2.57485 0.223676 4
10.9242 11.3916 -2.4998 0.0446839 4
15.0792 15.7244 -2.67501 0.0472076 1
35.573 37.0951 -0.89711 0.131482 10
35.5701 37.0921 0.897036 0.1315 10
37.6679 39.2797 4.76132 0.155926 10
37.6647 39.2763 6.68162 0.155361 10
37.6581 39.2695 10.5758 0.153666 10
37.6513 39.2624 14.5759 0.151221 10
6.47291 6.79723 -2.51503 0.0819137 4
7.83458 8.22711 -2.62283 0.0849254 4
9.04942 9.50282 -2.55072 0.185427 4
10.8844 11.4297 -2.49981 0.0369922 4
15.0243 15.7771 -2.67503 0.0472072 1
35.4193 37.194 -0.896505 0.129131 10
35.4165 37.1909 0.896431 0.129148 10
37.5615 39.4434 4.76524 0.158248 10
37.5582 39.44 6.68712 0.157676 10
37.5517 39.4331 10.5845 0.155954 10
6.44917 6.8198 -2.51504 0.0734811 4
7.80584 8.25445 -2.62284 0.0393172 4
8.93258 9.44593 -2.52707 0.232747 4
10.8445 11.4677 -2.49983 0.0358932 4
14.9693 15.8296 -2.67505 0.0472069 1
19.3998 20.5147 -2.47023 0.0231282 4
35.2659 37.2927 -0.895911 0.126777 10
35.2631 37.2896 0.895837 0.126795 10
34.5785 36.5657 2.63748 0.0819919 10
37.4549 39.6074 4.76923 0.160569 10
37.4517 39.604 6.69272 0.159988 10
37.4451 39.5971 10.5934 0.158241 10
6.42535 6.8423 -2.51505 0.0795039 4
7.77702 8.28168 -2.62285 0.0943608 4
8.82784 9.40069 -2.50671 0.0641537 4
10.8045 11.5056 -2.49984 0.0494444 4
14.914 15.8818 -2.67507 0.0472065 1
19.3283 20.5825 -2.47026 0.0249864 4
35.1045 37.3825 -0.895119 0.188163 10
35.1017 37.3795 0.895046 0.188185 10
34.415 36.6482 2.63475 0.100034 10
37.3481 39.7717 4.77328 0.162888 10
37.3449 39.7683 6.69841 0.162298 10
37.3384 39.7613 10.6024 0.160526 10
6.40145 6.86472 -2.51506 0.0939588 4
7.7481 8.30881 -2.62286 0.0146783 4
8.79502 9.4315 -2.50672 0.0498971 4
10.7643 11.5433 -2.49986 0.0490778 4
14.8586 15.9339 -2.6751 0.0472061 1
19.2565 20.6501 -2.47028 0.031181 4
34.9392 37.4677 -0.894234 0.185858 10
34.9364 37.4647 0.894162 0.18588 10
34.2438 36.722 2.63144 0.099069 10
37.2412 39.9363 4.7774 0.165205 10
37.238 39.9328 6.70419 0.164606 10
37.2314 39.9258 10.6115 0.162809 10
6.37748 6.88705 -2.51507 0.0722757 4
7.71908 8.33585 -2.62288 0.0487526 4
8.76209 9.46219 -2.50673 0.0601435 4
10.724 11.5809 -2.49988 0.0553038 4
14.8031 15.9858 -2.67512 0.0472057 1
34.77 37.5482 -0.893254 0.22842 10
34.7673 37.5453 0.893183 0.228446 10
15.6291 16.8779 1.20553 0.169831 10
15.6285 16.8772 2.01241 0.169424 10
15.6278 16.8765 2.82417 0.16881 10
15.6272 16.8758 3.64285 0.16799 10
15.6266 16.8752 4.47058 0.166966 10
15.6259 16.8745 5.30955 0.165739 10
15.6253 16.8738 6.16209 0.164309 10
6.63511 7.21563 -2.62659 0.077696 4
7.68997 8.36278 -2.62289 0.0754876 4
8.72906 9.49278 -2.50675 0.0583611 4
10.6836 11.6183 -2.49989 0.0556696 4
14.7473 16.0376 -2.67514 0.0472052 1
15.3604 16.7043 -1.98539 0.220247 10
15.3598 16.7037 -1.18925 0.220794 10
15.3592 16.703 -0.396079 0.221072 10
15.3586 16.7024 0.396063 0.22108 10
15.358 16.7017 1.18911 0.172176 10
14.3773 15.6352 1.85832 0.669932 10
14.3761 15.6338 2.6078 0.667536 10
14.3753 15.6331 3.36373 0.170309 10
15.3556 16.6991 4.40971 0.169271 10
14.3742 15.6318 4.90272 0.168027 10
14.3736 15.6311 5.68994 0.166577 10
6.60991 7.23878 -2.6266 0.0837186 4
7.66077 8.38962 -2.6229 0.0691966 4
8.69592 9.52324 -2.50676 0.0405407 4
10.6431 11.6556 -2.49991 0.0516405 4
14.6914 16.0891 -2.67517 0.0472048 1
15.0966 16.5329 -1.95873 0.223244 10
15.096 16.5322 -1.17328 0.223798 10
15.0954 16.5316 -0.390761 0.22408 10
15.0948 16.5309 0.390746 0.224089 10
15.0942 16.5303 1.17315 0.174518 10
14.3355 15.6994 1.85999 0.669328 10
14.3343 15.6981 2.61015 0.666935 10
14.3331 15.6967 3.36664 0.663729 10
15.0919 16.5277 4.35052 0.171574 10
14.1273 15.4714 4.83693 0.170312 10
14.3292 15.6925 5.69403 0.649279 10
6.58463 7.26184 -2.62661 0.0409557 4
7.63148 8.41635 -2.62291 0.0456066 4
8.66267 9.5536 -2.50678 0.0530144 4
10.6024 11.6928 -2.49993 0.0538376 4
14.6352 16.1404 -2.67519 0.0472044 1
14.8397 16.3659 -1.93281 0.226239 10
14.924 16.4588 -1.16437 0.859445 10
14.9227 16.4574 -0.387775 0.860568 10
14.9214 16.456 0.387741 0.860642 10
14.8375 16.3634 1.15762 0.176859 10
14.2937 15.7638 1.86169 0.668717 10
14.2925 15.7624 2.61254 0.666325 10
14.2912 15.761 3.36972 0.663122 10
14.8352 16.3609 4.29295 0.173875 10
13.887 15.3153 4.77292 0.172596 10
14.2874 15.7568 5.69923 0.648686 10
6.55928 7.28481 -2.62662 0.0445692 4
7.60209 8.44298 -2.62293 0.0906885 4
8.62933 9.58384 -2.50679 0.0650425 4
10.5616 11.7298 -2.49995 0.04285 4
14.579 16.1916 -2.67522 0.0472039 1
14.5896 16.2034 -1.90758 0.22923 10
14.6932 16.3184 -1.1508 0.567159 10
14.6919 16.317 -0.383256 0.5679 10
14.6907 16.3156 0.383223 0.567949 10
14.5874 16.2009 1.14252 0.179197 10
14.2518 15.8282 1.86342 0.668097 10
14.2506 15.8269 2.61496 0.665708 10
14.2493 15.8255 3.37284 0.662508 10
14.5852 16.1985 4.23695 0.176173 10
13.8005 15.327 4.76155 0.154536 10
14.2455 15.8212 5.70452 0.648085 10
6.53384 7.3077 -2.62663 0.0879335 4
7.57262 8.46951 -2.62294 0.072865 4
8.59587 9.61396 -2.50681 0.0574687 4
10.5207 11.7667 -2.49997 0.0472445 4
14.3464 16.0456 -2.64281 0.23136 10
14.3459 16.045 -1.88303 0.232219 10
14.4634 16.1764 -1.13722 0.566626 10
14.4622 16.175 -0.378733 0.567366 10
14.4609 16.1736 0.3787 0.567415 10
14.3438 16.0426 1.12781 0.181533 10
14.2098 15.8928 1.86518 0.667469 10
14.2086 15.8915 2.61742 0.665082 10
14.2074 15.8901 3.37602 0.661885 10
13.4255 15.0156 3.91527 0.17847 10
13.7468 15.375 4.76152 0.154536 10
14.2035 15.8858 5.70988 0.647476 10
6.50832 7.33049 -2.62664 0.0861262 4
7.50862 8.45716 -2.61099 0.23727 4
8.56232 9.64397 -2.50682 0.0543499 4
10.4796 11.8035 -2.49999 0.0395533 4
14.1089 15.8912 -2.60925 0.234335 10
14.1084 15.8906 -1.85912 0.235205 10
14.1078 15.89 -1.11362 0.155744 10
14.1073 15.8895 -0.370891 0.15594 10
14.1068 15.8889 0.370877 0.155946 10
14.1063 15.8883 1.1135 0.183867 10
14.1471 15.9343 1.86423 0.425693 10
14.1459 15.9329 2.6161 0.424171 10
14.1447 15.9315 3.37431 0.422132 10
13.2033 14.8712 3.86558 0.180764 10
13.693 15.4228 4.76149 0.154537 10
14.1408 15.9272 5.707 0.412942 10
6.48272 7.3532 -2.62666 0.0602279 4
7.41974 8.41604 -2.59028 0.172087 4
8.52866 9.67386 -2.50684 0.0543496 4
10.4384 11.8401 -2.50001 0.0531035 4
13.8773 15.7407 -2.57657 0.237307 10
13.8768 15.7401 -1.83584 0.238188 10
13.8763 15.7396 -1.09967 0.15772 10
13.8758 15.739 -0.366246 0.157918 10
13.8753 15.7384 0.366233 0.157924 10
13.8748 15.7379 1.09955 0.157737 10
14.0639 15.9523 1.86059 0.425282 10
14.0626 15.9509 2.61098 0.423761 10
14.0614 15.9495 3.36771 0.421724 10
12.9866 14.7304 3.81718 0.183056 10
13.639 15.4704 4.76147 0.154538 10
14.0576 15.9452 5.69584 0.412543 10
6.45705 7.37582 -2.62667 0.101182 4
7.33222 8.37552 -2.56991 0.20958 4
8.49489 9.70364 -2.50686 0.0650409 4
10.3971 11.8765 -2.50003 0.0296645 4
13.6515 15.5939 -2.54473 0.240277 10
13.651 15.5934 -1.81315 0.241169 10
13.6505 15.5928 -1.08608 0.159693 10
13.65 15.5922 -0.36172 0.159894 10
13.6495 15.5917 0.361707 0.159899 10
13.649 15.5911 1.08597 0.15971 10
12.7767 14.5947 1.69703 0.188076 10
12.7763 14.5942 2.38159 0.187394 10
12.7758 14.5937 3.07199 0.186483 10
12.7753 14.5931 3.77002 0.185346 10
13.5849 15.5178 4.76144 0.154539 10
12.7744 14.5921 5.19651 0.182395 10
6.43129 7.39835 -2.62668 0.109614 4
7.24603 8.3356 -2.54989 0.191261 4
8.46103 9.7333 -2.50687 0.0525669 4
10.3557 11.9129 -2.50005 0.0509053 4
13.4311 15.4507 -2.5137 0.243243 10
13.4306 15.4502 -1.79104 0.244146 10
13.4302 15.4496 -1.07284 0.161665 10
13.4297 15.4491 -0.357309 0.161868 10
13.4292 15.4485 0.357297 0.161873 10
13.551 15.5887 1.08249 0.56457 10
12.7311 14.6455 1.69776 0.664875 10
12.73 14.6442 2.38248 0.662498 10
12.7289 14.6429 3.07298 0.659314 10
12.7277 14.6416 3.77104 0.655326 10
13.4263 15.4452 4.72475 0.186253 10
12.7254 14.6389 5.19735 0.644961 10
6.40546 7.4208 -2.6267 0.0776928 4
7.16114 8.29626 -2.53019 0.222619 4
8.42706 9.76284 -2.50689 0.0601397 4
10.3141 11.949 -2.50007 0.0563982 4
13.2161 15.311 -2.48344 0.246207 10
13.2156 15.3104 -1.76948 0.247121 10
13.3299 15.4429 -1.06913 0.563856 10
13.3288 15.4415 -0.356056 0.564593 10
13.3276 15.4402 0.356025 0.564642 10
13.3265 15.4388 1.06885 0.564002 10
12.6927 14.7046 1.69946 0.664207 10
12.6916 14.7033 2.38488 0.661832 10
12.6905 14.702 3.07607 0.658651 10
12.6893 14.7007 3.77483 0.654667 10
13.2114 15.3056 4.66789 0.188521 10
12.687 14.698 5.20258 0.644313 10
6.37955 7.44315 -2.62671 0.127078 4
7.07993 8.26029 -2.51167 0.0749592 4
8.39299 9.79226 -2.50691 0.0637031 4
10.2724 11.9851 -2.50009 0.0479746 4
13.0062 15.1746 -2.45393 0.249167 10
13.0057 15.174 -1.74846 0.250092 10
13.2895 15.5051 -1.07022 0.563281 10
13.2883 15.5037 -0.356419 0.564017 10
13.2872 15.5024 0.356388 0.564066 10
13.286 15.5011 1.06994 0.563428 10
12.6542 14.7639 1.7012 0.66353 10
12.6531 14.7626 2.38731 0.661158 10
12.6519 14.7613 3.07921 0.65798 10
12.6508 14.76 3.77868 0.654 10
13.0017 15.1693 4.61246 0.190787 10
12.6485 14.7573 5.20788 0.643657 10
6.35356 7.46541 -2.62672 0.0921463 4
7.0511 8.28501 -2.51169 0.075483 4
8.35881 9.82158 -2.50693 0.0427654 4
10.2306 12.021 -2.50011 0.037354 4
12.8012 15.0413 -2.42515 0.252125 10
12.8007 15.0408 -1.72795 0.25306 10
14.7707 17.3555 -1.19438 0.5627 10
14.7694 17.354 -0.397768 0.563435 10
14.7681 17.3525 0.397733 0.563484 10
13.6317 16.0172 1.10228 0.0448822 10
12.6156 14.8232 1.70296 0.662845 10
12.6145 14.822 2.38978 0.660475 10
12.6134 14.8206 3.08239 0.657301 10
12.6122 14.8193 3.78258 0.653326 10
12.7968 15.0362 4.55836 0.193051 10
12.6099 14.8166 5.21326 0.642993 10
6.3275 7.48758 -2.62674 0.120452 4
7.02218 8.30962 -2.5117 0.0649988 4
8.32454 9.85076 -2.50695 0.065484 4
10.1887 12.0567 -2.50014 0.0377198 4
12.6009 14.9112 -2.39706 0.255079 10
12.6005 14.9107 -1.70794 0.256026 10
13.5753 16.0642 1.10225 0.0448835 10
12.5769 14.8827 1.70474 0.662152 10
12.5758 14.8814 2.39228 0.659785 10
12.5747 14.8801 3.08562 0.656614 10
12.5736 14.8788 3.78654 0.652643 10
12.5967 14.9061 4.50559 0.195313 10
12.5713 14.8761 5.21872 0.642321 10
6.30136 7.50967 -2.62675 0.0505896 4
6.99317 8.33414 -2.51172 0.0807238 4
8.29017 9.87984 -2.50696 0.0565742 4
10.9044 12.9954 -2.68688 0.0603292 1
12.4053 14.784 -2.36964 0.258031 10
12.4048 14.7835 -1.6884 0.258988 10
14.7814 17.6158 -1.20516 0.171492 10
14.7809 17.6152 -0.401381 0.171707 10
14.7805 17.6147 0.401367 0.171713 10
13.5188 16.1111 1.10221 0.0448848 10
12.4028 14.7811 1.68812 0.20197 10
12.4024 14.7806 2.36909 0.201237 10
12.402 14.7801 3.05587 0.200259 10
12.4015 14.7796 3.75025 0.199036 10
12.4011 14.7791 4.45407 0.197572 10
12.4007 14.7785 5.16928 0.195866 10
6.27514 7.53166 -2.62677 0.0391465 4
6.96409 8.35855 -2.51173 0.0822958 4
8.2557 9.90879 -2.50698 0.0668194 4
10.8591 13.0335 -2.6869 0.0603286 1
12.214 14.6597 -2.34287 0.260979 10
12.2136 14.6593 -1.66933 0.261947 10
14.6346 17.565 -1.19818 0.560914 10
14.6333 17.5634 -0.399034 0.561647 10
14.632 17.5619 0.398999 0.561696 10
13.4621 16.1577 1.10218 0.0448862 10
12.2116 14.6569 1.66906 0.204277 10
12.2112 14.6564 2.34233 0.203535 10
12.2108 14.6559 3.02136 0.202546 10
12.2104 14.6554 3.7079 0.20131 10
12.21 14.6549 4.40377 0.199828 10
12.2096 14.6544 5.11091 0.198103 10
6.24885 7.55356 -2.62678 0.0367372 4
6.93491 8.38286 -2.51175 0.0435064 4
8.22112 9.93762 -2.507 0.0507823 4
10.8137 13.0714 -2.68693 0.060328 1
12.0271 14.5382 -2.31673 0.263923 10
12.0267 14.5378 -1.65071 0.264902 10
32.3562 39.1119 -0.886034 0.164159 10
32.3534 39.1085 0.885957 0.164162 10
13.4052 16.2041 1.10215 0.0448875 10
12.0247 14.5354 1.65044 0.206581 10
12.0386 14.5522 2.31895 0.419841 10
12.0376 14.5509 2.99104 0.417823 10
12.0365 14.5496 3.67048 0.415297 10
12.0231 14.5335 4.35465 0.202082 10
12.0227 14.533 5.0539 0.200338 10
6.22248 7.57537 -2.6268 0.0770875 4
6.90565 8.40708 -2.51177 0.0655213 4
8.18645 9.96634 -2.50702 0.0681547 4
10.7681 13.1092 -2.68696 0.0603274 1
11.8442 14.4194 -2.29119 0.266866 10
11.8439 14.4189 -1.63251 0.267855 10
32.2474 39.2586 -0.886802 0.166484 10
32.2446 39.2552 0.886725 0.166487 10
13.3481 16.2502 1.10211 0.044889 10
11.8419 14.4166 1.63224 0.208884 10
11.0852 13.4953 2.14436 0.208125 10
11.0848 13.4949 2.766 0.207113 10
11.0845 13.4944 3.39451 0.205849 10
11.8404 14.4147 4.30666 0.204334 10
11.84 14.4142 4.99821 0.20257 10
6.19327 7.5937 -2.62564 0.153015 4
6.87631 8.43119 -2.51179 0.0760042 4
8.15168 9.99494 -2.50704 0.0516724 4
10.7223 13.1469 -2.68698 0.0603268 1
11.6654 14.3032 -2.26624 0.269804 10
11.665 14.3027 -1.61473 0.270804 10
14.4976 17.7758 -1.20214 0.559067 10
14.4963 17.7742 -0.400352 0.559798 10
14.4951 17.7727 0.400317 0.559847 10
13.2909 16.2962 1.10208 0.0448904 10
11.6632 14.3004 1.61447 0.211183 10
10.9178 13.3866 2.12101 0.210416 10
11.0266 13.5199 2.76323 0.653059 10
11.0256 13.5187 3.39092 0.64911 10
11.6616 14.2986 4.25977 0.206583 10
11.6613 14.2981 4.94379 0.2048 10
6.12483 7.56354 -2.6078 0.159943 4
6.84689 8.4552 -2.5118 0.0812453 4
8.1168 10.0234 -2.50706 0.0481084 4
10.6765 13.1844 -2.68701 0.0603262 1
11.4904 14.1894 -2.24185 0.272739 10
11.5399 14.2506 -1.60429 0.0796682 10
32.0292 39.5528 -0.888375 0.171127 10
32.0265 39.5494 0.888298 0.17113 10
13.2335 16.342 1.10204 0.0448918 10
11.4882 14.1867 1.5971 0.21348 10
10.7541 13.2801 2.09819 0.212705 10
10.9917 13.5736 2.76634 0.652325 10
10.9907 13.5724 3.39474 0.64838 10
11.4867 14.1849 4.21394 0.20883 10
11.4863 14.1844 4.8906 0.207027 10
6.05729 7.53375 -2.59023 0.154014 4
6.81738 8.47911 -2.51182 0.0634233 4
8.08184 10.0518 -2.50709 0.0516716 4
10.6305 13.2217 -2.68704 0.0603256 1
11.3191 14.0781 -2.21801 0.275671 10
11.3188 14.0777 -1.58036 0.276693 10
11.3184 14.0772 -0.946646 0.277378 10
11.318 14.0768 -0.315283 0.277725 10
11.3177 14.0764 0.315273 0.277734 10
11.3173 14.0759 0.946558 0.277404 10
11.317 14.0755 1.58012 0.215775 10
10.5938 13.176 2.07588 0.214991 10
10.9567 13.6274 2.76949 0.651582 10
10.9557 13.6262 3.39861 0.647642 10
10.5928 13.1747 3.90284 0.211074 10
11.3152 14.0732 4.83861 0.209252 10
5.99062 7.50432 -2.5729 0.166611 4
6.78779 8.50292 -2.51184 0.0602779 4
8.04677 10.08 -2.50711 0.0587982 4
10.5844 13.2589 -2.68707 0.060325 1
11.1514 13.9691 -2.19469 0.2786 10
11.1511 13.9687 -1.56375 0.279633 10
11.1507 13.9683 -0.936695 0.280325 10
11.1504 13.9678 -0.311968 0.280675 10
11.15 13.9674 0.311959 0.280684 10
11.1497 13.967 0.936609 0.280351 10
11.1494 13.9666 1.56351 0.218067 10
10.4369 13.074 2.05406 0.217275 10
10.9217 13.6814 2.77269 0.650831 10
10.9207 13.6801 3.40253 0.646895 10
10.4359 13.0728 3.86182 0.213316 10
11.1476 13.9643 4.78776 0.211474 10
5.92482 7.47526 -2.55583 0.180591 4
6.75812 8.52662 -2.51186 0.0461253 4
8.0116 10.1081 -2.50713 0.0628066 4
10.5382 13.2959 -2.68709 0.0603243 1
10.9872 13.8624 -2.17189 0.281525 10
11.0112 13.8927 -1.55093 0.840396 10
11.0103 13.8915 -0.928964 0.842524 10
11.0093 13.8903 -0.309376 0.843626 10
11.0083 13.8891 0.309349 0.8437 10
11.0074 13.8879 0.92872 0.842746 10
10.9852 13.8599 1.54727 0.220356 10
10.3798 13.0961 2.05182 0.0829751 10
10.8865 13.7354 2.77592 0.650073 10
10.8856 13.7342 3.4065 0.646142 10
10.2823 12.973 3.82171 0.215555 10
10.9835 13.8577 4.73803 0.213694 10
5.85985 7.44654 -2.53901 0.187428 4
6.72836 8.55023 -2.51188 0.0901534 4
7.97634 10.1361 -2.50715 0.0543428 4
10.4918 13.3327 -2.68712 0.0603237 1
10.8264 13.7579 -2.14958 0.284447 10
10.9756 13.9475 -1.55277 0.839404 10
10.9747 13.9463 -0.930062 0.84153 10
10.9737 13.9451 -0.309741 0.842631 10
10.9727 13.9439 0.309714 0.842704 10
10.9718 13.9426 0.929817 0.841752 10
10.8244 13.7554 1.53138 0.222642 10
10.3339 13.1321 2.05179 0.0829763 10
10.1324 12.876 2.59508 0.220755 10
10.1321 12.8756 3.18476 0.219407 10
10.1318 12.8752 3.78246 0.217791 10
10.8228 13.7533 4.68938 0.215911 10
5.79571 7.41817 -2.52242 0.174392 4
6.69853 8.57372 -2.5119 0.103256 4
7.94098 10.164 -2.50717 0.0636963 4
10.4453 13.3694 -2.68715 0.060323 1
10.6689 13.6555 -2.12775 0.287365 10
10.9399 14.0025 -1.55462 0.838402 10
10.939 14.0012 -0.931173 0.840526 10
10.938 14 -0.310112 0.841625 10
10.9371 13.9988 0.310084 0.841699 10
10.9361 13.9976 0.930927 0.840747 10
10.667 13.6531 1.51583 0.224926 10
10.2879 13.1679 2.05176 0.0829775 10
10.0351 12.8443 2.58161 0.648532 10
10.0342 12.8431 3.16804 0.64461 10
10.0332 12.8419 3.76238 0.639903 10
10.6653 13.651 4.64178 0.218125 10
5.75374 7.41767 -2.5154 0.0885258 4
6.66861 8.59712 -2.51191 0.0393105 4
7.90553 10.1917 -2.5072 0.0605778 4
10.3987 13.4059 -2.68718 0.0603223 1
10.5145 13.5552 -2.10638 0.290279 10
10.9042 14.0575 -1.5565 0.837391 10
10.9032 14.0563 -0.932298 0.839511 10
10.9022 14.0551 -0.310486 0.840609 10
10.9013 14.0538 0.310459 0.840683 10
10.9003 14.0526 0.932052 0.839733 10
10.5126 13.5528 1.50061 0.227207 10
10.2417 13.2035 2.05173 0.0829787 10
10.0022 12.8948 2.58473 0.647749 10
10.0013 12.8936 3.17187 0.643833 10
10.0004 12.8924 3.76693 0.639131 10
10.511 13.5507 4.59519 0.220337 10
5.72785 7.43776 -2.51542 0.0734699 4
6.63861 8.62041 -2.51193 0.0529377 4
7.86998 10.2194 -2.50722 0.00979925 4
10.352 13.4423 -2.68721 0.0603216 1
10.3632 13.4569 -2.08547 0.293191 10
10.8683 14.1128 -1.5584 0.836368 10
10.8673 14.1115 -0.933437 0.838487 10
10.8664 14.1103 -0.310866 0.839583 10
10.8654 14.109 0.310838 0.839657 10
10.8645 14.1078 0.933191 0.838708 10
10.3614 13.4545 1.48571 0.229485 10
10.1954 13.239 2.0517 0.08298 10
9.96932 12.9454 2.58788 0.646959 10
