VERSION 0.7
FIELDS x y z intensity label
SIZE 4 4 4 4 4
TYPE F F F F F
COUNT 1 1 1 1 1
WIDTH 1252
HEIGHT 1
VIEWPOINT 31.0428 7.48963 2.72676 0.999995 0.000323267 0.00080144 -0.00292958
POINTS 1252
DATA ascii
9.38253 -5.9085 -2.55985 0.169702 4
10.9475 -6.89403 -2.51478 0.0621574 4
14.4108 -9.07497 -2.69731 0.060083 1
18.532 -11.6702 -2.68903 0.0469515 1
19.8101 -12.4751 -2.04819 0.476899 10
19.8093 -12.4746 -1.22686 0.315787 10
19.8085 -12.4741 -0.408604 0.316186 10
19.8076 -12.4735 0.408587 0.316199 10
19.8068 -12.473 1.22671 0.372816 10
19.806 -12.4725 2.04775 0.371923 10
19.2388 -12.1153 2.79159 0.370577 10
19.2379 -12.1148 3.60082 0.368779 10
19.8034 -12.4709 4.54907 0.366532 10
19.8025 -12.4703 5.40275 0.363838 10
19.2354 -12.1132 6.09094 0.360701 10
8.05873 -5.03566 -2.54624 0.145223 4
9.44326 -5.9008 -2.57078 0.16898 4
10.9715 -6.85574 -2.51476 0.054166 4
14.4423 -9.02455 -2.69729 0.0600834 1
18.5724 -11.6054 -2.68901 0.0469519 1
19.9629 -12.4742 -2.05947 0.474286 10
20.063 -12.5368 -1.23986 0.496087 10
20.0617 -12.5359 -0.412922 0.496725 10
20.0603 -12.5351 0.412895 0.496758 10
19.9595 -12.4721 1.23346 0.370774 10
19.9587 -12.4716 2.05903 0.369886 10
19.9578 -12.471 2.88959 0.368547 10
19.957 -12.4705 3.72723 0.366759 10
19.9561 -12.47 4.57412 0.364524 10
19.9552 -12.4694 5.4325 0.361846 10
19.9543 -12.4688 6.30476 0.358726 10
8.11462 -5.03128 -2.55833 0.173444 4
9.50447 -5.89302 -2.58183 0.147707 4
10.9953 -6.81736 -2.51475 0.0599381 4
14.4736 -8.97402 -2.69728 0.0600838 1
18.6127 -11.5404 -2.68899 0.0469523 1
20.1174 -12.4733 -2.07091 0.471668 10
20.1166 -12.4728 -1.24047 0.312324 10
20.1157 -12.4723 -0.413136 0.312718 10
20.1148 -12.4717 0.413118 0.312732 10
20.114 -12.4712 1.24031 0.368727 10
20.1131 -12.4707 2.07046 0.367844 10
20.1122 -12.4701 2.90563 0.366513 10
20.1114 -12.4696 3.74792 0.364735 10
20.1105 -12.469 4.5995 0.362513 10
20.1096 -12.4685 5.46265 0.359849 10
20.1087 -12.4679 6.33975 0.356746 10
8.17102 -5.02685 -2.57056 0.170003 4
9.56619 -5.88516 -2.593 0.1816 4
11.0189 -6.7789 -2.51473 0.0612704 4
14.5048 -8.92339 -2.69726 0.0600842 1
18.6527 -11.4752 -2.68896 0.0469526 1
20.2736 -12.4724 -2.08249 0.469044 10
20.3329 -12.5089 -1.25111 0.498268 10
20.3315 -12.508 -0.416669 0.498908 10
20.3302 -12.5072 0.416641 0.498941 10
20.2701 -12.4703 1.24725 0.366676 10
20.2693 -12.4697 2.08204 0.365798 10
20.2684 -12.4692 2.92188 0.364474 10
20.2675 -12.4687 3.76888 0.362706 10
20.2666 -12.4681 4.62523 0.360496 10
20.2657 -12.4675 5.4932 0.357847 10
20.2648 -12.467 6.3752 0.354762 10
8.22795 -5.02237 -2.58294 0.114527 4
9.62842 -5.87721 -2.60429 0.151526 4
11.0425 -6.74036 -2.51472 0.0608267 4
14.5357 -8.87265 -2.69724 0.0600846 1
18.6925 -11.4099 -2.68894 0.046953 1
20.4316 -12.4715 -2.09423 0.466414 10
20.6033 -12.5763 -1.26504 0.755987 10
20.6019 -12.5755 -0.421308 0.756959 10
20.6006 -12.5746 0.42128 0.757009 10
20.4281 -12.4694 1.25428 0.364621 10
20.4272 -12.4688 2.09378 0.363748 10
20.4263 -12.4683 2.93835 0.362431 10
20.4254 -12.4677 3.79013 0.360673 10
20.4245 -12.4672 4.6513 0.358476 10
20.4236 -12.4666 5.52416 0.355842 10
20.4226 -12.466 6.41113 0.352774 10
8.28542 -5.01783 -2.59547 0.159305 4
9.69116 -5.86918 -2.61571 0.182559 4
11.0659 -6.70174 -2.51471 0.0488392 4
14.5665 -8.8218 -2.69723 0.060085 1
18.7321 -11.3445 -2.68892 0.0469534 1
20.5914 -12.4706 -2.10613 0.463778 10
20.6027 -12.4774 -1.26232 0.757615 10
20.6014 -12.4766 -0.420403 0.758589 10
20.6 -12.4758 0.420375 0.758638 10
20.5878 -12.4684 1.2614 0.362561 10
20.5869 -12.4679 2.10567 0.361693 10
20.586 -12.4673 2.95505 0.360384 10
20.5851 -12.4668 3.81166 0.358636 10
20.5842 -12.4662 4.67772 0.356451 10
20.5832 -12.4656 5.55554 0.353832 10
20.5823 -12.4651 6.44755 0.350782 10
8.34344 -5.01324 -2.60815 0.132754 4
9.75444 -5.86106 -2.62725 0.180495 4
11.0892 -6.66304 -2.5147 0.0461755 4
14.5971 -8.77085 -2.69721 0.0600854 1
18.7714 -11.279 -2.6889 0.0469538 1
20.753 -12.4696 -2.1182 0.461137 10
20.7521 -12.4691 -1.26879 0.462285 10
20.7512 -12.4686 -0.42257 0.462869 10
20.7502 -12.468 0.422551 0.462889 10
20.7493 -12.4675 1.26863 0.360496 10
20.7484 -12.4669 2.11773 0.359633 10
20.7475 -12.4664 2.97197 0.358332 10
20.7466 -12.4658 3.83348 0.356594 10
20.7456 -12.4652 4.7045 0.354422 10
20.7447 -12.4647 5.58735 0.351818 10
20.7437 -12.4641 6.48446 0.348785 10
8.40201 -5.0086 -2.62097 0.0320641 4
9.78442 -5.83268 -2.62982 0.0407724 4
11.1123 -6.62426 -2.51468 0.0661556 4
14.6276 -8.71979 -2.69719 0.0600857 1
18.8105 -11.2133 -2.68888 0.0469541 1
20.9164 -12.4687 -2.13043 0.45849 10
20.9155 -12.4681 -1.27612 0.459631 10
20.9146 -12.4676 -0.425009 0.460212 10
20.9137 -12.467 0.42499 0.460232 10
20.7781 -12.3862 1.26774 0.593354 10
20.7768 -12.3854 2.1162 0.591947 10
20.7754 -12.3846 2.96975 0.589818 10
20.774 -12.3838 3.83054 0.58697 10
20.7726 -12.383 4.70078 0.583407 10
20.7712 -12.3821 5.5828 0.579133 10
20.7697 -12.3813 6.47904 0.574154 10
8.46114 -5.00391 -2.63396 0.218238 4
9.80468 -5.79847 -2.62981 0.0392044 4
11.1353 -6.5854 -2.51467 0.0554999 4
14.6578 -8.66863 -2.69718 0.0600861 1
18.8494 -11.1475 -2.68886 0.0469545 1
26.3083 -15.5587 -2.67406 0.0337657 1
41.6784 -24.6485 -2.53766 0.156084 4
45.0976 -26.6707 -0.914539 0.16629 10
45.0956 -26.6695 0.914498 0.161258 10
20.7775 -12.2878 1.26508 0.594602 10
20.7762 -12.287 2.11176 0.593191 10
20.7748 -12.2862 2.96352 0.591057 10
20.7734 -12.2854 3.8225 0.588204 10
20.772 -12.2846 4.69092 0.584633 10
20.7706 -12.2837 5.5711 0.580351 10
20.7692 -12.2829 6.46546 0.575361 10
8.52085 -4.99916 -2.64709 0.168898 4
9.82482 -5.76419 -2.6298 0.0909545 4
11.1582 -6.54646 -2.51466 0.0697083 4
14.6879 -8.61736 -2.69716 0.0600864 1
18.8881 -11.0816 -2.68884 0.0469548 1
26.3621 -15.4666 -2.67403 0.0337661 1
41.679 -24.4529 -2.53249 0.101272 4
45.3459 -26.6043 0.917684 0.328605 10
20.777 -12.1898 1.26244 0.595842 10
20.7756 -12.189 2.10736 0.594428 10
20.7743 -12.1882 2.95735 0.59229 10
20.7729 -12.1874 3.81455 0.58943 10
20.7715 -12.1866 4.68116 0.585852 10
20.7701 -12.1857 5.5595 0.581561 10
20.7686 -12.1849 6.452 0.57656 10
8.58114 -4.99435 -2.66039 0.151627 4
9.84484 -5.72984 -2.62979 0.0188183 4
11.1809 -6.50744 -2.51465 0.0515044 4
14.7178 -8.56599 -2.69715 0.0600867 1
18.9265 -11.0155 -2.68882 0.0469552 1
26.4157 -15.3743 -2.674 0.0337664 1
41.6796 -24.2581 -2.52736 0.129567 4
45.3405 -26.3888 -0.915707 0.405248 10
45.3446 -26.3912 0.915789 0.244853 10
20.8022 -12.1071 1.2614 0.352195 10
20.8012 -12.1066 2.10566 0.351352 10
20.8003 -12.1061 2.95502 0.350081 10
20.7993 -12.1055 3.81162 0.348384 10
20.7984 -12.1049 4.67767 0.346262 10
20.7974 -12.1044 5.55548 0.343718 10
20.7964 -12.1038 6.44747 0.340755 10
8.64203 -4.98948 -2.67385 0.158407 4
9.86475 -5.69542 -2.62978 0.0872961 4
11.2035 -6.46834 -2.51464 0.0621608 4
14.7476 -8.51451 -2.69713 0.0600871 1
18.9647 -10.9493 -2.6888 0.0469555 1
26.4689 -15.2819 -2.67398 0.0337667 1
41.6802 -24.0641 -2.52229 0.114936 4
45.3393 -26.1767 -0.913831 0.47376 10
45.3434 -26.179 0.913913 0.274968 10
45.3405 -26.1773 2.74379 0.295778 10
45.2968 -26.1521 4.57603 0.130676 10
45.3345 -26.1739 6.42751 0.189009 10
45.3315 -26.1722 8.29053 0.108678 10
45.3215 -26.1664 10.1725 0.5484 10
45.3255 -26.1687 12.083 0.226826 10
45.3223 -26.1669 14.0228 0.159457 10
8.70352 -4.98456 -2.68748 0.156353 4
9.88453 -5.66093 -2.62977 0.0642962 4
11.226 -6.42917 -2.51463 0.0408487 4
14.7771 -8.46294 -2.69712 0.0600874 1
19.0027 -10.8829 -2.68878 0.0469558 1
26.5219 -15.1892 -2.67395 0.033767 1
41.6808 -23.8708 -2.51727 0.105763 4
45.3381 -25.9653 -0.911973 0.254317 10
45.2695 -25.9261 0.910593 0.368783 10
45.3392 -25.966 2.73822 0.300614 10
45.2956 -25.941 4.56673 0.164734 10
45.3333 -25.9626 6.41444 0.248317 10
45.3243 -25.9575 12.0585 0.268613 10
8.76563 -4.97957 -2.70127 0.141866 4
9.9042 -5.62637 -2.62976 0.0559326 4
11.2483 -6.38992 -2.51462 0.0519491 4
14.8065 -8.41126 -2.6971 0.0600877 1
19.0404 -10.8165 -2.68877 0.0469561 1
26.5745 -15.0964 -2.67393 0.0337674 1
41.6813 -23.6783 -2.51229 0.149246 4
45.3368 -25.7549 -0.910134 0.242089 10
45.3409 -25.7572 0.910216 0.310064 10
45.338 -25.7556 2.73269 0.326677 10
45.2878 -25.727 6.39525 0.506071 10
45.3291 -25.7505 8.25701 0.167876 10
45.3191 -25.7448 10.1313 0.521427 10
45.3231 -25.7471 12.0342 0.14493 10
8.8079 -4.963 -2.70894 0.0989799 1
11.2705 -6.35059 -2.51461 0.0568334 4
14.8357 -8.35948 -2.69709 0.060088 1
19.0779 -10.7499 -2.68875 0.0469564 1
26.6268 -15.0034 -2.6739 0.0337677 1
41.6819 -23.4865 -2.50737 0.140995 4
45.3397 -25.5476 0.908396 0.183006 10
45.3368 -25.546 2.72723 0.267816 10
45.2931 -25.5214 4.54841 0.326554 10
45.3309 -25.5427 6.38871 0.135223 10
45.3279 -25.541 8.2405 0.113543 10
45.3179 -25.5353 10.1111 0.405438 10
45.3219 -25.5376 12.0101 0.261396 10
8.82514 -4.93221 -2.70894 0.0989802 1
9.94317 -5.55705 -2.62974 0.133298 4
11.2925 -6.31118 -2.5146 0.0572777 4
14.8647 -8.3076 -2.69708 0.0600883 1
19.1152 -10.6831 -2.68873 0.0469567 1
26.6788 -14.9103 -2.67388 0.033768 1
41.6824 -23.2955 -2.50249 0.146327 4
45.3344 -25.3365 -0.906512 0.208943 10
45.3385 -25.3388 0.906594 0.277188 10
45.3356 -25.3372 2.72182 0.323722 10
45.2919 -25.3128 4.53938 0.237966 10
45.2854 -25.3091 6.36981 0.724032 10
45.3267 -25.3323 8.22416 0.450861 10
45.3167 -25.3266 10.091 0.54445 10
45.3207 -25.3289 11.9863 0.266073 10
45.3176 -25.3272 13.9105 0.177231 10
8.84228 -4.90136 -2.70893 0.0989805 1
9.96247 -5.52229 -2.62973 0.0721382 4
11.3144 -6.2717 -2.51459 0.0568339 4
14.8935 -8.25562 -2.69706 0.0600886 1
19.1523 -10.6163 -2.68871 0.046957 1
26.7304 -14.8169 -2.67386 0.0337683 1
41.6829 -23.1052 -2.49767 0.126829 4
45.3331 -25.1286 -0.904728 0.192265 10
45.3373 -25.1309 0.90481 0.431556 10
45.3344 -25.1292 2.71646 0.277414 10
45.2283 -25.0704 4.52421 0.0937074 10
45.3285 -25.126 6.3635 0.186668 10
45.3255 -25.1244 8.20798 0.101327 10
45.3155 -25.1188 10.0712 0.394455 10
45.3195 -25.121 11.9627 0.241604 10
45.3164 -25.1193 13.8832 0.231267 10
8.85931 -4.87045 -2.70892 0.0989808 1
9.98165 -5.48746 -2.62973 0.0439103 4
11.3362 -6.23215 -2.51458 0.0603862 4
14.9222 -8.20355 -2.69705 0.0600889 1
19.1891 -10.5493 -2.6887 0.0469573 1
26.7817 -14.7234 -2.67384 0.0337685 1
41.6835 -22.9157 -2.49289 0.149574 4
45.3203 -24.9151 -0.902732 0.176661 10
45.3361 -24.9237 0.903044 0.218341 10
45.3332 -24.9221 2.71116 0.299337 10
45.3273 -24.9189 6.35108 0.212537 10
45.3243 -24.9173 8.19196 0.274964 10
45.3143 -24.9118 10.0515 0.466703 10
45.3183 -24.914 11.9394 0.154428 10
45.3153 -24.9123 13.8561 0.215168 10
8.87623 -4.83948 -2.70891 0.098981 1
10.0007 -5.45257 -2.62972 0.0810253 4
11.3579 -6.19251 -2.51457 0.0608305 4
14.9507 -8.15138 -2.69704 0.0600891 1
19.2257 -10.4822 -2.68868 0.0469576 1
26.8328 -14.6297 -2.67381 0.0337688 1
41.6839 -22.7268 -2.48816 0.113994 4
45.3307 -24.7151 -0.901214 0.210172 10
45.2622 -24.6777 0.899851 0.531897 10
45.332 -24.7158 2.70592 0.227081 10
45.2163 -24.6527 4.50568 0.0769386 10
45.3261 -24.7126 6.33879 0.238503 10
45.3232 -24.711 8.17611 0.330597 10
45.3131 -24.7055 10.0321 0.408631 10
45.2119 -24.6503 11.8886 0.389791 10
45.2414 -24.6664 13.8071 0.418732 10
8.89305 -4.80845 -2.70891 0.0989813 1
10.0197 -5.41761 -2.62971 0.0386831 4
11.3794 -6.15281 -2.51456 0.0546144 4
14.979 -8.0991 -2.69703 0.0600894 1
19.2621 -10.415 -2.68867 0.0469578 1
26.8834 -14.5358 -2.67379 0.0337691 1
41.6844 -22.5387 -2.48348 0.113246 4
45.3295 -24.5096 -0.899484 0.266443 10
45.3337 -24.5118 0.899566 0.210589 10
45.3308 -24.5103 2.70072 0.279031 10
45.2151 -24.4477 4.49703 0.154173 10
45.3249 -24.5071 6.32662 0.204825 10
45.322 -24.5055 8.16042 0.343972 10
45.312 -24.5001 10.0128 0.346105 10
45.2033 -24.4413 11.8638 0.444125 10
45.3129 -24.5006 13.8027 0.19523 10
8.90976 -4.77737 -2.7089 0.0989815 1
9.61221 -5.15402 -2.51803 0.0690026 4
11.4007 -6.11303 -2.51455 0.0559467 4
15.0071 -8.04673 -2.69702 0.0600897 1
19.2982 -10.3476 -2.68865 0.0469581 1
26.9338 -14.4418 -2.67377 0.0337693 1
41.6849 -22.3513 -2.47885 0.125554 4
45.3283 -24.3048 -0.897771 0.365982 10
45.3325 -24.3071 0.897853 0.383229 10
45.3296 -24.3055 2.69558 0.318272 10
45.2139 -24.2435 4.48847 0.154467 10
45.3238 -24.3024 6.31458 0.183839 10
45.3208 -24.3008 8.14488 0.148913 10
45.3108 -24.2954 9.99375 0.249501 10
45.2021 -24.2372 11.8412 0.365213 10
45.3118 -24.296 13.7765 0.216411 10
8.92636 -4.74623 -2.70889 0.0989818 1
9.63011 -5.12042 -2.51803 0.0695255 4
11.422 -6.07317 -2.51454 0.0528387 4
15.035 -7.99427 -2.69701 0.0600899 1
19.3341 -10.2801 -2.68864 0.0469583 1
26.9839 -14.3476 -2.67375 0.0337696 1
41.6854 -22.1645 -2.47426 0.133694 4
45.3271 -24.1008 -0.896075 0.220005 10
45.3313 -24.1031 0.896157 0.293358 10
45.3284 -24.1015 2.69049 0.361965 10
45.2127 -24.04 4.48 0.150461 10
45.3096 -24.0916 9.97489 0.555025 10
45.201 -24.0338 11.8189 0.37011 10
45.3106 -24.0921 13.7505 0.22516 10
8.94285 -4.71503 -2.70889 0.098982 1
9.6479 -5.08676 -2.51802 0.0700485 4
11.4431 -6.03325 -2.51453 0.0483986 4
14.0158 -7.3897 -2.50953 0.0113075 4
19.3697 -10.2125 -2.68862 0.0469586 1
27.0336 -14.2532 -2.67373 0.0337698 1
41.6858 -21.9785 -2.46971 0.159551 4
45.3259 -23.8976 -0.894397 0.263636 10
45.3301 -23.8998 0.894479 0.393319 10
45.3272 -23.8983 2.68545 0.306521 10
45.2116 -23.8374 4.47161 0.142129 10
45.3214 -23.8953 6.29085 0.188823 10
45.3185 -23.8937 8.11428 0.269055 10
45.3085 -23.8885 9.95621 0.441457 10
45.3095 -23.889 13.7247 0.271534 10
8.95923 -4.68377 -2.70888 0.0989822 1
9.66557 -5.05304 -2.51801 0.0721396 4
11.464 -5.99325 -2.51452 0.0599435 4
14.0415 -7.3407 -2.50952 0.0313693 4
19.4052 -10.1448 -2.68861 0.0469588 1
27.083 -14.1586 -2.67371 0.0337701 1
41.6863 -21.7931 -2.46522 0.131892 4
45.3247 -23.6952 -0.892736 0.242477 10
45.3289 -23.6974 0.892818 0.39405 10
45.326 -23.6959 2.68046 0.28979 10
45.2759 -23.6697 6.27303 0.511631 10
45.3173 -23.6913 8.09922 0.239605 10
45.3073 -23.6861 9.93773 0.408257 10
45.1987 -23.6293 11.7749 0.287063 10
45.3083 -23.6866 13.6993 0.230187 10
8.97551 -4.65246 -2.70887 0.0989825 1
9.70833 -5.03232 -2.52456 0.164337 4
11.4848 -5.95317 -2.51452 0.0630518 4
14.0669 -7.29161 -2.50951 0.033558 4
19.4404 -10.0769 -2.6886 0.0469591 1
27.1321 -14.0639 -2.6737 0.0337703 1
41.6867 -21.6083 -2.46077 0.116325 4
45.3235 -23.4935 -0.891092 0.247263 10
45.3277 -23.4957 0.891174 0.381763 10
45.3248 -23.4942 2.67553 0.368322 10
45.2092 -23.4342 4.45509 0.177239 10
45.3191 -23.4912 6.26761 0.284285 10
45.3062 -23.4845 9.91944 0.157639 10
45.3072 -23.485 13.674 0.280926 10
8.98857 -4.6195 -2.70793 0.055711 4
9.78156 -5.02704 -2.53903 0.17721 4
11.5219 -5.92148 -2.5181 0.130694 4
14.0923 -7.24244 -2.5095 0.0569028 4
19.4753 -10.009 -2.68859 0.0469593 1
27.1808 -13.969 -2.67368 0.0337705 1
45.3224 -23.2925 -0.889465 0.217294 10
45.3265 -23.2947 0.889547 0.252077 10
45.3237 -23.2932 2.67064 0.286514 10
45.2081 -23.2338 4.44695 0.142917 10
45.315 -23.2888 8.06955 0.0987709 10
45.305 -23.2836 9.90133 0.473782 10
45.2093 -23.2344 11.7351 0.216089 10
45.306 -23.2842 13.6491 0.239434 10
8.97612 -4.57357 -2.69936 0.0422175 4
9.85562 -5.02169 -2.55368 0.135005 4
11.6032 -5.91211 -2.53133 0.142234 4
14.1174 -7.19318 -2.5095 0.041583 4
19.5101 -9.94088 -2.68857 0.0469595 1
27.2292 -13.874 -2.67366 0.0337707 1
45.3212 -23.0923 -0.887855 0.400546 10
45.3254 -23.0944 0.887936 0.31349 10
45.3225 -23.093 2.66581 0.256591 10
45.2069 -23.0341 4.4389 0.199579 10
45.3168 -23.0901 6.24485 0.198861 10
45.3139 -23.0886 8.05495 0.35708 10
45.3039 -23.0835 9.88341 0.453261 10
45.3049 -23.084 13.6244 0.269325 10
8.9636 -4.52784 -2.69082 0.0532419 4
9.93053 -5.01627 -2.56854 0.121711 4
11.6852 -5.90263 -2.54471 0.133748 4
14.1424 -7.14383 -2.50949 0.0463251 4
19.5446 -9.87268 -2.68856 0.0469597 1
27.2773 -13.7788 -2.67365 0.0337709 1
44.8775 -22.6693 -0.877607 0.270418 10
44.869 -22.665 4.39793 0.208631 10
44.8662 -22.6635 6.17181 0.31615 10
44.8633 -22.6621 7.96074 0.301694 10
44.8604 -22.6606 9.76934 0.28701 10
44.5718 -22.5148 11.5285 0.137289 10
44.8544 -22.6576 13.465 0.244515 10
8.95099 -4.48232 -2.68232 0.0538151 4
10.0063 -5.01078 -2.5836 0.166236 4
11.7681 -5.89303 -2.55827 0.148432 4
14.1672 -7.0944 -2.50948 0.0521615 4
19.5788 -9.80435 -2.68855 0.0469599 1
27.3251 -13.6834 -2.67363 0.0337711 1
42.5601 -21.3125 -2.49452 0.0775015 4
44.8763 -22.4724 -0.876045 0.231576 10
44.8735 -22.471 0.875989 0.183525 10
44.8707 -22.4696 2.62994 0.170219 10
44.8679 -22.4682 4.3901 0.204648 10
44.865 -22.4667 6.16083 0.451209 10
44.8592 -22.4638 9.75196 0.171655 10
44.8533 -22.4609 13.4411 0.211164 10
8.93831 -4.43702 -2.67386 0.0547972 4
10.0829 -5.00521 -2.59886 0.16526 4
11.8519 -5.88331 -2.572 0.14764 4
14.1918 -7.04488 -2.50947 0.0587274 4
19.6129 -9.73591 -2.68854 0.0469601 1
27.3726 -13.5879 -2.67362 0.0337713 1
42.562 -21.1279 -2.49029 0.105471 4
45.0899 -22.3828 2.6382 0.0748821 10
45.0876 -22.3817 4.40393 0.180167 10
45.0853 -22.3806 6.18032 0.0897581 10
45.083 -22.3794 7.97181 0.137253 10
45.0783 -22.3771 11.6188 0.154762 10
45.0759 -22.3759 13.4843 0.149167 10
8.92555 -4.39191 -2.66545 0.0411259 4
10.1605 -4.99957 -2.61433 0.137461 4
11.9365 -5.87347 -2.58589 0.11639 4
14.2163 -6.99528 -2.50946 0.0452312 4
19.6467 -9.66735 -2.68853 0.0469602 1
27.4197 -13.4922 -2.6736 0.0337715 1
42.5637 -20.944 -2.4861 0.101527 4
45.3236 -22.302 -0.881715 0.109619 10
45.3793 -22.3294 0.882797 0.0964707 10
45.3179 -22.2992 2.64696 0.367917 10
45.3106 -22.2956 6.20049 0.106576 10
45.3093 -22.2949 7.99802 0.268633 10
45.3064 -22.2935 9.81509 0.215324 10
8.91271 -4.34702 -2.65706 0.05882 4
10.2389 -4.99385 -2.63001 0.156637 4
12.022 -5.86351 -2.59997 0.126578 4
14.2406 -6.94559 -2.50946 0.0503381 4
19.6802 -9.59868 -2.68852 0.0469604 1
27.4665 -13.3963 -2.67359 0.0337717 1
42.5655 -20.7606 -2.48195 0.121843 4
45.3224 -22.1052 -0.880186 0.0878475 10
45.3781 -22.1324 0.881267 0.175706 10
45.3713 -22.1291 2.64556 0.460695 10
45.3111 -22.0997 6.18996 0.361995 10
45.3082 -22.0983 7.98415 0.325524 10
45.3053 -22.0969 9.79807 0.263152 10
45.3023 -22.0954 11.6365 0.119906 10
45.3351 -22.1114 13.5153 0.127366 10
8.89979 -4.30233 -2.64872 0.0569564 4
10.3183 -4.98806 -2.64591 0.0894423 4
12.1084 -5.85343 -2.61422 0.0710138 4
14.2647 -6.89582 -2.50945 0.0339236 4
19.7135 -9.52989 -2.68851 0.0469606 1
27.5129 -13.3003 -2.67357 0.0337718 1
42.5672 -20.5778 -2.47785 0.106181 4
45.3212 -21.9091 -0.878673 0.0923987 10
45.377 -21.9361 0.879752 0.462022 10
45.3702 -21.9328 2.64101 0.487859 10
45.2122 -21.8564 4.3935 0.105955 10
45.3099 -21.9037 6.17932 0.388832 10
45.2527 -21.876 7.96087 0.508692 10
45.2528 -21.8761 11.6041 0.506187 10
45.334 -21.9153 13.4921 0.569878 10
8.88681 -4.25785 -2.64042 0.0460373 4
10.3986 -4.98218 -2.66204 0.113046 4
12.1832 -5.83723 -2.62597 0.0159853 4
14.2886 -6.84597 -2.50944 0.0503384 4
19.7466 -9.46099 -2.6885 0.0469607 1
27.5591 -13.2041 -2.67356 0.033772 1
45.3173 -21.7124 0.87712 0.224794 10
45.369 -21.7372 2.63651 0.501899 10
45.1989 -21.6557 4.38484 0.232785 10
45.2504 -21.6804 6.16085 0.485775 10
45.3059 -21.707 7.95686 0.182919 10
45.303 -21.7056 9.76458 0.554081 10
45.3001 -21.7042 11.5968 0.154693 10
45.3329 -21.7199 13.4691 0.498429 10
8.87432 -4.21384 -2.63232 0.0288409 4
10.4799 -4.97623 -2.67838 0.162535 4
12.2035 -5.79466 -2.62596 0.0852553 4
14.3124 -6.79604 -2.50944 0.0499737 4
19.7794 -9.39198 -2.68849 0.0469609 1
27.6049 -13.1078 -2.67355 0.0337721 1
42.5706 -20.214 -2.46977 0.0938498 4
45.3747 -21.5455 0.87677 0.485669 10
45.3679 -21.5423 2.63206 0.489518 10
45.1978 -21.4615 4.37744 0.307971 10
45.3077 -21.5137 6.15838 0.381387 10
45.3048 -21.5123 7.94343 0.148328 10
45.3019 -21.5109 9.7481 0.476969 10
45.299 -21.5095 11.5772 0.167868 10
45.3318 -21.5251 13.4464 1.02841 10
8.88897 -4.18283 -2.63232 0.020429 4
10.5622 -4.97019 -2.69496 0.142021 4
12.2237 -5.75202 -2.62596 0.0142092 4
14.336 -6.74602 -2.50943 0.0474204 4
19.8121 -9.32285 -2.68849 0.046961 1
27.6503 -13.0113 -2.67354 0.0337723 1
42.5723 -20.033 -2.4658 0.0938648 4
45.3621 -21.3458 -0.875084 0.101713 10
45.3735 -21.3512 0.875303 1.06584 10
45.3122 -21.3223 2.62449 0.472669 10
45.1967 -21.2679 4.37011 0.304081 10
45.3065 -21.3196 6.14807 0.311768 10
45.3037 -21.3183 7.93013 0.266563 10
45.3008 -21.3169 9.73178 0.373528 10
45.2618 -21.2986 11.5486 0.106915 10
45.3307 -21.331 13.4239 1.02159 10
8.9035 -4.15177 -2.63231 0.115364 4
10.623 -4.95357 -2.70604 0.0861202 1
12.2436 -5.7093 -2.62595 0.0830354 4
14.3594 -6.69592 -2.50943 0.0521626 4
19.8444 -9.25361 -2.68848 0.0469611 1
27.6955 -12.9146 -2.67353 0.0337724 1
45.361 -21.1522 -0.873632 0.106312 10
45.3724 -21.1575 0.873851 0.310095 10
45.3656 -21.1543 2.62329 0.517702 10
45.1955 -21.075 4.36286 0.357557 10
45.247 -21.0991 6.12997 0.479425 10
45.3026 -21.1249 7.91698 0.192594 10
45.2997 -21.1236 9.71565 0.604728 10
45.2968 -21.1222 11.5387 0.237527 10
45.3296 -21.1375 13.4017 0.329678 10
8.91793 -4.12066 -2.63231 0.118368 4
10.6402 -4.91645 -2.70603 0.0861203 1
12.2635 -5.66652 -2.62595 0.0377434 4
14.3827 -6.64574 -2.50942 0.0277228 4
19.8766 -9.18426 -2.68847 0.0469613 1
27.7403 -12.8178 -2.67352 0.0337725 1
45.3599 -20.9592 -0.872196 0.110924 10
45.3713 -20.9645 0.872414 0.363852 10
45.3645 -20.9613 2.61898 0.522986 10
45.1944 -20.8828 4.35569 0.318352 10
45.3043 -20.9335 6.12779 0.286366 10
45.2471 -20.9071 7.89449 0.460357 10
45.2986 -20.9309 9.69968 0.24839 10
45.2957 -20.9295 11.5197 0.190335 10
45.3285 -20.9447 13.3796 0.377395 10
8.93225 -4.0895 -2.63231 0.0961367 4
10.6572 -4.87927 -2.70603 0.0861205 1
12.2832 -5.62367 -2.62595 0.0488445 4
14.4058 -6.59549 -2.50942 0.0430434 4
19.9084 -9.1148 -2.68846 0.0469614 1
27.7848 -12.7209 -2.67351 0.0337726 1
45.3587 -20.7669 -0.870775 0.0799953 10
45.3701 -20.7721 0.870993 0.271112 10
45.3634 -20.769 2.61472 0.541597 10
45.1933 -20.6911 4.3486 0.199295 10
45.3032 -20.7414 6.11781 0.330962 10
45.246 -20.7153 7.88163 0.518197 10
45.2975 -20.7388 9.68388 0.667819 10
45.2946 -20.7375 11.5009 0.199311 10
45.3274 -20.7525 13.3579 0.674405 10
8.94646 -4.0583 -2.6323 0.122574 4
10.6742 -4.84203 -2.70603 0.0861206 1
12.3027 -5.58075 -2.62594 0.0222021 4
14.4287 -6.54515 -2.50941 0.0496094 4
19.9401 -9.04523 -2.68846 0.0469615 1
27.8289 -12.6238 -2.6735 0.0337727 1
45.3576 -20.5751 -0.869369 0.120187 10
45.369 -20.5803 0.869587 0.258195 10
45.3623 -20.5772 2.6105 0.529133 10
45.1922 -20.5001 4.34158 0.275028 10
45.3021 -20.5499 6.10794 0.291717 10
45.2449 -20.524 7.86892 0.607007 10
45.2964 -20.5474 9.66826 0.53337 10
45.2451 -20.5241 11.4701 0.27775 10
45.3263 -20.5609 13.3363 0.365714 10
8.96056 -4.02704 -2.6323 0.106952 4
10.691 -4.80474 -2.70602 0.0861207 1
12.3221 -5.53777 -2.62594 0.0932489 4
14.4514 -6.49473 -2.50941 0.0412197 4
19.9715 -8.97555 -2.68845 0.0469616 1
27.8727 -12.5265 -2.67349 0.0337728 1
45.3565 -20.384 -0.867979 0.0802531 10
45.3679 -20.3891 0.868196 0.231856 10
45.3264 -20.3705 2.60432 0.17447 10
45.1911 -20.3097 4.33464 0.284354 10
45.301 -20.3591 6.09817 0.256768 10
45.2438 -20.3334 7.85633 0.321612 10
45.2953 -20.3565 9.6528 0.525466 10
45.2924 -20.3552 11.464 0.212993 10
45.2668 -20.3437 13.2978 0.155139 10
8.97456 -3.99573 -2.6323 0.121974 4
10.7077 -4.76738 -2.70602 0.0861207 1
12.3413 -5.49471 -2.62594 0.0510649 4
14.474 -6.44424 -2.5094 0.0499744 4
20.0027 -8.90576 -2.68845 0.0469617 1
27.9162 -12.4291 -2.67349 0.0337729 1
45.3668 -20.1986 0.86682 0.192032 10
45.36 -20.1956 2.60219 0.553125 10
45.19 -20.1199 4.32777 0.218054 10
45.2999 -20.1688 6.08851 0.310384 10
45.2427 -20.1434 7.84389 0.8031 10
45.2942 -20.1663 9.63751 0.403497 10
45.2913 -20.165 11.4459 0.20027 10
45.3242 -20.1796 13.2939 0.090641 10
8.98844 -3.96438 -2.6323 0.123777 4
10.7243 -4.72998 -2.70602 0.0861208 1
12.3604 -5.4516 -2.62593 0.113231 4
14.4964 -6.39367 -2.5094 0.0510688 4
20.0336 -8.83587 -2.68844 0.0469618 1
27.9593 -12.3315 -2.67348 0.033773 1
45.3543 -20.0036 -0.865243 0.0849795 10
45.3657 -20.0087 0.86546 0.201279 10
45.3589 -20.0057 2.59811 0.495915 10
45.1889 -19.9307 4.32097 0.240682 10
45.2988 -19.9792 6.07895 0.310872 10
45.2931 -19.9767 9.62238 0.417309 10
45.271 -19.9669 11.423 0.0903858 10
45.3231 -19.9899 13.273 0.164275 10
9.00222 -3.93297 -2.6323 0.0354506 4
10.7407 -4.69251 -2.70602 0.0861209 1
12.3794 -5.40841 -2.62593 0.0719351 4
14.5186 -6.34302 -2.5094 0.042679 4
20.0643 -8.76588 -2.68844 0.0469618 1
28.0022 -12.2339 -2.67347 0.0337731 1
45.3088 -19.795 -0.863052 0.0806323 10
45.3061 -19.7937 0.862999 0.0895969 10
45.3578 -19.8164 2.59406 0.514586 10
45.195 -19.7452 4.31494 0.102829 10
45.2393 -19.7646 6.06167 0.524858 10
45.2949 -19.7889 7.82878 0.216896 10
45.292 -19.7876 9.60742 0.10559 10
45.2891 -19.7863 11.4101 0.183428 10
45.322 -19.8007 13.2524 0.320402 10
9.01589 -3.90153 -2.63229 0.04206 4
10.757 -4.65498 -2.70601 0.086121 1
11.8717 -5.13733 -2.51442 0.0674947 4
14.5406 -6.29229 -2.5094 0.0547167 4
20.0947 -8.69577 -2.68843 0.0469619 1
28.0446 -12.136 -2.67347 0.0337732 1
45.352 -19.6256 -0.862565 0.112162 10
45.3635 -19.6305 0.862782 0.538411 10
45.3567 -19.6276 2.59007 0.519862 10
45.2966 -19.6016 6.06014 0.311837 10
45.291 -19.5992 9.59262 0.515544 10
45.2881 -19.5979 11.3926 0.166214 10
45.3209 -19.6121 13.232 0.329569 10
9.02945 -3.87003 -2.63229 0.0156223 4
10.7732 -4.6174 -2.70601 0.086121 1
11.8895 -5.09586 -2.51442 0.0590579 4
14.5625 -6.24149 -2.50939 0.0324653 4
20.1249 -8.62556 -2.68843 0.046962 1
28.0868 -12.038 -2.67346 0.0337732 1
45.3509 -19.4374 -0.861248 0.0943602 10
45.3624 -19.4423 0.861465 0.395438 10
45.3494 -19.4368 2.58576 0.130859 10
45.2955 -19.4137 6.0509 0.348007 10
45.2927 -19.4125 7.80479 0.111002 10
45.2899 -19.4113 9.57798 0.600181 10
45.287 -19.41 11.3752 0.214657 10
45.3199 -19.4241 13.2118 0.247555 10
9.0429 -3.83848 -2.63229 0.0354506 4
10.752 -4.56394 -2.69666 0.0458248 4
11.9072 -5.05432 -2.51442 0.03952 4
14.5842 -6.19062 -2.50939 0.0426791 4
20.1549 -8.55525 -2.68843 0.046962 1
28.1286 -11.9399 -2.67346 0.0337733 1
45.3613 -19.2547 0.860162 0.360034 10
45.3545 -19.2519 2.5822 0.512454 10
45.2972 -19.2275 4.30524 0.448453 10
45.2945 -19.2264 6.04175 0.317255 10
45.2916 -19.2252 7.793 0.0889357 10
45.2888 -19.224 9.5635 0.415459 10
45.2859 -19.2227 11.358 0.469449 10
45.3188 -19.2367 13.1918 0.0869927 10
9.05624 -3.80689 -2.63229 0.0318455 4
10.7271 -4.50926 -2.68646 0.0498614 4
11.9425 -5.02017 -2.51815 0.128924 4
14.6057 -6.13966 -2.50939 0.0397609 4
20.1846 -8.48484 -2.68843 0.0469621 1
28.1701 -11.8416 -2.67346 0.0337733 1
45.3487 -19.0629 -0.858658 0.090138 10
45.3602 -19.0677 0.858874 0.193808 10
45.3534 -19.0648 2.57834 0.468203 10
45.2934 -19.0396 6.0327 0.384857 10
45.2906 -19.0384 7.78133 0.12915 10
45.2877 -19.0372 9.54918 0.265584 10
45.2848 -19.036 11.341 0.180152 10
9.06947 -3.77525 -2.63229 0.112961 4
10.7022 -4.4549 -2.67631 0.0465257 4
12.0444 -5.01361 -2.53593 0.142679 4
14.627 -6.08864 -2.50939 0.0434087 4
20.2141 -8.41432 -2.68842 0.0469621 1
28.2112 -11.7432 -2.67345 0.0337734 1
45.3591 -18.8812 0.8576 0.185069 10
45.3524 -18.8784 2.57451 0.423812 10
45.2923 -18.8534 6.02376 0.407837 10
45.2895 -18.8522 7.76979 0.124882 10
45.2867 -18.851 9.53503 0.616183 10
45.2838 -18.8498 11.3242 0.347638 10
45.3167 -18.8635 13.1525 0.152692 10
9.08259 -3.74357 -2.63229 0.0162232 4
10.6773 -4.40088 -2.66623 0.0396256 4
12.1477 -5.00694 -2.55399 0.0145551 4
14.6482 -6.03754 -2.50939 0.0485156 4
20.2433 -8.3437 -2.68842 0.0469621 1
28.252 -11.6446 -2.67345 0.0337734 1
45.3466 -18.6905 -0.856125 0.0994451 10
45.358 -18.6952 0.856341 0.149177 10
45.3513 -18.6924 2.57073 0.465073 10
45.2912 -18.6677 6.01491 0.363554 10
45.2884 -18.6665 7.75838 0.0803993 10
45.2856 -18.6654 9.52103 0.510541 10
45.2827 -18.6642 11.3075 0.136615 10
45.3156 -18.6778 13.1332 0.174762 10
9.0956 -3.71184 -2.63229 0.0282404 4
10.6524 -4.34718 -2.65621 0.0461675 4
12.2525 -5.00017 -2.57234 0.134879 4
14.6692 -5.98637 -2.50939 0.0481509 4
20.2723 -8.27299 -2.68842 0.0469621 1
28.2924 -11.5459 -2.67345 0.0337734 1
44.8518 -18.3037 -0.845574 0.353092 10
44.8491 -18.3026 0.845522 0.439128 10
44.8464 -18.3015 2.53848 0.411488 10
44.8437 -18.3004 4.23743 0.469154 10
44.8409 -18.2992 5.94659 0.350598 10
44.8382 -18.2981 7.67026 0.407055 10
44.8354 -18.297 9.41289 0.120041 10
44.8325 -18.2958 11.1791 0.454577 10
44.8297 -18.2946 12.9738 0.16189 10
9.1085 -3.68007 -2.63229 0.0114163 4
10.6276 -4.29381 -2.64626 0.0495495 4
12.3588 -4.99329 -2.59098 0.129126 4
14.69 -5.93513 -2.50938 0.0445031 4
20.3011 -8.20218 -2.68842 0.0469622 1
28.3326 -11.4471 -2.67345 0.0337734 1
44.8508 -18.1209 -0.844356 0.367201 10
44.8481 -18.1198 0.844304 0.457896 10
44.8453 -18.1187 2.53482 0.41661 10
44.8426 -18.1176 4.23133 0.52856 10
44.8399 -18.1165 5.93803 0.454635 10
44.8371 -18.1154 7.65922 0.255336 10
44.8315 -18.1131 11.163 0.419874 10
44.8286 -18.1119 12.9551 0.508278 10
9.12129 -3.64826 -2.63229 0.0372533 4
10.6027 -4.24077 -2.63636 0.0364966 4
12.4666 -4.9863 -2.60991 0.12629 4
14.7517 -5.90025 -2.51639 0.142962 4
20.3296 -8.13126 -2.68842 0.0469622 1
28.3723 -11.3481 -2.67345 0.0337734 1
45.2088 -18.0823 -0.849904 0.110804 10
45.2061 -18.0812 0.849852 0.121891 10
45.2034 -18.0801 2.55148 0.116216 10
45.1979 -18.0779 5.97705 0.0971853 10
45.1951 -18.0768 7.70954 0.136862 10
45.1698 -18.0666 9.45638 0.222936 10
45.1866 -18.0733 13.0403 0.107097 10
10.5901 -4.19293 -2.62958 0.0156831 4
12.576 -4.9792 -2.62916 0.111227 4
14.8717 -5.88813 -2.53335 0.104683 4
20.3579 -8.06025 -2.68842 0.0469622 1
28.4118 -11.249 -2.67345 0.0337734 1
45.2979 -17.9347 -0.850396 0.245497 10
45.331 -17.9478 0.851017 0.295523 10
45.2925 -17.9326 2.55295 0.227062 10
45.2897 -17.9315 4.2616 0.154035 10
45.287 -17.9304 5.98051 0.370159 10
45.2842 -17.9293 7.71401 0.220123 10
45.1687 -17.8836 9.44303 0.383992 10
45.3228 -17.9446 11.2539 0.101943 10
45.3341 -17.949 13.0647 0.298803 10
9.14654 -3.58449 -2.63229 0.0246352 4
10.6047 -4.15594 -2.62958 0.1056 4
12.687 -4.97198 -2.64872 0.140346 4
14.9933 -5.87583 -2.55056 0.140143 4
20.3859 -7.98914 -2.68842 0.0469621 1
28.4509 -11.1498 -2.67345 0.0337734 1
45.2968 -17.7516 -0.849207 0.391524 10
45.3299 -17.7646 0.849827 0.550898 10
45.2914 -17.7495 2.54939 0.286499 10
45.2886 -17.7484 4.25564 0.204156 10
45.2859 -17.7474 5.97215 0.465606 10
45.2831 -17.7463 7.70323 0.220431 10
45.1677 -17.701 9.42984 0.308518 10
45.3217 -17.7614 11.2382 0.0887699 10
45.333 -17.7658 13.0464 0.228816 10
9.15899 -3.55254 -2.63229 0.0168241 4
10.6191 -4.11889 -2.62958 0.0967126 4
12.7996 -4.96465 -2.6686 0.1328 4
15.1166 -5.86334 -2.56803 0.126618 4
18.9947 -7.36758 -2.50156 0.0384842 4
28.4897 -11.0504 -2.67345 0.0337734 1
45.2474 -17.5503 -0.847126 0.843399 10
45.3289 -17.5819 0.848651 0.825213 10
45.2903 -17.567 2.54586 0.26868 10
45.2876 -17.5659 4.24976 0.168094 10
45.2848 -17.5648 5.96389 0.466251 10
45.2821 -17.5638 7.69258 0.252271 10
45.1666 -17.519 9.41679 0.376107 10
45.2764 -17.5616 11.2116 0.0933375 10
45.332 -17.5831 13.0284 0.528769 10
9.17134 -3.52055 -2.63229 0.0192275 4
10.6335 -4.0818 -2.62958 0.0883482 4
12.9139 -4.9572 -2.68881 0.110603 4
15.2415 -5.85067 -2.58576 0.098994 4
19.0204 -7.30123 -2.50156 0.0404797 4
28.5281 -10.9509 -2.67345 0.0337734 1
45.2947 -17.387 -0.846871 0.168911 10
45.2693 -17.3773 0.846396 0.15979 10
45.2893 -17.3849 2.54237 0.30097 10
45.2865 -17.3839 4.24394 0.172874 10
45.2838 -17.3828 5.95573 0.453292 10
45.281 -17.3818 7.68205 0.279683 10
45.1656 -17.3374 9.4039 0.399041 10
45.2754 -17.3796 11.1963 0.137973 10
45.2725 -17.3785 12.9938 0.16326 10
9.18358 -3.48851 -2.63229 0.0324464 4
10.6476 -4.04466 -2.62958 0.0920076 4
12.9958 -4.93663 -2.70224 0.0731519 1
15.3681 -5.83781 -2.60377 0.120451 4
19.0457 -7.2348 -2.50156 0.0390543 4
28.5662 -10.8513 -2.67346 0.0337733 1
45.2936 -17.2054 -0.845723 0.20114 10
45.3267 -17.218 0.84634 0.9509 10
45.2882 -17.2034 2.53893 0.301378 10
45.2855 -17.2023 4.23819 0.177664 10
45.2827 -17.2013 5.94766 0.599157 10
45.28 -17.2002 7.67164 0.280062 10
45.1645 -17.1564 9.39116 0.359175 10
45.2743 -17.1981 11.1811 0.133703 10
45.3299 -17.2192 12.9929 0.494864 10
9.1957 -3.45644 -2.63229 0.0300429 4
10.6617 -4.00747 -2.62958 0.0988035 4
13.0129 -4.89124 -2.70224 0.0731519 1
15.4883 -5.82167 -2.62068 0.0404904 4
19.0709 -7.16828 -2.50156 0.0276516 4
28.6039 -10.7515 -2.67346 0.0337733 1
45.2503 -17.0085 -0.843801 0.0928318 10
45.3257 -17.0368 0.845205 0.585955 10
45.2872 -17.0223 2.53552 0.283493 10
45.2844 -17.0213 4.2325 0.155094 10
45.2817 -17.0203 5.93968 0.268165 10
45.2789 -17.0192 7.66135 0.303054 10
45.1635 -16.9758 9.37856 0.238273 10
45.2733 -17.0171 11.1661 0.138346 10
45.3289 -17.038 12.9755 1.07512 10
9.20772 -3.42432 -2.63229 0.025236 4
10.6756 -3.97023 -2.62959 0.101417 4
13.0299 -4.84579 -2.70224 0.0731518 1
15.5086 -5.76758 -2.62068 0.0346539 4
19.0958 -7.10168 -2.50157 0.0359185 4
28.6413 -10.6516 -2.67346 0.0337732 1
45.2915 -16.8438 -0.843467 0.11459 10
45.3246 -16.8561 0.844083 0.389628 10
45.2861 -16.8418 2.53216 0.256399 10
45.2834 -16.8407 4.22688 0.200977 10
45.2806 -16.8397 5.93179 0.477877 10
45.2779 -16.8387 7.65118 0.276282 10
45.1656 -16.797 9.36677 0.165063 10
45.3279 -16.8573 12.9583 1.06769 10
9.21962 -3.39216 -2.63229 0.0282403 4
10.6894 -3.93295 -2.62959 0.0360711 4
13.0468 -4.80029 -2.70225 0.0731518 1
15.5286 -5.71342 -2.62068 0.0156854 4
19.1205 -7.03498 -2.50157 0.0453257 4
28.6784 -10.5516 -2.67347 0.0337732 1
45.3236 -16.6758 0.842974 0.229495 10
45.285 -16.6617 2.52883 0.293413 10
45.2823 -16.6607 4.22133 0.484809 10
45.2796 -16.6597 5.924 0.747379 10
45.2768 -16.6586 7.64113 0.267575 10
45.1747 -16.6211 9.35657 0.234415 10
45.3268 -16.677 12.9413 0.377066 10
9.23141 -3.35996 -2.6323 0.0228326 4
10.7031 -3.89561 -2.62959 0.0214335 4
13.0635 -4.75472 -2.70225 0.0731517 1
15.5485 -5.65918 -2.62068 0.0364777 4
19.145 -6.96821 -2.50157 0.0333528 4
28.7151 -10.4514 -2.67347 0.0337731 1
45.2894 -16.484 -0.841264 0.0919118 10
45.3225 -16.4961 0.841878 0.307923 10
45.284 -16.482 2.52554 0.321338 10
45.2813 -16.4811 4.21585 0.270198 10
45.2786 -16.4801 5.9163 0.410681 10
45.2758 -16.4791 7.6312 0.331498 10
45.219 -16.4584 9.35378 0.0991916 10
45.3145 -16.4931 11.1331 0.11649 10
45.3258 -16.4972 12.9245 0.26651 10
9.24309 -3.32772 -2.6323 0.0324463 4
10.7166 -3.85823 -2.62959 0.03398 4
13.08 -4.70909 -2.70225 0.0731516 1
19.1692 -6.90135 -2.50158 0.0373437 4
28.7514 -10.3512 -2.67348 0.033773 1
45.291 -16.3058 -2.52275 0.450371 10
45.3215 -16.3167 0.840796 0.262302 10
45.283 -16.3029 2.5223 0.376909 10
45.2802 -16.3019 4.21042 0.169664 10
45.2775 -16.3009 5.9087 0.251295 10
45.2748 -16.2999 7.62139 0.30919 10
45.3135 -16.3139 11.1188 0.103182 10
45.3248 -16.3179 12.9078 0.244616 10
9.25466 -3.29544 -2.6323 0.0462659 4
10.7301 -3.8208 -2.62959 0.056459 4
13.0964 -4.66341 -2.70225 0.0731516 1
15.5876 -5.55051 -2.62069 0.0379367 4
19.1932 -6.8344 -2.50158 0.0344929 4
28.7875 -10.2508 -2.67349 0.0337729 1
45.29 -16.127 -2.51954 0.234676 10
45.2873 -16.1261 -0.839113 0.0967548 10
45.3204 -16.1379 0.839726 0.110583 10
45.2819 -16.1242 2.51909 0.294547 10
45.2329 -16.1067 4.20077 0.454544 10
45.2765 -16.1222 5.90118 0.37056 10
45.2737 -16.1213 7.6117 0.432507 10
45.3124 -16.135 11.1046 0.134756 10
45.3237 -16.1391 12.8914 0.213754 10
9.26611 -3.26311 -2.6323 0.0270385 4
10.7433 -3.78333 -2.6296 0.0695281 4
13.1126 -4.61767 -2.70226 0.0731515 1
15.6069 -5.49607 -2.62069 0.0295468 4
19.217 -6.76738 -2.50159 0.035063 4
28.8232 -10.1502 -2.67349 0.0337728 1
45.2889 -15.9488 -2.51637 0.492979 10
45.2863 -15.9478 -0.838057 0.0968767 10
45.3194 -15.9595 0.83867 0.161471 10
45.2809 -15.9459 2.51592 0.304135 10
45.2782 -15.945 4.19978 0.285023 10
45.2755 -15.944 5.89376 0.371027 10
45.2727 -15.943 7.60212 0.487753 10
45.3227 -15.9607 12.8752 0.222941 10
9.27745 -3.23075 -2.6323 0.0234334 4
10.7565 -3.74581 -2.6296 0.0130692 4
13.091 -4.55877 -2.69451 0.0442459 4
15.6261 -5.44157 -2.6207 0.0507038 4
19.2406 -6.70027 -2.50159 0.0421895 4
28.8585 -10.0496 -2.6735 0.0337727 1
45.2879 -15.7709 -2.51323 0.645823 10
45.2852 -15.77 -0.837014 0.161662 10
45.3183 -15.7815 0.837626 0.143195 10
45.2798 -15.7681 2.51279 0.281444 10
45.2309 -15.7511 4.19026 0.713445 10
45.2744 -15.7662 5.88642 0.210969 10
45.2717 -15.7653 7.59266 0.31036 10
45.3104 -15.7787 11.0769 0.153106 10
45.3217 -15.7827 12.8592 0.209826 10
9.28868 -3.19835 -2.63231 0.0390556 4
10.7695 -3.70824 -2.6296 0.0151602 4
13.0465 -4.49227 -2.68211 0.0426605 4
15.645 -5.387 -2.6207 0.0612821 4
19.2639 -6.63308 -2.5016 0.0387687 4
28.8935 -9.94883 -2.67351 0.0337726 1
45.2868 -15.5935 -2.51014 0.614288 10
45.2842 -15.5926 -0.835984 0.254354 10
45.3173 -15.604 0.836595 0.124872 10
45.2788 -15.5907 2.50969 0.323367 10
45.2298 -15.5739 4.18511 0.66363 10
45.2734 -15.5889 5.87918 0.339803 10
45.2707 -15.5879 7.58332 0.329021 10
45.3094 -15.6013 11.0632 0.121734 10
45.3207 -15.6052 12.8434 0.214554 10
9.2998 -3.16591 -2.63231 0.0552786 4
10.7824 -3.67063 -2.62961 0.042344 4
13.0022 -4.42631 -2.66981 0.0446553 4
14.9986 -5.10593 -2.50942 0.0521627 4
19.287 -6.56581 -2.5016 0.0356329 4
28.9282 -9.84795 -2.67352 0.0337725 1
45.2858 -15.4165 -2.50708 0.605788 10
45.2831 -15.4156 -0.834966 0.245403 10
45.2578 -15.407 0.834498 0.213004 10
45.2778 -15.4138 2.50664 0.249759 10
45.2288 -15.3971 4.18001 0.54447 10
45.2724 -15.412 5.87203 0.312632 10
45.2696 -15.411 7.57409 0.29282 10
45.2641 -15.4091 11.039 0.180567 10
45.3197 -15.4281 12.8277 0.214816 10
9.31081 -3.13344 -2.63231 0.0174247 4
10.7952 -3.63298 -2.62961 0.00993253 4
12.9581 -4.36088 -2.6576 0.0367313 4
15.0163 -5.05356 -2.50943 0.0419489 4
19.3098 -6.49847 -2.50161 0.0370581 4
28.9625 -9.74695 -2.67353 0.0337724 1
45.2848 -15.24 -2.50407 0.546329 10
45.2821 -15.2391 -0.833961 0.338416 10
45.3152 -15.2503 0.834571 0.162264 10
45.2767 -15.2373 2.50362 0.203752 10
45.2278 -15.2208 4.17498 0.586704 10
45.2714 -15.2355 5.86496 0.589193 10
45.2686 -15.2346 7.56498 0.256526 10
45.3073 -15.2476 11.0365 0.718617 10
45.3187 -15.2514 12.8123 0.492879 10
9.3217 -3.10092 -2.63232 0.0306435 4
10.8078 -3.59528 -2.62961 0.0533219 4
12.9141 -4.29596 -2.6455 0.0384117 4
15.0395 -5.00297 -2.51036 0.096314 4
19.3324 -6.43105 -2.50162 0.0427592 4
28.9964 -9.64583 -2.67354 0.0337723 1
45.2837 -15.0639 -2.50109 0.519168 10
45.2811 -15.063 -0.832969 0.362026 10
45.3142 -15.074 0.833578 0.222798 10
45.2757 -15.0612 2.50064 0.208631 10
45.2267 -15.0449 4.17001 0.619779 10
45.2703 -15.0594 5.85798 0.31799 10
45.2676 -15.0585 7.55598 0.284349 10
45.2649 -15.0576 9.27265 0.0683761 10
45.3063 -15.0714 11.0233 0.669698 10
45.3177 -15.0752 12.7971 0.201872 10
9.33248 -3.06837 -2.63232 0.0462656 4
10.8203 -3.55754 -2.62962 0.0214333 4
12.8703 -4.23155 -2.63349 0.0331178 4
15.191 -4.99456 -2.53273 0.0858367 4
19.3548 -6.36354 -2.50162 0.0347774 4
29.0179 -9.54061 -2.67243 0.0847214 4
45.2827 -14.8882 -2.49814 0.120663 10
45.28 -14.8873 -0.831989 0.232341 10
45.3132 -14.8982 0.832597 0.158001 10
45.2747 -14.8856 2.4977 0.16246 10
45.2257 -14.8695 4.16511 0.453805 10
45.2693 -14.8838 5.85109 0.350663 10
45.2666 -14.8829 7.54709 0.280092 10
45.2638 -14.882 9.26174 0.0775842 10
45.3053 -14.8956 11.0104 0.543638 10
45.3167 -14.8994 12.782 0.282954 10
9.34315 -3.03577 -2.63232 0.0228323 4
10.8327 -3.51975 -2.62962 0.0679591 4
12.8482 -4.17465 -2.62597 0.0199817 4
15.3453 -4.98599 -2.55553 0.113693 4
19.377 -6.29596 -2.50163 0.0407636 4
29.0172 -9.42828 -2.66933 0.080225 4
45.279 -14.712 -0.831021 0.279134 10
45.3121 -14.7228 0.831629 0.120965 10
45.2737 -14.7103 2.4948 0.111531 10
45.2247 -14.6944 4.16027 0.486786 10
45.2392 -14.6991 5.84053 0.0904924 10
45.2656 -14.7077 7.53831 0.289612 10
45.2628 -14.7068 9.25098 0.10052 10
45.3043 -14.7203 10.9976 0.122461 10
45.2572 -14.705 12.7507 0.193352 10
9.3537 -3.00315 -2.63233 0.0294416 4
10.8449 -3.48192 -2.62963 0.0271836 4
12.8628 -4.12978 -2.62597 0.086587 4
15.5023 -4.97725 -2.57877 0.0906072 4
19.3989 -6.22831 -2.50164 0.0276507 4
29.0166 -9.31621 -2.66626 0.0700826 4
45.2806 -14.538 -2.49237 0.302357 10
45.278 -14.5372 -0.830066 0.377265 10
45.3111 -14.5478 0.830673 0.153709 10
45.2237 -14.5197 4.15548 0.682285 10
45.2673 -14.5337 5.83757 0.48559 10
45.2646 -14.5329 7.52965 0.253127 10
45.3033 -14.5453 10.9849 0.104438 10
45.2562 -14.5302 12.736 0.198076 10
9.36414 -2.97048 -2.63233 0.0234331 4
10.857 -3.44405 -2.62963 0.0282291 4
12.8771 -4.08487 -2.62598 0.0839226 4
15.6622 -4.96835 -2.60247 0.110081 4
19.4206 -6.16057 -2.50165 0.0427587 4
45.2796 -14.3635 -2.48954 0.321328 10
45.277 -14.3627 -0.829123 0.373031 10
45.3101 -14.3732 0.829729 0.121242 10
45.2227 -14.3455 4.15076 0.650534 10
45.2663 -14.3593 5.83094 0.435213 10
45.2636 -14.3584 7.5211 0.239592 10
45.3023 -14.3707 10.9725 0.131833 10
45.2552 -14.3558 12.7216 0.162247 10
9.37447 -2.93778 -2.63234 0.0450636 4
10.869 -3.40614 -2.62964 0.0162055 4
12.8913 -4.0399 -2.62599 0.0817023 4
15.8251 -4.95927 -2.62664 0.11603 4
19.442 -6.09277 -2.50166 0.0310712 4
29.0153 -9.09283 -2.66024 0.0874833 4
44.7993 -14.0392 -2.46042 0.396284 10
44.8269 -14.0479 -0.819978 0.37345 10
44.8242 -14.0471 0.819929 0.14472 10
44.8216 -14.0462 2.46164 0.35905 10
44.819 -14.0454 4.10919 0.362847 10
44.8163 -14.0446 5.76663 0.338364 10
44.8136 -14.0437 7.43815 0.313665 10
44.8109 -14.0429 9.12805 0.554747 10
44.8054 -14.0412 12.5813 0.21206 10
9.38469 -2.90505 -2.63234 0.0120169 4
10.8808 -3.36818 -2.62964 0.00522758 4
12.9054 -3.99489 -2.62599 0.0861424 4
15.9909 -4.95001 -2.65128 0.108054 4
19.4633 -6.02489 -2.50167 0.0239447 4
29.0146 -8.98152 -2.65729 0.0823744 4
44.7982 -13.8674 -2.45769 0.410726 10
44.8259 -13.8759 -0.819069 0.490697 10
44.8232 -13.8751 0.81902 0.121513 10
44.8206 -13.8743 2.45891 0.35478 10
44.818 -13.8735 4.10463 0.437763 10
44.8153 -13.8727 5.76023 0.371222 10
44.8126 -13.8718 7.4299 0.217038 10
44.8072 -13.8701 10.8288 0.423719 10
44.8044 -13.8693 12.5673 0.302634 10
9.39479 -2.87228 -2.63235 0.0102144 4
10.8926 -3.33019 -2.62965 0.0209103 4
12.9193 -3.94983 -2.626 0.0888064 4
16.1599 -4.94057 -2.67642 0.0979295 4
19.4842 -5.95694 -2.50168 0.0458938 4
29.0139 -8.87046 -2.65438 0.0985781 4
44.8745 -13.7195 -2.45923 0.115213 10
44.9611 -13.746 2.46397 0.105034 10
44.9576 -13.7449 4.113 0.126616 10
44.9542 -13.7439 5.77188 0.0986093 10
44.9507 -13.7428 7.44479 0.119782 10
44.9471 -13.7417 9.13604 0.110449 10
44.9436 -13.7406 10.8501 0.111065 10
44.9399 -13.7395 12.5918 0.103053 10
9.40477 -2.83947 -2.63235 0.0739039 4
10.9041 -3.29216 -2.62965 0.0167282 4
12.933 -3.90471 -2.62601 0.0182053 4
16.3011 -4.92159 -2.69695 0.0600912 1
19.505 -5.88891 -2.50169 0.0350616 4
29.0133 -8.75963 -2.6515 0.104921 4
45.4305 -13.7163 -2.48706 0.103829 10
45.5251 -13.7448 -0.830071 0.101081 10
45.5215 -13.7438 0.830006 0.0722064 10
45.518 -13.7427 2.49185 0.119726 10
45.5145 -13.7416 4.15953 0.125199 10
45.511 -13.7406 5.83718 0.0960723 10
45.5074 -13.7395 7.529 0.105599 10
45.5001 -13.7373 10.9728 0.102783 10
45.4964 -13.7362 12.7342 0.0963173 10
9.41465 -2.80663 -2.63236 0.0234329 4
10.9156 -3.25408 -2.62966 0.0245695 4
12.9466 -3.85956 -2.62601 0.0404067 4
11.2393 -3.35057 -1.85754 0.00803814 6
19.6694 -5.8637 -2.52013 0.0883967 4
29.0126 -8.64905 -2.64867 0.0957013 4
46.0508 -13.7283 -0.838778 0.234426 10
46.0481 -13.7275 0.838728 0.164108 10
46.0454 -13.7267 2.51809 0.384036 10
46.0427 -13.7259 4.2034 0.2523 10
46.04 -13.7251 5.89885 0.349154 10
46.0373 -13.7243 7.6087 0.384528 10
46.0345 -13.7235 9.33735 0.317726 10
46.0317 -13.7226 11.0894 0.306254 10
46.0288 -13.7218 12.8698 0.299087 10
9.42441 -2.77376 -2.63236 0.0102143 4
10.9269 -3.21597 -2.62967 0.031888 4
12.96 -3.81435 -2.62602 0.0293059 4
11.1756 -3.28916 -1.84511 0.0583954 6
19.8671 -5.84722 -2.54283 0.115161 4
29.012 -8.5387 -2.64587 0.0972496 4
45.99 -13.5356 -2.51246 0.356249 10
46.0498 -13.5532 -0.837893 0.244061 10
46.0471 -13.5524 0.837843 0.305094 10
46.0444 -13.5516 2.51543 0.342247 10
46.0417 -13.5508 4.19897 0.116929 10
46.039 -13.55 5.89262 0.288939 10
46.0362 -13.5492 7.60067 0.366384 10
46.0335 -13.5484 9.3275 0.382595 10
46.0307 -13.5476 11.0777 0.375214 10
46.0278 -13.5467 12.8562 0.213211 10
9.43405 -2.74085 -2.63237 0.0288404 4
10.9381 -3.17781 -2.62967 0.0214328 4
12.9733 -3.7691 -2.62603 0.0244215 4
11.1551 -3.24085 -1.83984 0.0672351 6
11.2902 -3.2801 -1.44358 0.0346307 6
29.0113 -8.42858 -2.64311 0.0974276 4
45.989 -13.361 -2.50984 0.342544 10
46.0488 -13.3784 -0.837019 0.286601 10
46.0461 -13.3776 0.83697 0.267823 10
46.0434 -13.3768 2.51281 0.13141 10
46.0407 -13.3761 4.19459 0.168553 10
46.038 -13.3753 5.88648 0.256584 10
46.0352 -13.3745 7.59275 0.380694 10
46.0325 -13.3737 9.31778 0.346079 10
46.0297 -13.3729 11.0662 0.0916112 10
46.0268 -13.372 12.8428 0.308798 10
9.44358 -2.7079 -2.63237 0.0390546 4
10.9492 -3.13962 -2.62968 0.0141143 4
12.9864 -3.7238 -2.62604 0.017761 4
11.1515 -3.19764 -1.8374 0.0706922 6
11.2733 -3.23258 -1.43997 0.03887 6
29.0107 -8.31868 -2.64039 0.0865886 4
45.988 -13.1868 -2.50725 0.352291 10
46.0477 -13.204 -0.836158 0.272787 10
46.0451 -13.2032 0.836108 0.268099 10
46.0424 -13.2024 2.51022 0.159733 10
46.037 -13.2009 5.88043 0.256848 10
46.0342 -13.2001 7.58493 0.246312 10
46.0315 -13.1993 9.3082 0.143193 10
46.0287 -13.1985 11.0548 0.265946 10
46.0258 -13.1977 12.8296 0.14092 10
9.453 -2.67493 -2.63238 0.022231 4
10.9601 -3.10139 -2.62969 0.0282285 4
12.9994 -3.67846 -2.62604 0.0439584 4
11.151 -3.15542 -1.8355 0.0707656 6
11.2778 -3.1913 -1.43912 0.0199073 6
29.01 -8.20902 -2.63771 0.0791718 4
45.9869 -13.013 -2.50471 0.385564 10
46.0467 -13.0299 -0.835308 0.202444 10
46.044 -13.0292 0.835259 0.207164 10
46.0414 -13.0284 2.50767 0.357414 10
46.0387 -13.0276 4.18602 0.286189 10
46.036 -13.0269 5.87445 0.308531 10
46.0277 -13.0245 11.0436 0.252447 10
46.0248 -13.0237 12.8165 0.200219 10
9.4623 -2.64192 -2.63239 0.0474661 4
10.9709 -3.06312 -2.62969 0.0167279 4
13.0122 -3.63307 -2.62605 0.019537 4
11.1506 -3.11329 -1.83362 0.0708393 6
11.2846 -3.15072 -1.43857 0.0199608 6
29.0094 -8.09957 -2.63506 0.0769543 4
45.9859 -12.8395 -2.5022 0.37183 10
46.0457 -12.8562 -0.834471 0.146095 10
46.043 -12.8554 0.834421 0.32991 10
46.0403 -12.8547 2.50516 0.376603 10
46.0376 -12.8539 4.18182 0.272387 10
46.0349 -12.8532 5.86856 0.219932 10
46.0322 -12.8524 7.56963 0.121076 10
46.0295 -12.8517 9.28942 0.379535 10
46.0267 -12.8509 11.0325 0.326212 10
46.0238 -12.8501 12.8037 0.19131 10
9.47149 -2.60888 -2.63239 0.01442 4
10.9815 -3.02482 -2.6297 0.0245691 4
12.115 -3.33703 -2.44262 0.15386 6
11.1501 -3.07124 -1.83177 0.0709109 6
11.8711 -3.26986 -1.51188 0.0278404 6
29.0088 -7.99034 -2.63245 0.0747667 4
45.9849 -12.6664 -2.49972 0.358065 10
46.0447 -12.6828 -0.833645 0.165109 10
46.042 -12.6821 0.833596 0.301931 10
46.0393 -12.6813 2.50268 0.311005 10
46.0366 -12.6806 4.17768 0.338471 10
46.0339 -12.6799 5.86276 0.248254 10
46.0312 -12.6791 7.56214 0.181794 10
46.0285 -12.6783 9.28023 0.34748 10
