VERSION 0.7
FIELDS x y z intensity label
SIZE 4 4 4 4 4
TYPE F F F F F
COUNT 1 1 1 1 1
WIDTH 1198
HEIGHT 1
VIEWPOINT 31.0571 7.49019 2.72833 0.999993 -5.71856e-05 0.000876709 -0.00375106
POINTS 1198
DATA ascii
10.4207 12.6863 3.79027 0.00101995 10
10.4171 12.6819 4.39752 0.000988618 10
5.9571 7.30412 -2.52551 0.000569578 4
7.43059 9.1108 -2.71425 0.000388689 1
8.80911 10.801 -2.70924 0.000220861 1
10.7837 13.2221 -2.70235 0.0012447 10
11.3613 13.9303 -2.20716 0.000918717 10
15.6969 19.2462 -2.17284 0.000383746 10
15.6946 19.2434 -1.30139 0.000387526 10
15.6868 19.2339 -0.433229 0.000389499 10
15.6917 19.2399 0.433365 0.000389644 10
12.9888 15.9259 1.07703 5.32278e-05 10
10.3501 12.6904 1.43271 0.00111548 10
10.3418 12.6803 2.00911 0.00110098 10
10.3422 12.6808 2.59172 0.00108187 10
10.339 12.6768 3.17975 0.00105833 10
10.3394 12.6774 3.77679 0.00103061 10
10.3495 12.6897 4.38766 0.000998963 10
5.94147 7.33711 -2.52973 0.000605423 4
7.40101 9.13948 -2.71508 0.000388664 1
8.78555 10.8493 -2.71362 0.000220843 1
10.7058 13.2205 -2.69438 0.00125767 10
11.3592 14.0275 -2.21626 0.000904717 10
15.6868 19.3715 -2.18079 0.00037752 10
15.695 19.3817 -1.30703 0.000381243 10
15.6797 19.3628 -0.434897 0.000383187 10
15.6807 19.3641 0.434926 0.00038333 10
12.9276 15.9642 1.07657 5.32451e-05 10
10.2781 12.6924 1.42886 0.00112701 10
10.2775 12.6917 2.00521 0.00111237 10
10.2717 12.6845 2.58514 0.00109306 10
10.2659 12.6774 3.17087 0.0010693 10
10.2827 12.6981 3.77224 0.00104129 10
10.271 12.6837 4.37316 0.00100934 10
5.90345 7.34241 -2.52444 0.000560545 4
7.37324 9.17046 -2.71662 0.000388638 1
8.74057 10.8711 -2.71143 0.000220826 1
10.6428 13.2369 -2.69013 0.00127067 10
11.357 14.1252 -2.22543 0.000890825 10
15.6945 19.52 -2.19132 0.000371347 10
15.6806 19.5028 -1.31149 0.000375013 10
15.6851 19.5083 -0.436933 0.000376927 10
15.6956 19.5214 0.437227 0.000377069 10
12.8736 16.0115 1.07672 5.32624e-05 10
10.1933 12.6779 1.42322 0.00113857 10
10.2055 12.6931 1.99979 0.00112378 10
10.1941 12.6789 2.57673 0.00110429 10
10.2037 12.6909 3.16533 0.00108029 10
10.1982 12.684 3.75746 0.00105201 10
10.1948 12.6798 4.35952 0.00101974 10
5.88524 7.37231 -2.52764 0.000547062 4
7.33729 9.19126 -2.71518 0.000388612 1
8.70996 10.9108 -2.71374 0.000220808 1
10.5637 13.2329 -2.68181 0.00128371 10
11.3588 14.2289 -2.2355 0.000877038 10
15.6939 19.6594 -2.2008 0.000365225 10
15.6916 19.6565 -1.31814 0.000368835 10
15.6802 19.6422 -0.438704 0.00037072 10
15.693 19.6583 0.439063 0.000370859 10
12.8048 16.0404 1.07565 5.32799e-05 10
10.1225 12.6802 1.4195 0.00115015 10
10.1241 12.6822 1.9925 0.00113522 10
10.1283 12.6875 2.57127 0.00111554 10
10.1247 12.6831 3.15454 0.00109131 10
10.1355 12.6965 3.75065 0.00106275 10
10.121 12.6783 4.34685 0.00103017 10
5.86717 7.40252 -2.53097 0.000538063 4
7.30769 9.22001 -2.71612 0.000388586 1
8.6581 10.9238 -2.70944 0.00022079 1
10.4776 13.2195 -2.67166 0.00129678 10
11.3475 14.317 -2.2431 0.000863358 10
15.6832 19.7872 -2.20897 0.000359156 10
15.6921 19.7985 -1.32398 0.00036271 10
15.6771 19.7796 -0.440548 0.000364566 10
15.691 19.7972 0.440939 0.000364704 10
12.7611 16.1005 1.07668 5.32974e-05 10
10.0455 12.6742 1.4149 0.00116177 10
10.0495 12.6793 1.98652 0.00114669 10
10.0536 12.6845 2.56353 0.00112682 10
10.0543 12.6853 3.14636 0.00110235 10
10.0565 12.6882 3.73781 0.00107353 10
10.0555 12.6868 4.3377 0.00104062 10
5.83179 7.41089 -2.52685 0.000632189 4
7.26783 9.23577 -2.71327 0.00038856 1
8.62469 10.96 -2.71094 0.000220772 1
10.4046 13.2219 -2.66478 0.00130989 10
11.3581 14.4336 -2.25515 0.000849784 10
15.6949 19.9446 -2.22042 0.000353139 10
15.6808 19.9267 -1.32889 0.000356637 10
15.6795 19.9251 -0.442567 0.000358465 10
15.6756 19.9201 0.442455 0.000358601 10
12.6998 16.1386 1.07626 5.33149e-05 10
9.98298 12.6861 1.41233 0.00117341 10
9.97927 12.6814 1.98138 0.0011582 10
9.98284 12.6859 2.55677 0.00113813 10
9.98179 12.6846 3.13751 0.00111343 10
9.9834 12.6866 3.72707 0.00108432 10
9.98213 12.685 4.32514 0.00105111 10
5.80885 7.43499 -2.52814 0.000600769 4
7.22866 9.25226 -2.71069 0.000388534 1
8.58713 10.991 -2.71118 0.000220754 1
10.3352 13.2285 -2.65883 0.00132302 10
11.3473 14.5239 -2.26305 0.00083632 10
15.6807 20.0704 -2.22831 0.000347176 10
15.6892 20.0813 -1.33554 0.000350619 10
15.6922 20.0851 -0.444902 0.000352418 10
15.6895 20.0816 0.444823 0.000352553 10
12.6469 16.1872 1.07655 5.33325e-05 10
9.90517 12.678 1.40758 0.00118509 10
9.90625 12.6794 1.97565 0.00116972 10
9.91609 12.692 2.551 0.00114947 10
9.90438 12.677 3.12707 0.00112453 10
9.90865 12.6825 3.71566 0.00109515 10
9.91029 12.6846 4.31317 0.00106161 10
5.78573 7.45892 -2.52939 0.000663499 4
7.2059 9.28978 -2.7143 0.000388508 1
8.5526 11.0259 -2.71241 0.000220736 1
10.2689 13.2385 -2.65363 0.00133619 10
11.3426 14.6228 -2.27228 0.000822965 10
15.6827 20.2179 -2.2386 0.000341265 10
15.6801 20.2146 -1.34075 0.000344654 10
15.6765 20.2099 -0.446452 0.000346424 10
15.6735 20.2062 0.446368 0.000346558 10
12.5839 16.2231 1.07601 5.33502e-05 10
9.83486 12.679 1.40386 0.00119678 10
9.84249 12.6889 1.97176 0.00118127 10
9.82973 12.6724 2.54015 0.00116083 10
9.83011 12.6729 3.11757 0.00113565 10
9.8397 12.6853 3.70639 0.00110599 10
9.83852 12.6837 4.30118 0.00107214 10
5.75911 7.47835 -2.52915 0.000641047 4
7.17649 9.31887 -2.71546 0.000388482 1
8.50405 11.0427 -2.70923 0.000220718 1
10.1865 13.2274 -2.64426 0.00134939 10
11.3419 14.7277 -2.28242 0.000809716 10
15.6841 20.3662 -2.24894 0.000335407 10
15.6894 20.3731 -1.34762 0.000338742 10
15.68 20.3609 -0.448575 0.000340484 10
15.6838 20.3658 0.448681 0.000340616 10
12.5312 16.272 1.07635 5.33679e-05 10
9.75836 12.6715 1.39925 0.00120851 10
9.76879 12.685 1.96586 0.00119285 10
9.75959 12.6731 2.53344 0.00117222 10
9.77041 12.6871 3.11266 0.0011468 10
9.77145 12.6885 3.69734 0.00111686 10
9.76863 12.6848 4.28996 0.0010827 10
5.72546 7.48859 -2.52584 0.000667906 4
7.13202 9.32829 -2.71093 0.000388455 1
8.48068 11.0923 -2.7141 0.0002207 1
10.1155 13.2305 -2.6378 0.00136261 10
11.3396 14.8316 -2.29237 0.00079658 10
15.6781 20.5061 -2.25833 0.000329603 10
15.6763 20.5038 -1.35264 0.000332884 10
15.6881 20.5192 -0.450853 0.000334599 10
15.6747 20.5016 0.450466 0.000334729 10
12.4555 16.291 1.07473 5.33856e-05 10
9.70094 12.6883 1.39736 0.00122025 10
9.70224 12.69 1.96136 0.00120445 10
9.69636 12.6823 2.5285 0.00118363 10
9.69999 12.687 3.10431 0.00115798 10
9.69806 12.6845 3.6863 0.00112776 10
9.69552 12.6812 4.27726 0.00109327 10
5.70825 7.52035 -2.52981 0.000681315 4
7.11111 9.36855 -2.7154 0.000388429 1
8.4362 11.1143 -2.71226 0.000220682 1
10.0353 13.221 -2.6289 0.00137586 10
11.3511 14.9545 -2.30522 0.000783551 10
15.6892 20.6697 -2.27031 0.000323852 10
15.6721 20.6473 -1.35849 0.000327079 10
15.6847 20.6638 -0.452824 0.000328767 10
15.6838 20.6627 0.452799 0.000328895 10
12.4025 16.3397 1.07508 5.34035e-05 10
9.62896 12.6857 1.39336 0.00123202 10
9.62708 12.6832 1.95511 0.00121608 10
9.63045 12.6877 2.52285 0.00119506 10
9.61944 12.6731 3.09268 0.00116917 10
9.6316 12.6892 3.67786 0.00113868 10
9.62566 12.6813 4.26595 0.00110387 10
5.67617 7.53253 -2.52723 0.00069024 4
7.07207 9.38495 -2.71298 0.000388403 1
8.39293 11.1378 -2.71083 0.000220664 1
9.95763 13.2142 -2.62063 0.00138914 10
11.3518 15.0644 -2.31604 0.000770635 10
15.6811 20.8095 -2.27963 0.000318156 10
15.684 20.8134 -1.36581 0.00032133 10
15.6849 20.8145 -0.454924 0.00032299 10
15.6744 20.8006 0.45462 0.000323117 10
12.3484 16.3869 1.07533 5.34214e-05 10
9.60995 12.7528 1.39704 0.000937456 10
9.60608 12.7477 1.95987 0.000925636 10
9.61546 12.7601 2.53058 0.000909945 10
9.61093 12.7541 3.10424 0.000890538 10
9.61971 12.7658 3.69031 0.000867609 10
9.60281 12.7434 4.27551 0.000841381 10
6.0769 8.12317 -2.71826 0.000623366 1
7.03495 9.40381 -2.71132 0.000388376 1
8.34949 11.161 -2.70937 0.000220645 1
9.88871 13.2185 -2.61462 0.00140245 10
11.3348 15.1515 -2.32334 0.000757828 10
15.6857 20.9675 -2.29093 0.000312512 10
15.6738 20.9516 -1.37128 0.000315635 10
15.6811 20.9613 -0.456934 0.000317268 10
15.6818 20.9623 0.456955 0.000317393 10
12.2964 16.4369 1.07579 5.34393e-05 10
9.61263 12.8495 1.40395 0.000922319 10
9.60646 12.8412 1.96908 0.000910683 10
9.61278 12.8497 2.54166 0.000895236 10
9.6192 12.8583 3.12138 0.000876131 10
9.60185 12.8351 3.70063 0.000853557 10
9.61757 12.8561 4.30203 0.000827738 10
6.04956 8.14573 -2.71873 0.00062333 1
7.0185 9.45041 -2.71768 0.000388349 1
8.31325 11.1938 -2.71027 0.000220627 1
9.81849 13.2206 -2.60824 0.00141577 10
11.349 15.2814 -2.33717 0.000745134 10
15.6711 21.1011 -2.29954 0.000306924 10
15.681 21.1145 -1.37835 0.000309995 10
15.6729 21.1035 -0.458839 0.000311601 10
15.6734 21.1042 0.458853 0.000311725 10
12.2226 16.4577 1.07435 5.34574e-05 10
9.60621 12.9348 1.40959 0.00090731 10
9.61312 12.9441 1.97969 0.000895857 10
9.60388 12.9316 2.55123 0.000880652 10
9.60723 12.9361 3.13213 0.000861846 10
9.61606 12.948 3.7235 0.000839626 10
9.60789 12.937 4.31788 0.00081421 10
6.01371 8.1568 -2.7154 0.000623293 1
6.97759 9.46418 -2.71462 0.000388323 1
8.27516 11.2242 -2.71061 0.000220609 1
9.74913 13.2234 -2.60206 0.00142912 10
11.3468 15.3905 -2.34778 0.000100086 10
15.67 21.2543 -2.31026 0.00030139 10
15.6818 21.2703 -1.38494 0.000304409 10
15.6725 21.2576 -0.460997 0.000305988 10
15.672 21.2569 0.460981 0.00030611 10
12.179 16.5192 1.07559 5.34754e-05 10
9.61648 13.0435 1.41777 0.000892427 10
9.61372 13.0397 1.98918 0.000881154 10
9.61901 13.0469 2.56733 0.000866189 10
9.61217 13.0376 3.14856 0.00084768 10
9.61115 13.0362 3.73919 0.00082581 10
9.6085 13.0326 4.33857 0.000800796 10
5.99569 8.19207 -2.72016 0.000623257 1
6.94289 9.48625 -2.71398 0.000388296 1
8.24691 11.268 -2.71423 0.00022059 1
9.67142 13.2143 -2.59361 0.0014425 10
11.2906 15.4267 -2.34728 0.000100073 10
15.6801 21.4242 -2.32276 0.00029591 10
15.6686 21.4085 -1.39037 0.000298878 10
15.6726 21.4138 -0.463195 0.000300431 10
15.679 21.4226 0.463384 0.000300552 10
12.114 16.5517 1.07495 5.34935e-05 10
9.60929 13.1294 1.42346 0.000877672 10
9.60449 13.1229 1.99674 0.000866579 10
9.60508 13.1237 2.57582 0.000851852 10
9.60425 13.1225 3.16095 0.000833638 10
9.60983 13.1302 3.75649 0.000812116 10
9.61197 13.1331 4.36081 0.000787499 10
5.96107 8.2047 -2.71743 0.00062322 1
6.91195 9.51348 -2.71485 0.000388269 1
8.2001 11.2865 -2.71177 0.000220572 1
9.60431 13.2192 -2.58797 0.00145589 10
10.2688 14.1338 -2.14509 0.0012482 10
10.2648 14.1283 -1.52786 0.00126485 10
10.2623 14.1249 -0.915005 0.00127606 10
10.2606 14.1225 -0.304702 0.0012817 10
10.2585 14.1195 0.304638 0.00128173 10
10.2689 14.1339 0.915586 0.00127613 10
9.61058 13.2278 1.43048 0.000863045 10
9.6091 13.2258 2.00728 0.000852131 10
9.60327 13.2178 2.58769 0.00083764 10
9.60323 13.2177 3.17578 0.000819718 10
9.60273 13.217 3.77172 0.000798541 10
9.61323 13.2315 4.38231 0.000774319 10
5.92193 8.21096 -2.71263 0.000623183 1
6.88646 9.54832 -2.71791 0.000388242 1
8.15832 11.3118 -2.71099 0.000220553 1
9.5363 13.2224 -2.58207 0.0014693 10
10.1965 14.1379 -2.14029 0.00125981 10
10.1811 14.1165 -1.52273 0.00127662 10
10.1905 14.1295 -0.912995 0.00128793 10
10.1875 14.1253 -0.303994 0.00129362 10
10.1904 14.1294 0.30408 0.00129364 10
10.1918 14.1313 0.913112 0.00128799 10
9.6104 13.3252 1.43737 0.000848545 10
9.60927 13.3236 2.01702 0.000837807 10
9.61333 13.3292 2.60293 0.000823551 10
9.61105 13.3261 3.19373 0.000805918 10
9.61346 13.3294 3.79419 0.000785083 10
9.59923 13.3097 4.39708 0.000761253 10
5.90719 8.25107 -2.71906 0.000623147 1
6.83872 9.55221 -2.71221 0.000388215 1
8.11677 11.3374 -2.71032 0.000220534 1
9.47118 13.2292 -2.57693 0.00148274 10
10.1158 14.1296 -2.13367 0.00127145 10
10.1206 14.1363 -1.52105 0.0012884 10
10.1162 14.1301 -0.910747 0.00129981 10
10.1128 14.1254 -0.303235 0.00130555 10
10.1051 14.1147 0.303004 0.00130557 10
10.1201 14.1356 0.911102 0.00129987 10
9.61591 13.4313 1.4452 0.000834175 10
9.60468 13.4157 2.02587 0.000823613 10
9.61301 13.4273 2.61551 0.00080959 10
9.61049 13.4238 3.2091 0.000792243 10
9.6139 13.4285 3.81284 0.000771748 10
9.61114 13.4247 4.42397 0.000748306 10
5.88108 8.27549 -2.72032 0.00062311 1
6.81664 9.59195 -2.71672 0.000388188 1
8.07982 11.3694 -2.71122 0.000220516 1
9.40026 13.2274 -2.57018 0.00149619 10
10.0452 14.1349 -2.12918 0.0012831 10
10.0455 14.1354 -1.51717 0.0013002 10
10.0424 14.1311 -0.908542 0.00131171 10
10.0441 14.1334 -0.302652 0.0013175 10
10.0366 14.1228 0.302424 0.00131752 10
10.0346 14.1201 0.907836 0.00131177 10
9.60796 13.5197 1.45109 0.000819934 10
9.61513 13.5298 2.03802 0.000809545 10
9.60008 13.5086 2.62481 0.000795752 10
9.60438 13.5147 3.22279 0.00077869 10
9.61013 13.5228 3.83005 0.00075853 10
9.6121 13.5255 4.44612 0.000735473 10
5.85187 8.29555 -2.72019 0.000623073 1
6.77323 9.60166 -2.71276 0.000388161 1
8.04803 11.4088 -2.7139 0.000220497 1
9.32164 13.2143 -2.56128 0.00150965 10
9.96368 14.1244 -2.12234 0.00129476 10
9.96658 14.1285 -1.51269 0.00131201 10
9.95682 14.1147 -0.905249 0.00132362 10
9.968 14.1305 -0.301843 0.00132946 10
9.9674 14.1297 0.301825 0.00132948 10
9.95828 14.1168 0.905382 0.00132369 10
9.61052 13.6238 1.45865 0.000805823 10
9.60516 13.6162 2.04597 0.000795607 10
9.60926 13.622 2.6403 0.000782041 10
9.60116 13.6105 3.23763 0.000765263 10
9.59944 13.6081 3.84469 0.000745437 10
9.59898 13.6074 4.46199 0.000722761 10
5.80711 8.29342 -2.71282 0.000623036 1
6.74087 9.62696 -2.71324 0.000388134 1
8.00798 11.4366 -2.71384 0.000220478 1
9.25867 13.2228 -2.55664 0.00152314 10
9.88571 14.1183 -2.11622 0.00130644 10
9.89107 14.1259 -1.5087 0.00132384 10
9.88433 14.1163 -0.903133 0.00133555 10
9.88523 14.1176 -0.300827 0.00134144 10
9.88426 14.1162 0.300797 0.00134146 10
9.88463 14.1167 0.903161 0.00133561 10
9.61484 13.7314 1.46657 0.000791841 10
9.60488 13.7172 2.0561 0.000781795 10
9.60666 13.7197 2.65273 0.000768457 10
9.59694 13.7059 3.25233 0.000751957 10
9.60677 13.7199 3.86679 0.000732463 10
9.60936 13.7236 4.48906 0.000710165 10
5.78527 8.32391 -2.71618 0.000622999 1
6.71659 9.66391 -2.71703 0.000388106 1
7.96086 11.4542 -2.7114 0.00022046 1
9.17931 13.2073 -2.54744 0.00153663 10
9.82 14.1291 -2.11269 0.00131814 10
9.82165 14.1315 -1.50563 0.00133568 10
9.82025 14.1295 -0.901779 0.00134749 10
9.8114 14.1168 -0.300078 0.00135343 10
9.81577 14.123 0.300212 0.00135346 10
9.8147 14.1215 0.901269 0.00134756 10
9.60937 13.8261 1.47309 0.000777991 10
9.60575 13.8209 2.0666 0.000768115 10
9.60425 13.8187 2.66537 0.000755001 10
9.5998 13.8123 3.26961 0.000738779 10
9.60784 13.8239 3.88661 0.000719612 10
9.60386 13.8181 4.509 0.000697689 10
5.75347 8.34013 -2.7149 0.000622961 1
6.67752 9.67961 -2.71488 0.000388079 1
7.91642 11.4755 -2.70989 0.000220441 1
9.11631 13.2149 -2.54275 0.00155015 10
9.74856 14.1313 -2.10793 0.00132984 10
9.73817 14.1163 -1.50038 0.00134754 10
9.74821 14.1308 -0.899688 0.00135944 10
9.75126 14.1353 -0.299746 0.00136544 10
9.74433 14.1252 0.299533 0.00136546 10
9.74937 14.1325 0.899795 0.00135951 10
9.61197 13.9333 1.48093 0.000764272 10
9.60026 13.9164 2.07586 0.000754563 10
9.61131 13.9324 2.68081 0.000741671 10
9.59912 13.9147 3.2859 0.000725724 10
9.59391 13.9072 3.9006 0.000706881 10
9.6041 13.9219 4.5319 0.000685331 10
5.72917 8.36724 -2.7172 0.000622924 1
6.64969 9.71162 -2.71733 0.000388051 1
7.89163 11.5254 -2.71516 0.000220422 1
9.04704 13.2129 -2.53627 0.00156367 10
9.67095 14.1241 -2.10179 0.00134156 10
9.67197 14.1256 -1.49777 0.0013594 10
9.66723 14.1186 -0.896757 0.00137141 10
9.66513 14.1156 -0.298611 0.00137745 10
9.67713 14.1331 0.298982 0.00137748 10
9.66486 14.1152 0.896537 0.00137148 10
9.61148 14.0372 1.4884 0.000750684 10
9.61028 14.0355 2.08861 0.000741142 10
9.61066 14.036 2.69428 0.00072847 10
9.59414 14.0119 3.30092 0.000712796 10
9.59486 14.0129 3.92084 0.000694275 10
9.6046 14.0272 4.55521 0.000673092 10
5.69925 8.38619 -2.71687 0.000622886 1
6.61044 9.72697 -2.71515 0.000388024 1
7.85212 11.554 -2.71543 0.000220403 1
8.97982 13.2134 -2.53034 0.0015772 10
9.61684 14.1507 -2.10075 0.000930946 10
9.61284 14.1449 -1.49625 0.00094368 10
9.60934 14.1397 -0.89596 0.000952367 10
9.6077 14.1373 -0.298359 0.000956918 10
9.61312 14.1453 0.298528 0.000957289 10
9.6033 14.1308 0.895397 0.000953474 10
9.60066 14.1269 1.49435 0.000737229 10
9.59745 14.1222 2.09652 0.000727851 10
9.59881 14.1242 2.70476 0.000715399 10
9.6071 14.1364 3.32234 0.000699994 10
9.59668 14.1211 3.9417 0.000681792 10
9.59459 14.118 4.57381 0.000660974 10
5.67685 8.41628 -2.72018 0.000622849 1
6.57248 9.74409 -2.71351 0.000387996 1
7.79745 11.5602 -2.71046 0.000220384 1
8.91772 13.2211 -2.52583 0.00159075 10
9.60881 14.2457 -2.10985 0.000914097 10
9.602 14.2355 -1.50228 0.000926613 10
9.60324 14.2374 -0.900019 0.000935151 10
9.61377 14.253 -0.300092 0.000939626 10
9.59808 14.2297 0.299602 0.000939992 10
9.60216 14.2358 0.899918 0.000936245 10
9.6109 14.2487 1.50367 0.000723904 10
9.60788 14.2443 2.10965 0.00071469 10
9.60449 14.2392 2.72035 0.000702453 10
9.60331 14.2375 3.33819 0.000687315 10
9.59339 14.2228 3.96072 0.00066943 10
9.59941 14.2317 4.59976 0.000648973 10
5.64127 8.42683 -2.71721 0.000622811 1
6.55032 9.78474 -2.71845 0.000387969 1
7.76752 11.603 -2.71412 0.000220365 1
8.8413 13.207 -2.51723 0.0016043 10
9.61268 14.3592 -2.12169 0.000897417 10
9.61316 14.36 -1.51186 0.000909718 10
9.61211 14.3584 -0.905543 0.000918109 10
9.5986 14.3382 -0.301178 0.000922508 10
9.59869 14.3384 0.301181 0.00092287 10
9.61018 14.3555 0.90536 0.000919189 10
9.58574 14.319 1.50755 0.00075808 10
9.5904 14.326 2.11677 0.000748142 10
9.60319 14.3451 2.73415 0.000689638 10
9.60331 14.3452 3.35558 0.000674765 10
9.56684 14.2908 3.97033 0.000911422 10
9.56755 14.2918 4.60837 0.000883207 10
5.6114 8.44583 -2.71701 0.000622773 1
6.51374 9.80396 -2.71745 0.000387941 1
7.72383 11.6253 -2.71302 0.000220346 1
8.77374 13.2055 -2.51111 0.00161786 10
9.60541 14.4573 -2.13121 0.000880904 10
9.61026 14.4646 -1.51934 0.00089299 10
9.59944 14.4483 -0.909095 0.000901237 10
9.60989 14.4641 -0.303115 0.00090556 10
9.60131 14.4511 0.302844 0.000905917 10
9.6087 14.4623 0.909972 0.000902304 10
9.51848 14.3265 1.50483 0.000764564 10
9.51383 14.3195 2.11089 0.000754545 10
9.5961 14.4433 2.74647 0.00067695 10
9.60408 14.4553 3.37346 0.00066234 10
9.49838 14.2962 3.96261 0.000919244 10
9.49504 14.2912 4.59745 0.000890798 10
5.58799 8.47463 -2.71998 0.000622735 1
6.4698 9.81196 -2.71339 0.000387913 1
7.67536 11.6403 -2.71025 0.000220326 1
8.72115 13.2263 -2.50925 0.00163143 10
10.5226 15.9583 -2.34706 9.98744e-05 10
10.9877 16.6637 -1.74629 0.000917939 10
10.985 16.6597 -1.04581 0.000611823 10
10.9782 16.6492 -0.348104 0.000614593 10
10.9803 16.6524 0.34817 0.000614604 10
10.9802 16.6524 1.04536 0.000611854 10
9.44572 14.3252 1.50122 0.00077105 10
9.44003 14.3166 2.1056 0.00076095 10
10.9901 16.6674 3.16208 0.000560473 10
10.9863 16.6615 3.87936 0.000677862 10
9.42461 14.2932 3.95262 0.000927069 10
9.42393 14.2921 4.58714 0.000898392 10
5.55214 8.48455 -2.71693 0.000622697 1
6.44784 9.85333 -2.71859 0.000387885 1
7.63504 11.6676 -2.71038 0.000220307 1
8.64204 13.2064 -2.49974 0.001645 10
10.4675 15.996 -2.34721 9.986e-05 10
10.8912 16.6435 -1.74018 0.000925875 10
10.909 16.6706 -1.04411 0.000409075 10
10.9043 16.6636 -0.347605 0.000411088 10
10.9026 16.6609 0.347549 0.000411256 10
10.9114 16.6743 1.04434 0.000409577 10
9.37404 14.325 1.49777 0.000777539 10
9.3761 14.3282 2.10248 0.000767358 10
10.9388 16.7163 3.16409 0.000836468 10
10.8976 16.6533 3.86857 0.000683739 10
9.35651 14.2983 3.94497 0.000934899 10
9.36364 14.3091 4.58208 0.000905992 10
5.52788 8.51218 -2.71958 0.000622659 1
6.40615 9.86461 -2.71552 0.000387857 1
7.60948 11.7176 -2.7158 0.000220288 1
8.58803 13.2244 -2.49745 0.00165858 10
10.4237 16.0511 -2.34994 9.98455e-05 10
10.8161 16.6553 -1.73745 0.000933815 10
10.9087 16.7978 -1.04968 0.000401192 10
10.9012 16.7863 -0.34937 0.000403169 10
10.9044 16.7913 0.349473 0.000403335 10
10.908 16.7969 1.04962 0.000401687 10
9.30499 14.3284 1.49472 0.000784031 10
9.29976 14.3204 2.09656 0.000773769 10
10.8084 16.6435 3.85751 0.000689617 10
9.28457 14.297 3.93566 0.000942731 10
9.28142 14.2921 4.56623 0.000913593 10
5.49165 8.52138 -2.71638 0.000622621 1
6.36765 9.88066 -2.7138 0.000387829 1
7.55486 11.7229 -2.7109 0.000220269 1
8.52279 13.2248 -2.49189 0.00167216 10
10.367 16.0865 -2.34981 9.9831e-05 10
10.7279 16.6464 -1.7326 0.000941759 10
20.4552 31.7402 -1.97894 9.18213e-05 10
20.4618 31.7505 -0.659325 9.3e-05 10
20.4692 31.762 0.659564 9.30018e-05 10
11.0997 17.2233 1.07384 5.38104e-05 10
9.22442 14.3135 1.48979 0.000790526 10
9.22321 14.3116 2.09055 0.000780182 10
10.7324 16.6534 3.85107 0.000695501 10
9.21321 14.2961 3.92654 0.000950567 10
9.21192 14.2941 4.55656 0.000921198 10
5.45853 8.53527 -2.71472 0.000622582 1
6.3428 9.91796 -2.71795 0.000387801 1
7.52679 11.7693 -2.71555 0.000220249 1
8.45411 13.2193 -2.48529 0.00168574 10
10.3088 16.1195 -2.34936 9.98164e-05 10
10.6476 16.6492 -1.72902 0.000949704 10
10.6419 16.6403 -1.03517 0.000632985 10
10.6445 16.6444 -0.344861 0.000635846 10
10.6542 16.6595 0.345173 0.000635857 10
10.644 16.6436 1.03538 0.000633017 10
9.15983 14.3228 1.48742 0.00079702 10
9.16451 14.3301 2.08857 0.000786596 10
10.6419 16.6403 3.83943 0.000701385 10
9.14151 14.2942 3.91722 0.000958404 10
9.13762 14.2881 4.54445 0.000928803 10
5.42784 8.5529 -2.71428 0.000622544 1
6.30324 9.93231 -2.71584 0.000387773 1
7.47804 11.7835 -2.71279 0.00022023 1
8.38444 13.2118 -2.47835 0.00169932 10
10.2521 16.1547 -2.34926 9.98019e-05 10
10.5669 16.6507 -1.72534 0.000957653 10
10.6448 16.7735 -1.04114 0.000404192 10
10.6378 16.7626 -0.346538 0.000406183 10
10.6375 16.762 0.346527 0.000406352 10
10.6341 16.7567 1.04009 0.000404698 10
9.09296 14.3282 1.48468 0.000803516 10
9.08797 14.3203 2.08251 0.000793011 10
10.5658 16.649 3.83292 0.000707271 10
9.07613 14.3017 3.91057 0.000966242 10
9.07038 14.2926 4.5358 0.00093641 10
5.40437 8.58199 -2.71751 0.000622506 1
6.27015 9.95682 -2.71654 0.000387744 1
7.43141 11.8009 -2.7108 0.00022021 1
8.32746 13.2238 -2.47513 0.0017129 10
10.1965 16.1917 -2.34945 9.97872e-05 10
10.4784 16.6393 -1.72036 0.000965604 10
20.2798 32.2038 -1.9945 8.81484e-05 10
20.2807 32.2051 -0.66432 8.86573e-05 10
20.2668 32.1832 0.663867 8.87009e-05 10
10.916 17.3344 1.07358 5.38679e-05 10
9.01691 14.3186 1.48041 0.000810014 10
9.01202 14.3109 2.07654 0.000799427 10
10.4823 16.6456 3.82369 0.00071316 10
8.99779 14.2882 3.89828 0.000974082 10
8.99698 14.287 4.524 0.000944019 10
5.37849 8.60737 -2.71959 0.000622467 1
6.22903 9.96852 -2.71378 0.000387716 1
7.39563 11.8355 -2.7128 0.000220191 1
8.25812 13.2157 -2.46822 0.00172649 10
10.1401 16.2276 -2.34951 9.97726e-05 10
10.41 16.6595 -1.71867 0.000973556 10
10.3986 16.6412 -1.0284 0.000648875 10
10.4011 16.6452 -0.342603 0.000651804 10
10.4108 16.6607 0.342922 0.000651815 10
10.3962 16.6374 1.02816 0.000648907 10
8.94456 14.3143 1.47673 0.00081651 10
8.94325 14.3122 2.07219 0.000805842 10
10.398 16.6402 3.81409 0.000719048 10
8.93228 14.2946 3.89149 0.00098192 10
8.93098 14.2926 4.51587 0.000951626 10
5.34963 8.62808 -2.72021 0.000622428 1
6.20288 10.0042 -2.71758 0.000387688 1
7.35818 11.8675 -2.71424 0.000220171 1
8.18997 13.2091 -2.46162 0.00174006 10
10.0854 16.2662 -2.34998 9.97579e-05 10
10.3198 16.6442 -1.71336 0.000981508 10
10.3681 16.7221 -1.03115 0.000407319 10
10.3673 16.7208 -0.343411 0.000409325 10
10.3681 16.722 0.343436 0.000409498 10
10.3664 16.7193 1.03098 0.000407836 10
8.88445 14.3292 1.47505 0.000823006 10
8.88128 14.324 2.0694 0.000812257 10
10.3173 16.6401 3.80579 0.000724938 10
8.87058 14.3068 3.88635 0.000989759 10
8.86355 14.2954 4.50698 0.000959234 10
5.31157 8.63382 -2.71616 0.00062239 1
6.15966 10.0124 -2.71395 0.000387659 1
7.31467 11.8898 -2.71349 0.000220152 1
8.12148 13.2013 -2.45487 0.00175364 10
10.0176 16.2834 -2.3474 9.97432e-05 10
10.247 16.6562 -1.71091 0.000989461 10
19.9264 32.3899 -1.99299 0.000138999 10
19.9952 32.5017 -0.666082 5.69721e-05 10
19.9994 32.5086 0.666223 5.70005e-05 10
10.7203 17.4255 1.07221 5.3926e-05 10
8.81497 14.3285 1.47181 0.0008295 10
8.8123 14.3242 2.06497 0.000818671 10
10.2446 16.6523 3.80037 0.000730826 10
8.78929 14.2868 3.87256 0.000997595 10
8.789 14.2863 4.49441 0.00096684 10
5.28588 8.65966 -2.71847 0.00062235 1
6.13532 10.0513 -2.71866 0.000387631 1
7.27977 11.9262 -2.71597 0.000220132 1
8.06599 13.2142 -2.45202 0.00176721 10
9.97344 16.3391 -2.35041 9.97283e-05 10
10.1618 16.6476 -1.70638 0.000997412 10
10.1682 16.6582 -1.02281 0.000664767 10
10.1666 16.6556 -0.340606 0.000667765 10
10.1609 16.6462 0.340414 0.000667776 10
10.1652 16.6533 1.02251 0.0006648 10
8.73998 14.3184 1.46763 0.000835994 10
8.73859 14.3161 2.05939 0.000825082 10
10.1535 16.634 3.78809 0.000736716 10
8.72659 14.2965 3.8669 0.00100543 10
8.72219 14.2892 4.48572 0.000974445 10
5.25969 8.68477 -2.72057 0.000622312 1
6.09782 10.0687 -2.7176 0.000387602 1
7.22663 11.9326 -2.71166 0.000220112 1
8.0008 13.2109 -2.44621 0.00178077 10
9.91521 16.3719 -2.35014 9.97136e-05 10
10.0872 16.6559 -1.7036 0.00100536 10
10.1055 16.6862 -1.02236 0.000410594 10
10.0944 16.6679 -0.340135 0.000412616 10
10.1047 16.6849 0.340482 0.000412793 10
10.0916 16.6632 1.02095 0.000411124 10
8.67107 14.3176 1.46444 0.000842483 10
8.67092 14.3174 2.05521 0.000831491 10
10.0765 16.6383 3.78104 0.000742602 10
8.66241 14.3033 3.86056 0.00101326 10
8.65692 14.2943 4.47779 0.000982046 10
5.21668 8.682 -2.71398 0.000622272 1
6.06149 10.088 -2.71709 0.000387573 1
7.19537 11.9751 -2.7156 0.000220092 1
7.93571 13.2072 -2.44039 0.00179433 10
9.85011 16.3933 -2.34826 9.96987e-05 10
10.0031 16.6479 -1.6992 0.00101331 10
10.1029 16.814 -1.02802 0.000402089 10
10.0948 16.8006 -0.342122 0.000404072 10
10.0906 16.7936 0.34198 0.000404247 10
10.0989 16.8073 1.02761 0.000402611 10
8.59515 14.3047 1.46004 0.00084897 10
8.59581 14.3058 2.04923 0.000837897 10
10.0477 16.7222 3.08988 0.00091565 10
10.0075 16.6553 3.77693 0.000748488 10
8.58808 14.293 3.84965 0.00102109 10
8.5828 14.2842 4.46521 0.000989643 10
5.18932 8.70516 -2.71554 0.000622233 1
6.02176 10.1016 -2.71507 0.000387545 1
7.15594 12.0042 -2.71652 0.000220073 1
7.88091 13.2203 -2.43771 0.00180788 10
9.80367 16.4458 -2.35086 9.96839e-05 10
9.92695 16.6526 -1.69614 0.00102125 10
19.3001 32.3762 -1.97537 0.000144253 10
10.4817 17.5832 1.07281 5.40042e-05 10
8.53347 14.315 1.45805 0.000855454 10
8.53968 14.3254 2.04776 0.000844301 10
9.92456 16.6486 3.06985 0.000771652 10
9.92629 16.6515 3.76819 0.000754372 10
8.51381 14.282 3.83868 0.00102891 10
8.51646 14.2865 4.45662 0.000997238 10
5.16099 8.72676 -2.71664 0.000622194 1
5.99562 10.138 -2.71922 0.000387516 1
7.11113 12.0243 -2.71542 0.000220053 1
7.81134 13.2082 -2.43044 0.00182142 10
9.7454 16.4786 -2.35066 9.96689e-05 10
9.83719 16.6338 -1.69071 0.00102919 10
9.84044 16.6393 -1.01311 0.000685938 10
9.84807 16.6522 -0.337691 0.000689025 10
9.84919 16.6541 0.337729 0.000689036 10
9.85042 16.6561 1.01414 0.000685971 10
8.47379 14.3284 1.45638 0.000861933 10
8.46442 14.3125 2.04168 0.000850699 10
9.83578 16.6314 3.06033 0.00077766 10
9.83573 16.6313 3.75583 0.000760252 10
8.46024 14.3055 3.83701 0.00103673 10
8.45242 14.2922 4.44918 0.00100483 10
5.12936 8.74279 -2.71604 0.000622155 1
5.95648 10.1526 -2.71753 0.000387487 1
7.0638 12.0399 -2.71338 0.000220033 1
7.75264 13.214 -2.42651 0.00183495 10
9.68979 16.5158 -2.35114 9.9654e-05 10
9.75735 16.631 -1.68696 0.00103713 10
9.83046 16.7556 -1.0181 0.000405272 10
9.83284 16.7597 -0.339173 0.00040727 10
9.82449 16.7454 0.338885 0.000407449 10
9.82676 16.7493 1.01772 0.000405806 10
8.39209 14.304 1.45092 0.000868407 10
8.39875 14.3153 2.03788 0.000857093 10
9.76925 16.6513 3.0577 0.000783666 10
9.7715 16.6551 3.75348 0.000766129 10
8.39004 14.3005 3.82779 0.00104455 10
8.38519 14.2922 4.44003 0.00101241 10
5.09957 8.76194 -2.71645 0.000622115 1
5.91256 10.1588 -2.71365 0.000387458 1
7.01634 12.0553 -2.7113 0.000220013 1
7.69255 13.2171 -2.42213 0.00184847 10
9.6196 16.5281 -2.34809 9.96391e-05 10
9.68165 16.6347 -1.6839 0.00104505 10
18.845 32.379 -1.96339 0.000148202 10
18.9196 32.5071 -0.656519 5.74574e-05 10
18.9176 32.5037 0.656452 5.74872e-05 10
10.2851 17.6716 1.07157 5.40633e-05 10
8.32527 14.3042 1.44799 0.000874877 10
8.32899 14.3106 2.03306 0.000863481 10
9.68888 16.6471 3.05071 0.000789667 10
9.69001 16.6491 3.74448 0.000772003 10
8.31834 14.2923 3.81782 0.00105236 10
8.3226 14.2997 4.43329 0.00101999 10
5.07352 8.78759 -2.71889 0.000622076 1
5.88259 10.1889 -2.7162 0.000387429 1
6.98157 12.0924 -2.71416 0.000219993 1
7.62459 13.2062 -2.41523 0.00186197 10
9.56069 16.5596 -2.34781 9.9624e-05 10
9.60451 16.6355 -1.68057 0.00105298 10
9.60203 16.6312 -1.00644 0.000701786 10
9.60693 16.6397 -0.335379 0.000704941 10
9.60493 16.6362 0.335309 0.000704952 10
9.60733 16.6404 1.007 0.00070182 10
8.26661 14.3182 1.44647 0.000672457 10
8.25286 14.2944 2.02665 0.000663982 10
9.60512 16.6366 3.0426 0.000795664 10
9.60455 16.6356 3.73387 0.000777872 10
8.25645 14.3006 3.8123 0.00106016 10
8.24676 14.2838 4.41943 0.00102756 10
5.03737 8.79575 -2.71596 0.000622036 1
5.84583 10.2074 -2.71567 0.0003874 1
6.93883 12.1159 -2.71397 0.000219973 1
7.56843 13.2152 -2.41204 0.00187546 10
9.50818 16.6022 -2.34913 9.9609e-05 10
9.53289 16.6454 -1.6782 0.0010609 10
9.55534 16.6846 -1.00765 0.000408633 10
9.56381 16.6993 -0.335907 0.000410647 10
9.55748 16.6883 0.335684 0.000410831 10
9.56279 16.6976 1.00843 0.000409181 10
8.19275 14.3053 1.44227 0.000887797 10
8.19296 14.3057 2.02419 0.000876241 10
9.53031 16.6409 3.03729 0.000801655 10
9.52548 16.6324 3.72568 0.000783736 10
8.17996 14.283 3.79998 0.00106795 10
8.18728 14.2958 4.41427 0.00103513 10
5.00939 8.81812 -2.71745 0.000621996 1
5.8185 10.2424 -2.71956 0.000387371 1
6.90223 12.1501 -2.71623 0.000219953 1
7.49964 13.2018 -2.40479 0.00188893 10
9.44708 16.6299 -2.34837 9.95939e-05 10
9.4508 16.6364 -1.67396 0.00106881 10
15.5112 27.3046 -1.64575 0.000261655 10
15.5157 27.3126 -0.548299 0.000262968 10
15.5165 27.314 0.548326 0.000262972 10
9.55826 16.8256 1.01414 0.00040025 10
8.12392 14.3007 1.43894 0.000894248 10
8.13185 14.3147 2.02142 0.000882612 10
9.44962 16.6343 3.03006 0.000807641 10
9.45969 16.6521 3.72266 0.000789596 10
8.12398 14.3008 3.79715 0.00107573 10
8.11383 14.2829 4.40152 0.00104268 10
4.98643 8.84948 -2.72173 0.000621956 1
5.77283 10.2451 -2.71492 0.000387341 1
6.85776 12.1706 -2.71543 0.000219933 1
7.4386 13.2014 -2.39998 0.00190239 10
9.37558 16.639 -2.34501 0.00106231 10
9.36948 16.6281 -1.66982 0.00107671 10
9.37413 16.6364 -1.00076 0.000717593 10
9.37378 16.6358 -0.333304 0.000720815 10
9.3793 16.6456 0.3335 0.000720827 10
9.37354 16.6354 1.0007 0.000717627 10
8.0619 14.3076 1.43679 0.00090069 10
8.06479 14.3127 2.01716 0.000888974 10
9.37113 16.6311 3.02349 0.000813621 10
9.38197 16.6503 3.71492 0.000795448 10
8.04896 14.2846 3.78536 0.00108351 10
8.04807 14.283 4.39287 0.00105023 10
4.94702 8.85165 -2.71707 0.000621916 1
5.7445 10.2786 -2.71845 0.000387312 1
6.80752 12.1806 -2.71235 0.000219913 1
7.37622 13.1982 -2.3947 0.00191583 10
9.30297 16.6457 -2.34137 0.0010701 10
9.30127 16.6426 -1.66801 0.0010846 10
9.30241 16.6447 -0.999301 0.00072285 10
9.29559 16.6325 -0.332586 0.000726096 10
9.30263 16.6451 0.332837 0.000726107 10
9.29772 16.6363 0.998797 0.000722885 10
8.00118 14.3164 1.43486 0.000907124 10
7.99735 14.3096 2.01277 0.000895328 10
9.29527 16.6319 3.01772 0.000819594 10
9.29594 16.6331 3.70382 0.000801294 10
7.97915 14.277 3.77594 0.00109128 10
7.99275 14.3013 4.38989 0.00105777 10
4.91609 8.86886 -2.71707 0.000621877 1
5.70575 10.2934 -2.7171 0.000387283 1
6.76526 12.2049 -2.71247 0.000219892 1
7.31665 13.1996 -2.39031 0.00192925 10
9.22487 16.6421 -2.33632 0.00107788 10
9.21919 16.6319 -1.66369 0.00109248 10
9.29568 16.7698 -1.00486 0.000402994 10
9.28511 16.7508 -0.334301 0.000404983 10
9.28374 16.7483 0.334251 0.000405168 10
9.29133 16.762 1.00439 0.000403547 10
7.9333 14.312 1.43164 0.00091355 10
7.93379 14.3129 2.00934 0.000901674 10
9.22073 16.6346 3.01236 0.000825561 10
9.21839 16.6304 3.69603 0.000807134 10
7.92281 14.2931 3.77287 0.00109903 10
7.91811 14.2846 4.37626 0.0010653 10
4.8836 8.88324 -2.71624 0.000621836 1
5.67466 10.3222 -2.71944 0.000387253 1
6.72417 12.2312 -2.7131 0.000219872 1
7.26318 13.2117 -2.38789 0.00194265 10
9.15074 16.6451 -2.33225 0.00108565 10
9.14947 16.6428 -1.66159 0.00110036 10
17.7866 32.3536 -1.93492 0.000157423 10
9.84497 17.9079 1.07099 5.42031e-05 10
7.87195 14.319 1.42958 0.000919966 10
7.86234 14.3015 2.00387 0.00090801 10
9.14451 16.6338 3.00641 0.000831519 10
9.14983 16.6435 3.69182 0.000812966 10
7.85491 14.288 3.76426 0.000291042 10
7.85529 14.2887 4.36908 0.00107281 10
4.86272 8.91886 -2.72192 0.000621796 1
5.6271 10.3208 -2.71389 0.000387224 1
6.69082 12.2718 -2.71691 0.000219852 1
7.20144 13.2084 -2.38273 0.00195603 10
9.06733 16.6307 -2.32577 0.00109342 10
9.07138 16.6381 -1.65794 0.00110822 10
9.06609 16.6284 -0.992567 0.000738585 10
9.07003 16.6356 -0.330731 0.000741897 10
9.06597 16.6282 0.330582 0.000741909 10
9.07135 16.638 0.993142 0.00073862 10
7.79996 14.3061 1.42557 0.000926373 10
7.80146 14.3089 2.00108 0.000914339 10
9.06581 16.6279 2.9996 0.00083747 10
9.07352 16.642 3.68445 0.00081879 10
7.80797 14.3208 3.7657 0.000291065 10
7.7953 14.2976 4.36344 0.00108032 10
4.82494 8.92353 -2.71819 0.000621756 1
5.60099 10.3588 -2.71872 0.000387194 1
6.64952 12.298 -2.71756 0.000219831 1
7.1383 13.202 -2.37708 0.00196938 10
8.99363 16.6334 -2.32175 0.00110117 10
8.99977 16.6447 -1.65546 0.00111607 10
9.01385 16.6707 -0.993212 0.000406491 10
9.02263 16.687 -0.331124 0.000408498 10
9.01778 16.678 0.330946 0.000408687 10
9.01707 16.6767 0.993567 0.000407058 10
7.7443 14.3228 1.42452 0.000932769 10
7.73744 14.3101 1.99745 0.000920655 10
8.98935 16.6255 2.99348 0.00084341 10
8.99963 16.6445 3.67801 0.000824606 10
7.76099 14.3537 3.76719 0.000291089 10
7.72602 14.289 4.35255 0.00108781 10
4.79012 8.93353 -2.71613 0.000621716 1
5.55616 10.3622 -2.7145 0.000387165 1
6.60149 12.3117 -2.71548 0.000219811 1
7.08301 13.2098 -2.37401 0.00198272 10
8.91993 16.6356 -2.3177 0.0011089 10
8.92567 16.6463 -1.65251 0.00112391 10
17.3521 32.3615 -1.92442 0.00016137 10
9.0146 16.8122 -0.332981 0.000399087 10
9.01463 16.8122 0.332982 0.000399274 10
9.01814 16.8188 1.00015 0.000397682 10
7.67986 14.3229 1.42186 0.000939155 10
7.67585 14.3154 1.99444 0.000926961 10
8.92458 16.6443 2.99124 0.000849343 10
8.92753 16.6498 3.67227 0.000830413 10
7.70772 14.3748 3.76566 0.000291112 10
7.65701 14.2803 4.34173 0.0010953 10
4.76648 8.96444 -2.72045 0.000621675 1
5.52798 10.3966 -2.71845 0.000387135 1
6.56013 12.3378 -2.71616 0.000219791 1
7.01535 13.194 -2.36675 0.00199603 10
8.8493 16.6431 -2.31443 0.00111663 10
8.83997 16.6256 -1.64738 0.00113173 10
17.201 32.3503 -1.92017 0.000162684 10
9.58937 18.035 1.07047 5.42842e-05 10
7.61246 14.3169 1.41862 0.000945529 10
7.61509 14.3219 1.99163 0.000933256 10
8.85017 16.6447 2.98576 0.000855265 10
8.84156 16.6285 3.66076 0.000836209 10
7.65431 14.3957 3.7641 0.000291136 10
7.59726 14.2884 4.33611 0.00110276 10
4.7286 8.96858 -2.71668 0.000621635 1
5.49433 10.4209 -2.71977 0.000387105 1
6.51062 12.3485 -2.71349 0.00021977 1
6.95815 13.1973 -2.36298 0.00200931 10
8.76949 16.6328 -2.30872 0.00112434 10
8.77631 16.6458 -1.64633 0.00113954 10
8.7673 16.6287 -0.98518 0.000759452 10
8.7758 16.6448 -0.328445 0.000762853 10
8.77796 16.6489 0.328525 0.000762865 10
8.77235 16.6383 0.985748 0.000759488 10
7.54634 14.3129 1.4156 0.000951891 10
7.54179 14.3043 1.98551 0.000939539 10
8.769 16.6319 2.97795 0.000861177 10
8.76635 16.6269 3.65363 0.000841996 10
7.60539 14.4249 3.76478 0.00029116 10
7.52993 14.2818 4.32611 0.00111022 10
4.69661 8.98378 -2.7163 0.000621594 1
5.44878 10.4226 -2.71522 0.000387075 1
6.47195 12.3797 -2.71537 0.00021975 1
6.91918 13.2352 -2.36542 0.00106987 10
8.69573 16.6334 -2.30458 0.00113204 10
8.70116 16.6438 -1.64312 0.00114734 10
8.74507 16.7278 -0.989237 0.00040056 10
8.74808 16.7335 -0.329591 0.00040254 10
8.74803 16.7334 0.329589 0.000402732 10
8.75215 16.7413 0.990038 0.000401133 10
7.48595 14.3193 1.41364 0.000958239 10
7.47457 14.2975 1.98094 0.000945808 10
8.70154 16.6445 2.97474 0.000867078 10
8.69566 16.6332 3.64834 0.000847771 10
7.56336 14.4674 3.76895 0.000291183 10
7.4652 14.2796 4.31753 0.00111766 10
4.66736 9.00424 -2.71755 0.000621554 1
5.41479 10.4462 -2.71644 0.000387045 1
6.42521 12.3955 -2.71389 0.000219729 1
6.91308 13.3367 -2.37924 0.0010453 10
8.62402 16.6374 -2.30095 0.00113972 10
8.61762 16.6251 -1.6383 0.00115512 10
16.7712 32.3548 -1.90991 0.000166618 10
9.40393 18.142 1.07092 5.43455e-05 10
7.4202 14.315 1.41065 0.000964575 10
7.41417 14.3034 1.97815 0.000952065 10
8.61677 16.6234 2.96559 0.000872967 10
8.61578 16.6215 3.63915 0.000853536 10
8.6191 16.6279 4.32394 0.000830656 10
7.40357 14.2829 4.31069 0.00112508 10
4.64062 9.02967 -2.72031 0.000621513 1
5.37869 10.4658 -2.71663 0.000387015 1
6.37911 12.4124 -2.71271 0.000219708 1
6.91028 13.446 -2.39441 0.00102107 10
8.54911 16.6348 -2.29644 0.00114739 10
8.54266 16.6222 -1.63507 0.00116289 10
8.55442 16.6451 -0.980792 0.000775002 10
8.5525 16.6414 -0.326592 0.000778469 10
8.54735 16.6313 0.326395 0.000778481 10
8.55241 16.6412 0.980562 0.000775038 10
7.34922 14.3 1.40664 0.000970897 10
7.35054 14.3026 1.97449 0.000958309 10
8.5549 16.646 2.96427 0.000878845 10
8.55476 16.6458 3.6379 0.000859289 10
8.54275 16.6224 4.31472 0.000836263 10
7.3429 14.2877 4.30438 0.00113249 10
4.60317 9.03422 -2.71683 0.000621472 1
5.34886 10.4977 -2.72006 0.000386985 1
6.33838 12.4398 -2.71383 0.000219688 1
6.92087 13.583 -2.4145 0.000997188 10
8.4694 16.6221 -2.2906 0.00115504 10
8.4768 16.6367 -1.63357 0.00117063 10
8.47689 16.6368 -0.978556 0.000404255 10
8.48537 16.6535 -0.326246 0.000406254 10
8.4753 16.6337 0.325859 0.000406451 10
8.47003 16.6234 0.977763 0.000404844 10
7.29264 14.3126 1.40537 0.000977204 10
7.29523 14.3177 1.97304 0.000964538 10
8.47223 16.6277 2.95572 0.000884709 10
8.47987 16.6427 3.63074 0.000865029 10
8.47076 16.6248 4.30764 0.000841856 10
7.28069 14.2891 4.29712 0.00113988 10
4.57189 9.05081 -2.717 0.000621431 1
5.31062 10.5132 -2.71926 0.000386955 1
6.30185 12.4755 -2.71683 0.000219667 1
6.91018 13.6798 -2.42741 0.000973635 10
8.40136 16.6319 -2.28789 0.00116267 10
8.41418 16.6573 -1.6327 0.000116904 10
8.47584 16.7793 -0.98519 0.000394407 10
8.48046 16.7885 -0.328309 0.00039636 10
8.47083 16.7694 0.327936 0.000396554 10
8.48184 16.7912 0.985888 0.000394986 10
7.23145 14.3158 1.4032 0.000983497 10
7.22245 14.298 1.96684 0.000970753 10
8.40584 16.6407 2.95281 0.000890562 10
8.39593 16.6211 3.61961 0.000870757 10
8.39793 16.6251 4.30009 0.000847439 10
7.21369 14.2807 4.28698 0.00114726 10
4.53892 9.06401 -2.71619 0.00062139 1
5.26703 10.518 -2.71572 0.000386925 1
6.26074 12.5024 -2.7179 0.000219646 1
6.90797 13.7949 -2.44354 0.000950423 10
8.32955 16.6337 -2.28413 0.00117029 10
8.34622 16.667 -1.63079 0.000116878 10
11.3105 22.5865 -1.32383 0.000514481 10
11.3135 22.5925 -0.441036 0.000516927 10
11.312 22.5895 0.440976 0.000516936 10
9.13709 18.2463 1.06945 5.44279e-05 10
7.16799 14.3141 1.40057 0.000989773 10
7.15782 14.2938 1.96282 0.000976952 10
8.3244 16.6234 2.94456 0.000896399 10
8.33189 16.6384 3.61702 0.000876472 10
8.32737 16.6294 4.29366 0.000853007 10
7.15298 14.2842 4.2805 0.00115461 10
4.51513 9.09567 -2.72094 0.000621349 1
5.237 10.5499 -2.71921 0.000386895 1
6.20824 12.5064 -2.71404 0.000219626 1
6.90792 13.9159 -2.46069 0.000927544 10
8.25898 16.6376 -2.28069 0.00117789 10
8.2595 16.6387 -1.62518 0.000788517 10
8.26048 16.6406 -0.973637 0.000795577 10
8.25063 16.6208 -0.323896 0.000799132 10
8.25286 16.6253 0.323983 0.000799144 10
8.25759 16.6348 0.973297 0.000795614 10
7.10182 14.3065 1.39739 0.000996035 10
7.10123 14.3053 1.96098 0.000983136 10
8.25429 16.6282 2.94028 0.000902223 10
8.26146 16.6426 3.61165 0.000882172 10
8.26135 16.6424 4.28955 0.000858563 10
7.08946 14.2816 4.2723 0.00116195 10
4.47751 9.09949 -2.71739 0.000621308 1
5.2016 10.571 -2.71997 0.000386865 1
6.16991 12.5389 -2.7164 0.000219605 1
6.91488 14.0529 -2.48062 0.000905002 10
8.18023 16.6244 -2.27496 0.00118546 10
8.20969 16.6843 -1.62683 0.000394339 10
8.20311 16.6709 -0.973728 0.000398063 10
8.20325 16.6712 -0.324318 0.000400036 10
8.20239 16.6694 0.324284 0.000400235 10
8.21077 16.6865 0.974637 0.000398659 10
7.04251 14.3123 1.39554 0.00100228 10
7.03603 14.2991 1.95675 0.000989302 10
8.1884 16.641 2.93748 0.000908032 10
8.18388 16.6318 3.60309 0.000887858 10
8.17812 16.6201 4.27643 0.000864104 10
7.03056 14.288 4.26683 0.00116927 10
4.45325 9.13052 -2.722 0.000621266 1
5.16386 10.5875 -2.71955 0.000386835 1
6.12771 12.5637 -2.71712 0.000219584 1
6.91311 14.174 -2.49772 0.000882791 10
8.11639 16.6411 -2.27334 0.00119302 10
8.18074 16.773 -1.63268 0.000116802 10
11.104 22.7665 -1.32749 0.000255229 10
11.0994 22.7571 -0.441956 0.000256575 10
11.1031 22.7647 0.442102 0.000256712 10
8.94028 18.3303 1.06882 5.44902e-05 10
6.98319 14.3177 1.39368 0.00100851 10
6.97742 14.3058 1.95433 0.000995453 10
8.11762 16.6436 2.93292 0.000289967 10
8.11011 16.6282 3.59614 0.000283669 10
8.11279 16.6337 4.2726 0.000869632 10
6.96842 14.2874 4.25936 0.00117657 10
4.42272 9.14883 -2.72284 0.000621225 1
5.11852 10.5882 -2.71512 0.000386804 1
6.07437 12.5654 -2.7129 0.000219563 1
6.90631 14.2864 -2.51327 0.000860917 10
8.03361 16.6183 -2.26639 0.00120056 10
8.11662 16.79 -1.63157 0.000116776 10
11.1018 22.9651 -1.3368 0.000248333 10
11.0966 22.9545 -0.445033 0.000249647 10
11.1036 22.9688 0.445311 0.000249781 10
8.8775 18.364 1.06897 5.45111e-05 10
6.92781 14.3309 1.39261 0.00049816 10
6.92499 14.325 1.95363 0.00049195 10
8.07154 16.6968 2.9373 0.000580765 10
8.07439 16.7027 3.60614 0.000567861 10
8.03577 16.6228 4.26257 0.000875143 10
6.90868 14.2913 4.25332 0.00118384 10
4.37904 9.13975 -2.71557 0.000621184 1
5.0839 10.6109 -2.71638 0.000386774 1
6.0407 12.6079 -2.7175 0.000219542 1
6.91138 14.4251 -2.53342 0.000839374 10
7.97199 16.6388 -2.26538 0.00120807 10
7.96411 16.6224 -1.61257 0.000808712 10
7.96678 16.6279 -0.966292 0.000815944 10
7.96703 16.6285 -0.321846 0.000819585 10
7.96248 16.619 0.321662 0.000819598 10
7.96416 16.6225 0.965974 0.000815982 10
6.92242 14.4482 1.40165 0.00048572 10
6.9274 14.4586 1.96854 0.000479659 10
7.04587 14.7059 3.76468 0.000291423 10
6.89412 14.3891 4.27524 0.000570393 10
4.35834 9.17863 -2.72259 0.000621142 1
5.05281 10.6412 -2.7196 0.000386743 1
5.99373 12.6228 -2.71618 0.000219521 1
6.91163 14.5559 -2.55212 0.00081816 10
7.89357 16.6238 -2.25957 0.00121557 10
7.93693 16.7151 -1.61887 0.000387996 10
7.94327 16.7285 -0.970518 0.000391663 10
7.94472 16.7315 -0.323302 0.000393608 10
7.94047 16.7226 0.323129 0.000393809 10
7.93534 16.7118 0.969549 0.000392266 10
6.91837 14.57 1.41112 0.000473468 10
6.92476 14.5835 1.98224 0.000467555 10
6.99142 14.7239 3.76303 0.000291447 10
6.89754 14.5262 4.30879 0.000555954 10
4.32181 9.18432 -2.71978 0.0006211 1
5.01586 10.6592 -2.71972 0.000386713 1
5.94641 12.6368 -2.7147 0.0002195 1
6.9019 14.6673 -2.56742 0.000797278 10
7.8232 16.6251 -2.25602 0.00122304 10
12.2778 26.0916 -2.52282 3.42549e-05 10
15.2226 32.3497 -1.8737 0.000180902 10
8.68441 18.4553 1.06894 5.45739e-05 10
6.92845 14.7237 1.42365 0.000461407 10
6.91986 14.7054 1.99552 0.000455641 10
6.9424 14.7533 3.76434 0.000291471 10
6.89646 14.6557 4.34004 0.000541743 10
4.28311 9.18515 -2.71558 0.000621059 1
4.97051 10.6593 -2.71529 0.000386682 1
5.90223 12.6574 -2.71469 0.000219479 1
6.91135 14.8214 -2.59016 0.000776723 10
7.75322 16.6268 -2.25257 0.00123048 10
7.75324 16.6269 -1.60504 0.000823706 10
7.76008 16.6416 -0.962308 0.000831065 10
7.75495 16.6305 -0.320297 0.00083477 10
7.75924 16.6397 0.320474 0.000834783 10
7.75486 16.6303 0.96166 0.000831103 10
6.92282 14.846 1.43313 0.000449535 10
6.9254 14.8516 2.01206 0.000443912 10
6.89332 14.7828 3.76569 0.000544176 10
6.89877 14.7945 4.37397 0.000527754 10
4.25288 9.20407 -2.71677 0.000621017 1
4.93636 10.6833 -2.71699 0.000386652 1
5.85913 12.6803 -2.71521 0.000219458 1
6.90373 14.941 -2.60684 0.000756498 10
7.68366 16.629 -2.24921 0.00123791 10
7.68211 16.6256 -1.60232 0.000828671 10
7.68066 16.6225 -0.959647 0.000836072 10
7.68031 16.6217 -0.319608 0.000839799 10
7.68244 16.6263 0.319696 0.000839812 10
7.67873 16.6183 0.959406 0.000836111 10
6.91814 14.9722 1.44297 0.000437853 10
6.92596 14.9891 2.02741 0.000432371 10
6.88882 14.9088 3.79163 0.000530002 10
6.89269 14.9171 4.4031 0.00051399 10
4.21993 9.21713 -2.71626 0.000620975 1
4.8964 10.6947 -2.71553 0.000386621 1
5.82007 12.7121 -2.71766 0.000219437 1
6.90723 15.0867 -2.62803 0.000736596 10
7.60713 16.6154 -2.24377 0.00124531 10
7.67526 16.7642 -1.61309 0.000381452 10
7.67237 16.7579 -0.965916 0.000385061 10
7.67366 16.7607 -0.321764 0.000386977 10
7.66616 16.7443 0.321449 0.00038718 10
7.6635 16.7385 0.964798 0.00038567 10
6.92298 15.1211 1.45499 0.000426357 10
6.91317 15.0997 2.03908 0.000421015 10
6.8982 15.067 3.82573 0.000516054 10
6.89221 15.0539 4.43634 0.000500447 10
4.18711 9.23043 -2.71586 0.000620933 1
4.86187 10.7179 -2.71711 0.00038659 1
5.77311 12.7267 -2.71645 0.000219415 1
6.90407 15.2199 -2.64702 0.000717023 10
7.547 16.6373 -2.24315 0.00125268 10
11.9231 26.2844 -2.52512 3.42215e-05 10
14.6735 32.3475 -1.86152 0.000186015 10
14.6922 32.3887 -0.620794 5.68778e-05 10
14.6868 32.3769 0.620567 5.69129e-05 10
8.42186 18.5659 1.06843 5.46584e-05 10
6.91038 15.2338 1.4635 0.00116754 10
6.90221 15.2158 2.0515 0.0011523 10
7.57396 16.6967 2.90386 0.000606018 10
7.57133 16.6909 3.56258 0.000592581 10
6.8956 15.2013 3.85368 0.000502336 10
6.88811 15.1848 4.46779 0.000487128 10
4.15666 9.24899 -2.71703 0.000620891 1
4.82729 10.7412 -2.71872 0.000386559 1
5.72738 12.744 -2.71585 0.000219394 1
6.90766 15.3702 -2.66895 0.000697773 10
7.47283 16.6278 -2.23834 0.00126002 10
7.47009 16.6217 -1.59432 0.000843467 10
7.47508 16.6328 -0.955673 0.000850994 10
7.46839 16.6179 -0.318014 0.000854784 10
7.47263 16.6273 0.318194 0.000854797 10
7.47225 16.6265 0.955311 0.000851033 10
6.91935 15.3962 1.47678 0.00040393 10
6.92089 15.3997 2.07302 0.00039886 10
6.88876 15.3282 3.87974 0.000488845 10
6.89078 15.3327 4.5042 0.000474029 10
4.12831 9.27233 -2.71964 0.000620849 1
4.78912 10.7565 -2.71836 0.000386529 1
5.68525 12.7693 -2.71699 0.000219373 1
6.90547 15.5099 -2.68901 0.000678843 10
7.39959 16.6198 -2.23377 0.00126734 10
7.40333 16.6282 -1.59245 0.000848363 10
7.39833 16.6169 -0.953271 0.000855932 10
7.39671 16.6133 -0.317429 0.000859743 10
7.40819 16.6391 0.317922 0.000859756 10
7.39751 16.6151 0.953165 0.000855971 10
6.91656 15.5348 1.48774 0.000392995 10
6.91265 15.5261 2.08677 0.000388057 10
6.89378 15.4837 3.91298 0.000475579 10
6.8936 15.4833 4.54135 0.000461148 10
