VERSION 0.7
FIELDS x y z intensity label
SIZE 4 4 4 4 4
TYPE F F F F F
COUNT 1 1 1 1 1
WIDTH 1174
HEIGHT 1
VIEWPOINT 31.0215 7.49576 2.727 0.999999 -1.18449e-05 0.000377454 -0.0014422
POINTS 1174
DATA ascii
7.3166 -12.5712 -0.762289 0.00218826 10
7.32585 -12.5871 -0.254211 0.00219763 10
7.32041 -12.5777 0.254022 0.00219762 10
7.31743 -12.5726 0.762376 0.00218824 10
7.10353 -12.2051 1.23549 0.00181879 10
7.11151 -12.2188 1.73588 0.00179562 10
7.11331 -12.2219 2.23975 0.00176509 10
7.10433 -12.2065 2.7453 0.00172749 10
7.10598 -12.2093 3.26139 0.00168318 10
7.10323 -12.2046 3.78376 0.00163261 10
5.13941 -8.75992 -2.72136 0.000617969 1
5.97239 -10.1797 -2.72479 0.000384346 1
7.08003 -12.0676 -2.71962 0.000217825 1
7.37209 -12.5654 -2.3074 0.00209041 10
7.38114 -12.5809 -1.79097 0.00212672 10
7.37582 -12.5718 -1.27521 0.00215426 10
7.37645 -12.5729 -0.763948 0.00217278 10
7.37884 -12.5769 -0.254525 0.00218208 10
7.37817 -12.5758 0.254502 0.00218207 10
7.37021 -12.5622 0.763302 0.00217275 10
7.17052 -12.2219 1.23972 0.00180596 10
7.17392 -12.2277 1.74069 0.00178295 10
7.16846 -12.2183 2.24367 0.00175263 10
7.16554 -12.2134 2.75246 0.00171528 10
7.17212 -12.2246 3.27214 0.00167128 10
7.16536 -12.2131 3.79412 0.00162104 10
5.17918 -8.75753 -2.72622 0.000617987 1
6.00288 -10.1503 -2.72252 0.000384359 1
7.12085 -12.0407 -2.71914 0.000217834 1
7.43365 -12.5696 -2.31293 0.00207547 10
7.43058 -12.5644 -1.79231 0.00211153 10
7.44201 -12.5838 -1.27905 0.00213888 10
7.429 -12.5618 -0.764844 0.00215727 10
7.43479 -12.5716 -0.25494 0.0021665 10
7.42968 -12.5629 0.254764 0.0021665 10
7.44177 -12.5833 0.766159 0.00215725 10
7.22633 -12.2191 1.24198 0.00179312 10
7.22669 -12.2197 1.74313 0.00177027 10
7.22071 -12.2096 2.24667 0.00174015 10
7.22391 -12.215 2.75849 0.00170306 10
7.22879 -12.2232 3.27851 0.00165936 10
7.2251 -12.217 3.80315 0.00160947 10
5.20653 -8.73404 -2.72455 0.000618005 1
6.03465 -10.1232 -2.72089 0.000384373 1
7.17203 -12.0312 -2.72263 0.000217843 1
7.49292 -12.5695 -2.3177 0.00206051 10
7.48827 -12.5617 -1.79564 0.00209632 10
14.8395 -24.8935 -2.53551 3.35516e-05 10
15.9452 -26.7484 -1.632 0.000158022 10
15.9463 -26.7501 -0.543594 0.000158844 10
15.9519 -26.7596 0.543787 0.000158878 10
10.355 -17.3707 1.05984 5.63317e-05 10
7.49496 -12.5729 1.2806 0.00165568 10
7.50324 -12.5868 1.79923 0.00163449 10
7.27581 -12.2053 3.80739 0.00159788 10
5.23937 -8.71978 -2.72579 0.000618023 1
6.06621 -10.0959 -2.71921 0.000384386 1
7.21039 -12.0001 -2.72127 0.000217852 1
7.54944 -12.5644 -2.3216 0.00204554 10
7.55272 -12.5698 -1.80056 0.00208109 10
14.9371 -24.8596 -2.53735 3.35552e-05 10
15.9448 -26.5366 -1.62247 0.000161851 10
15.943 -26.5335 -0.54032 0.000162691 10
15.9459 -26.5385 0.540421 0.000162725 10
10.4273 -17.3539 1.06103 5.63224e-05 10
7.55805 -12.5787 1.28387 0.00164366 10
7.5497 -12.5648 1.79984 0.00162262 10
7.33908 -12.2143 3.81817 0.00158628 10
5.25879 -8.6833 -2.72011 0.00061804 1
6.10426 -10.0793 -2.72048 0.000384399 1
7.25962 -11.9871 -2.72404 0.000217861 1
7.61785 -12.5786 -2.32912 0.00203055 10
7.62221 -12.5858 -1.80664 0.00206586 10
15.0216 -24.8036 -2.53697 3.35587e-05 10
15.9458 -26.3297 -1.61321 0.000165736 10
15.9487 -26.3345 -0.537397 0.000166594 10
15.9491 -26.3351 0.53741 0.000166629 10
10.4874 -17.3167 1.06099 5.63132e-05 10
7.6106 -12.5666 1.28534 0.00163164 10
7.60826 -12.5627 1.80334 0.00161074 10
7.40109 -12.2207 3.82821 0.00157466 10
5.29366 -8.67241 -2.72247 0.000618058 1
6.13587 -10.0522 -2.71891 0.000384412 1
7.29862 -11.9571 -2.723 0.00021787 1
7.67175 -12.5683 -2.33218 0.00201555 10
7.66938 -12.5645 -1.80742 0.00205061 10
15.1029 -24.7425 -2.5361 3.35622e-05 10
15.9382 -26.111 -1.60321 0.000169675 10
15.9502 -26.1307 -0.534371 0.000170553 10
15.9454 -26.1227 0.534208 0.000170588 10
10.5428 -17.272 1.06049 5.6304e-05 10
7.68118 -12.5838 1.28983 0.0016196 10
7.68101 -12.5835 1.81016 0.00159885 10
7.45562 -12.2143 3.83434 0.00156304 10
5.32914 -8.66239 -2.72515 0.000618076 1
6.17989 -10.0453 -2.72286 0.000384425 1
7.34074 -11.9322 -2.72316 0.000217879 1
7.73795 -12.5779 -2.33894 0.00200054 10
7.73952 -12.5804 -1.81359 0.00203535 10
15.1941 -24.6977 -2.53693 3.35657e-05 10
15.944 -25.9167 -1.59468 0.000173671 10
15.9392 -25.9088 -0.530967 0.000174567 10
15.943 -25.915 0.531095 0.000174603 10
10.6085 -17.2438 1.06103 5.62948e-05 10
7.73252 -12.569 1.29108 0.00160755 10
7.73983 -12.5809 1.81366 0.00158695 10
7.78355 -12.652 2.35272 0.000982433 10
7.77897 -12.6445 2.88572 0.000961356 10
7.78042 -12.6469 3.42805 0.000936527 10
7.50968 -12.2068 3.8402 0.00155141 10
5.3569 -8.6398 -2.72391 0.000618094 1
6.20944 -10.0148 -2.72046 0.000384438 1
7.3782 -11.8998 -2.72163 0.000217888 1
7.79668 -12.5748 -2.34341 0.00198552 10
7.80308 -12.5851 -1.81818 0.00202008 10
15.2759 -24.6374 -2.5362 3.35692e-05 10
15.9396 -25.7079 -1.58525 0.000177722 10
15.9464 -25.7189 -0.528214 0.000178638 10
15.9442 -25.7154 0.528142 0.000178674 10
10.6601 -17.1929 1.06019 5.62856e-05 10
7.79288 -12.5686 1.29383 0.0015955 10
7.78937 -12.563 1.81498 0.00157504 10
7.56796 -12.2059 3.8482 0.00153978 10
5.37804 -8.60667 -2.71936 0.000618111 1
6.24721 -9.99763 -2.7217 0.000384451 1
7.42292 -11.8792 -2.72281 0.000217897 1
7.84975 -12.5622 -2.34617 0.00197049 10
7.8578 -12.5751 -1.82069 0.0020048 10
15.3633 -24.5864 -2.53645 3.35727e-05 10
15.9381 -25.5063 -1.57624 0.000181828 10
15.9449 -25.5172 -0.525211 0.000182764 10
15.9362 -25.5033 0.524925 0.000182801 10
10.7181 -17.1525 1.05999 5.62765e-05 10
7.86061 -12.5796 1.29777 0.00158343 10
7.8594 -12.5777 1.82106 0.00156313 10
7.63344 -12.2161 3.85979 0.00152813 10
5.4144 -8.59793 -2.72255 0.000618129 1
6.27593 -9.966 -2.71904 0.000384464 1
7.46241 -11.8501 -2.72211 0.000217906 1
7.91565 -12.5698 -2.35274 0.00195545 10
7.91245 -12.5648 -1.82318 0.00198951 10
15.4467 -24.529 -2.53607 3.35762e-05 10
15.9357 -25.3055 -1.56726 0.000185991 10
15.9425 -25.3162 -0.522216 0.000186946 10
15.9417 -25.315 0.522191 0.000186984 10
10.7858 -17.1276 1.06078 5.62674e-05 10
7.91383 -12.5669 1.29931 0.00157137 10
7.92145 -12.5791 1.82525 0.00155121 10
7.69576 -12.2207 3.8697 0.00151648 10
5.4504 -8.58846 -2.72557 0.000618147 1
6.32037 -9.95931 -2.72322 0.000384477 1
7.49403 -11.8087 -2.71859 0.000217915 1
7.98513 -12.5826 -2.36032 0.00194041 10
7.98217 -12.5779 -1.82911 0.00197422 10
15.5268 -24.4664 -2.53519 3.35797e-05 10
15.9351 -25.1098 -1.55857 0.000190209 10
15.9488 -25.1313 -0.519547 0.000191184 10
15.9395 -25.1167 0.519244 0.000191223 10
10.8501 -17.097 1.06122 5.62583e-05 10
7.98149 -12.5768 1.3032 0.00155929 10
7.98272 -12.5788 1.82924 0.00153928 10
7.7445 -12.2034 3.87277 0.00150483 10
5.47561 -8.56198 -2.72321 0.000618164 1
6.3548 -9.93672 -2.72309 0.00038449 1
7.54791 -11.8023 -2.72317 0.000217923 1
8.0368 -12.5668 -2.36261 0.00192536 10
8.04135 -12.5739 -1.8326 0.00195892 10
11.3591 -17.7617 -1.84455 0.000509637 10
11.3552 -17.7556 -1.10455 0.000514397 10
11.3665 -17.7733 -0.368252 0.000516837 10
11.3522 -17.751 0.367789 0.000516932 10
10.8996 -17.0432 1.06024 5.62492e-05 10
8.04652 -12.582 1.30664 0.00154722 10
8.04684 -12.5825 1.83386 0.00152736 10
8.03609 -12.5657 3.99662 0.00138764 10
5.49987 -8.53413 -2.72044 0.000618182 1
6.38324 -9.90485 -2.72044 0.000384502 1
7.58094 -11.7633 -2.72026 0.000217932 1
8.1095 -12.5835 -2.37105 0.00191031 10
8.10422 -12.5753 -1.83692 0.00194362 10
11.3561 -17.6213 -1.83408 0.000520152 10
11.3655 -17.6358 -1.09956 0.000525004 10
11.3625 -17.6312 -0.366126 0.000527491 10
11.367 -17.6381 0.36627 0.000527587 10
10.9696 -17.0215 1.06126 5.62401e-05 10
8.10829 -12.5816 1.30953 0.00153514 10
8.09774 -12.5652 1.83545 0.00151543 10
8.09807 -12.5657 4.00561 0.00137676 10
5.53014 -8.51567 -2.72069 0.000618199 1
6.41469 -9.87776 -2.71914 0.000384515 1
7.62857 -11.747 -2.72262 0.000217941 1
8.16957 -12.58 -2.37576 0.00189526 10
8.15837 -12.5628 -1.83924 0.00192831 10
11.359 -17.4914 -1.82467 0.000530789 10
11.3611 -17.4945 -1.09322 0.000535734 10
11.352 -17.4806 -0.36382 0.000538269 10
11.3559 -17.4866 0.363944 0.000538367 10
11.0227 -16.9734 1.06066 5.62311e-05 10
8.16871 -12.5787 1.31219 0.00152306 10
8.16354 -12.5708 1.84041 0.00150349 10
8.1709 -12.5821 4.01988 0.00136587 10
5.56568 -8.50526 -2.72356 0.000618217 1
6.46186 -9.87476 -2.7245 0.000384528 1
7.66059 -11.7066 -2.71944 0.00021795 1
8.23076 -12.5779 -2.38078 0.0018802 10
8.23274 -12.5809 -1.84609 0.00191301 10
11.3569 -17.3551 -1.81458 0.000541548 10
11.3517 -17.3473 -1.08649 0.000546589 10
11.3537 -17.3503 -0.361931 0.000549172 10
11.3601 -17.36 0.362133 0.00054927 10
11.0845 -16.9389 1.06091 5.62221e-05 10
8.22299 -12.5661 1.31385 0.00151097 10
8.22757 -12.573 1.84493 0.00149156 10
8.26434 -12.6292 2.39049 0.000923293 10
8.27854 -12.6509 2.93881 0.000903435 10
8.26654 -12.6326 3.48541 0.000880039 10
8.22303 -12.5661 4.02393 0.00135499 10
5.59144 -8.47986 -2.72166 0.000618234 1
6.49519 -9.85048 -2.72404 0.000384541 1
7.70362 -11.6832 -2.72023 0.000217959 1
8.29495 -12.58 -2.38663 0.00186515 10
8.29258 -12.5764 -1.84966 0.0018977 10
11.3646 -17.2353 -1.80619 0.000841164 10
11.3724 -17.2472 -1.0827 0.00084883 10
11.3685 -17.2413 -0.360483 0.000852681 10
11.3752 -17.2514 0.360693 0.000852678 10
11.1474 -16.9059 1.06127 5.62131e-05 10
8.29587 -12.5813 1.31847 0.00149889 10
8.29756 -12.5839 1.85077 0.00147963 10
8.31341 -12.608 2.39194 0.000604113 10
8.31872 -12.616 2.93742 0.000591225 10
8.31609 -12.612 3.48772 0.000576021 10
8.29147 -12.5747 4.03592 0.0013441 10
5.61973 -8.45837 -2.72104 0.000618252 1
6.52235 -9.81692 -2.72104 0.000384554 1
7.75006 -11.6648 -2.72223 0.000217967 1
8.35367 -12.5733 -2.39088 0.0018501 10
8.35983 -12.5826 -1.85485 0.0018824 10
11.4565 -17.2434 -1.81122 0.000834011 10
11.4643 -17.2551 -1.0857 0.000841615 10
11.4546 -17.2406 -0.361301 0.000845435 10
11.4483 -17.231 0.3611 0.000845433 10
11.2078 -16.8691 1.06141 5.62041e-05 10
8.35408 -12.5739 1.32074 0.00148681 10
8.35861 -12.5807 1.85458 0.00146769 10
8.34477 -12.5599 2.38833 0.000955428 10
8.34171 -12.5553 2.93005 0.00093505 10
8.34191 -12.5556 3.48014 0.000911008 10
8.35334 -12.5728 4.04464 0.00133322 10
5.64961 -8.43929 -2.72123 0.000618269 1
6.56351 -9.80446 -2.72392 0.000384567 1
7.7888 -11.6348 -2.72156 0.000217976 1
8.41813 -12.5749 -2.39675 0.00183505 10
8.42067 -12.5787 -1.8586 0.0018671 10
11.5472 -17.249 -1.81602 0.000826863 10
11.5399 -17.2381 -1.08716 0.000834405 10
11.5414 -17.2403 -0.362137 0.000838194 10
11.5385 -17.236 0.362046 0.000838191 10
11.2687 -16.8331 1.06161 5.61951e-05 10
8.42262 -12.5816 1.32463 0.00147473 10
8.41263 -12.5666 1.85682 0.00145577 10
8.34274 -12.4622 2.37529 0.00097334 10
8.34062 -12.4591 2.91437 0.000952596 10
8.33923 -12.457 3.46086 0.000928121 10
8.41111 -12.5644 4.05135 0.00132234 10
5.68253 -8.42469 -2.7229 0.000618286 1
6.58983 -9.76982 -2.72067 0.000384579 1
7.83421 -11.6147 -2.72324 0.000217985 1
8.47967 -12.5716 -2.40176 0.00182001 10
8.47583 -12.5659 -1.86108 0.0018518 10
8.5535 -12.6811 -1.33824 0.000811791 10
8.56304 -12.6952 -0.802532 0.000818957 10
8.54955 -12.6752 -0.266872 0.000822628 10
8.56069 -12.6917 0.26722 0.000822765 10
8.56161 -12.6931 0.802398 0.000819368 10
8.4717 -12.5598 1.32544 0.00146266 10
8.48658 -12.5819 1.86344 0.00144384 10
8.33702 -12.3602 2.36136 0.000991437 10
8.34635 -12.374 2.90126 0.000970322 10
8.34665 -12.3744 3.446 0.000945409 10
8.48262 -12.576 4.06463 0.00131146 10
5.7033 -8.39216 -2.71881 0.000618304 1
6.63311 -9.76033 -2.72446 0.000384592 1
7.87476 -11.5874 -2.72326 0.000217994 1
8.54229 -12.5696 -2.40706 0.00180497 10
8.55082 -12.5822 -1.86789 0.00183651 10
8.56148 -12.5978 -1.3326 0.0008268 10
8.54988 -12.5808 -0.797178 0.000834093 10
8.55685 -12.591 -0.265727 0.000837827 10
8.55844 -12.5934 0.265776 0.000837967 10
8.55925 -12.5946 0.798051 0.000834509 10
8.54067 -12.5672 1.32936 0.00145059 10
8.54967 -12.5805 1.86764 0.00143192 10
8.34768 -12.2832 2.35222 0.00100971 10
8.33585 -12.2658 2.88271 0.000988227 10
8.33651 -12.2668 3.42411 0.000962873 10
8.55095 -12.5823 4.0763 0.00130059 10
5.74527 -8.39076 -2.72484 0.000618321 1
6.66085 -9.72793 -2.72189 0.000384604 1
7.90344 -11.5427 -2.71923 0.000218002 1
8.61434 -12.5809 -2.41497 0.00178994 10
8.61228 -12.5779 -1.87171 0.00182123 10
8.60806 -12.5718 -1.33301 0.00121865 10
8.60415 -12.566 -0.798143 0.00122919 10
8.60457 -12.5667 -0.265845 0.00123449 10
8.61159 -12.5769 0.266061 0.00123448 10
8.61504 -12.5819 0.799153 0.00122918 10
8.6133 -12.5794 1.33382 0.00143852 10
8.61253 -12.5783 1.87176 0.00142 10
8.36461 -12.2162 2.34496 0.00150169 10
8.35603 -12.2037 2.87494 0.00146949 10
8.35654 -12.2044 3.41482 0.00143155 10
8.59998 -12.56 4.07875 0.00128972 10
5.76213 -8.35269 -2.71899 0.000618338 1
6.68807 -9.69491 -2.71917 0.000384617 1
7.94266 -11.5135 -2.71888 0.000218011 1
8.66623 -12.5624 -2.41721 0.00177491 10
8.66731 -12.564 -1.87413 0.00180596 10
15.9316 -23.0942 -2.45461 0.000237942 10
15.9436 -23.1116 -1.47148 0.000240307 10
15.9336 -23.097 -0.489785 0.000241519 10
15.9299 -23.0917 0.489673 0.000241564 10
11.4919 -16.6584 1.06061 5.61595e-05 10
8.67336 -12.5728 1.33632 0.00142647 10
8.6768 -12.5777 1.87618 0.00140809 10
8.41676 -12.2008 2.34762 0.00148914 10
8.41806 -12.2027 2.88161 0.0014572 10
8.42399 -12.2113 3.42494 0.00141957 10
8.66488 -12.5605 4.08871 0.00127886 10
5.79502 -8.33794 -2.72075 0.000618355 1
6.72226 -9.67206 -2.71933 0.00038463 1
7.99281 -11.5001 -2.72228 0.00021802 1
8.74139 -12.5772 -2.42591 0.0017599 10
8.73844 -12.573 -1.88001 0.00179069 10
8.82388 -12.6959 -1.35267 0.000806485 10
8.82743 -12.701 -0.810609 0.000813614 10
8.8193 -12.6893 -0.269735 0.000817263 10
8.83237 -12.7081 0.270135 0.000817398 10
8.82688 -12.7002 0.810559 0.000814014 10
8.73855 -12.5731 1.33959 0.00141441 10
8.74382 -12.5807 1.88116 0.00139619 10
8.74321 -12.5798 2.42642 0.00137217 10
8.73894 -12.5737 2.97641 0.0013426 10
8.72926 -12.5598 3.53121 0.00130776 10
8.72932 -12.5598 4.0984 0.001268 10
5.81972 -8.31141 -2.71871 0.000618372 1
6.75908 -9.65297 -2.72057 0.000384642 1
8.03241 -11.4715 -2.72212 0.000218028 1
8.8 -12.5677 -2.42999 0.00174489 10
8.80448 -12.5741 -1.88476 0.00177543 10
8.82693 -12.6062 -1.34639 0.000820976 10
8.83141 -12.6126 -0.806928 0.000828226 10
8.82473 -12.603 -0.268554 0.000831938 10
8.81749 -12.5927 0.268334 0.000832074 10
8.83188 -12.6132 0.80697 0.000828632 10
8.8065 -12.577 1.34327 0.00140237 10
8.80524 -12.5752 1.88492 0.00138429 10
8.80495 -12.5748 2.43135 0.00136047 10
8.7939 -12.559 2.98018 0.00133114 10
8.80839 -12.5797 3.54543 0.00129659 10
8.80604 -12.5763 4.11379 0.00125715 10
5.85148 -8.29501 -2.72001 0.000618389 1
6.79613 -9.63414 -2.72194 0.000384655 1
8.07515 -11.4473 -2.72304 0.000218037 1
8.86019 -12.5601 -2.43449 0.0017299 10
8.86002 -12.5599 -1.88725 0.00176019 10
8.86612 -12.5685 -1.34567 0.00117783 10
8.86512 -12.5671 -0.805995 0.00118803 10
8.86593 -12.5683 -0.268471 0.00119316 10
8.86552 -12.5677 0.268458 0.00119315 10
8.86655 -12.5691 0.806125 0.00118802 10
8.87125 -12.5758 1.34644 0.00139034 10
8.87076 -12.5751 1.88954 0.00137241 10
8.85949 -12.5591 2.43429 0.00134878 10
8.86 -12.5599 2.9877 0.00131969 10
8.87058 -12.5748 3.55278 0.00128543 10
8.87116 -12.5757 4.12368 0.00124631 10
5.87779 -8.27085 -2.7188 0.000618406 1
6.82756 -9.60731 -2.72107 0.000384667 1
8.10614 -11.4065 -2.72005 0.000218046 1
8.93444 -12.572 -2.44281 0.00171492 10
8.94102 -12.5812 -1.89514 0.00174496 10
15.7514 -22.1644 -2.37893 0.00026648 10
15.7473 -22.1587 -1.42467 0.000269107 10
15.7574 -22.1728 -0.474807 0.000270453 10
15.7487 -22.1606 0.474545 0.000270502 10
11.7315 -16.5078 1.06135 5.61241e-05 10
8.9274 -12.5621 1.3483 0.00137831 10
8.92865 -12.5638 1.89252 0.00136053 10
8.92891 -12.5642 2.4413 0.0013371 10
8.93746 -12.5762 2.999 0.00130826 10
8.93025 -12.5661 3.55908 0.00127427 10
8.92729 -12.5619 4.12936 0.00123548 10
5.90852 -8.25293 -2.71967 0.000618424 1
6.85644 -9.57697 -2.71924 0.00038468 1
8.14819 -11.3813 -2.72081 0.000218054 1
8.99971 -12.5707 -2.44865 0.00169996 10
9.00237 -12.5744 -1.89883 0.00172974 10
9.09744 -12.7072 -1.36728 0.000801375 10
9.09631 -12.7056 -0.81893 0.000808466 10
9.09344 -12.7016 -0.272669 0.000812095 10
9.09414 -12.7026 0.272689 0.000812226 10
9.10064 -12.7116 0.819319 0.000808857 10
9.00021 -12.5714 1.35266 0.0013663 10
8.99251 -12.5606 1.89675 0.00134867 10
8.9926 -12.5607 2.44671 0.00132544 10
8.99829 -12.5687 3.00467 0.00129683 10
9.00361 -12.5761 3.57081 0.00126313 10
8.99981 -12.5708 4.14258 0.00122467 10
5.93462 -8.22856 -2.71845 0.000618441 1
6.89993 -9.56699 -2.72323 0.000384692 1
8.18048 -11.3425 -2.71836 0.000218063 1
9.05759 -12.5587 -2.45245 0.00168501 10
9.06491 -12.5688 -1.90276 0.00171454 10
9.09237 -12.6069 -1.35989 0.000815371 10
9.08943 -12.6028 -0.814344 0.000822581 10
9.09342 -12.6083 -0.271347 0.00082627 10
9.09325 -12.6081 0.271342 0.000826402 10
9.09405 -12.6092 0.814758 0.000822976 10
9.0704 -12.5764 1.35661 0.0013543 10
9.05706 -12.5579 1.90111 0.00133682 10
9.07308 -12.5801 2.45665 0.00131378 10
9.0636 -12.567 3.01182 0.00128541 10
9.06916 -12.5747 3.57937 0.001252 10
9.07317 -12.5803 4.15611 0.00121386 10
5.97103 -8.21842 -2.72197 0.000618458 1
6.93588 -9.54642 -2.72425 0.000384705 1
8.2242 -11.3196 -2.71974 0.000218071 1
9.12399 -12.5581 -2.45855 0.00167007 10
9.13931 -12.5792 -1.90914 0.00169936 10
9.13555 -12.574 -1.35978 0.00113715 10
9.1385 -12.5781 -0.814802 0.00114701 10
9.13007 -12.5665 -0.27113 0.00115197 10
9.12727 -12.5626 0.271046 0.00115196 10
9.12891 -12.5649 0.813947 0.001147 10
9.13384 -12.5717 1.35952 0.00134231 10
9.13019 -12.5666 1.90724 0.00132498 10
9.13557 -12.574 2.46167 0.00130214 10
9.12802 -12.5637 3.01863 0.00127401 10
9.13336 -12.571 3.58737 0.00124088 10
9.13135 -12.5682 4.16264 0.00120306 10
5.99881 -8.19633 -2.72157 0.000618474 1
6.95711 -9.50569 -2.71954 0.000384717 1
8.2576 -11.2826 -2.71774 0.00021808 1
9.20306 -12.5744 -2.46801 0.00165516 10
9.19892 -12.5687 -1.91242 0.00168419 10
16.0433 -21.9203 -2.37655 0.000375411 10
16.0334 -21.9069 -1.42274 0.000379041 10
16.0334 -21.9068 -0.473859 0.000380865 10
16.0439 -21.9213 0.47417 0.000380863 10
11.9682 -16.3525 1.06201 5.60892e-05 10
9.19272 -12.5603 1.36175 0.00133034 10
9.20302 -12.5743 1.91327 0.00131316 10
9.1932 -12.5609 2.46537 0.00129051 10
9.20228 -12.5733 3.02866 0.00126262 10
9.2034 -12.5749 3.59762 0.00122977 10
9.19999 -12.5702 4.1739 0.00119228 10
6.02898 -8.17751 -2.72229 0.000618491 1
6.98722 -9.47723 -2.71836 0.00038473 1
8.30523 -11.2649 -2.72046 0.000218088 1
9.26028 -12.5603 -2.47159 0.00164026 10
9.26457 -12.5662 -1.91694 0.00166905 10
9.36042 -12.6962 -1.38002 0.000796415 10
9.36411 -12.7012 -0.826991 0.000803472 10
9.36459 -12.7018 -0.275454 0.000807082 10
9.36803 -12.7065 0.275555 0.000807209 10
9.3729 -12.7131 0.827767 0.000803853 10
9.27261 -12.5771 1.36708 0.00131838 10
9.27401 -12.579 1.91889 0.00130135 10
9.25827 -12.5576 2.47105 0.00127889 10
9.26303 -12.5641 3.0342 0.00125125 10
9.27148 -12.5755 3.60705 0.00121868 10
9.26519 -12.567 4.18355 0.00118151 10
6.06444 -8.16578 -2.72542 0.000618508 1
7.03133 -9.46769 -2.72265 0.000384742 1
8.34411 -11.2353 -2.72033 0.000218097 1
9.33883 -12.5747 -2.48082 0.00162539 10
9.33671 -12.5719 -1.92277 0.00165392 10
9.36742 -12.6132 -1.37455 0.00080994 10
9.3654 -12.6105 -0.823213 0.00081711 10
9.36233 -12.6064 -0.274091 0.000820778 10
9.36374 -12.6083 0.274132 0.000820907 10
9.36597 -12.6113 0.823263 0.000817496 10
9.32801 -12.5602 1.36877 0.00130644 10
9.33618 -12.5712 1.92266 0.00128955 10
9.32726 -12.5592 2.47775 0.00126729 10
9.32577 -12.5572 3.04037 0.00123989 10
9.33693 -12.5722 3.61542 0.0012076 10
9.32829 -12.5606 4.19222 0.00117076 10
6.08466 -8.13353 -2.72173 0.000618525 1
7.06563 -9.44482 -2.72315 0.000384754 1
8.37763 -11.1986 -2.7185 0.000218105 1
9.41053 -12.5793 -2.48818 0.00161053 10
9.39454 -12.5579 -1.92564 0.00163882 10
9.39792 -12.5625 -1.37259 0.00109666 10
9.40063 -12.5661 -0.822449 0.00110619 10
9.40471 -12.5715 -0.274046 0.00111097 10
9.40722 -12.5749 0.274119 0.00111097 10
9.39764 -12.5621 0.822187 0.00110618 10
9.40005 -12.5653 1.3729 0.00129452 10
9.40244 -12.5685 1.92726 0.00127777 10
9.39474 -12.5582 2.48401 0.00125571 10
9.39561 -12.5594 3.04883 0.00122855 10
9.40553 -12.5726 3.62496 0.00119654 10
9.39821 -12.5629 4.20391 0.00116002 10
6.1144 -8.11408 -2.72235 0.000618542 1
7.1021 -9.42481 -2.72451 0.000384766 1
8.42557 -11.1811 -2.72137 0.000218114 1
9.46891 -12.5657 -2.49201 0.0015957 10
9.46474 -12.5601 -1.93103 0.00162374 10
16.5025 -21.8995 0.478639 0.000365683 10
12.2017 -16.1922 1.06256 5.60545e-05 10
9.4749 -12.5736 1.37741 0.00128261 10
9.46258 -12.5573 1.93059 0.00126602 10
9.46522 -12.5608 2.49104 0.00124415 10
9.46263 -12.5573 3.05633 0.00121722 10
9.47904 -12.5791 3.63635 0.0011855 10
9.47694 -12.5763 4.21947 0.0011493 10
6.1407 -8.09007 -2.72146 0.000618558 1
7.13311 -9.39753 -2.7238 0.000384779 1
8.45266 -11.136 -2.71755 0.000218122 1
9.5485 -12.5797 -2.50138 0.00158089 10
9.53219 -12.5582 -1.93584 0.00160868 10
9.62928 -12.6861 -1.39341 0.000791565 10
9.62964 -12.6866 -0.834716 0.000798587 10
9.64024 -12.7006 -0.278318 0.000802178 10
9.6274 -12.6836 0.277948 0.000802303 10
9.62638 -12.6823 0.834433 0.00079896 10
9.53424 -12.5609 1.37966 0.00127073 10
9.53333 -12.5597 1.93607 0.00125428 10
9.54242 -12.5717 2.49979 0.0012326 10
9.53895 -12.5671 3.0668 0.00120591 10
9.54026 -12.5688 3.64298 0.00117448 10
9.54701 -12.5777 4.23109 0.0011386 10
6.17174 -8.07231 -2.72272 0.000618575 1
7.16771 -9.37498 -2.7245 0.000384791 1
8.50906 -11.1294 -2.72318 0.000218131 1
9.61037 -12.5699 -2.50608 0.00156611 10
9.60902 -12.5681 -1.94252 0.00159365 10
9.63112 -12.597 -1.3873 0.000804639 10
9.63005 -12.5956 -0.830935 0.000811771 10
9.64148 -12.6105 -0.277082 0.000815418 10
9.63983 -12.6084 0.277034 0.000815544 10
9.62851 -12.5936 0.830802 0.000812148 10
9.60882 -12.5678 1.38409 0.00125886 10
9.61001 -12.5694 1.94272 0.00124256 10
9.6175 -12.5792 2.50794 0.00122107 10
9.61045 -12.57 3.07566 0.00119463 10
9.60577 -12.5638 3.65123 0.00116347 10
9.60269 -12.5598 4.23631 0.00112792 10
6.18989 -8.03773 -2.71833 0.000618592 1
7.18717 -9.33273 -2.7195 0.000384803 1
8.53121 -11.078 -2.71788 0.000218139 1
9.67778 -12.5669 -2.51221 0.00155135 10
9.67236 -12.5598 -1.94645 0.00157864 10
9.67644 -12.5651 -1.3875 0.00105641 10
9.67257 -12.5601 -0.830815 0.00106561 10
9.68685 -12.5786 -0.277122 0.00107023 10
9.6862 -12.5778 0.277103 0.00107022 10
9.67418 -12.5622 0.830953 0.0010656 10
9.67913 -12.5686 1.38789 0.00124701 10
9.67055 -12.5575 1.94609 0.00123086 10
9.67142 -12.5586 2.51056 0.00120957 10
9.68007 -12.5698 3.08388 0.00118336 10
9.67279 -12.5604 3.66002 0.00115248 10
9.67468 -12.5628 4.2487 0.00111725 10
5.80099 -7.4786 -2.53606 0.000680579 4
7.2216 -9.31003 -2.72021 0.000384815 1
8.57096 -11.0496 -2.71824 0.000218147 1
9.74349 -12.5612 -2.51786 0.00153662 10
9.75347 -12.5741 -1.95393 0.00156366 10
17.0007 -21.9172 0.484166 0.00035065 10
12.4205 -16.0124 1.06204 5.60203e-05 10
9.7408 -12.5578 1.39044 0.00123519 10
9.74298 -12.5606 1.95183 0.00121918 10
9.75076 -12.5706 2.51975 0.00119808 10
9.74221 -12.5596 3.08969 0.00117211 10
9.75546 -12.5767 3.67466 0.00114152 10
9.74811 -12.5672 4.26165 0.00110661 10
5.82345 -7.45368 -2.53449 0.000604975 4
7.25995 -9.29231 -2.72242 0.000384827 1
8.61413 -11.0256 -2.71971 0.000218156 1
9.81498 -12.5626 -2.52499 0.00152192 10
9.81503 -12.5627 -1.95746 0.00154872 10
9.9037 -12.6762 -1.40737 0.000786794 10
9.91303 -12.6881 -0.84384 0.000793781 10
9.90627 -12.6794 -0.28086 0.000797354 10
9.89985 -12.6712 0.280678 0.000797475 10
9.90268 -12.6749 0.842959 0.000794146 10
9.81537 -12.5631 1.39481 0.00122339 10
9.82392 -12.5741 1.95924 0.00120752 10
9.81526 -12.563 2.52507 0.00118662 10
9.81613 -12.5641 3.09921 0.00116089 10
9.81494 -12.5625 3.68052 0.00113057 10
9.81716 -12.5654 4.27264 0.00109598 10
5.83908 -7.42015 -2.53001 0.000649476 4
7.29766 -9.27367 -2.72441 0.000384839 1
8.65145 -10.994 -2.71935 0.000218164 1
9.8852 -12.5618 -2.53176 0.00150725 10
9.89313 -12.5719 -1.96427 0.0015338 10
9.91072 -12.5943 -1.40211 0.000799434 10
9.91176 -12.5956 -0.839985 0.000806528 10
9.90088 -12.5818 -0.27946 0.000810155 10
9.89625 -12.5759 0.279329 0.000810278 10
9.89794 -12.578 0.838814 0.000806897 10
9.88293 -12.559 1.39818 0.00121161 10
9.89193 -12.5704 1.96404 0.00119589 10
9.89566 -12.5751 2.53444 0.00117518 10
9.88584 -12.5627 3.10735 0.00114968 10
9.88613 -12.563 3.69075 0.00111965 10
9.89225 -12.5708 4.2862 0.00108538 10
5.88012 -7.41887 -2.53655 0.00056497 4
7.32318 -9.23956 -2.72188 0.000384852 1
8.6927 -10.9675 -2.72027 0.000218172 1
9.96254 -12.5696 -2.54032 0.00149261 10
9.96726 -12.5756 -1.97027 0.00151891 10
9.9664 -12.5745 -1.40377 0.00101646 10
9.96784 -12.5763 -0.841012 0.00102532 10
9.96629 -12.5743 -0.280066 0.00102977 10
9.96781 -12.5763 0.280108 0.00102977 10
9.95576 -12.561 0.839992 0.00102531 10
9.95426 -12.5592 1.40206 0.00119985 10
9.96968 -12.5786 1.97074 0.00118428 10
9.96256 -12.5696 2.54032 0.00116377 10
9.95807 -12.564 3.11625 0.0011385 10
9.96576 -12.5737 3.70407 0.00110875 10
9.95178 -12.556 4.29297 0.0010748 10
5.89582 -7.38557 -2.53219 0.000560536 4
7.35616 -9.21491 -2.72217 0.000384864 1
8.73859 -10.9466 -2.72266 0.000218181 1
10.0301 -12.5645 -2.54634 0.001478 10
10.0283 -12.5622 -1.97365 0.00150405 10
17.5424 -21.975 -2.46003 0.00032793 10
10.171 -12.741 0.284568 0.000780408 10
10.1772 -12.7487 0.854913 0.000777141 10
10.0304 -12.5648 1.40659 0.00118813 10
10.0413 -12.5785 1.9762 0.0011727 10
10.0285 -12.5625 2.54593 0.00115237 10
10.0268 -12.5604 3.12402 0.00112735 10
10.0351 -12.5708 3.71353 0.00109788 10
10.0374 -12.5737 4.31096 0.00106424 10
5.91531 -7.35716 -2.52951 0.000529409 4
7.38105 -9.18018 -2.7195 0.000384876 1
8.77261 -10.9109 -2.72137 0.000218189 1
10.0975 -12.5587 -2.5523 0.00146342 10
10.0967 -12.5578 -1.97848 0.00148923 10
10.1787 -12.6597 -1.42118 0.000782068 10
10.1815 -12.6633 -0.851562 0.000789021 10
10.1706 -12.6497 -0.283319 0.000792576 10
10.1782 -12.6591 0.28353 0.000792695 10
10.1694 -12.6481 0.850544 0.000789378 10
10.1059 -12.5692 1.41102 0.00117642 10
10.1062 -12.5695 1.98033 0.00116114 10
10.1021 -12.5644 2.55346 0.00114101 10
10.1107 -12.5752 3.13647 0.00111622 10
10.0974 -12.5587 3.72033 0.00108702 10
10.1012 -12.5633 4.31948 0.00105371 10
5.95681 -7.35605 -2.53626 0.000511627 4
7.41407 -9.15562 -2.71988 0.000384887 1
8.80638 -10.875 -2.72006 0.000218197 1
10.1737 -12.5635 -2.56048 0.00144888 10
10.1787 -12.5696 -1.98592 0.00147445 10
10.179 -12.57 -1.41509 0.000986725 10
10.1692 -12.5579 -0.846858 0.000995338 10
10.1786 -12.5696 -0.282318 0.000999665 10
10.1798 -12.571 0.28235 0.000999661 10
10.1731 -12.5627 0.84718 0.000995327 10
10.1809 -12.5724 1.41536 0.00116475 10
10.183 -12.575 1.98678 0.00114961 10
10.179 -12.57 2.56181 0.00112967 10
10.1835 -12.5756 3.14542 0.00110512 10
10.175 -12.565 3.73272 0.0010762 10
10.1684 -12.5569 4.32944 0.0010432 10
5.97142 -7.32169 -2.53159 0.000449354 4
7.44465 -9.12805 -2.71939 0.000384899 1
8.84262 -10.8421 -2.71955 0.000218205 1
10.2459 -12.5627 -2.56759 0.00143437 10
10.2474 -12.5646 -1.99077 0.0014597 10
10.2572 -12.5766 -1.41986 0.000976859 10
10.2446 -12.5612 -0.849484 0.00098539 10
10.2524 -12.5707 -0.283147 0.000989675 10
10.2535 -12.572 0.283176 0.000989672 10
10.2522 -12.5704 0.850111 0.000985379 10
10.2529 -12.5713 1.41926 0.0011531 10
10.2574 -12.5769 1.99272 0.00113811 10
10.2511 -12.569 2.56888 0.00111836 10
10.2504 -12.5682 3.1525 0.00109404 10
10.249 -12.5666 3.74378 0.0010654 10
10.2504 -12.5682 4.34566 0.00103272 10
5.99164 -7.29434 -2.52935 0.00058729 4
7.48063 -9.10707 -2.7209 0.000384911 1
8.88401 -10.8156 -2.72064 0.000218213 1
10.3255 -12.5704 -2.57652 0.0014199 10
10.3179 -12.5612 -1.99593 0.00144498 10
10.4463 -12.7176 -1.43988 0.000765624 10
10.453 -12.7257 -0.863072 0.000772444 10
10.4419 -12.7122 -0.287153 0.000775929 10
10.4461 -12.7173 0.287267 0.000776045 10
10.4371 -12.7063 0.861758 0.000772789 10
10.3182 -12.5616 1.42222 0.00114149 10
10.3289 -12.5747 1.99807 0.00112664 10
10.3261 -12.5712 2.57667 0.00110708 10
10.3127 -12.5549 3.15818 0.001083 10
10.3308 -12.577 3.7576 0.00105463 10
10.3171 -12.5602 4.35532 0.00102226 10
6.02132 -7.27853 -2.53114 0.000467175 4
7.5209 -9.09121 -2.72399 0.000384923 1
8.9245 -10.7879 -2.7215 0.000218222 1
10.4007 -12.5723 -2.58433 0.00140547 10
10.3865 -12.5551 -2.00071 0.00143031 10
10.4371 -12.6163 -1.43253 0.00077736 10
10.4442 -12.6248 -0.858701 0.00078428 10
10.4491 -12.6308 -0.286136 0.000787816 10
10.4541 -12.6368 0.286272 0.000787933 10
10.4369 -12.616 0.8581 0.000784629 10
10.3979 -12.569 1.42715 0.0011299 10
10.4027 -12.5747 2.00383 0.0011152 10
10.3968 -12.5676 2.58336 0.00109583 10
10.3939 -12.564 3.16958 0.00107198 10
10.3874 -12.5563 3.76222 0.00104389 10
10.4039 -12.5762 4.37341 0.00101183 10
6.05917 -7.27244 -2.53636 0.000649612 4
7.54748 -9.05877 -2.72215 0.000384935 1
8.95627 -10.7497 -2.71973 0.00021823 1
10.4765 -12.5743 -2.59223 0.00139108 10
10.4627 -12.5577 -2.00693 0.00141567 10
10.4769 -12.5748 -1.43196 0.000947412 10
10.462 -12.5569 -0.856556 0.000955697 10
10.4638 -12.5591 -0.285337 0.000959859 10
10.4693 -12.5657 0.285487 0.000959855 10
10.4639 -12.5592 0.856712 0.000955686 10
10.4747 -12.5721 1.43165 0.00111834 10
10.4623 -12.5573 2.00686 0.00110379 10
10.4717 -12.5685 2.59104 0.0010846 10
10.4637 -12.559 3.17749 0.00106099 10
10.462 -12.5569 3.77333 0.00103317 10
10.4665 -12.5623 4.38126 0.00100143 10
6.07846 -7.24403 -2.53384 0.00072527 4
7.58434 -9.03867 -2.72405 0.000384947 1
8.99837 -10.7238 -2.72113 0.000218238 1
10.543 -12.5646 -2.59782 0.00137672 10
10.5403 -12.5615 -2.0134 0.00140107 10
18.3853 -21.9108 -2.50239 3.49269e-05 10
18.3774 -21.9014 0.499044 0.000310227 10
13.0278 -15.526 1.06219 5.59279e-05 10
10.5354 -12.5556 1.43395 0.00110682 10
10.5509 -12.5741 2.01543 0.0010924 10
10.5449 -12.5669 2.59829 0.00107341 10
10.5528 -12.5763 3.19119 0.00105003 10
10.5506 -12.5737 3.78943 0.00102249 10
10.5449 -12.5669 4.39569 0.000991062 10
6.09217 -7.20911 -2.52904 0.000636297 4
7.6129 -9.00865 -2.72299 0.000384959 1
9.02668 -10.6816 -2.71839 0.000218246 1
10.6256 -12.5737 -2.60735 0.00136241 10
10.6161 -12.5624 -2.01948 0.00138652 10
10.711 -12.6747 -1.45182 0.000761293 10
10.7139 -12.6782 -0.869915 0.000768083 10
10.7086 -12.6719 -0.289591 0.000771552 10
10.7124 -12.6764 0.289695 0.000771665 10
10.7224 -12.6883 0.870606 0.000768421 10
10.619 -12.5659 1.43935 0.00109533 10
10.6263 -12.5745 2.02142 0.00108106 10
10.5677 -12.5051 2.59312 0.000904801 10
10.5561 -12.4915 3.17898 0.000885235 10
10.5643 -12.5012 3.77867 0.000862162 10
10.6238 -12.5715 4.41025 0.000980721 10
6.12448 -7.19624 -2.53201 0.000591815 4
7.6297 -8.96487 -2.71779 0.00038497 1
9.06633 -10.6529 -2.71912 0.000218254 1
10.6844 -12.5541 -2.611 0.00134814 10
10.6846 -12.5544 -2.02417 0.001372 10
10.7137 -12.5886 -1.44623 0.000772651 10
10.7182 -12.5938 -0.866686 0.000779536 10
10.7227 -12.5992 -0.288783 0.000783054 10
10.7167 -12.5921 0.28862 0.000783168 10
10.7184 -12.5941 0.866705 0.000779877 10
10.691 -12.5618 1.44315 0.00108387 10
10.6759 -12.5441 2.02252 0.000172523 10
10.563 -12.4115 2.58134 0.000918283 10
10.5588 -12.4066 3.16673 0.000898438 10
10.5595 -12.4074 3.76142 0.000875035 10
10.6953 -12.5669 4.42171 0.00097041 10
6.14972 -7.17501 -2.53208 0.000627429 4
7.67719 -8.95714 -2.72356 0.000384982 1
9.09684 -10.6135 -2.71714 0.000218262 1
10.7702 -12.5658 -2.62123 0.00133391 10
10.7657 -12.5606 -2.03121 0.00135754 10
10.7671 -12.5622 -1.4475 0.00090853 10
10.7622 -12.5565 -0.866698 0.00091649 10
10.7711 -12.5669 -0.288904 0.000920489 10
10.7721 -12.568 0.288928 0.000920485 10
10.7673 -12.5624 0.867102 0.00091648 10
10.774 -12.5702 1.44843 0.00107245 10
10.7024 -12.4867 2.01927 0.000172513 10
10.5678 -12.3297 2.57197 0.000931858 10
10.5652 -12.3267 3.15574 0.000911733 10
10.5651 -12.3265 3.74805 0.000887998 10
10.7783 -12.5752 4.43783 0.000960132 10
6.17295 -7.15143 -2.53135 0.000667495 4
7.70277 -8.92375 -2.72156 0.000384994 1
9.13696 -10.5853 -2.71808 0.00021827 1
10.8437 -12.5625 -2.62843 0.00131973 10
10.8361 -12.5537 -2.03621 0.00134311 10
10.9833 -12.7242 -1.47059 0.000746008 10
10.9887 -12.7305 -0.88135 0.000752673 10
10.9925 -12.735 -0.293648 0.000756079 10
10.9867 -12.7282 0.29349 0.000756188 10
10.983 -12.7239 0.880894 0.000753002 10
10.8359 -12.5535 1.45086 0.00106106 10
10.7544 -12.4591 2.02086 0.000172503 10
10.5619 -12.2361 2.56013 0.000945529 10
10.5535 -12.2263 3.13946 0.000925121 10
10.5648 -12.2394 3.73277 0.000901053 10
10.8366 -12.5543 4.44379 0.000949885 10
6.20943 -7.14314 -2.53607 0.00056516 4
7.73705 -8.90047 -2.72268 0.000385006 1
9.17434 -10.5539 -2.71822 0.000218278 1
10.9145 -12.5557 -2.63495 0.00130559 10
10.9135 -12.5545 -2.04251 0.00132873 10
10.992 -12.6449 -1.46584 0.000756925 10
10.9854 -12.6373 -0.877545 0.000763683 10
10.983 -12.6345 -0.292212 0.000767135 10
10.9831 -12.6346 0.292215 0.000767246 10
10.9863 -12.6383 0.877618 0.000764014 10
10.917 -12.5586 1.45583 0.00104971 10
10.7951 -12.4184 2.02036 0.000172492 10
10.6174 -12.2139 2.56322 0.00109689 10
10.601 -12.1951 3.14092 0.00107305 10
10.6191 -12.2159 3.73688 0.00104497 10
10.9315 -12.5752 4.46466 0.00093967 10
6.22589 -7.11178 -2.53264 0.000520673 4
7.76685 -8.87201 -2.72225 0.000385017 1
9.22036 -10.5323 -2.72094 0.000218286 1
10.9972 -12.5619 -2.64431 0.00129149 10
11.005 -12.5709 -2.05141 0.0013144 10
10.991 -12.5549 -1.45985 0.000879679 10
11.0075 -12.5737 -0.875795 0.000887397 10
10.996 -12.5606 -0.29139 0.000891274 10
10.9938 -12.5582 0.291333 0.000891271 10
10.995 -12.5595 0.874801 0.000887387 10
11.0034 -12.569 1.46149 0.00103839 10
10.8448 -12.388 2.02156 0.000172482 10
10.7359 -12.2635 3.76289 0.000312314 10
10.9931 -12.5573 4.4719 0.00092949 10
6.25105 -7.09042 -2.53279 0.000382726 4
7.78666 -8.83224 -2.71837 0.000385029 1
9.2566 -10.4996 -2.72081 0.000218294 1
11.0706 -12.5571 -2.65141 0.00127745 10
11.0852 -12.5737 -2.05817 0.00130012 10
11.3563 -12.8812 -1.50239 0.00108463 10
11.3514 -12.8756 -0.899576 0.00109436 10
11.3541 -12.8787 -0.299688 0.00109932 10
11.3512 -12.8754 0.29961 0.00109948 10
11.3441 -12.8674 0.898999 0.00109483 10
11.0755 -12.5627 1.46524 0.00102711 10
10.882 -12.3432 2.02043 0.000172472 10
10.7633 -12.2086 3.75754 0.000312304 10
11.0762 -12.5635 4.48784 0.000919343 10
6.28179 -7.07535 -2.53522 0.000560753 4
7.82325 -8.81154 -2.72039 0.00038504 1
9.2895 -10.463 -2.71973 0.000218302 1
11.1451 -12.553 -2.65874 0.00126345 10
11.1469 -12.555 -2.06147 0.00128588 10
11.2639 -12.6869 -1.4843 0.000741936 10
11.2575 -12.6796 -0.888625 0.000748572 10
11.2587 -12.6809 -0.295998 0.000751961 10
11.2466 -12.6673 0.29568 0.000752069 10
11.2487 -12.6698 0.887933 0.000748893 10
11.1612 -12.5711 1.47076 0.00101587 10
10.936 -12.3176 2.02248 0.000172462 10
11.2056 -12.6212 2.67318 0.000620219 10
11.2173 -12.6344 3.28414 0.000606644 10
10.8318 -12.2001 3.76655 0.00101132 10
11.1583 -12.5679 4.50332 0.000909231 10
6.29805 -7.04398 -2.53184 0.000525163 4
7.84923 -8.77889 -2.71875 0.000385052 1
9.33487 -10.4405 -2.72232 0.00021831 1
11.2264 -12.5561 -2.66767 0.0012495 10
11.2296 -12.5596 -2.06864 0.0012717 10
11.2619 -12.5958 -1.47823 0.000752504 10
11.2464 -12.5785 -0.88428 0.000759229 10
11.2536 -12.5865 -0.294709 0.000762665 10
11.2545 -12.5875 0.294732 0.000762773 10
11.2462 -12.5782 0.884263 0.000759554 10
11.2415 -12.573 1.47556 0.00100467 10
10.9793 -12.2796 2.02253 0.000172451 10
10.9082 -12.2002 3.77829 0.00100019 10
11.2271 -12.5569 4.51337 0.000899156 10
6.32739 -7.02728 -2.53377 0.00062309 4
7.87773 -8.74911 -2.71803 0.000385063 1
9.35428 -10.389 -2.71739 0.000218318 1
11.3192 -12.5712 -2.67927 0.0012356 10
11.3065 -12.5572 -2.07473 0.00125756 10
11.3213 -12.5736 -1.48026 0.000841661 10
11.3173 -12.5692 -0.886397 0.00084906 10
11.3178 -12.5697 -0.295238 0.000852778 10
11.3106 -12.5617 0.295051 0.000852774 10
11.3091 -12.56 0.885751 0.000849051 10
11.3076 -12.5584 1.47847 0.000993513 10
11.0059 -12.2233 2.01957 0.000172441 10
10.9831 -12.198 3.78948 0.000989088 10
11.317 -12.5688 4.53182 0.000889118 10
6.34216 -6.99443 -2.52989 0.0005875 4
7.90754 -8.7208 -2.7178 0.000385075 1
9.39624 -10.3626 -2.71905 0.000218326 1
11.3933 -12.5651 -2.68642 0.00122175 10
11.4011 -12.5737 -2.08403 0.00124348 10
11.3974 -12.5696 -1.48446 0.00125997 10
11.3933 -12.565 -0.888904 0.00127105 10
11.3893 -12.5606 -0.295958 0.00127662 10
11.3955 -12.5674 0.296118 0.00127661 10
11.4013 -12.5739 0.889534 0.00127104 10
11.3888 -12.5601 1.48334 0.000982393 10
11.0707 -12.2093 2.02363 0.00104496 10
11.058 -12.1953 3.80062 0.000978031 10
11.3984 -12.5707 4.54681 0.000879115 10
6.37702 -6.98373 -2.53405 0.000600867 4
7.9506 -8.70703 -2.72213 0.000385086 1
9.42714 -10.324 -2.71755 0.000218334 1
11.4786 -12.5706 -2.69616 0.00120796 10
11.4703 -12.5616 -2.08864 0.00122945 10
11.4762 -12.5681 -1.489 0.00124576 10
11.4691 -12.5602 -0.891392 0.00125673 10
11.4729 -12.5644 -0.296988 0.00126223 10
11.4655 -12.5563 0.296797 0.00126223 10
11.4764 -12.5682 0.891961 0.00125671 10
11.4645 -12.5553 1.48749 0.000971317 10
11.1498 -12.2105 2.03027 0.00103322 10
11.1521 -12.2131 3.81827 0.000967016 10
11.4794 -12.5715 4.56159 0.000869152 10
6.40662 -6.96715 -2.53613 0.000636489 4
7.96987 -8.66717 -2.71835 0.000385098 1
9.46904 -10.2975 -2.71925 0.000218342 1
11.5584 -12.5697 -2.70458 0.00119421 10
11.5533 -12.5641 -2.09576 0.00121548 10
11.5596 -12.5709 -1.49412 0.00123161 10
11.5461 -12.5563 -0.893966 0.00124245 10
11.5495 -12.56 -0.297835 0.0012479 10
11.5476 -12.5579 0.297786 0.0012479 10
11.5536 -12.5644 0.894549 0.00124244 10
11.5538 -12.5647 1.49337 0.000960282 10
11.2131 -12.1942 2.03405 0.00102153 10
11.2179 -12.1994 3.8262 0.000956042 10
11.5447 -12.5548 4.57011 0.000859228 10
6.41475 -6.9273 -2.52976 0.000725527 4
8.01359 -8.65389 -2.72295 0.000385109 1
9.51509 -10.2754 -2.72216 0.000218349 1
11.6339 -12.5635 -2.71198 0.00118053 10
11.6304 -12.5597 -2.10179 0.00120155 10
11.6374 -12.5672 -1.4985 0.00121751 10
11.6411 -12.5713 -0.897922 0.00122824 10
11.6311 -12.5604 -0.298806 0.00123363 10
11.6319 -12.5613 0.298827 0.00123362 10
11.6364 -12.5662 0.897561 0.00122822 10
11.6284 -12.5575 1.49734 0.00094929 10
11.304 -12.2072 2.0428 0.00100989 10
11.6951 -12.6296 2.72625 0.000579478 10
11.7035 -12.6387 3.34824 0.000566755 10
11.2907 -12.1928 3.83648 0.000945111 10
11.6402 -12.5703 4.59052 0.000849342 10
6.45488 -6.92201 -2.53605 0.000569753 4
8.03281 -8.61414 -2.71925 0.00038512 1
9.53306 -10.223 -2.71707 0.000218357 1
11.6951 -12.5415 -2.71602 0.000108177 1
11.7197 -12.5679 -2.10998 0.00118769 10
16.0665 -17.2292 -2.06106 0.000512372 10
16.0636 -17.2261 -1.2344 0.000517168 10
16.0636 -17.2261 -0.411131 0.000519578 10
16.0647 -17.2273 0.41116 0.000519576 10
13.8433 -14.8451 1.06378 5.58065e-05 10
11.7112 -12.5587 1.50235 0.000938343 10
11.3868 -12.2109 2.05004 0.00099829 10
11.7244 -12.5729 2.72284 0.00053638 10
11.7353 -12.5845 3.34474 0.000524682 10
11.3769 -12.2002 3.85126 0.000934224 10
11.7099 -12.5573 4.60068 0.000839497 10
6.47332 -6.89338 -2.53382 0.000547511 4
8.06501 -8.58836 -2.71998 0.000385132 1
9.56798 -10.1889 -2.71687 0.000218365 1
11.7377 -12.4994 -2.71578 0.000108182 1
11.8027 -12.5686 -2.11701 0.00117388 10
19.8186 -21.1047 -2.53292 3.37563e-05 10
20.5902 -21.9263 -1.57635 0.00023569 10
20.5845 -21.9203 -0.524879 0.000236892 10
20.552 -21.8857 0.524049 0.000254482 10
13.8833 -14.7842 1.06288 5.57987e-05 10
11.7581 -12.5211 1.50274 0.000872276 10
11.4532 -12.1964 2.05432 0.000986739 10
11.7674 -12.531 2.72264 0.000845994 10
11.7657 -12.5292 3.34092 0.000827547 10
11.4626 -12.2064 3.86584 0.000923382 10
11.7516 -12.5141 4.59986 0.000780961 10
6.4872 -6.86003 -2.52987 0.000667712 4
8.09143 -8.55644 -2.7188 0.000385143 1
9.61191 -10.1643 -2.71926 0.000218373 1
11.7907 -12.4683 -2.71794 0.000108187 1
11.8843 -12.5673 -2.12376 0.00116013 10
19.881 -21.0236 -2.5315 3.37594e-05 10
20.7065 -21.8965 -1.57939 0.000249906 10
20.7162 -21.9067 -0.526282 0.000251141 10
20.7067 -21.8967 0.526042 0.000251139 10
13.947 -14.7485 1.06381 5.57907e-05 10
11.7707 -12.4471 1.49879 0.000884042 10
11.5432 -12.2066 2.06281 0.000975236 10
11.7591 -12.435 2.71067 0.000857421 10
11.7599 -12.4357 3.32693 0.000838736 10
11.5461 -12.2096 3.8796 0.000912585 10
11.7525 -12.428 4.58323 0.000791548 10
6.51916 -6.84579 -2.53299 0.000200319 4
8.12603 -8.53317 -2.7204 0.000385154 1
9.65671 -10.1405 -2.7219 0.00021838 1
11.8324 -12.4252 -2.71753 0.000108192 1
11.9678 -12.5674 -2.13083 0.00114644 10
19.9709 -20.9715 -2.53361 3.37624e-05 10
20.8459 -21.8904 -1.58419 0.000246597 10
20.8553 -21.9002 -0.527872 0.000247816 10
20.8483 -21.8928 0.527694 0.000247815 10
13.9806 -14.6811 1.06246 5.57829e-05 10
11.7556 -12.3446 1.49137 0.000895876 10
11.6235 -12.2059 2.06953 0.000963781 10
11.7638 -12.3532 2.70177 0.000868914 10
11.761 -12.3503 3.31502 0.00084999 10
11.7701 -12.3599 3.94036 0.000827677 10
11.7686 -12.3582 4.57264 0.000802197 10
6.54965 -6.82992 -2.53557 0.000204775 4
8.15694 -8.50598 -2.72079 0.000385165 1
9.68112 -10.0954 -2.71883 0.000218388 1
11.8761 -12.3843 -2.71763 0.000108196 1
12.0525 -12.5683 -2.13809 0.00113281 10
20.0353 -20.8926 -2.53251 3.37654e-05 10
14.0459 -14.6469 1.06353 5.57751e-05 10
11.7666 -12.2701 1.48732 0.000907776 10
11.7031 -12.2039 2.07611 0.000952376 10
11.7534 -12.2564 2.68956 0.000880472 10
11.7634 -12.2668 3.30361 0.000861307 10
11.766 -12.2694 3.9246 0.00083871 10
11.7663 -12.2698 4.5551 0.000812907 10
6.5735 -6.80706 -2.53558 0.000271556 4
8.18665 -8.47752 -2.72081 0.000385176 1
9.72701 -10.0726 -2.72183 0.000218396 1
11.9202 -12.3438 -2.71785 0.000108201 1
12.1335 -12.5646 -2.14467 0.00111924 10
20.1133 -20.8279 -2.53316 3.37684e-05 10
14.0995 -14.6004 1.06372 5.57673e-05 10
11.7862 -12.2049 1.48441 0.000953507 10
11.7908 -12.2097 2.08408 0.000941022 10
11.7862 -12.2049 2.68728 0.000924572 10
11.7875 -12.2063 3.2984 0.000904321 10
11.7732 -12.1915 3.91281 0.000880473 10
11.7866 -12.2054 4.54641 0.000853262 10
6.59609 -6.78291 -2.53515 0.000347244 4
8.22232 -8.4552 -2.72285 0.000385188 1
9.75761 -10.034 -2.72057 0.000218403 1
11.9703 -12.3093 -2.71945 0.000108206 1
12.2095 -12.5554 -2.15034 0.00110573 10
20.1848 -20.7565 -2.53304 3.37714e-05 10
14.1444 -14.545 1.06327 5.57595e-05 10
11.8565 -12.1923 1.4879 0.00094206 10
11.8687 -12.2049 2.09032 0.000929718 10
11.8562 -12.192 2.69353 0.000913456 10
11.8625 -12.1985 3.30745 0.000893438 10
11.8673 -12.2034 3.92989 0.000869863 10
11.8743 -12.2107 4.5638 0.000842966 10
6.61087 -6.7508 -2.53176 0.000583207 4
8.24168 -8.41613 -2.71951 0.000385199 1
9.79342 -10.0007 -2.72081 0.000218411 1
12.0137 -12.268 -2.71958 0.000108211 1
12.2988 -12.5592 -2.15833 0.00109228 10
20.2529 -20.6816 -2.5325 3.37744e-05 10
14.1979 -14.4984 1.06348 5.57518e-05 10
11.9492 -12.2022 1.49418 0.000930665 10
11.9411 -12.1939 2.09556 0.000918466 10
11.9585 -12.2116 2.70707 0.000902392 10
11.9482 -12.2011 3.31944 0.000882605 10
11.9426 -12.1954 3.9407 0.000859303 10
11.9505 -12.2034 4.57666 0.000832718 10
6.62545 -6.71861 -2.52834 0.000520892 4
8.28122 -8.39767 -2.72287 0.00038521 1
9.83206 -9.97031 -2.72186 0.000218419 1
12.038 -12.2072 -2.7154 0.000108216 1
12.3934 -12.5676 -2.16721 0.0010789 10
20.3295 -20.6153 -2.53306 3.37774e-05 10
14.2542 -14.4546 1.06391 5.5744e-05 10
12.0297 -12.1989 1.49891 0.000919324 10
12.0299 -12.1991 2.10366 0.000907266 10
12.0335 -12.2027 2.7144 0.000891379 10
12.0217 -12.1907 3.32802 0.000871823 10
12.0323 -12.2015 3.95624 0.000848792 10
12.0254 -12.1945 4.58903 0.000822517 10
6.64887 -6.69545 -2.52835 0.000601043 4
8.30652 -8.36472 -2.72157 0.000385221 1
9.86321 -9.93232 -2.72087 0.000218426 1
12.0927 -12.1774 -2.71814 0.00010822 1
12.4675 -12.5549 -2.17251 0.00106558 10
20.3991 -20.542 -2.53279 3.37804e-05 10
14.2927 -14.3928 1.06303 5.57364e-05 10
12.1154 -12.2003 1.50427 0.000908037 10
12.1116 -12.1965 2.11049 0.00089612 10
12.1185 -12.2034 2.72393 0.000880419 10
12.1152 -12.2001 3.34209 0.000861092 10
12.1131 -12.1979 3.96876 0.000838332 10
12.109 -12.1938 4.60466 0.000812366 10
6.68019 -6.68019 -2.53137 0.000609962 4
8.33756 -8.33756 -2.72219 0.000385232 1
9.88296 -9.88297 -2.71678 0.000218434 1
12.1373 -12.1373 -2.71863 0.000108225 1
12.553 -12.553 -2.17974 0.00105232 10
20.4581 -20.4581 -2.53123 3.37833e-05 10
14.3584 -14.3584 1.06418 5.57287e-05 10
12.2086 -12.2086 1.51054 0.000896803 10
12.1989 -12.1989 2.11826 0.000885027 10
12.191 -12.191 2.73066 0.000869512 10
12.1915 -12.1915 3.35138 0.000850413 10
12.2001 -12.2001 3.98329 0.000827923 10
12.1952 -12.1952 4.62122 0.000802264 10
6.70614 -6.65948 -2.53238 0.000645596 4
8.36072 -8.30256 -2.72027 0.000385243 1
9.91649 -9.8475 -2.71653 0.000218441 1
12.1723 -12.0876 -2.71701 0.00010823 1
12.6452 -12.5572 -2.18814 0.00103913 10
20.5322 -20.3894 -2.53158 3.37863e-05 10
14.3912 -14.2911 1.06291 5.5721e-05 10
12.2886 -12.2031 1.51515 0.000885625 10
12.2798 -12.1943 2.1249 0.000873989 10
12.2813 -12.1959 2.74133 0.000858658 10
12.2928 -12.2073 3.36751 0.000839788 10
12.2843 -12.1988 3.99686 0.000817565 10
12.2824 -12.1969 4.63808 0.000792213 10
6.72878 -6.63548 -2.53217 0.000556562 4
8.38562 -8.26934 -2.71896 0.000385254 1
9.95348 -9.81546 -2.71726 0.000218449 1
12.2271 -12.0575 -2.71982 0.000108234 1
12.738 -12.5614 -2.1966 0.00102601 10
20.6096 -20.3238 -2.53236 3.37893e-05 10
20.833 -20.5441 -1.53339 0.000174456 10
20.8324 -20.5435 -0.510698 0.000175311 10
20.8311 -20.5423 0.510667 0.00017531 10
14.4399 -14.2397 1.06283 5.57134e-05 10
12.3752 -12.2036 1.52057 0.000874503 10
12.362 -12.1906 2.13175 0.000863007 10
12.3641 -12.1926 2.75028 0.00084786 10
12.3762 -12.2046 3.37865 0.000829216 10
12.3656 -12.1942 4.00945 0.000807259 10
12.3782 -12.2065 4.65814 0.000782212 10
6.75164 -6.6117 -2.53207 0.000449712 4
8.42869 -8.25398 -2.72357 0.000385264 1
9.99823 -9.79099 -2.72013 0.000218456 1
12.2673 -12.0131 -2.71943 0.000108239 1
12.8338 -12.5678 -2.20553 0.00101296 10
20.6684 -20.24 -2.53089 3.37922e-05 10
20.7883 -20.3574 -1.52486 0.000179518 10
20.7929 -20.3619 -0.507985 0.000180424 10
20.797 -20.3659 0.508084 0.000180451 10
14.4988 -14.1982 1.06351 5.57058e-05 10
12.457 -12.1988 1.52539 0.000863438 10
12.4541 -12.196 2.14028 0.00085208 10
12.4638 -12.2055 2.76298 0.000837117 10
12.4531 -12.195 3.388 0.000818697 10
12.4512 -12.1931 4.02336 0.000797007 10
12.4599 -12.2017 4.67286 0.000772263 10
6.7772 -6.59054 -2.53301 0.000520966 4
8.44004 -8.20758 -2.71796 0.000385275 1
10.0233 -9.74722 -2.71767 0.000218464 1
12.2984 -11.9597 -2.71704 0.000108244 1
12.9058 -12.5503 -2.21036 0.000999974 10
20.7428 -20.1715 -2.53137 3.37951e-05 10
20.8554 -20.281 -1.52457 0.000176437 10
20.8436 -20.2695 -0.507491 0.000177301 10
20.8582 -20.2837 0.507848 0.0001773 10
14.5574 -14.1564 1.06418 5.56983e-05 10
12.5377 -12.1924 1.53005 0.000852431 10
12.5507 -12.205 2.14954 0.000841211 10
12.5411 -12.1957 2.77067 0.00082643 10
