VERSION 0.7
FIELDS x y z intensity label
SIZE 4 4 4 4 4
TYPE F F F F F
COUNT 1 1 1 1 1
WIDTH 1171
HEIGHT 1
VIEWPOINT 5.06626 3.96218 2.72942 0.729982 0.000197243 0.000336187 -0.683467
POINTS 1171
DATA ascii
-19.4195 14.3173 -1.26443 0.000355909 10
-19.4112 14.3112 -0.420954 0.000357597 10
-19.4128 14.3124 0.42099 0.000357617 10
-19.4119 14.3117 1.26393 0.000277553 10
-19.403 14.3051 2.10903 0.000274979 10
-19.4113 14.3113 2.96115 0.000271147 10
-19.4175 14.3158 3.82092 0.000266096 10
-19.4084 14.3091 4.68709 0.00025988 10
-19.4156 14.3144 5.56898 0.000252567 10
-19.4071 14.3081 6.46062 0.000244234 10
-8.12162 5.94413 -2.69676 0.000833612 4
-9.42558 6.89848 -2.69662 9.26354e-05 4
-11.2563 8.23835 -2.71141 0.000691516 4
-12.9736 9.49525 -2.54637 0.000100256 4
-18.0061 13.1785 -2.73976 4.18399e-05 1
-19.561 14.3165 -2.12076 0.000345235 10
-19.5712 14.324 -1.27105 0.000348508 10
-19.5746 14.3265 -0.423412 0.000350163 10
-19.5658 14.32 0.42322 0.000350183 10
-19.5648 14.3192 1.27063 0.000271781 10
-19.5717 14.3243 2.12192 0.000269259 10
-19.5612 14.3166 2.97637 0.000265501 10
-19.5768 14.3281 3.8424 0.00026055 10
-19.565 14.3194 4.71281 0.000254457 10
-19.5658 14.32 5.59769 0.000247287 10
-19.5696 14.3228 6.49803 0.000239118 10
-8.13996 5.91403 -2.69598 0.000688286 4
-9.45724 6.87109 -2.6988 0.000159138 4
-11.3302 8.23186 -2.72227 0.000854142 4
-13.0168 9.45724 -2.54834 8.1743e-05 4
-18.05 13.1141 -2.73945 4.18373e-05 1
-19.7384 14.3408 -2.13454 0.000337989 10
-19.7282 14.3334 -1.27799 0.000341198 10
-19.7143 14.3233 -0.42535 0.00034282 10
-19.7151 14.3239 0.425367 0.000342839 10
-19.7212 14.3283 1.27753 0.00026608 10
-19.7155 14.3242 2.13207 0.000263608 10
-19.7148 14.3236 2.99212 0.000259925 10
-19.7306 14.3351 3.86274 0.000255072 10
-19.7321 14.3362 4.74099 0.0002491 10
-19.7262 14.3319 5.62924 0.000242073 10
-19.727 14.3325 6.53365 0.000234067 10
-8.16879 5.89152 -2.6987 0.000695916 4
-9.47629 6.83451 -2.69741 7.8379e-05 4
-11.4053 8.22574 -2.7334 0.000213942 1
-13.0479 9.41044 -2.54799 0.000110271 4
-18.1113 13.0623 -2.74182 4.18346e-05 1
-19.8803 14.3382 -2.14447 0.000330832 10
-34.2008 24.6664 -2.20992 9.77587e-05 10
-19.8781 14.3365 1.28445 0.000260449 10
-19.8765 14.3354 2.14406 0.000258026 10
-19.8792 14.3374 3.00946 0.000254417 10
-19.8905 14.3455 3.88422 0.000249661 10
-19.8783 14.3367 4.76406 0.000243808 10
-19.8793 14.3374 5.65861 0.000236923 10
-19.8853 14.3417 6.56945 0.000229077 10
-8.19241 5.86519 -2.69973 0.000661485 4
-9.49891 6.80056 -2.69708 0.000111627 4
-11.4387 8.18929 -2.73454 0.000213934 1
-13.0819 9.36569 -2.54822 9.40729e-05 4
-18.1572 12.9993 -2.74188 4.1832e-05 1
-20.0515 14.3555 -2.15752 0.000323764 10
-33.8863 24.2602 -2.18412 0.000102222 10
-33.8695 24.2482 -0.727086 0.000102764 10
-33.8716 24.2497 0.72713 0.00010275 10
-20.0462 14.3517 1.29206 0.000254888 10
-20.0541 14.3573 2.15779 0.000252514 10
-20.0561 14.3588 3.02863 0.000248978 10
-20.0574 14.3597 3.90699 0.000244318 10
-20.0571 14.3595 4.79486 0.000238583 10
-20.0517 14.3556 5.69339 0.000231837 10
-20.0508 14.355 6.60754 0.00022415 10
-8.21461 5.83783 -2.70031 0.000623233 4
-9.53627 6.77708 -2.70095 9.26242e-05 4
-11.4681 8.14994 -2.73475 0.000213926 1
-13.1033 9.31201 -2.54605 0.000122598 4
-18.1939 12.9298 -2.74059 4.18294e-05 1
-20.2179 14.3681 -2.17001 0.000316785 10
-33.8741 24.0731 -2.1779 0.000103207 10
-33.8819 24.0786 -0.725544 0.000103754 10
-33.8781 24.0759 0.725461 0.00010374 10
-20.2126 14.3644 1.29955 0.000249397 10
-20.2064 14.3599 2.16878 0.000247072 10
-20.205 14.359 3.04353 0.000243607 10
-20.1996 14.3551 3.92491 0.000239042 10
-20.2146 14.3658 4.82049 0.000233424 10
-20.2086 14.3615 5.72367 0.000226816 10
-20.2 14.3554 6.64015 0.000219286 10
-8.23703 5.81059 -2.701 0.000152937 4
-9.55495 6.74028 -2.69956 0.000232741 4
-11.5009 8.113 -2.73581 0.000213918 1
-13.2154 9.32246 -2.5615 0.00037738 4
-18.2315 12.8609 -2.73948 4.18267e-05 1
-20.3681 14.3681 -2.18073 0.000309894 10
-33.9245 23.9311 -2.17576 6.35443e-05 10
-33.9063 23.9183 -0.724275 6.38934e-05 10
-33.9222 23.9295 0.724614 6.38976e-05 10
-20.3859 14.3807 1.30746 0.000243976 10
-20.3683 14.3683 2.18076 0.000241698 10
-20.3829 14.3785 3.06274 0.000238304 10
-20.3663 14.3669 3.94753 0.000233833 10
-20.3644 14.3655 4.84422 0.000228331 10
-20.3719 14.3708 5.75569 0.000221858 10
-20.3824 14.3782 6.68358 0.000214484 10
-8.24481 5.77308 -2.69692 9.5583e-05 4
-9.56497 6.69747 -2.69577 0.000123491 4
-11.5224 8.06804 -2.73419 0.000213911 1
-13.3011 9.31354 -2.57179 0.0005145 4
-18.2812 12.8006 -2.7402 4.18241e-05 1
-20.5524 14.3909 -2.19508 0.000303093 10
-34.1858 23.9372 -2.18714 6.19453e-05 10
-34.2027 23.949 -0.728815 6.22863e-05 10
-34.1864 23.9376 0.728468 6.22904e-05 10
-20.4708 14.3338 1.30969 0.000398125 10
-20.4507 14.3197 2.18421 0.000394337 10
-20.4698 14.3331 3.06826 0.000388729 10
-20.4657 14.3303 3.95709 0.000381364 10
-20.4553 14.323 4.85393 0.000372319 10
-20.4538 14.3219 5.76467 0.000361694 10
-20.4683 14.3321 6.69531 0.0003496 10
-8.27041 5.74809 -2.69872 0.00010705 4
-9.60133 6.6731 -2.69944 0.000132987 4
-11.5677 8.03974 -2.73827 0.000213903 1
-13.4048 9.31654 -2.58553 0.000475194 4
-18.3408 12.7472 -2.74246 4.18215e-05 1
-20.7077 14.3922 -2.20629 0.000296379 10
-34.2621 23.8128 -2.18669 0.000102536 10
-20.4634 14.2225 1.30603 0.000401384 10
-20.467 14.225 2.18064 0.000397566 10
-20.4717 14.2282 3.06109 0.000391916 10
-20.4735 14.2295 3.94896 0.000384493 10
-20.4819 14.2353 4.84842 0.000375379 10
-20.4785 14.2329 5.75759 0.000364671 10
-20.4811 14.2347 6.68318 0.000352484 10
-8.28905 5.71823 -2.69827 0.000114694 4
-9.61305 6.6316 -2.69621 9.26131e-05 4
-11.579 7.9878 -2.73433 0.000213895 1
-13.4953 9.30976 -2.5967 0.0005187 4
-18.3835 12.6819 -2.7422 4.1819e-05 1
-20.8951 14.4146 -2.22088 0.000289755 10
-34.2826 23.65 -2.18272 0.000103494 10
-20.4821 14.1297 1.30406 0.000404641 10
-20.4805 14.1286 2.17681 0.000400794 10
-20.4745 14.1244 3.05411 0.000395101 10
-20.4852 14.1318 3.94167 0.000387622 10
-20.4872 14.1332 4.83798 0.000378438 10
-20.4813 14.1291 5.74447 0.000367648 10
-20.4755 14.1251 6.66523 0.000355367 10
-8.30729 5.68812 -2.69773 0.000122337 4
-11.6091 7.94891 -2.73487 0.000213887 1
-13.6041 9.31494 -2.61138 0.000620242 4
-18.4251 12.6159 -2.74182 4.18164e-05 1
-21.0517 14.4144 -2.23216 0.000283219 10
-21.3416 14.6129 -1.35553 0.000306933 10
-21.351 14.6194 -0.451676 0.000308358 10
-21.3527 14.6205 0.451711 0.000308322 10
-20.4772 14.021 1.30063 0.000407897 10
-20.4785 14.0219 2.17138 0.000404022 10
-20.4873 14.0279 3.0487 0.000398285 10
-20.4863 14.0273 3.93244 0.000390749 10
-20.4752 14.0197 4.82356 0.000381496 10
-20.4918 14.031 5.73363 0.000370624 10
-20.4957 14.0337 6.65581 0.00035825 10
-8.32959 5.66079 -2.69854 0.000137626 4
-9.66644 6.56931 -2.69825 0.000113979 4
-11.6437 7.91305 -2.7365 0.00021388 1
-13.6829 9.29892 -2.62026 0.000566089 4
-18.4557 12.5425 -2.73985 4.18138e-05 1
-21.2302 14.428 -2.24574 0.000276771 10
-21.3552 14.513 -1.35317 0.000309405 10
-21.3392 14.5021 -0.450351 0.000310841 10
-21.3475 14.5077 0.450526 0.000310804 10
-20.6429 14.0289 1.30803 0.000236256 10
-20.6532 14.0359 2.18469 0.00023405 10
-20.6473 14.0319 3.06521 0.000230764 10
-20.6448 14.0302 3.95345 0.000226433 10
-20.6444 14.0299 4.85185 0.000221105 10
-20.6498 14.0336 5.76411 0.000214835 10
-20.6507 14.0342 6.69019 0.000207693 10
-8.35668 5.63666 -2.70092 0.000126154 4
-9.70013 6.54282 -2.70127 0.000161465 4
-13.7913 9.30234 -2.63477 0.000538257 4
-18.5114 12.4861 -2.74164 4.18112e-05 1
-21.4082 14.44 -2.25921 0.000270413 10
-21.4015 14.4355 -1.3529 0.000180333 10
-21.4158 14.4451 -0.450901 0.000181202 10
-21.4144 14.4442 0.450873 0.000181213 10
-21.4067 14.439 1.35323 0.00021291 10
-21.406 14.4385 4.08953 0.000203991 10
-21.4198 14.4478 5.02219 0.000199153 10
-8.36128 5.59739 -2.69608 0.00015291 4
-9.70669 6.49806 -2.69676 0.000106849 4
-13.8964 9.30285 -2.64864 0.000468029 4
-18.5553 12.4217 -2.7417 4.18087e-05 1
-21.5969 14.4579 -2.27379 0.000264141 10
-21.6317 14.4812 -1.36425 0.000303552 10
-21.6321 14.4814 -0.454388 0.000304964 10
-21.6109 14.4672 0.453942 0.000304928 10
-21.5896 14.453 1.36159 0.000207975 10
-21.6867 14.518 2.28324 0.000224728 10
-21.6839 14.5161 3.20397 0.000221501 10
-21.5793 14.4461 4.11299 0.000199251 10
-21.5951 14.4566 5.05142 0.000194519 10
-21.6812 14.5143 6.02358 0.000205946 10
-21.6831 14.5156 6.99168 0.000198992 10
-8.38191 5.56893 -2.69645 0.000160551 4
-9.72953 6.46429 -2.69682 4.51126e-05 4
-11.541 7.66782 -2.69334 2.94249e-05 4
-13.9985 9.30056 -2.66188 6.47924e-05 4
-18.5928 12.353 -2.74084 4.18061e-05 1
-21.7796 14.4704 -2.2877 0.000257958 10
-21.895 14.547 -1.37764 0.000295529 10
-21.8783 14.5359 -0.458492 0.000296906 10
-21.8962 14.5478 0.458865 0.000296871 10
-21.7622 14.4588 1.36929 0.00020311 10
-21.7232 14.4329 2.28177 0.000353437 10
-21.709 14.4234 3.20022 0.000348362 10
-21.769 14.4633 4.13949 0.000194578 10
-21.7761 14.468 5.08193 0.000189951 10
-21.7295 14.437 6.02295 0.000323903 10
-21.7112 14.4249 6.98446 0.000312967 10
-8.40072 5.53926 -2.69626 0.000118499 4
-9.75805 6.43425 -2.69848 0.000113965 4
-11.4955 7.57989 -2.67653 3.18798e-05 4
-14.0308 9.25161 -2.66188 6.68573e-05 4
-18.6419 12.292 -2.74174 4.18036e-05 1
-21.9611 14.4807 -2.30144 0.000251862 10
-21.9651 14.4833 -1.37886 0.000167969 10
-21.9658 14.4838 -0.459264 0.000168782 10
-21.9532 14.4755 0.458999 0.000168792 10
-21.963 14.4819 1.37873 0.000198313 10
-21.7254 14.3253 2.27673 0.0003562 10
-21.7308 14.3288 3.19604 0.000351088 10
-21.9512 14.4741 4.1645 0.000189971 10
-21.9665 14.4843 5.11454 0.000185447 10
-21.7334 14.3305 6.01014 0.000326449 10
-21.7343 14.3311 6.97574 0.000315432 10
-11.4564 7.49687 -2.66132 3.00538e-05 4
-14.0611 9.20132 -2.66151 0.000111654 4
-18.6773 12.2221 -2.74066 4.18011e-05 1
-22.1428 14.4899 -2.31516 0.000245854 10
-22.1639 14.5037 -1.38816 0.000290031 10
-22.1707 14.5081 -0.462486 0.000291385 10
-22.1735 14.51 0.462544 0.000291351 10
-22.1365 14.4857 1.38644 0.000193586 10
-21.74 14.2263 2.27305 0.00035896 10
-21.7331 14.2218 3.18906 0.000353812 10
-22.1456 14.4917 4.19177 0.000185432 10
-22.148 14.4933 5.14499 0.000181009 10
-21.7245 14.2161 5.99392 0.000328993 10
-21.737 14.2243 6.96062 0.000317895 10
-8.44046 5.4813 -2.69667 0.000187296 4
-9.8109 6.37127 -2.70073 0.000403604 4
-11.4669 7.44666 -2.65769 6.13312e-05 4
-14.0877 9.14867 -2.66049 0.000134392 4
-18.7181 12.1557 -2.74041 4.17985e-05 1
-22.324 14.4974 -2.3288 0.000239933 10
-22.4228 14.5615 -1.40118 0.000282495 10
-22.4315 14.5672 -0.466862 0.000283818 10
-22.4355 14.5698 0.466944 0.000283784 10
-22.3286 14.5004 1.3953 0.000188927 10
-21.7366 14.1159 2.26752 0.000361719 10
-21.7361 14.1156 3.18225 0.000356533 10
-22.3334 14.5035 4.21771 0.000180957 10
-22.3326 14.5029 5.17606 0.000176636 10
-21.7376 14.1165 5.98389 0.000331535 10
-21.741 14.1188 6.9461 0.000320357 10
-8.471 5.45919 -2.70032 6.8801e-05 4
-9.83449 6.3379 -2.70112 0.000443951 4
-11.5077 7.41624 -2.66116 0.000245316 4
-14.1254 9.1032 -2.66159 8.54557e-05 4
-18.7577 12.0885 -2.74001 4.1796e-05 1
-22.522 14.5144 -2.34415 0.0002341 10
-22.6862 14.6203 -1.41445 0.000275222 10
-22.6923 14.6242 -0.471225 0.000276513 10
-22.695 14.626 0.471281 0.000276481 10
-22.522 14.5144 1.4042 0.000184337 10
-22.5144 14.5096 2.34337 0.000182588 10
-22.5225 14.5148 3.28994 0.000179982 10
-22.5303 14.5198 4.24529 0.00017655 10
-22.5111 14.5074 5.20568 0.000172327 10
-22.5175 14.5115 6.18459 0.000167361 10
-22.5312 14.5204 7.18233 0.000161706 10
-8.46911 5.41622 -2.69367 0.000129954 4
-9.8472 6.29755 -2.69856 0.000508037 4
-11.5383 7.37906 -2.66225 0.000256458 4
-14.1437 9.04528 -2.65907 5.78868e-05 4
-18.8129 12.0314 -2.74192 4.17935e-05 1
-22.7094 14.5233 -2.35837 0.000228353 10
-22.7291 14.5359 -1.41395 0.000152299 10
-22.7199 14.53 -0.470743 0.000153041 10
-22.7068 14.5216 0.470469 0.000153051 10
-22.7296 14.5362 1.41397 0.000179814 10
-22.714 14.5262 2.35885 0.000178106 10
-22.7248 14.5331 3.31207 0.000175561 10
-22.7148 14.5267 4.27047 0.000172207 10
-22.7158 14.5274 5.24126 0.000168083 10
-22.7279 14.5351 6.22841 0.000163232 10
-22.7051 14.5205 7.22157 0.000157707 10
-8.5015 5.39522 -2.69797 0.000271369 4
-9.87881 6.26929 -2.70121 0.000458169 4
-11.5397 7.32329 -2.65665 0.000262024 4
-14.1888 9.00448 -2.66162 0.000140576 4
-18.8417 11.9573 -2.74001 4.1791e-05 1
-22.9208 14.546 -2.37504 0.000222693 10
-22.9808 14.5841 -1.42643 0.000270232 10
-22.9687 14.5764 -0.474839 0.000271502 10
-22.9694 14.5768 0.474854 0.000271471 10
-22.908 14.5379 1.42191 0.000175361 10
-22.9048 14.5358 2.37338 0.000173692 10
-22.9008 14.5333 3.3303 0.000171206 10
-22.9118 14.5403 4.29794 0.000167931 10
-22.9217 14.5465 5.277 0.000163903 10
-22.9181 14.5443 6.26661 0.000159166 10
-22.9135 14.5414 7.27166 0.000153771 10
-8.51811 5.36414 -2.69728 0.000279006 4
-9.8948 6.23109 -2.69962 0.00049139 4
-11.5675 7.28443 -2.65718 0.000245291 4
-13.6063 8.56834 -2.54673 7.9362e-05 4
-17.5834 11.0729 -2.5514 4.6075e-05 4
-23.1183 14.5584 -2.39022 0.00021712 10
-23.2308 14.6292 -1.43877 0.000263386 10
-23.2241 14.625 -0.479061 0.000264627 10
-23.2356 14.6323 0.479299 0.000264596 10
-23.1109 14.5537 1.43134 0.000170975 10
-23.1061 14.5507 2.38896 0.000169346 10
-23.1026 14.5485 3.35224 0.000166919 10
-23.1056 14.5504 4.32475 0.000163721 10
-23.119 14.5588 5.31071 0.000159787 10
-23.1202 14.5596 6.30793 0.000155162 10
-23.1124 14.5547 7.31861 0.000149895 10
-8.54425 5.33904 -2.69964 0.000187273 4
-9.90182 6.18735 -2.69562 0.000448648 4
-11.6107 7.25517 -2.66128 0.000227165 4
-13.6389 8.52255 -2.54725 0.000113259 4
-17.6077 11.0025 -2.54933 3.64868e-05 4
-23.3068 14.5637 -2.40444 0.000211632 10
-23.321 14.5726 -1.4412 0.000141154 10
-23.3231 14.5739 -0.480051 0.000141845 10
-23.3121 14.567 0.479824 0.000141854 10
-23.3019 14.5607 1.44001 0.000166657 10
-23.318 14.5707 4.35494 0.000159575 10
-23.3119 14.5669 5.34331 0.000155735 10
-23.2216 14.5105 7.33711 8.39212e-05 10
-8.55365 5.30349 -2.69675 0.000416578 4
-9.92327 6.15269 -2.6956 9.49493e-05 4
-11.6235 7.20687 -2.65843 4.1808e-05 4
-13.6726 8.4774 -2.54801 0.000124811 4
-17.6521 10.9448 -2.55022 5.03983e-05 4
-23.5273 14.5876 -2.42192 0.000206231 10
-23.52 14.583 -1.45034 0.000137554 10
-23.5075 14.5752 -0.482795 0.000138229 10
-23.5271 14.5874 0.483199 0.000138238 10
-23.5263 14.587 1.45073 0.000162406 10
-23.6705 14.6763 2.43666 0.000189424 10
-23.6602 14.6699 3.4182 0.000186662 10
-23.5073 14.5751 4.38078 0.000155495 10
-23.5113 14.5776 5.3773 0.000151747 10
-23.6614 14.6707 6.42747 0.000173357 10
-23.2692 14.4276 7.33619 8.39236e-05 10
-8.572 5.27353 -2.69671 0.000118473 4
-9.95275 6.12297 -2.69778 7.12099e-05 4
-11.6576 7.17182 -2.66049 6.13163e-05 4
-13.7497 8.45888 -2.55685 0.00059473 4
-17.7042 10.8917 -2.55223 3.49366e-05 4
-23.728 14.5975 -2.43732 0.000200915 10
-23.7679 14.6221 -1.46247 0.000252223 10
-23.7764 14.6273 -0.487268 0.000253416 10
-23.7751 14.6266 0.487241 0.000253387 10
-23.7119 14.5876 1.45902 0.000158222 10
-23.7277 14.5974 4.41232 0.000151479 10
-23.7214 14.5935 5.41368 0.000147822 10
-23.3137 14.3427 7.33436 8.3926e-05 10
-8.59813 5.24832 -2.69915 0.000282801 4
-9.97292 6.0875 -2.69747 3.79776e-05 4
-11.6863 7.13338 -2.66135 9.05779e-05 4
-13.8426 8.44956 -2.56862 0.000607959 4
-17.7406 10.8289 -2.55201 4.51368e-05 4
-23.9351 14.6101 -2.45334 0.000195685 10
-24.0339 14.6703 -1.47567 0.000245983 10
-24.0568 14.6844 -0.491961 0.00024715 10
-24.0577 14.6849 0.491978 0.000247121 10
-23.9428 14.6147 1.47008 0.000154106 10
-23.9388 14.6123 4.44208 0.000147528 10
-23.943 14.6149 5.45257 0.000143961 10
-23.3648 14.262 7.33476 8.39283e-05 10
-8.60555 5.21171 -2.69575 0.000210185 4
-10.0054 6.0595 -2.70053 5.93383e-05 4
-11.7108 7.09229 -2.66126 7.52467e-05 4
-13.9588 8.45377 -2.5847 0.000603852 4
-24.151 14.6264 -2.47022 0.000190539 10
-24.3195 14.7284 -1.49004 0.000239948 10
-24.3102 14.7228 -0.496089 0.000241088 10
-24.3231 14.7306 0.496352 0.00024106 10
-24.1382 14.6186 1.47893 0.000150057 10
-24.2 14.6561 2.47524 0.000181549 10
-24.2063 14.6598 3.47473 0.000178892 10
-24.1483 14.6247 4.47145 0.000143641 10
-24.1507 14.6262 5.48822 0.000140162 10
-24.2009 14.6566 6.53196 0.000166092 10
-23.4753 14.2172 7.35382 0.000142959 10
-8.62577 5.18289 -2.6964 0.000259859 4
-10.0067 6.01262 -2.69518 6.88305e-05 4
-11.7335 7.05022 -2.66082 0.000105899 4
-14.0891 8.46556 -2.60333 0.000545888 4
-24.3642 14.6395 -2.48678 0.000185479 10
-24.3702 14.6431 -1.49001 0.00012372 10
-24.3546 14.6337 -0.495949 0.000124331 10
-24.3476 14.6295 0.495806 0.00012434 10
-24.372 14.6442 1.49012 0.000146074 10
-24.3497 14.6308 2.4853 0.000144669 10
-24.3529 14.6327 3.48842 0.000142576 10
-24.3488 14.6303 4.49909 0.000139818 10
-24.3591 14.6364 5.52392 0.000136427 10
-24.3605 14.6373 6.56123 0.00013244 10
-23.6742 14.2249 7.40051 0.00013916 10
-8.65658 5.16036 -2.70039 0.000114641 4
-11.7449 7.00136 -2.65784 4.31943e-05 4
-14.1902 8.45903 -2.61654 0.00023651 4
-24.5706 14.647 -2.50262 0.000180502 10
-24.588 14.6574 -1.50019 0.000235786 10
-24.5831 14.6545 -0.499557 0.000236909 10
-24.5852 14.6557 0.499599 0.000236881 10
-24.5839 14.655 1.49994 0.000142157 10
-24.5779 14.6514 2.50336 0.000140787 10
-24.5703 14.6468 3.51221 0.000138747 10
-24.5886 14.6578 4.53392 0.000136059 10
-24.5854 14.6558 5.56361 0.000132754 10
-24.5692 14.6462 6.60362 0.000128867 10
-23.8978 14.2459 7.45482 0.000135424 10
-8.6609 5.12204 -2.69614 0.000137566 4
-10.0594 5.94914 -2.69814 0.00022072 4
-11.7648 6.95769 -2.65683 9.89255e-05 4
-14.3166 8.46679 -2.63438 0.0004784 4
-24.8033 14.6687 -2.52109 0.00017561 10
-24.8428 14.692 -1.5126 0.000230082 10
-24.8529 14.698 -0.503994 0.000231181 10
-24.856 14.6998 0.504058 0.000231154 10
-24.8081 14.6715 1.51048 0.000138307 10
-24.792 14.662 2.51994 0.000136972 10
-24.7945 14.6634 3.53692 0.000134984 10
-24.7918 14.6619 4.56193 0.000132364 10
-24.8038 14.6689 5.60141 0.000129143 10
-24.8034 14.6687 6.65278 0.000125356 10
-24.7937 14.663 7.71829 0.000121044 10
-8.68882 5.09771 -2.69928 4.2033e-05 4
-10.0854 5.91709 -2.69956 0.000125783 4
-14.4234 8.46219 -2.6486 0.000542895 4
-17.934 10.5219 -2.55303 3.73972e-05 4
-25.026 14.6827 -2.53851 0.000170801 10
-25.1319 14.7448 -1.52706 0.000339971 10
-25.1192 14.7373 -0.508347 0.000341597 10
-25.1343 14.7462 0.508653 0.000341557 10
-25.0104 14.6735 1.51967 0.000134522 10
-25.0283 14.6841 2.53874 0.000133222 10
-25.0301 14.6851 3.5632 0.000131284 10
-25.0276 14.6836 4.59584 0.000128732 10
-25.0088 14.6726 5.6361 0.000125594 10
-25.0295 14.6847 6.69961 0.000121905 10
-25.0115 14.6742 7.7701 0.000117705 10
-8.69687 5.0617 -2.69627 0.000122275 4
-10.1014 5.87918 -2.69834 9.73013e-05 4
-11.8261 6.88297 -2.65976 0.000104492 4
-14.5425 8.46391 -2.66501 0.00040617 4
-17.9558 10.4505 -2.55091 3.77041e-05 4
-25.242 14.6912 -2.55519 0.000166074 10
-25.2495 14.6956 -1.53108 0.000167722 10
-25.2373 14.6885 -0.509698 0.000168556 10
-25.2525 14.6973 0.510004 0.000168568 10
-25.2534 14.6979 1.53131 0.000130802 10
-25.238 14.6889 2.55479 0.000129536 10
-25.2607 14.7021 3.58871 0.000127649 10
-25.2363 14.6879 4.62473 0.000125163 10
-25.2518 14.6969 5.67927 0.000122106 10
-25.2341 14.6866 6.74063 0.000118513 10
-25.2338 14.6864 7.82319 0.000114423 10
-8.72614 5.03804 -2.69988 0.000290396 4
-10.1251 5.84572 -2.69918 6.40747e-05 4
-11.8527 6.84318 -2.66036 5.01544e-05 4
-14.6694 8.46939 -2.68284 0.000546474 4
-17.9967 10.3904 -2.55157 4.79001e-05 4
-25.4777 14.7096 -2.57384 0.000161432 10
-25.4774 14.7094 -1.54177 0.000163036 10
-25.4923 14.718 -0.513806 0.000163849 10
-25.4714 14.7059 0.513385 0.00016386 10
-25.4699 14.7051 1.54132 0.000127148 10
-25.4664 14.703 2.57269 0.000125915 10
-25.4854 14.714 3.61331 0.000124077 10
-25.4803 14.7111 4.66001 0.000121657 10
-25.4732 14.707 5.7175 0.000118681 10
-25.4838 14.7131 6.79356 0.000115182 10
-25.4731 14.7069 7.8814 0.0001112 10
-8.73177 5.00073 -2.6962 0.000447047 4
-10.1497 5.81279 -2.70032 0.000142384 4
-11.8716 6.79892 -2.65925 6.54772e-05 4
-14.8062 8.47958 -2.70242 0.000481523 4
-18.0323 10.3272 -2.55148 3.61548e-05 4
-25.705 14.7214 -2.5916 0.00015687 10
-34.1706 19.5697 -2.0637 0.000130836 10
-34.1901 19.5809 -0.687733 0.000131517 10
-34.198 19.5854 0.687891 0.000131501 10
-25.7044 14.7211 1.55239 0.000123558 10
-25.5538 14.6348 2.57635 0.000255262 10
-25.5542 14.635 3.6158 0.000251489 10
-25.7019 14.7196 4.6911 0.000118213 10
-25.5602 14.6384 5.7255 0.000240455 10
-25.5489 14.632 6.79725 0.000233319 10
-25.7212 14.7307 7.94221 0.000108034 10
-8.7492 4.97024 -2.69621 0.000286562 4
-10.1734 5.77928 -2.70123 5.45792e-05 4
-11.8973 6.75861 -2.65971 5.99027e-05 4
-14.9283 8.48045 -2.71929 0.000567694 4
-18.0682 10.2641 -2.55147 3.73888e-05 4
-25.9386 14.7352 -2.60995 0.000152392 10
-34.4467 19.5685 -2.07624 6.21976e-05 10
-34.4482 19.5693 -0.691546 6.2535e-05 10
-34.45 19.5703 0.691581 6.25398e-05 10
-25.9466 14.7397 1.5639 0.000120033 10
-25.5506 14.5148 2.5709 0.000257011 10
-25.5687 14.5251 3.61065 0.000253214 10
-25.9496 14.7415 4.7269 0.000114831 10
-25.5549 14.5172 5.71293 0.000242109 10
-25.5721 14.527 6.7899 0.000234927 10
-25.9533 14.7436 7.99795 0.000104926 10
-8.76113 4.93664 -2.69456 0.000213961 4
-10.1799 5.73609 -2.69764 8.77989e-05 4
-11.9209 6.71707 -2.65972 3.90051e-05 4
-15.0547 8.48291 -2.73691 0.000423009 4
-18.0997 10.1987 -2.55088 4.23304e-05 4
-26.2026 14.7644 -2.63131 0.000147994 10
-34.5577 19.4723 -2.07882 0.000128329 10
-34.6018 19.4971 -0.693258 4.07296e-05 10
-34.591 19.491 0.693043 4.07328e-05 10
-26.2027 14.7645 1.57622 0.000116572 10
-25.5656 14.4055 2.56734 0.000258756 10
-25.5631 14.4041 3.60274 0.000254935 10
-26.1981 14.7619 4.76275 0.000111511 10
-25.5714 14.4087 5.70534 0.00024376 10
-25.5696 14.4078 6.77585 0.000236532 10
-26.1882 14.7563 8.05441 0.000101875 10
-8.78744 4.91113 -2.69736 0.000332397 4
-10.21 5.70616 -2.70031 4.74576e-05 4
-11.9492 6.67818 -2.66082 0.000186661 4
-15.086 8.43126 -2.73722 0.000105315 1
-18.127 10.1308 -2.54973 4.07832e-05 4
-26.427 14.7695 -2.64864 0.000143678 10
-34.5643 19.3173 -2.07514 0.000129269 10
-26.3953 14.7518 1.5847 0.000239301 10
-26.3748 14.7404 2.64341 0.000236919 10
-26.3854 14.7463 3.71135 0.000233394 10
-26.3955 14.752 4.78924 0.000228765 10
-26.3916 14.7498 5.87683 0.000223086 10
-26.3969 14.7527 6.98138 0.000216421 10
-26.3849 14.7461 8.09903 0.000208843 10
-8.81189 4.88451 -2.69962 0.000275081 4
-10.2272 5.66901 -2.6996 0.000147115 4
-11.9786 6.63986 -2.66219 6.12897e-05 4
-15.1277 8.3854 -2.73946 0.00010531 1
-18.1621 10.0674 -2.54971 3.89273e-05 4
-26.6739 14.7856 -2.6682 0.000139443 10
-26.9078 14.9152 -1.61233 0.000192285 10
-26.9057 14.9141 -0.536966 0.000193218 10
-26.9148 14.9191 0.537148 0.000193196 10
-26.3982 14.6328 1.5818 0.000240907 10
-26.3867 14.6264 2.63948 0.00023851 10
-26.3976 14.6324 3.70586 0.000234963 10
-26.3953 14.6311 4.77991 0.000230305 10
-26.3903 14.6284 5.86513 0.00022459 10
-26.3853 14.6256 6.96478 0.000217883 10
-26.4054 14.6367 8.08958 0.000210258 10
-8.8217 4.84977 -2.69742 0.000340023 4
-10.255 5.63773 -2.70174 0.00013762 4
-11.9825 6.58744 -2.65793 3.34297e-05 4
-15.1599 8.3342 -2.74001 0.000105306 1
-18.2205 10.0168 -2.55298 4.3868e-05 4
-26.9321 14.806 -2.68884 0.000135287 10
-26.9365 14.8085 -1.61094 9.02594e-05 10
-26.9337 14.807 -0.536491 9.07146e-05 10
-26.92 14.7994 0.536216 9.07214e-05 10
-26.3955 14.5111 1.57859 0.000242509 10
-26.392 14.5091 2.63492 0.000240097 10
-26.4081 14.518 3.7002 0.000236527 10
-26.3996 14.5133 4.77148 0.000231841 10
-26.4117 14.52 5.85859 0.00022609 10
-26.396 14.5113 6.95418 0.000219341 10
-26.4028 14.5151 8.07322 0.000211668 10
-8.83801 4.81864 -2.69725 0.000286529 4
-10.2522 5.58967 -2.69584 0.000284723 4
-12.0121 6.54919 -2.6594 5.01429e-05 4
-15.1824 8.27773 -2.73885 0.000105302 1
-18.2553 9.95314 -2.55298 4.2321e-05 4
-27.1999 14.8299 -2.71039 0.000131212 10
-27.1991 14.8294 -1.62354 0.000189162 10
-27.2043 14.8323 -0.540845 0.000190082 10
-27.1908 14.8249 0.540576 0.00019006 10
-26.4436 14.4175 1.57845 0.000112633 10
-26.4361 14.4134 2.63428 0.000111534 10
-26.4384 14.4147 3.69736 0.000109898 10
-26.4226 14.4061 4.76653 0.000107742 10
-26.4285 14.4093 5.85112 0.00010509 10
-26.4381 14.4145 6.95198 0.000101974 10
-26.4409 14.4161 8.06943 9.84283e-05 10
-8.85147 4.78597 -2.69624 0.000255961 4
-10.2705 5.55326 -2.69555 9.72776e-05 4
-12.0465 6.51353 -2.66198 7.24263e-05 4
-15.2135 8.22589 -2.73925 0.000105297 1
-18.2781 9.88294 -2.55133 3.30518e-05 4
-27.4523 14.8434 -2.73037 0.000127215 10
-27.4485 14.8413 -1.63533 0.000184884 10
-27.4599 14.8475 -0.544894 0.000185785 10
-27.4745 14.8554 0.545182 0.000185763 10
-26.723 14.4491 1.5921 7.85709e-05 10
-29.7305 16.0752 2.95695 0.000168535 10
-26.748 14.4626 3.73358 3.13412e-05 10
-26.6791 14.4253 4.80369 9.79891e-05 10
-29.7193 16.0692 6.56722 0.000158402 10
-29.7371 16.0788 7.80465 0.000153524 10
-26.6798 14.4257 8.12691 9.54285e-05 10
-8.86313 4.75237 -2.69472 0.000145168 4
-10.3006 5.52313 -2.69836 0.000109138 4
-12.06 6.46652 -2.65995 9.33155e-05 4
-15.2499 8.1769 -2.74064 0.000105293 1
-18.3121 9.81885 -2.55127 3.95365e-05 4
-27.7209 14.8639 -1.64846 0.000180729 10
-27.7307 14.8691 -0.549233 0.000181612 10
-27.7272 14.8672 0.549163 0.00018159 10
-26.977 14.465 1.60422 7.61693e-05 10
-29.7442 15.9487 2.95276 0.00016966 10
-26.9492 14.4501 3.75461 0.00010331 10
-26.9966 14.4754 4.85172 7.28474e-05 10
-29.7474 15.9504 6.56109 0.000159463 10
-29.7507 15.9522 7.79356 0.000154555 10
-26.9325 14.4411 8.1885 9.24882e-05 10
-8.89952 4.73196 -2.70075 0.000118424 4
-10.3159 5.48507 -2.69735 0.000147095 4
-12.0941 6.43056 -2.66251 5.84944e-05 4
-18.3401 9.75161 -2.55041 4.35495e-05 4
-27.9899 14.8825 -1.66135 0.000176694 10
-27.9865 14.8807 -0.553268 0.000177559 10
-28.0028 14.8893 0.553589 0.000177538 10
-27.2527 14.4905 1.6176 7.38149e-05 10
-29.7332 15.8094 2.94617 0.000170781 10
-27.1877 14.4559 3.78078 0.000100114 10
-27.2436 14.4857 4.88701 7.05893e-05 10
-29.7518 15.8193 6.54985 0.000160521 10
-29.7547 15.8209 7.7801 0.000155583 10
-27.2013 14.4632 8.25482 8.4042e-05 10
-8.9037 4.69439 -2.69703 6.49408e-05 4
-10.3364 5.44977 -2.69771 9.96424e-05 4
-12.1055 6.3825 -2.66009 7.24194e-05 4
-18.3754 9.68827 -2.55061 3.36642e-05 4
-28.2386 14.8885 -1.67302 0.00011687 10
-28.2558 14.8976 -0.557559 0.000173621 10
-28.2807 14.9107 0.558052 0.000173601 10
-27.5104 14.5046 1.62988 7.15078e-05 10
-29.7495 15.6851 2.94234 0.000171898 10
-27.4595 14.4777 3.81152 9.69812e-05 10
-27.5041 14.5013 4.92461 6.83769e-05 10
-29.7582 15.6897 6.53914 0.000161576 10
-29.7635 15.6925 7.76802 0.000156608 10
-27.4703 14.4834 8.32104 8.13938e-05 10
-8.93001 4.6685 -2.70005 9.54991e-05 4
-10.3534 5.41262 -2.6972 8.77779e-05 4
-12.1385 6.34583 -2.66245 9.46992e-05 4
-18.4976 9.67033 -2.56287 0.000192899 4
-28.5205 14.9102 -1.68663 0.00011315 10
-28.5475 14.9243 -0.562284 0.000169795 10
-28.5403 14.9205 0.562142 0.000169775 10
-27.7691 14.5174 1.6422 6.92473e-05 10
-29.7727 15.5648 2.93925 0.000173012 10
-27.7335 14.4987 3.84251 9.39121e-05 10
-27.7875 14.5269 4.96625 6.62092e-05 10
-29.7588 15.5575 6.52731 0.000162628 10
-29.7656 15.5611 7.75435 0.000157629 10
-27.7242 14.4939 8.38259 7.87996e-05 10
-10.3753 5.37804 -2.698 0.000495814 4
-12.14 6.29279 -2.65797 4.45629e-05 4
-18.6346 9.65927 -2.57716 0.000308035 4
-28.8131 14.9353 -1.70084 0.000109507 10
-28.0639 14.5469 1.65661 6.70334e-05 10
-29.772 15.4324 2.93385 0.000174122 10
-28.0161 14.5222 3.87462 9.09064e-05 10
-28.0506 14.5401 5.00417 6.40865e-05 10
-29.7842 15.4387 6.52102 0.000163676 10
-28.1909 14.6128 7.33078 4.76259e-05 10
-28.0578 14.5438 8.46806 5.84788e-05 10
-8.9512 4.6003 -2.69668 6.49365e-05 4
-10.3977 5.3437 -2.69896 0.000455472 4
-12.1708 6.25496 -2.65991 5.01317e-05 4
-18.8014 9.66263 -2.59555 0.000180534 4
-29.0954 14.953 -1.71441 0.00010594 10
-29.7816 15.3057 -0.584473 0.000228266 10
-29.7867 15.3083 0.584573 0.000228239 10
-28.327 14.5581 1.66913 6.48657e-05 10
-29.7679 15.2987 2.92816 0.000175228 10
-28.2822 14.5351 3.90438 8.79634e-05 10
-28.3174 14.5532 5.04267 6.20081e-05 10
-29.7834 15.3066 6.50912 0.00016472 10
-28.277 14.5324 7.33993 8.15333e-05 10
-28.3394 14.5645 8.53764 5.6571e-05 10
-8.98171 4.57641 -2.70104 0.000160428 4
-10.4064 5.30234 -2.69641 0.000469694 4
-12.2027 6.2176 -2.66212 3.75976e-05 4
-14.9743 7.62977 -2.66181 0.000139041 4
-18.963 9.66213 -2.61318 0.000299755 4
-29.3871 14.9735 -1.72851 0.000102449 10
-29.7729 15.1701 -0.58326 0.0002297 10
-29.7742 15.1707 0.583284 0.000229673 10
-28.6003 14.5726 1.68223 6.27434e-05 10
-29.7881 15.1778 2.92492 0.00017633 10
-28.5501 14.547 3.93433 8.50822e-05 10
-28.6076 14.5763 5.08526 5.99735e-05 10
-29.7978 15.1827 6.50063 0.00016576 10
-28.5474 14.5456 7.3969 7.88497e-05 10
-28.6164 14.5808 8.60572 5.47038e-05 10
-8.97862 4.53543 -2.69533 0.000129867 4
-10.4427 5.27501 -2.70103 0.000455449 4
-12.2197 6.1726 -2.6611 3.06341e-05 4
-14.9972 7.57566 -2.66118 0.000126646 4
-19.1359 9.66626 -2.63235 0.000284945 4
-29.6565 14.9806 -1.74127 9.90341e-05 10
-29.7934 15.0497 -0.582628 0.000231128 10
-29.7846 15.0453 0.582456 0.000231101 10
-28.9016 14.5992 1.69694 6.06668e-05 10
-29.7967 15.0514 2.92059 0.000177428 10
-28.8467 14.5715 3.96817 8.22632e-05 10
-28.889 14.5929 5.12619 5.79829e-05 10
-29.8058 15.056 6.49088 0.000166797 10
-28.8495 14.5729 7.46195 7.62243e-05 10
-28.9059 14.6014 8.67738 5.28772e-05 10
-9.00008 4.50691 -2.69703 0.000145143 4
-10.4489 5.23242 -2.69788 0.000552692 4
-12.2492 6.13394 -2.66285 8.63299e-05 4
-15.0296 7.52625 -2.66224 0.000136965 4
-19.2914 9.66044 -2.64909 0.000234304 4
-29.972 15.0089 -1.75671 9.56933e-05 10
-29.9706 15.0081 -0.585065 9.61881e-05 10
-29.9712 15.0085 0.585078 9.61961e-05 10
-29.1831 14.6138 1.71047 5.86349e-05 10
-29.8086 14.9271 2.91663 0.000178522 10
-29.1252 14.5848 3.99946 7.9505e-05 10
-29.1871 14.6158 5.17001 5.60353e-05 10
-29.8065 14.926 6.47965 0.000167829 10
-29.137 14.5907 7.5231 7.36559e-05 10
-29.189 14.6168 8.747 5.10904e-05 10
-9.01325 4.47422 -2.69628 0.000297918 4
-10.4645 5.19464 -2.69721 0.000462542 4
-12.2598 6.0858 -2.66052 9.18968e-05 4
-15.0676 7.47964 -2.66434 0.000124572 4
-19.4399 9.65005 -2.66483 3.64601e-05 4
-30.2616 15.022 -1.7706 9.24271e-05 10
-30.2836 15.0329 -0.590148 9.29062e-05 10
-30.2677 15.025 0.589838 9.2914e-05 10
-29.494 14.641 1.72568 5.66481e-05 10
-29.8213 14.8034 2.91279 0.000179611 10
-29.4333 14.6108 4.03473 7.68079e-05 10
-29.4864 14.6372 5.21393 5.4131e-05 10
-29.8017 14.7937 6.46732 0.000168857 10
-29.4198 14.6041 7.58291 7.11448e-05 10
-29.4879 14.6379 8.82122 4.93436e-05 10
-9.03448 4.44552 -2.69798 9.16652e-05 4
-10.4861 5.15981 -2.69812 0.00047439 4
-15.0756 7.41809 -2.66114 4.74868e-05 4
-30.5914 15.0528 -1.78681 8.92337e-05 10
-34.6976 17.0734 -0.675 9.49768e-05 10
-34.719 17.0839 0.675416 9.49652e-05 10
-29.7837 14.6554 1.73963 5.47052e-05 10
-29.8169 14.6717 2.90734 0.000180695 10
-29.7256 14.6268 4.06777 7.41706e-05 10
-29.7927 14.6598 5.25901 5.2269e-05 10
-29.8238 14.6751 6.46097 0.000169881 10
-29.7337 14.6308 7.6506 6.86898e-05 10
-29.7907 14.6589 8.89644 4.7636e-05 10
-9.05724 4.41752 -2.70015 0.000469774 4
-10.4992 5.12082 -2.69688 0.000455402 4
-12.3086 6.00329 -2.66195 5.98684e-05 4
-15.0948 7.36221 -2.65998 6.67542e-05 4
-30.896 15.069 -1.80152 8.61139e-05 10
-30.8902 15.0662 1.80118 6.71614e-05 10
-30.8801 15.0613 3.00587 6.6483e-05 10
-30.8873 15.0648 4.21953 6.54725e-05 10
-30.8932 15.0676 5.44397 6.41418e-05 10
-30.8804 15.0614 6.67843 6.25066e-05 10
-30.8762 15.0593 7.93099 6.0586e-05 10
-30.8901 15.0661 9.20897 5.84024e-05 10
-9.06896 4.38411 -2.69907 0.000301718 4
-10.5195 5.08534 -2.69752 0.000426929 4
-15.1425 7.32017 -2.66387 5.84937e-05 4
-19.5393 9.44568 -2.66475 5.20776e-05 4
-31.2165 15.0907 -1.81712 8.30658e-05 10
-34.7313 16.7898 -0.673359 3.88646e-05 10
-34.7283 16.7883 0.673299 3.88681e-05 10
-31.2133 15.0891 1.81693 6.47844e-05 10
-31.2029 15.0841 3.03215 6.41284e-05 10
-31.2178 15.0913 4.25745 6.31514e-05 10
-31.1973 15.0814 5.48825 6.18648e-05 10
-31.2008 15.0831 6.73631 6.02838e-05 10
-31.2196 15.0922 8.00563 5.8427e-05 10
-31.2036 15.0844 9.28668 5.63161e-05 10
-9.06844 4.34487 -2.69438 0.000122212 4
-10.5537 5.0565 -2.70174 0.000135191 4
-12.3365 5.91064 -2.65899 6.96102e-05 4
-15.1475 7.25747 -2.66028 4.40406e-05 4
-31.5464 15.1145 -1.83324 8.00896e-05 10
-31.3042 14.9985 1.81917 0.000159703 10
-31.3011 14.997 3.03658 0.000158053 10
-31.5424 15.1126 4.29449 6.08851e-05 10
-31.2956 14.9943 5.49629 0.000152408 10
-31.2982 14.9956 6.746 0.00014848 10
-31.5404 15.1116 8.0743 5.63194e-05 10
-31.3037 14.9982 9.30084 0.000138644 10
-9.09793 4.32002 -2.69865 0.000198591 4
-10.5703 5.01917 -2.7015 7.3523e-05 4
-12.3628 5.87031 -2.66024 0.000119726 4
-15.1839 7.20984 -2.66224 3.78459e-05 4
-18.7796 8.9172 -2.55259 4.22851e-05 4
-31.8709 15.1334 -1.84902 7.71844e-05 10
-31.3185 14.8711 1.81697 0.00016064 10
-31.2995 14.8621 3.03138 0.00015898 10
-31.8706 15.1333 4.33197 5.8673e-05 10
-31.3177 14.8708 5.49103 0.000153305 10
-31.3128 14.8684 6.73791 0.000149356 10
-31.8532 15.125 8.14082 5.42624e-05 10
-31.3066 14.8655 9.28624 0.000139465 10
-9.11757 4.2904 -2.70001 0.000255871 4
-10.5787 4.97797 -2.69918 0.000498047 4
-12.394 5.83218 -2.66255 6.40375e-05 4
-15.1981 7.15168 -2.66033 3.16517e-05 4
-18.8152 8.85376 -2.55321 3.79621e-05 4
-32.1992 15.1518 -1.86498 7.43489e-05 10
-32.5775 15.3298 -0.628455 0.000121251 10
-32.579 15.3305 0.628482 0.000121237 10
-31.3233 14.7396 1.81425 0.000161572 10
-31.3297 14.7426 3.0293 0.000159904 10
-32.2109 15.1573 4.37101 5.6514e-05 10
-31.3131 14.7348 5.48116 0.000154198 10
-31.3276 14.7417 6.72999 0.000150227 10
-32.1952 15.1499 8.21465 5.22553e-05 10
-31.3175 14.7369 9.27413 0.000140282 10
-9.13772 4.26099 -2.70156 9.54724e-05 4
-10.5907 4.93854 -2.69783 0.000436373 4
-12.3982 5.78138 -2.6591 6.96039e-05 4
-15.2353 7.10432 -2.66248 3.44028e-05 4
-18.8653 8.79706 -2.55584 0.000300108 4
-32.5338 15.1708 -1.88128 7.15832e-05 10
-32.5678 15.1866 -0.627241 0.000121955 10
-32.5921 15.1979 0.627708 0.000121941 10
-32.5469 15.1769 4.40938 5.44084e-05 10
-32.5275 15.1678 8.28588 3.21603e-05 10
-9.13072 4.21899 -2.69512 0.000103108 4
-10.6179 4.90617 -2.70038 0.000445848 4
-12.4154 5.73671 -2.65848 0.000201845 4
-15.2585 7.05041 -2.66222 7.22431e-05 4
-19.0482 8.80151 -2.57643 0.000325808 4
-32.9086 15.2059 -1.89988 6.88859e-05 10
-32.9067 15.205 -0.632742 4.57419e-05 10
-32.8924 15.1984 0.632467 4.57461e-05 10
-32.8932 15.1988 4.44908 5.2355e-05 10
-32.5869 15.0572 8.28757 3.21613e-05 10
-9.15654 4.19219 -2.69841 0.000145112 4
-10.643 4.87275 -2.70241 0.000441094 4
-12.4366 5.6939 -2.65874 0.000128064 4
-15.2965 7.00331 -2.66458 5.22883e-05 4
-19.2377 8.80771 -2.59789 0.000283303 4
-33.257 15.2262 -1.91691 6.62571e-05 10
-33.3799 15.2825 -0.640811 0.000114118 10
-33.389 15.2867 0.640984 0.000114105 10
-33.2525 15.2242 4.49046 5.03537e-05 10
-32.6489 14.9478 8.29003 3.21623e-05 10
-9.17327 4.16118 -2.69904 0.000126016 4
-10.6462 4.82931 -2.69892 0.000419741 4
-12.4643 5.65406 -2.66044 4.17586e-05 4
-15.2952 6.93821 -2.66011 5.29743e-05 4
-19.4212 8.80984 -2.6185 0.000310052 4
-33.6238 15.2524 -1.93497 6.36953e-05 10
-33.6643 15.2708 -0.645244 0.000111855 10
-33.6697 15.2733 0.645347 0.000111842 10
-33.5687 15.2274 1.9318 0.000132447 10
-33.5812 15.2331 3.22612 0.000131055 10
-33.6204 15.2509 4.53293 4.84035e-05 10
-33.5622 15.2245 5.83708 0.000126292 10
-33.5784 15.2318 7.16712 0.00012298 10
-32.687 14.8275 8.2865 3.21633e-05 10
-33.5732 15.2295 9.8782 0.00011469 10
-9.18972 4.13003 -2.69962 0.000775171 4
-10.6635 4.79236 -2.69905 0.000521699 4
-12.4947 5.61533 -2.66272 0.000144759 4
-15.3251 6.88736 -2.66111 3.78374e-05 4
-19.6187 8.81699 -2.64096 0.000262801 4
-33.9687 15.2661 -1.95174 6.12003e-05 10
-33.9805 15.2714 -0.650278 4.06404e-05 10
-33.9865 15.2741 0.650392 4.06442e-05 10
-33.5733 15.0884 1.92903 0.00013319 10
-33.5879 15.095 3.22168 0.00013179 10
-33.9695 15.2665 4.57278 4.65044e-05 10
-33.5882 15.0951 5.8324 0.000127003 10
-33.5755 15.0894 7.15522 0.000123673 10
-33.0417 14.8495 8.36323 4.71324e-05 10
-33.5902 15.096 9.86764 0.00011534 10
-9.19847 4.09542 -2.69798 0.000725515 4
-10.6747 4.75269 -2.69768 0.000502716 4
-12.5147 5.57191 -2.66283 9.46474e-05 4
-19.7976 8.81447 -2.66089 0.000315608 4
-34.3494 15.2933 -1.97054 5.87708e-05 10
-34.465 15.3448 -0.658522 0.000158671 10
-34.4726 15.3482 0.658665 0.000158652 10
-33.5921 14.9562 1.9271 0.000133929 10
-33.5872 14.954 3.21659 0.000132522 10
-34.36 15.2981 4.61814 4.46552e-05 10
-33.5937 14.9569 5.82425 0.00012771 10
-33.6006 14.96 7.1494 0.000124363 10
-33.5818 14.9516 8.48669 0.00012044 10
-33.5822 14.9518 9.84989 0.000115986 10
-9.20321 4.0591 -2.69519 0.000691134 4
-10.7033 4.72074 -2.70073 0.000450537 4
-12.5191 5.52159 -2.65965 7.93345e-05 4
-15.383 6.78471 -2.66288 7.91087e-05 4
-20.0216 8.8306 -2.68684 0.000192141 4
-34.7431 15.3235 -1.99004 5.64069e-05 10
-34.7269 15.3164 -0.6625 5.671e-05 10
-34.7418 15.323 0.662783 5.67155e-05 10
-34.7437 15.3238 1.99008 4.3994e-05 10
-34.7441 15.324 3.32224 4.35369e-05 10
-34.7377 15.3212 4.66169 4.28559e-05 10
-34.7445 15.3242 6.01447 4.19595e-05 10
-34.7192 15.313 7.37599 4.08585e-05 10
-34.7247 15.3154 8.76194 3.95662e-05 10
-34.7383 15.3214 10.1732 3.8098e-05 10
-9.21603 4.02639 -2.69482 0.000824762 4
-10.7146 4.68108 -2.69942 0.000455268 4
-12.5371 5.47734 -2.65939 0.00011691 4
-15.417 6.73552 -2.66467 4.12726e-05 4
-20.2252 8.8362 -2.71001 0.000281775 4
-35.1151 15.3414 2.00827 4.22005e-05 10
-35.1109 15.3396 3.35217 4.17607e-05 10
-35.1256 15.346 4.70652 4.11057e-05 10
-35.1154 15.3416 6.06936 4.02434e-05 10
-35.1308 15.3483 7.45201 3.91843e-05 10
-35.1183 15.3428 8.84771 3.79413e-05 10
-35.1287 15.3474 10.2718 3.65294e-05 10
-9.25292 4.0041 -2.7015 0.000740744 4
-10.7195 4.63876 -2.69658 0.000348556 4
-12.5666 5.43807 -2.66161 0.000122474 4
-20.4123 8.8332 -2.73092 0.000298835 4
-9.2554 3.96687 -2.69816 0.000828547 4
-10.7577 4.61075 -2.70211 0.000448133 4
-12.5775 5.39073 -2.65991 5.84519e-05 4
-15.45 6.62189 -2.66233 5.77774e-05 4
-20.5215 8.79552 -2.7414 4.16862e-05 1
-9.27481 3.93692 -2.6998 0.000862893 4
-15.487 6.57384 -2.66473 3.71413e-05 4
-20.5761 8.73403 -2.74461 4.16841e-05 1
-9.28328 3.90234 -2.69828 0.000809424 4
-12.6171 5.30375 -2.66039 9.04561e-05 4
-20.6043 8.66126 -2.74432 4.16821e-05 1
-9.29416 3.86878 -2.6975 0.000691051 4
-10.7765 4.48581 -2.69488 6.69086e-05 4
-12.649 5.26525 -2.66322 5.84469e-05 4
-15.5205 6.46055 -2.66267 5.02058e-05 4
-20.6299 8.58741 -2.74373 4.168e-05 1
-24.1241 10.0419 0.456111 0.000570383 5
-9.30079 3.83351 -2.69553 0.000713945 4
-10.7672 4.43791 -2.68867 0.000116222 4
-12.6561 5.21648 -2.66087 0.000101583 4
-15.5429 6.40632 -2.66266 3.64495e-05 4
-20.6673 8.51845 -2.74472 4.1678e-05 1
-24.1929 9.97158 0.456751 0.000569575 5
-9.31133 3.79988 -2.69472 0.000725385 4
-10.7644 4.39287 -2.68413 0.000402053 4
-12.6721 5.17139 -2.66042 0.00015585 4
-15.5693 6.3537 -2.66337 5.02023e-05 4
-9.3376 3.77264 -2.6985 0.000698646 4
-10.7766 4.35404 -2.68337 0.000199475 4
-12.6827 5.12415 -2.65888 0.000143322 4
-15.5994 6.30255 -2.66473 8.1146e-05 4
-9.35392 3.7413 -2.69942 0.000629914 4
-10.7776 4.31075 -2.67986 8.43529e-05 4
-12.7191 5.0873 -2.66278 7.6529e-05 4
-9.36773 3.70895 -2.69965 0.000736795 4
-10.7814 4.26867 -2.67709 0.000154477 4
-12.7264 5.03873 -2.66059 7.09613e-05 4
-15.6432 6.19358 -2.66477 3.02557e-05 4
-20.1984 7.99711 -2.66736 4.92852e-05 4
-24.3251 9.63099 0.456664 0.000538805 5
-9.37418 3.6737 -2.6978 0.000702423 4
-10.7726 4.22176 -2.67123 0.000261737 4
-12.7377 4.99184 -2.65929 8.20902e-05 4
-20.2043 7.91798 -2.66447 5.01043e-05 4
-24.4157 9.56843 -2.29428 8.62049e-05 5
-24.43 9.57401 -1.37513 0.000102902 5
-24.43 9.574 -0.458003 0.000112471 5
-24.3471 9.54153 0.456449 0.000541146 5
-9.38166 3.63891 -2.69628 0.000156515 4
-10.7769 4.18007 -2.66864 0.000189914 4
-12.7594 4.94905 -2.66021 0.000125219 4
-15.6712 6.07845 -2.66224 5.63817e-05 4
-20.2454 7.85266 -2.66626 4.24361e-05 4
-23.9482 9.28889 0.44836 0.000599191 5
-9.40271 3.60936 -2.6987 0.00021759 4
-10.797 4.14459 -2.67003 0.000128668 4
-12.7887 4.90913 -2.66273 5.84339e-05 4
-24.5867 9.43797 0.459695 0.000145659 5
-9.40702 3.57339 -2.69633 0.000137423 4
-10.7939 4.10022 -2.66571 0.000139993 4
-12.7914 4.85899 -2.65974 4.73024e-05 4
-15.7038 5.96533 -2.66065 6.60034e-05 4
-9.41575 3.53915 -2.69528 0.000213765 4
-10.7842 4.05352 -2.6598 0.000197335 4
-12.8136 4.81631 -2.66084 5.28659e-05 4
-15.7363 5.91488 -2.66263 4.60633e-05 4
-9.43334 3.50822 -2.69679 0.000171772 4
-10.7993 4.01621 -2.66004 0.000164653 4
-12.8201 4.76773 -2.65872 4.59087e-05 4
-15.7557 5.85949 -2.66244 3.43744e-05 4
-27.5819 10.2576 -2.57457 0.000139107 4
-9.45848 3.48004 -2.70049 0.000129781 4
-10.8137 3.97866 -2.66015 0.000103213 4
-12.8518 4.72854 -2.66186 0.000129376 4
-27.8931 10.2627 -2.60026 9.47814e-05 4
-24.6471 9.06836 0.458411 0.000552854 5
-9.47216 3.44759 -2.70094 8.77913e-05 4
-10.8218 3.93883 -2.65876 0.000238367 4
-12.8545 4.67867 -2.65903 0.000111288 4
-15.8113 5.75483 -2.66498 3.98716e-05 4
-28.2041 10.2655 -2.6259 0.000115459 4
-9.4782 3.41236 -2.69925 0.000515287 4
-10.8496 3.90608 -2.66221 0.000108123 4
-12.8869 4.63958 -2.66236 5.28603e-05 4
-15.8293 5.69889 -2.66464 3.50584e-05 4
-28.5253 10.2697 -2.65245 0.000101843 4
-9.47754 3.3748 -2.6957 0.000541996 4
-10.8406 3.86015 -2.65668 0.000167096 4
-12.9041 4.59493 -2.66257 0.000146058 4
-9.50359 3.34674 -2.69976 0.000175573 4
-12.9079 4.54558 -2.66007 8.06773e-05 4
-9.52149 3.31573 -2.70154 0.000240454 4
-10.8831 3.78991 -2.66056 0.000186746 4
-12.9233 4.50038 -2.66 8.763e-05 4
-15.8869 5.53241 -2.66445 5.77375e-05 4
-9.52233 3.2788 -2.69852 0.000118317 4
-10.8892 3.74946 -2.65883 6.87996e-05 4
-12.9508 4.45933 -2.66244 0.000129355 4
-15.8893 5.47112 -2.66162 5.36116e-05 4
-9.52436 3.24236 -2.69587 0.00016793 4
-10.9002 3.71073 -2.65833 5.40557e-05 4
-9.5491 3.21363 -2.69968 0.000118312 4
-10.9161 3.67366 -2.65906 0.000191648 4
-12.9757 4.3668 -2.66121 9.17958e-05 4
-27.8879 9.38532 -2.57434 0.000112725 4
-9.5571 3.17923 -2.69879 0.000774741 4
-10.9327 3.63684 -2.66001 0.000157246 4
-12.9908 4.32146 -2.66121 0.000173851 4
-28.2338 9.39213 -2.60322 0.000115732 4
-9.5801 3.14978 -2.70217 0.000763278 4
-10.9426 3.59774 -2.65933 0.000108105 4
-13.019 4.28045 -2.66391 8.6228e-05 4
-28.6178 9.40908 -2.63559 9.58237e-05 4
-9.57785 3.11203 -2.69845 0.000793796 4
-10.9554 3.55964 -2.65942 5.65081e-05 4
-13.0277 4.23295 -2.66264 6.67555e-05 4
-29.0079 9.42525 -2.66847 9.80113e-05 4
-9.58814 3.07842 -2.6983 0.000644948 4
-10.9588 3.51848 -2.65723 0.000115471 4
-13.0367 4.18563 -2.66148 5.84096e-05 4
-16.0217 5.14401 -2.66517 4.74165e-05 4
-29.3947 9.4376 -2.701 0.000119978 4
-9.5959 3.044 -2.69748 0.00078232 4
-10.9673 3.47902 -2.65633 0.000157233 4
-13.0423 4.13726 -2.65966 3.05948e-05 4
-22.1508 7.02664 -2.03311 0.000209093 6
-9.60354 3.00957 -2.69666 0.000858629 4
-11.0064 3.44918 -2.66287 0.00012775 4
-13.0506 4.08982 -2.65843 0.000111251 4
-16.0358 5.02533 -2.66162 5.56594e-05 4
-22.0998 6.92567 -2.0262 0.000175775 6
-9.62073 2.97811 -2.69855 0.000816637 4
-11.0019 3.40565 -2.65889 0.000135117 4
-13.0848 4.05043 -2.6625 4.31087e-05 4
-16.0503 4.9684 -2.66113 4.05408e-05 4
-22.0923 6.83872 -2.02331 0.00014 6
-22.4681 6.95504 -1.23263 0.000132014 6
-9.63116 2.94454 -2.69858 0.000759383 4
-11.006 3.36487 -2.65703 0.000159681 4
-13.0846 4.00038 -2.65961 8.20435e-05 4
-16.0728 4.91395 -2.662 6.25271e-05 4
-22.0807 6.75076 -2.02008 9.34197e-05 6
-9.64414 2.91174 -2.69935 8.39505e-05 4
-11.0385 3.33272 -2.66205 0.000262854 4
-13.1118 3.9587 -2.66231 5.70119e-05 4
-16.0838 4.85601 -2.661 7.00831e-05 4
-22.071 6.66362 -2.01705 6.66436e-05 6
-9.66533 2.88136 -2.70245 0.000106844 4
-11.0418 3.29169 -2.66005 8.84349e-05 4
-13.1338 3.91537 -2.66399 5.42296e-05 4
-16.1276 4.80784 -2.66545 5.0156e-05 4
-20.81 6.20374 -2.66627 3.00855e-05 4
-22.0542 6.57465 -2.01341 5.98146e-05 6
-9.65735 2.84231 -2.69743 3.05264e-05 4
-11.0407 3.24945 -2.65705 4.66731e-05 4
-13.126 3.86319 -2.65964 7.64757e-05 4
-16.1276 4.74661 -2.6627 6.04602e-05 4
-22.0646 6.49397 -2.01227 5.83702e-05 6
-9.68131 2.81268 -2.70136 0.000637229 4
-11.0504 3.21043 -2.65666 0.000112996 4
-13.1449 3.81895 -2.66076 9.03783e-05 4
-22.07 6.41194 -2.01072 5.4472e-05 6
-9.67405 2.77399 -2.69662 0.000206047 4
-11.0829 3.17796 -2.66179 3.68457e-05 4
-13.1656 3.77517 -2.66226 5.56161e-05 4
-16.1707 4.63688 -2.6644 3.43503e-05 4
-9.69 2.74199 -2.69838 0.000370115 4
-11.0915 3.13857 -2.66122 0.000112991 4
-9.71155 2.71151 -2.70173 0.000312875 4
-11.1098 3.10193 -2.66301 0.000319318 4
-13.1985 3.68508 -2.66364 4.58811e-05 4
-9.71559 2.67612 -2.70024 0.000110649 4
-11.1212 3.0633 -2.66316 0.000147374 4
-13.1908 3.63334 -2.65951 0.000101492 4
-16.2099 4.46496 -2.66301 4.46515e-05 4
-9.7188 2.64054 -2.69855 0.000209849 4
-11.1184 3.02079 -2.65993 0.000167021 4
-13.2032 3.58724 -2.65949 5.83915e-05 4
-16.216 4.4058 -2.66147 3.77809e-05 4
-9.72089 2.60471 -2.69659 0.000110646 4
-11.1275 2.98162 -2.65962 5.89475e-05 4
-13.2208 3.5425 -2.66052 8.6195e-05 4
-16.257 4.35605 -2.66568 5.70132e-05 4
-9.73372 2.57176 -2.69764 0.000144982 4
-11.1325 2.94134 -2.65834 0.000164559 4
-13.2473 3.5001 -2.66338 3.3365e-05 4
-9.75938 2.54213 -2.70228 0.000144979 4
-11.1607 2.90714 -2.66262 0.000112979 4
-13.2357 3.44764 -2.6586 8.89714e-05 4
-16.2832 4.24147 -2.66507 3.77777e-05 4
-9.74312 2.50161 -2.69534 0.000160238 4
-11.1462 2.86185 -2.65676 7.12243e-05 4
-13.2652 3.40593 -2.66213 0.000304442 4
-16.29 4.18255 -2.66376 3.02213e-05 4
-9.75222 2.46769 -2.69546 0.000118269 4
-11.1557 2.82284 -2.65668 6.63111e-05 4
-13.2856 3.36177 -2.66385 0.000244661 4
-22.2049 5.61871 -2.00391 6.98276e-05 6
-22.5423 5.70409 -1.21863 2.92161e-05 6
-9.76515 2.43472 -2.69667 0.000202199 4
-11.1821 2.788 -2.66062 0.000127708 4
-13.275 3.30983 -2.6594 0.000265506 4
-16.3216 4.06944 -2.66423 3.64009e-05 4
-22.2555 5.54892 -2.00671 9.38989e-05 6
-22.6502 5.64733 -1.22339 0.000251702 6
-9.79525 2.40595 -2.70264 0.000152601 4
-11.1875 2.74792 -2.65962 0.000255411 4
-13.2904 3.26444 -2.66018 0.000282181 4
-16.3311 4.01131 -2.66348 2.9532e-05 4
-22.3166 5.4815 -2.01049 0.000186618 6
-23.022 5.65474 -1.24239 4.92825e-05 6
-9.79439 2.36951 -2.70011 0.000133523 4
-13.3204 3.22253 -2.66391 0.000286345 4
-22.4503 5.4313 -2.02081 0.000270761 6
-23.42 5.66588 -1.2628 4.77126e-05 6
-9.79523 2.33355 -2.69808 0.000255598 4
-11.1986 2.66788 -2.65775 0.000137524 4
-13.3286 3.17532 -2.66332 3.89199e-05 4
-22.7204 5.41278 -2.04341 0.000277496 6
-23.8332 5.67787 -1.284 4.53565e-05 6
-43.2877 10.3126 -0.776736 7.17486e-05 9
-9.8036 2.29942 -2.69816 0.000415818 4
-11.2295 2.63385 -2.66288 6.63051e-05 4
-13.3188 3.1239 -2.65917 6.81083e-05 4
-16.3774 3.84129 -2.66432 6.66132e-05 4
-23.2235 5.44703 -2.08693 7.39806e-05 6
-24.3118 5.7023 -1.30871 4.30613e-05 6
