VERSION 0.7
FIELDS x y z intensity label
SIZE 4 4 4 4 4
TYPE F F F F F
COUNT 1 1 1 1 1
WIDTH 1176
HEIGHT 1
VIEWPOINT 5.06531 3.95066 2.72871 0.729654 0.000568674 0.000481837 -0.683816
POINTS 1176
DATA ascii
12.034 -4.81326 -2.51934 0.000223555 4
14.7536 -5.90102 -2.51672 0.000100781 4
18.3467 -7.33817 -2.4262 0.000346899 10
18.3436 -7.33692 -1.72847 0.000351637 10
18.3426 -7.33654 -1.03534 0.000354827 10
18.3564 -7.34206 -0.345092 0.000356436 10
18.3575 -7.3425 0.345112 0.000356447 10
18.349 -7.33909 1.0357 0.00035486 10
18.2038 -7.28102 1.7153 0.000856713 10
18.2181 -7.28673 2.40919 0.000845383 10
18.2017 -7.28018 3.10492 0.000830401 10
18.1984 -7.27884 3.80987 0.000811918 10
18.3404 -7.33563 4.56034 0.000252699 10
18.205 -7.28146 5.25372 0.000765245 10
9.14762 -3.6218 -2.63622 0.000511776 4
10.5775 -4.18794 -2.62645 0.00128452 4
12.0495 -4.77072 -2.51908 0.000218735 4
14.7624 -5.84484 -2.51472 0.000121747 4
18.5831 -7.35758 -2.45405 0.000333391 10
18.5806 -7.35659 -1.74837 0.000337954 10
18.5743 -7.35408 -1.04696 0.000341026 10
18.5842 -7.35802 -0.348889 0.000342576 10
18.5799 -7.35629 0.348807 0.000342587 10
18.5736 -7.35381 1.04692 0.000341058 10
18.2132 -7.21112 1.7138 0.000860294 10
18.2078 -7.20898 2.40449 0.00084892 10
18.2292 -7.21746 3.10529 0.000833877 10
18.2188 -7.21333 3.80884 0.000815321 10
18.5776 -7.3554 4.61291 0.000242825 10
18.2116 -7.21049 5.24834 0.000768461 10
9.17269 -3.59474 -2.63982 0.000458981 4
10.6202 -4.16203 -2.63344 0.00035506 4
12.0649 -4.72818 -2.51883 0.000229999 4
14.7964 -5.79865 -2.51706 9.67552e-05 4
18.8015 -7.36822 -2.47948 0.000320229 10
18.7948 -7.36561 -1.7661 0.000324621 10
18.8075 -7.37059 -1.05865 0.000327578 10
18.815 -7.37353 -0.352737 0.00032907 10
18.7988 -7.36717 0.352432 0.000329081 10
18.8147 -7.3734 1.05905 0.00032761 10
18.2181 -7.13961 1.71191 0.000863847 10
18.2278 -7.14341 2.40383 0.000852428 10
18.2253 -7.14243 3.10036 0.000837326 10
18.2245 -7.14211 3.8048 0.000818697 10
18.7972 -7.36654 4.66103 0.000233207 10
18.221 -7.14074 5.24384 0.000771653 10
9.16778 -3.55595 -2.63481 0.000345257 4
10.6272 -4.122 -2.63157 0.00031956 4
12.0758 -4.6839 -2.51769 0.000188186 4
14.8046 -5.74235 -2.51503 0.000115303 4
19.0482 -7.3883 -2.50859 0.00030741 10
19.0272 -7.38018 -1.7855 0.000311636 10
19.0418 -7.38584 -1.07038 0.000314481 10
19.0247 -7.37921 -0.356183 0.000315916 10
19.0281 -7.38053 0.356247 0.000315926 10
19.0414 -7.38566 1.07035 0.000314511 10
18.2386 -7.07431 1.7115 0.000867372 10
18.2254 -7.06918 2.40024 0.000855908 10
18.2219 -7.0678 3.09556 0.000840747 10
18.2238 -7.06855 3.79948 0.000822045 10
19.0407 -7.3854 4.71498 0.00022384 10
18.2171 -7.06596 5.23559 0.000774818 10
8.81015 -3.3819 -2.52862 0.000463166 4
10.6674 -4.09482 -2.63797 0.000243479 4
12.1108 -4.6489 -2.52158 0.000202666 4
14.8398 -5.69648 -2.51762 6.28945e-05 4
19.277 -7.39974 -2.53531 0.00029493 10
19.2658 -7.39547 -1.80546 0.000298994 10
19.2837 -7.40234 -1.08252 0.000301729 10
19.2889 -7.40431 -0.360642 0.000303109 10
19.286 -7.40321 0.360589 0.000303119 10
19.2863 -7.40332 1.08266 0.000235285 10
18.2204 -6.99414 1.70748 0.000870867 10
18.2445 -7.00341 2.39952 0.000859358 10
18.2402 -7.00176 3.0945 0.00084414 10
18.23 -6.99784 3.79566 0.000825366 10
19.1611 -7.35525 4.7384 0.000168273 10
18.2225 -6.99495 5.23007 0.000777957 10
8.79846 -3.34222 -2.5219 0.000517136 4
10.6581 -4.04862 -2.63216 0.000504722 4
12.1247 -4.60575 -2.52112 0.000217147 4
14.8591 -5.64446 -2.51753 0.000130631 4
19.5308 -7.41904 -2.56526 0.000282787 10
19.5289 -7.41833 -1.82767 0.000286691 10
19.5157 -7.41331 -1.09408 0.00028932 10
19.5351 -7.42068 -0.364759 0.000290646 10
19.5116 -7.41175 0.36432 0.000290656 10
19.5181 -7.41422 1.09421 0.000225608 10
18.3866 -6.9844 3.82316 0.000249401 10
19.2032 -7.2946 4.74249 0.00016827 10
8.81911 -3.31489 -2.52449 0.000584597 4
10.6721 -4.01137 -2.63215 0.000289142 4
12.1394 -4.5629 -2.52084 0.000162462 4
14.8798 -5.59297 -2.51772 8.70897e-05 4
19.7737 -7.43246 -2.59376 0.000270974 10
19.7752 -7.433 -1.84829 0.000274725 10
19.763 -7.42842 -1.10648 0.00027725 10
19.769 -7.43069 -0.368641 0.000278524 10
19.7587 -7.42681 0.368448 0.000278533 10
19.7596 -7.42716 1.1063 0.000216196 10
20.029 -7.52842 1.87201 0.000434779 10
20.0172 -7.52397 2.62569 0.000428932 10
20.0367 -7.53131 3.39028 0.000421202 10
18.6146 -6.99678 3.86548 0.000239081 10
19.234 -7.2296 4.74385 0.000168266 10
19.9942 -7.51533 5.72339 0.000118233 10
8.83532 -3.28583 -2.52583 0.000602594 4
10.7088 -3.98255 -2.63774 0.000355094 4
12.1643 -4.52386 -2.52272 0.000178551 4
14.8965 -5.53997 -2.51726 4.51589e-05 4
20.0325 -7.45003 -2.62427 0.000259491 10
20.0423 -7.45365 -1.8708 0.000263091 10
20.0298 -7.44902 -1.11996 0.000265515 10
20.029 -7.44874 -0.373002 0.000266738 10
20.0181 -7.44467 0.372798 0.000266747 10
20.0176 -7.44448 1.11928 0.000207046 10
20.0975 -7.4742 1.87596 0.000433005 10
20.1032 -7.47632 2.63353 0.00042718 10
20.0943 -7.47301 3.39559 0.000419479 10
20.0365 -7.4515 4.1553 0.000194167 10
19.2378 -7.15447 4.73859 0.000168263 10
20.0847 -7.46945 5.7418 0.000386011 10
8.84757 -3.25527 -2.52607 0.000620592 4
10.7111 -3.94093 -2.63492 0.000154722 4
12.1568 -4.47283 -2.51791 0.000188207 4
14.9004 -5.48228 -2.51466 5.48373e-05 4
20.3057 -7.47103 -2.65662 0.000248331 10
20.2988 -7.4685 -1.8923 0.000251784 10
20.2784 -7.461 -1.1324 0.000254109 10
20.2933 -7.4665 -0.377437 0.000255283 10
20.2974 -7.468 0.377512 0.000255292 10
20.2873 -7.46426 1.13289 0.000198152 10
20.1184 -7.40212 1.87548 0.00067821 10
20.1303 -7.40651 2.63368 0.000669085 10
20.1181 -7.40203 3.39523 0.000657021 10
20.3004 -7.46908 4.2046 0.000185799 10
19.2637 -7.08768 4.73886 0.00016826 10
20.1324 -7.40729 5.74801 0.000604596 10
8.91077 -3.24326 -2.54087 0.00225818 4
10.7148 -3.89985 -2.63245 0.000210528 4
12.1795 -4.43299 -2.5194 0.000246122 4
14.9216 -5.43102 -2.51502 3.30645e-05 4
20.574 -7.48832 -2.68829 0.000237491 10
20.5523 -7.48043 -1.91349 0.000240802 10
20.5611 -7.48365 -1.14672 0.000243031 10
20.5563 -7.4819 -0.38184 0.000244155 10
20.5642 -7.48474 0.381985 0.000244164 10
20.5493 -7.47932 1.14606 0.000189513 10
20.1402 -7.33042 1.87512 0.000680822 10
20.1277 -7.32589 2.62998 0.000671663 10
20.1304 -7.32685 3.39296 0.000659556 10
20.5517 -7.48021 4.25122 0.000177671 10
19.3502 -7.04289 4.75404 0.000204089 10
20.1306 -7.32694 5.74015 0.000606939 10
9.00428 -3.24174 -2.56429 0.00248521 4
10.7376 -3.86576 -2.63473 0.000311992 4
12.2109 -4.3962 -2.5227 0.000193041 4
14.9385 -5.3782 -2.5147 5.24208e-05 4
20.6577 -7.43724 -2.69582 4.44639e-05 1
20.8322 -7.50004 -1.9371 0.000230139 10
20.8245 -7.49729 -1.15994 0.000232275 10
20.8487 -7.50601 -0.386782 0.000233352 10
20.8469 -7.50535 0.386748 0.000233361 10
20.8443 -7.5044 1.16104 0.000181126 10
20.1524 -7.2553 1.87389 0.000683409 10
20.148 -7.25375 2.62931 0.000674218 10
20.1259 -7.24576 3.38791 0.000662067 10
20.8307 -7.49951 4.3035 0.000169781 10
19.6177 -7.06281 4.81368 0.00019512 10
20.1219 -7.24432 5.73042 0.000609259 10
9.0991 -3.24004 -2.58805 0.0020261 4
10.7464 -3.82663 -2.6336 0.000448972 4
12.2607 -4.36585 -2.52983 0.000910746 4
14.9582 -5.32639 -2.51487 5.72611e-05 4
20.6924 -7.36824 -2.69698 4.44655e-05 1
21.1107 -7.51717 -1.96054 0.000219792 10
21.1187 -7.52004 -1.17486 0.000221837 10
21.1105 -7.51711 -0.391149 0.000222868 10
21.1088 -7.51651 0.391118 0.000222876 10
21.1176 -7.51965 1.1748 0.000172987 10
20.1407 -7.17179 1.87046 0.000685973 10
20.1574 -7.17773 2.62725 0.000676749 10
20.1306 -7.16818 3.38447 0.000664554 10
21.1246 -7.52213 4.35876 0.000162126 10
20.1332 -7.16911 4.93401 0.000631788 10
20.1436 -7.17283 5.72945 0.000611558 10
9.19584 -3.23837 -2.61234 0.00195344 4
12.3599 -4.3526 -2.54714 0.000951097 4
14.9674 -5.27084 -2.5133 6.69408e-05 4
20.7243 -7.29818 -2.6978 4.44671e-05 1
21.4129 -7.54069 -1.98616 0.000209756 10
21.3992 -7.53585 -1.18899 0.000211713 10
21.415 -7.54141 -0.396301 0.0002127 10
21.4132 -7.54077 0.396267 0.000212708 10
21.4057 -7.53814 1.18935 0.000165092 10
20.1634 -7.10064 1.87025 0.000688511 10
20.1587 -7.09901 2.62417 0.000679255 10
20.1414 -7.09292 3.38212 0.000187261 10
21.4039 -7.53751 4.41094 0.000154701 10
20.1352 -7.09071 4.92839 0.000177968 10
20.1588 -7.09902 5.72667 0.00017224 10
9.28465 -3.23326 -2.63435 0.00158123 4
10.7872 -3.7565 -2.6371 0.000187712 4
12.4954 -4.35136 -2.57192 0.000967945 4
15.0101 -5.22706 -2.51739 0.000107269 4
20.7418 -7.22305 -2.69677 4.44686e-05 1
21.7015 -7.55725 -2.01046 0.000200027 10
21.4643 -7.47465 -1.19115 0.000752501 10
21.444 -7.46758 -0.396353 0.000756139 10
21.7052 -7.55856 0.401181 0.00020285 10
21.6923 -7.55405 1.2038 0.00015744 10
21.7056 -7.55869 2.01084 0.000155993 10
21.4412 -7.46662 2.78771 0.000573889 10
21.4325 -7.4636 3.59452 0.00056342 10
21.6943 -7.55475 4.46532 0.000147505 10
21.7001 -7.55679 5.30495 0.000143395 10
21.4347 -7.46434 6.08169 0.000517949 10
9.39362 -3.23448 -2.66204 0.000442197 4
10.7915 -3.7158 -2.63496 0.000177568 4
12.6232 -4.34653 -2.59509 0.000927719 4
15.0237 -5.17307 -2.51663 9.35605e-05 4
20.7632 -7.14935 -2.6963 4.44701e-05 1
21.9918 -7.57239 -2.0349 0.000190602 10
21.4579 -7.38855 -1.18936 0.000755245 10
21.4492 -7.38555 -0.39597 0.000758894 10
22.0022 -7.57598 0.406179 0.000193299 10
22.009 -7.57831 1.21991 0.000150025 10
22.0181 -7.58144 2.03733 0.000148643 10
21.4452 -7.38416 2.78486 0.000575982 10
21.4421 -7.3831 3.59178 0.000565478 10
21.9901 -7.5718 4.52074 0.000140534 10
21.9946 -7.57335 5.37044 0.000136607 10
21.4351 -7.3807 6.07446 0.000519849 10
9.50176 -3.23466 -2.68947 0.00199041 4
10.8028 -3.67756 -2.63457 0.000446465 4
12.737 -4.33602 -2.61535 0.000936336 4
15.0351 -5.11838 -2.51554 0.000118567 4
20.7982 -7.08029 -2.69762 4.44716e-05 1
22.3253 -7.60015 -2.06329 0.000181476 10
21.4575 -7.30471 -1.18791 0.000757959 10
21.4716 -7.30952 -0.39591 0.000761622 10
22.3298 -7.60168 0.411734 0.000184051 10
22.3162 -7.59705 1.23545 0.000142846 10
22.1365 -7.53589 2.04584 4.78911e-05 10
21.4542 -7.30359 2.7827 0.000578055 10
21.4493 -7.30192 3.58869 0.000567515 10
22.32 -7.59836 4.58309 0.000133785 10
22.3247 -7.59995 5.44454 0.000130037 10
21.4468 -7.3011 6.07053 0.00052173 10
9.58908 -3.22708 -2.71098 0.000625586 1
10.3479 -3.48247 -2.52067 0.00043064 4
12.8393 -4.32092 -2.63326 0.00036863 4
15.0636 -5.06946 -2.51732 0.000107277 4
20.8154 -7.00516 -2.69666 4.44731e-05 1
22.6361 -7.6179 -2.08954 0.000172645 10
21.4629 -7.22308 -1.18681 0.000760645 10
21.468 -7.22478 -0.395376 0.00076432 10
22.6404 -7.61933 0.416968 0.000175102 10
22.6415 -7.61971 1.25198 0.000135899 10
22.153 -7.45532 2.04495 4.78887e-05 10
21.4574 -7.22121 2.77983 0.000580106 10
21.4764 -7.22761 3.58898 0.00056953 10
22.6488 -7.62215 4.64509 0.000127255 10
22.6385 -7.61871 5.51455 0.000123679 10
21.4588 -7.2217 6.06675 0.000523591 10
9.59556 -3.19202 -2.70965 0.000625595 1
10.3676 -3.44885 -2.52252 0.000458794 4
12.8586 -4.2775 -2.63413 0.000130107 4
15.071 -5.01346 -2.51562 0.000120992 4
20.8279 -6.92851 -2.69513 4.44745e-05 1
22.9585 -7.63728 -2.11683 0.000164103 10
22.644 -7.53265 -1.25066 0.000657118 10
22.6635 -7.53916 -0.416908 0.000660328 10
22.9665 -7.63994 0.42248 0.000166446 10
22.9621 -7.63848 1.26823 0.000129179 10
22.1836 -7.37951 2.04538 4.78865e-05 10
22.6426 -7.53219 2.92995 0.000501026 10
22.6383 -7.53077 3.77874 0.00049179 10
22.9686 -7.64065 4.7052 0.00012094 10
22.9551 -7.63614 5.58513 0.000117532 10
22.6286 -7.52755 6.39 0.000451689 10
9.62903 -3.16587 -2.71596 0.000625603 1
10.371 -3.40981 -2.52043 0.000382803 4
12.8541 -4.22622 -2.63017 0.000148903 4
15.0774 -4.95719 -2.51378 0.000112929 4
20.8605 -6.8586 -2.69624 4.4476e-05 1
23.2957 -7.65923 -2.14544 0.000155847 10
22.6625 -7.45106 -1.25024 0.000659407 10
22.6425 -7.44446 -0.416039 0.000662627 10
23.3098 -7.66389 0.428302 0.000158079 10
23.2997 -7.66057 1.28539 0.000122684 10
22.1985 -7.29851 2.0444 4.78842e-05 10
22.6551 -7.44863 2.92819 0.000502773 10
22.6453 -7.44539 3.77554 0.000493506 10
23.311 -7.66427 4.76982 0.000114837 10
23.2878 -7.65664 5.65955 0.000111591 10
22.6484 -7.44642 6.38821 0.000453273 10
9.64169 -3.13278 -2.71643 0.000625611 1
10.3828 -3.37358 -2.52042 0.000450363 4
12.8773 -4.18408 -2.63191 0.00017782 4
15.1175 -4.91198 -2.5176 8.55052e-05 4
19.4375 -6.31562 -2.50944 2.99253e-05 4
23.6375 -7.68029 -2.17444 0.000147872 10
22.6617 -7.36323 -1.24877 0.00066167 10
22.6523 -7.36018 -0.415745 0.000664901 10
23.6473 -7.68347 0.434006 0.000149997 10
23.659 -7.68729 1.30373 0.00011641 10
22.2522 -7.23018 2.047 0.000136923 10
22.6478 -7.35873 2.92391 0.000504501 10
22.6533 -7.3605 3.77257 0.000495204 10
23.6504 -7.68449 4.83375 0.000108942 10
23.655 -7.68597 5.74223 0.000105854 10
22.6609 -7.36298 6.38445 0.00045484 10
9.64531 -3.09677 -2.71439 0.000625619 1
10.4132 -3.3433 -2.52494 0.00130618 4
12.8782 -4.13472 -2.62912 0.000164812 4
15.122 -4.85513 -2.5155 0.000105674 4
19.4597 -6.24784 -2.50949 4.63691e-05 4
24.0159 -7.71066 -2.20676 0.000140174 10
22.6784 -7.28123 -1.24828 0.000663909 10
22.6723 -7.27929 -0.415644 0.000667149 10
23.991 -7.70266 0.439818 0.000142195 10
24.0059 -7.70744 1.32135 0.000110353 10
22.6014 -7.25653 2.07679 0.000129887 10
22.6742 -7.2799 2.92402 0.000506209 10
22.6589 -7.27497 3.76925 0.000496882 10
24.015 -7.71039 4.90275 0.000103253 10
24.0083 -7.70822 5.82143 0.000100317 10
22.6451 -7.27053 6.37279 0.000456388 10
9.64521 -3.05964 -2.71134 0.000625627 1
10.5377 -3.34275 -2.55228 0.00149663 4
12.8939 -4.09017 -2.62939 0.000134454 4
15.1482 -4.80531 -2.51707 9.11558e-05 4
19.4686 -6.17581 -2.50783 4.80149e-05 4
24.3624 -7.7282 -2.2361 0.000132749 10
24.3719 -7.73123 -1.34 0.00013402 10
24.3725 -7.73141 -0.446315 0.000134663 10
24.3622 -7.72814 0.446126 0.000134668 10
24.3797 -7.73369 1.34043 0.00010451 10
24.3741 -7.73193 2.23718 0.000103528 10
24.3827 -7.73466 3.14084 0.000102064 10
24.3747 -7.73212 4.05016 0.000100137 10
24.3751 -7.73223 4.97071 9.77659e-05 10
24.38 -7.7338 5.90498 9.49771e-05 10
24.3605 -7.72759 6.84791 9.18006e-05 10
9.65919 -3.02701 -2.71229 0.000625634 1
10.6704 -3.34391 -2.58159 0.000536013 4
12.9046 -4.04406 -2.62869 0.000109878 4
15.1611 -4.75121 -2.51644 7.17969e-05 4
19.4881 -6.10721 -2.50759 3.91366e-05 4
24.6763 -7.7331 -2.26243 0.000519479 10
24.6816 -7.73474 -1.35554 0.000524557 10
24.6913 -7.73777 -0.451655 0.000527165 10
24.7601 -7.75934 0.452914 0.000127413 10
24.6807 -7.73448 1.35549 0.00040926 10
24.6777 -7.73354 2.26256 0.000405468 10
24.6674 -7.73029 3.17402 0.00039979 10
24.7373 -7.75221 4.1059 9.47273e-05 10
24.6785 -7.73376 5.02704 0.000383039 10
24.683 -7.73519 5.97179 0.00037215 10
24.6604 -7.72811 6.92461 0.000359735 10
9.66484 -2.99177 -2.71092 0.000625642 1
10.8063 -3.3451 -2.61162 0.00154564 4
12.9229 -4.00032 -2.62956 0.000231327 4
15.1612 -4.69319 -2.51372 6.93783e-05 4
19.5253 -6.04409 -2.50964 4.17688e-05 4
24.6886 -7.64241 -2.2611 0.000521192 10
24.6988 -7.64556 -1.35501 0.000526284 10
24.6861 -7.64161 -0.451069 0.0005289 10
25.1212 -7.77632 0.459021 0.000120424 10
24.6885 -7.64236 1.35444 0.000410608 10
24.6739 -7.63785 2.25974 0.000406804 10
24.6801 -7.63976 3.1722 0.000401108 10
25.1421 -7.78277 4.16853 8.95171e-05 10
24.6876 -7.6421 5.02345 0.000384305 10
24.6701 -7.63668 5.96219 0.000373382 10
24.6795 -7.63957 6.92243 0.000360928 10
9.67062 -2.95661 -2.70963 0.000625649 1
10.9252 -3.34017 -2.63753 0.000888722 4
12.9567 -3.96126 -2.6336 0.000234222 4
15.1943 -4.64537 -2.5165 8.22876e-05 4
19.5328 -5.97178 -2.50791 4.83479e-05 4
24.7034 -7.55259 -2.26002 0.000522883 10
24.6871 -7.54761 -1.35291 0.000527992 10
24.6926 -7.54929 -0.450705 0.000530615 10
25.5186 -7.80182 0.465781 0.000113697 10
24.6829 -7.54632 1.35268 0.000411939 10
24.7029 -7.55243 2.25997 0.000408124 10
24.678 -7.54483 3.16853 0.000402409 10
25.531 -7.8056 4.22847 8.4503e-05 10
24.69 -7.54849 5.01853 0.000385555 10
24.6904 -7.54862 5.96068 0.000374598 10
24.6932 -7.54947 6.91884 0.000362106 10
9.69644 -2.92753 -2.71399 0.000625656 1
11.0605 -3.33937 -2.66737 0.00161561 4
12.9631 -3.9138 -2.63211 0.000153259 4
15.197 -4.58824 -2.51428 0.000115366 4
19.5615 -5.90598 -2.50894 4.76915e-05 4
24.7042 -7.45865 -2.2577 0.000524552 10
24.6939 -7.45553 -1.35185 0.000529676 10
24.6934 -7.45538 -0.450241 0.000532308 10
25.9533 -7.83578 0.473214 0.000107227 10
24.6981 -7.4568 1.35208 0.000413253 10
24.697 -7.45648 2.25704 0.000409427 10
24.6956 -7.45604 3.16742 0.000403696 10
25.9483 -7.83427 4.29304 7.96806e-05 10
24.684 -7.45254 5.01199 0.00038679 10
24.6921 -7.45498 5.95477 0.0003758 10
24.6844 -7.45268 6.90906 0.000363271 10
9.7115 -2.89513 -2.71536 0.000625664 1
11.1982 -3.33834 -2.69775 0.000822735 4
12.9806 -3.86968 -2.6329 0.000144586 4
15.2978 -4.56047 -2.52831 0.000601314 4
19.5724 -5.83479 -2.5077 4.40747e-05 4
24.819 -7.39886 -2.26581 0.000118829 10
24.8195 -7.39902 -1.3573 0.000119972 10
24.8164 -7.39809 -0.45201 0.000120549 10
26.3675 -7.86051 0.480263 0.000101008 10
24.8315 -7.40258 1.35796 9.3556e-05 10
24.8195 -7.39902 2.26586 9.26738e-05 10
24.8145 -7.39752 3.17934 9.13604e-05 10
26.3709 -7.86151 4.35839 7.50468e-05 10
26.5595 -7.91775 5.38718 0.000200108 10
26.549 -7.91461 6.39589 0.000194325 10
26.3595 -7.8581 7.37017 4.38529e-05 10
9.68993 -2.8519 -2.70653 0.000159166 4
11.2706 -3.31713 -2.71239 0.000390089 1
12.9803 -3.82032 -2.63013 0.000138805 4
15.4769 -4.5551 -2.55526 0.000507237 4
19.6002 -5.76866 -2.50867 4.63784e-05 4
26.5905 -7.82601 -2.42503 0.000425407 10
26.5915 -7.8263 -1.4527 0.000429634 10
26.6019 -7.82937 -0.484032 0.000431805 10
26.6123 -7.83242 0.484219 0.000431896 10
26.6099 -7.83171 1.45371 0.000335203 10
26.5954 -7.82745 2.42548 0.000332046 10
26.5975 -7.82808 3.40427 0.000327319 10
26.8017 -7.88816 4.425 7.0598e-05 10
26.5984 -7.82834 5.38949 0.00031338 10
26.5762 -7.82179 6.39581 0.000304323 10
26.4626 -7.78838 7.39136 8.14055e-05 10
9.67343 -2.81039 -2.69916 0.000162383 4
11.2831 -3.27803 -2.7126 0.000390094 1
12.4374 -3.6134 -2.51755 0.000278392 4
15.6571 -4.54881 -2.58238 0.000587794 4
19.6116 -5.6977 -2.50757 3.9472e-05 4
26.6146 -7.73227 -2.42476 0.000426723 10
26.6173 -7.73304 -1.45263 0.000430963 10
26.6091 -7.73065 -0.483668 0.00043314 10
26.6022 -7.72866 0.483543 0.000433232 10
26.5902 -7.72518 1.45115 0.00033624 10
26.6106 -7.73109 2.42439 0.000333074 10
26.612 -7.73151 3.40265 0.000328332 10
27.2539 -7.918 4.49508 6.63304e-05 10
26.6108 -7.73116 5.3865 0.000314353 10
26.597 -7.72714 6.39429 0.000305269 10
26.4809 -7.69342 7.38893 8.14044e-05 10
9.65101 -2.76738 -2.69019 0.000170501 4
11.2899 -3.23733 -2.71152 0.000390099 1
12.4565 -3.57185 -2.51888 0.000191498 4
15.8352 -4.54067 -2.60912 0.000340085 4
19.626 -5.62766 -2.50688 4.76965e-05 4
26.6127 -7.63106 -2.42214 0.000428022 10
26.6006 -7.62761 -1.45026 0.000432273 10
26.6138 -7.63139 -0.483267 0.000434457 10
26.6145 -7.6316 0.48328 0.000434549 10
26.6206 -7.63333 1.45135 0.000337262 10
26.6139 -7.6314 2.42224 0.000334087 10
26.6004 -7.62755 3.39774 0.000329332 10
27.7156 -7.94731 4.56662 6.22406e-05 10
26.601 -7.62772 5.37909 0.000315312 10
26.6117 -7.63078 6.39138 0.000306202 10
26.5116 -7.60209 7.39005 8.14034e-05 10
9.64378 -2.72892 -2.68551 0.000173801 4
11.3123 -3.20104 -2.71419 0.000390104 1
12.4745 -3.52993 -2.52001 0.000222076 4
15.9683 -4.51858 -2.62844 0.000115483 4
13.5104 -3.82305 -1.724 0.0010669 6
26.6156 -7.53147 -2.42 0.000429303 10
26.613 -7.53072 -1.44949 0.000433566 10
26.6088 -7.52953 -0.482696 0.000435756 10
26.6251 -7.53414 0.482991 0.000435847 10
26.6067 -7.52894 1.44915 0.00033827 10
26.6264 -7.5345 2.42097 0.000335086 10
26.6004 -7.52717 3.39437 0.000330318 10
26.5977 -7.5264 5.37308 0.000316259 10
26.5969 -7.52616 6.38148 0.000307123 10
26.5406 -7.51022 7.39076 8.14023e-05 10
9.63594 -2.6904 -2.68069 0.000185741 4
11.3037 -3.15604 -2.70947 0.000390109 1
12.4858 -3.4861 -2.51982 0.000215642 4
15.9706 -4.45906 -2.62623 7.14567e-05 4
13.4901 -3.76649 -1.71972 0.00113974 6
9.59776 -2.64366 -2.66749 0.000150821 4
11.3176 -3.11739 -2.71018 0.000390113 1
12.6349 -3.48023 -2.54744 0.000886231 4
15.9941 -4.40552 -2.62756 0.000101052 4
13.4733 -3.71116 -1.71592 0.000207319 6
9.58477 -2.60413 -2.66133 0.00015779 4
11.3455 -3.0825 -2.71426 0.000390118 1
12.8112 -3.48074 -2.58053 0.00111231 4
15.9934 -4.34531 -2.62493 4.90831e-05 4
13.4486 -3.65391 -1.71115 0.000208848 6
9.56639 -2.56331 -2.65373 0.000156086 4
11.3337 -3.03687 -2.7089 0.000390122 1
12.9977 -3.48272 -2.61562 0.00101088 4
16.0219 -4.29306 -2.62714 3.46475e-05 4
13.4354 -3.60002 -1.70786 0.000219682 6
9.55742 -2.52518 -2.64878 0.000168166 4
11.3596 -3.00134 -2.71257 0.000390127 1
13.178 -3.48178 -2.64944 0.000511075 4
16.0342 -4.23643 -2.62672 0.000119825 4
13.4265 -3.54743 -1.70513 0.000209944 6
9.53076 -2.48258 -2.63898 0.000174059 4
13.3626 -3.48069 -2.68409 0.000794245 4
16.0535 -4.18162 -2.62746 8.87873e-05 4
13.4229 -3.49642 -1.70313 0.000211283 6
9.51838 -2.44391 -2.63317 8.9399e-05 4
11.2915 -2.89917 -2.6914 4.112e-05 4
13.4996 -3.46611 -2.70917 0.000221871 1
13.4624 -3.45657 -2.2014 0.000101095 6
13.3997 -3.44045 -1.69864 0.000213293 6
9.52971 -2.41139 -2.63396 0.000703007 4
11.2808 -2.85448 -2.68646 3.9865e-05 4
13.4937 -3.41443 -2.70558 0.000221874 1
13.4497 -3.4033 -2.19737 0.000191115 6
13.378 -3.38516 -1.69438 0.000225791 6
9.56005 -2.38359 -2.64003 0.000881814 4
11.2521 -2.80546 -2.67728 6.63059e-05 4
13.5285 -3.37305 -2.71019 0.000221876 1
13.4362 -3.35002 -2.19323 0.000192272 6
13.3654 -3.33237 -1.6913 0.000227058 6
50.7111 -12.6437 -0.912264 3.5666e-05 10
50.6885 -12.6381 0.911856 3.56763e-05 10
9.55159 -2.3461 -2.63541 0.000804611 4
11.2214 -2.75623 -2.66766 6.51726e-05 4
13.5137 -3.31929 -2.70488 0.000221879 1
13.4201 -3.29628 -2.18871 0.00118353 6
13.381 -3.28668 -1.69181 0.000231203 6
9.56125 -2.31311 -2.63583 0.000784299 4
11.2093 -2.71181 -2.66252 7.05288e-05 4
13.5446 -3.27678 -2.70875 0.000221881 1
13.4002 -3.24186 -2.18362 0.00120438 6
13.3681 -3.23408 -1.68874 0.0002359 6
45.9211 -11.1095 -2.47605 2.88672e-05 4
9.56832 -2.2795 -2.63557 0.000666456 4
11.1614 -2.65902 -2.64892 6.48781e-05 4
13.538 -3.22522 -2.70518 0.000221884 1
13.395 -3.19114 -2.18093 0.00121305 6
13.3481 -3.17996 -1.6848 0.000236304 6
9.58821 -2.2489 -2.63888 0.000707099 4
11.1402 -2.61291 -2.64171 7.02897e-05 4
13.5681 -3.18237 -2.70894 0.000221886 1
13.3653 -3.13479 -2.1743 0.00128496 6
13.3473 -3.13058 -1.68331 0.000237343 6
9.59079 -2.21421 -2.63744 0.000747742 4
11.1056 -2.56393 -2.63137 7.11837e-05 4
13.4105 -3.09607 -2.17989 0.000762703 6
13.3314 -3.07779 -1.67994 0.000238376 6
9.60101 -2.1813 -2.63814 0.000117852 4
11.1192 -2.52622 -2.63248 0.00011927 4
13.7054 -3.11379 -2.22604 0.000136213 6
13.3238 -3.0271 -1.67765 0.000748668 6
9.60482 -2.14693 -2.63711 0.000158491 4
11.1476 -2.49179 -2.63714 0.000451708 4
13.7082 -3.06414 -2.22474 0.000202475 6
13.3058 -2.97421 -1.67407 0.00144226 6
9.6121 -2.11336 -2.63707 0.000130045 4
11.1337 -2.4479 -2.6318 0.000558295 4
13.3026 -2.92477 -2.15725 0.000412702 6
13.2878 -2.92151 -1.6705 0.00146328 6
9.6163 -2.07912 -2.63622 0.000272283 4
11.1632 -2.41358 -2.63679 0.000444101 4
13.2884 -2.87305 -2.1533 0.000603177 6
13.2743 -2.87 -1.66754 0.00147643 6
9.62986 -2.04689 -2.63796 0.000146302 4
11.1611 -2.37237 -2.63431 0.000459331 4
13.3053 -2.82813 -2.15443 0.000589449 6
13.2635 -2.81925 -1.66494 0.00148486 6
9.62187 -2.01011 -2.63383 0.000170687 4
11.176 -2.33479 -2.63588 0.000484712 4
13.3012 -2.77876 -2.6413 0.000380045 6
13.3064 -2.77985 -2.15302 0.00238984 6
13.261 -2.77037 -1.6634 0.00151088 6
9.62504 -1.97574 -2.6328 6.9088e-05 4
11.1837 -2.29568 -2.63579 0.000147191 4
13.2548 -2.72082 -2.63019 0.000601763 6
13.285 -2.72702 -2.14801 0.00234949 6
13.2594 -2.72177 -1.662 0.00151871 6
9.65786 -1.94737 -2.6399 0.000243841 4
11.1979 -2.2579 -2.63728 0.000170032 4
13.2659 -2.67488 -2.63053 0.000602557 6
13.2839 -2.6785 -2.1463 0.00222566 6
13.2576 -2.67321 -1.66059 0.00153044 6
9.65499 -1.91174 -2.63727 0.000146306 4
11.1911 -2.21591 -2.63384 0.000144655 4
13.238 -2.62119 -2.62316 0.000602851 6
14.6928 -2.90925 -2.37229 3.37657e-05 6
13.2254 -2.6187 -1.6554 0.00156417 6
9.65839 -1.8774 -2.6364 0.000231652 4
11.1963 -2.17635 -2.63326 8.6286e-05 4
13.2379 -2.57318 -2.62135 0.000608546 6
13.2668 -2.57882 -2.14059 0.0021917 6
13.2191 -2.56953 -1.65348 0.00157063 6
9.65154 -1.84113 -2.63275 0.000130051 4
11.2072 -2.13789 -2.63405 0.000111665 4
13.2197 -2.52179 -2.61598 0.000605766 6
13.2446 -2.52654 -2.13556 0.00226927 6
13.2369 -2.52507 -1.65459 0.00157641 6
28.2866 -5.39596 -2.51938 9.99565e-05 4
9.68448 -1.8124 -2.64 0.000329193 4
11.2039 -2.09676 -2.63154 0.000205566 4
13.2357 -2.47699 -2.61742 0.00060869 6
13.2264 -2.47526 -2.13123 0.00225179 6
13.2028 -2.47083 -1.64924 0.00158283 6
28.838 -5.39689 -2.5668 9.02173e-05 4
9.68558 -1.77764 -2.63859 0.000142244 4
13.2222 -2.42673 -2.61307 0.000608657 6
13.2383 -2.42967 -2.13176 0.00247116 6
13.2157 -2.42553 -1.64978 0.00162382 6
9.698 -1.74495 -2.6403 0.000154437 4
11.2261 -2.0199 -2.63337 0.000238561 4
13.2269 -2.37989 -2.61233 0.000524135 6
13.2255 -2.37965 -2.12835 0.000385487 6
13.1988 -2.37484 -1.64664 0.00163281 6
9.68996 -1.7086 -2.63647 0.000243849 4
11.231 -1.98032 -2.63287 9.39019e-05 4
13.2296 -2.33274 -2.61125 0.000346093 6
13.1869 -2.32522 -2.12083 0.000616964 6
13.1987 -2.32729 -1.6456 0.00163771 6
9.69799 -1.67514 -2.63705 0.000239786 4
11.2562 -1.94429 -2.63719 5.0758e-05 4
13.3472 -2.30546 -2.63285 5.93018e-05 4
13.204 -2.28072 -2.12227 0.00066893 6
13.2252 -2.28439 -1.6479 0.000256527 6
9.71105 -1.6425 -2.63902 0.000121926 4
11.2388 -1.90091 -2.63154 0.000200495 4
13.3416 -2.25657 -2.63018 7.23197e-05 4
13.2347 -2.23848 -2.12594 0.00051273 6
13.1896 -2.23086 -1.64248 0.00023603 6
9.70576 -1.60678 -2.63605 0.000105669 4
11.2623 -1.86446 -2.63549 0.00020811 4
13.361 -2.2119 -2.63246 8.09984e-05 4
13.3132 -2.20399 -2.1373 0.000216392 6
13.1704 -2.18035 -1.63913 0.000254703 6
9.70694 -1.57218 -2.63486 0.000138183 4
11.2676 -1.82496 -2.63523 7.1062e-05 4
13.3717 -2.16574 -2.63306 7.23203e-05 4
13.5461 -2.19399 -2.17345 0.000151612 6
13.1875 -2.13591 -1.64032 0.000113684 6
13.3353 -2.15985 -1.18189 0.000229153 6
9.71469 -1.53866 -2.63549 7.72203e-05 4
11.2553 -1.78267 -2.63089 4.3145e-05 4
13.3782 -2.1189 -2.63287 9.69097e-05 4
13.1483 -2.08249 -2.10845 0.00138543 6
13.1548 -2.08351 -1.63534 0.000206019 6
13.3507 -2.11455 -1.1826 6.01938e-05 6
9.73151 -1.50652 -2.63861 0.000174762 4
11.2762 -1.74565 -2.63433 0.000223339 4
13.3794 -2.07124 -2.63167 4.33925e-05 4
13.1543 -2.0364 -2.10826 0.00169811 6
13.1534 -2.03625 -1.63427 0.00026362 6
13.3215 -2.06227 -1.17936 0.000242985 6
9.72479 -1.47074 -2.63538 0.000231662 4
11.2808 -1.70607 -2.634 3.04555e-05 4
13.3848 -2.02426 -2.63132 7.08747e-05 4
13.1603 -1.99031 -2.10809 0.000122871 6
13.1577 -1.98992 -1.63393 0.000264466 6
13.328 -2.01567 -1.17931 0.000244206 6
9.73152 -1.43703 -2.63583 0.000503967 4
11.2733 -1.6647 -2.63087 0.000175119 4
13.3948 -1.97798 -2.63192 0.000120053 4
13.1384 -1.94011 -2.10349 9.18574e-05 6
13.1377 -1.94 -1.63059 0.000265284 6
13.3112 -1.96564 -1.17721 0.000245175 6
9.72701 -1.40168 -2.63327 0.000138185 4
11.2821 -1.62577 -2.63158 0.000195423 4
13.3994 -1.93088 -2.63148 7.23216e-05 4
13.1239 -1.89119 -2.10009 0.000252999 6
13.1518 -1.89521 -1.63152 0.000261009 6
13.3017 -1.91681 -1.17577 0.000195817 6
9.74772 -1.36995 -2.63756 8.12854e-05 4
11.2883 -1.58646 -2.63171 0.000170044 4
13.3907 -1.88194 -2.62847 3.47144e-05 4
13.1309 -1.84543 -2.10016 0.000240199 6
13.1455 -1.84749 -1.62993 0.000245909 6
13.301 -1.86934 -1.17513 0.000196614 6
9.74797 -1.33531 -2.63635 0.000280435 4
11.3095 -1.5492 -2.63538 8.88292e-05 4
13.4121 -1.83723 -2.6314 0.000112822 4
13.1192 -1.7971 -2.09727 0.000258785 6
13.1179 -1.79693 -1.62572 0.000263945 6
13.29 -1.8205 -1.17358 0.000196245 6
9.75857 -1.30207 -2.63797 0.0001707 4
11.3029 -1.50812 -2.6326 0.000180197 4
13.4204 -1.79067 -2.63179 7.95542e-05 4
13.102 -1.74818 -2.09354 0.000230913 6
13.101 -1.74804 -1.62285 0.000252863 6
13.2773 -1.77157 -1.17191 0.000102986 6
9.76277 -1.26796 -2.6379 0.00014225 4
11.3051 -1.46827 -2.6319 0.000147203 4
13.4273 -1.74391 -2.63193 7.37686e-05 4
13.0922 -1.70038 -2.09101 0.000249983 6
13.091 -1.70023 -1.62088 0.000265985 6
13.2744 -1.72405 -1.17112 0.000199181 6
9.76656 -1.2338 -2.63774 5.28357e-05 4
11.3128 -1.42914 -2.63252 0.000124361 4
13.4351 -1.69724 -2.63227 0.000120055 4
13.094 -1.65415 -2.09036 0.000239236 6
13.1006 -1.65499 -1.62134 0.000254312 6
13.2686 -1.67621 -1.17007 0.000199922 6
9.759 -1.19825 -2.63455 0.000130057 4
11.333 -1.39152 -2.63609 5.58357e-05 4
13.4388 -1.65007 -2.63185 0.000134519 4
13.0791 -1.60591 -2.08708 0.000246982 6
13.0788 -1.60587 -1.61793 0.000268589 6
13.2738 -1.62982 -1.17003 0.000200712 6
9.78136 -1.16636 -2.63948 0.000325143 4
11.3241 -1.35031 -2.63289 8.12156e-05 4
13.4464 -1.60338 -2.63222 7.37688e-05 4
13.0633 -1.5577 -2.08368 0.000235946 6
13.079 -1.55958 -1.61728 0.000255998 6
13.2561 -1.5807 -1.16798 0.00020144 6
9.78012 -1.1316 -2.63806 0.000105672 4
11.3316 -1.31112 -2.63357 0.000114209 4
13.4532 -1.55659 -2.63248 7.66617e-05 4
13.0632 -1.51146 -2.0828 0.000254734 6
13.0857 -1.51407 -1.61744 0.000268741 6
13.2461 -1.53262 -1.16661 0.000201475 6
9.78794 -1.0979 -2.63912 7.72215e-05 4
11.3438 -1.27242 -2.63535 0.000203039 4
13.4457 -1.50818 -2.62998 8.1001e-05 4
13.0625 -1.4652 -2.08187 0.000242907 6
13.0644 -1.4654 -1.61416 0.000256369 6
13.2308 -1.48407 -1.1648 0.000202218 6
9.77402 -1.0618 -2.63435 0.000251986 4
11.35 -1.233 -2.63577 0.000106595 4
13.4495 -1.46108 -2.6297 5.64114e-05 4
13.0408 -1.41668 -2.07761 0.000256642 6
13.0745 -1.42035 -1.61479 0.000270789 6
13.2154 -1.43565 -1.163 0.000202955 6
9.78584 -1.02853 -2.63655 0.000243857 4
11.3496 -1.19289 -2.63469 0.000197963 4
13.4722 -1.41599 -2.63316 6.07507e-05 4
13.031 -1.36961 -2.07527 0.000243029 6
13.0666 -1.37336 -1.61322 0.000271707 6
13.213 -1.38875 -1.16236 0.000203253 6
9.78172 -0.993592 -2.63449 0.000231664 4
11.3577 -1.15368 -2.63564 8.88294e-05 4
13.4628 -1.36751 -2.63038 7.81079e-05 4
13.0334 -1.32389 -2.07491 0.000256289 6
13.0473 -1.3253 -1.61025 0.000274069 6
13.2004 -1.34085 -1.16083 0.000203983 6
9.80285 -0.961179 -2.63926 0.000195085 4
11.3583 -1.11369 -2.63484 0.000121823 4
13.4632 -1.32008 -2.62954 3.18217e-05 4
13.0065 -1.2753 -2.0699 0.000244391 6
13.0367 -1.27826 -1.60838 0.000274903 6
13.2024 -1.2945 -1.1606 0.000205476 6
9.78737 -0.925179 -2.63421 0.000109735 4
11.3649 -1.0743 -2.6355 9.13672e-05 4
13.4777 -1.27402 -2.63147 5.35182e-05 4
13.0141 -1.23019 -2.07042 0.000258209 6
13.0284 -1.23155 -1.60682 0.000275684 6
13.1822 -1.24609 -1.15843 0.000206158 6
9.78494 -0.890499 -2.6327 0.000109735 4
11.3503 -1.03296 -2.63125 0.000104057 4
13 -1.18309 -2.0675 0.000257891 6
13.0354 -1.18631 -1.60716 0.0002765 6
13.18 -1.19947 -1.15787 0.000206833 6
51.2659 -4.66557 -0.898548 3.40245e-05 10
51.2644 -4.66542 0.89852 3.40321e-05 10
9.7987 -0.857277 -2.63558 0.000158506 4
11.3801 -0.995631 -2.63734 7.6139e-05 4
13.4863 -1.17991 -2.63149 5.49644e-05 4
12.977 -1.13534 -2.0632 0.000245969 6
13.0089 -1.13814 -1.6034 0.000259298 6
13.165 -1.15179 -1.15619 0.000206768 6
9.80333 -0.823211 -2.63604 0.000284498 4
11.3796 -0.955575 -2.63644 0.000142126 4
13.5015 -1.13376 -2.63367 7.66607e-05 4
13.0096 -1.09245 -1.603 0.000260709 6
13.1508 -1.10431 -1.1546 0.000260218 6
9.8224 -0.790293 -2.64041 0.000243855 4
11.3754 -0.915245 -2.63471 8.37526e-05 4
13.4949 -1.08577 -2.63161 5.93034e-05 4
12.9831 -1.0446 -2.06297 0.000261121 6
12.9951 -1.04556 -1.60075 0.000254006 6
51.3055 -4.12795 -0.898435 3.29022e-05 10
51.2907 -4.12676 0.898175 3.29112e-05 10
9.80614 -0.754543 -2.63531 0.000186955 4
11.3716 -0.875002 -2.63311 0.000159891 4
13.5046 -1.03913 -2.6328 7.37674e-05 4
12.9747 -0.998349 -2.06106 0.00024893 6
12.9625 -0.997414 -1.5963 0.000488357 6
13.1377 -1.01089 -1.1528 0.000274659 6
11.3829 -0.835908 -2.63502 0.000129435 4
13.5093 -0.99206 -2.63301 0.000151873 4
12.9507 -0.951042 -2.05671 0.000262856 6
12.9488 -0.950901 -1.59419 0.000491345 6
13.1458 -0.965372 -1.15321 0.000211605 6
9.82778 -0.687226 -2.63978 0.000109734 4
11.3831 -0.795988 -2.63442 9.89794e-05 4
13.5164 -0.945162 -2.63374 0.000125837 4
12.9292 -0.904098 -2.05278 0.000263744 6
12.9409 -0.904919 -1.59283 0.000436473 6
13.1342 -0.918433 -1.1519 0.000212137 6
9.81094 -0.651643 -2.63463 5.28346e-05 4
11.3761 -0.755599 -2.63216 6.85239e-05 4
13.5145 -0.897634 -2.63275 7.08736e-05 4
12.9441 -0.859748 -2.05466 0.000251591 6
12.9682 -0.86135 -1.59581 0.000277679 6
13.1229 -0.871626 -1.15064 0.000213677 6
9.83468 -0.618746 -2.6404 0.000113797 4
11.3897 -0.716578 -2.63471 0.000104054 4
13.5057 -0.84971 -2.63044 0.000121497 4
12.917 -0.812667 -2.04989 0.000265685 6
12.9442 -0.814383 -1.5925 0.000235721 6
13.1354 -0.82641 -1.15147 0.00021407 6
9.81344 -0.583025 -2.63414 0.000349519 4
11.3949 -0.676982 -2.63536 0.000147198 4
13.5084 -0.802544 -2.63039 7.95513e-05 4
12.9207 -0.767631 -2.05005 0.000266527 6
12.9552 -0.769679 -1.5935 0.000281515 6
13.1082 -0.778768 -1.14884 0.000214567 6
9.82059 -0.549058 -2.63553 8.94115e-05 4
11.397 -0.637194 -2.63531 9.3902e-05 4
13.5185 -0.755806 -2.63184 5.78552e-05 4
12.892 -0.72078 -2.04509 0.00026736 6
12.9312 -0.722967 -1.59023 0.000268688 6
13.1205 -0.733555 -1.14969 0.000215706 6
9.82764 -0.515046 -2.63692 3.65773e-05 4
11.4028 -0.597598 -2.63616 0.000114205 4
13.5025 -0.707637 -2.62822 4.04984e-05 4
12.9043 -0.676291 -2.04665 0.000268183 6
12.9356 -0.677926 -1.59047 0.000283543 6
13.1188 -0.687528 -1.14932 0.000209524 6
9.84171 -0.481342 -2.64023 0.000361707 4
11.4026 -0.557683 -2.63565 0.000195416 4
13.5273 -0.661596 -2.63258 0.000117155 4
12.8861 -0.63024 -2.04341 0.000268996 6
12.9234 -0.632063 -1.58869 0.000270033 6
13.0916 -0.64029 -1.14674 0.000209948 6
9.81855 -0.445859 -2.63358 0.000203205 4
11.3878 -0.517119 -2.63179 0.000162423 4
13.5196 -0.613925 -2.63066 3.32661e-05 4
12.8857 -0.585138 -2.043 0.00026992 6
12.9223 -0.586799 -1.58829 0.000286786 6
13.0829 -0.594093 -1.14579 0.000210364 6
9.83163 -0.412068 -2.63669 0.000186948 4
11.4043 -0.477984 -2.63521 0.000134506 4
13.5365 -0.567348 -2.63354 7.08709e-05 4
12.8755 -0.539646 -2.04107 0.000257179 6
12.9163 -0.541355 -1.58732 0.00028727 6
13.085 -0.548424 -1.14579 0.000210772 6
9.83484 -0.377817 -2.63718 0.000154435 4
11.3913 -0.437609 -2.63182 6.85213e-05 4
13.5211 -0.519428 -2.63017 5.06217e-05 4
12.8581 -0.493959 -2.03802 0.000271663 6
12.9049 -0.495759 -1.5857 0.000287359 6
13.077 -0.502368 -1.14493 0.000211172 6
9.83813 -0.343556 -2.63773 0.000247907 4
11.4102 -0.398452 -2.63585 9.89746e-05 4
13.5225 -0.472215 -2.6301 8.53331e-05 4
12.8431 -0.448493 -2.03539 0.000273703 6
12.8922 -0.450205 -1.58392 0.000274021 6
13.0892 -0.457087 -1.14586 0.000211565 6
9.8287 -0.30888 -2.63489 0.000178817 4
11.4113 -0.358614 -2.6358 0.00012689 4
13.5309 -0.425225 -2.63144 5.0621e-05 4
12.8538 -0.403947 -2.03684 0.000274441 6
12.886 -0.404958 -1.58298 0.000260863 6
13.0506 -0.410132 -1.14234 0.000262952 6
9.82725 -0.274502 -2.63423 0.000333249 4
11.4164 -0.318892 -2.63671 0.000106587 4
13.5272 -0.377853 -2.63046 6.94225e-05 4
12.8469 -0.358849 -2.03554 0.000275169 6
12.8738 -0.3596 -1.58132 0.000275154 6
11.4157 -0.278997 -2.63632 0.000129426 4
13.5346 -0.330781 -2.63164 0.000161984 4
12.8257 -0.313455 -2.03199 0.000262092 6
12.863 -0.314367 -1.57984 0.000275705 6
13.0476 -0.318879 -1.14186 0.000245964 6
9.83442 -0.206003 -2.6357 0.000264157 4
11.4194 -0.239204 -2.63696 0.0001345 4
13.5442 -0.283713 -2.63331 4.33883e-05 4
12.8297 -0.268747 -2.03248 0.000276593 6
12.874 -0.269674 -1.58108 0.000266767 6
13.0631 -0.273635 -1.14312 0.000203749 6
9.84344 -0.171819 -2.63794 0.00022758 4
11.4119 -0.199197 -2.63504 0.00022332 4
13.5474 -0.236473 -2.63376 8.96684e-05 4
12.8105 -0.223609 -2.02929 0.000263424 6
12.8729 -0.224699 -1.58084 0.000281419 6
13.0692 -0.228126 -1.14358 0.000203059 6
9.83195 -0.13729 -2.63472 0.000142237 4
11.4062 -0.159272 -2.63358 0.000167489 4
13.5489 -0.189192 -2.6339 7.37588e-05 4
12.8143 -0.178934 -2.02978 0.00028042 6
12.8504 -0.179439 -1.57798 0.000267919 6
13.1463 -0.18357 -1.15026 6.76565e-05 6
9.84956 -0.103149 -2.63933 0.000239769 4
11.4155 -0.119548 -2.63561 7.61306e-05 4
13.5328 -0.141721 -2.63065 8.96668e-05 4
12.8089 -0.13414 -2.02884 0.000280974 6
12.8358 -0.134422 -1.57612 0.000281761 6
13.2015 -0.138252 -1.15505 6.54784e-05 6
9.83812 -0.0686847 -2.63618 0.000150363 4
11.4128 -0.0796785 -2.63492 0.000129421 4
13.5237 -0.0944154 -2.6288 5.64028e-05 4
12.7852 -0.0892596 -2.02502 0.000277158 6
12.8389 -0.0896347 -1.57646 0.000287925 6
13.3016 -0.0928652 -1.16377 5.39559e-05 6
9.83055 -0.0343155 -2.63411 0.000154425 4
13.5389 -0.0472602 -2.63171 8.24339e-05 4
12.7857 -0.044631 -2.02507 0.00029226 6
12.8344 -0.044801 -1.57588 0.000274053 6
13.4021 -0.0467828 -1.17254 5.22472e-05 6
9.85028 0 -2.63938 0.000158488 4
11.4087 0 -2.6339 0.000304515 4
13.5263 0 -2.62924 0.000186559 4
12.7731 0 -2.02306 0.000292763 6
12.8197 0 -1.57406 0.000289018 6
13.5145 0 -1.18237 4.29475e-05 6
47.5361 0 -2.49126 2.95572e-05 4
9.84597 0.034367 -2.63824 0.000223507 4
11.4004 0.0397928 -2.63201 6.85152e-05 4
13.5298 0.0472252 -2.62994 8.53245e-05 4
12.7674 0.0445642 -2.02217 0.000293254 6
12.8107 0.0447153 -1.57297 0.000304025 6
13.6414 0.0476149 -1.19348 4.18724e-05 6
9.82733 0.068607 -2.63329 0.000211314 4
13.5468 0.0945736 -2.6333 6.50773e-05 4
12.757 0.0890596 -2.02056 0.00181125 6
12.8193 0.0894948 -1.57405 0.00028962 6
9.85026 0.103154 -2.63951 0.00018693 4
11.4079 0.119466 -2.63387 0.000126878 4
13.5421 0.141816 -2.63247 8.38765e-05 4
12.744 0.133457 -2.01856 0.00181777 6
12.7916 0.133956 -1.5707 0.000290345 6
9.84656 0.137492 -2.63864 0.000345412 4
11.4147 0.159388 -2.63554 0.000142102 4
12.7117 0.177499 -2.01354 0.00181596 6
12.8007 0.178742 -1.57189 0.000276396 6
9.83786 0.17172 -2.63645 0.000158482 4
11.4118 0.199193 -2.63503 0.000197925 4
13.5397 0.236335 -2.63225 5.49523e-05 4
12.7116 0.22188 -2.01363 0.00179685 6
12.7744 0.222977 -1.56874 0.000290296 6
9.83756 0.206067 -2.63655 0.000292579 4
11.4169 0.239148 -2.63637 5.58245e-05 4
13.1844 0.276173 -2.08867 0.000118754 6
12.7774 0.267648 -1.56922 0.000291409 6
9.83352 0.240326 -2.63567 0.000276322 4
11.4165 0.279012 -2.63649 7.35861e-05 4
12.727 0.311042 -2.47462 0.000258843 6
13.2243 0.323195 -2.09515 0.000267412 6
12.775 0.312213 -1.56904 0.000291854 6
9.82667 0.274484 -2.63408 0.000146287 4
11.406 0.318598 -2.63431 0.000119259 4
12.7101 0.355026 -2.47156 0.000746315 6
13.2108 0.369011 -2.0932 0.00022802 6
12.7598 0.356413 -1.56731 0.000292289 6
9.8399 0.309229 -2.6379 0.000142222 4
11.4104 0.358585 -2.63561 0.000109108 4
12.6794 0.398464 -2.46585 0.000757135 6
12.7126 0.399505 -2.01447 0.000391213 6
12.7707 0.401334 -1.56882 0.000278865 6
9.84733 0.343875 -2.64019 8.53324e-05 4
11.3941 0.397889 -2.63214 0.00028926 4
12.7125 0.443926 -2.47256 0.000708515 6
12.6953 0.443326 -2.01196 0.000666071 6
12.7434 0.445006 -1.56564 0.000295134 6
9.83294 0.377742 -2.63667 0.00039415 4
11.4088 0.438279 -2.63586 0.000139554 4
12.6895 0.487479 -2.46841 0.00294878 6
12.6759 0.486957 -2.00915 0.000756739 6
12.7369 0.489301 -1.56505 0.000295407 6
9.82551 0.411809 -2.63505 6.90772e-05 4
11.3999 0.477796 -2.63419 0.000119254 4
12.7154 0.532933 -2.4738 0.00104593 6
12.6589 0.530564 -2.00673 0.000756158 6
12.7573 0.534689 -1.56778 0.000295667 6
9.82286 0.446053 -2.63474 0.00020723 4
11.4023 0.517773 -2.63514 0.000114177 4
12.6617 0.574963 -2.46372 0.00303834 6
12.6553 0.574671 -2.00646 0.000757315 6
12.7338 0.578236 -1.56512 0.000295916 6
9.83675 0.481096 -2.6389 0.000211291 4
11.4063 0.557859 -2.63649 8.11919e-05 4
12.6633 0.619337 -2.46444 0.00303255 6
12.6419 0.61829 -2.00467 0.000686941 6
12.7453 0.623346 -1.56679 0.000281346 6
9.825 0.514906 -2.63621 0.000207225 4
11.3933 0.597096 -2.63395 0.000134472 4
13.5108 0.708071 -2.62984 5.34988e-05 4
12.6498 0.662949 -2.00629 0.000688016 6
12.7212 0.66669 -1.56411 0.000227775 6
9.82774 0.549456 -2.63745 0.000199097 4
11.4047 0.637621 -2.63709 0.000131934 4
13.5271 0.756282 -2.63351 7.51863e-05 4
12.6403 0.7067 -2.00515 0.000682436 6
12.7449 0.712548 -1.56732 0.000227589 6
9.82719 0.583843 -2.63783 0.0001544 4
11.3765 0.675889 -2.63111 0.000164915 4
12.6353 0.750676 -2.46039 0.00299082 6
12.6393 0.750916 -2.00541 0.000759772 6
12.7413 0.75697 -1.56719 0.000216026 6
9.8193 0.617776 -2.63627 0.000381932 4
11.381 0.716028 -2.6327 6.08908e-05 4
12.6218 0.794092 -2.45828 0.00293077 6
12.6099 0.793347 -2.00117 0.00076054 6
12.7233 0.80048 -1.56532 0.00022043 6
9.82738 0.652732 -2.63904 4.46936e-05 4
11.3775 0.75569 -2.63249 0.000172521 4
12.6412 0.839623 -2.46261 0.00293186 6
12.6029 0.837081 -2.0005 0.000732297 6
12.7431 0.846395 -1.56811 0.000222431 6
9.81078 0.686035 -2.63521 0.000195024 4
11.3804 0.795793 -2.63379 7.35743e-05 4
12.622 0.882617 -2.45947 0.000621059 6
12.6205 0.882512 -2.00378 0.000730852 6
12.7654 0.892645 -1.57123 9.40912e-05 6
56.8692 3.97667 -0.99508 2.89676e-05 10
56.8835 3.97767 0.995329 2.89669e-05 10
9.80085 0.719728 -2.6332 0.000130015 4
11.3758 0.835387 -2.63339 5.83512e-05 4
12.5862 0.924272 -2.4531 0.000716103 6
12.6372 0.928016 -2.00693 0.000480317 6
12.7785 0.938392 -1.57323 9.1369e-05 6
9.80349 0.754337 -2.6346 0.000235649 4
11.3852 0.876041 -2.63625 0.000154755 4
12.5875 0.968551 -2.45399 0.000755113 6
12.7492 0.981 -2.02525 0.000122004 6
12.8055 0.98533 -1.57697 9.12551e-05 6
9.80817 0.789146 -2.63659 0.000308777 4
11.3695 0.914771 -2.63335 0.000202955 4
12.5914 1.01308 -2.45544 0.000600342 6
13.1026 1.05421 -2.08195 0.000233566 6
12.8239 1.03178 -1.57966 9.05105e-05 6
9.79516 0.822522 -2.63384 0.00020314 4
11.3703 0.954793 -2.63429 0.000208026 4
13.4832 1.13222 -2.6301 9.97529e-05 4
12.5816 1.05651 -1.99974 0.001843 6
12.8846 1.08195 -1.5876 0.000111862 6
9.81117 0.858366 -2.63894 0.000215326 4
11.3665 0.99444 -2.63419 0.000111622 4
13.4892 1.18015 -2.63205 5.78267e-05 4
12.558 1.09868 -1.99659 0.00187513 6
12.9116 1.12961 -1.5914 8.61378e-05 6
9.78848 0.89082 -2.63366 0.000158445 4
11.3729 1.03501 -2.63649 6.84941e-05 4
13.4712 1.22597 -2.62936 5.34887e-05 4
12.566 1.14359 -1.99848 0.00184425 6
12.9543 1.17893 -1.59716 7.9679e-05 6
9.79392 0.925796 -2.63597 0.00055252 4
11.374 1.07515 -2.63759 0.000208016 4
13.4826 1.27448 -2.63244 0.000124323 4
12.5825 1.1894 -2.00176 0.00184356 6
13.0083 1.22965 -1.60434 6.90902e-05 6
9.78204 0.959135 -2.63366 0.000272194 4
11.3443 1.11232 -2.6316 0.000142057 4
13.4601 1.31977 -2.62893 0.000131548 4
12.6047 1.2359 -2.00596 0.000262128 6
13.076 1.28211 -1.61323 7.24552e-05 6
9.77772 0.993183 -2.63341 0.000215315 4
11.358 1.1537 -2.63569 0.000314551 4
13.4776 1.36901 -2.63327 7.22778e-05 4
12.6413 1.28406 -2.01249 0.000236776 6
13.1292 1.33361 -1.62035 8.35792e-05 6
9.7948 1.02947 -2.63896 8.93745e-05 4
11.3522 1.19316 -2.6353 6.59531e-05 4
13.4494 1.41359 -2.62871 3.18016e-05 4
12.649 1.32947 -2.01445 0.000214171 6
13.2468 1.39229 -1.63546 5.31545e-05 6
9.79464 1.06404 -2.63991 6.09363e-05 4
11.3429 1.23223 -2.63411 0.000109074 4
13.4547 1.46165 -2.63072 0.000274645 4
12.8283 1.3936 -2.04376 0.000226397 6
13.3887 1.45447 -1.6536 4.77228e-05 6
46.9956 5.10535 -2.47743 3.20813e-05 4
9.78241 1.09727 -2.63763 0.000190931 4
11.3375 1.2717 -2.63388 0.000126829 4
13.4567 1.50941 -2.63211 0.000228384 4
12.8385 1.44007 -2.04618 0.000225739 6
9.7644 1.12978 -2.63382 0.000341234 4
11.3261 1.31047 -2.63228 7.35593e-05 4
13.4575 1.55708 -2.63332 0.000260179 4
12.8638 1.48839 -2.05102 0.000130109 6
9.75891 1.16368 -2.63342 9.34316e-05 4
11.3297 1.35099 -2.63421 0.000177554 4
13.4346 1.60198 -2.62992 0.000294863 4
12.9182 1.5404 -2.06054 0.000108194 6
9.75571 1.19785 -2.63366 0.000101555 4
11.3228 1.39026 -2.6337 6.59474e-05 4
13.4254 1.64843 -2.62924 0.000225479 4
9.75098 1.23183 -2.63353 0.000178733 4
11.3245 1.43062 -2.63525 0.000129356 4
13.4278 1.69632 -2.63084 8.67207e-05 4
16.4676 2.08033 -2.62894 3.8955e-05 4
9.74558 1.26573 -2.63325 0.000146234 4
11.3236 1.47067 -2.63621 0.000109063 4
13.4172 1.74259 -2.62994 3.03516e-05 4
9.76574 1.30303 -2.63991 0.000138108 4
11.3249 1.51106 -2.63773 0.000223194 4
13.4177 1.7903 -2.63124 6.64829e-05 4
16.4318 2.19246 -2.6256 3.60674e-05 4
9.75945 1.33688 -2.63946 0.000101548 4
11.2978 1.54761 -2.63267 0.000273915 4
13.4016 1.8358 -2.62934 3.61312e-05 4
16.4201 2.24927 -2.62497 3.7509e-05 4
9.73672 1.36841 -2.63459 0.000341196 4
11.3063 1.58899 -2.63592 0.000190215 4
13.4168 1.88561 -2.6336 7.08155e-05 4
9.75184 1.40526 -2.63999 0.000129977 4
11.2985 1.62813 -2.6354 8.87654e-05 4
13.3876 1.92919 -2.62917 8.52656e-05 4
9.72587 1.43619 -2.6343 0.000296506 4
11.292 1.66746 -2.63524 0.000276435 4
16.4228 2.42511 -2.62933 5.26522e-05 4
9.72866 1.47132 -2.63643 0.000158405 4
11.2874 1.70705 -2.63553 3.80408e-05 4
13.4008 2.02668 -2.63448 7.65908e-05 4
16.4138 2.48235 -2.62926 4.90444e-05 4
9.72716 1.50584 -2.63743 0.000138094 4
11.2675 1.7443 -2.6323 0.000129336 4
13.3657 2.06912 -2.62898 5.92481e-05 4
16.3937 2.53787 -2.62743 3.31761e-05 4
9.72236 1.53987 -2.63757 0.000178707 4
11.2773 1.78614 -2.63601 9.89021e-05 4
13.3723 2.11795 -2.6317 8.38123e-05 4
9.71014 1.5727 -2.63573 0.000117782 4
11.2566 1.82316 -2.63265 7.86128e-05 4
13.3521 2.16257 -2.62921 3.17901e-05 4
9.69732 1.60538 -2.63376 0.000259928 4
11.2652 1.86494 -2.63617 5.07169e-05 4
13.3536 2.21067 -2.631 5.63537e-05 4
16.3737 2.71065 -2.62864 4.25479e-05 4
29.6256 4.90448 -2.62718 3.20122e-05 4
9.69395 1.63961 -2.63438 0.000357395 4
11.2601 1.90451 -2.63653 6.84664e-05 4
13.34 2.2563 -2.62987 8.52509e-05 4
30.0445 5.08165 -2.66589 3.06684e-05 4
9.69858 1.67524 -2.63721 0.000138082 4
11.2603 1.94499 -2.63814 7.86079e-05 4
13.3456 2.30519 -2.63254 7.94691e-05 4
9.69785 1.70999 -2.63862 0.000828476 4
11.2485 1.98341 -2.63698 3.80352e-05 4
13.3231 2.34923 -2.62971 8.52464e-05 4
16.3407 2.88131 -2.62804 5.48021e-05 4
9.68838 1.74321 -2.63768 0.000783789 4
11.2257 2.01982 -2.63327 0.000228206 4
13.3276 2.39801 -2.63222 4.62341e-05 4
9.68445 1.77743 -2.63828 0.000795957 4
11.2323 2.06152 -2.6365 0.000126779 4
13.3237 2.44535 -2.63312 0.000111248 4
16.3287 2.99688 -2.62942 5.55194e-05 4
30.1485 5.53327 -2.6817 8.50386e-05 4
9.67784 1.81116 -2.63819 0.00074315 4
11.2121 2.09829 -2.63347 0.000114098 4
13.3192 2.49261 -2.63393 8.66843e-05 4
16.3044 3.05128 -2.62719 3.96554e-05 4
29.7374 5.56519 -2.64685 0.000112207 4
9.65735 1.84224 -2.63434 0.000856839 4
11.2146 2.1393 -2.63578 0.000109025 4
13.3053 2.53812 -2.63293 5.7788e-05 4
16.3102 3.11133 -2.62986 4.0375e-05 4
20.9731 4.00084 -2.62161 3.64762e-05 4
29.3798 5.60449 -2.61675 6.7388e-05 4
9.65453 1.87665 -2.63534 0.000808093 4
11.1911 2.17532 -2.63202 0.000114093 4
13.2815 2.58166 -2.62998 0.000119907 4
16.2775 3.16403 -2.62636 7.78633e-05 4
29.0071 5.6384 -2.58529 9.97378e-05 4
9.65019 1.91079 -2.63596 0.000186792 4
11.2099 2.21961 -2.63824 7.09895e-05 4
