VERSION 0.7
FIELDS x y z intensity label
SIZE 4 4 4 4 4
TYPE F F F F F
COUNT 1 1 1 1 1
WIDTH 1171
HEIGHT 1
VIEWPOINT 10.0675 3.98478 2.73137 0.731317 0.000103968 -0.00014675 -0.682038
POINTS 1171
DATA ascii
8.19159 -5.567 -2.65383 0.000378749 4
7.60166 -5.16608 -2.1219 0.000442071 6
7.59229 -5.15971 -1.78434 0.000474854 6
7.71553 -5.24347 -1.47751 0.00040217 6
7.83771 -5.32651 -1.16355 0.00038077 6
8.39446 -5.70487 -0.887967 6.61431e-05 6
18.3103 -12.4437 -1.16023 0.000422093 10
18.3 -12.4367 -0.386211 0.000424076 10
18.3159 -12.4475 0.386546 0.000424115 10
17.8885 -12.157 1.1335 0.000603481 10
17.8707 -12.1449 1.89036 0.000597976 10
17.8741 -12.1472 2.6535 0.000589792 10
17.8733 -12.1467 3.42271 0.000579016 10
18.3155 -12.4472 4.30449 0.000308657 10
17.8757 -12.1483 4.98976 0.000550165 10
17.8716 -12.1455 5.78986 0.000532389 10
8.20941 -5.53732 -2.65332 0.000203325 4
7.5949 -5.12283 -2.11501 0.000425521 6
7.60459 -5.12937 -1.78301 0.000509704 6
7.70004 -5.19375 -1.47106 0.000406903 6
7.8273 -5.27958 -1.15926 0.000383799 6
8.4121 -5.67403 -0.887732 6.54164e-05 6
18.4741 -12.461 -1.16785 0.000412619 10
18.4648 -12.4547 -0.38877 0.000414561 10
18.4554 -12.4483 0.388571 0.000414599 10
17.8851 -12.0636 1.13061 0.000608078 10
17.8836 -12.0627 1.88727 0.000602533 10
17.9 -12.0737 2.65107 0.00059429 10
17.8945 -12.07 3.41868 0.000583437 10
18.4673 -12.4564 4.32994 0.000301707 10
17.8997 -12.0735 4.98466 0.000554376 10
17.88 -12.0602 5.77889 0.000536472 10
8.22249 -5.50448 -2.65133 0.000243189 4
7.6023 -5.0893 -2.11211 0.000452484 6
7.605 -5.0911 -1.77893 0.000514302 6
7.71173 -5.16255 -1.46984 0.000410362 6
7.83172 -5.24288 -1.1572 0.00038683 6
8.44447 -5.65308 -0.889061 7.1132e-05 6
18.611 -12.459 -1.17374 0.000403273 10
18.6091 -12.4577 -0.390889 0.000405172 10
18.6293 -12.4712 0.391313 0.000405211 10
18.0127 -12.0585 1.13601 0.000344438 10
18.6156 -12.4621 4.35448 0.00029485 10
8.2429 -5.47657 -2.65172 0.000211293 4
7.59268 -5.04456 -2.10453 0.000457063 6
7.58736 -5.04103 -1.77068 0.000518908 6
7.42205 -4.9312 -1.41134 0.000490004 6
7.81677 -5.19345 -1.1523 0.000389862 6
8.45831 -5.61969 -0.888447 6.75246e-05 6
18.7715 -12.4717 -1.18111 0.000394053 10
18.7867 -12.4818 -0.393702 0.000395912 10
18.7752 -12.4742 0.393461 0.000395949 10
18.18 -12.0788 1.14389 0.000336616 10
18.8985 -12.5561 1.98507 0.000191167 10
18.9003 -12.5573 2.78617 0.000188545 10
18.8921 -12.5519 3.59243 0.000185086 10
18.7697 -12.4706 4.38032 0.000288086 10
18.8791 -12.5433 5.23289 0.000175812 10
18.8851 -12.5472 6.0753 0.000170095 10
8.26256 -5.44816 -2.65192 0.000159464 4
7.58801 -5.00338 -2.09838 0.00043857 6
7.59803 -5.00998 -1.76907 0.00052352 6
7.4254 -4.89615 -1.40872 0.000677475 6
7.82777 -5.16146 -1.15126 0.000392895 6
8.47683 -5.58944 -0.888337 7.07321e-05 6
18.9474 -12.4935 -1.18943 0.00038496 10
18.9273 -12.4803 -0.395734 0.000386778 10
18.9457 -12.4924 0.396118 0.000386815 10
18.3132 -12.0754 1.14962 0.0003289 10
18.9441 -12.4913 4.41082 0.000281416 10
8.27278 -5.41356 -2.64912 0.00051825 4
7.58544 -4.96377 -2.09287 0.000470454 6
7.57955 -4.95992 -1.76073 0.000501733 6
7.42413 -4.85822 -1.40525 0.000644842 6
7.81062 -5.11113 -1.14611 0.000463728 6
8.50142 -5.56318 -0.888874 8.38985e-05 6
19.1015 -12.4997 -1.19635 0.000375993 10
19.1096 -12.505 -0.398631 0.000377771 10
19.0867 -12.49 0.398153 0.000377808 10
18.4755 -12.09 1.15715 0.000321291 10
19.0968 -12.4966 4.43619 0.000274839 10
8.29925 -5.38959 -2.65155 0.000334864 4
7.57185 -4.91722 -2.08437 0.000475048 6
7.58463 -4.92552 -1.75791 0.000532765 6
7.44921 -4.83757 -1.4068 0.00070619 6
7.8043 -5.06817 -1.14258 0.000545326 6
8.52724 -5.53765 -0.889547 8.58295e-05 6
19.2728 -12.5159 -1.20434 0.000367152 10
19.2522 -12.5025 -0.400691 0.000368892 10
19.2507 -12.5015 0.400659 0.000368928 10
18.6419 -12.1062 1.16491 0.000313788 10
19.3872 -12.5902 3.66131 5.61666e-05 10
19.2538 -12.5035 4.46248 0.000268355 10
8.32268 -5.3636 -2.65304 0.000350805 4
7.56924 -4.87804 -2.07895 0.000479652 6
7.58228 -4.88645 -1.7534 0.000537396 6
7.46694 -4.81211 -1.40696 0.000660232 6
8.54734 -5.50838 -0.889632 8.12427e-05 6
19.4333 -12.5239 -1.21163 0.000358438 10
19.4258 -12.5191 -0.403394 0.000360138 10
19.4266 -12.5196 0.403409 0.000360174 10
18.7971 -12.1139 1.17197 0.00030639 10
19.5527 -12.6009 3.68424 0.000168304 10
19.4317 -12.5229 4.49356 0.000261964 10
8.34986 -5.33996 -2.65574 0.000271073 4
7.57227 -4.84267 -2.07513 0.000460052 6
7.57396 -4.84375 -1.74755 0.000547812 6
7.48607 -4.78754 -1.40741 0.000657726 6
7.83281 -5.00929 -1.14161 0.000523355 6
8.57623 -5.48473 -0.890641 9.38583e-05 6
19.6059 -12.5385 -1.21966 0.000349849 10
19.6092 -12.5406 -0.40629 0.000351511 10
19.5873 -12.5266 0.405837 0.000351546 10
18.9601 -12.1255 1.17948 0.000299099 10
19.7263 -12.6155 2.04858 0.000169689 10
19.7256 -12.615 2.87494 0.000167347 10
19.7174 -12.6098 3.70695 0.000164257 10
19.5894 -12.5279 4.51988 0.000255666 10
19.7159 -12.6088 5.40301 0.000155961 10
19.7011 -12.5994 6.26611 0.000150855 10
8.36096 -5.30603 -2.65337 0.000354781 4
7.57372 -4.80643 -2.07091 0.000488888 6
7.58162 -4.81144 -1.74543 0.000524736 6
7.50367 -4.76198 -1.40759 0.000655201 6
7.82071 -4.96317 -1.13731 0.000523969 6
8.62734 -5.47508 -0.893959 6.95004e-05 6
19.7598 -12.54 -1.2265 0.000341386 10
19.7726 -12.5481 -0.408766 0.00034301 10
19.7757 -12.55 0.408829 0.000343044 10
19.1277 -12.1388 1.18726 0.000291913 10
19.764 -12.5426 2.04793 0.000168418 10
19.759 -12.5395 2.87341 0.000166093 10
19.7603 -12.5403 3.70676 0.000163027 10
19.7708 -12.547 4.55162 0.00024946 10
19.758 -12.5388 5.40251 0.000154805 10
19.7655 -12.5436 6.27263 0.000149737 10
8.38905 -5.28287 -2.65641 3.98624e-05 4
7.56405 -4.76334 -2.06371 0.000508651 6
7.56874 -4.76629 -1.73863 0.000524373 6
7.5412 -4.74895 -1.41151 0.000652659 6
7.84495 -4.94023 -1.13832 0.000487194 6
8.65476 -5.45019 -0.894823 7.24979e-05 6
19.932 -12.5519 -1.23446 0.000333048 10
19.939 -12.5563 -0.411297 0.000334635 10
19.94 -12.5569 0.411318 0.000334669 10
19.3038 -12.1562 1.19555 0.000284833 10
19.7879 -12.4611 2.04589 0.000490395 10
19.7783 -12.4551 2.86988 0.000483575 10
19.7738 -12.4522 3.70112 0.000474596 10
19.9447 -12.5598 4.58152 0.000243346 10
19.7784 -12.4552 5.39618 0.000450567 10
19.7778 -12.4548 6.26269 0.000435771 10
8.40535 -5.25224 -2.65575 0.000115599 4
7.55162 -4.71877 -2.05581 0.000513079 6
7.571 -4.73089 -1.73534 0.000567389 6
7.56878 -4.7295 -1.41357 0.000650098 6
7.85999 -4.91147 -1.13801 0.000376339 6
8.71494 -5.4457 -0.899074 7.18405e-05 6
20.1133 -12.5682 -1.24297 0.000324834 10
20.1084 -12.5651 -0.413885 0.000326385 10
20.1042 -12.5625 0.413798 0.000326418 10
19.4541 -12.1563 1.20223 0.000277857 10
19.793 -12.368 2.04193 0.000493893 10
19.8027 -12.3741 2.86713 0.000487027 10
19.7805 -12.3603 3.69428 0.000477988 10
20.1082 -12.565 4.60899 0.000237324 10
19.7814 -12.3608 5.38518 0.000453796 10
19.7965 -12.3703 6.25492 0.0004389 10
8.40628 -5.21211 -2.65028 0.000163431 4
7.5658 -4.691 -2.0552 0.000517511 6
7.56309 -4.68932 -1.72977 0.000571857 6
7.59708 -4.71039 -1.41578 0.000660076 6
7.89428 -4.89466 -1.14049 0.000262414 6
8.75498 -5.42832 -0.901246 6.76266e-05 6
20.2937 -12.5827 -1.25139 0.000316745 10
20.2868 -12.5783 -0.416649 0.00031826 10
20.291 -12.581 0.416736 0.000318292 10
19.6286 -12.1703 1.21038 0.000270986 10
19.8037 -12.2788 2.0386 0.000497385 10
19.8101 -12.2828 2.86198 0.000490473 10
19.8001 -12.2766 3.6899 0.000481374 10
20.2888 -12.5796 4.64029 0.000231394 10
19.7867 -12.2683 5.37494 0.00045702 10
19.8018 -12.2776 6.24299 0.000442024 10
7.63236 -4.69546 -2.4011 0.00022288 6
7.56229 -4.65235 -2.04983 0.000525169 6
7.56918 -4.65659 -1.72743 0.000576325 6
7.67119 -4.71935 -1.42651 0.000427301 6
7.91965 -4.8722 -1.14169 0.00026047 6
8.78503 -5.40459 -0.902391 7.05342e-05 6
20.4845 -12.6021 -1.26043 0.00030878 10
20.4703 -12.5934 -0.419513 0.000310258 10
20.4652 -12.5903 0.419409 0.00031029 10
19.8199 -12.1933 1.21955 0.00026422 10
19.8197 -12.1932 2.03586 0.000261802 10
19.8089 -12.1865 2.85564 0.000258193 10
19.8021 -12.1823 3.68233 0.000253433 10
20.4692 -12.5928 4.67147 0.000225555 10
19.8004 -12.1813 5.36707 0.000240671 10
19.8069 -12.1853 6.23116 0.000232805 10
7.62536 -4.65454 -2.39378 0.000225981 6
7.55105 -4.60918 -2.04241 0.000529391 6
7.56432 -4.61728 -1.72263 0.000580794 6
7.67893 -4.68724 -1.4249 0.000531767 6
7.95805 -4.85761 -1.14478 0.000258528 6
8.84902 -5.40147 -0.907022 6.82685e-05 6
20.6442 -12.6013 -1.26755 0.000300939 10
20.6491 -12.6043 -0.422274 0.000302382 10
20.653 -12.6067 0.422353 0.000302413 10
20.6419 -12.5999 1.26741 0.000234718 10
20.6621 -12.6122 2.11786 0.000232552 10
20.6521 -12.6061 2.97083 0.00022932 10
20.643 -12.6006 3.83051 0.000225056 10
20.6495 -12.6045 4.70255 0.000219807 10
20.6429 -12.6005 5.58348 0.000213628 10
20.6443 -12.6014 6.48073 0.000206585 10
7.61254 -4.61032 -2.38469 0.000512137 6
7.53893 -4.56574 -2.03481 0.000561699 6
7.56797 -4.58333 -1.71981 0.000585263 6
7.69471 -4.66008 -1.4248 0.000556105 6
8.00173 -4.84602 -1.14862 0.000256587 6
8.89477 -5.38687 -0.909778 6.74292e-05 6
20.8298 -12.615 -1.27623 0.00029322 10
20.8352 -12.6182 -0.425175 0.000294629 10
20.849 -12.6266 0.425457 0.00029466 10
20.8349 -12.6181 1.27655 0.000228699 10
20.8279 -12.6138 2.13032 0.000226585 10
20.8263 -12.6128 2.98954 0.000223431 10
20.8456 -12.6245 3.85989 0.000219271 10
20.8236 -12.6112 4.73213 0.000214149 10
20.8296 -12.6149 5.62205 0.000208121 10
20.8313 -12.6159 6.52556 0.000201249 10
7.59618 -4.56425 -2.37455 0.00184521 6
7.53598 -4.52807 -2.02973 0.00319107 6
7.56878 -4.54778 -1.71638 0.000665031 6
7.68779 -4.61929 -1.42052 0.000574188 6
8.0302 -4.82503 -1.15028 0.000242741 6
8.549 -5.13675 -0.872572 0.000468858 6
21.0175 -12.6286 -1.28502 0.000285625 10
21.0293 -12.6357 -0.428235 0.000286999 10
21.0223 -12.6315 0.428091 0.000287029 10
21.0208 -12.6306 1.28523 0.000222775 10
21.0133 -12.6261 2.14477 0.000220714 10
21.0258 -12.6336 3.01184 0.000217637 10
21.0088 -12.6233 3.88193 0.000213579 10
21.0187 -12.6293 4.76642 0.000208582 10
21.0195 -12.6298 5.66137 0.000202702 10
21.0106 -12.6245 6.56789 0.000195999 10
7.55919 -4.50618 -2.35806 0.00313528 6
7.52873 -4.48802 -2.02355 0.00322578 6
7.57282 -4.51431 -1.71371 0.000563814 6
7.69582 -4.58763 -1.41904 0.000576983 6
8.06217 -4.80602 -1.15245 0.000240445 6
8.99401 -5.36151 -0.916078 6.57685e-05 6
21.1094 -12.5837 -1.28795 0.000559081 10
21.1064 -12.582 -0.428908 0.000561708 10
21.2121 -12.6449 0.431053 0.000279522 10
21.206 -12.6413 1.29384 0.000216947 10
21.088 -12.571 2.1479 0.000431828 10
21.1091 -12.5836 3.01746 0.000425758 10
21.2169 -12.6478 3.91221 0.000207978 10
21.2007 -12.6382 4.79766 0.000203106 10
21.1035 -12.5802 5.67213 0.000396391 10
21.1014 -12.579 6.58251 0.000383233 10
7.55367 -4.46723 -2.35146 0.0034937 6
7.52166 -4.4483 -2.01746 0.00326062 6
7.55288 -4.46676 -1.70566 0.000577261 6
7.71334 -4.56166 -1.41933 0.000553839 6
8.11438 -4.79883 -1.15751 0.000238157 6
9.06094 -5.35863 -0.920984 4.4201e-05 6
21.1185 -12.4895 -1.28584 0.000562875 10
21.1159 -12.4879 -0.428212 0.000565519 10
21.4038 -12.6582 0.434049 0.000272137 10
21.4007 -12.6563 1.30302 0.000211214 10
21.1025 -12.48 2.14493 0.00043476 10
21.1139 -12.4867 3.01189 0.000428652 10
21.4055 -12.6592 3.9388 0.000202469 10
21.4031 -12.6578 4.83344 0.000197719 10
21.0979 -12.4773 5.65887 0.000399096 10
21.1101 -12.4845 6.57159 0.000385853 10
7.6858 -4.50923 -2.38768 0.00026498 6
7.51279 -4.40773 -2.01094 0.00388834 6
7.56294 -4.43715 -1.70442 0.000599825 6
7.71344 -4.52545 -1.41643 0.000555803 6
8.13671 -4.77378 -1.15831 0.000235875 6
9.14081 -5.36288 -0.927194 4.11965e-05 6
21.1047 -12.382 -1.28235 0.00056666 10
21.1214 -12.3918 -0.427442 0.000569322 10
21.6068 -12.6767 0.437267 0.000264874 10
21.5874 -12.6653 1.31169 0.000205576 10
21.1259 -12.3945 2.14289 0.000437686 10
21.1133 -12.3871 3.00561 0.000431538 10
21.6051 -12.6756 3.96737 0.000197052 10
21.5916 -12.6677 4.866 0.000192421 10
21.114 -12.3875 5.65156 0.000401795 10
21.1226 -12.3925 6.56195 0.000388468 10
7.7591 -4.51591 -2.40554 0.000260503 6
7.51137 -4.37173 -2.00647 0.00389449 6
7.57299 -4.40758 -1.70321 0.00060437 6
7.74499 -4.50769 -1.41932 0.000457724 6
8.19299 -4.76844 -1.16395 0.000233601 6
21.7895 -12.6818 -2.2057 0.000254018 10
21.1118 -12.2873 -1.28017 0.000570436 10
21.1254 -12.2953 -0.426652 0.000573115 10
21.791 -12.6827 0.440096 0.000257732 10
21.7953 -12.6852 1.32162 0.000200031 10
21.1258 -12.2955 2.13852 0.000440604 10
21.1164 -12.2901 2.99994 0.000434418 10
21.1175 -12.2907 3.86993 0.000426275 10
21.7964 -12.6858 4.90214 0.000187212 10
21.1324 -12.2994 5.64496 0.000404487 10
21.1307 -12.2984 6.55111 0.000391076 10
8.57051 -4.94819 -2.65173 0.000243121 4
7.53312 -4.34925 -2.00821 0.00240397 6
7.5575 -4.36333 -1.69629 0.000612526 6
7.77023 -4.48614 -1.42107 0.000454813 6
8.24232 -4.75871 -1.16859 0.000231054 6
21.9886 -12.6951 -2.22136 0.000247091 10
22.0025 -12.7031 0.443467 0.00025071 10
21.9861 -12.6937 1.3305 0.000194581 10
21.9917 -12.6969 4.02198 0.000186488 10
21.9891 -12.6954 4.93547 0.000182092 10
21.2851 -12.289 5.67427 0.000194533 10
7.49622 -4.29312 -2.31469 0.001483 6
7.7131 -4.41734 -2.05206 0.000257947 6
7.56175 -4.33066 -1.69384 0.000622378 6
7.796 -4.46481 -1.42292 0.00042326 6
8.27462 -4.73892 -1.17082 0.000214169 6
22.2147 -12.7225 -2.2397 0.000240284 10
22.2666 -12.7522 -1.34477 0.000497912 10
22.2598 -12.7483 -0.447756 0.000500275 10
22.1955 -12.7115 0.446462 0.00024381 10
22.1903 -12.7085 1.34016 0.000189224 10
22.2714 -12.7549 2.24541 0.000245487 10
22.2611 -12.749 3.14984 0.000242003 10
22.2068 -12.718 4.05319 0.000181342 10
22.1976 -12.7127 4.97229 0.00017706 10
21.4723 -12.2973 5.71268 0.000189188 10
22.2569 -12.7466 6.87249 0.000217603 10
7.50883 -4.26561 -2.31397 0.00149407 6
7.77695 -4.41792 -2.06493 0.000198242 6
7.56689 -4.29859 -1.69162 0.000626748 6
7.84305 -4.45547 -1.42867 0.000419864 6
8.3191 -4.72591 -1.17477 0.000211774 6
22.4041 -12.7273 -2.2543 0.000233595 10
22.2897 -12.6623 -1.34348 0.0004993 10
22.2862 -12.6603 -0.447395 0.00050167 10
22.4088 -12.73 0.449856 0.000237029 10
22.4108 -12.7311 1.35078 0.00018396 10
22.2904 -12.6627 2.24286 0.000385619 10
22.299 -12.6676 3.14893 0.000380146 10
22.4141 -12.733 4.08287 0.000176285 10
22.4148 -12.7334 5.01096 0.000172116 10
22.3015 -12.669 5.9215 0.000353677 10
22.3087 -12.6731 6.87479 0.000341822 10
7.51189 -4.23273 -2.31035 0.00178474 6
7.83702 -4.41594 -2.07678 0.0002466 6
7.54937 -4.25385 -1.68437 0.000599838 6
7.87209 -4.4357 -1.43113 0.00039565 6
8.35521 -4.70792 -1.17754 0.00020939 6
22.6229 -12.7473 -2.27182 0.000227023 10
22.3105 -12.5713 -1.34209 0.000502545 10
22.2962 -12.5633 -0.446712 0.000504929 10
22.6058 -12.7377 0.452915 0.000230367 10
22.6039 -12.7366 1.35973 0.000178788 10
22.3152 -12.5739 2.24092 0.000388126 10
22.2959 -12.5631 3.14227 0.00038262 10
22.6121 -12.7413 4.11082 0.000171317 10
22.6128 -12.7417 5.04524 0.000167259 10
22.2938 -12.5619 5.90776 0.000355988 10
22.2919 -12.5608 6.85605 0.00034406 10
7.52314 -4.20454 -2.30928 0.00583563 6
7.90313 -4.41691 -2.0902 0.000215049 6
7.56254 -4.22656 -1.68401 0.000603977 6
7.91289 -4.42236 -1.43573 0.000382749 6
8.41325 -4.702 -1.1834 0.000207017 6
22.8178 -12.7525 -2.28692 0.000220569 10
22.3217 -12.4752 -1.34013 0.00050578 10
22.2995 -12.4628 -0.445905 0.000508178 10
22.8235 -12.7556 0.456381 0.000223824 10
22.837 -12.7632 1.37107 0.000173709 10
22.2976 -12.4617 2.23478 0.000390626 10
22.32 -12.4742 3.13952 0.000385087 10
22.8252 -12.7566 4.14144 0.000166438 10
22.8136 -12.7501 5.08008 0.000162489 10
22.3201 -12.4743 5.90317 0.000358293 10
22.3065 -12.4667 6.84714 0.000346292 10
7.53843 -4.17862 -2.30948 0.00489093 6
7.93386 -4.39781 -2.09425 0.000392984 6
7.55131 -4.18576 -1.67825 0.000608112 6
7.95992 -4.41225 -1.44146 0.000379024 6
8.45783 -4.68825 -1.18736 0.000204925 6
23.0412 -12.772 -2.30483 0.000214231 10
22.313 -12.3683 -1.33701 0.000509005 10
22.3086 -12.3659 -0.44522 0.000511418 10
23.0383 -12.7704 0.459783 0.000217398 10
23.0321 -12.7669 1.3801 0.000168721 10
22.3182 -12.3712 2.23251 0.000393119 10
22.3062 -12.3646 3.13149 0.000387546 10
23.0481 -12.7757 4.17376 0.000161647 10
23.0467 -12.775 5.12203 0.000157805 10
22.3068 -12.3649 5.8882 0.00036059 10
22.3194 -12.3718 6.83778 0.000348518 10
7.55662 -4.15429 -2.3106 0.00125615 6
7.51645 -4.13221 -1.98025 0.000623222 6
7.56069 -4.15653 -1.67709 0.000644221 6
7.93183 -4.36056 -1.43361 0.000787616 6
8.5037 -4.67495 -1.1915 0.000202586 6
23.2594 -12.787 -2.32217 0.000208009 10
23.2759 -12.796 -1.39202 0.000210035 10
23.2535 -12.7838 -0.463185 0.000211066 10
23.2735 -12.7947 0.463582 0.000211091 10
23.2659 -12.7905 1.39142 0.000163824 10
23.2501 -12.7819 2.32124 0.000162282 10
23.2496 -12.7816 3.25764 0.00015998 10
23.2498 -12.7817 4.20219 0.000156945 10
23.2683 -12.7919 5.16133 0.000153208 10
23.2646 -12.7898 6.1292 0.000148811 10
23.2508 -12.7822 7.10942 0.000143802 10
7.63552 -4.16302 -2.33026 0.00212197 6
7.50474 -4.09172 -1.97339 0.00126457 6
7.55874 -4.12116 -1.67346 0.000648568 6
7.97088 -4.34587 -1.43791 0.00077811 6
8.5481 -4.66058 -1.19544 0.000175816 6
23.4781 -12.8007 -2.33953 0.000201903 10
23.4977 -12.8114 -1.4026 0.000203873 10
23.4796 -12.8015 -0.466794 0.000204875 10
23.4947 -12.8098 0.467096 0.000204899 10
23.4926 -12.8086 1.4023 0.000159018 10
23.4784 -12.8009 2.33956 0.000157519 10
23.487 -12.8055 3.28462 0.000155281 10
23.4793 -12.8013 4.23557 0.000152329 10
23.4818 -12.8027 5.19874 0.000148696 10
23.4849 -12.8044 6.17541 0.000144421 10
23.4833 -12.8035 7.1668 0.000139551 10
7.68772 -4.15673 -2.34175 0.00229698 6
7.50917 -4.0602 -1.97082 0.00138516 6
7.55038 -4.08247 -1.66844 0.000652933 6
8.09449 -4.37668 -1.45745 0.000432777 6
8.59541 -4.64752 -1.19978 0.000173316 6
23.7156 -12.823 -2.35873 0.00019591 10
23.7206 -12.8257 -1.41323 0.000197826 10
23.7115 -12.8208 -0.470514 0.000198801 10
23.72 -12.8253 0.470681 0.000198824 10
23.7041 -12.8168 1.41224 0.000154302 10
23.7126 -12.8213 2.35842 0.000152845 10
23.7194 -12.825 3.31083 0.000150669 10
23.6982 -12.8136 4.26697 0.0001478 10
23.7095 -12.8197 5.23921 0.000144269 10
23.7156 -12.823 6.22429 0.000140114 10
23.7102 -12.8201 7.22235 0.00013538 10
7.52183 -4.03317 -2.28692 0.00614764 6
7.481 -4.01128 -1.95974 0.00139815 6
7.56134 -4.05436 -1.66773 0.000657266 6
8.12502 -4.3566 -1.4602 0.00105648 6
8.64498 -4.6354 -1.20443 0.000171687 6
23.9442 -12.8388 -2.37698 0.000190032 10
23.9272 -12.8297 -1.42286 0.000191893 10
23.9346 -12.8336 -0.474049 0.000192841 10
23.9506 -12.8422 0.474364 0.000192864 10
23.9269 -12.8295 1.42284 0.000149675 10
23.931 -12.8317 2.37568 0.000148259 10
23.9453 -12.8394 3.33609 0.000146145 10
23.9357 -12.8342 4.30164 0.000143358 10
23.9227 -12.8272 5.27638 0.000139926 10
23.9415 -12.8373 6.27177 0.000135889 10
23.922 -12.8269 7.27318 0.00013129 10
7.52607 -4.00168 -2.28395 0.0019269 6
7.49402 -3.98464 -1.95949 0.00156266 6
7.53974 -4.00895 -1.65987 0.000661593 6
8.16887 -4.34346 -1.46534 0.00104199 6
8.70359 -4.62778 -1.21034 0.000169224 6
24.1655 -12.849 -2.39449 0.000184267 10
24.1773 -12.8553 -1.43505 0.000186075 10
24.1676 -12.8501 -0.477771 0.000186996 10
24.1673 -12.85 0.477766 0.000187019 10
24.1672 -12.8499 1.43446 0.000145138 10
24.1726 -12.8528 2.39519 0.000143762 10
24.1811 -12.8573 3.36268 0.000141709 10
24.1685 -12.8506 4.33538 0.000139001 10
24.1796 -12.8565 5.32313 0.000135667 10
24.1713 -12.8521 6.32018 0.000131746 10
24.161 -12.8466 7.33216 0.000127279 10
7.54047 -3.97564 -2.28409 0.00518554 6
7.48275 -3.9452 -1.95293 0.00157318 6
7.54669 -3.97892 -1.65833 0.000665913 6
8.23049 -4.33944 -1.47367 0.000950263 6
8.75819 -4.61767 -1.21568 0.000166779 6
24.3363 -12.8311 -2.40696 0.000408803 10
24.3413 -12.8337 -1.44212 0.000412767 10
24.3276 -12.8265 -0.480046 0.000414758 10
24.4202 -12.8753 0.481872 0.000181287 10
24.3424 -12.8343 1.44219 0.000321832 10
24.3245 -12.8249 2.40579 0.000318737 10
24.3325 -12.8291 3.37749 0.000314139 10
24.3918 -12.8603 4.36735 0.000134729 10
24.3246 -12.8249 5.34514 0.000300651 10
24.3191 -12.822 6.34709 0.000291911 10
24.3361 -12.831 7.37167 0.000281963 10
7.52924 -3.93619 -2.27651 0.00543377 6
7.49339 -3.91745 -1.95213 0.0015837 6
7.54912 -3.94658 -1.65583 0.0006607 6
8.27016 -4.32354 -1.47806 0.000698927 6
8.82268 -4.61239 -1.22239 0.000149731 6
24.3427 -12.726 -2.40318 0.000411291 10
24.3341 -12.7216 -1.43906 0.000415276 10
24.3463 -12.7279 -0.479535 0.000417279 10
24.6487 -12.886 0.485492 0.000175669 10
24.3252 -12.7169 1.43853 0.00032379 10
24.3402 -12.7248 2.40294 0.000320676 10
24.3423 -12.7258 3.37265 0.000316051 10
24.6425 -12.8828 4.40416 0.000130542 10
24.3278 -12.7182 5.33606 0.000302487 10
24.349 -12.7293 6.34324 0.000293696 10
24.3395 -12.7244 7.35921 0.000283691 10
7.52814 -3.90222 -2.27205 0.00456535 6
7.48762 -3.88121 -1.94709 0.00156057 6
7.55487 -3.91607 -1.65408 0.000676351 6
8.32891 -4.3173 -1.48586 0.000574536 6
8.88865 -4.60744 -1.2293 0.00014723 6
24.3486 -12.6211 -2.3994 0.000413768 10
24.3491 -12.6214 -1.43733 0.000417777 10
24.3578 -12.6259 -0.478892 0.000419789 10
24.8864 -12.8999 0.489285 0.000170163 10
24.3485 -12.6211 1.4373 0.000325739 10
24.3438 -12.6187 2.39893 0.000322608 10
24.3348 -12.614 3.36549 0.000317956 10
24.8785 -12.8958 4.43827 0.000126439 10
24.3352 -12.6142 5.328 0.000304315 10
24.333 -12.613 6.32757 0.000295474 10
24.3375 -12.6153 7.34522 0.000285413 10
7.52007 -3.86479 -2.26553 0.00391055 6
7.50235 -3.85568 -1.9474 0.00128843 6
7.54049 -3.87529 -1.64796 0.000670163 6
8.34428 -4.28838 -1.48592 0.000370332 6
8.95298 -4.60121 -1.23597 0.000143727 6
24.3404 -12.5093 -2.39427 0.000416235 10
24.3553 -12.517 -1.43511 0.000420266 10
24.3629 -12.5208 -0.478129 0.000422292 10
25.137 -12.9187 0.493321 0.000164769 10
24.3471 -12.5127 1.43462 0.00032768 10
24.3486 -12.5135 2.39508 0.000324532 10
24.3448 -12.5115 3.36082 0.000319855 10
25.1238 -12.9119 4.47397 0.000122419 10
24.3547 -12.5166 5.32267 0.000306136 10
24.3497 -12.5141 6.32053 0.000297246 10
24.3434 -12.5108 7.3338 0.000287127 10
7.55541 -3.84968 -2.27211 0.000438136 6
7.4945 -3.81864 -1.9419 0.00129105 6
7.5355 -3.83953 -1.64393 0.000682436 6
8.24176 -4.19939 -1.46505 0.00013756 6
9.00506 -4.58831 -1.24094 0.000141276 6
25.5513 -13.0191 -2.50891 0.000154297 10
25.4006 -12.9422 0.497604 0.000159485 10
25.3998 -12.9418 4.51504 0.000118483 10
24.5737 -12.521 7.38998 0.000119648 10
7.50335 -3.79022 -2.25246 0.000621526 6
7.51114 -3.79415 -1.94276 0.000582984 6
7.54313 -3.81031 -1.64268 0.000686745 6
8.26511 -4.17501 -1.4666 0.000136975 6
9.08103 -4.58716 -1.24919 0.000120067 6
25.6899 -12.9769 -2.51805 3.41613e-05 10
25.6338 -12.9486 0.501284 0.000154311 10
25.6367 -12.95 4.54909 0.000114628 10
24.7991 -12.5269 7.44455 0.000115767 10
7.4704 -3.7409 -2.23864 0.00427281 6
7.54031 -3.77591 -1.94689 0.000825716 6
7.55114 -3.78133 -1.64154 0.000711262 6
8.277 -4.14482 -1.46613 0.000136391 6
9.15059 -4.58228 -1.25655 0.00011758 6
25.9122 -12.9759 -2.53538 0.000147017 10
25.8969 -12.9682 0.505541 0.000149247 10
25.896 -12.9678 4.58704 0.000110855 10
26.0854 -13.0626 5.67071 3.41471e-05 10
25.908 -12.9737 7.76378 0.000101382 10
7.46876 -3.70753 -2.23426 0.00649047 6
7.58659 -3.76602 -1.95543 0.000783265 6
7.54959 -3.74765 -1.63835 0.000714284 6
8.30075 -4.12053 -1.46778 0.000128805 6
9.22024 -4.57697 -1.26391 0.00105893 6
26.1645 -12.9882 -2.55562 0.00014213 10
26.2103 -13.0109 -1.53355 0.000346673 10
26.2164 -13.0139 -0.510888 0.000348372 10
26.1806 -12.9962 0.510191 0.000144291 10
26.2021 -13.0068 1.53308 0.000172554 10
26.1991 -13.0053 2.559 0.000170869 10
26.2006 -13.0061 3.59159 0.000168366 10
26.1812 -12.9964 4.62949 0.000107164 10
26.2045 -13.008 5.6867 0.000161027 10
26.199 -13.0053 6.75275 0.000156274 10
26.158 -12.9849 7.82508 9.79871e-05 10
7.45041 -3.66606 -2.22492 0.00121475 6
7.61466 -3.74688 -1.95928 0.00074155 6
7.55123 -3.71566 -1.63588 0.000717388 6
8.34687 -4.10717 -1.47339 0.00013501 6
9.54458 -4.69652 -1.30612 3.53613e-05 6
26.2517 -12.9174 -2.55972 0.000344084 10
26.2532 -12.9182 -1.53342 0.000347472 10
26.239 -12.9112 -0.510447 0.000349174 10
26.2454 -12.9143 0.510571 0.000349172 10
26.2536 -12.9184 1.53344 0.000270922 10
26.2492 -12.9162 2.55947 0.000268277 10
26.2481 -12.9157 3.5919 0.000264347 10
26.4273 -13.0039 4.66497 0.000103552 10
26.2369 -12.9101 5.6839 0.000252826 10
26.2444 -12.9138 6.75279 0.000245363 10
26.4467 -13.0134 7.89781 9.46667e-05 10
7.43519 -3.62638 -2.21658 0.00161286 6
7.43367 -3.62564 -1.90945 0.00394305 6
7.55119 -3.68296 -1.63308 0.000635311 6
8.36828 -4.08148 -1.47465 0.000143962 6
18.578 -9.0611 -2.53795 4.49951e-05 4
26.2681 -12.8118 -2.55694 0.00034605 10
26.2642 -12.8099 -1.53144 0.000349456 10
26.2598 -12.8078 -0.50998 0.000351167 10
26.2494 -12.8027 0.509778 0.000351164 10
26.2575 -12.8067 1.53105 0.000272469 10
26.2565 -12.8062 2.55581 0.000269809 10
26.2701 -12.8128 3.58877 0.000265859 10
26.7201 -13.0323 4.70858 0.000100021 10
26.2527 -12.8043 5.67762 0.000254275 10
26.2536 -12.8048 6.74362 0.000246773 10
26.7144 -13.0295 7.96413 9.14201e-05 10
7.43422 -3.59384 -2.21254 0.00201448 6
7.43115 -3.59236 -1.90557 0.00394219 6
7.56839 -3.6587 -1.63403 0.000636853 6
8.38397 -4.05297 -1.47491 0.000143228 6
18.6146 -8.99864 -2.53864 4.56227e-05 4
26.2599 -12.6945 -2.55181 0.000348006 10
26.2554 -12.6924 -1.52833 0.000351429 10
26.2611 -12.6951 -0.509141 0.00035315 10
26.2622 -12.6956 0.509162 0.000353148 10
26.2702 -12.6995 1.5292 0.000274008 10
26.2601 -12.6946 2.55183 0.000271335 10
26.2528 -12.6911 3.58033 0.000267363 10
26.9906 -13.0478 4.7482 9.65682e-05 10
26.2555 -12.6924 5.6686 0.000255718 10
26.2595 -12.6944 6.73372 0.000248175 10
26.9867 -13.0459 8.03167 8.82468e-05 10
7.47212 -3.58004 -2.22009 0.00167578 6
7.43773 -3.56356 -1.90405 0.00505173 6
7.57716 -3.63036 -1.63317 0.00065742 6
8.42686 -4.03747 -1.47997 0.000142456 6
18.7777 -8.99674 -2.55658 0.000257382 4
27.2674 -13.0644 -2.64527 0.000123635 10
27.2711 -13.0661 -1.58479 0.000124881 10
27.2873 -13.0739 -0.528149 0.000125516 10
27.2787 -13.0697 0.527981 0.000125533 10
27.2682 -13.0647 1.58463 9.74114e-05 10
27.2743 -13.0677 2.64594 9.64662e-05 10
27.2843 -13.0724 3.71476 9.5055e-05 10
27.2684 -13.0648 4.78902 9.31939e-05 10
27.2781 -13.0695 5.87951 9.09041e-05 10
27.2782 -13.0695 6.98318 8.82113e-05 10
27.275 -13.068 8.10384 8.5146e-05 10
7.47267 -3.54829 -2.21656 0.00170392 6
7.4597 -3.54213 -1.9065 0.00505726 6
7.59596 -3.60683 -1.6345 0.000498722 6
8.43424 -4.00487 -1.4788 0.000134626 6
18.9578 -9.00183 -2.57681 0.000320331 4
7.53328 -3.54489 -2.23085 0.00100758 6
7.46831 -3.51432 -1.90555 0.00509796 6
7.62211 -3.58669 -1.63743 0.000386142 6
8.47686 -3.98891 -1.48382 0.000132911 6
19.1307 -9.0022 -2.59602 0.000284838 4
7.57858 -3.53395 -2.2406 0.000927536 6
7.46506 -3.48102 -1.90161 0.00510461 6
7.62352 -3.55491 -1.63505 0.000410147 6
8.50313 -3.96508 -1.48599 0.000132114 6
19.3316 -9.01449 -2.61901 0.000315971 4
7.43361 -3.43481 -2.19418 0.00471996 6
7.48932 -3.46055 -1.9047 0.00511107 6
7.64364 -3.53186 -1.63672 0.000429794 6
8.53399 -3.94326 -1.48897 0.000124753 6
19.5094 -9.01462 -2.63881 0.000298661 4
7.45842 -3.41473 -2.19797 0.00451704 6
7.4881 -3.42832 -1.90134 0.00421671 6
7.68244 -3.51729 -1.64238 0.000429771 6
8.56816 -3.92281 -1.49253 0.000130525 6
19.7171 -9.0272 -2.66263 0.000319441 4
7.44501 -3.37721 -2.19053 0.00452205 6
7.51003 -3.4067 -1.90387 0.000792742 6
7.6808 -3.48416 -1.63942 0.000428148 6
8.58002 -3.89207 -1.49222 0.000129734 6
19.911 -9.03205 -2.68454 0.000273734 4
7.45607 -3.35089 -2.19033 0.00354027 6
7.51724 -3.37838 -1.9027 0.000791499 6
7.72679 -3.47256 -1.64664 0.000426516 6
8.6126 -3.87066 -1.49553 0.000124148 6
20.1114 -9.03841 -2.70728 0.000295721 4
7.47996 -3.33029 -2.19392 0.000693265 6
7.5451 -3.35929 -1.90677 0.000760524 6
7.7342 -3.44349 -1.64565 0.000424877 6
8.64623 -3.84955 -1.49903 0.000129851 6
20.293 -9.03505 -2.72748 4.2522e-05 1
7.50946 -3.31207 -2.19917 0.000747628 6
7.57827 -3.34242 -1.9122 0.000697611 6
7.75689 -3.4212 -1.64793 0.000423231 6
8.68409 -3.83014 -1.50326 0.000124732 6
20.3401 -8.97106 -2.72957 4.25204e-05 1
7.52385 -3.28709 -2.20001 0.00074527 6
7.58436 -3.31353 -1.9108 0.000731313 6
7.79112 -3.40386 -1.65266 0.000508222 6
8.72389 -3.81137 -1.50784 0.000123868 6
20.3722 -8.90042 -2.7297 4.25188e-05 1
7.53766 -3.26184 -2.20071 0.000710787 6
7.62436 -3.29936 -1.91797 0.000671919 6
7.81373 -3.38131 -1.65495 0.000503766 6
8.74581 -3.78465 -1.50934 0.000123007 6
20.4016 -8.82855 -2.72949 4.25172e-05 1
7.58894 -3.25262 -2.21235 0.000306919 6
7.64394 -3.2762 -1.92 0.000670487 6
7.85387 -3.36617 -1.66095 0.00049932 6
8.77665 -3.76168 -1.51238 0.000116042 6
20.439 -8.76015 -2.73038 4.25156e-05 1
7.64096 -3.2434 -2.2242 0.00057479 6
7.65444 -3.24912 -1.91978 0.000640562 6
7.88001 -3.34487 -1.664 0.000494885 6
8.80271 -3.73653 -1.51462 0.000121294 6
7.66224 -3.22091 -2.22711 0.000573868 6
7.70337 -3.2382 -1.92921 0.000635725 6
7.90675 -3.32369 -1.66718 0.000463993 6
8.8465 -3.71873 -1.51991 0.000120441 6
7.67906 -3.19649 -2.22874 0.000572931 6
7.73514 -3.21983 -1.93434 0.000543953 6
7.95133 -3.30982 -1.67414 0.000483704 6
8.86658 -3.6908 -1.52114 0.000115725 6
7.69865 -3.17316 -2.2312 0.000664904 6
7.7734 -3.20396 -1.94109 0.000538249 6
7.98484 -3.29111 -1.67877 0.000479163 6
8.9853 -3.70347 -1.53928 0.000104276 6
7.72931 -3.15427 -2.23688 0.000665684 6
7.79616 -3.18156 -1.94399 0.000625251 6
8.02636 -3.2755 -1.68508 0.000407374 6
9.01849 -3.68038 -1.54275 8.34482e-05 6
20.0044 -8.16363 -2.65288 5.47355e-05 4
7.75496 -3.13321 -2.24113 0.000476297 6
7.82894 -3.1631 -1.9494 0.000590558 6
8.06931 -3.26022 -1.6917 0.000402747 6
9.07021 -3.66461 -1.5494 8.87981e-05 6
20.0181 -8.08785 -2.65095 5.66882e-05 4
7.79947 -3.11957 -2.25083 0.00047057 6
7.84775 -3.13888 -1.95135 0.000450255 6
8.11322 -3.24506 -1.69852 0.000434531 6
9.14848 -3.65913 -1.56058 5.00249e-05 6
20.0654 -8.02558 -2.65348 4.52372e-05 4
7.84709 -3.10688 -2.26143 0.000441881 6
7.89115 -3.12433 -1.95941 0.000445373 6
8.144 -3.22444 -1.7026 0.00042979 6
9.22283 -3.65158 -1.57108 3.72562e-05 6
7.89065 -3.09231 -2.27086 0.00043619 6
7.90745 -3.0989 -1.96076 0.000476416 6
8.17498 -3.20374 -1.70672 0.000352566 6
20.1134 -7.88236 -2.65249 3.85325e-05 4
7.94792 -3.0828 -2.28423 0.000179387 6
7.96354 -3.08885 -1.97198 0.000414312 6
8.23983 -3.19602 -1.71792 0.000330378 6
15.6213 -6.05911 -2.65377 3.76579e-05 4
8.00153 -3.0715 -2.29654 0.000223482 6
7.99229 -3.06796 -1.97644 0.000419593 6
8.26463 -3.1725 -1.72078 0.00029155 6
27.2998 -10.4794 -2.55835 0.000104906 4
8.10782 -3.07987 -2.32394 0.000152158 6
8.03127 -3.05079 -1.98343 0.000415579 6
8.31755 -3.15954 -1.72949 0.000272069 6
15.6663 -5.95107 -2.65429 5.36944e-05 4
27.6142 -10.4896 -2.58436 8.38283e-05 4
8.43809 -3.17167 -2.41542 6.23394e-05 6
8.0669 -3.03215 -1.98961 0.000388799 6
8.38496 -3.1517 -1.74121 0.000296698 6
15.6917 -5.89813 -2.65509 8.22826e-05 4
27.9202 -10.4945 -2.60955 8.30234e-05 4
9.29323 -3.45612 -2.65674 0.000151342 4
8.11312 -3.01724 -1.9984 0.000402441 6
8.49245 -3.15832 -1.76123 0.000149106 6
28.2349 -10.5005 -2.63552 0.000112787 4
9.29816 -3.42106 -2.65472 0.000569514 4
8.16053 -3.00249 -2.00748 0.000312462 6
8.55033 -3.14591 -1.77094 0.000215989 6
9.3063 -3.38722 -2.65365 0.000302674 4
8.21797 -2.9911 -2.01903 0.000321773 6
8.6288 -3.14063 -1.78491 0.000279086 6
15.7354 -5.72721 -2.65219 2.99818e-05 4
9.31324 -3.35297 -2.65228 0.000163282 4
8.2846 -2.98264 -2.03283 0.00031473 6
8.70212 -3.13296 -1.79781 0.000197888 6
9.33332 -3.32345 -2.65467 0.00070489 4
8.35586 -2.97539 -2.04776 0.000262466 6
8.78761 -3.12913 -1.8132 0.000347127 6
50.3914 -17.9436 -0.933685 3.42036e-05 10
50.3908 -17.9434 0.933674 3.42005e-05 10
9.32693 -3.28453 -2.64958 0.000680985 4
8.45133 -2.97618 -2.06859 0.000255381 6
8.84609 -3.1152 -1.82301 0.000139871 6
9.34305 -3.2536 -2.65092 0.000832302 4
8.7462 -3.04575 -2.13815 0.000300687 6
8.94517 -3.11504 -1.84118 0.00124538 6
27.5829 -9.60539 -2.55533 0.000134049 4
9.35302 -3.2205 -2.65054 0.000824324 4
8.93587 -3.07687 -2.18188 9.48948e-05 6
12.8987 -4.44137 -2.65172 4.78093e-05 4
27.948 -9.62327 -2.58602 0.000118081 4
9.36197 -3.18707 -2.64991 0.000700864 4
12.9089 -4.39455 -2.65065 8.29614e-05 4
15.8496 -5.39563 -2.6518 3.41595e-05 4
28.3184 -9.64037 -2.61717 0.000117441 4
9.38361 -3.15794 -2.6529 0.000800406 4
10.8815 -3.66202 -2.65063 0.000116491 4
12.937 -4.35378 -2.65328 0.000129361 4
15.8716 -5.3414 -2.65236 6.20431e-05 4
28.6971 -9.65766 -2.64904 9.93863e-05 4
9.38936 -3.12343 -2.65142 0.000501739 4
10.9093 -3.62905 -2.65432 7.18763e-05 4
12.9486 -4.30744 -2.65257 9.70183e-05 4
15.8945 -5.2874 -2.65308 3.62489e-05 4
29.0551 -9.66535 -2.67895 0.000106954 4
9.41997 -3.09713 -2.657 3.1856e-05 4
10.9278 -3.59289 -2.65575 6.93965e-05 4
12.9651 -4.26271 -2.65288 0.000212311 4
29.4719 -9.68986 -2.71424 8.78205e-05 4
9.42631 -3.06279 -2.65575 0.000135386 4
10.9185 -3.54765 -2.65047 8.92224e-05 4
12.9751 -4.21587 -2.6519 9.98259e-05 4
15.9429 -5.18017 -2.65506 4.39144e-05 4
9.41619 -3.02321 -2.64991 0.000314568 4
10.9561 -3.51761 -2.65658 0.000146223 4
15.9469 -5.11998 -2.65272 6.62183e-05 4
9.44067 -2.99476 -2.65384 0.000127418 4
10.9588 -3.47634 -2.65429 9.91324e-05 4
13.0154 -4.12874 -2.65419 4.78018e-05 4
15.9682 -5.06541 -2.65331 2.99716e-05 4
20.6064 -6.53673 -2.6544 3.43194e-05 4
9.4371 -2.95741 -2.64992 0.000187142 4
10.9543 -3.43288 -2.65028 0.000123913 4
13.0361 -4.08526 -2.65547 5.48303e-05 4
15.9735 -5.0058 -2.65128 3.20618e-05 4
9.46676 -2.93045 -2.65536 0.00011945 4
10.9864 -3.40086 -2.65515 6.44337e-05 4
13.0427 -4.03739 -2.65393 6.6076e-05 4
9.45907 -2.89193 -2.65036 0.000155283 4
10.9859 -3.35874 -2.65219 0.000116474 4
13.0412 -3.98709 -2.65078 6.88863e-05 4
16.0152 -4.89634 -2.65246 6.62108e-05 4
9.49212 -2.86584 -2.6568 0.000119447 4
10.9901 -3.3181 -2.65037 0.000188338 4
13.058 -3.94245 -2.65138 5.48266e-05 4
16.0327 -4.84057 -2.65255 3.41499e-05 4
9.49092 -2.82937 -2.65368 0.000151297 4
11.0235 -3.28626 -2.65566 9.91233e-05 4
13.0791 -3.89906 -2.65289 7.45063e-05 4
16.0408 -4.78197 -2.6511 4.46027e-05 4
9.50444 -2.79731 -2.65472 0.000207034 4
11.036 -3.24809 -2.65593 6.6907e-05 4
13.0883 -3.85209 -2.652 3.93609e-05 4
9.50879 -2.76256 -2.65322 0.00017518 4
11.0265 -3.20349 -2.65092 9.41636e-05 4
13.1149 -3.81024 -2.65469 9.55887e-05 4
9.53153 -2.73312 -2.65689 0.000306561 4
11.0492 -3.16831 -2.65371 7.18604e-05 4
13.1205 -3.76224 -2.65314 3.23308e-05 4
16.1023 -4.61727 -2.65314 3.97209e-05 4
9.53901 -2.69927 -2.65633 0.0001911 4
11.0479 -3.12625 -2.65077 0.000143718 4
13.1487 -3.72072 -2.65621 0.00012932 4
16.1229 -4.56232 -2.65388 3.55387e-05 4
9.54414 -2.66477 -2.65515 0.000250815 4
11.0729 -3.0916 -2.65414 4.95571e-05 4
16.1437 -4.5074 -2.6547 3.41441e-05 4
9.54652 -2.62955 -2.65325 0.000139339 4
11.0883 -3.05421 -2.65526 9.41567e-05 4
13.1726 -3.62834 -2.65586 5.90348e-05 4
9.56279 -2.59815 -2.65523 0.000191091 4
11.0785 -3.00996 -2.65039 0.00012141 4
13.1846 -3.58217 -2.65573 0.000260028 4
9.57062 -2.56444 -2.6549 8.36009e-05 4
11.0886 -2.97119 -2.65031 0.000109019 4
13.1961 -3.53589 -2.65555 0.000281105 4
9.56569 -2.52737 -2.65107 0.000195066 4
11.1176 -2.93739 -2.65477 6.68971e-05 4
13.2018 -3.48806 -2.65422 0.000261422 4
9.57161 -2.49322 -2.65029 0.000131369 4
11.1131 -2.89474 -2.65127 0.000168478 4
13.2091 -3.4407 -2.65326 0.000260011 4
16.2114 -4.22277 -2.65332 4.18031e-05 4
20.9074 -5.44598 -2.65277 2.98379e-05 4
9.60082 -2.46507 -2.65597 4.37889e-05 4
11.1428 -2.86099 -2.65596 3.22085e-05 4
13.2185 -3.39394 -2.65276 9.55694e-05 4
16.2151 -4.16333 -2.65152 4.45887e-05 4
9.61042 -2.43181 -2.65626 7.16534e-05 4
11.1391 -2.81863 -2.65272 6.44158e-05 4
13.2254 -3.34655 -2.65179 5.6216e-05 4
16.2344 -4.10792 -2.65231 6.68812e-05 4
9.61758 -2.39793 -2.65592 0.000413991 4
11.1578 -2.78195 -2.65484 9.41445e-05 4
13.2406 -3.30125 -2.6525 7.44846e-05 4
16.2508 -4.05179 -2.65268 3.13497e-05 4
9.6168 -2.36211 -2.65341 0.000139322 4
11.1737 -2.74453 -2.65634 9.16652e-05 4
13.2472 -3.25383 -2.65154 3.93494e-05 4
16.2701 -3.99632 -2.65353 4.59782e-05 4
9.62913 -2.32954 -2.65455 0.000123397 4
11.1723 -2.70288 -2.65375 5.20253e-05 4
13.2616 -3.20832 -2.65216 3.93486e-05 4
9.64074 -2.29675 -2.65552 0.000195044 4
13.2733 -3.16216 -2.65228 0.000143338 4
9.65251 -2.26398 -2.65657 0.00027863 4
11.183 -2.62294 -2.65185 0.000111479 4
13.286 -3.11621 -2.65263 0.000191113 4
16.3066 -3.82467 -2.6528 2.9953e-05 4
9.63857 -2.22524 -2.65058 0.000230862 4
13.3115 -3.07321 -2.65556 0.000182677 4
16.3176 -3.76722 -2.65244 0.000147671 4
9.64546 -2.1914 -2.65036 0.000159212 4
11.2177 -2.5486 -2.65581 0.000146155 4
13.3038 -3.02254 -2.65189 4.21554e-05 4
16.3326 -3.71068 -2.65276 0.000137915 4
9.66497 -2.16038 -2.65363 0.00032638 4
11.2173 -2.50736 -2.65362 7.67921e-05 4
13.3242 -2.97831 -2.65388 0.000134894 4
16.3652 -3.65806 -2.65596 0.000137911 4
9.66839 -2.12573 -2.65251 0.000155227 4
11.2404 -2.47137 -2.65704 0.000247712 4
13.3223 -2.9291 -2.65145 6.46354e-05 4
9.68861 -2.09475 -2.65604 0.000147264 4
11.2392 -2.43 -2.65473 0.000190735 4
13.3564 -2.88776 -2.65622 6.46339e-05 4
16.3863 -3.54284 -2.6553 3.96994e-05 4
9.68241 -2.05806 -2.65235 0.000175123 4
11.2425 -2.38967 -2.65353 0.000133759 4
13.3669 -2.84122 -2.6563 7.44678e-05 4
16.3953 -3.48494 -2.65478 4.31806e-05 4
9.68124 -2.02252 -2.65008 0.000437799 4
11.2557 -2.35145 -2.65469 9.90793e-05 4
13.3772 -2.79466 -2.65641 3.37205e-05 4
9.70769 -1.9927 -2.6554 0.000183077 4
11.2702 -2.31345 -2.65619 0.000113939 4
13.3765 -2.74581 -2.65435 7.02495e-05 4
9.70841 -1.95756 -2.65372 0.000123376 4
11.2683 -2.27209 -2.65385 0.000217966 4
13.3788 -2.69764 -2.65291 0.00015314 4
16.4369 -3.31426 -2.65574 3.20345e-05 4
9.70455 -1.92155 -2.65081 0.000258688 4
11.2741 -2.23234 -2.65337 0.000128796 4
13.4016 -2.65358 -2.65558 4.63626e-05 4
16.447 -3.2566 -2.65552 2.9248e-05 4
9.73081 -1.89148 -2.65616 0.000135311 4
11.2743 -2.19151 -2.6516 0.000183283 4
13.4041 -2.60549 -2.65425 8.56986e-05 4
16.4576 -3.19904 -2.65542 2.99436e-05 4
21.2143 -4.12365 -2.65354 5.79626e-05 4
50.9076 -9.89544 -0.905228 3.54438e-05 10
50.9025 -9.89445 0.905136 3.54409e-05 10
9.72107 -1.85439 -2.65172 0.000139289 4
11.2796 -2.15171 -2.65106 6.19188e-05 4
13.4217 -2.56033 -2.65597 8.00772e-05 4
16.4488 -3.13778 -2.65222 3.48171e-05 4
21.2302 -4.04988 -2.65375 5.51738e-05 4
9.73556 -1.82196 -2.65392 0.00031837 4
11.3058 -2.11582 -2.65546 0.000113928 4
13.4156 -2.51067 -2.65301 9.9743e-05 4
16.4811 -3.08436 -2.65567 3.27272e-05 4
21.2446 -3.97583 -2.6538 5.1828e-05 4
9.73938 -1.78751 -2.65325 0.00017908 4
11.3043 -2.07473 -2.6534 0.00016346 4
13.4421 -2.46708 -2.65652 3.23104e-05 4
16.4822 -3.02504 -2.65412 4.03856e-05 4
50.9912 -9.35864 -0.904922 2.9211e-05 10
50.981 -9.35676 0.904739 2.92127e-05 10
9.74798 -1.75394 -2.65391 0.000151221 4
11.3252 -2.03773 -2.65662 0.000113924 4
13.4254 -2.41561 -2.65154 0.000113786 4
16.4902 -2.96705 -2.65373 3.75993e-05 4
9.75587 -1.72023 -2.6544 0.000175095 4
11.3312 -1.998 -2.65637 0.000111446 4
13.4556 -2.37258 -2.65584 0.000117998 4
9.7653 -1.68676 -2.65535 0.000167134 4
11.3311 -1.95722 -2.65472 0.000131256 4
13.4404 -2.32156 -2.65124 0.000130638 4
9.76897 -1.6523 -2.65477 0.000298448 4
11.3362 -1.91737 -2.65433 8.66767e-05 4
13.4677 -2.27789 -2.65504 5.89963e-05 4
16.5238 -2.7948 -2.65429 5.63941e-05 4
9.78309 -1.61958 -2.65705 0.000123357 4
11.3398 -1.87729 -2.65363 6.43872e-05 4
16.5185 -2.73462 -2.65188 3.27216e-05 4
9.76499 -1.58158 -2.65062 0.000413835 4
11.3498 -1.83827 -2.65446 0.000133725 4
13.4649 -2.18084 -2.65143 7.02306e-05 4
9.79464 -1.55132 -2.65718 0.000306392 4
11.3617 -1.79952 -2.65575 0.000245158 4
9.79843 -1.51688 -2.65675 0.000202932 4
11.3542 -1.75773 -2.65255 0.000111433 4
13.4806 -2.0869 -2.65157 6.18001e-05 4
9.79999 -1.48211 -2.65576 0.000413816 4
11.3617 -1.71829 -2.65287 8.41924e-05 4
13.5053 -2.04249 -2.65503 9.97207e-05 4
9.79415 -1.44628 -2.65279 0.000226799 4
11.3602 -1.67753 -2.65114 0.00012381 4
13.5012 -1.99369 -2.65283 0.000113763 4
9.79643 -1.41169 -2.65206 0.000198943 4
11.3668 -1.63799 -2.65135 0.000101522 4
13.5024 -1.94573 -2.65171 5.33692e-05 4
16.5758 -2.38862 -2.65247 3.06277e-05 4
9.81847 -1.3799 -2.65671 0.000194962 4
11.3834 -1.59984 -2.6539 0.000230278 4
13.5086 -1.89852 -2.65162 7.72432e-05 4
16.6003 -2.33303 -2.65508 4.03718e-05 4
9.81559 -1.34457 -2.65464 0.000167107 4
11.4039 -1.56214 -2.65739 0.000217894 4
13.5374 -1.85439 -2.65597 8.56678e-05 4
16.5934 -2.27302 -2.65268 3.48023e-05 4
21.4265 -2.93506 -2.65541 3.84324e-05 4
9.81802 -1.31001 -2.65405 0.000521207 4
11.3934 -1.52021 -2.65369 5.94244e-05 4
13.5216 -1.80416 -2.65162 3.9322e-05 4
16.6016 -2.21513 -2.65274 3.48013e-05 4
9.81002 -1.2741 -2.65066 0.000107423 4
11.3964 -1.48014 -2.65317 0.000252549 4
13.5348 -1.75786 -2.65299 4.77471e-05 4
9.82432 -1.2411 -2.65334 0.000310327 4
11.4183 -1.44247 -2.65707 0.000136176 4
13.5476 -1.71145 -2.65431 9.26835e-05 4
9.82805 -1.20673 -2.65319 0.000385914 4
11.4097 -1.40093 -2.65391 0.000222829 4
16.6271 -2.04155 -2.65324 5.01096e-05 4
9.83745 -1.17304 -2.65461 0.000107418 4
13.5668 -1.61774 -2.65579 3.37016e-05 4
16.6546 -1.98594 -2.65652 6.05474e-05 4
9.8434 -1.13892 -2.65513 6.36539e-05 4
11.4207 -1.32142 -2.65426 0.000203015 4
16.6612 -1.92777 -2.65648 4.38434e-05 4
9.84359 -1.10414 -2.65412 0.000214829 4
11.4201 -1.28097 -2.65307 0.00016835 4
13.5787 -1.5231 -2.65599 5.89751e-05 4
9.85055 -1.07011 -2.65498 0.000250629 4
11.4381 -1.24258 -2.65624 0.000220337 4
13.5649 -1.47363 -2.65227 5.19531e-05 4
16.6499 -1.80876 -2.65259 3.34026e-05 4
21.4892 -2.33448 -2.65407 3.8699e-05 4
9.8531 -1.0356 -2.65467 0.000210844 4
11.4327 -1.20163 -2.654 3.21835e-05 4
13.5751 -1.4268 -2.65327 9.40752e-05 4
9.86928 -1.00249 -2.65807 9.9453e-05 4
11.4273 -1.16075 -2.65178 0.000173292 4
13.5743 -1.37882 -2.65215 7.58201e-05 4
16.6628 -1.69255 -2.65271 4.03592e-05 4
9.86732 -0.9675 -2.65662 0.000171057 4
11.434 -1.12112 -2.65241 0.000138631 4
13.5832 -1.33184 -2.65296 0.000137596 4
16.694 -1.63686 -2.65675 4.94038e-05 4
9.87188 -0.933168 -2.65695 5.1714e-05 4
11.4408 -1.08147 -2.65308 0.000138629 4
13.6012 -1.2857 -2.6556 0.00017129 4
16.6963 -1.57826 -2.65622 5.77521e-05 4
9.85941 -0.897276 -2.65274 0.000198897 4
11.4407 -1.04119 -2.65222 0.000165856 4
13.6064 -1.23828 -2.65576 5.19473e-05 4
16.6837 -1.51834 -2.65337 3.33979e-05 4
9.87815 -0.864229 -2.65695 0.000167071 4
11.4619 -1.00279 -2.65629 0.000212886 4
13.6171 -1.19134 -2.657 4.77343e-05 4
9.86302 -0.828223 -2.65209 0.000441537 4
11.4489 -0.961396 -2.6525 9.65397e-05 4
13.6203 -1.14373 -2.65683 0.000113717 4
16.7073 -1.40296 -2.6555 5.07898e-05 4
9.88479 -0.795313 -2.65718 0.000163088 4
11.4499 -0.921241 -2.65197 0.000131193 4
13.6188 -1.09575 -2.65579 9.82721e-05 4
9.86681 -0.759211 -2.65162 0.00022275 4
11.4499 -0.881024 -2.65123 0.000158418 4
13.6285 -1.04866 -2.65694 7.15966e-05 4
21.553 -1.65842 -2.6542 3.11712e-05 4
9.86902 -0.724737 -2.65152 0.000186948 4
11.4662 -0.842025 -2.6543 0.000242574 4
13.6306 -1.00097 -2.65665 7.58065e-05 4
16.7197 -1.22782 -2.65527 4.38285e-05 4
9.87081 -0.690235 -2.65134 0.000238654 4
11.4764 -0.80251 -2.65601 9.40575e-05 4
13.6369 -0.953586 -2.65722 5.61517e-05 4
16.7109 -1.16854 -2.65321 3.54793e-05 4
9.88376 -0.656479 -2.65418 0.00014319 4
11.4687 -0.761754 -2.6536 0.000118807 4
13.629 -0.905238 -2.65505 6.17655e-05 4
16.7338 -1.11146 -2.65621 5.84347e-05 4
9.88852 -0.622133 -2.65486 0.000258533 4
11.4609 -0.721061 -2.6512 0.000131181 4
13.6357 -0.857887 -2.65576 8.28201e-05 4
16.716 -1.05168 -2.65278 4.38248e-05 4
9.87971 -0.586963 -2.65193 0.000338077 4
13.626 -0.809532 -2.65329 6.59739e-05 4
16.7196 -0.993329 -2.6528 3.33894e-05 4
9.89938 -0.553464 -2.65667 0.000361936 4
11.4843 -0.642077 -2.65551 7.17754e-05 4
13.6225 -0.761617 -2.65208 3.50917e-05 4
9.89818 -0.518744 -2.65585 0.000190908 4
11.4676 -0.600992 -2.65113 5.19743e-05 4
13.6465 -0.715183 -2.65624 5.89527e-05 4
9.88138 -0.483282 -2.65087 0.000246586 4
11.4917 -0.562037 -2.65623 0.000128696 4
13.6348 -0.666854 -2.6535 6.17586e-05 4
9.90863 -0.44995 -2.65775 0.000163062 4
11.4876 -0.521652 -2.65486 0.000126219 4
13.6296 -0.618918 -2.65206 0.00021194 4
16.7431 -0.760302 -2.65458 4.72963e-05 4
9.88521 -0.414314 -2.65106 0.000445431 4
11.4959 -0.48182 -2.65636 0.000121267 4
13.6408 -0.571719 -2.65383 8.14055e-05 4
16.7578 -0.702362 -2.65651 0.000109196 4
21.6091 -0.905692 -2.65559 3.1994e-05 4
9.89769 -0.380231 -2.65403 0.000131241 4
11.4988 -0.441739 -2.65666 9.89915e-05 4
13.6544 -0.524549 -2.6561 0.000164211 4
16.7599 -0.643852 -2.65647 2.92108e-05 4
9.90843 -0.346011 -2.65658 0.000159078 4
11.4767 -0.400776 -2.65122 0.000212828 4
13.6432 -0.476433 -2.65359 9.68402e-05 4
16.7474 -0.584834 -2.65415 3.68602e-05 4
21.6149 -0.754809 -2.65559 3.14352e-05 4
9.90903 -0.311404 -2.65643 0.000318151 4
11.4906 -0.361107 -2.65412 9.65132e-05 4
13.6493 -0.428946 -2.65446 8.56104e-05 4
16.7428 -0.526165 -2.65312 3.54683e-05 4
9.88952 -0.276242 -2.65092 0.000139189 4
11.4949 -0.321086 -2.65485 0.000257364 4
13.6494 -0.381264 -2.6542 3.78923e-05 4
9.91372 -0.242288 -2.65717 0.000349955 4
11.5055 -0.28119 -2.65704 0.000197968 4
13.6416 -0.333396 -2.65245 7.57829e-05 4
16.7588 -0.40958 -2.65513 4.6593e-05 4
9.90136 -0.207406 -2.65364 0.000516971 4
11.4826 -0.240528 -2.65155 0.000230134 4
13.6562 -0.286059 -2.65508 6.17477e-05 4
16.77 -0.351285 -2.65669 9.10971e-05 4
9.89976 -0.172802 -2.65304 0.000123276 4
11.4958 -0.200662 -2.65443 7.91845e-05 4
13.6649 -0.238523 -2.65659 4.49064e-05 4
9.90521 -0.138313 -2.65435 0.000310173 4
11.5055 -0.160659 -2.65651 0.000215279 4
13.6565 -0.190694 -2.65481 7.85845e-05 4
16.769 -0.234156 -2.6562 3.19865e-05 4
9.9134 -0.103818 -2.65643 7.95302e-05 4
11.5057 -0.120493 -2.65645 5.93862e-05 4
13.6495 -0.142943 -2.65333 0.000109455 4
16.7605 -0.175524 -2.65475 4.79784e-05 4
30.589 -0.320341 -2.67634 2.92984e-05 4
51.5483 -0.539836 -0.899828 3.1443e-05 10
51.5353 -0.539701 0.899601 3.14414e-05 10
9.91909 -0.06925 -2.65788 0.000131223 4
11.4939 -0.0802443 -2.65363 0.000145988 4
13.6609 -0.0953731 -2.65547 7.99843e-05 4
30.842 -0.215323 -2.69839 2.89722e-05 4
9.89711 -0.0345479 -2.65194 0.000206772 4
11.4923 -0.0401163 -2.65323 0.000116294 4
13.6562 -0.0476697 -2.65451 4.06928e-05 4
9.89639 0 -2.65173 0.000516923 4
11.4883 0 -2.65229 0.000118766 4
16.7557 0 -2.65385 5.70131e-05 4
21.6324 0 -2.65613 5.0611e-05 4
51.6581 0 -0.901695 3.46931e-05 10
51.6637 0 0.901793 3.46946e-05 10
9.91725 0.0346158 -2.65734 0.000238576 4
11.5003 0.0401414 -2.65507 0.000148455 4
13.6646 0.0476957 -2.65614 6.17382e-05 4
21.6391 0.0755304 -2.65696 5.17214e-05 4
9.90534 0.0691516 -2.65419 9.54289e-05 4
11.5052 0.0803206 -2.65625 5.93808e-05 4
13.6495 0.0952904 -2.65325 0.000130489 4
16.7512 0.116944 -2.65319 3.75431e-05 4
9.89713 0.103645 -2.65207 0.000310139 4
11.4968 0.120397 -2.6544 9.40179e-05 4
