VERSION 0.7
FIELDS x y z intensity label
SIZE 4 4 4 4 4
TYPE F F F F F
COUNT 1 1 1 1 1
WIDTH 1141
HEIGHT 1
VIEWPOINT 0.0593302 3.91497 2.72923 0.728841 0.000401709 0.000274409 -0.684683
POINTS 1141
DATA ascii
-21.6333 -18.8055 7.6806 0.000190815 10
-7.46228 -6.53273 -2.65746 0.000102929 4
-8.91006 -7.80017 -2.73393 0.000378296 1
-10.1034 -8.84482 -2.61012 0.000404212 4
-13.0156 -11.3943 -2.73981 0.000105342 1
-16.8037 -14.7105 -2.74215 4.17648e-05 1
-21.5006 -18.8224 -2.50003 0.000280835 10
-21.5076 -18.8285 -1.49807 0.000283594 10
-21.5123 -18.8326 -0.499058 0.000284986 10
-21.496 -18.8183 0.49868 0.000284995 10
-21.5004 -18.8222 1.49756 0.000221142 10
-21.493 -18.8157 2.49915 0.000219003 10
-21.4916 -18.8145 3.50715 0.000215822 10
-21.5004 -18.8222 4.52588 0.000211634 10
-21.4962 -18.8185 5.55338 0.000206486 10
-21.4912 -18.8141 6.59429 0.000200434 10
-21.4941 -18.8166 7.65444 0.000193547 10
-7.43202 -6.5522 -2.65481 0.000126686 4
-8.889 -7.83671 -2.73584 0.000378312 1
-10.1133 -8.91606 -2.62071 0.000530012 4
-12.9796 -11.4431 -2.74062 0.000105349 1
-16.7442 -14.762 -2.74084 4.17684e-05 1
-20.9885 -18.5038 -2.44798 0.000300538 10
-20.9886 -18.5039 -1.4664 0.000303475 10
-20.9855 -18.5012 -0.488333 0.000305172 10
-21.3685 -18.8389 0.497244 0.000289008 10
-20.98 -18.4963 1.4658 0.000236709 10
-20.9899 -18.5051 2.44815 0.00023438 10
-20.9849 -18.5007 3.43499 0.000230942 10
-21.3598 -18.8312 4.51008 0.000214623 10
-20.9803 -18.4966 5.43673 0.000220904 10
-20.9912 -18.5063 6.46065 0.000214415 10
-21.3581 -18.8297 7.6294 0.000196296 10
-8.85802 -7.86451 -2.73474 0.000378327 1
-10.1029 -8.96976 -2.62611 0.000591454 4
-12.9384 -11.4872 -2.74036 0.000105355 1
-16.7033 -14.8299 -2.7426 4.17719e-05 1
-20.9772 -18.6244 -2.45422 0.000296724 10
-20.9823 -18.6289 -1.4705 0.000299563 10
-20.9875 -18.6335 -0.489888 0.00030096 10
-21.223 -18.8426 0.495386 0.000293045 10
-20.9889 -18.6348 1.47096 0.000233438 10
-20.9928 -18.6383 2.45605 0.000231142 10
-21.0007 -18.6453 3.44821 0.000227748 10
-21.23 -18.8489 4.49655 0.00021763 10
-21.0045 -18.6487 5.45984 0.00021784 10
-21 -18.6446 6.48333 0.000211435 10
-21.2186 -18.8387 7.603 0.000199062 10
-7.40358 -6.61956 -2.6611 0.000118777 4
-8.82472 -7.89021 -2.73295 0.000378342 1
-10.1061 -9.03592 -2.63514 0.00076861 4
-12.9001 -11.5341 -2.74077 0.000105362 1
-16.6387 -14.8767 -2.7405 4.17755e-05 1
-20.9956 -18.7722 -2.46403 0.000292592 10
-20.9912 -18.7683 -1.4757 0.000295391 10
-21.0043 -18.78 -0.491808 0.000296773 10
-21.075 -18.8432 0.493463 0.000297107 10
-20.9975 -18.7739 1.47615 0.000230189 10
-20.9962 -18.7728 2.4641 0.00022792 10
-21.0025 -18.7784 3.45925 0.000224573 10
-21.0909 -18.8575 4.481 0.000220656 10
-21.0034 -18.7792 5.47657 0.000214795 10
-21.0111 -18.7861 6.50697 0.000208474 10
-20.703 -18.5106 7.44137 0.000213095 10
-7.36684 -6.63313 -2.6562 0.00024548 4
-8.80603 -7.92898 -2.73571 0.000378358 1
-10.1048 -9.09844 -2.64307 0.000569224 4
-12.8532 -11.5731 -2.73937 0.000105368 1
-16.6007 -14.9473 -2.74281 4.17791e-05 1
-20.9724 -18.8836 -2.46903 0.000289756 10
-20.9818 -18.8921 -1.47967 0.000292529 10
-20.9698 -18.8813 -0.492541 0.000293895 10
-20.9523 -18.8656 0.49213 0.000301192 10
-20.9767 -18.8875 1.47931 0.000145524 10
-20.9694 -18.8809 2.46867 0.000144089 10
-20.9824 -18.8927 3.46678 0.000141971 10
-20.9542 -18.8672 4.46591 0.000223699 10
-20.9891 -18.8987 5.49 0.000135786 10
-20.986 -18.8959 6.5196 0.000131787 10
-20.5675 -18.519 7.41584 0.000216037 10
-7.35588 -6.6699 -2.66062 0.000170258 4
-8.76586 -7.94839 -2.73184 0.000100624 4
-10.1053 -9.16294 -2.65154 0.000623102 4
-12.7993 -11.6057 -2.73649 0.000105375 1
-16.5453 -15.0024 -2.7423 4.17826e-05 1
-20.8024 -18.8625 0.490153 0.000305302 10
-20.8095 -18.8689 4.44908 0.000226761 10
-20.4368 -18.531 7.392 0.000218997 10
-7.33108 -6.6942 -2.66009 7.12734e-05 4
-8.71218 -7.95531 -2.72375 0.00013007 4
-10.1117 -9.23329 -2.66167 0.000665879 4
-12.7625 -11.6538 -2.73731 0.000105382 1
-16.4808 -15.049 -2.7403 4.17862e-05 1
-20.6647 -18.8694 0.488456 0.000309434 10
-20.6656 -18.8703 4.43238 0.000229839 10
-20.2949 -18.5318 7.36403 0.000221973 10
-7.29116 -6.70456 -2.65408 0.000296983 4
-8.63114 -7.93673 -2.70705 9.98998e-05 4
-10.0769 -9.26617 -2.66099 0.00021186 4
-12.7234 -11.6997 -2.73766 0.000105389 1
-16.442 -15.1192 -2.74261 4.17898e-05 1
-20.5399 -18.8874 0.487061 0.00031359 10
-20.5268 -18.8754 4.41672 0.000232935 10
-20.1775 -18.5542 7.34488 0.000224966 10
-7.26983 -6.73193 -2.65485 0.000150477 4
-8.55776 -7.92457 -2.6927 0.000142546 4
-10.0386 -9.29582 -2.65943 8.22391e-05 4
-12.6782 -11.7401 -2.73674 0.000105395 1
-16.383 -15.1708 -2.74158 4.17934e-05 1
-20.3984 -18.8891 0.485268 0.000317769 10
-20.4006 -18.8912 4.40372 0.000236049 10
-20.0823 -18.5964 7.33381 8.39154e-05 10
-7.25971 -6.76979 -2.65977 0.000130682 4
-8.49713 -7.9237 -2.68231 0.000140693 4
-10.0019 -9.32694 -2.65833 0.000171456 4
-11.7699 -10.9756 -2.54892 0.000110204 4
-16.3343 -15.232 -2.74231 4.1797e-05 1
-20.2728 -18.9047 0.483846 0.00032197 10
-20.2708 -18.9029 4.38992 0.000239179 10
-20.0293 -18.6777 7.33823 8.39119e-05 10
-7.2192 -6.77928 -2.65358 0.000514824 4
-8.42182 -7.90861 -2.66723 0.000126029 4
-9.98101 -9.37279 -2.66145 0.000132432 4
-11.7356 -11.0205 -2.54982 8.09242e-05 4
-16.2829 -15.2906 -2.74262 4.18006e-05 1
-20.1418 -18.9145 0.482294 0.000326194 10
-20.1278 -18.9013 4.37321 0.000242326 10
-19.952 -18.7361 7.3338 8.39084e-05 10
-7.19585 -6.80478 -2.65372 0.000407914 4
-8.35762 -7.9034 -2.65562 0.000128014 4
-9.93418 -9.39428 -2.65769 0.00017705 4
-11.6974 -11.0617 -2.5499 0.000114072 4
-16.2225 -15.3409 -2.74146 4.18043e-05 1
-20.0867 -18.995 -2.41869 0.000300673 10
-20.089 -18.9972 -1.44902 0.000303534 10
-20.0745 -18.9835 -0.482266 0.000304943 10
-19.9971 -18.9103 0.480406 0.000330439 10
-20.089 -18.9972 1.44902 0.000150997 10
-20.0773 -18.9862 2.41756 0.000149515 10
-20.0847 -18.9931 3.39413 0.000147327 10
-20.0007 -18.9137 4.35992 0.000245489 10
-19.9005 -18.8189 7.33897 8.39049e-05 10
-7.18744 -6.84451 -2.65941 0.00025347 4
-9.91156 -9.43865 -2.66043 6.13432e-05 4
-11.6434 -11.0879 -2.54654 0.000107913 4
-16.1568 -15.3859 -2.73942 4.18079e-05 1
-19.8836 -18.9349 0.479264 0.000334707 10
-19.869 -18.921 4.34558 0.000248669 10
-19.8291 -18.883 7.33693 8.39014e-05 10
-7.16196 -6.86807 -2.65884 0.000241597 4
-8.31324 -7.9721 -2.65914 0.000539183 4
-9.87217 -9.46707 -2.65872 0.000156154 4
-11.6066 -11.1303 -2.54697 0.000106378 4
-16.1048 -15.4439 -2.73972 4.18116e-05 1
-19.747 -18.9367 0.477562 0.000338996 10
-19.7401 -18.9301 4.3318 0.000251864 10
-19.7473 -18.937 7.33108 0.000147185 10
-7.13748 -6.89258 -2.65866 0.000261409 4
-8.28393 -7.9997 -2.65868 0.000477652 4
-9.8437 -9.50595 -2.65997 5.0195e-05 4
-11.5681 -11.1712 -2.54706 0.000100988 4
-16.067 -15.5157 -2.74248 4.18152e-05 1
-19.6169 -18.9438 0.476011 0.000343305 10
-19.6112 -18.9383 4.31799 0.000255076 10
-19.6078 -18.935 7.30376 5.42133e-05 10
-7.11095 -6.91509 -2.65775 0.000126748 4
-8.24587 -8.01876 -2.65543 0.000509681 4
-9.38941 -9.13079 -2.54581 0.000197122 4
-11.5297 -11.2121 -2.5472 0.000102537 4
-16.0042 -15.5634 -2.74103 4.18189e-05 1
-19.1387 -18.6116 -2.33561 0.000361276 10
-19.1461 -18.6188 -1.39963 0.000364766 10
-19.1377 -18.6106 -0.465958 0.000366526 10
-19.1477 -18.6203 0.466201 0.000366537 10
-19.129 -18.6021 1.39837 0.000284437 10
-19.1322 -18.6052 2.3348 0.00028173 10
-19.1313 -18.6044 3.2766 0.000277704 10
-19.4925 -18.9556 4.30641 0.000258303 10
-19.1339 -18.6069 5.18788 0.000265884 10
-19.1391 -18.6119 6.16339 0.000258219 10
-19.1423 -18.6151 7.15455 0.000249492 10
-7.08961 -6.94266 -2.65882 0.000170324 4
-8.2211 -8.05069 -2.65649 0.000472768 4
-9.35668 -9.16274 -2.54559 0.00020955 4
-11.484 -11.246 -2.54578 0.000104856 4
-15.9519 -15.6212 -2.74138 4.18225e-05 1
-19.0706 -18.6753 -2.33523 0.000327019 10
-19.0678 -18.6726 -1.39866 0.000330104 10
-19.0614 -18.6663 -0.465683 0.000331622 10
-19.061 -18.6659 0.465672 0.000331557 10
-19.0725 -18.6772 1.399 0.000257234 10
-19.0778 -18.6824 2.33612 0.000254729 10
-19.0638 -18.6686 3.27618 0.000251032 10
-19.3539 -18.9527 4.29037 0.000261545 10
-19.0647 -18.6695 5.18676 0.000240236 10
-19.078 -18.6826 6.1647 0.000233255 10
-19.0846 -18.689 7.1573 0.000225317 10
-7.06509 -6.96713 -2.65873 8.31846e-05 4
-8.19331 -8.0797 -2.65661 0.000458013 4
-9.33064 -9.20125 -2.54723 0.000206456 4
-11.4431 -11.2845 -2.54543 0.000100237 4
-15.8983 -15.6778 -2.74156 4.18262e-05 1
-19.0728 -18.8084 -2.34354 0.000322062 10
-19.0836 -18.819 -1.40462 0.000325102 10
-19.0833 -18.8187 -0.46782 0.000326599 10
-19.0687 -18.8043 0.467462 0.000326534 10
-19.0741 -18.8096 1.40392 0.000253336 10
-19.0868 -18.8221 2.34525 0.000250866 10
-19.0783 -18.8137 3.28993 0.000247222 10
-19.2344 -18.9677 4.27854 0.000264803 10
-19.0916 -18.8269 5.21194 0.00023658 10
-19.0929 -18.8282 6.19071 0.000229699 10
-19.0873 -18.8227 7.18293 0.000221874 10
-7.03432 -6.98538 -2.65631 0.000233717 4
-8.16759 -8.11076 -2.65743 0.000502358 4
-9.28404 -9.21945 -2.54328 0.000229753 4
-11.42 -11.3406 -2.54908 9.40743e-05 4
-15.8269 -15.7168 -2.73869 4.18299e-05 1
-19.0916 -18.9588 -2.35396 0.00031714 10
-19.083 -18.9502 -1.40944 0.000320137 10
-19.0772 -18.9445 -0.46929 0.000321611 10
-19.0891 -18.9563 0.469582 0.000321548 10
-19.0909 -18.958 1.41002 0.000249466 10
-19.087 -18.9542 2.35338 0.000247032 10
-19.0809 -18.9481 3.30176 0.000243439 10
-19.1162 -18.9832 4.26696 0.000268075 10
-19.0907 -18.9579 5.22972 0.00023295 10
-19.0898 -18.957 6.21113 0.000226168 10
-19.1015 -18.9686 7.21314 0.000218457 10
-7.00681 -7.00681 -2.65514 0.000174304 4
-8.13722 -8.13722 -2.65678 0.000524543 4
-9.26942 -9.26942 -2.54812 0.000472581 4
-11.3655 -11.3655 -2.54575 0.000110274 4
-15.7878 -15.7878 -2.74144 4.18336e-05 1
-18.9771 -18.9771 -2.34799 0.000359912 10
-18.9759 -18.9759 -1.40642 0.000363394 10
-18.9906 -18.9906 -0.468788 0.00036515 10
-18.9722 -18.9722 0.468333 0.00036516 10
-18.9888 -18.9888 1.40737 0.000283366 10
-18.9802 -18.9802 2.34837 0.000280667 10
-18.9878 -18.9878 3.29711 0.000276651 10
-18.9805 -18.9805 4.25142 0.000271362 10
-18.9705 -18.9705 5.21491 0.00026486 10
-18.9901 -18.9901 6.2002 0.000257214 10
-18.9718 -18.9718 7.18911 0.000248509 10
-6.98636 -7.0353 -2.65668 4.35776e-05 4
-8.10544 -8.16222 -2.65569 7.8808e-05 4
-9.28629 -9.35135 -2.56172 0.000564384 4
-11.3334 -11.4127 -2.54746 0.000100256 4
-15.7234 -15.8336 -2.73985 4.18373e-05 1
-18.848 -18.98 -2.3402 0.000364282 10
-18.8488 -18.9808 -1.4019 0.000367804 10
-18.8613 -18.9935 -0.46723 0.000369579 10
-18.8651 -18.9973 0.467323 0.000369589 10
-18.8665 -18.9987 1.40321 0.000286805 10
-18.8517 -18.9838 2.34066 0.000284074 10
-18.8485 -18.9805 3.2844 0.000280012 10
-18.8527 -18.9848 4.23762 0.000274664 10
-18.8653 -18.9975 5.20418 0.000268087 10
-18.8641 -18.9962 6.18067 0.000260353 10
-18.8582 -18.9903 7.17116 0.000251549 10
-6.96504 -7.06297 -2.65793 0.000186202 4
-8.0789 -8.1925 -2.65635 7.63484e-05 4
-9.27368 -9.40408 -2.56728 0.000766302 4
-11.3002 -11.4591 -2.54899 9.02363e-05 4
-15.6809 -15.9014 -2.74209 4.1841e-05 1
-18.7341 -18.9975 -2.33428 0.000368671 10
-18.7279 -18.9913 -1.39783 0.000372232 10
-18.7418 -19.0053 -0.465909 0.000374028 10
-18.7402 -19.0037 0.465868 0.000374038 10
-18.7341 -18.9975 1.39829 0.000290258 10
-18.7398 -19.0033 2.33499 0.000287497 10
-18.7419 -19.0055 3.27738 0.000283389 10
-18.7302 -18.9935 4.22496 0.000277979 10
-18.7259 -18.9892 5.18399 0.000271328 10
-18.7356 -18.999 6.16026 0.000263507 10
-18.7269 -18.9902 7.14638 0.000254602 10
-6.94377 -7.09075 -2.65925 7.92376e-05 4
-8.05371 -8.22418 -2.65749 0.00017487 4
-9.27683 -9.47319 -2.57729 0.000788379 4
-11.2492 -11.4873 -2.5465 0.00010644 4
-15.6121 -15.9425 -2.73977 4.18448e-05 1
-18.6202 -19.0143 -2.32834 0.000373078 10
-18.6086 -19.0025 -1.39387 0.000376679 10
-18.6075 -19.0014 -0.464218 0.000378495 10
-18.6114 -19.0053 0.464312 0.000378505 10
-18.6134 -19.0074 1.39423 0.000293725 10
-18.6082 -19.0021 2.32684 0.000290933 10
-18.6074 -19.0012 3.26543 0.000286779 10
-18.6108 -19.0047 4.21297 0.000281309 10
-18.6157 -19.0097 5.17181 0.000274582 10
-18.6153 -19.0093 6.14249 0.000266673 10
-18.6019 -18.9956 7.12395 0.000257667 10
-6.91295 -7.10874 -2.65693 0.000158481 4
-8.02311 -8.25034 -2.65687 0.00012069 4
-9.28371 -9.54665 -2.58844 0.000799253 4
-11.2198 -11.5376 -2.54896 0.000104904 4
-15.5536 -15.9941 -2.73929 4.18485e-05 1
-18.4808 -19.0043 -2.3192 0.000377503 10
-18.4852 -19.0087 -1.38958 0.000381144 10
-18.4904 -19.0141 -0.462949 0.00038298 10
-18.4965 -19.0204 0.4631 0.000382991 10
-18.4928 -19.0166 1.39015 0.000297207 10
-18.4914 -19.0151 2.32052 0.000294383 10
-18.4817 -19.0051 3.25499 0.000290183 10
-18.4957 -19.0195 4.20191 0.000284652 10
-18.4878 -19.0114 5.15467 0.00027785 10
-18.4832 -19.0066 6.12075 0.000269852 10
-18.4906 -19.0143 7.10669 0.000260746 10
-6.89349 -7.13842 -2.65901 0.000202071 4
-8.00263 -8.28696 -2.65966 0.000120695 4
-9.27545 -9.60501 -2.59547 0.000598212 4
-11.1804 -11.5776 -2.54916 7.48259e-05 4
-15.4934 -16.0438 -2.73853 4.18522e-05 1
-18.37 -19.0227 -2.3136 0.000381945 10
-18.3764 -19.0293 -1.38639 0.000385627 10
-18.3735 -19.0263 -0.46168 0.000387483 10
-18.3607 -19.0131 0.46136 0.000387494 10
-18.3751 -19.0279 1.38629 0.000300702 10
-18.3573 -19.0095 2.31201 0.000297848 10
-18.3597 -19.012 3.24517 0.000293601 10
-18.3761 -19.029 4.18982 0.000288008 10
-18.3588 -19.0111 5.13719 0.000281131 10
-18.3731 -19.0259 6.10627 0.000273045 10
-18.3741 -19.0269 7.0874 0.000263837 10
-6.86331 -7.157 -2.65699 0.000118869 4
-7.97044 -8.3115 -2.65859 6.15819e-05 4
-9.27862 -9.67566 -2.60579 0.000671946 4
-11.1273 -11.6034 -2.54628 9.79743e-05 4
-15.4417 -16.1025 -2.73932 4.1856e-05 1
-18.2482 -19.0291 -2.30662 0.000386405 10
-18.2403 -19.0208 -1.38112 0.000390127 10
-18.2426 -19.0233 -0.460059 0.000392004 10
-18.243 -19.0236 0.460067 0.000392014 10
-18.243 -19.0237 1.38133 0.000304212 10
-18.2382 -19.0186 2.30536 0.000301325 10
-18.2475 -19.0283 3.23707 0.000297032 10
-18.2546 -19.0357 4.17724 0.000291378 10
-18.2424 -19.023 5.12316 0.000284425 10
-18.2463 -19.0271 6.08617 0.00027625 10
-18.2555 -19.0367 7.06727 0.00026694 10
-6.84262 -7.18546 -2.65867 0.00024171 4
-7.94425 -8.34229 -2.65955 6.89747e-05 4
-9.28895 -9.75435 -2.61824 0.000628049 4
-11.0853 -11.6408 -2.54596 9.72093e-05 4
-15.3942 -16.1655 -2.74089 4.18597e-05 1
-18.1354 -19.0441 -2.30075 0.000390882 10
-18.1213 -19.0293 -1.37713 0.000394644 10
-18.1279 -19.0362 -0.458839 0.000396541 10
-18.1335 -19.0421 0.45898 0.000396552 10
-18.1345 -19.0431 1.37814 0.000307734 10
-18.1245 -19.0326 2.29936 0.000304816 10
-18.1198 -19.0277 3.22617 0.000300476 10
-18.1298 -19.0382 4.16387 0.00029476 10
-18.1337 -19.0423 5.11128 0.000287732 10
-18.126 -19.0342 6.06815 0.000279467 10
-18.1313 -19.0398 7.04486 0.000270055 10
-6.80486 -7.19594 -2.65375 0.00018228 4
-7.91469 -8.36955 -2.65941 0.000123174 4
-9.28747 -9.82122 -2.62747 0.00070909 4
-11.0588 -11.6944 -2.54923 8.02415e-05 4
-15.3226 -16.2032 -2.7382 4.18635e-05 1
-18.0019 -19.0365 -2.29223 0.000395375 10
-17.9978 -19.0322 -1.37279 0.000399178 10
-18.0043 -19.039 -0.457389 0.000401096 10
-17.9977 -19.032 0.45722 0.000401106 10
-18.0115 -19.0466 1.37383 0.000311269 10
-18.0143 -19.0496 2.29381 0.00030832 10
-18.0125 -19.0476 3.21888 0.000303933 10
-18.0114 -19.0465 4.15191 0.000298155 10
-18.0074 -19.0423 5.09438 0.00029105 10
-18.0147 -19.05 6.05311 0.000282696 10
-18.0113 -19.0464 7.02401 0.000273182 10
-6.78851 -7.22903 -2.6572 0.000162473 4
-7.88453 -8.39618 -2.65911 0.00012318 4
-9.29421 -9.89733 -2.63913 0.000596988 4
-11.0041 -11.7182 -2.54603 8.41048e-05 4
-15.2774 -16.2688 -2.74025 4.18673e-05 1
-17.9507 -19.1156 -2.29419 0.000327812 10
-17.9431 -19.1075 -1.3737 0.000330888 10
-17.951 -19.1159 -0.457728 0.000332401 10
-17.96 -19.1255 0.457957 0.000332332 10
-17.948 -19.1126 1.37407 0.000257838 10
-17.9601 -19.1256 2.2954 0.000255335 10
-17.957 -19.1223 3.22088 0.000251642 10
-17.9535 -19.1186 4.15393 0.000246799 10
-17.9505 -19.1154 5.09713 0.000240858 10
-17.9592 -19.1247 6.05688 0.000233886 10
-17.9627 -19.1283 7.03106 0.000225956 10
-6.75812 -7.2472 -2.65519 0.000313068 4
-7.84485 -8.41257 -2.65562 0.000145358 4
-9.27942 -9.95096 -2.64478 0.000647007 4
-10.9778 -11.7722 -2.54943 0.000109575 4
-15.2171 -16.3183 -2.73963 4.1871e-05 1
-17.9538 -19.253 -2.30316 0.000322428 10
-17.954 -19.2533 -1.37967 0.000325457 10
-17.956 -19.2555 -0.459566 0.000326945 10
-17.9686 -19.2689 0.459887 0.000326878 10
-17.9637 -19.2638 1.38041 0.000253605 10
-17.9745 -19.2753 2.30582 0.00025114 10
-17.9592 -19.2589 3.23331 0.000247504 10
-17.9567 -19.2562 4.17019 0.000242735 10
-17.9703 -19.2708 5.12182 0.000236887 10
-17.9738 -19.2745 6.08444 0.000230022 10
-17.9723 -19.2729 7.06111 0.000222216 10
-6.72766 -7.2652 -2.65316 0.000217967 4
-7.81272 -8.43696 -2.65469 0.000140437 4
-9.28252 -10.0242 -2.65562 0.000633596 4
-10.9341 -11.8077 -2.54884 0.000107267 4
-15.1634 -16.3749 -2.74023 4.18748e-05 1
-17.963 -19.3983 -2.31302 0.00031709 10
-17.96 -19.395 -1.38532 0.000320071 10
-17.9669 -19.4025 -0.461576 0.000321536 10
-17.9765 -19.4129 0.461823 0.00032147 10
-17.9682 -19.4039 1.38595 0.000249408 10
-17.9756 -19.4119 2.31464 0.000246981 10
-17.9788 -19.4153 3.24901 0.000243401 10
-17.9696 -19.4054 4.18889 0.000238707 10
-17.9864 -19.4235 5.14569 0.00023295 10
-17.982 -19.4188 6.11011 0.000226192 10
-17.9713 -19.4073 7.0873 0.000218508 10
-6.7167 -7.30435 -2.65888 0.000166454 4
-7.797 -8.47917 -2.65939 9.60926e-05 4
-9.28043 -10.0924 -2.66509 0.000686162 4
-10.8893 -11.842 -2.54803 0.000104959 4
-15.094 -16.4146 -2.73803 4.18786e-05 1
-17.9682 -19.5403 -2.32246 0.000311798 10
-17.9876 -19.5613 -1.39271 0.000314732 10
-17.9819 -19.5552 -0.463712 0.000316174 10
-17.9863 -19.5599 0.463825 0.000316108 10
-17.9783 -19.5513 1.39199 0.000245246 10
-17.9842 -19.5576 2.32452 0.000242858 10
-17.9846 -19.5581 3.26239 0.000239333 10
-17.981 -19.5542 4.20744 0.000234713 10
-17.9766 -19.5495 5.1624 0.000229046 10
-17.9862 -19.5598 6.1347 0.000222395 10
-17.9862 -19.5599 7.12006 0.000214832 10
-6.68685 -7.32303 -2.65717 0.000186277 4
-7.76873 -8.50784 -2.65986 0.000216834 4
-9.29446 -10.1787 -2.6793 0.000468237 4
-10.8339 -11.8646 -2.54474 9.10733e-05 4
-15.0455 -16.4769 -2.73965 4.18825e-05 1
-17.9896 -19.7011 -2.33409 0.000306551 10
-17.9832 -19.6941 -1.39768 0.000309439 10
-17.9906 -19.7022 -0.465706 0.000310857 10
-17.9924 -19.7041 0.465752 0.000310792 10
-17.9838 -19.6948 1.39773 0.000241121 10
-17.9921 -19.7038 2.33442 0.00023877 10
-17.9854 -19.6965 3.27498 0.000235301 10
-17.9843 -19.6953 4.22427 0.000230754 10
-17.9961 -19.7083 5.18772 0.000225177 10
-17.9993 -19.7117 6.16261 0.000218631 10
-17.9905 -19.7021 7.14891 0.000211188 10
-6.65462 -7.33902 -2.65452 0.000360676 4
-7.73378 -8.52917 -2.65807 7.39238e-05 4
-9.3005 -10.257 -2.69135 0.000836803 4
-10.7951 -11.9054 -2.54538 0.000128129 4
-14.9816 -16.5225 -2.73851 4.18863e-05 1
-18.0042 -19.8559 -2.34497 0.000301351 10
-17.9975 -19.8484 -1.40417 0.000304192 10
-18.0086 -19.8607 -0.467964 0.000305588 10
-17.9934 -19.8439 0.467569 0.000305524 10
-18.0054 -19.8572 1.40479 0.000237032 10
-17.9994 -19.8506 2.34434 0.000234718 10
-18.0013 -19.8526 3.29047 0.000231305 10
-18.0134 -19.866 4.24735 0.00022683 10
-18.0143 -19.867 5.21292 0.000221342 10
-17.9986 -19.8497 6.18608 0.000214901 10
-18.0069 -19.8588 7.18295 0.000207577 10
-6.63863 -7.37295 -2.6584 0.000253672 4
-7.70173 -8.55363 -2.6573 5.42132e-05 4
-9.28735 -10.3146 -2.69795 0.000599801 4
-10.7625 -11.953 -2.54751 9.80327e-05 4
-14.9377 -16.59 -2.74104 4.18901e-05 1
-18.013 -20.0054 -2.35519 0.000296198 10
-18.0119 -20.0043 -1.41073 0.000298993 10
-17.9986 -19.9894 -0.469514 0.000300366 10
-18.0147 -20.0073 0.469934 0.000300303 10
-18.0054 -19.997 1.41022 0.00023298 10
-18.0184 -20.0115 2.35591 0.000230703 10
-18.0142 -20.0068 3.30559 0.000227345 10
-18.0209 -20.0142 4.26558 0.000222941 10
-18.0185 -20.0116 5.23432 0.000217541 10
-18.0229 -20.0165 6.2184 0.000211204 10
-18.0118 -20.0041 7.2127 0.000203999 10
-6.60668 -7.38917 -2.65592 0.000166478 4
-7.66188 -8.56934 -2.65386 0.000162647 4
-9.29544 -10.3964 -2.71082 0.000369124 4
-10.7266 -11.997 -2.5489 9.57233e-05 4
-14.8707 -16.632 -2.73939 4.18939e-05 1
-18.0083 -20.1412 -2.36376 0.000291091 10
-18.0115 -20.1448 -1.4162 0.000293841 10
-18.0129 -20.1464 -0.471721 0.000295191 10
-18.0131 -20.1466 0.471725 0.000295128 10
-18.0196 -20.1538 1.41683 0.000228964 10
-18.0262 -20.1612 2.36611 0.000226724 10
-18.0283 -20.1636 3.32107 0.00022342 10
-18.0233 -20.1579 4.28277 0.000219088 10
-18.0236 -20.1582 5.25619 0.000213775 10
-18.0226 -20.1572 6.24252 0.000207541 10
-18.0213 -20.1557 7.24464 0.000200453 10
-6.59097 -7.42359 -2.66 0.00018234 4
-7.64782 -8.61395 -2.65939 0.00013308 4
-9.29879 -10.4735 -2.72244 0.000451675 4
-10.6779 -12.0268 -2.54729 0.000112714 4
-14.8103 -16.6813 -2.73898 4.18977e-05 1
-18.0244 -20.3013 -2.37515 0.000286031 10
-18.0202 -20.2966 -1.42244 0.000288736 10
-18.0178 -20.294 -0.473701 0.000290064 10
-18.0188 -20.2951 0.473727 0.000290002 10
-18.0226 -20.2994 1.42264 0.000224986 10
-18.0221 -20.2987 2.37485 0.000222782 10
-18.0239 -20.3009 3.3333 0.000219531 10
-18.0252 -20.3023 4.30005 0.00021527 10
-18.0275 -20.3049 5.27799 0.000210044 10
-18.0373 -20.3159 6.27213 0.000203912 10
-18.0299 -20.3076 7.27656 0.00019694 10
-6.55314 -7.43308 -2.65519 0.000269557 4
-7.61535 -8.63792 -2.65857 8.62596e-05 4
-9.29416 -10.5422 -2.73185 0.000670148 4
-10.6295 -12.0568 -2.54576 0.000108861 4
-14.7535 -16.7345 -2.73925 4.19016e-05 1
-18.025 -20.4453 -2.38463 0.000281018 10
-18.0413 -20.4638 -1.42974 0.000283678 10
-18.0368 -20.4587 -0.476073 0.000284984 10
-18.0377 -20.4598 0.476098 0.000284923 10
-18.0472 -20.4706 1.43021 0.000221044 10
-18.033 -20.4544 2.38568 0.000218876 10
-18.0333 -20.4548 3.34821 0.000215679 10
-18.0321 -20.4534 4.31869 0.000211488 10
-18.0485 -20.472 5.30501 0.000206348 10
-18.0458 -20.469 6.29992 0.000200317 10
-18.0436 -20.4665 7.31088 0.000193461 10
-6.52797 -7.45683 -2.65552 0.000356779 4
-7.57399 -8.6517 -2.65466 0.000120769 4
-9.27623 -10.5961 -2.73743 0.000214166 1
-10.596 -12.1037 -2.54784 0.000100375 4
-14.6962 -16.7873 -2.73947 4.19054e-05 1
-18.0364 -20.6028 -2.39563 0.000276053 10
-18.039 -20.6058 -1.43525 0.000278668 10
-18.0524 -20.6211 -0.478383 0.000279953 10
-18.0525 -20.6212 0.478386 0.000279892 10
-18.0398 -20.6067 1.43532 0.00021714 10
-18.0497 -20.618 2.3974 0.000215008 10
-18.046 -20.6138 3.3639 0.000211864 10
-18.0441 -20.6116 4.33877 0.000207742 10
-18.0497 -20.618 5.3265 0.000202687 10
-18.0552 -20.6243 6.32829 0.000196757 10
-18.0605 -20.6304 7.34687 0.000190015 10
-6.50972 -7.48857 -2.65871 0.000293363 4
-9.23508 -10.6237 -2.73621 0.000214178 1
-10.5566 -12.144 -2.54855 9.03438e-05 4
-14.639 -16.8402 -2.73976 4.19093e-05 1
-18.0242 -20.7344 -2.40361 0.0003565 10
-18.0073 -20.715 -1.43847 0.000359968 10
-18.0217 -20.7316 -0.479484 0.000361716 10
-18.0614 -20.7772 0.48054 0.000274909 10
-18.018 -20.7274 1.43933 0.000280695 10
-18.0171 -20.7263 2.40266 0.000278006 10
-18.0203 -20.7299 3.37258 0.000274006 10
-18.0555 -20.7705 4.35892 0.000204031 10
-18.0177 -20.727 5.33837 0.000262264 10
-18.0161 -20.7252 6.33991 0.000254652 10
-18.0194 -20.7289 7.35952 0.000245986 10
-6.4851 -7.51306 -2.65936 9.51482e-05 4
-7.51713 -8.70868 -2.65597 0.000120779 4
-9.19866 -10.6567 -2.73643 0.000214189 1
-10.5017 -12.1663 -2.54553 0.000118922 4
-14.5742 -16.8844 -2.73865 4.19132e-05 1
-17.8891 -20.7247 -2.39523 0.000360272 10
-17.8958 -20.7325 -1.43534 0.000363773 10
-17.9007 -20.7381 -0.478187 0.000365541 10
-18.0617 -20.9247 0.482489 0.000269974 10
-17.9004 -20.7378 1.4357 0.000283663 10
-17.8968 -20.7336 2.39626 0.000280947 10
-17.8923 -20.7284 3.36214 0.000276907 10
-18.0648 -20.9283 4.37879 0.000200357 10
-17.8992 -20.7364 5.32467 0.000265048 10
-17.8957 -20.7324 6.32296 0.00025736 10
-17.8877 -20.7231 7.33524 0.000248608 10
-6.45015 -7.52551 -2.65578 0.000154622 4
-7.49657 -8.7464 -2.65948 0.00010353 4
-9.15201 -10.6778 -2.73362 0.000214201 1
-10.4555 -12.1986 -2.54463 0.000106574 4
-14.522 -16.9431 -2.73994 4.1917e-05 1
-17.7698 -20.7324 -2.38893 0.000364053 10
-17.7734 -20.7366 -1.43132 0.000367592 10
-17.7678 -20.73 -0.476568 0.000369375 10
-18.0816 -21.0962 0.484984 0.000265087 10
-17.7762 -20.7398 1.43154 0.000286638 10
-17.7739 -20.7372 2.38949 0.000283896 10
-17.7797 -20.7439 3.35458 0.000279816 10
-18.0811 -21.0956 4.40055 0.000196718 10
-17.7805 -20.7448 5.31086 0.00026784 10
-17.7712 -20.734 6.30449 0.000260076 10
-17.7784 -20.7424 7.32007 0.000251236 10
-6.43395 -7.55986 -2.65996 0.000134803 4
-7.4665 -8.7731 -2.65966 5.66974e-05 4
-9.11951 -10.7154 -2.73507 0.000214212 1
-10.4123 -12.2345 -2.54452 0.00011276 4
-14.4521 -16.9812 -2.73792 4.19209e-05 1
-17.6886 -20.784 -2.38775 0.000273744 10
-17.7003 -20.7978 -1.43127 0.000276333 10
-17.7019 -20.7996 -0.476744 0.000277605 10
-18.0799 -21.2439 0.486926 0.000260249 10
-17.7041 -20.8023 1.43158 0.000215318 10
-17.6926 -20.7887 2.38829 0.000213205 10
-17.7047 -20.803 3.35411 0.000210088 10
-18.0999 -21.2674 4.42318 0.000193116 10
-17.6953 -20.7919 5.30706 0.000200995 10
-17.7037 -20.8018 6.30628 0.000195118 10
-17.705 -20.8033 7.3197 0.000188436 10
-6.40552 -7.5799 -2.65913 0.000111019 4
-7.42612 -8.78763 -2.65619 0.000177495 4
-9.07536 -10.7392 -2.73306 0.000214224 1
-10.377 -12.2795 -2.54633 0.000101182 4
-14.4024 -17.0429 -2.73975 4.19248e-05 1
-18.0979 -21.416 0.48942 0.000255459 10
-18.1082 -21.4281 4.44344 0.00018955 10
-18.2002 -21.537 5.481 0.000156553 10
-18.1834 -21.5172 6.50387 0.00015198 10
-17.7207 -20.9696 7.35641 0.000184956 10
-6.36594 -7.58664 -2.65367 0.000317209 4
-7.40198 -8.82134 -2.65855 0.00042157 4
-9.04392 -10.7781 -2.7349 0.000214236 1
-10.3728 -12.3618 -2.55587 0.000313185 4
-14.3282 -17.0757 -2.73696 4.19287e-05 1
-18.1849 -21.6719 -2.47512 0.000244307 10
-18.1004 -21.5712 0.491521 0.000250718 10
-18.1178 -21.5919 4.46427 0.000186021 10
-17.729 -21.1286 7.39043 0.000181511 10
-6.33822 -7.60736 -2.65317 0.000364804 4
-7.35742 -8.83065 -2.6536 5.91704e-05 4
-9.00368 -10.8066 -2.73412 0.000214247 1
-10.3623 -12.4372 -2.56397 0.000361561 4
-14.2837 -17.1438 -2.73986 4.19326e-05 1
-18.1918 -21.8345 -2.48641 0.000239728 10
-18.1208 -21.7492 0.494133 0.000246026 10
-18.1243 -21.7534 4.48455 0.000182528 10
-17.7286 -21.2786 7.42118 0.000178101 10
-6.31582 -7.63452 -2.65493 0.000103101 4
-7.33778 -8.86985 -2.65767 0.00031559 4
-8.97781 -10.8523 -2.73775 0.000214259 1
-10.3615 -12.5249 -2.57458 0.000112392 4
-14.2251 -17.1952 -2.74013 4.19365e-05 1
-18.2024 -22.0029 -2.49834 0.000235195 10
-18.1368 -21.9236 0.496654 0.000241382 10
-18.1356 -21.9221 4.50625 0.000179072 10
-18.1445 -21.933 7.62728 0.000163651 10
-6.28469 -7.6511 -2.65306 0.000610696 4
-7.30754 -8.89635 -2.65795 0.000268756 4
-8.88412 -10.8157 -2.72068 6.35247e-05 4
-10.3688 -12.6232 -2.58733 0.000499797 4
-14.1535 -17.2308 -2.73791 4.19404e-05 1
-18.2046 -22.1627 -2.50925 0.000230711 10
-18.2257 -22.1884 -1.50484 0.000321987 10
-18.2146 -22.1748 -0.500901 0.000323568 10
-18.1359 -22.079 0.498736 0.000236788 10
-18.2229 -22.1849 1.50461 0.000160283 10
-18.2199 -22.1812 2.51135 0.00015873 10
-18.2219 -22.1837 3.5249 0.000156421 10
-18.1418 -22.0861 4.52692 0.000175652 10
-18.2268 -22.1897 5.58179 0.000149645 10
-18.2295 -22.1929 6.63055 0.000145254 10
-18.152 -22.0986 7.6628 0.000160508 10
-6.25622 -7.67088 -2.65233 0.000309325 4
-7.27111 -8.91525 -2.656 0.000187398 4
-8.78619 -10.7729 -2.70219 3.6208e-05 4
-10.3699 -12.7147 -2.59866 0.000146422 4
-14.1012 -17.2898 -2.73944 4.19444e-05 1
-18.1509 -22.2552 -2.51254 0.000319592 10
-18.1552 -22.2604 -1.50542 0.00023122 10
-18.1482 -22.2519 -0.501209 0.000232296 10
-18.1535 -22.2584 0.501354 0.000232242 10
-18.1603 -22.2667 1.50585 0.000115011 10
-18.161 -22.2676 2.51394 0.000113868 10
-18.1611 -22.2677 3.52817 0.000112182 10
-18.156 -22.2614 4.54982 0.000172269 10
-18.1544 -22.2595 5.58337 0.000107266 10
-18.1632 -22.2703 6.63468 0.000104089 10
-18.1635 -22.2707 7.70043 0.000157398 10
-6.2341 -7.69847 -2.65433 7.13855e-05 4
-7.24834 -8.95095 -2.65908 0.000212065 4
-8.69861 -10.7419 -2.68677 3.81885e-05 4
-10.3536 -12.7856 -2.60574 0.000301661 4
-14.0439 -17.3428 -2.74006 4.19483e-05 1
-18.0536 -22.2943 -2.50983 0.000321552 10
-18.0455 -22.2843 -1.50277 0.000324712 10
-18.0469 -22.286 -0.500555 0.000326306 10
-18.1668 -22.4341 0.50388 0.000227746 10
-18.0521 -22.2925 1.50332 0.000253202 10
-18.0473 -22.2865 2.50895 0.00025075 10
-18.0406 -22.2782 3.51983 0.000247104 10
-18.1631 -22.4296 4.57121 0.000168923 10
-18.055 -22.2961 5.57672 0.000236403 10
-18.0412 -22.2791 6.61848 0.000229467 10
-18.1666 -22.4338 7.73487 0.000154323 10
-6.21598 -7.73112 -2.65808 0.000103116 4
-7.20985 -8.96724 -2.65642 0.000157823 4
-8.60654 -10.7044 -2.66985 7.44647e-05 4
-10.368 -12.8952 -2.62068 0.000284278 4
-13.9701 -17.3753 -2.73747 4.19522e-05 1
-17.9282 -22.2982 -2.5032 0.000324746 10
-17.9285 -22.2985 -1.4995 0.000327936 10
-17.9206 -22.2887 -0.499207 0.000329545 10
-18.1799 -22.6112 0.506429 0.000223299 10
-17.9339 -22.3053 1.49996 0.000255716 10
-17.9279 -22.2978 2.50315 0.000253241 10
-17.9238 -22.2927 3.5122 0.000249561 10
-18.171 -22.6002 4.59303 0.000165613 10
-17.9183 -22.2859 5.55849 0.00023876 10
-17.9245 -22.2935 6.60415 0.00023176 10
-18.1857 -22.6184 7.77659 0.000151282 10
-6.19019 -7.75432 -2.65862 0.000182443 4
-7.1807 -8.99511 -2.65724 0.000239211 4
-8.53051 -10.686 -2.65783 0.000247275 4
-10.3502 -12.9655 -2.62761 0.000366602 4
-13.9088 -17.4233 -2.73737 4.19562e-05 1
-17.8083 -22.308 -2.49731 0.000327946 10
-17.7999 -22.2976 -1.49525 0.000331166 10
-17.8124 -22.3132 -0.498361 0.000332789 10
-18.1772 -22.7702 0.508566 0.000218902 10
-17.8121 -22.3128 1.49627 0.000258234 10
-17.7979 -22.295 2.49585 0.000255737 10
-17.7987 -22.296 3.50293 0.000252022 10
-18.1886 -22.7844 4.61753 0.000162341 10
-17.8004 -22.2982 5.54603 0.000241121 10
-17.7961 -22.2928 6.58548 0.000234056 10
-18.1959 -22.7936 7.81493 0.000148275 10
-6.15512 -7.76583 -2.65518 0.000253844 4
-7.14811 -9.01867 -2.65681 0.000115912 4
-8.49695 -10.7205 -2.65901 6.28701e-05 4
-10.3532 -13.0625 -2.63993 0.000323485 4
-13.8486 -17.4726 -2.7375 4.19601e-05 1
-18.1897 -22.9497 -2.56202 0.000211572 10
-18.1995 -22.962 -1.53553 0.000213606 10
-18.1888 -22.9486 -0.511129 0.000214604 10
-18.2021 -22.9654 0.511503 0.000214553 10
-18.2 -22.9627 1.53558 0.000166434 10
-18.1922 -22.9529 2.56238 0.00016477 10
-18.1888 -22.9485 3.59544 0.000162318 10
-18.1941 -22.9552 4.63924 0.000159105 10
-18.1905 -22.9507 5.69248 0.000155168 10
-18.1921 -22.9528 6.76165 0.00015055 10
-18.2055 -22.9697 7.85345 0.000145302 10
-6.13391 -7.7948 -2.65775 9.51952e-05 4
-7.11125 -9.03678 -2.65482 0.000101119 4
-8.45342 -10.7424 -2.65711 0.000283629 4
-10.3587 -13.1636 -2.65303 0.000326005 4
-13.793 -17.5278 -2.73859 4.19641e-05 1
-18.1958 -23.1227 -2.57423 0.00020733 10
-18.2075 -23.1376 -1.54302 0.000209326 10
-18.1985 -23.1262 -0.513668 0.000210305 10
-18.2102 -23.141 0.513996 0.000210255 10
-18.1979 -23.1255 1.54221 0.000163098 10
-18.2058 -23.1355 2.57565 0.000161465 10
-18.2025 -23.1313 3.6141 0.000159059 10
-18.2044 -23.1337 4.66245 0.000155907 10
-18.2143 -23.1463 5.7252 0.000152043 10
-18.2192 -23.1525 6.80172 0.000147512 10
-18.2069 -23.1368 7.88883 0.000142364 10
-6.11102 -7.82174 -2.65965 0.000103132 4
-7.07995 -9.06192 -2.65493 6.65936e-05 4
-8.41601 -10.772 -2.65715 0.000222165 4
-10.3438 -13.2395 -2.66105 3.31812e-05 4
-13.7283 -17.5714 -2.73791 4.19681e-05 1
-18.2079 -23.3051 -2.58744 0.000203137 10
-18.2142 -23.3131 -1.55047 0.000205095 10
-18.2179 -23.3178 -0.516509 0.000206055 10
-18.2194 -23.3198 0.516552 0.000206006 10
-18.2239 -23.3256 1.5513 0.0001598 10
-18.2277 -23.3304 2.59026 0.000158199 10
-18.2238 -23.3254 3.63447 0.000155838 10
-18.2282 -23.331 4.68937 0.000152745 10
-18.2229 -23.3243 5.75345 0.000148955 10
-18.2252 -23.3272 6.8343 0.00014451 10
-18.2191 -23.3194 7.92934 0.00013946 10
-6.07175 -7.82766 -2.65443 0.000182471 4
-7.04754 -9.08563 -2.65465 0.000276253 4
-8.37732 -10.8 -2.65683 0.0002627 4
-10.286 -13.2606 -2.65805 5.59971e-05 4
-13.6736 -17.6279 -2.73926 4.1972e-05 1
-18.2202 -23.4894 -2.60082 0.000198993 10
-18.2284 -23.4999 -1.55865 0.000200913 10
-18.2305 -23.5026 -0.519188 0.000201854 10
-18.224 -23.4942 0.519003 0.000201806 10
-18.2243 -23.4946 1.5583 0.000156541 10
-18.2229 -23.4929 2.60121 0.00015497 10
-18.2324 -23.5051 3.65252 0.000152654 10
-18.2251 -23.4956 4.70963 0.000149621 10
-18.2361 -23.5099 5.78349 0.000145903 10
-18.2318 -23.5043 6.8675 0.000141543 10
-18.241 -23.5161 7.97454 0.00013659 10
-6.05164 -7.85821 -2.65761 0.000198346 4
-7.01505 -9.10923 -2.65437 9.37329e-05 4
-8.34242 -10.8328 -2.65773 0.00026551 4
-10.2456 -13.3041 -2.65959 9.3335e-05 4
-13.6011 -17.6614 -2.73706 4.1976e-05 1
-18.2383 -23.6829 -2.61519 0.000194898 10
-18.2446 -23.6911 -1.5671 0.000196781 10
-18.2428 -23.6887 -0.521891 0.000197704 10
-18.2392 -23.6841 0.521789 0.000197656 10
-18.238 -23.6826 1.56654 0.000153321 10
-18.2488 -23.6965 2.61669 0.00015178 10
-18.2363 -23.6804 3.66985 0.000149509 10
-18.2418 -23.6874 4.73528 0.000146533 10
-18.2362 -23.6801 5.80968 0.000142887 10
-18.2444 -23.6908 6.90334 0.000138612 10
-18.2476 -23.695 8.01356 0.000133754 10
-6.02824 -7.88461 -2.65941 0.000234058 4
-6.9869 -9.13849 -2.65577 0.000229409 4
-8.29903 -10.8547 -2.65596 0.000278102 4
-10.1924 -13.3311 -2.65786 6.4302e-05 4
-13.5503 -17.723 -2.73927 4.198e-05 1
-18.2492 -23.8689 -2.62868 0.000190852 10
-18.2497 -23.8696 -1.57469 0.000192698 10
-18.2465 -23.8654 -0.524377 0.000193602 10
-18.2492 -23.869 0.524454 0.000193555 10
-18.2572 -23.8794 1.57533 0.000150139 10
-18.2505 -23.8706 2.62887 0.000148627 10
-18.2497 -23.8696 3.68929 0.0001464 10
-18.2537 -23.8749 4.76 0.000143483 10
-18.2485 -23.868 5.84011 0.000139908 10
-18.2525 -23.8733 6.93791 0.000135716 10
-18.2602 -23.8834 8.05567 0.000130953 10
-5.99974 -7.90436 -2.65899 3.57051e-05 4
-6.95883 -9.16792 -2.65725 0.000172682 4
-8.26768 -10.8923 -2.65808 0.00014395 4
-13.4756 -17.7534 -2.73668 4.1984e-05 1
-18.2592 -24.0556 -2.6422 0.000186855 10
-18.2582 -24.0543 -1.58265 0.000188664 10
-18.2649 -24.0632 -0.527317 0.00018955 10
-18.2614 -24.0585 0.527216 0.000189504 10
-18.2701 -24.07 1.58369 0.000146995 10
-18.2708 -24.0709 2.64388 0.000145513 10
-18.2591 -24.0555 3.70813 0.00014333 10
-18.2636 -24.0614 4.78444 0.000140469 10
-18.2689 -24.0683 5.87349 0.000136965 10
-18.2724 -24.073 6.97739 0.000132855 10
-18.2763 -24.0782 8.0998 0.000128186 10
-5.95665 -7.90474 -2.65211 0.000491956 4
-6.92062 -9.18397 -2.65489 4.19389e-05 4
-8.2241 -10.9137 -2.6563 9.50403e-05 4
-10.1032 -13.4074 -2.65893 6.22364e-05 4
-13.4204 -17.8095 -2.73809 4.1988e-05 1
-18.2781 -24.2559 -2.65718 0.000182905 10
-22.0064 -29.2035 -1.91638 0.000102621 10
-22.1285 -29.3655 -0.641816 0.000101434 10
-22.1348 -29.3739 0.641998 0.000101436 10
-19.6522 -26.0794 1.71137 0.000114937 10
-19.6587 -26.088 2.85787 0.000113754 10
-19.6487 -26.0747 4.0088 0.000112011 10
-19.6606 -26.0905 5.17424 0.000109729 10
-19.6524 -26.0797 6.34754 0.000106934 10
-19.653 -26.0805 7.5393 0.000103658 10
-19.6598 -26.0894 8.75321 9.99382e-05 10
-5.93548 -7.93412 -2.655 0.000142831 4
-6.89077 -9.21108 -2.65575 0.000103618 4
-9.63455 -12.8788 -2.54742 9.66603e-05 4
-13.3622 -17.8616 -2.73891 4.1992e-05 1
-18.2783 -24.4332 -2.66959 0.000179006 10
-22.0286 -29.4462 -1.92725 0.00010032 10
-22.0315 -29.4501 -0.64198 6.65927e-05 10
-22.0313 -29.4498 0.641973 6.65753e-05 10
-19.6729 -26.2973 1.72116 0.00011244 10
-19.6705 -26.2941 2.87291 0.000111281 10
-19.6734 -26.298 4.03255 0.000109573 10
-19.669 -26.2921 5.20056 0.000107337 10
-19.6622 -26.283 6.38029 0.000104599 10
-19.6678 -26.2905 7.58011 0.000101389 10
-19.681 -26.3081 8.80349 9.77461e-05 10
-5.91543 -7.96514 -2.65845 0.000194417 4
-6.86342 -9.2416 -2.65763 3.20738e-05 4
-8.14712 -10.9701 -2.65611 6.29013e-05 4
-9.58619 -12.9078 -2.54653 9.20271e-05 4
-13.3022 -17.9114 -2.73941 4.1996e-05 1
-18.2928 -24.6312 -2.68424 0.000175156 10
-22.0366 -29.6723 -1.937 9.80492e-05 10
-22.0362 -29.6718 -0.645133 6.50859e-05 10
-22.0339 -29.6686 0.645063 6.50687e-05 10
-19.6849 -26.5057 1.73029 0.000109975 10
-19.6761 -26.494 2.88723 0.00010884 10
-19.6839 -26.5044 4.05364 0.000107167 10
-19.6814 -26.5011 5.22828 0.000104977 10
-19.6782 -26.4967 6.41544 0.000102294 10
-19.6859 -26.5071 7.6227 9.91508e-05 10
-19.6875 -26.5093 8.84776 9.55825e-05 10
-5.88291 -7.97939 -2.65634 0.000115068 4
-6.83031 -9.2644 -2.65731 0.00018505 4
-8.11575 -11.0079 -2.6584 0.000131401 4
-9.52975 -12.9258 -2.54351 9.12601e-05 4
-13.2325 -17.9481 -2.73793 4.20001e-05 1
-18.3156 -24.8426 -2.70029 0.000171354 10
-22.0605 -29.9222 -1.94827 9.58096e-05 10
-22.0588 -29.9198 -0.648847 6.35996e-05 10
-22.0584 -29.9192 0.648833 6.35828e-05 10
-19.6991 -26.7192 1.73973 0.000107543 10
-19.6857 -26.701 2.90229 0.00010643 10
-19.6884 -26.7048 4.07374 0.000104792 10
-19.6958 -26.7147 5.25684 0.000102647 10
-19.7005 -26.7212 6.45311 0.00010002 10
-19.6972 -26.7167 7.66315 9.69418e-05 10
-19.6947 -26.7132 8.89283 9.34476e-05 10
-6.79086 -9.27852 -2.65455 0.000133242 4
-9.50586 -12.9881 -2.54921 0.000369281 4
-13.1723 -17.9976 -2.73846 4.20041e-05 1
-18.32 -25.031 -2.71381 0.000167602 10
-22.0637 -30.1463 -1.95784 9.36011e-05 10
-22.0819 -30.1711 -0.65262 9.68058e-05 10
-22.0841 -30.1741 0.652685 9.68085e-05 10
-19.6656 -26.8697 1.74504 0.000165268 10
-19.6634 -26.8666 2.91281 0.000163604 10
-19.674 -26.8812 4.09015 0.000161129 10
-19.6768 -26.8849 5.27678 0.000157874 10
-19.6677 -26.8725 6.47304 0.000153875 10
-19.6643 -26.8678 7.68678 0.000149179 10
-19.6612 -26.8636 8.91999 0.000143841 10
-5.82448 -8.0167 -2.65516 5.55542e-05 4
-6.76801 -9.31536 -2.65831 6.66241e-05 4
-8.03818 -11.0636 -2.65822 0.000118834 4
-9.51035 -13.0899 -2.56265 0.000290221 4
-13.1075 -18.0409 -2.73807 4.20081e-05 1
-18.3345 -25.2353 -2.72899 0.000163899 10
-22.0771 -30.3865 -1.96842 9.14233e-05 10
-22.1229 -30.4496 -0.65697 9.50221e-05 10
-22.1193 -30.4446 0.656862 9.50246e-05 10
-19.5379 -26.8916 1.74202 0.000166803 10
-19.53 -26.8807 2.90693 0.000165125 10
-19.5271 -26.8767 4.07908 0.000162629 10
-19.5356 -26.8884 5.26404 0.000159345 10
-19.536 -26.889 6.46054 0.000155311 10
-19.5366 -26.8898 7.67351 0.000150575 10
-19.5246 -26.8733 8.90053 0.00014519 10
-5.80175 -8.04433 -2.65759 0.000388894 4
-6.72666 -9.32674 -2.65484 8.63686e-05 4
-7.99669 -11.0877 -2.65728 0.000155191 4
-9.52181 -13.2023 -2.57815 0.000306184 4
-12.1333 -16.8232 -2.54681 3.35732e-05 4
-22.1041 -30.648 -1.98036 8.92764e-05 10
-22.1587 -30.7237 -0.661212 9.32817e-05 10
-22.1578 -30.7225 0.661185 9.32843e-05 10
-19.3998 -26.8985 1.73808 0.00016834 10
-19.3887 -26.8831 2.89985 0.000166647 10
-19.4005 -26.8994 4.07222 0.000164129 10
-19.3962 -26.8935 5.25177 0.000160817 10
-19.3943 -26.8908 6.44468 0.000156749 10
-19.3941 -26.8905 7.65435 0.000151971 10
-19.3955 -26.8925 8.88442 0.00014654 10
-5.76233 -8.04873 -2.65238 0.00025795 4
-6.68931 -9.34353 -2.65296 0.000128325 4
-7.95238 -11.1078 -2.65543 7.27063e-05 4
-9.51826 -13.295 -2.58974 0.000321442 4
-12.0735 -16.8641 -2.54661 4.47685e-05 4
-22.1187 -30.8951 -1.99132 8.71604e-05 10
-22.1848 -30.9874 -0.665216 9.15835e-05 10
-22.1784 -30.9785 0.665024 9.15859e-05 10
-19.2554 -26.8956 1.73354 0.000169878 10
-19.266 -26.9104 2.89553 0.00016817 10
-19.2664 -26.911 4.06377 0.000165631 10
-19.2605 -26.9027 5.2404 0.000162291 10
-19.2551 -26.8952 6.42957 0.000158187 10
-19.2589 -26.9006 7.63803 0.000153369 10
-19.2562 -26.8968 8.86358 0.000147891 10
-5.74845 -8.08885 -2.65897 9.12783e-05 4
-6.66405 -9.37722 -2.65591 6.16975e-05 4
-7.91566 -11.1384 -2.65613 4.89397e-05 4
-9.52366 -13.4011 -2.60391 0.000338552 4
-12.0109 -16.901 -2.54583 4.13526e-05 4
-22.1281 -31.1372 -2.00193 8.5075e-05 10
-22.2085 -31.2504 -0.669193 8.99258e-05 10
-22.2087 -31.2507 0.669199 8.99282e-05 10
-19.1227 -26.9082 1.73003 0.000171417 10
-19.1183 -26.9021 2.88743 0.000169694 10
-19.1281 -26.9158 4.05439 0.000167134 10
-19.1299 -26.9184 5.23042 0.000163765 10
-19.1288 -26.9168 6.41876 0.000159627 10
-19.1193 -26.9035 7.61987 0.000154768 10
-19.1156 -26.8983 8.84202 0.000149243 10
-5.72056 -8.10942 -2.65915 0.000111126 4
-6.638 -9.40996 -2.6586 6.91044e-05 4
-7.87277 -11.1604 -2.6548 5.59342e-05 4
-9.51745 -13.4918 -2.61508 0.000372382 4
-11.9492 -16.9391 -2.54527 4.26004e-05 4
-22.147 -31.3953 -2.01355 8.30203e-05 10
-22.234 -31.5187 -0.673272 8.83075e-05 10
-22.2288 -31.5113 0.673115 8.83099e-05 10
-18.9881 -26.9173 1.72635 0.000172956 10
-18.9805 -26.9066 2.88079 0.00017122 10
-18.9831 -26.9102 4.04354 0.000168638 10
-18.991 -26.9214 5.21809 0.000165241 10
-18.9811 -26.9074 6.40066 0.000161068 10
-18.9799 -26.9058 7.6017 0.000156168 10
-18.9792 -26.9047 8.82231 0.000150596 10
-5.68786 -8.12311 -2.65711 0.000198447 4
-6.59769 -9.42247 -2.65561 0.00010613 4
-7.84239 -11.2001 -2.65772 6.99217e-05 4
-9.52812 -13.6076 -2.63105 0.000257605 4
-22.1608 -31.6489 -2.02484 8.09963e-05 10
-22.2546 -31.7829 -0.677253 8.67273e-05 10
-22.2547 -31.783 0.677254 8.67297e-05 10
-18.8482 -26.918 1.72216 0.000174497 10
-18.8508 -26.9217 2.87535 0.000172746 10
-18.8607 -26.9359 4.03748 0.000170142 10
-18.8584 -26.9325 5.20745 0.000166717 10
-18.8527 -26.9244 6.38901 0.000162509 10
-18.8494 -26.9197 7.58699 0.000157568 10
-18.8574 -26.9311 8.80933 0.00015195 10
-5.65535 -8.13698 -2.65518 0.000254022 4
-6.56486 -9.44559 -2.65565 0.000106134 4
-9.52892 -13.7103 -2.64446 0.000341941 4
-11.8388 -17.0338 -2.54703 3.35892e-05 4
-22.1815 -31.915 -2.0369 7.90027e-05 10
-22.2846 -32.0633 -0.681565 8.5184e-05 10
-22.2821 -32.0597 0.681489 8.51864e-05 10
-18.7236 -26.9397 1.71936 0.000176038 10
-18.7226 -26.9383 2.87012 0.000174272 10
-18.7266 -26.9441 4.02889 0.000171647 10
-18.7126 -26.9239 5.19312 0.000168194 10
-18.7115 -26.9223 6.37297 0.000163951 10
-18.7148 -26.927 7.5706 0.000158969 10
-18.7223 -26.9378 8.79007 0.000153305 10
-5.62379 -8.15214 -2.6537 0.000162739 4
-6.54019 -9.48054 -2.65904 6.66457e-05 4
-7.75286 -11.2384 -2.65391 0.000139859 4
-9.53353 -13.8196 -2.65912 0.000293033 4
-11.7751 -17.069 -2.54613 4.04353e-05 4
-22.198 -32.1778 -2.04871 7.70396e-05 10
-22.2825 -32.3003 -0.684947 0.000127062 10
-22.2802 -32.2969 0.684874 0.000127065 10
-18.582 -26.9362 1.71498 0.000177579 10
-18.585 -26.9405 2.86343 0.000175799 10
-18.5887 -26.9458 4.01942 0.000173153 10
-18.5936 -26.9529 5.18616 0.000169671 10
-18.5929 -26.952 6.3646 0.000165394 10
-18.5887 -26.9458 7.55759 0.000160371 10
-18.5819 -26.936 8.76825 0.00015466 10
-5.59523 -8.17162 -2.65367 0.000273889 4
-6.50643 -9.50239 -2.65879 7.89912e-05 4
-7.71984 -11.2745 -2.65606 3.91628e-05 4
-9.53147 -13.9204 -2.67208 0.000266659 4
-11.7176 -17.113 -2.54658 4.51052e-05 4
-22.2137 -32.4423 -2.0606 7.5107e-05 10
-22.2053 -32.4299 -0.686048 7.5486e-05 10
-22.2066 -32.4318 0.686087 7.54645e-05 10
-18.4499 -26.9454 1.71146 0.000179121 10
-18.4604 -26.9607 2.8587 0.000177327 10
-18.4533 -26.9504 4.01047 0.000174659 10
-18.4602 -26.9605 5.17519 0.000171149 10
-18.4602 -26.9605 6.35135 0.000166837 10
-18.451 -26.9471 7.53983 0.000161773 10
-18.4603 -26.9606 8.75525 0.000156015 10
-5.56289 -8.18554 -2.65187 0.000130995 4
-6.46868 -9.51837 -2.65692 0.000128367 4
-9.53272 -14.027 -2.68614 0.000327579 4
-11.6633 -17.162 -2.54779 4.07541e-05 4
-18.3172 -26.953 1.70787 0.000180663 10
-18.3166 -26.952 2.85099 0.000178854 10
-18.3147 -26.9493 4.00077 0.000176165 10
-18.3273 -26.9678 5.16428 0.000172627 10
-18.3217 -26.9596 6.33604 0.00016828 10
-18.3171 -26.9528 7.5235 0.000163175 10
-18.3195 -26.9563 8.73304 0.00015737 10
-5.54469 -8.22033 -2.65685 0.000162758 4
-6.43359 -9.53819 -2.65617 5.43115e-05 4
-7.65008 -11.3417 -2.65923 3.77684e-05 4
-9.52387 -14.1197 -2.69752 0.000278926 4
-11.5929 -17.1872 -2.54551 3.76468e-05 4
-19.8312 -29.4009 -1.85858 0.000177754 10
-19.8182 -29.3817 -0.618621 0.000178678 10
-19.8262 -29.3936 0.61887 0.000178683 10
-18.1929 -26.9721 1.70505 0.000182205 10
-18.1811 -26.9545 2.84452 0.000180382 10
-18.1925 -26.9714 3.9946 0.000177671 10
-18.1818 -26.9556 5.14977 0.000174105 10
-18.1908 -26.969 6.32329 0.000169723 10
-18.1902 -26.9681 7.51001 0.000164577 10
-18.1958 -26.9764 8.71893 0.000158726 10
-5.51436 -8.23725 -2.65608 0.000194524 4
-6.40737 -9.57121 -2.65912 0.000128379 4
-7.60035 -11.3533 -2.65571 3.77705e-05 4
-9.54047 -14.2514 -2.71629 0.000367659 4
-11.5332 -17.2281 -2.54558 3.92062e-05 4
-19.6865 -29.4073 -1.85463 0.000179296 10
-19.683 -29.4021 -0.617601 0.000180227 10
-19.6853 -29.4056 0.617673 0.000180232 10
-18.063 -26.9822 1.70169 0.000183747 10
-18.0651 -26.9853 2.8411 0.000181909 10
-18.0578 -26.9744 3.98569 0.000179177 10
-18.0574 -26.9738 5.14117 0.000175582 10
-18.0537 -26.9683 6.3083 0.000171166 10
-18.0568 -26.973 7.49377 0.000165979 10
-18.0549 -26.9701 8.69644 0.000160082 10
-5.47775 -8.24467 -2.65229 0.000138951 4
-6.36723 -9.58345 -2.65633 4.69098e-05 4
-7.56475 -11.3859 -2.65714 8.39393e-05 4
-9.52942 -14.3429 -2.72738 0.000231763 4
-11.4784 -17.2764 -2.54679 4.45002e-05 4
-19.5414 -29.4121 -1.85062 0.000180837 10
-19.5321 -29.3982 -0.616081 0.000181776 10
-19.5389 -29.4084 0.616295 0.00018178 10
-17.9304 -26.9874 1.69806 0.000185289 10
-17.9286 -26.9847 2.83442 0.000183437 10
-17.9313 -26.9888 3.97853 0.000180683 10
-17.9201 -26.9719 5.12885 0.00017706 10
-17.9297 -26.9864 6.29787 0.000172609 10
-17.9313 -26.9887 7.48071 0.000167381 10
-17.9305 -26.9876 8.68187 0.000161437 10
-5.45056 -8.26621 -2.65309 0.000134986 4
-6.32458 -9.59172 -2.65249 6.66644e-05 4
-7.51705 -11.4002 -2.65435 0.00013571 4
-9.49946 -14.4067 -2.73319 0.000105894 1
-11.4218 -17.3221 -2.54764 3.92137e-05 4
-19.5001 -29.5734 -1.85648 0.000102635 10
-19.5095 -29.5878 -0.618624 0.000103136 10
-19.5052 -29.5812 0.618487 0.000103106 10
-17.8342 -27.047 1.69788 0.000185585 10
-17.8426 -27.0597 2.83575 0.00018373 10
-17.9275 -27.1885 3.99873 0.00010217 10
-17.8411 -27.0574 5.13324 0.000177343 10
-17.8427 -27.0598 6.30042 0.000172885 10
-17.925 -27.1847 7.51762 9.45494e-05 10
-17.8284 -27.0383 8.67808 0.000161695 10
-5.43273 -8.30209 -2.6585 0.000166755 4
-6.30179 -9.63014 -2.65701 0.00011852 4
-7.47724 -11.4264 -2.65436 0.000110533 4
-9.44698 -14.4365 -2.73257 0.000105902 1
-11.3492 -17.3434 -2.54492 4.51313e-05 4
-19.5198 -29.8293 -1.86825 0.000100012 10
-19.533 -29.8495 -0.622666 0.000100501 10
-19.5195 -29.8289 0.622236 0.000100472 10
-17.6973 -27.0443 1.69382 0.000187116 10
-17.7122 -27.067 2.83002 0.000185246 10
-17.9292 -27.3987 4.02041 9.96157e-05 10
-17.6993 -27.0474 5.11959 0.000178811 10
-17.7091 -27.0623 6.28657 0.000174318 10
-17.9453 -27.4233 7.56626 9.21727e-05 10
-17.7083 -27.0612 8.66555 0.000163041 10
-5.3892 -8.29864 -2.65136 0.000190584 4
-6.26712 -9.65052 -2.65658 0.000165442 4
-7.4387 -11.4546 -2.65485 0.000123132 4
-9.40721 -14.4858 -2.73567 0.000105909 1
