VERSION 0.7
FIELDS x y z intensity label
SIZE 4 4 4 4 4
TYPE F F F F F
COUNT 1 1 1 1 1
WIDTH 1205
HEIGHT 1
VIEWPOINT 0.548784 4.12592 2.72861 0.876833 0.000367526 0.000713569 -0.480795
POINTS 1205
DATA ascii
17.1434 8.65974 1.68034 0.000820164 10
17.1542 8.66522 2.35974 0.000809305 10
17.1401 8.6581 3.04142 0.000794963 10
17.1448 8.66047 3.73366 0.000777284 10
17.1327 8.65432 4.43138 0.000756449 10
17.1305 8.65324 5.14248 0.000732668 10
2.25062 1.14675 -0.676822 0.0572188 8
2.24569 1.14424 -0.581879 0.0587892 8
2.25058 1.14673 -0.490982 0.060163 8
2.24043 1.14156 -0.398257 0.0613285 8
2.2456 1.14419 -0.309454 0.0622756 8
2.25903 1.15103 -0.221816 0.0629959 8
17.0834 8.70443 -1.00482 0.00106882 10
17.0756 8.70048 -0.334517 0.00107375 10
17.0684 8.69679 0.334375 0.00107389 10
17.0698 8.6975 1.00402 0.00106925 10
17.0744 8.69982 1.67654 0.000826391 10
17.081 8.70319 2.35383 0.000815453 10
17.0832 8.70433 3.03669 0.000801006 10
17.0723 8.69875 3.72445 0.000783199 10
17.0784 8.70189 4.42518 0.000762213 10
17.0761 8.70073 5.13525 0.000738261 10
2.2391 1.15074 -0.67456 0.0571226 8
2.24948 1.15608 -0.583904 0.0586903 8
2.24428 1.1534 -0.490484 0.0600618 8
2.24899 1.15582 -0.400492 0.0612253 8
2.23067 1.14641 -0.307945 0.0621708 8
2.22868 1.14538 -0.219227 0.0628898 8
17.0146 8.74432 -1.00257 0.00107687 10
17.0162 8.74512 -0.333947 0.00108183 10
17.0063 8.74007 0.333754 0.00108197 10
17.0137 8.74388 1.00251 0.0010773 10
17.0242 8.74925 1.67461 0.000832612 10
17.0251 8.74971 2.35033 0.000821595 10
17.0048 8.73925 3.02815 0.000807046 10
17.0182 8.74618 3.7193 0.000789111 10
17.0138 8.74392 4.41633 0.000767974 10
17.0063 8.74007 5.1234 0.000743849 10
2.22498 1.15332 -0.671514 0.0570219 8
2.23373 1.15785 -0.58086 0.0585868 8
2.22412 1.15287 -0.486954 0.0599558 8
2.2226 1.15208 -0.396507 0.0611172 8
2.23984 1.16102 -0.309769 0.062061 8
2.22757 1.15466 -0.219513 0.0627787 8
16.9395 8.78062 -0.999942 0.0010849 10
16.9491 8.78557 -0.333231 0.0010899 10
16.9499 8.786 0.333247 0.00109005 10
16.9454 8.78368 1.00029 0.00108533 10
16.9577 8.79002 1.67107 0.000838827 10
16.9468 8.78441 2.34374 0.000827732 10
16.9481 8.78508 3.02351 0.000813079 10
16.9585 8.79043 3.71292 0.000795016 10
16.9329 8.77716 4.40324 0.000773729 10
16.955 8.78862 5.11714 0.000749432 10
2.22408 1.16272 -0.672465 0.0569167 8
2.2245 1.16294 -0.579513 0.0584786 8
2.22277 1.16203 -0.487543 0.0598451 8
2.22199 1.16163 -0.39712 0.0610043 8
2.21765 1.15936 -0.307258 0.0619462 8
2.21352 1.1572 -0.218525 0.0626627 8
16.8823 8.82585 -0.998376 0.00109293 10
16.889 8.82936 -0.332654 0.00109796 10
16.8764 8.82277 0.332405 0.00109811 10
16.878 8.82358 0.998119 0.00109336 10
16.8708 8.81985 1.66554 0.000845035 10
16.882 8.82567 2.33902 0.000833863 10
16.89 8.8299 3.01863 0.000819106 10
16.8776 8.82337 3.70193 0.000800916 10
16.8919 8.83089 4.40058 0.000779478 10
16.8893 8.82948 5.10657 0.000755009 10
2.22041 1.17069 -0.672587 0.0568069 8
2.22079 1.17089 -0.579608 0.0583657 8
2.21004 1.16522 -0.48564 0.0597295 8
2.21683 1.1688 -0.396924 0.0608864 8
2.22786 1.17462 -0.309239 0.0618265 8
2.21809 1.16947 -0.219378 0.0625416 8
16.8335 8.87532 -0.997318 0.00110095 10
16.8105 8.86317 -0.331715 0.00110602 10
16.8155 8.86582 0.331814 0.00110617 10
16.8246 8.87062 0.996791 0.00110139 10
16.8297 8.8733 1.66453 0.000851238 10
16.8283 8.87255 2.33586 0.000839987 10
16.8284 8.87259 3.01312 0.000825127 10
16.8231 8.86982 3.69676 0.00080681 10
16.8143 8.86518 4.3884 0.000785222 10
16.807 8.86133 5.09103 0.000760582 10
2.19987 1.16969 -0.667596 0.0566926 8
2.20285 1.17128 -0.575989 0.0582482 8
2.19548 1.16735 -0.483332 0.0596092 8
2.20973 1.17493 -0.396384 0.0607638 8
2.212 1.17614 -0.307606 0.0617019 8
2.21185 1.17606 -0.219166 0.0624155 8
16.7475 8.90482 -0.994059 0.00110896 10
16.7504 8.90632 -0.331139 0.00111406 10
16.744 8.90294 0.331013 0.00111421 10
16.7615 8.91227 0.99489 0.0011094 10
16.7611 8.91202 1.66081 0.000857433 10
16.7493 8.90577 2.3292 0.000846104 10
16.7577 8.9102 3.00601 0.000831141 10
16.7464 8.90422 3.68671 0.000812696 10
16.7417 8.90169 4.37751 0.000790958 10
16.7496 8.90593 5.08303 0.000766147 10
2.20469 1.18215 -0.67031 0.0565737 8
2.19763 1.17836 -0.575695 0.058126 8
2.19179 1.17523 -0.483421 0.0594841 8
2.19746 1.17827 -0.394919 0.0606362 8
2.20561 1.18263 -0.307288 0.0615723 8
2.20723 1.18351 -0.219116 0.0622845 8
16.6943 8.95138 -0.992745 0.00111696 10
16.6984 8.95358 -0.330727 0.0011221 10
16.7046 8.95694 0.330851 0.00112225 10
16.7041 8.95666 0.99333 0.0011174 10
16.6927 8.95056 1.65712 0.00086362 10
16.6973 8.953 2.32629 0.000852213 10
16.6763 8.94174 2.997 0.000837147 10
16.6776 8.94243 3.6784 0.000818576 10
16.6836 8.94569 4.37048 0.000796688 10
16.6856 8.94675 5.07305 0.000771705 10
2.1988 1.18889 -0.669775 0.0564503 8
2.17815 1.17772 -0.571666 0.0579992 8
2.19579 1.18726 -0.485214 0.0593542 8
2.19531 1.187 -0.395274 0.0605038 8
2.19659 1.18769 -0.306609 0.0614378 8
2.18486 1.18135 -0.217303 0.0621484 8
16.7111 9.03564 -0.995614 0.000618122 10
16.7077 9.03382 -0.331535 0.000621103 10
16.7069 9.03336 0.331518 0.00062132 10
16.6933 9.02602 0.994554 0.000618771 10
16.6146 8.98347 1.65246 0.000869798 10
16.6201 8.98645 2.31989 0.000858314 10
16.6154 8.98393 2.99168 0.000843145 10
16.6269 8.99015 3.67414 0.000824447 10
16.6211 8.98697 4.36228 0.00080241 10
16.6142 8.98324 5.06083 0.000777256 10
2.1826 1.18999 -0.6661 0.0563224 8
2.18097 1.1891 -0.573493 0.0578677 8
2.1952 1.19686 -0.486005 0.0592196 8
2.17014 1.1832 -0.391484 0.0603665 8
2.18666 1.19221 -0.305801 0.0612984 8
2.17839 1.1877 -0.217071 0.0620073 8
16.7873 9.15275 -1.00205 0.000604018 10
16.7876 9.15292 -0.333753 0.000606935 10
16.7677 9.14207 0.333357 0.000607149 10
16.7609 9.13831 1.00047 0.000604658 10
16.5718 9.03522 1.65133 0.000875969 10
16.5715 9.03509 2.3175 0.000864405 10
16.5591 9.02832 2.9872 0.000849134 10
16.5515 9.02415 3.6644 0.000830309 10
16.5633 9.03058 4.35536 0.000808123 10
16.5511 9.02396 5.05119 0.000782799 10
2.16629 1.19093 -0.662388 0.0561899 8
2.17357 1.19493 -0.57264 0.0577315 8
2.18226 1.19971 -0.484065 0.0590802 8
2.17975 1.19833 -0.393971 0.0602243 8
2.17863 1.19771 -0.305261 0.0611541 8
2.17758 1.19713 -0.217405 0.0618613 8
16.8537 9.2654 -1.00794 0.000590106 10
16.8549 9.26606 -0.335731 0.000592961 10
16.8406 9.25818 0.335445 0.000593172 10
16.8559 9.26658 1.00807 0.000590736 10
16.512 9.07752 1.64852 0.000882128 10
16.5046 9.07349 2.31256 0.000870487 10
16.5111 9.07706 2.98423 0.000855114 10
16.5085 9.0756 3.66187 0.000836163 10
16.5037 9.07301 4.34801 0.000813828 10
16.4959 9.06869 5.04396 0.000788334 10
2.17699 1.20673 -0.666945 0.0560529 8
2.15743 1.19588 -0.569483 0.0575907 8
2.15885 1.19667 -0.479794 0.058936 8
2.17747 1.20699 -0.394316 0.0600773 8
2.17292 1.20447 -0.305047 0.0610048 8
2.1552 1.19465 -0.215586 0.0617103 8
30.0389 16.6508 -1.79995 0.000200319 10
30.1455 16.7099 -0.601624 7.15017e-05 10
30.1204 16.696 0.601123 7.15309e-05 10
18.0375 9.99837 1.08082 5.24133e-05 10
16.425 9.10451 1.643 0.000888277 10
16.4481 9.11731 2.30908 0.00087656 10
16.436 9.1106 2.97638 0.000861084 10
16.4429 9.11443 3.65435 0.000842007 10
16.4296 9.10709 4.33683 0.000819523 10
16.4455 9.11588 5.03825 0.000793859 10
2.14974 1.20145 -0.659876 0.0559113 8
2.16229 1.20846 -0.571876 0.0574452 8
2.15191 1.20266 -0.479183 0.0587871 8
2.14759 1.20025 -0.389663 0.0599255 8
2.16458 1.20974 -0.304468 0.0608506 8
2.16539 1.2102 -0.217027 0.0615543 8
29.9317 16.7283 -1.79702 0.000201908 10
29.9348 16.73 -0.59858 0.000134068 10
29.9247 16.7243 0.598377 0.000134088 10
18.0004 10.0601 1.08069 5.24232e-05 10
16.3668 9.1471 1.64036 0.000894416 10
16.3639 9.14544 2.30173 0.000882621 10
16.381 9.15505 2.9722 0.000867043 10
16.3775 9.15306 3.6469 0.00084784 10
16.3688 9.14821 4.32918 0.000825208 10
16.3778 9.15324 5.02727 0.000799375 10
2.13968 1.20565 -0.658077 0.0557654 8
2.13763 1.20449 -0.566465 0.0572952 8
2.15235 1.21279 -0.48022 0.0586336 8
2.13867 1.20508 -0.388804 0.059769 8
2.15117 1.21212 -0.303175 0.0606917 8
2.15043 1.2117 -0.215949 0.0613935 8
29.8315 16.8092 -1.79451 0.000203495 10
29.9159 16.8567 -0.599375 7.1394e-05 10
29.8961 16.8456 0.598978 7.14235e-05 10
17.9603 10.1201 1.0804 5.24332e-05 10
16.3985 9.24007 1.64676 0.000472913 10
16.3982 9.2399 2.31108 0.00046678 10
16.4032 9.2427 2.98205 0.000458644 10
16.4115 9.24738 3.66163 0.000448586 10
16.4013 9.24167 4.34629 0.000436709 10
16.3882 9.23425 5.04032 0.000423132 10
2.15018 1.22147 -0.662613 0.0556148 8
2.14099 1.21625 -0.568474 0.0571404 8
2.13916 1.21521 -0.47822 0.0584752 8
2.1296 1.20978 -0.387921 0.0596075 8
2.14121 1.21637 -0.302367 0.0605276 8
2.13402 1.21229 -0.214726 0.0612276 8
29.7108 16.8781 -1.79078 0.000205081 10
29.718 16.8821 -0.596587 0.000136175 10
29.706 16.8754 0.596346 0.000136195 10
17.9364 10.1893 1.0811 5.24433e-05 10
17.1409 9.73738 1.72472 0.00041509 10
16.9135 9.60821 3.78111 0.000168739 10
17.1441 9.73917 4.55209 0.000383054 10
17.1383 9.73588 5.28144 0.000371045 10
2.12779 1.2186 -0.657021 0.0554597 8
2.12834 1.21891 -0.566243 0.056981 8
2.14099 1.22616 -0.479584 0.058312 8
2.12664 1.21794 -0.388155 0.0594411 8
2.12459 1.21677 -0.30062 0.0603587 8
2.13725 1.22402 -0.215479 0.0610567 8
29.5958 16.9497 -1.78741 0.000206665 10
29.6879 17.0024 -0.597171 7.1283e-05 10
29.6797 16.9977 0.597005 7.13129e-05 10
17.8944 10.2482 1.08071 5.24534e-05 10
17.2262 9.86555 1.73676 0.000405068 10
17.368 9.94675 2.45749 0.000250239 10
17.3659 9.94555 3.16962 0.00024583 10
16.8685 9.66067 3.77856 0.000168748 10
17.2263 9.8656 4.58304 0.000373772 10
17.2243 9.86443 5.31852 0.00036204 10
2.11433 1.22071 -0.654176 0.0553001 8
2.11224 1.2195 -0.563088 0.056817 8
2.12359 1.22605 -0.476642 0.0581441 8
2.13149 1.23061 -0.38982 0.05927 8
2.12712 1.22809 -0.301582 0.0601849 8
2.11664 1.22204 -0.21383 0.0608806 8
17.5543 10.135 -1.06231 0.000624931 10
17.5634 10.1402 -0.353996 0.000627841 10
17.5677 10.1427 0.354083 0.000627923 10
17.5682 10.143 1.06314 0.000625177 10
17.3016 9.98908 1.74786 0.000395192 10
17.3189 9.99908 2.45547 0.000477721 10
17.3181 9.99863 3.16726 0.000469189 10
16.84 9.7226 3.77977 0.000168756 10
17.3001 9.98822 4.61192 0.000364626 10
17.3132 9.99579 5.35673 0.000353168 10
2.12638 1.23758 -0.659237 0.055136 8
2.12657 1.23769 -0.568057 0.0566484 8
2.12237 1.23525 -0.477334 0.0579715 8
2.11084 1.22854 -0.386825 0.059094 8
2.1105 1.22834 -0.299831 0.0600062 8
2.10456 1.22488 -0.21304 0.0606998 8
17.488 10.1783 -1.06044 0.000629128 10
17.4877 10.1781 -0.353185 0.000632057 10
17.4863 10.1772 0.353156 0.000632139 10
17.4992 10.1848 1.06111 0.000629375 10
17.3863 10.119 1.75997 0.000385465 10
17.2947 10.0658 2.457 0.000749926 10
17.2788 10.0565 3.16646 0.000736533 10
16.8069 9.78183 3.77996 0.000168765 10
17.3896 10.121 4.64518 0.000355618 10
17.3877 10.1199 5.39068 0.000344429 10
2.10336 1.23403 -0.653432 0.0549674 8
2.10699 1.23617 -0.563977 0.0564751 8
2.12082 1.24428 -0.477958 0.0577941 8
2.09601 1.22972 -0.384893 0.0589132 8
2.11598 1.24144 -0.301224 0.0598225 8
2.09711 1.23037 -0.21272 0.0605141 8
17.4744 10.2522 -1.06178 0.000320832 10
17.4768 10.2536 -0.353686 0.000322406 10
17.4909 10.2618 0.353971 0.000322528 10
17.4832 10.2573 1.06231 0.000321197 10
17.466 10.2472 1.77165 0.000375884 10
17.2128 10.0987 2.45035 0.000754911 10
17.2282 10.1077 3.16364 0.000741434 10
16.7946 9.85332 3.78491 0.000396747 10
17.4832 10.2574 4.67972 0.000346746 10
17.4643 10.2462 5.42547 0.000335823 10
2.08926 1.23558 -0.650386 0.0547944 8
2.11211 1.2491 -0.566509 0.0562972 8
2.10766 1.24647 -0.475971 0.0576121 8
2.09033 1.23622 -0.38464 0.0587276 8
2.09945 1.24161 -0.299485 0.0596339 8
2.10849 1.24696 -0.214314 0.0603235 8
17.6212 10.4212 -1.0729 0.000612315 10
17.622 10.4216 -0.357358 0.000615171 10
17.6206 10.4208 0.357329 0.000615252 10
17.6161 10.4181 1.07258 0.000612555 10
17.5717 10.3919 1.78605 0.000366449 10
17.1615 10.1493 2.44808 0.000759885 10
17.1506 10.1428 3.15586 0.000746323 10
16.864 9.97337 3.80839 0.000386839 10
17.5492 10.3786 4.70704 0.00033801 10
17.5492 10.3786 5.46306 0.00032735 10
2.08789 1.24463 -0.651308 0.0546168 8
2.10025 1.252 -0.564497 0.0561148 8
2.10059 1.2522 -0.475359 0.0574253 8
2.09902 1.25126 -0.38704 0.0585372 8
2.08011 1.23999 -0.297343 0.0594405 8
2.09166 1.24688 -0.213044 0.0601279 8
17.8256 10.6262 -1.0876 0.000592257 10
17.8109 10.6174 -0.361938 0.000595026 10
17.8018 10.612 0.361753 0.000595104 10
17.7081 10.5561 1.08043 4.05832e-05 10
17.6492 10.521 1.79764 0.000357161 10
17.0834 10.1838 2.442 0.000764847 10
17.0809 10.1823 3.14957 0.0007512 10
16.9514 10.1051 3.83606 0.000377083 10
17.6329 10.5113 4.73932 0.000329411 10
17.6448 10.5184 5.50423 0.000319008 10
2.07681 1.24787 -0.649206 0.0544348 8
2.08214 1.25107 -0.5608 0.0559277 8
2.08939 1.25543 -0.473811 0.0572339 8
2.07448 1.24647 -0.383315 0.058342 8
2.08725 1.25415 -0.298988 0.0592423 8
2.09584 1.25931 -0.213916 0.0921011 8
17.7444 10.6619 -1.0849 0.000596116 10
17.754 10.6677 -0.361537 0.000598902 10
17.7521 10.6665 0.361497 0.00059898 10
17.7429 10.661 1.08481 0.000351054 10
17.739 10.6587 1.81057 0.000348017 10
17.0503 10.2448 2.44236 0.00038252 10
17.0443 10.2412 3.14938 0.000375794 10
17.0268 10.2307 3.86117 0.000367478 10
17.7213 10.648 4.77303 0.000320946 10
17.7248 10.6502 5.54076 0.000310798 10
2.07431 1.25625 -0.649793 0.0542483 8
2.06871 1.25286 -0.558359 0.0557361 8
2.08629 1.2635 -0.474107 0.0570377 8
2.08867 1.26494 -0.386751 0.0581418 8
2.07445 1.25633 -0.297779 0.0590393 8
17.8333 10.8002 -1.82403 0.000433948 10
17.934 10.8612 -1.09881 0.000576797 10
17.9332 10.8608 -0.365956 0.000579499 10
17.9222 10.8541 0.36573 0.000579575 10
17.8344 10.8009 1.0927 0.00034198 10
17.8266 10.7962 1.82334 0.000339018 10
17.8106 10.7865 2.55665 0.000334547 10
17.8246 10.7949 3.30051 0.000328612 10
17.8077 10.7847 4.04678 0.000321277 10
17.812 10.7873 4.80757 0.000312616 10
17.815 10.7892 5.58069 0.000302718 10
2.05983 1.25733 -0.646629 0.0540573 8
2.06084 1.25794 -0.557415 0.0555399 8
2.06323 1.2594 -0.469862 0.0568369 8
2.05991 1.25737 -0.382236 0.0579371 8
2.0745 1.26628 -0.29842 0.0588314 8
17.9178 10.9371 -1.83657 0.000422607 10
17.906 10.9299 -1.09942 0.000281807 10
17.9295 10.9442 -0.366657 0.000283203 10
17.9264 10.9423 0.366593 0.000283315 10
17.9057 10.9297 1.09941 0.000333051 10
17.9106 10.9327 1.83583 0.000330164 10
17.8968 10.9243 2.57449 0.000325804 10
17.8972 10.9245 3.32099 0.000320018 10
17.9049 10.9292 4.07751 0.000312865 10
17.9076 10.9309 4.84365 0.00030442 10
17.8986 10.9253 5.61877 0.00029477 10
2.05706 1.26551 -0.647141 0.0538619 8
2.07136 1.27431 -0.561459 0.0553391 8
2.07082 1.27398 -0.472601 0.0566314 8
2.07207 1.27475 -0.385316 0.0577277 8
2.04859 1.2603 -0.295323 0.0586187 8
17.9996 11.0734 -1.8489 0.000411451 10
18.0433 11.1003 -1.11023 0.000561881 10
18.0632 11.1126 -0.370183 0.000564519 10
18.0427 11.0999 0.369762 0.000564592 10
18.0116 11.0808 1.10828 0.000324267 10
17.9923 11.0689 1.84815 0.000321453 10
18.0113 11.0806 2.5965 0.000317203 10
17.9945 11.0703 3.3462 0.000311563 10
18.0078 11.0785 4.10973 0.00030459 10
18.0028 11.0754 4.87981 0.000296357 10
18.0017 11.0747 5.66326 0.00028695 10
2.05865 1.27642 -0.64904 0.0536621 8
2.0605 1.27757 -0.559723 0.0551338 8
2.0485 1.27012 -0.468515 0.0564211 8
2.04514 1.26804 -0.381128 0.0575134 8
2.05337 1.27314 -0.296652 0.0584011 8
18.0952 11.2195 -1.86273 0.000400477 10
18.2486 11.3146 -1.12528 0.000544067 10
18.2372 11.3076 -0.374556 0.000546627 10
18.2347 11.306 0.374504 0.000546698 10
18.097 11.2206 1.11593 0.000315627 10
18.1024 11.2239 1.86347 0.000312885 10
18.0819 11.2112 2.6123 0.000308744 10
18.0924 11.2178 3.37167 0.000303247 10
18.0926 11.2179 4.13799 0.000296451 10
18.0865 11.2141 4.9131 0.000288428 10
18.0796 11.2098 5.70004 0.000279261 10
2.05604 1.28475 -0.649625 0.0534579 8
2.04476 1.2777 -0.556653 0.0549239 8
2.03614 1.27232 -0.466702 0.0562063 8
2.05476 1.28396 -0.383755 0.0572945 8
2.04216 1.27608 -0.295673 0.0581788 8
18.1925 11.3679 -1.87682 0.000389687 10
18.1814 11.361 -1.12357 0.000259868 10
18.2035 11.3748 -0.374676 0.000261163 10
18.2018 11.3738 0.374641 0.000261268 10
18.1771 11.3583 1.12331 0.000307132 10
18.1967 11.3706 1.87726 0.00030446 10
18.1945 11.3692 2.63428 0.000300425 10
18.1856 11.3636 3.3964 0.00029507 10
18.1868 11.3644 4.16857 0.000288449 10
18.1855 11.3636 4.95074 0.000280632 10
18.1635 11.3498 5.73893 0.0002717 10
2.03989 1.28459 -0.645938 0.0532493 8
2.02829 1.27728 -0.553381 0.0547095 8
2.04568 1.28823 -0.469916 0.0559869 8
2.03666 1.28255 -0.381208 0.0570708 8
2.02814 1.27719 -0.294288 0.0579516 8
18.2836 11.5138 -1.89035 0.000379078 10
18.352 11.5569 -1.1366 0.000530296 10
18.3486 11.5547 -0.378491 0.000532796 10
18.3389 11.5486 0.378289 0.000532866 10
18.2896 11.5176 1.13274 0.000298779 10
18.2785 11.5106 1.88983 0.000296177 10
18.2816 11.5125 2.6527 0.000292247 10
18.2789 11.5108 3.42132 0.000287031 10
18.2658 11.5026 4.19587 0.000280581 10
18.2646 11.5018 4.98317 0.000272967 10
18.2762 11.5092 5.78722 0.000264267 10
2.0241 1.28453 -0.642352 0.0530362 8
2.03774 1.29319 -0.557189 0.0544904 8
2.02396 1.28445 -0.465955 0.0557628 8
2.01815 1.28076 -0.378578 0.0568424 8
2.01825 1.28082 -0.2935 0.0577198 8
18.3783 11.6632 -1.90435 0.00036865 10
18.5224 11.7547 -1.14969 0.000513833 10
18.5408 11.7664 -0.383301 0.000516262 10
18.5357 11.7631 0.383195 0.000516329 10
18.3827 11.666 1.14102 0.000290568 10
18.3718 11.6591 1.90367 0.000288035 10
18.3833 11.6664 2.67336 0.000284209 10
18.3607 11.6521 3.44423 0.000279129 10
18.374 11.6605 4.23004 0.000272849 10
18.3558 11.6489 5.01909 0.000265434 10
18.354 11.6478 5.82467 0.000256963 10
2.02632 1.29589 -0.644489 0.0528188 8
2.02975 1.29808 -0.556238 0.054267 8
2.02837 1.2972 -0.46801 0.0555342 8
2.02183 1.29302 -0.380113 0.0566093 8
2.02465 1.29482 -0.295086 0.0992279 8
18.483 11.8204 -1.91946 0.000358404 10
18.4683 11.8109 -1.14888 0.000239019 10
18.4821 11.8198 -0.382938 0.000240218 10
18.4715 11.813 0.382717 0.000240317 10
18.4684 11.8111 1.1489 0.0002825 10
18.4818 11.8196 1.91934 0.000280035 10
18.4681 11.8108 2.69166 0.00027631 10
18.4744 11.8149 3.47327 0.000271364 10
18.476 11.8159 4.26299 0.000265251 10
18.4543 11.802 5.05728 0.000258032 10
18.4658 11.8094 5.87322 0.000249785 10
2.02296 1.30371 -0.644862 0.052597 8
2.023 1.30373 -0.555632 0.054039 8
2.01376 1.29778 -0.465681 0.0553009 8
2.00851 1.29439 -0.378455 0.0563715 8
2.03828 1.31358 -0.297738 0.0981659 8
18.5917 11.9815 -1.93508 0.000348336 10
18.6344 12.0091 -1.16182 0.000501087 10
18.6434 12.0148 -0.387145 0.00050346 10
18.6403 12.0129 0.387082 0.000503526 10
18.5662 11.9651 1.15757 0.000274572 10
18.5781 11.9728 1.93366 0.000272173 10
18.4946 11.919 2.70158 0.000590507 10
18.5109 11.9294 3.48793 0.000579761 10
18.5624 11.9627 4.29254 0.000257785 10
18.5738 11.97 5.10145 0.00025076 10
18.4998 11.9223 5.89723 0.000533141 10
2.00878 1.30452 -0.641791 0.0523708 8
1.99622 1.29636 -0.549517 0.0538066 8
2.01397 1.30789 -0.466782 0.0550631 8
1.99525 1.29573 -0.376807 0.0561291 8
18.4339 11.9711 -2.69879 4.43572e-05 1
18.6715 12.1254 -1.94778 0.000338447 10
18.8225 12.2235 -1.1762 0.000485841 10
18.817 12.2199 -0.391633 0.000488147 10
18.8128 12.2172 0.391546 0.000488211 10
18.6811 12.1316 1.16736 0.000266786 10
18.6656 12.1216 1.94717 0.000264452 10
18.4322 11.97 2.69854 0.000594068 10
18.4214 11.963 3.47891 0.000583261 10
18.6662 12.1219 4.32629 0.000250453 10
18.6732 12.1265 5.14035 0.000243618 10
18.4295 11.9682 5.88808 0.000536375 10
2.00387 1.3113 -0.641682 0.0521401 8
2.00978 1.31517 -0.554511 0.0535698 8
1.98858 1.30129 -0.461946 0.0548207 8
1.98862 1.30132 -0.37641 0.055882 8
18.3769 12.0255 -2.69657 4.43532e-05 1
18.7928 12.2976 -1.9649 0.000328735 10
18.7779 12.2879 -1.17609 0.000219245 10
18.7894 12.2954 -0.39195 0.000220352 10
18.767 12.2808 0.391484 0.000220446 10
18.7826 12.291 1.17638 0.000259138 10
18.7621 12.2776 1.96169 0.000256868 10
18.3651 12.0178 2.69485 0.000597618 10
18.3496 12.0076 3.47324 0.000586749 10
18.7682 12.2815 4.35985 0.000243252 10
18.758 12.2749 5.17545 0.000236604 10
18.3644 12.0174 5.88067 0.000539597 10
1.99294 1.3141 -0.639644 0.0519052 8
1.98721 1.31032 -0.549541 0.0533285 8
1.97977 1.30541 -0.460955 0.0545737 8
1.9799 1.30551 -0.375621 0.0556303 8
18.3502 12.0997 -2.69884 4.43493e-05 1
18.8933 12.4578 -1.97994 0.0003192 10
18.9138 12.4714 -1.18732 0.000474016 10
18.926 12.4794 -0.395707 0.000476271 10
18.9275 12.4804 0.395738 0.000476333 10
18.8779 12.4477 1.18506 0.000251629 10
18.8833 12.4513 1.97889 0.000249423 10
18.2813 12.0543 2.68871 0.000601154 10
18.2771 12.0515 3.46747 0.000590224 10
18.8647 12.439 4.39233 0.000236183 10
18.8645 12.4388 5.21677 0.000229718 10
18.2866 12.0578 5.86918 0.000542807 10
1.98203 1.31686 -0.637614 0.0516661 8
1.97392 1.31147 -0.547128 0.0530827 8
1.9737 1.31133 -0.460607 0.0543223 8
1.9922 1.32361 -0.378828 0.0553739 8
18.294 12.1545 -2.6968 4.43453e-05 1
18.9948 12.6201 -1.99518 0.000309841 10
18.9886 12.616 -1.19477 0.000312859 10
18.9857 12.6141 -0.397873 0.000314446 10
18.9844 12.6132 0.397845 0.000314582 10
18.9741 12.6064 1.19386 0.000244259 10
18.9872 12.615 1.99438 0.000242114 10
18.2352 12.1154 2.68813 0.000266821 10
18.2355 12.1156 3.46758 0.000262051 10
18.9714 12.6046 4.42739 0.000229244 10
18.9749 12.6069 5.25945 0.00022296 10
18.2279 12.1106 5.86387 0.000241231 10
1.97446 1.32178 -0.636659 0.0514226 8
1.97093 1.31942 -0.547573 0.0528326 8
1.97869 1.32462 -0.462847 0.0540662 8
1.9756 1.32255 -0.376547 0.055113 8
18.2698 12.2305 -2.69951 4.43413e-05 1
19.0946 12.7827 -2.01034 0.000300656 10
19.0852 12.7764 -1.20365 0.000303591 10
19.0849 12.7762 -0.400884 0.000305134 10
19.1009 12.7869 0.40122 0.000305268 10
19.0984 12.7853 1.20448 0.000237026 10
19.0874 12.7779 2.00958 0.000234942 10
19.2044 12.8562 2.83761 0.00033141 10
19.2058 12.8572 3.6606 0.000325318 10
19.0927 12.7815 4.46609 0.000222435 10
19.0828 12.7748 5.30167 0.000216329 10
19.2121 12.8614 6.19489 0.000298897 10
1.95847 1.321 -0.632987 0.0806672 8
1.98075 1.33603 -0.551594 0.0847815 8
1.96901 1.32811 -0.461663 0.089193 8
1.97751 1.33385 -0.377796 0.126015 8
18.2304 12.2966 -2.70002 4.43372e-05 1
19.2064 12.9549 -2.02686 0.000291645 10
27.302 18.4154 -1.7259 0.000239184 10
41.8816 28.2495 -0.881801 5.54889e-05 10
41.8805 28.2487 0.881776 5.54979e-05 10
19.1648 12.9268 1.21151 0.000532182 10
19.1626 12.9253 2.02223 0.000527334 10
19.1535 12.9192 2.83672 0.00052009 10
19.1615 12.9246 3.66072 0.000510528 10
19.1554 12.9205 4.49128 0.000498751 10
19.1606 12.924 5.33579 0.000484882 10
19.1544 12.9198 6.19079 0.000469067 10
1.9752 1.34234 -0.639905 0.0794384 8
1.96954 1.3385 -0.54977 0.0839572 8
1.98973 1.35222 -0.467626 0.0878358 8
1.98724 1.35053 -0.380554 0.124098 8
18.1747 12.3515 -2.69813 4.43331e-05 1
19.3259 13.1338 -2.04429 0.000282807 10
27.2009 18.4857 -1.72358 0.000240684 10
33.8165 22.9816 -0.713677 3.36632e-05 10
33.8119 22.9786 0.713581 3.36806e-05 10
19.0928 12.9754 1.20981 0.000535243 10
19.0758 12.9639 2.01784 0.000530368 10
19.0809 12.9674 2.83267 0.000523084 10
19.0925 12.9753 3.65619 0.000513471 10
19.0839 12.9694 4.48509 0.00050163 10
19.0937 12.9761 5.32975 0.000487685 10
19.0846 12.9698 6.18282 0.000471784 10
8.24181 5.64328 -2.67646 0.000767689 4
9.41493 6.44654 -2.63431 0.00015704 4
10.8095 7.40141 -2.5465 0.000305366 4
14.0964 9.65197 -2.70586 0.000110109 1
18.1453 12.4243 -2.70019 4.43291e-05 1
19.419 13.2964 -2.05904 0.00027414 10
27.0883 18.5477 -1.72054 0.000242177 10
41.561 28.4574 -0.879212 5.62859e-05 10
41.5598 28.4566 0.879187 5.6295e-05 10
19.0158 13.0204 1.2078 0.000538291 10
19.0192 13.0227 2.01665 0.000533389 10
19.0006 13.0099 2.82746 0.000526067 10
19.0015 13.0106 3.64742 0.000516402 10
19.0104 13.0167 4.47848 0.000504496 10
19.0148 13.0197 5.32037 0.000490476 10
19.0016 13.0107 6.17063 0.000474488 10
8.22414 5.67345 -2.67714 8.22493e-05 4
9.39653 6.48223 -2.63548 0.000106377 4
10.7645 7.42596 -2.542 0.000276258 4
14.053 9.69451 -2.70402 0.000110102 1
18.0964 12.4839 -2.69938 4.4325e-05 1
19.5512 13.4874 -2.07803 0.000265644 10
26.9917 18.6203 -1.71852 0.000243665 10
33.6369 23.2045 -0.713289 3.31685e-05 10
33.6335 23.2022 0.713216 3.3186e-05 10
18.9378 13.0643 1.20574 0.000541326 10
18.9378 13.0643 2.01284 0.000536398 10
18.9445 13.0689 2.82589 0.000529036 10
18.9375 13.0641 3.64387 0.00051932 10
18.9297 13.0587 4.47016 0.00050735 10
18.9364 13.0633 5.31116 0.000493255 10
18.9332 13.0611 6.16317 0.000477182 10
8.21539 5.70984 -2.68076 0.000207573 4
9.38306 6.52139 -2.63807 0.000174755 4
10.7271 7.45552 -2.53929 0.000338137 4
14.032 9.75246 -2.7065 0.000110094 1
18.0472 12.5431 -2.69856 4.43208e-05 1
19.6618 13.6653 -2.09486 0.000257317 10
26.8734 18.6775 -1.71513 0.000245147 10
33.3919 23.2079 -0.709807 8.01007e-05 10
33.3858 23.2038 0.709678 8.01127e-05 10
18.8755 13.1188 1.20468 0.000226941 10
18.8765 13.1195 2.01118 0.00022495 10
18.8754 13.1188 2.8224 0.000221937 10
18.8679 13.1135 3.63926 0.000217934 10
18.8743 13.118 4.46789 0.000212984 10
18.8755 13.1188 5.30689 0.00020714 10
18.8792 13.1214 6.16048 0.000200462 10
8.1969 5.73953 -2.68125 0.000144904 4
9.35682 6.55171 -2.63711 0.000134226 4
10.6702 7.47136 -2.53198 0.000245803 4
13.9806 9.7893 -2.70317 0.000110086 1
18.0004 12.604 -2.69813 4.43167e-05 1
19.7832 13.8524 -2.11293 0.000249158 10
26.7854 18.7554 -1.71368 0.000246623 10
40.919 28.6518 -0.871931 5.83132e-05 10
40.9246 28.6557 0.872049 5.83226e-05 10
19.0004 13.3042 1.21561 0.000219813 10
18.9824 13.2916 2.0274 0.000217882 10
18.9793 13.2894 2.84485 0.000214959 10
18.983 13.292 3.6704 0.000211076 10
18.9903 13.2971 4.50629 0.000206275 10
18.9716 13.2841 5.34692 0.000200605 10
18.9891 13.2963 6.21143 0.000194127 10
8.15924 5.75571 -2.67549 0.000172312 4
9.34064 6.58909 -2.63901 6.33112e-05 4
10.6429 7.50771 -2.53169 0.000355279 4
13.9517 9.84183 -2.70421 0.000110079 1
17.9662 12.6737 -2.69961 4.43125e-05 1
19.887 14.0288 -2.12923 0.000241166 10
26.6743 18.8167 -1.71077 0.000248092 10
40.7532 28.7482 -0.870531 5.8711e-05 10
40.7719 28.7614 0.87093 5.87204e-05 10
19.1108 13.4812 1.22568 0.00021283 10
19.0983 13.4724 2.04479 0.000210957 10
19.0933 13.4688 2.86897 0.000208123 10
19.0941 13.4694 3.70094 0.000204358 10
19.092 13.4679 4.54156 0.000199701 10
19.1005 13.4739 5.39647 0.000194203 10
19.0979 13.4721 6.26239 0.000187922 10
8.15369 5.79452 -2.68028 0.000223213 4
9.29629 6.60653 -2.63298 6.0776e-05 4
10.5935 7.52839 -2.52619 0.000302373 4
13.9281 9.89816 -2.70631 0.000110071 1
17.9284 12.7411 -2.7006 4.43083e-05 1
20.0095 14.22 -2.14764 0.00023334 10
26.5634 18.8776 -1.70786 0.000249555 10
40.5968 28.8506 -0.869336 5.91072e-05 10
40.6125 28.8618 0.869671 5.91167e-05 10
19.2177 13.6573 1.23558 0.000205989 10
19.2354 13.6699 2.06456 0.000204174 10
19.2113 13.6527 2.89384 0.000201427 10
19.216 13.6561 3.73379 0.000197777 10
19.2261 13.6633 4.58477 0.000193264 10
19.2145 13.6551 5.44212 0.000187934 10
19.2219 13.6603 6.31862 0.000181845 10
8.12788 5.81899 -2.67846 0.0002467 4
9.28508 6.64746 -2.63636 7.09021e-05 4
10.5654 7.56411 -2.52578 0.000259687 4
13.8787 9.93616 -2.70344 0.000110063 1
17.8715 12.7947 -2.69873 4.43041e-05 1
20.1394 14.4184 -2.16697 0.000225678 10
20.4667 14.6527 -1.31916 0.00035788 10
20.4712 14.6559 -0.439461 0.000359621 10
20.4624 14.6496 0.439272 0.000359668 10
19.351 13.854 1.24725 0.000199291 10
19.339 13.8454 2.08086 0.000197533 10
19.3414 13.8471 2.92071 0.000194871 10
19.3322 13.8405 3.76573 0.000191334 10
19.3396 13.8458 4.62334 0.00018696 10
19.3387 13.8452 5.49095 0.000181795 10
19.3313 13.8399 6.37044 0.000175894 10
8.09705 5.83977 -2.675 0.000317173 4
9.27124 6.68663 -2.63905 6.07704e-05 4
10.522 7.58873 -2.52172 0.000215107 4
13.8532 9.99124 -2.70525 0.000110055 1
17.8304 12.8597 -2.69929 4.42999e-05 1
20.2736 14.6218 -2.18689 0.00021818 10
20.38 14.6985 -1.31687 0.000359819 10
20.3891 14.7051 -0.438799 0.000361568 10
20.3863 14.7031 0.438738 0.000361615 10
19.4578 14.0334 1.25729 0.000192734 10
19.4626 14.0369 2.09941 0.000191031 10
19.4698 14.042 2.94747 0.000188452 10
19.4523 14.0294 3.79864 0.000185026 10
19.4525 14.0296 4.66201 0.000180789 10
19.4582 14.0337 5.53874 0.000175786 10
19.4508 14.0283 6.42591 0.000170071 10
8.07523 5.86699 -2.67454 7.83113e-05 4
9.24095 6.71394 -2.63708 0.000119003 4
10.5041 7.63164 -2.52378 0.00021028 4
13.8111 10.0344 -2.70386 0.000110047 1
17.7902 12.9253 -2.70002 4.42956e-05 1
20.3924 14.816 -2.20528 0.000210844 10
20.5523 14.9321 -1.33137 0.000349985 10
20.5514 14.9314 -0.443409 0.000351691 10
20.3929 14.8163 0.439989 0.000141467 10
19.5842 14.2287 1.26865 0.000186317 10
19.5905 14.2333 2.11855 0.000184668 10
19.5737 14.2211 2.9707 0.000182172 10
19.5848 14.2292 3.8342 0.000178854 10
19.5857 14.2298 4.70581 0.000174751 10
19.5675 14.2166 5.58395 0.000169907 10
19.5739 14.2212 6.48293 0.000164373 10
8.06247 5.90084 -2.67712 0.000395456 4
9.22184 6.74936 -2.63833 7.84878e-05 4
10.463 7.65778 -2.52033 0.000202242 4
13.7785 10.0844 -2.70435 0.00011004 1
17.7335 12.9789 -2.69827 4.42913e-05 1
20.5283 15.0244 -2.22563 0.000203669 10
20.521 15.0191 -1.33273 0.000135878 10
20.5272 15.0237 -0.444017 0.00013659 10
20.5156 15.0152 0.443766 0.000136658 10
19.7116 14.4267 1.28016 0.000180038 10
19.7128 14.4276 2.13721 0.000178443 10
19.7178 14.4312 3.0002 0.000176027 10
19.7112 14.4264 3.86877 0.000172816 10
19.7041 14.4212 4.74631 0.000168844 10
19.691 14.4117 5.63353 0.000164155 10
19.6959 14.4152 6.53998 0.000158798 10
8.05501 5.93866 -2.68151 8.61356e-05 4
9.25425 6.82282 -2.6544 0.000702283 4
10.4514 7.70542 -2.52399 0.000223096 4
13.7386 10.129 -2.70344 0.000110032 1
17.7003 13.0498 -2.70014 4.4287e-05 1
20.6602 15.232 -2.24568 0.000196652 10
20.6513 15.2254 -1.34463 0.0001312 10
20.6539 15.2274 -0.447905 0.00013189 10
20.6595 15.2315 0.448026 0.000131957 10
19.8486 14.6336 1.29237 0.000173898 10
19.8295 14.6195 2.15538 0.000172355 10
19.8377 14.6256 3.0262 0.000170017 10
19.8458 14.6316 3.90519 0.00016691 10
19.8365 14.6248 4.79048 0.000163068 10
19.8209 14.6132 5.68525 0.000158531 10
19.8207 14.613 6.5983 0.000153348 10
8.02049 5.95654 -2.67693 0.000152689 4
9.30705 6.91203 -2.67645 0.000579839 4
10.4168 7.73617 -2.52213 0.000211849 4
13.7115 10.183 -2.70508 0.000110024 1
17.6488 13.1072 -2.69925 4.42827e-05 1
20.7874 15.4381 -2.26535 0.000189795 10
20.8002 15.4476 -1.35783 0.000126628 10
20.7759 15.4295 -0.451715 0.000127296 10
20.7951 15.4438 0.452132 0.000127361 10
19.9833 14.8409 1.30451 0.000167894 10
19.9693 14.8305 2.1762 0.000166402 10
19.9723 14.8327 3.0546 0.000164141 10
19.9738 14.8338 3.94054 0.000161136 10
19.9628 14.8257 4.83346 0.00015742 10
19.9664 14.8283 5.74177 0.000153032 10
19.944 14.8117 6.65652 0.000148019 10
8.00278 5.98684 -2.67797 0.000184002 4
9.2887 6.94884 -2.67813 0.000410223 4
10.3788 7.76435 -2.51949 0.000232699 4
13.6818 10.2353 -2.70625 0.000110016 1
17.5938 13.1619 -2.69785 4.42783e-05 1
20.9284 15.6564 -2.28666 0.000183093 10
20.9397 15.6649 -1.3705 0.000122161 10
20.93 15.6576 -0.45625 0.000122807 10
20.912 15.6441 0.455857 0.00012287 10
20.1098 15.0441 1.31619 0.000162025 10
20.1051 15.0406 2.1967 0.000160583 10
20.1067 15.0417 3.08317 0.000158398 10
20.1014 15.0378 3.97605 0.000155493 10
20.1034 15.0393 4.88018 0.0001519 10
20.098 15.0353 5.7947 0.000147658 10
20.0915 15.0304 6.72324 0.000142812 10
7.97942 6.01292 -2.67716 0.000187909 4
9.25488 6.97405 -2.67538 0.000559146 4
10.3508 7.79987 -2.51928 0.000231081 4
13.6363 10.2757 -2.70433 0.000110008 1
17.5674 13.238 -2.70086 4.4274e-05 1
21.083 15.8872 -2.30959 0.000176547 10
21.057 15.8676 -1.3818 0.000117796 10
21.0556 15.8665 -0.460193 0.000317145 10
21.0676 15.8756 0.460456 0.000317187 10
20.2269 15.2421 1.32733 0.000156291 10
20.2412 15.2528 2.21738 0.000154898 10
20.238 15.2504 3.11144 0.000152786 10
20.2314 15.2454 4.01226 0.000149979 10
20.2289 15.2435 4.92351 0.000146507 10
20.2335 15.247 5.84907 0.000142408 10
20.2104 15.2296 6.78076 0.000137725 10
7.97171 6.05086 -2.68165 9.39508e-05 4
9.22709 7.00374 -2.6744 0.000524937 4
10.3237 7.83612 -2.51933 0.00020058 4
13.6173 10.3361 -2.70771 0.000109999 1
17.508 13.2893 -2.69885 4.42696e-05 1
21.2185 16.1057 -2.33059 0.000170155 10
21.3768 16.2259 -1.40649 0.000455551 10
21.3646 16.2166 -0.468181 0.000457799 10
21.3733 16.2232 0.468372 0.000457859 10
20.3708 15.4623 1.3403 0.00015069 10
20.3632 15.4565 2.23664 0.000149345 10
20.3713 15.4626 3.14022 0.000147305 10
20.358 15.4526 4.04805 0.000144594 10
20.3698 15.4615 4.97092 0.00014124 10
20.3568 15.4516 5.90026 0.00013728 10
20.3616 15.4553 6.84954 0.000132757 10
7.93019 6.06309 -2.67479 9.3947e-05 4
9.2176 7.04738 -2.67876 0.000156253 4
10.3174 7.88823 -2.52449 0.000234264 4
13.5758 10.3795 -2.70664 0.000109991 1
17.456 13.3461 -2.69799 4.42652e-05 1
21.351 16.3241 -2.35138 0.000163916 10
21.3452 16.3197 -1.40815 0.000165587 10
21.3622 16.3326 -0.469375 0.000166471 10
21.3558 16.3277 0.469234 0.00016656 10
20.5269 15.694 1.35417 0.000145221 10
20.5119 15.6825 2.25897 0.000143923 10
20.503 15.6758 3.16894 0.000141953 10
20.5141 15.6842 4.08995 0.000139336 10
20.5153 15.6852 5.01977 0.000136097 10
20.4979 15.6718 5.95698 0.000132274 10
20.5063 15.6783 6.91661 0.000127907 10
7.91042 6.09184 -2.67527 0.000148743 4
10.2881 7.92293 -2.52409 0.000211788 4
13.539 10.4264 -2.70654 0.000109983 1
17.4101 13.4076 -2.69812 4.42608e-05 1
21.5045 16.5607 -2.37464 0.000157828 10
25.4336 19.5865 -1.68236 0.000265172 10
21.4981 16.5557 0.473627 0.000160382 10
21.5008 16.5578 1.42222 0.000124519 10
21.1915 16.3197 2.34008 0.000355539 10
21.1934 16.3211 3.28443 0.000350493 10
21.4951 16.5535 4.29703 0.000119417 10
21.4734 16.5367 5.26827 0.00011661 10
21.1933 16.321 6.17558 0.000325993 10
21.1817 16.3121 7.16356 0.000315004 10
7.89833 6.12657 -2.6784 0.000164394 4
9.15055 7.09789 -2.67361 5.37067e-05 4
10.7045 8.30327 -2.63334 0.000203255 4
13.5088 10.4785 -2.7078 0.000109975 1
17.3624 13.4677 -2.698 4.42563e-05 1
21.6501 16.7936 -2.39718 0.000151889 10
25.3376 19.6538 -1.68054 0.000266544 10
25.3418 19.6571 -0.559817 0.000176969 10
25.3536 19.6663 0.560078 0.000176993 10
21.6415 16.7869 1.4354 0.00011984 10
21.1163 16.3795 2.33807 0.000357297 10
21.1015 16.368 3.27903 0.000352227 10
21.638 16.7841 4.33727 0.000114919 10
21.6448 16.7894 5.32469 0.000112212 10
21.1132 16.3771 6.16888 0.000327613 10
21.117 16.38 7.16097 0.000316573 10
7.88022 6.1567 -2.67953 5.47956e-05 4
9.12461 7.12892 -2.67329 0.000107408 4
10.6783 8.34277 -2.63403 0.00016 4
13.4527 10.5104 -2.7039 0.000109967 1
17.3219 13.5334 -2.69903 4.42518e-05 1
21.8067 17.0372 -2.42108 0.000146098 10
25.2447 19.7233 -1.67894 0.000267908 10
21.7933 17.0268 1.44939 0.000115276 10
21.0319 16.4319 2.33506 0.000359044 10
21.0338 16.4334 3.2774 0.00035395 10
21.7878 17.0225 4.3792 0.000110534 10
21.7931 17.0266 5.37575 0.000107925 10
21.0343 16.4338 6.16255 0.000329223 10
21.0154 16.4191 7.14593 0.000318131 10
7.86458 6.18881 -2.68154 6.2621e-05 4
9.10969 7.16862 -2.67623 0.000109844 4
10.6507 8.38124 -2.63442 4.90061e-05 4
13.4241 10.5637 -2.70553 0.000109958 1
17.2845 13.6016 -2.70058 4.42474e-05 1
21.9835 17.2993 -2.4474 0.000140454 10
25.1481 19.7896 -1.6771 0.000269264 10
25.1339 19.7784 -0.558261 0.000178774 10
25.1362 19.7802 0.558313 0.000178798 10
21.9556 17.2773 1.46419 0.000110828 10
21.956 17.2777 2.44434 0.000109821 10
21.9468 17.2704 3.42903 0.000108292 10
21.9538 17.2759 4.42464 0.00010626 10
21.9556 17.2774 5.43069 0.000103746 10
21.9531 17.2754 6.44937 0.000100779 10
21.9486 17.2718 7.48369 9.73909e-05 10
7.83671 6.2113 -2.67941 0.000156546 4
9.08536 7.20097 -2.67646 0.000217236 4
10.618 8.41574 -2.6336 0.000157099 4
13.3915 10.614 -2.70642 0.00010995 1
17.2258 13.653 -2.69884 4.42428e-05 1
22.132 17.5416 -2.47074 0.000134954 10
25.0514 19.8555 -1.67526 0.000270611 10
25.1372 19.9235 -0.559876 6.1328e-05 10
25.1431 19.9282 0.560008 6.13638e-05 10
22.1283 17.5387 1.47978 0.000106494 10
22.1115 17.5253 2.46844 0.000105524 10
22.1024 17.5181 3.46287 0.000104053 10
22.1122 17.5259 4.46888 0.000102096 10
22.105 17.5202 5.48274 9.96753e-05 10
22.0944 17.5118 6.50878 9.68181e-05 10
22.1081 17.5226 7.55887 9.35556e-05 10
7.82012 6.24272 -2.68118 0.000226982 4
9.05187 7.22601 -2.674 0.000148885 4
10.5919 8.45538 -2.63442 0.000105206 4
13.3559 10.6618 -2.70672 0.000109942 1
17.1904 13.7229 -2.70078 4.42383e-05 1
22.303 17.8042 -2.49675 0.000129598 10
24.9405 19.9098 -1.67248 0.000271949 10
34.5152 27.5531 -0.770888 9.34492e-05 10
34.5069 27.5465 0.770703 9.34632e-05 10
22.2942 17.7972 1.49502 0.000102273 10
22.2721 17.7796 2.49329 0.00010134 10
22.2732 17.7805 3.49934 9.99239e-05 10
22.2834 17.7886 4.51599 9.80404e-05 10
22.2601 17.77 5.53654 9.57108e-05 10
22.2601 17.77 6.57585 9.29608e-05 10
22.2648 17.7738 7.63363 8.98209e-05 10
7.78916 6.26264 -2.67804 0.000211319 4
9.03784 7.26661 -2.67734 0.000524731 4
10.5564 8.4876 -2.63296 0.000141228 4
13.3049 10.6974 -2.70396 0.000109933 1
17.1282 13.7714 -2.69855 4.42337e-05 1
22.4585 18.0571 -2.5212 0.000124384 10
24.8517 19.9813 -1.67119 0.000273277 10
24.8756 20.0005 -0.557147 6.11556e-05 10
24.8711 19.9968 0.557044 6.1192e-05 10
22.4553 18.0545 1.51004 9.81637e-05 10
22.4366 18.0395 2.51873 9.72665e-05 10
22.4416 18.0435 3.53566 9.59041e-05 10
22.444 18.0454 4.56128 9.40924e-05 10
22.4417 18.0436 5.59734 9.18514e-05 10
22.4229 18.0284 6.64246 8.92062e-05 10
22.4291 18.0335 7.71149 8.6186e-05 10
7.7678 6.29024 -2.67823 0.000270008 4
9.00856 7.29499 -2.67619 0.000495419 4
10.527 8.52457 -2.63301 0.00018589 4
13.2687 10.7447 -2.70419 0.000109925 1
17.0959 13.844 -2.70105 4.42292e-05 1
22.6286 18.3243 -2.54746 0.00011931 10
24.7552 20.0463 -1.66939 0.000274596 10
34.2367 27.7243 -0.768972 9.44531e-05 10
34.2285 27.7177 0.768788 9.44672e-05 10
22.6176 18.3154 1.52524 9.41645e-05 10
22.4258 18.16 2.52462 0.000286137 10
22.4443 18.175 3.54606 0.000282 10
22.6217 18.3187 4.61037 9.02508e-05 10
22.5911 18.2939 5.65051 5.38212e-05 10
22.4414 18.1727 6.6667 0.000261928 10
22.5895 18.2926 7.78854 8.26495e-05 10
7.75728 6.32669 -2.6822 0.000187823 4
8.98804 7.33046 -2.67768 0.000480752 4
10.5048 8.56746 -2.63492 0.000207493 4
13.2346 10.7939 -2.70491 0.000109916 1
17.0488 13.9046 -2.70126 4.42246e-05 1
22.7992 18.5946 -2.57395 0.000114374 10
23.1752 18.9012 -1.56729 0.000220089 10
23.1767 18.9024 -0.522038 0.000221205 10
23.1667 18.8943 0.521813 0.000221234 10
22.7984 18.5939 1.54181 9.02744e-05 10
22.354 18.2315 2.52369 0.000287469 10
22.3338 18.215 3.53864 0.000283313 10
22.793 18.5895 4.65847 8.65141e-05 10
22.5102 18.3589 5.64627 5.3825e-05 10
22.3329 18.2142 6.65331 0.000263153 10
22.78 18.5789 7.87653 7.92102e-05 10
7.71945 6.34083 -2.67676 0.000164338 4
8.95743 7.35771 -2.67619 0.000512451 4
10.469 8.59934 -2.63347 0.000142023 4
13.2024 10.8446 -2.70606 0.000109908 1
16.9972 13.9616 -2.70079 4.422e-05 1
22.9924 18.8862 -2.60319 0.000109576 10
23.087 18.9638 -1.56579 0.00022111 10
23.0871 18.9639 -0.521508 0.00022223 10
23.0889 18.9654 0.521549 0.00022226 10
22.9659 18.8644 1.55758 8.64922e-05 10
22.259 18.2838 2.52016 0.00028879 10
22.2651 18.2888 3.53785 0.000284616 10
22.9707 18.8684 4.70823 8.28815e-05 10
22.4545 18.4443 5.6484 5.38289e-05 10
22.2614 18.2858 6.65101 0.000264369 10
22.963 18.8621 7.96255 7.58674e-05 10
7.70679 6.37561 -2.68007 0.000223021 4
8.94071 7.3964 -2.6789 0.000453862 4
10.4272 8.6261 -2.6305 0.000127827 4
13.1662 10.892 -2.7064 0.000109899 1
16.9426 14.0162 -2.69988 4.42153e-05 1
23.1622 19.1614 -2.62997 0.000104913 10
23.2179 19.2075 -1.5792 0.000215824 10
23.2056 19.1973 -0.525694 0.00021692 10
23.2197 19.209 0.526014 0.000216948 10
23.1466 19.1485 1.57436 8.28163e-05 10
22.259 18.4142 2.52742 9.25511e-05 10
22.2342 18.3937 3.54312 9.12564e-05 10
23.142 19.1447 4.757 7.93512e-05 10
22.3881 18.5211 5.64793 5.38328e-05 10
22.2422 18.4004 6.66442 8.48859e-05 10
23.1386 19.1419 8.04655 7.26194e-05 10
7.6699 6.39032 -2.67498 0.000293436 4
8.90174 7.41665 -2.67496 0.000439199 4
10.4153 8.67768 -2.63513 0.00081044 4
13.1358 10.9443 -2.70798 0.000109891 1
16.9012 14.0815 -2.70109 4.42107e-05 1
23.3529 19.4569 -2.65933 0.000100383 10
23.3523 19.4564 -1.59296 6.70071e-05 10
23.3531 19.4571 -0.530573 6.73809e-05 10
23.3458 19.451 0.530405 6.74227e-05 10
23.3489 19.4536 1.59272 7.92455e-05 10
23.0551 19.2088 2.62541 0.000255983 10
23.0352 19.1922 3.68141 0.000252245 10
23.3288 19.4369 4.80933 7.59221e-05 10
22.4224 18.6817 5.67301 8.36578e-05 10
23.0481 19.203 6.92593 0.000234119 10
23.3268 19.4352 8.13554 6.94649e-05 10
7.65023 6.4193 -2.67592 0.000117369 4
8.88606 7.45629 -2.67805 0.000478214 4
10.3664 8.69846 -2.63043 0.000793184 4
13.0942 10.9873 -2.7073 0.000109882 1
16.839 14.1296 -2.69901 4.4206e-05 1
23.5387 19.7513 -2.68832 9.5985e-05 10
23.5519 19.7624 -1.61127 9.70042e-05 10
23.6698 19.8613 -0.53934 0.000201012 10
23.6659 19.8581 0.53925 0.000201039 10
23.5315 19.7453 1.60987 7.57784e-05 10
22.9587 19.2647 2.62208 0.000257129 10
22.9599 19.2656 3.6801 0.000253376 10
23.5181 19.734 4.8625 7.2593e-05 10
22.5872 18.9529 5.7314 8.00215e-05 10
22.9499 19.2573 6.91658 0.000235174 10
23.5061 19.724 8.22205 6.64031e-05 10
7.64173 6.45776 -2.68082 0.000222992 4
8.8588 7.48627 -2.6777 0.000448913 4
10.3277 8.72758 -2.62832 0.0010834 4
13.0637 11.0396 -2.70894 0.000109873 1
16.8062 14.2024 -2.7017 4.42013e-05 1
23.727 20.0509 -1.62802 9.26945e-05 10
23.8076 20.119 -0.544076 0.000196326 10
23.7883 20.1027 0.543636 0.000196353 10
23.7206 20.0454 1.62759 7.24137e-05 10
22.8609 19.3189 2.61859 0.000258267 10
22.8596 19.3178 3.6748 0.000254498 10
23.7243 20.0486 4.91959 6.93624e-05 10
22.8657 19.323 5.81915 0.000243412 10
22.8539 19.3131 6.90793 0.00023622 10
23.7072 20.0341 8.31678 6.34326e-05 10
7.61106 6.47752 -2.67797 6.65034e-05 4
8.82367 7.50953 -2.67499 0.000473286 4
10.2746 8.74436 -2.62256 0.00051665 4
13.0185 11.0796 -2.70758 0.000109865 1
16.7528 14.2577 -2.70109 4.41966e-05 1
23.9408 20.3752 -1.64757 8.85145e-05 10
23.9264 20.363 -0.548413 8.90146e-05 10
23.9315 20.3673 0.548529 8.90722e-05 10
23.9254 20.3621 1.6465 6.91501e-05 10
23.9276 20.364 2.7489 6.85074e-05 10
23.9197 20.3573 3.85663 6.753e-05 10
23.9087 20.3479 4.97253 6.62292e-05 10
23.9056 20.3453 6.10183 6.46199e-05 10
23.8952 20.3364 7.24409 6.27203e-05 10
23.9022 20.3424 8.41005 6.05521e-05 10
7.59706 6.51146 -2.68102 0.000203413 4
8.80587 7.54755 -2.67756 0.000463503 4
10.2501 8.78539 -2.62412 0.00080106 4
12.9688 11.1156 -2.7053 0.000109856 1
16.7064 14.3191 -2.70165 4.41919e-05 1
29.7717 25.5174 -2.05495 0.000141495 10
29.7789 25.5236 -0.684594 9.39723e-05 10
29.7589 25.5064 0.684133 9.39857e-05 10
23.9577 20.5342 1.65365 0.000222153 10
23.9672 20.5424 2.76168 0.000219972 10
23.9579 20.5344 3.87433 0.000216717 10
23.953 20.5302 4.99661 0.000212426 10
23.9621 20.538 6.1345 0.000207147 10
23.9623 20.5382 7.2861 0.000200941 10
23.952 20.5293 8.45274 0.000193878 10
7.57494 6.53852 -2.68126 0.00028946 4
8.76971 7.56981 -2.67458 0.000439086 4
10.1984 8.80303 -2.61873 0.000898183 4
12.9308 11.1616 -2.70548 0.000109847 1
16.6498 14.3717 -2.7006 4.41871e-05 1
29.658 25.6001 -2.05326 0.000142145 10
23.8687 20.6029 1.65246 0.000223112 10
23.8582 20.5938 2.75737 0.000220922 10
23.8647 20.5994 3.87085 0.000217654 10
23.8562 20.5921 4.99138 0.000213345 10
23.8527 20.5891 6.12488 0.000208045 10
23.8552 20.5913 7.27535 0.000201814 10
23.857 20.5928 8.44451 0.000194723 10
7.53536 6.55039 -2.67532 0.00029727 4
8.74523 7.60211 -2.67519 0.000475651 4
10.1626 8.83422 -2.61744 0.000853614 4
12.8962 11.2105 -2.70642 0.000109838 1
16.605 14.4345 -2.70149 4.41823e-05 1
29.5332 25.6729 -2.05082 0.000142791 10
29.5379 25.6769 -0.683157 9.48326e-05 10
29.525 25.6657 0.682858 9.48461e-05 10
23.7591 20.6535 1.64986 0.000224063 10
23.7658 20.6593 2.75501 0.000221864 10
23.764 20.6577 3.86619 0.000218583 10
23.7669 20.6602 4.98775 0.000214257 10
23.7698 20.6628 6.12207 0.000208936 10
23.7531 20.6483 7.26616 0.000202679 10
23.7669 20.6603 8.43812 0.00019556 10
7.53214 6.59389 -2.68234 0.000156451 4
8.72251 7.63597 -2.67638 0.00046587 4
10.1181 8.85768 -2.61392 0.000849494 4
12.8574 11.2558 -2.7065 0.00010983 1
16.5504 14.4888 -2.70082 4.41775e-05 1
29.4182 25.7536 -2.04906 0.00014343 10
23.8069 20.8414 1.65822 6.46247e-05 10
23.7852 20.8223 2.76567 6.4025e-05 10
23.8001 20.8354 3.88387 6.31119e-05 10
23.7899 20.8265 5.00781 6.1896e-05 10
23.7921 20.8284 6.1465 6.03911e-05 10
23.788 20.8248 7.29902 5.86145e-05 10
23.7813 20.819 8.46898 5.65864e-05 10
7.49169 6.60481 -2.67613 0.000414577 4
8.69844 7.6687 -2.67719 0.000439016 4
10.0854 8.89143 -2.61347 0.000913477 4
12.8248 11.3066 -2.70794 0.000109821 1
16.5109 14.5564 -2.70265 4.41727e-05 1
29.2974 25.8291 -2.04691 0.000144064 10
29.288 25.8208 -0.68153 9.5678e-05 10
29.2805 25.8143 0.681357 9.56917e-05 10
29.0149 25.5801 7.51879 0.000107765 10
7.46918 6.63145 -2.67634 0.000132971 4
8.66936 7.69701 -2.6765 0.000507281 4
10.037 8.91123 -2.60898 0.000984645 4
12.7923 11.3575 -2.70942 0.000109812 1
16.4473 14.6026 -2.70056 4.41679e-05 1
29.1812 25.9083 -2.0451 0.000144692 10
28.8909 25.6506 2.02476 0.000116568 10
28.8777 25.6389 3.37855 0.000115355 10
28.8757 25.6371 6.11591 0.000111164 10
28.8785 25.6395 7.50659 0.000108236 10
28.8882 25.6481 8.91868 0.000104799 10
28.874 25.6355 10.3461 0.000100894 10
7.45258 6.66337 -2.67871 0.000625719 4
9.99644 8.93785 -2.60654 0.000823011 4
12.7483 11.3983 -2.70852 0.000109803 1
16.4007 14.6639 -2.70129 4.4163e-05 1
29.058 25.9808 -2.04281 0.000145315 10
29.0555 25.9786 -0.680326 9.65084e-05 10
29.0622 25.9846 0.680481 9.6522e-05 10
29.0563 25.9793 2.04269 0.000113352 10
29.0503 25.974 3.40933 0.00011217 10
29.049 25.9728 4.78456 0.000110406 10
29.0435 25.9679 6.17061 0.000108083 10
29.0488 25.9726 7.57437 0.000105229 10
29.0364 25.9616 8.99236 0.000101878 10
29.049 25.9728 10.4412 9.80721e-05 10
7.4356 6.69504 -2.68099 0.000711724 4
8.61659 7.75841 -2.67686 3.17017e-05 4
9.96164 8.9695 -2.60561 0.000928641 4
12.7111 11.4451 -2.70908 0.000109794 1
16.3441 14.7163 -2.70043 4.41581e-05 1
28.9337 26.052 -2.04045 0.000145931 10
39.3474 35.4286 -0.924197 4.88306e-05 10
39.3439 35.4254 0.924113 4.88383e-05 10
28.9366 26.0546 2.04066 0.000113833 10
28.9287 26.0475 3.4057 0.000112646 10
28.9363 26.0544 4.78095 0.000110875 10
28.937 26.055 6.16727 0.000108543 10
28.9246 26.0438 7.56565 0.000105677 10
28.9235 26.0428 8.98549 0.000102314 10
28.919 26.0388 10.4271 9.84924e-05 10
7.40661 6.71591 -2.67897 0.000727333 4
8.58595 7.78526 -2.67577 3.65769e-05 4
9.93524 9.00872 -2.60691 0.00075889 4
12.6701 11.4885 -2.70887 0.000109785 1
16.2954 14.7757 -2.70087 4.41533e-05 1
28.8059 26.1196 -2.03786 0.000146542 10
28.8106 26.1239 -0.678845 9.73232e-05 10
28.8079 26.1214 0.678781 9.73369e-05 10
28.8146 26.1275 2.03847 0.000114309 10
28.8075 26.121 3.40215 0.000113118 10
28.8071 26.1207 4.77462 0.00011134 10
28.8149 26.1278 6.16065 0.000108999 10
28.8146 26.1274 7.56067 0.000106122 10
