VERSION 0.7
FIELDS x y z intensity label
SIZE 4 4 4 4 4
TYPE F F F F F
COUNT 1 1 1 1 1
WIDTH 1173
HEIGHT 1
VIEWPOINT 0.570636 9.09659 2.72757 0.877577 -4.8135e-05 0.000910811 -0.479435
POINTS 1173
DATA ascii
4.63039 28.5889 6.68629 0.000108956 10
4.63094 28.5923 7.76112 0.000105165 10
1.56265 9.8662 -2.67659 0.000168241 4
1.81257 11.4441 -2.67501 0.000148823 4
2.06297 13.0251 -2.56338 0.000245251 4
2.67384 16.8819 -2.70716 0.000109824 1
3.43897 21.7128 -2.69923 4.41623e-05 1
4.49477 28.3788 -2.51377 3.48057e-05 10
4.4972 28.3942 -1.50662 0.000362182 10
4.49506 28.3807 -0.501562 0.000364042 10
4.49603 28.3868 0.501669 0.000364134 10
4.49427 28.3757 1.50564 0.00028261 10
4.4957 28.3847 2.51429 0.000279936 10
4.49339 28.3701 3.52684 0.000275925 10
4.49487 28.3795 4.5509 0.000270625 10
4.49699 28.3928 5.5878 0.000264092 10
4.49359 28.3714 6.6317 0.000256402 10
4.4947 28.3784 7.69875 0.000108611 10
1.52766 9.86808 -2.67564 0.000414709 4
1.77495 11.4655 -2.67854 3.65933e-05 4
2.01755 13.0326 -2.56345 0.00019896 4
2.61444 16.8882 -2.70669 0.000109812 1
3.36602 21.7431 -2.70152 4.41558e-05 1
4.3973 28.4048 -2.5147 3.47981e-05 10
4.40251 28.4384 -1.50815 0.000359959 10
4.40625 28.4626 -0.502734 0.000361809 10
4.40186 28.4342 0.502232 0.0003619 10
4.40593 28.4605 1.50932 0.000280876 10
4.40284 28.4405 2.51786 0.000278217 10
4.40102 28.4288 3.5322 0.00027423 10
4.40253 28.4385 4.55788 0.00026896 10
4.40264 28.4392 5.59387 0.000262465 10
4.40131 28.4307 6.64192 0.000254819 10
4.40174 28.4335 7.70948 0.000246106 10
1.49502 9.88533 -2.67889 0.000273848 4
1.73153 11.4492 -2.67331 6.09845e-05 4
1.97342 13.0486 -2.56523 0.0010748 4
2.55556 16.8979 -2.70679 0.0001098 1
3.29157 21.7645 -2.70273 4.41493e-05 1
4.29629 28.4079 -2.51363 3.47905e-05 10
4.31124 28.5067 -1.51096 0.000357727 10
4.31341 28.5211 -0.503499 0.000359567 10
4.31284 28.5173 0.503431 0.000359657 10
4.31333 28.5206 1.5117 0.000279135 10
4.3097 28.4966 2.52148 0.000276492 10
4.3119 28.5111 3.54053 0.000272528 10
4.31235 28.5141 4.56754 0.000267289 10
4.31041 28.5012 5.60308 0.000260832 10
4.30852 28.4888 6.65194 0.000253231 10
4.30978 28.4971 7.72261 0.000244569 10
1.46067 9.89164 -2.6792 0.000183858 4
1.69318 11.4661 -2.67587 8.78114e-05 4
1.93038 13.0725 -2.56858 0.000974779 4
2.49542 16.8989 -2.70555 0.000109788 1
3.21305 21.7587 -2.7006 4.41428e-05 1
4.19675 28.4203 -2.51342 3.47828e-05 10
4.22081 28.5832 -1.51423 0.000355489 10
4.22078 28.583 -0.504329 0.000357317 10
4.21843 28.5671 0.504047 0.000357407 10
4.21809 28.5648 1.51325 0.000277389 10
4.21606 28.551 2.52498 0.000274761 10
4.21944 28.574 3.54649 0.00027082 10
4.21638 28.5532 4.57142 0.000265612 10
4.21603 28.5508 5.6099 0.000259193 10
4.21577 28.5491 6.66255 0.000251637 10
4.21826 28.566 7.73723 0.000243026 10
1.42538 9.89144 -2.67778 0.000195582 4
1.65194 11.4636 -2.67393 0.000321952 4
1.88549 13.0844 -2.56962 0.00101321 4
2.43917 16.9267 -2.70862 0.000109776 1
3.13928 21.7851 -2.7025 4.41362e-05 1
4.09949 28.4485 -2.51463 3.47752e-05 10
4.12536 28.628 -1.51583 0.000353242 10
4.12589 28.6317 -0.504931 0.00035506 10
4.12376 28.6169 0.504669 0.000355149 10
3.66237 25.4151 1.34571 0.000178584 10
3.66227 25.4144 2.24644 0.00017685 10
3.66066 25.4032 3.15134 0.000174295 10
4.12364 28.616 4.57915 0.000263929 10
3.66267 25.4171 4.99162 0.000166844 10
3.66076 25.4039 5.92554 0.000162029 10
3.66302 25.4196 6.88151 0.000156555 10
1.39194 9.90418 -2.6799 0.000183836 4
1.61366 11.4818 -2.67682 0.000163403 4
1.84239 13.1093 -2.57322 0.000849584 4
2.37973 16.9326 -2.70822 0.000109764 1
3.06016 21.7741 -2.6998 4.41297e-05 1
3.9997 28.4593 -2.51433 3.47675e-05 10
4.03314 28.6973 -1.51874 0.000350988 10
4.03134 28.6844 -0.50561 0.000352795 10
4.03213 28.6901 0.505708 0.000352884 10
3.56188 25.344 1.34128 0.000394164 10
3.56148 25.3412 2.23886 0.000390536 10
3.56045 25.3339 3.14118 0.000385094 10
4.0313 28.6842 4.58777 0.000262241 10
3.56172 25.3429 4.97457 0.000369024 10
3.56288 25.3512 5.9103 0.000358572 10
3.56077 25.3361 6.85552 0.000346652 10
1.35499 9.89167 -2.67522 0.000160358 4
1.57272 11.4811 -2.67537 0.000102425 4
1.80098 13.1475 -2.57948 0.000859479 4
2.15749 15.7501 -2.51786 8.82391e-05 4
2.98664 21.803 -2.70207 4.41231e-05 1
3.89825 28.4579 -2.513 3.47598e-05 10
3.93968 28.7604 -1.52134 0.000348726 10
3.93669 28.7385 -0.506318 0.000350523 10
3.93927 28.7573 0.506649 0.000350612 10
3.47948 25.4008 1.34363 0.000391699 10
3.47877 25.3957 2.24258 0.000388093 10
3.48081 25.4105 3.14915 0.000382683 10
3.93689 28.74 4.59447 0.000260548 10
3.47787 25.3891 4.98122 0.000366708 10
3.47798 25.3899 5.91645 0.000356318 10
3.47768 25.3877 6.86614 0.000344469 10
1.32136 9.90313 -2.67705 6.25747e-05 4
1.53216 11.483 -2.67456 0.000156064 4
1.7581 13.1764 -2.58392 0.00099745 4
2.10319 15.7627 -2.51869 8.34169e-05 4
2.90894 21.8015 -2.70061 4.41165e-05 1
3.79936 28.4748 -2.5133 3.47521e-05 10
3.84564 28.8217 -1.52387 0.000346458 10
3.84512 28.8178 -0.507474 0.000348244 10
3.84456 28.8136 0.5074 0.000348332 10
3.39842 25.47 1.34665 0.000389227 10
3.39792 25.4662 2.24775 0.000385642 10
3.39724 25.4611 3.15393 0.000380264 10
3.84301 28.802 4.60221 0.000258849 10
3.39407 25.4373 4.98833 0.000364385 10
3.39543 25.4476 5.9271 0.000354057 10
3.39404 25.4371 6.87626 0.000342279 10
1.28872 9.92261 -2.68109 0.000324586 4
1.4924 11.4909 -2.67515 0.000107286 4
1.71277 13.1876 -2.58494 0.000942546 4
2.04892 15.7758 -2.51963 9.78436e-05 4
2.83553 21.8324 -2.70319 4.41099e-05 1
3.70341 28.5147 -2.51567 3.47443e-05 10
3.74874 28.8637 -1.52539 0.000344183 10
3.75064 28.8784 -0.508307 0.000345958 10
3.74984 28.8721 0.508198 0.000346046 10
3.31501 25.5242 1.3489 0.000386746 10
3.31156 25.4976 2.24949 0.000383183 10
3.31461 25.5211 3.15991 0.000377838 10
3.3165 25.5356 4.07841 0.000174552 10
3.209 24.7079 4.84308 0.000187578 10
3.31036 25.4884 5.93388 0.000351788 10
3.31308 25.5093 6.8926 0.000340082 10
1.25466 9.93163 -2.68232 0.000660864 4
1.4525 11.4977 -2.67556 0.000117031 4
1.66827 13.2057 -2.58733 0.00097274 4
1.99437 15.787 -2.5203 9.22195e-05 4
2.75822 21.8336 -2.70213 4.41032e-05 1
3.60344 28.5241 -2.51537 3.47366e-05 10
3.65696 28.9478 -1.52915 0.000341902 10
3.65488 28.9313 -0.509012 0.000343666 10
3.65362 28.9213 0.508836 0.000343754 10
3.22444 25.524 1.34829 0.000117688 10
3.22465 25.5257 2.25096 0.000116545 10
3.22194 25.5043 3.15642 0.000114861 10
3.2034 25.3575 4.04815 0.00017963 10
3.09937 24.534 4.80683 0.000193001 10
3.22441 25.5238 5.93948 0.000106778 10
3.22397 25.5203 6.8925 0.000216509 10
1.21947 9.93173 -2.68118 0.000715565 4
1.4128 11.5063 -2.67638 0.000151154 4
1.62695 13.2504 -2.59496 0.000778191 4
1.94015 15.8012 -2.52146 0.0001323 4
2.68244 21.8467 -2.70258 4.40966e-05 1
3.50389 28.5368 -2.51539 3.47288e-05 10
3.56159 29.0068 -1.5316 0.000339615 10
3.56133 29.0046 -0.51008 0.000341368 10
3.5601 28.9946 0.509904 0.000341455 10
3.1122 25.3468 1.33834 0.000121069 10
2.99325 24.378 3.89009 0.000203351 10
2.99315 24.3772 4.77403 0.000198521 10
1.18346 9.92482 -2.67819 0.00080936 4
1.58331 13.278 -2.59927 0.000766972 4
1.88516 15.8094 -2.52171 0.000117053 4
2.60702 21.8631 -2.70347 4.40899e-05 1
3.40286 28.5372 -2.51437 3.4721e-05 10
3.46386 29.0488 -1.53317 0.000337321 10
3.46593 29.0662 -0.510946 0.000339063 10
3.46437 29.053 0.510715 0.00033915 10
2.99934 25.1532 1.32756 0.000124511 10
2.88623 24.2047 3.8608 0.000209097 10
2.88853 24.2239 4.742 9.01957e-05 10
1.14887 9.9294 -2.67833 0.000735025 4
1.33392 11.5287 -2.67938 0.000148694 4
1.53805 13.2929 -2.60112 0.00099851 4
1.82699 15.7902 -2.5176 0.000126659 4
2.52859 21.8539 -2.70123 4.40832e-05 1
3.30411 28.5565 -2.51504 3.47131e-05 10
3.36947 29.1214 -1.53637 0.000335022 10
3.3693 29.1199 -0.511681 0.000336753 10
3.36876 29.1152 0.511599 0.00033684 10
2.78066 24.0325 1.26789 0.000224405 10
2.77923 24.0201 2.11551 0.000222258 10
2.78096 24.0351 2.97082 0.000219092 10
2.78204 24.0444 3.83367 0.000214943 10
2.80243 24.2206 4.73943 9.02047e-05 10
2.77987 24.0256 5.58375 0.000203881 10
2.78107 24.036 6.48341 0.000197086 10
1.11333 9.92556 -2.67622 0.000828807 4
1.29254 11.5233 -2.67705 0.000153558 4
1.49187 13.3003 -2.60153 0.00020476 4
1.77418 15.8172 -2.5209 0.000117828 4
2.4529 21.8681 -2.70191 4.40765e-05 1
3.20307 28.556 -2.514 3.47053e-05 10
3.27397 29.1881 -1.53928 0.000332717 10
3.27274 29.1771 -0.512482 0.000334437 10
3.27412 29.1894 0.512698 0.000334523 10
2.69756 24.0493 1.26827 0.00045674 10
2.69775 24.051 2.11738 0.000452589 10
2.69885 24.0608 2.97283 0.000446363 10
2.69758 24.0495 3.83295 0.000438127 10
2.71789 24.2305 4.73948 9.02137e-05 10
2.69796 24.0529 5.58787 0.000416001 10
2.69817 24.0548 6.48587 0.000402347 10
1.07909 9.93317 -2.67725 0.000734933 4
1.25157 11.5209 -2.67546 0.000138923 4
1.4477 13.3262 -2.6056 0.000501997 4
1.71967 15.8298 -2.52195 9.21682e-05 4
2.37722 21.8826 -2.70265 4.40698e-05 1
3.10378 28.5707 -2.51432 3.46975e-05 10
3.1773 29.2475 -1.54182 0.000330407 10
3.17734 29.2479 -0.513527 0.000332116 10
3.17606 29.2361 0.51332 0.000332202 10
2.61849 24.1036 1.27065 0.000453711 10
2.61699 24.0898 2.11998 0.000449586 10
2.61921 24.1102 2.97777 0.000443399 10
2.61904 24.1086 3.84089 0.000435215 10
2.63499 24.2555 4.74253 9.02227e-05 10
2.61606 24.0812 5.59229 0.000413228 10
2.61677 24.0877 6.49225 0.00039966 10
1.04396 9.93259 -2.67609 0.000777886 4
1.2135 11.5456 -2.6802 0.000212025 4
1.40597 13.3769 -2.61453 0.000499352 4
1.66304 15.8228 -2.51989 0.000111391 4
2.30163 21.8986 -2.70361 4.4063e-05 1
3.00395 28.5807 -2.51426 3.46896e-05 10
3.08001 29.3043 -1.54423 0.000328092 10
3.0809 29.3128 -0.514475 0.00032979 10
3.07825 29.2876 0.514032 0.000329875 10
2.53992 24.1657 1.27345 0.000450673 10
2.54005 24.167 2.12598 0.000446575 10
2.53838 24.151 2.98171 0.000440427 10
2.53808 24.1482 3.84577 0.000432295 10
2.55017 24.2633 4.74228 9.02318e-05 10
2.53888 24.1558 5.60753 0.000410448 10
2.53843 24.1516 6.50704 0.000396966 10
1.01139 9.9569 -2.68167 0.000637123 4
1.17111 11.5294 -2.67546 0.000114534 4
1.3595 13.384 -2.61497 0.000478257 4
1.60695 15.8201 -2.51855 8.89423e-05 4
2.22371 21.892 -2.70183 4.40562e-05 1
2.90595 28.6085 -2.5158 3.46817e-05 10
2.98318 29.3688 -1.54708 0.000325772 10
2.98246 29.3617 -0.515148 0.000327459 10
2.98351 29.3721 0.515329 0.000327544 10
2.45884 24.2068 1.27515 0.000227356 10
2.45903 24.2086 2.12888 0.000225179 10
2.45868 24.2052 2.98732 0.00022197 10
2.45716 24.1902 3.85107 0.000217763 10
2.45765 24.195 4.72724 0.000212603 10
2.45823 24.2008 5.61593 0.000407661 10
2.45844 24.2029 6.51851 0.000394267 10
0.97534 9.9473 -2.67815 0.000852049 4
1.13157 11.5407 -2.67715 0.000134019 4
1.31428 13.4041 -2.61799 0.000490213 4
1.55136 15.822 -2.51798 0.000112167 4
2.14664 21.8931 -2.70103 4.40495e-05 1
2.80594 28.6172 -2.51569 3.46738e-05 10
2.88667 29.4406 -1.55032 0.000323448 10
2.88514 29.425 -0.516078 0.000325123 10
2.8838 29.4113 0.515839 0.000325208 10
2.35733 24.0419 1.26602 0.000233419 10
2.35663 24.0348 2.11285 0.000231187 10
2.35804 24.0492 2.96703 0.000227898 10
2.3584 24.0528 3.82786 0.000223585 10
2.35717 24.0403 4.69538 0.000218296 10
2.35902 24.0591 5.58112 0.000212086 10
2.35849 24.0538 6.47611 0.000205022 10
0.940113 9.94535 -2.67673 0.000699574 4
1.0907 11.5384 -2.67572 3.41114e-05 4
1.27099 13.4456 -2.62522 0.000483708 4
1.49746 15.8415 -2.52023 0.000109751 4
2.0714 21.9131 -2.70259 4.40427e-05 1
2.70664 28.6333 -2.51625 3.46658e-05 10
2.78825 29.4966 -1.55274 0.000321119 10
2.78782 29.492 -0.51708 0.000322783 10
2.78695 29.4828 0.516918 0.000322867 10
2.25861 23.8936 1.25779 0.000239579 10
2.25743 23.8811 2.09864 0.000237292 10
2.25838 23.8912 2.94654 0.000233921 10
2.25677 23.8742 3.79815 0.000229502 10
2.25926 23.9005 4.66649 0.00022408 10
2.25832 23.8905 5.54015 0.000217716 10
2.25836 23.8909 6.43009 0.000210476 10
0.90687 9.96478 -2.68109 0.000570566 4
1.05181 11.5574 -2.67927 9.25812e-05 4
1.22525 13.4632 -2.62779 0.000491934 4
1.44162 15.8407 -2.51929 9.05141e-05 4
1.99634 21.936 -2.70453 4.40358e-05 1
2.6067 28.6427 -2.51626 3.46578e-05 10
2.69001 29.5582 -1.55548 0.000318786 10
2.68861 29.5427 -0.517801 0.00032044 10
2.68908 29.5479 0.517891 0.000320523 10
2.15884 23.7216 1.24833 0.000245837 10
2.16057 23.7406 2.08561 0.000243495 10
2.16061 23.741 2.92708 0.000240041 10
2.16032 23.7379 3.77525 0.000235513 10
2.15947 23.7284 4.6314 0.000229958 10
2.1606 23.7409 5.50367 0.000223437 10
2.16152 23.751 6.39037 0.000216018 10
0.872103 9.96818 -2.68117 0.000246187 4
1.01041 11.549 -2.67649 0.000163223 4
1.18155 13.5052 -2.63517 0.000500146 4
1.38689 15.8523 -2.52034 9.61102e-05 4
1.91763 21.9185 -2.70154 4.4029e-05 1
2.16341 24.7279 -2.17167 0.000279888 10
2.5904 29.6084 -1.55764 0.000316449 10
2.59164 29.6226 -0.51904 0.000318091 10
2.59093 29.6145 0.518897 0.000318175 10
2.06289 23.5789 1.24044 0.000252196 10
2.06268 23.5765 2.07056 0.000249797 10
2.06218 23.5708 2.90519 0.000246259 10
2.06323 23.5828 3.74941 0.00024162 10
2.06392 23.5907 4.60308 0.00023593 10
2.0642 23.5939 5.46789 0.000229249 10
2.06282 23.5782 6.34188 0.000221649 10
0.83626 9.95872 -2.67782 0.000218819 4
0.970837 11.5613 -2.67854 4.87196e-05 4
1.13656 13.5349 -2.64018 0.000508342 4
1.33061 15.8457 -2.51855 0.000120925 4
1.84236 21.94 -2.70337 4.40222e-05 1
2.06546 24.5968 -2.15952 5.41176e-05 10
2.49187 29.6748 -1.56067 0.000314109 10
2.49212 29.6778 -0.51985 0.00031574 10
2.49295 29.6876 0.520023 0.000315823 10
1.96737 23.4287 1.23217 0.000258653 10
1.96691 23.4233 2.05648 0.000256196 10
1.96833 23.4401 2.88821 0.000252573 10
1.96916 23.45 3.72719 0.000247822 10
1.96716 23.4262 4.56961 0.000241995 10
1.96788 23.4347 5.42937 0.000235153 10
1.96884 23.4462 6.30451 0.000227368 10
0.802754 9.97729 -2.68205 7.81447e-05 4
0.929 11.5464 -2.67431 0.000484724 4
1.09111 13.5612 -2.64455 0.000338154 4
1.27633 15.8633 -2.52062 0.000110502 4
1.76573 21.946 -2.70334 4.40153e-05 1
1.97991 24.6079 -2.15987 5.41056e-05 10
2.39199 29.7296 -1.5631 0.000311765 10
2.39247 29.7356 -0.520714 0.000313385 10
2.392 29.7297 0.520611 0.000313467 10
1.87402 23.2919 1.22462 0.00026521 10
1.87427 23.295 2.04463 0.000262695 10
1.8729 23.278 2.86742 0.000258986 10
1.87287 23.2775 3.69871 0.000254122 10
1.87479 23.3015 4.54398 0.000248155 10
1.87379 23.289 5.39406 0.000241149 10
1.87493 23.3032 6.26426 0.000233177 10
0.767906 9.9798 -2.68198 0.000191442 4
0.888725 11.55 -2.6744 0.00045546 4
1.04474 13.5776 -2.64702 0.000420487 4
1.22012 15.8569 -2.51891 8.80708e-05 4
1.68986 21.9616 -2.70452 4.40084e-05 1
1.89466 24.6232 -2.16062 5.40934e-05 10
2.29393 29.8121 -1.56701 0.000309418 10
2.29262 29.7952 -0.521615 0.000311026 10
2.29226 29.7906 0.521533 0.000311108 10
1.77949 23.1265 1.21559 0.000271867 10
1.78087 23.1444 2.03086 0.000269292 10
1.78145 23.1519 2.8511 0.000265495 10
1.78205 23.1597 3.67898 0.000260516 10
1.78103 23.1464 4.51251 0.000254408 10
1.78096 23.1456 5.35937 0.000247236 10
1.78218 23.1614 6.22443 0.000239074 10
0.733252 9.985 -2.68268 0.000289098 4
0.850418 11.5805 -2.68077 0.000353137 4
0.998378 13.5953 -2.64978 0.000543994 4
1.16645 15.884 -2.52255 0.00010167 4
1.61321 21.9677 -2.70456 4.40015e-05 1
1.82806 24.8934 -2.18375 0.0005203 10
2.19336 29.8679 -1.56953 0.000307068 10
2.19346 29.8693 -0.522775 0.000308665 10
2.19286 29.8612 0.522632 0.000308746 10
1.68893 22.9989 1.20856 0.000278624 10
1.68936 23.0048 2.01808 0.00027599 10
1.68921 23.0027 2.83198 0.000272104 10
1.68839 22.9915 3.65131 0.000267008 10
1.69005 23.0141 4.48554 0.000260757 10
1.68936 23.0048 5.32537 0.000253416 10
1.68968 23.009 6.18185 0.000245062 10
0.697277 9.9715 -2.67838 0.000390648 4
0.808384 11.5604 -2.67545 0.000460261 4
0.952892 13.627 -2.65528 0.000581967 4
1.10941 15.8652 -2.51894 0.000115266 4
1.53523 21.9547 -2.70228 4.39946e-05 1
1.74428 24.9443 -2.18767 0.000516482 10
2.09418 29.9482 -1.57335 0.000304715 10
2.0942 29.9484 -0.524028 0.000306301 10
2.09212 29.9186 0.523506 0.000306382 10
1.60588 22.9651 1.20649 0.000514282 10
1.60559 22.9609 2.01372 0.000509661 10
1.60629 22.971 2.82737 0.000502726 10
1.60503 22.953 3.64428 0.000493551 10
1.60566 22.962 4.47425 0.000482234 10
1.60479 22.9495 5.31125 0.000468893 10
1.60524 22.9559 6.16604 0.000453671 10
0.662954 9.98127 -2.68037 0.000171874 4
0.769054 11.5787 -2.67904 0.000450486 4
0.906528 13.6485 -2.65884 0.00035481 4
1.05531 15.8884 -2.52202 8.48389e-05 4
1.46 21.9814 -2.70492 4.39877e-05 1
1.662 25.0226 -2.19402 0.000512658 10
1.99168 29.9862 -1.57497 0.00030236 10
1.9918 29.9881 -0.524598 0.000303934 10
1.99162 29.9854 0.52455 0.000304015 10
1.52824 23.0088 1.2085 0.000510546 10
1.52881 23.0174 2.0182 0.000505956 10
1.52841 23.0114 2.83166 0.000499069 10
1.52785 23.0029 3.65133 0.000489958 10
1.52883 23.0177 4.48404 0.000478718 10
1.52919 23.0231 5.327 0.00046547 10
1.52884 23.0178 6.1812 0.000450352 10
0.627292 9.97051 -2.67687 0.000167957 4
0.727578 11.5645 -2.67515 0.000450451 4
0.861203 13.6884 -2.66602 0.000512219 4
0.999811 15.8915 -2.52194 4.64159e-05 4
1.38194 21.9653 -2.70233 4.39807e-05 1
1.57598 25.0495 -2.19588 0.00050883 10
1.89242 30.0791 -1.5795 0.000300002 10
1.89167 30.0672 -0.525863 0.000301566 10
1.8908 30.0534 0.525621 0.000301646 10
1.4507 23.0582 1.21082 0.000506804 10
1.45128 23.0674 2.02213 0.000502247 10
1.45196 23.0783 2.83926 0.000495408 10
1.45129 23.0675 3.66076 0.00048636 10
1.45062 23.057 4.49068 0.000475198 10
1.45033 23.0523 5.33257 0.000462043 10
1.45092 23.0617 6.19159 0.00044703 10
0.592904 9.97965 -2.67876 0.000304646 4
0.687832 11.5775 -2.67758 0.000482068 4
0.814932 13.7168 -2.67098 0.000415419 4
0.943411 15.8793 -2.51947 5.68129e-05 4
1.30599 21.9822 -2.70384 4.39738e-05 1
1.49211 25.115 -2.20115 0.000504997 10
1.79089 30.1439 -1.58256 0.000297643 10
1.78931 30.1174 -0.526629 0.000299195 10
1.78977 30.1252 0.526763 0.000299275 10
1.37403 23.1275 1.2142 0.000503058 10
1.37422 23.1307 2.02724 0.000498533 10
1.37294 23.109 2.84244 0.000491742 10
1.37263 23.1039 3.66575 0.000482757 10
1.37333 23.1157 4.50116 0.000471674 10
1.37293 23.1089 5.34451 0.000458611 10
1.37283 23.1072 6.20247 0.000443704 10
0.557992 9.98041 -2.67842 0.000109353 4
0.64684 11.5696 -2.67522 0.000464989 4
0.769273 13.7594 -2.67874 0.000438272 4
0.888741 15.8963 -2.52166 7.84087e-05 4
1.22969 21.9946 -2.70482 4.39668e-05 1
1.4077 25.1785 -2.20628 0.00050116 10
1.68763 30.1854 -1.58442 0.000295282 10
1.68841 30.1995 -0.527957 0.000296822 10
1.68818 30.1953 0.527884 0.000296901 10
1.29583 23.1775 1.21658 0.000499307 10
1.29524 23.167 2.03002 0.000494814 10
1.29563 23.174 2.84986 0.000488071 10
1.29524 23.1671 3.67504 0.00047915 10
1.29508 23.1643 4.50971 0.000468146 10
1.2957 23.1752 5.35878 0.000455175 10
1.29491 23.1612 6.21572 0.000440374 10
0.523666 9.99209 -2.68105 0.000265554 4
0.607408 11.59 -2.67943 0.000540417 4
0.721325 13.7636 -2.67905 0.000326165 4
0.832782 15.8904 -2.52024 0.000107199 4
1.15215 21.9843 -2.70303 4.39598e-05 1
1.32211 25.2271 -2.21012 0.00049732 10
1.57968 30.1419 -1.58184 0.000168956 10
1.58004 30.1488 -0.526972 0.000169754 10
1.58051 30.1578 0.527129 0.000169716 10
1.21686 23.219 1.21853 0.000495553 10
1.2167 23.2158 2.03391 0.000491092 10
1.2166 23.214 2.85424 0.000484397 10
1.2168 23.2179 3.6824 0.00047554 10
1.217 23.2215 4.52001 0.000464614 10
1.21611 23.2046 5.36456 0.000451736 10
1.21659 23.2137 6.22864 0.000437041 10
0.488463 9.98735 -2.6793 0.000378781 4
0.566556 11.5841 -2.67759 0.000438142 4
0.6747 13.7952 -2.68473 0.000491492 4
0.77734 15.8939 -2.52035 0.000128784 4
1.0762 22.0046 -2.70505 4.39528e-05 1
1.23628 25.2775 -2.21414 0.000493477 10
1.47314 30.1205 -1.58044 0.0002967 10
1.47367 30.1314 -0.526575 0.000298248 10
1.47365 30.1309 0.526566 0.000298328 10
1.13772 23.2624 1.22059 0.000491795 10
1.13793 23.2667 2.03801 0.000487366 10
1.13758 23.2596 2.85933 0.00048072 10
1.13782 23.2644 3.68913 0.000471926 10
1.1381 23.2702 4.52868 0.000461079 10
1.13847 23.2776 5.38049 0.000448293 10
1.13795 23.2671 6.24185 0.000433704 10
0.453082 9.9776 -2.67624 0.000140569 4
0.526222 11.5883 -2.67812 0.000396731 4
0.628409 13.8386 -2.69272 0.000510595 4
0.722587 15.9125 -2.5229 8.79788e-05 4
0.998833 21.9959 -2.70354 4.39457e-05 1
1.15039 25.3335 -2.21868 0.00048963 10
1.37138 30.2001 -1.58435 0.00029429 10
1.37122 30.1964 -0.527623 0.000295825 10
1.37124 30.1968 0.52763 0.000295905 10
1.05896 23.32 1.22341 0.000488034 10
1.05868 23.3138 2.0418 0.000483638 10
1.05957 23.3334 2.86793 0.000477039 10
1.0584 23.3076 3.69536 0.000468309 10
1.05888 23.3183 4.5373 0.000457541 10
1.05859 23.3118 5.38749 0.000444848 10
1.05872 23.3147 6.25359 0.000430365 10
0.418404 9.98284 -2.67724 0.000179604 4
0.486007 11.5958 -2.67945 0.000440508 4
0.580563 13.8518 -2.69489 0.000582274 4
0.666768 15.9086 -2.52189 9.7565e-05 4
0.922878 22.0192 -2.706 4.39387e-05 1
1.06372 25.3796 -2.22238 0.000485781 10
1.26835 30.2621 -1.58736 0.000291877 10
1.2679 30.2511 -0.528499 0.000293401 10
1.26768 30.2459 0.528408 0.00029348 10
0.980114 23.3849 1.22662 0.000484269 10
0.978995 23.3581 2.04537 0.000479905 10
0.980022 23.3827 2.87355 0.000473355 10
0.980007 23.3823 3.70664 0.00046469 10
0.979072 23.36 4.54471 0.000454 10
0.979228 23.3637 5.39867 0.0004414 10
0.979695 23.3749 6.26877 0.000427024 10
0.383903 9.99323 -2.67965 0.000292814 4
0.44508 11.5857 -2.67674 0.000442907 4
0.534049 13.9016 -2.7042 0.000473578 4
0.610883 15.9017 -2.52044 9.59543e-05 4
0.846011 22.0222 -2.70598 4.39316e-05 1
0.977435 25.4433 -2.22764 0.000481931 10
1.16438 30.3096 -1.58963 0.000289465 10
1.16477 30.3197 -0.529623 0.000290977 10
1.16403 30.3004 0.529285 0.000291056 10
0.90043 23.4388 1.22928 0.000480503 10
0.900378 23.4374 2.05202 0.000476171 10
0.900053 23.4289 2.87883 0.00046967 10
0.900197 23.4327 3.71411 0.000461068 10
0.899475 23.4139 4.55456 0.000450457 10
0.899373 23.4113 5.4089 0.000437951 10
0.899567 23.4163 6.27901 0.00042368 10
0.349275 10.0018 -2.68161 0.000132734 4
0.403223 11.5467 -2.66738 0.000245698 4
0.48553 13.9036 -2.70423 0.000391061 4
0.555252 15.9002 -2.51988 5.99643e-05 4
0.768351 22.0025 -2.70321 4.39245e-05 1
0.89088 25.5112 -2.2333 0.000478078 10
1.06884 30.6073 -1.60504 0.00028109 10
1.06852 30.5982 -0.534419 0.000282562 10
1.06849 30.5974 0.534404 0.000282639 10
0.820167 23.4863 1.23161 0.000476735 10
0.819703 23.473 2.05487 0.000472435 10
0.819284 23.461 2.8824 0.000465982 10
0.819461 23.4661 3.71892 0.000457444 10
0.81968 23.4723 4.56534 0.000446913 10
0.819484 23.4667 5.42102 0.000434499 10
0.819266 23.4605 6.29004 0.000420335 10
0.314023 9.99236 -2.67877 7.41697e-05 4
0.361383 11.4994 -2.65615 0.000957839 4
0.43803 13.9383 -2.71067 0.000522858 4
0.500373 15.9221 -2.52306 8.31407e-05 4
0.692203 22.0262 -2.70581 4.39174e-05 1
0.760879 24.2115 -2.11928 0.000331618 10
0.760621 24.2033 -1.26907 0.000334673 10
0.761333 24.2259 -0.423074 0.000336175 10
0.760903 24.2123 0.422835 0.000336106 10
0.739196 23.5215 1.23332 0.000472964 10
0.73938 23.5274 2.05939 0.000468696 10
0.73883 23.5099 2.88807 0.000462292 10
0.73888 23.5115 3.72569 0.000453818 10
0.7391 23.5185 4.57379 0.000443365 10
0.738719 23.5064 5.42955 0.000431045 10
0.739345 23.5263 6.30696 0.000416988 10
0.279142 9.99333 -2.67875 0.000273239 4
0.318927 11.4176 -2.637 0.000108464 4
0.389755 13.9533 -2.7133 0.000220223 1
0.444214 15.9029 -2.51976 0.000111907 4
0.615031 22.0182 -2.70455 4.39103e-05 1
0.672452 24.0739 -2.10702 0.000339098 10
0.672203 24.065 -1.26168 0.000342218 10
0.672738 24.0841 -0.420554 0.000343752 10
0.67237 24.071 0.420324 0.000343682 10
0.658704 23.5817 1.23635 0.000469192 10
0.658809 23.5855 2.06427 0.000464957 10
0.658589 23.5776 2.89609 0.000458601 10
0.658584 23.5774 3.73575 0.000450191 10
0.658609 23.5783 4.58495 0.000439818 10
0.658451 23.5726 5.4443 0.000427591 10
0.658498 23.5743 6.31919 0.00041364 10
0.244379 9.99935 -2.68012 3.12252e-05 4
0.279472 11.4353 -2.64083 7.56666e-05 4
0.341134 13.9583 -2.71403 0.000220202 1
0.389075 15.9199 -2.52222 8.47194e-05 4
0.538068 22.0163 -2.70407 4.39032e-05 1
0.585408 23.9534 -2.09627 0.000346676 10
0.585282 23.9482 -1.25545 0.000349863 10
0.585414 23.9536 -0.418236 0.000351429 10
0.585246 23.9467 0.418116 0.000351358 10
0.577268 23.6203 1.23826 0.000465418 10
0.577253 23.6196 2.06707 0.000461216 10
0.577457 23.628 2.90202 0.000454908 10
0.577628 23.635 3.74453 0.000446563 10
0.57713 23.6146 4.59159 0.000436268 10
0.577669 23.6367 5.45859 0.000424135 10
0.577509 23.6302 6.33357 0.000410291 10
0.20944 9.99846 -2.67967 0.000370775 4
0.239165 11.4175 -2.63652 0.000110969 4
0.292119 13.9454 -2.71132 0.000220181 1
0.333694 15.9302 -2.52365 0.000104688 4
0.461524 22.0327 -2.70586 4.3896e-05 1
0.498705 23.8076 -2.08336 0.000354352 10
0.498899 23.8169 -1.24846 0.000357606 10
0.498858 23.815 -0.415783 0.000359205 10
0.498776 23.8111 0.415714 0.000359132 10
0.496328 23.6942 1.24203 0.000461644 10
0.496211 23.6886 2.07294 0.000457474 10
0.49614 23.6852 2.90882 0.000451215 10
0.496046 23.6807 3.75148 0.000442934 10
0.495745 23.6664 4.60128 0.000432719 10
0.495825 23.6702 5.46589 0.000420679 10
0.495869 23.6723 6.34436 0.000406941 10
0.174779 10.0131 -2.68341 0.000206839 4
0.199637 11.4372 -2.64089 0.000123569 4
0.243629 13.9575 -2.71348 0.000220159 1
0.277684 15.9085 -2.52004 0.000102278 4
0.383202 21.9536 -2.69598 0.000440585 10
0.414577 23.7511 -2.07827 0.000581169 10
0.414614 23.7532 -1.24504 0.000586774 10
0.414488 23.746 -0.414552 0.000589667 10
0.414178 23.7283 0.414241 0.00058982 10
0.41452 23.7478 1.24476 0.000457869 10
0.414384 23.7401 2.0773 0.000453732 10
0.414034 23.72 2.91289 0.000447521 10
0.413998 23.718 3.75713 0.000439304 10
0.414277 23.734 4.61412 0.000429169 10
0.414013 23.7188 5.47675 0.000417222 10
0.414109 23.7243 6.35788 0.000403592 10
0.139631 9.99952 -2.67963 5.85355e-05 4
0.159678 11.4352 -2.64027 0.000100865 4
0.194996 13.9645 -2.71468 0.000220138 1
0.222312 15.9207 -2.52184 0.000104663 4
0.304775 21.8262 -2.68018 0.000450019 10
0.33247 23.8095 -2.08327 0.000576374 10
0.332211 23.791 -1.24696 0.000581936 10
0.332073 23.7811 -0.415141 0.000584807 10
0.332228 23.7922 0.415335 0.000584959 10
0.332269 23.7952 1.24717 0.000454095 10
0.332094 23.7826 2.08091 0.00044999 10
0.332135 23.7855 2.92078 0.000443828 10
0.331962 23.7732 3.76567 0.000435676 10
0.332033 23.7783 4.62248 0.000425619 10
0.331923 23.7704 5.48835 0.000413766 10
0.331971 23.7738 6.3708 0.000400242 10
0.104862 10.0133 -2.6832 0.00029656 4
0.11962 11.4226 -2.63725 0.000138678 4
0.146066 13.9479 -2.71134 0.000220117 1
0.166862 15.9337 -2.52379 0.000124622 4
0.227391 21.7136 -2.66624 0.00045957 10
0.249592 23.8336 -2.08528 0.000571579 10
0.249691 23.843 -1.24963 0.000577097 10
0.249561 23.8306 -0.415988 0.000579946 10
0.24955 23.8296 0.415969 0.000580097 10
0.248827 23.7605 1.24531 0.000267715 10
0.249219 23.798 2.08217 0.000203454 10
0.249715 23.8454 2.928 0.000440134 10
0.249634 23.8376 3.77572 0.000432046 10
0.248913 23.7687 4.62042 0.000250465 10
0.249367 23.8121 5.49775 0.000186723 10
0.249478 23.8227 6.38363 0.000396893 10
0.0698411 10.0037 -2.68054 0.000257522 4
0.0798218 11.4332 -2.63963 0.000239517 4
0.0973892 13.9495 -2.71157 0.000220096 1
0.111204 15.9282 -2.52284 0.000107034 4
0.150728 21.5895 -2.65092 0.000469236 10
0.166787 23.8897 -2.09013 0.000566786 10
0.166815 23.8937 -1.25224 0.00057226 10
0.166799 23.8913 -0.417034 0.000575087 10
0.166774 23.8877 0.416972 0.000575237 10
0.165008 23.6348 1.23868 0.000273447 10
0.165218 23.665 2.07047 0.000207815 10
0.166776 23.888 2.93315 0.000436442 10
0.16648 23.8457 3.77688 7.52823e-05 10
0.165037 23.639 4.59507 0.000255849 10
0.165346 23.6832 5.46784 0.000190745 10
0.166827 23.8953 6.40289 0.000393544 10
0.0349126 10.0007 -2.6797 0.000312126 4
0.0399352 11.4394 -2.64101 5.79836e-05 4
0.0487342 13.9599 -2.71355 0.000220075 1
0.0555945 15.925 -2.52229 0.000109417 4
0.0749444 21.4678 -2.63593 0.000479017 10
0.0908609 26.0271 -2.27709 0.000443384 10
0.108949 31.2085 -1.63558 0.000259805 10
0.108924 31.2013 -0.544624 0.000261174 10
0.108961 31.2119 0.544808 0.000261247 10
0.0820344 23.4987 1.23152 0.000279249 10
0.0821894 23.5431 2.05977 0.000212229 10
0.0895022 25.6379 3.14796 0.000355253 10
0.0895711 25.6576 4.06379 0.000348618 10
0.0820341 23.4986 4.5677 0.000261299 10
0.0822064 23.548 5.43652 0.000194817 10
0.0895055 25.6388 6.86994 0.000319799 10
7.55427e-07 10.0059 -2.68108 0.000183362 4
8.62932e-07 11.4299 -2.6388 0.000211749 4
1.0543e-06 13.9647 -2.71446 0.000220053 1
1.20221e-06 15.9238 -2.52208 0.000113397 4
1.61224e-06 21.3548 -2.62204 0.000488915 10
1.96915e-06 26.0822 -2.28189 0.000439533 10
2.36191e-06 31.2844 -1.63955 0.000257447 10
2.36132e-06 31.2766 -0.545935 0.000258804 10
2.36212e-06 31.2873 0.546121 0.000258876 10
1.76451e-06 23.3717 1.22486 0.000285122 10
1.76688e-06 23.403 2.04749 0.000216696 10
1.94176e-06 25.7194 3.15795 0.000425798 10
1.94016e-06 25.6983 4.0702 0.000345595 10
1.76446e-06 23.371 4.54286 0.000266817 10
1.768e-06 23.4179 5.40646 0.000198939 10
1.9398e-06 25.6934 6.88453 0.000317013 10
-0.0348967 9.99795 -2.67896 0.000331589 4
-0.0398614 11.4203 -2.63661 0.000186526 4
-0.0487156 13.9571 -2.713 0.000220032 1
-0.0555891 15.9263 -2.5225 9.90104e-05 4
-0.0741682 21.2493 -2.6091 0.000498927 10
-0.0911866 26.1251 -2.28566 0.000435685 10
-0.109413 31.3469 -1.64283 0.00025509 10
-0.109391 31.3405 -0.547055 0.000256436 10
-0.109402 31.3438 0.54711 0.000256508 10
-0.0811415 23.2471 1.21834 0.000291064 10
-0.0812415 23.2758 2.03638 0.000221217 10
-0.0899414 25.7683 4.08132 0.000342575 10
-0.0811167 23.24 4.51743 0.0002724 10
-0.081297 23.2917 5.37734 0.000203111 10
-0.090158 25.8304 6.92127 0.000376474 10
-0.0698232 10.0013 -2.67991 9.36189e-05 4
-0.0797684 11.4258 -2.63792 4.53676e-05 4
-0.0973997 13.9513 -2.71192 0.000220011 1
-0.111141 15.9196 -2.52148 0.000121353 4
-0.147594 21.1409 -2.59584 0.000509056 10
-0.182768 26.1793 -2.29045 0.000431839 10
-0.21936 31.4206 -1.64672 0.000252736 10
-0.219261 31.4063 -0.548213 0.00025407 10
-0.219232 31.4022 0.548141 0.000254142 10
-0.161448 23.1254 1.21198 0.000297078 10
-0.161574 23.1434 2.02484 0.000225792 10
-0.18023 25.8157 4.0889 0.000339556 10
-0.161474 23.1291 4.49595 0.00027805 10
-0.161662 23.1561 5.34614 0.000207332 10
-0.104641 9.99231 -2.67758 0.000156021 4
-0.119741 11.4342 -2.63994 0.000126011 4
-0.146346 13.9748 -2.71657 0.000219989 1
-0.166706 15.919 -2.52146 0.000104574 4
-0.22018 21.0253 -2.58173 0.000519299 10
-0.274997 26.2599 -2.29757 0.000427996 10
-0.329852 31.4981 -1.65084 0.000250384 10
-0.329826 31.4956 -0.549788 0.000251707 10
-0.329648 31.4787 0.549492 0.000251778 10
-0.240895 23.0035 1.20563 0.000303161 10
-0.241269 23.0392 2.01578 0.00023042 10
-0.271019 25.88 4.09922 0.00033654 10
-0.240803 22.9946 4.46995 0.000283766 10
-0.241239 23.0363 5.31864 0.000211603 10
-0.139669 10.0024 -2.6804 0.000409527 4
-0.15961 11.4304 -2.63918 0.000143641 4
-0.195035 13.9674 -2.71526 0.000219968 1
-0.222302 15.9201 -2.52175 0.000112543 4
-0.293182 20.9962 -2.57826 0.000791287 10
-0.367561 26.3229 -2.30318 0.000424156 10
-0.440926 31.5769 -1.65504 0.000248035 10
-0.440668 31.5584 -0.550907 0.000249347 10
-0.440586 31.5525 0.550804 0.000249417 10
-0.319273 22.8647 1.19841 0.000309314 10
-0.31985 22.906 2.00421 0.000235101 10
-0.3621 25.9318 4.10759 0.000333526 10
-0.319319 22.868 4.44552 0.000289548 10
-0.319878 22.908 5.28925 0.000215924 10
-0.174531 9.99899 -2.67963 0.0001716 4
-0.199282 11.417 -2.63622 5.79558e-05 4
-0.243495 13.9499 -2.71201 3.62719e-05 4
-0.278092 15.932 -2.52377 0.00011652 4
-0.367417 21.0495 -2.58495 0.000784462 10
-0.460528 26.3839 -2.30864 0.00042032 10
-0.552149 31.6329 -1.65806 0.000245689 10
-0.552395 31.647 -0.552485 0.00024699 10
-0.552088 31.6294 0.552177 0.000247059 10
-0.397175 22.7544 1.19269 0.000315538 10
-0.397755 22.7876 1.99396 0.000239836 10
-0.453793 25.998 4.11831 0.000330515 10
-0.396932 22.7405 4.42097 0.000295396 10
-0.397881 22.7948 5.2634 0.000220294 10
-0.209444 9.99873 -2.67974 0.000230084 4
-0.239482 11.4327 -2.64003 8.06277e-05 4
-0.2894 13.8158 -2.6861 8.06286e-05 4
-0.333669 15.9291 -2.52348 0.000101344 4
-0.44184 21.0931 -2.59048 0.000777641 10
-0.553639 26.4303 -2.31286 0.000416487 10
-0.664016 31.6997 -1.66167 0.000243346 10
-0.663931 31.6956 -0.553371 0.000244635 10
-0.663773 31.6881 0.553238 0.000244705 10
-0.473902 22.6237 1.18592 0.000321831 10
-0.474555 22.6549 1.98248 0.000244624 10
-0.54563 26.048 4.1265 0.000327506 10
-0.473801 22.6189 4.39764 0.000301312 10
-0.474991 22.6757 5.23626 0.000224714 10
-0.279096 11.4199 -2.63729 0.000309888 4
-0.334662 13.6936 -2.66256 0.000101021 4
-0.389169 15.9239 -2.52284 9.09591e-05 4
-0.516641 21.1397 -2.5964 0.000770826 10
-0.647782 26.5057 -2.31964 0.000412659 10
-0.652234 26.6879 -1.39907 0.000276486 10
-0.652189 26.686 -0.465946 0.000277759 10
-0.652047 26.6802 0.465844 0.000277705 10
-0.549775 22.4955 1.17929 0.000328194 10
-0.551168 22.5525 1.97367 0.000249465 10
-0.638219 26.1144 4.13735 0.000324502 10
-0.550191 22.5125 4.37729 0.000307292 10
-0.550936 22.543 5.20601 0.000229183 10
-0.279188 9.99519 -2.67925 0.000159867 4
-0.319435 11.4361 -2.64126 0.000312382 4
-0.379088 13.5717 -2.6391 7.1033e-05 4
-0.444689 15.9203 -2.52251 6.7812e-05 4
-0.591694 21.1832 -2.60199 0.000764018 10
-0.741645 26.5516 -2.32387 0.000279479 10
-0.741365 26.5416 -1.39153 0.000282113 10
-0.741057 26.5306 -0.463274 0.000283411 10
-0.741704 26.5537 0.463677 0.000283356 10
-0.625489 22.3931 1.17403 0.000334627 10
-0.626194 22.4183 1.96212 0.000254359 10
-0.731026 26.1714 4.14676 0.0003215 10
-0.625335 22.3876 4.35341 0.000313338 10
-0.626523 22.4301 5.18043 0.000233701 10
-0.314544 10.009 -2.68322 0.000269025 4
-0.359001 11.4236 -2.63865 0.000214115 4
-0.426429 13.5692 -2.63889 6.59215e-05 4
-0.500475 15.9254 -2.52358 9.57228e-05 4
-0.6675 21.2402 -2.60926 0.000757214 10
-0.829333 26.3899 -2.30995 0.000285121 10
-0.830024 26.4118 -1.38487 0.000287806 10
-0.82971 26.4018 -0.461074 0.000289128 10
-0.830211 26.4178 0.461352 0.000289073 10
-0.700053 22.2761 1.16802 0.00034113 10
-0.701159 22.3113 1.95295 0.000259307 10
-0.827034 26.3167 3.23288 0.000388902 10
-0.824631 26.2402 4.1581 0.000318503 10
-0.700612 22.2939 4.33563 0.000319451 10
-0.701218 22.3131 5.15394 0.000238269 10
-0.826753 26.3078 7.05263 0.000349873 10
-0.34928 10.0021 -2.6817 0.000167642 4
-0.398818 11.4207 -2.63829 0.00012594 4
-0.473257 13.5524 -2.63593 0.000100305 4
-0.555484 15.9071 -2.52097 8.53423e-05 4
-0.742527 21.2634 -2.61241 0.000750419 10
-0.917479 26.2734 -2.30002 0.000290827 10
-0.917607 26.277 -1.37796 0.000193905 10
-0.917081 26.262 -0.458684 0.000194795 10
-0.917121 26.2631 0.458704 0.000194758 10
-0.773455 22.149 1.16149 0.000347702 10
-0.775331 22.2028 1.94367 0.000264307 10
-0.917916 26.2859 3.22947 0.000269945 10
-0.916943 26.258 4.1614 0.000218975 10
-0.774078 22.1669 4.31143 0.000325628 10
-0.775809 22.2164 5.13219 0.000242886 10
-0.917142 26.2637 7.04163 0.000242395 10
-0.384199 10.001 -2.68173 0.000233903 4
-0.439469 11.4397 -2.64301 4.02975e-05 4
-0.521144 13.5658 -2.63886 0.000309483 4
-0.611113 15.9077 -2.5214 7.73568e-05 4
-0.819048 21.3204 -2.61975 0.00074363 10
-1.00373 26.1277 -2.28757 0.000296596 10
-1.0076 26.2285 -1.37559 0.000280483 10
-1.00717 26.2173 -0.457962 0.000281901 10
-1.00728 26.2204 0.458015 0.000281978 10
-0.846634 22.0385 1.15584 0.000354344 10
-0.849072 22.102 1.9351 0.000269361 10
-1.00877 26.259 3.22658 0.000271716 10
-1.00367 26.1262 4.14104 0.00022333 10
-0.846615 22.038 4.28691 0.000331873 10
-0.848652 22.091 5.10388 0.000247553 10
-1.00899 26.2648 7.04281 0.00024399 10
-0.418828 9.99299 -2.67997 0.000705557 4
-0.479051 11.4299 -2.64111 0.000103254 4
-0.568705 13.569 -2.63985 0.000256445 4
-0.667388 15.9235 -2.52425 9.88769e-05 4
-0.896219 21.3832 -2.62784 0.00073685 10
-1.09009 26.009 -2.27749 0.000302429 10
-1.0901 26.0092 -1.36428 0.000201637 10
-1.08923 25.9884 -0.454028 0.00020256 10
-1.08909 25.9851 0.453969 0.000202522 10
-0.919332 21.9347 1.15056 0.000361055 10
-0.921143 21.9779 1.92451 0.000274467 10
-1.08951 25.995 4.12082 0.000227733 10
-0.919192 21.9314 4.26677 0.000338181 10
-0.921064 21.976 5.07802 0.000252269 10
-0.453367 9.9839 -2.67793 0.000752283 4
-0.518962 11.4284 -2.64118 4.53273e-05 4
-0.615062 13.5447 -2.63554 0.000266447 4
-0.722406 15.9086 -2.52227 0.000101256 4
-0.972779 21.4222 -2.63303 0.000730078 10
-1.17431 25.8602 -2.26481 0.000308325 10
-1.18127 26.0137 -1.36472 0.000285444 10
-1.18053 25.9973 -0.454253 0.000286885 10
-1.1813 26.0141 0.454546 0.000286963 10
-0.990877 21.8208 1.14476 0.000367836 10
-0.992767 21.8624 1.91468 0.000279627 10
-1.17432 25.8605 4.10011 0.000232183 10
-0.990976 21.823 4.24632 0.000344557 10
-0.992489 21.8563 5.05112 0.000257034 10
-0.488145 9.98087 -2.67756 0.000783411 4
-0.558507 11.4195 -2.63956 4.78415e-05 4
-0.662415 13.5441 -2.63586 0.000279312 4
-0.777649 15.9002 -2.52136 9.00831e-05 4
-1.05058 21.4807 -2.64065 0.000723316 10
-1.25811 25.724 -2.25325 0.000314284 10
-1.25905 25.7432 -1.35076 0.000293373 10
-1.25947 25.7518 -0.450036 0.00029485 10
-1.25893 25.7408 0.449844 0.000294931 10
-1.06213 21.717 1.1395 0.000374685 10
-1.0637 21.7489 1.90506 0.000284838 10
-1.25867 25.7354 4.08096 0.000236682 10
-1.06149 21.7039 4.22386 0.000350997 10
-1.06335 21.7419 5.02552 0.000261847 10
-0.523249 9.98417 -2.67892 0.000744383 4
-0.598047 11.4114 -2.63814 0.000226599 4
-0.710643 13.5599 -2.63939 0.000312225 4
-0.833135 15.8971 -2.52131 6.93474e-05 4
-1.12838 21.5307 -2.64727 0.000716563 10
-1.34122 25.5919 -2.24207 0.000320308 10
-1.35153 25.7887 -1.35338 0.00029053 10
-1.35198 25.7972 -0.45091 0.000291994 10
-1.35143 25.7868 0.450727 0.000292074 10
-1.13289 21.6167 1.13444 0.000381604 10
-1.13458 21.649 1.89664 0.000290102 10
-1.3425 25.6164 4.06281 0.000241229 10
-1.13247 21.6088 4.20609 0.000357501 10
-1.13391 21.6363 5.00198 0.00026671 10
-0.557946 9.97961 -2.6782 0.000650803 4
-0.638049 11.4124 -2.63887 5.79039e-05 4
-0.757191 13.5434 -2.63668 0.000236294 4
-0.891456 15.9449 -2.52937 0.00033305 4
-1.20567 21.565 -2.65198 0.000709822 10
-1.42399 25.47 -2.23182 0.000326393 10
-1.42748 25.5325 -1.34019 0.000298679 10
-1.42793 25.5404 -0.446506 0.00030018 10
-1.42785 25.539 0.446481 0.000300263 10
-1.20504 21.5537 1.13135 0.000531838 10
-1.20715 21.5915 1.89196 0.000405047 10
-1.42402 25.4705 4.04043 0.000245823 10
-1.20563 21.5643 4.19823 0.000499157 10
-1.20624 21.5753 4.98883 0.00037308 10
-0.594126 10.0003 -2.6843 0.000775453 4
-0.677682 11.4067 -2.6381 0.000264322 4
-0.80425 13.5371 -2.63599 0.000263477 4
-0.94836 15.9628 -2.53272 0.000283761 4
-1.28546 21.6369 -2.66136 0.000703092 10
-1.50601 25.3492 -2.22168 0.000332542 10
-1.50522 25.3359 -1.33014 0.000221703 10
-1.50632 25.3545 -0.443344 0.000222714 10
-1.50574 25.3446 0.443171 0.000222674 10
-1.28425 21.6164 1.13487 0.000526803 10
-1.28623 21.6499 1.89746 0.000401211 10
-1.50608 25.3504 3.11813 0.000255337 10
-1.50631 25.3542 4.0228 0.000250465 10
-1.2847 21.6241 4.21072 0.000494418 10
-1.28522 21.6329 5.00316 0.000369532 10
-1.50676 25.3618 6.80766 0.000229482 10
-0.625839 9.94743 -2.67068 0.000282838 4
-0.718548 11.421 -2.64196 0.000203889 4
-1.0064 15.9962 -2.53856 0.000383404 4
-1.36426 21.6844 -2.66777 0.000696371 10
-1.58597 25.2083 -2.2098 0.000338754 10
-1.59355 25.3288 -1.33005 0.000304125 10
-1.59242 25.3108 -0.442676 0.000305651 10
-1.59252 25.3124 0.442703 0.000305736 10
-1.36315 21.6667 1.13775 0.000521777 10
-1.3652 21.6992 1.90219 0.00039738 10
-1.58643 25.2157 3.10222 0.000260113 10
-1.58753 25.2331 4.00443 0.000255155 10
-1.3633 21.6691 4.22038 0.000489685 10
-1.36531 21.7009 5.01996 0.000365989 10
-1.58703 25.2252 6.77243 0.000233802 10
-0.65722 9.89496 -2.65719 0.000439798 4
-0.758746 11.4235 -2.64314 0.000302033 4
-0.900162 13.5527 -2.64017 5.15395e-05 4
-1.06566 16.0443 -2.54677 0.000231335 4
-1.44224 21.714 -2.67202 0.000689665 10
-1.6677 25.1085 -2.20155 0.000345028 10
-1.66606 25.0839 -1.31749 0.000230023 10
-1.66713 25.1 -0.439088 0.00023107 10
-1.6668 25.095 0.439 0.000231029 10
-1.44284 21.7231 1.14097 0.00051676 10
-1.44401 21.7408 1.90626 0.000393556 10
-1.66828 25.1172 3.0908 0.000264936 10
-1.66758 25.1068 3.98529 0.000259892 10
-1.44291 21.7242 4.23206 0.000484962 10
-1.44483 21.753 5.03314 0.000362453 10
-1.66739 25.1039 6.74139 0.000238166 10
-0.688342 9.84375 -2.64407 0.000119876 4
-0.798805 11.4234 -2.64375 0.000120803 4
-0.945912 13.5272 -2.63584 0.0001045 4
-1.12438 16.0793 -2.55293 0.000148229 4
-1.52252 21.773 -2.67992 0.00068297 10
-1.74623 24.9722 -2.19012 0.000351365 10
-1.75539 25.1032 -1.31882 0.000309717 10
-1.75596 25.1114 -0.439392 0.00031127 10
-1.75419 25.0861 0.438949 0.000311356 10
-1.52177 21.7623 1.1433 0.000511752 10
-1.52477 21.8052 1.91237 0.00038974 10
-1.74682 24.9807 3.07474 0.000269808 10
-1.74595 24.9682 3.96424 0.000264677 10
-1.52112 21.753 4.23869 0.000480248 10
-1.52443 21.8004 5.0453 0.000358923 10
-1.74727 24.9871 6.71163 0.000242574 10
-0.722465 9.83813 -2.64322 0.000117033 4
-0.837403 11.4033 -2.63974 9.05948e-05 4
-0.994745 13.5459 -2.64014 6.58428e-05 4
-1.18164 16.091 -2.55542 0.000347084 4
-1.60339 21.8341 -2.68811 0.000676289 10
-1.82399 24.8381 -2.1789 0.000357764 10
-1.82505 24.8525 -1.30597 0.00023851 10
-1.82423 24.8413 -0.434775 0.000239594 10
-1.82476 24.8485 0.4349 0.000239551 10
-1.60212 21.8168 1.14645 0.000506754 10
-1.60554 21.8634 1.91795 0.000385931 10
-1.82618 24.8679 3.06162 0.000274727 10
-1.82445 24.8444 3.94556 0.000269508 10
-1.6019 21.8137 4.25158 0.000475543 10
-1.60489 21.8546 5.05911 0.000355401 10
-1.82665 24.8743 6.68301 0.000247026 10
-0.756285 9.82879 -2.6414 0.000145273 4
-0.877335 11.402 -2.64013 0.000135881 4
-1.04116 13.531 -2.63794 0.000113067 4
-1.24087 16.1265 -2.56174 0.000420194 4
-1.68387 21.8838 -2.69494 0.000669621 10
-1.90361 24.7395 -2.17083 0.000364226 10
-1.91498 24.8874 -1.30815 0.000315464 10
-1.91332 24.8658 -0.435318 0.000317043 10
-1.91376 24.8714 0.435416 0.000317131 10
-1.68364 21.8809 1.15012 0.000501766 10
-1.68551 21.9052 1.92212 0.00038213 10
-1.90333 24.736 3.04617 0.000279695 10
-1.90417 24.7469 3.93111 0.000274387 10
-1.68255 21.8667 4.26301 0.000470847 10
-1.68415 21.8874 5.06805 0.000351886 10
-1.90461 24.7526 6.65205 0.000251521 10
-0.791586 9.83851 -2.64474 0.000181578 4
-0.916225 11.3876 -2.63754 8.55475e-05 4
-1.0885 13.5288 -2.63824 3.57769e-05 4
-1.30076 16.167 -2.56887 0.000337146 4
-1.76432 21.9285 -2.70118 0.000662968 10
-1.98104 24.622 -2.16111 0.000370749 10
-1.98027 24.6125 -1.29406 0.000247162 10
-1.97927 24.6001 -0.430784 0.000248283 10
-1.9807 24.6178 0.431093 0.00024824 10
-1.7649 21.9357 1.15332 0.000496789 10
-1.76619 21.9517 1.92673 0.000378337 10
-1.97934 24.601 3.03038 0.00028471 10
-1.98119 24.6239 3.91265 0.000279312 10
-1.76263 21.9075 4.27214 0.000466162 10
-1.76473 21.9336 5.08012 0.000348379 10
-1.97971 24.6055 6.61433 0.00025606 10
-0.957735 11.4054 -2.64241 6.79291e-05 4
-1.13584 13.5264 -2.63851 6.15301e-05 4
-1.35965 16.1918 -2.57355 0.000421219 4
-1.84654 21.99 -2.70954 4.36751e-05 1
-2.05586 24.4827 -2.1495 0.000377333 10
-2.07121 24.6655 -1.29721 0.000321374 10
-2.07073 24.6598 -0.431953 0.000322979 10
-2.06936 24.6434 0.431666 0.000323069 10
-1.84489 21.9704 1.15547 0.000491823 10
-1.84907 22.02 1.93328 0.000374553 10
-2.05748 24.5019 3.01905 0.000289772 10
-2.05624 24.4873 3.89205 0.000284285 10
-1.84564 21.9792 4.28736 0.000461488 10
-1.8484 22.0121 5.09977 0.00034488 10
-2.05641 24.4892 6.58497 0.000260642 10
-0.859903 9.82875 -2.64367 0.000205759 4
-0.997147 11.3975 -2.64136 7.04391e-05 4
-1.18341 13.5264 -2.63931 5.29391e-05 4
-1.41978 16.2282 -2.58011 0.000293344 4
-1.92377 21.9888 -2.7102 4.36675e-05 1
-2.13169 24.3654 -2.13984 0.00038398 10
-2.13348 24.3858 -1.28289 0.000330885 10
-2.13204 24.3693 -0.426993 0.000332534 10
-2.13152 24.3634 0.426888 0.000257093 10
-1.9268 22.0235 1.15861 0.000486868 10
-1.92972 22.0569 1.9371 0.000370777 10
-2.13335 24.3843 3.00545 0.000294882 10
-2.1319 24.3678 3.87422 0.000289304 10
-1.92762 22.0328 4.29911 0.000456825 10
-1.92995 22.0594 5.11227 0.000341388 10
-2.13366 24.3879 6.55967 0.000265268 10
-0.894247 9.82615 -2.64379 0.0001533 4
-1.03751 11.4003 -2.64285 7.29487e-05 4
-1.23034 13.5192 -2.63873 0.000115882 4
-1.48164 16.2805 -2.58924 0.000213869 4
-2.00024 21.9791 -2.70984 4.366e-05 1
-2.20843 24.2667 -2.13183 0.000390687 10
-2.22381 24.4357 -1.28591 0.000327453 10
-2.22462 24.4445 -0.428444 0.000329086 10
-2.22248 24.421 0.428032 0.000329178 10
-2.00885 22.0736 1.16161 0.000481926 10
-2.01137 22.1013 1.9416 0.00036701 10
-2.20846 24.2669 2.99192 0.000300039 10
-2.20825 24.2646 3.85903 0.000294369 10
-2.0088 22.0731 4.30831 0.000452172 10
-2.011 22.0973 5.12264 0.000337906 10
-2.20804 24.2624 6.52795 0.000269937 10
-0.928648 9.82407 -2.64409 0.000145221 4
-1.07519 11.3743 -2.63768 5.7851e-05 4
-1.53991 16.2905 -2.59166 0.000387412 4
-2.07692 21.9715 -2.70978 4.36524e-05 1
-2.28057 24.1259 -2.12016 0.000397457 10
-2.28294 24.151 -1.27134 0.000337253 10
-2.28338 24.1556 -0.423518 0.000338931 10
-2.2838 24.1601 0.423596 0.000339026 10
-2.09282 22.1398 1.16547 0.000476995 10
-2.09506 22.1634 1.94769 0.000363253 10
-2.28235 24.1448 2.97782 0.000305244 10
-2.28308 24.1525 3.84243 0.000299481 10
-2.09258 22.1372 4.32222 0.000447531 10
-2.0946 22.1586 5.13852 0.000334432 10
-2.28172 24.1381 6.49662 0.000274649 10
-0.963042 9.82188 -2.64439 0.000270253 4
-1.11742 11.3963 -2.64367 0.000203719 4
-1.32444 13.5077 -2.63823 0.000140174 4
-1.60075 16.3258 -2.59815 0.000378056 4
-2.15364 21.9645 -2.70984 4.36447e-05 1
-2.35553 24.0236 -2.11187 0.000404286 10
-2.37259 24.1976 -1.27423 0.000333711 10
-2.37423 24.2143 -0.424689 0.000335372 10
-2.37462 24.2183 0.424759 0.000335467 10
-2.17444 22.1767 1.16781 0.000472078 10
-2.17891 22.2223 1.95352 0.000359505 10
-2.35747 24.0434 2.96631 0.000310495 10
-2.35684 24.037 3.82534 0.000304639 10
-2.17591 22.1917 4.33432 0.000442903 10
-2.17755 22.2084 5.1518 0.000330967 10
-2.35655 24.0341 6.47079 0.000279404 10
-0.995426 9.79979 -2.63936 0.000125034 4
-1.15533 11.3741 -2.63942 0.000128257 4
-1.37301 13.5171 -2.64097 0.000165904 4
-1.66236 16.3656 -2.60539 0.000296092 4
-2.22922 21.9463 -2.70853 4.36371e-05 1
-2.42766 23.8999 -2.10173 0.000411176 10
-2.43098 23.9326 -1.26071 0.000343813 10
-2.42911 23.9141 -0.41957 0.000345521 10
-2.4304 23.9269 0.419794 0.000345618 10
-2.25886 22.2381 1.17144 0.000467173 10
-2.26101 22.2593 1.95745 0.000355768 10
-2.42957 23.9186 2.95195 0.000315793 10
-2.42921 23.9151 3.80728 0.000309843 10
-2.25969 22.2462 4.34648 0.000438286 10
-2.26051 22.2543 5.16424 0.000327512 10
-2.43108 23.9335 6.44596 0.000284201 10
-1.03121 9.8113 -2.64341 0.000387173 4
-1.19433 11.3633 -2.63788 9.55558e-05 4
-1.41972 13.5077 -2.6401 5.57723e-05 4
-1.72357 16.3987 -2.61161 0.000431837 4
-2.30772 21.9565 -2.71077 4.36295e-05 1
-2.5014 23.7993 -2.09364 0.000418126 10
-2.5208 23.9839 -1.26386 0.000340157 10
-2.52132 23.9888 -0.421033 0.000341848 10
-2.51992 23.9755 0.420799 0.000341944 10
