VERSION 0.7
FIELDS x y z intensity label
SIZE 4 4 4 4 4
TYPE F F F F F
COUNT 1 1 1 1 1
WIDTH 1172
HEIGHT 1
VIEWPOINT 4.57639 4.07012 2.72952 -0.539624 -0.000263037 -0.000712258 0.841906
POINTS 1172
DATA ascii
-10.1879 19.0004 -2.64716 2.8968e-05 4
-4.77024 8.82238 -2.68738 7.71859e-05 4
-5.46431 10.106 -2.65238 0.000219077 4
-6.48473 11.9933 -2.65021 0.000100338 4
-7.95311 14.709 -2.64841 4.48838e-05 4
-4.80983 8.82185 -2.69232 0.000196811 4
-5.49971 10.0872 -2.65245 0.00028876 4
-6.52617 11.9699 -2.65006 0.000121525 4
-4.83527 8.79534 -2.68936 0.000177504 4
-5.53 10.059 -2.65011 8.71193e-05 4
-6.57082 11.9523 -2.65123 7.77121e-05 4
-4.86491 8.77653 -2.68879 0.000154341 4
-5.566 10.0413 -2.65055 0.000154314 4
-6.60262 11.9115 -2.64727 8.47689e-05 4
-4.89189 8.75302 -2.6868 3.85828e-05 4
-5.59343 10.0083 -2.64696 4.7286e-05 4
-6.65608 11.9097 -2.65202 2.96663e-05 4
-4.92628 8.74274 -2.6889 0.000154321 4
-5.62768 9.98753 -2.64666 0.000104519 4
-6.69159 11.8757 -2.64963 5.79145e-05 4
-8.20382 14.5594 -2.64687 3.64465e-05 4
-4.95684 8.72561 -2.68894 0.000142738 4
-5.67203 9.98458 -2.6511 0.000119441 4
-6.73551 11.8567 -2.65062 4.51973e-05 4
-4.99155 8.71573 -2.69125 0.000300887 4
-5.70702 9.96502 -2.65118 0.000102014 4
-6.77629 11.8321 -2.6504 5.36668e-05 4
-8.31484 14.5185 -2.64992 4.27444e-05 4
-10.7118 18.7038 -2.6465 4.46603e-05 4
-5.01831 8.69197 -2.6893 0.000189006 4
-5.73212 9.92833 -2.64673 4.97593e-05 4
-6.82171 11.8156 -2.65201 4.80131e-05 4
-8.35848 14.4773 -2.64771 4.62425e-05 4
-5.05318 8.68223 -2.69173 0.000161994 4
-5.76823 9.91081 -2.64741 9.20475e-05 4
-6.85832 11.7838 -2.65024 5.50687e-05 4
-8.40708 14.4448 -2.64711 4.76381e-05 4
-5.07754 8.65447 -2.6886 9.64189e-05 4
-5.80357 9.89194 -2.64777 9.4528e-05 4
-6.8966 11.755 -2.64916 7.3418e-05 4
-5.11164 8.64332 -2.69067 0.000293094 4
-5.84335 9.88057 -2.65017 0.000121882 4
-6.94216 11.7386 -2.6509 7.76463e-05 4
-8.51749 14.4023 -2.65015 7.21406e-05 4
-5.14667 8.63362 -2.69322 0.000134969 4
-5.88377 9.87012 -2.65285 0.000116898 4
-6.98719 11.7211 -2.65246 0.000115753 4
-8.56785 14.3727 -2.6502 3.22143e-05 4
-5.16679 8.59898 -2.68803 5.39839e-05 4
-5.9109 9.83739 -2.64959 9.948e-05 4
-7.02268 11.6877 -2.65043 0.000103038 4
-5.19704 8.58133 -2.68817 0.000204354 4
-5.94153 9.81063 -2.64795 9.94722e-05 4
-7.05623 11.6512 -2.64772 6.77449e-05 4
-8.66571 14.3088 -2.6495 5.81119e-05 4
-5.23063 8.56915 -2.69005 0.000200485 4
-5.98605 9.80673 -2.65252 3.48126e-05 4
-7.10778 11.6444 -2.6518 6.77385e-05 4
-8.71469 14.277 -2.64923 3.92034e-05 4
-6.01542 9.77792 -2.65039 0.000139239 4
-7.14771 11.6184 -2.65155 7.61986e-05 4
-8.76042 14.2399 -2.648 8.25972e-05 4
-5.2871 8.52722 -2.68841 0.0006592 4
-6.04845 9.75516 -2.64993 7.21005e-05 4
-7.18633 11.5904 -2.65085 0.000100178 4
-8.81883 14.2233 -2.65063 3.9194e-05 4
-5.32233 8.5175 -2.69119 0.000782507 4
-6.07927 9.72887 -2.64854 0.000246117 4
-7.22695 11.5655 -2.65093 8.88816e-05 4
-8.86622 14.1889 -2.64997 7.20804e-05 4
-5.35185 8.49859 -2.6911 0.000689949 4
-7.26629 11.5387 -2.65057 8.32305e-05 4
-5.37485 8.46941 -2.68778 0.00067834 4
-6.14442 9.68206 -2.64741 0.000109368 4
-7.30398 11.5092 -2.64964 0.00012836 4
-5.4058 8.45281 -2.68849 0.000736104 4
-6.18833 9.67642 -2.65176 7.45635e-05 4
-7.3536 11.4985 -2.65307 6.34688e-05 4
-9.01187 14.0915 -2.64925 3.42783e-05 4
-5.43899 8.43966 -2.69033 0.000670543 4
-6.22389 9.65759 -2.65253 0.000161542 4
-7.38801 11.464 -2.65103 8.03863e-05 4
-9.05643 14.0528 -2.64792 3.00774e-05 4
-11.6964 18.1493 -2.65113 3.25038e-05 4
-5.46409 8.41396 -2.6882 0.000820783 4
-6.25251 9.62803 -2.65039 0.000111828 4
-7.43124 11.4431 -2.65219 3.52538e-05 4
-9.10933 14.0271 -2.64905 8.25281e-05 4
-11.7564 18.1033 -2.65039 2.88564e-05 4
-5.49976 8.40452 -2.6913 0.000866966 4
-7.4726 11.4193 -2.65271 6.34508e-05 4
-5.53199 8.38971 -2.69272 0.000662704 4
-6.31967 9.58429 -2.65043 0.000196289 4
-7.50976 11.3891 -2.65177 0.000100102 4
-5.56572 8.37709 -2.69489 0.000261982 4
-6.34678 9.55267 -2.6478 0.000116771 4
-7.53948 11.3478 -2.64827 5.92096e-05 4
-5.58134 8.33731 -2.68835 0.000427618 4
-6.387 9.54079 -2.65067 0.000116761 4
-7.59097 11.3393 -2.65243 7.7529e-05 4
-9.30466 13.8992 -2.64916 7.4799e-05 4
-5.62057 8.33284 -2.69322 0.000165643 4
-6.42047 9.51874 -2.65075 8.19751e-05 4
-5.63819 8.29634 -2.68776 0.000107853 4
-6.44776 9.4876 -2.64833 9.93559e-05 4
-7.66999 11.286 -2.65244 6.90582e-05 4
-9.41181 13.8491 -2.65207 4.12344e-05 4
-5.68047 8.29612 -2.6941 0.000215692 4
-6.48996 9.47835 -2.65206 5.71252e-05 4
-7.70095 11.247 -2.64956 9.86452e-05 4
-5.70646 8.27199 -2.69271 9.62849e-05 4
-6.52261 9.45506 -2.6519 9.18899e-05 4
-7.74829 11.2318 -2.65234 6.19997e-05 4
-9.51117 13.7872 -2.65288 3.98271e-05 4
-5.7338 8.24986 -2.69201 0.000227217 4
-6.55198 9.42706 -2.65044 0.000186249 4
-7.78446 11.2004 -2.65132 6.34028e-05 4
-9.55571 13.7489 -2.6519 4.68087e-05 4
-5.75851 8.22401 -2.69012 0.000211799 4
-6.59485 9.41843 -2.65447 0.000168852 4
-7.82908 11.1811 -2.65321 4.64909e-05 4
-9.60837 13.7222 -2.65321 3.84205e-05 4
-5.79149 8.20996 -2.69212 0.00012322 4
-6.61256 9.37389 -2.64841 0.000233395 4
-7.8683 11.154 -2.65329 0.000104243 4
-9.65246 13.6832 -2.65218 6.28623e-05 4
-5.8177 8.1863 -2.691 0.000180967 4
-6.65285 9.36148 -2.65145 0.000129102 4
-7.89444 11.1086 -2.64902 5.35249e-05 4
-5.84935 8.1703 -2.69244 9.62529e-05 4
-6.68129 9.33233 -2.64978 0.000151435 4
-7.94507 11.0976 -2.65299 6.7604e-05 4
-9.75133 13.6205 -2.65315 3.28202e-05 4
-5.87198 8.1417 -2.68975 6.54476e-05 4
-6.72624 9.32617 -2.65468 0.000146458 4
-7.98076 11.0656 -2.65199 3.37988e-05 4
-5.89986 8.12047 -2.68953 0.000331066 4
-6.75954 9.30371 -2.65499 0.000131554 4
-8.02262 11.0422 -2.65308 3.23874e-05 4
-5.93665 8.1114 -2.69337 3.46442e-05 4
-6.77594 9.25815 -2.64872 7.44587e-05 4
-8.05606 11.0072 -2.65141 9.8561e-05 4
-9.89642 13.5217 -2.65395 0.000127045 4
-6.8238 9.25558 -2.65478 0.000178687 4
-8.10317 10.9909 -2.65427 4.08286e-05 4
-9.93419 13.4744 -2.65145 0.00013401 4
-5.98494 8.05872 -2.68969 0.000354093 4
-6.84028 9.21045 -2.64867 4.96314e-05 4
-8.12543 10.9409 -2.64904 0.000161891 4
-9.98595 13.4461 -2.65272 0.000133296 4
-6.01223 8.03672 -2.68933 0.000250158 4
-6.87549 9.19066 -2.64987 0.000171215 4
-8.17562 10.9286 -2.65295 8.16416e-05 4
-10.0282 13.405 -2.65151 0.000136071 4
-6.04777 8.02566 -2.69268 0.000454102 4
-6.91521 9.17679 -2.65281 0.000121578 4
-8.21605 10.9031 -2.6537 3.94094e-05 4
-10.0759 13.3712 -2.65176 4.18629e-05 4
-6.07421 8.00248 -2.692 0.000123138 4
-6.93915 9.142 -2.64974 0.000138935 4
-8.24823 10.8666 -2.65183 6.47379e-05 4
-6.09473 7.97158 -2.68875 0.000138521 4
-6.98448 9.13533 -2.65486 0.000354753 4
-8.28665 10.8385 -2.652 0.000184345 4
-6.12224 7.94989 -2.68862 0.000261634 4
-7.01109 9.10408 -2.65287 7.19373e-05 4
-8.32642 10.8121 -2.65263 7.0354e-05 4
-10.2084 13.2559 -2.64996 2.92935e-05 4
-6.15054 7.92924 -2.68888 0.000373188 4
-7.03319 9.06714 -2.64924 0.00012402 4
-8.35861 10.7759 -2.65089 0.000164613 4
-10.2565 13.2226 -2.65044 4.9514e-05 4
-6.18832 7.92068 -2.69329 0.000315458 4
-7.07863 9.06024 -2.65443 7.44063e-05 4
-8.40034 10.7519 -2.65221 3.65771e-05 4
-10.3136 13.2008 -2.65327 4.04432e-05 4
-6.20702 7.88771 -2.68943 0.000115404 4
-7.0977 9.01957 -2.64976 8.18405e-05 4
-8.43036 10.7131 -2.64986 3.79803e-05 4
-10.3608 13.1663 -2.65358 2.92829e-05 4
-6.23747 7.86972 -2.6907 0.000142322 4
-7.13996 9.00839 -2.65378 9.6713e-05 4
-8.47567 10.6936 -2.65235 3.23505e-05 4
-10.4073 13.1307 -2.65372 6.20445e-05 4
-6.26915 7.85323 -2.69253 0.000753871 4
-7.17548 8.98857 -2.6553 0.000307474 4
-8.50482 10.6538 -2.64982 5.62565e-05 4
-6.29873 7.83404 -2.69347 0.000796127 4
-7.19342 8.94681 -2.65037 0.000101657 4
-8.54659 10.6298 -2.65126 8.43767e-05 4
-10.4902 13.0471 -2.65156 3.34542e-05 4
-6.32239 7.80751 -2.69192 0.000738387 4
-7.23305 8.93208 -2.65347 0.000240486 4
-8.59646 10.6157 -2.65522 0.000254512 4
-10.5373 13.0125 -2.65197 2.99658e-05 4
-6.36016 7.79833 -2.6964 0.000707574 4
-7.26649 8.9096 -2.65431 0.000505725 4
-8.6264 10.577 -2.65305 0.000300886 4
-10.5905 12.9853 -2.65395 3.55365e-05 4
-6.38744 7.77619 -2.69643 0.00074598 4
-7.29278 8.87838 -2.65258 4.70982e-05 4
-8.65495 10.5367 -2.6505 0.000240405 4
-6.40537 7.74277 -2.69258 0.000818986 4
-8.7087 10.527 -2.65569 0.000288178 4
-10.6768 12.9061 -2.65294 5.50336e-05 4
-6.42904 7.71637 -2.69119 0.000176858 4
-7.34665 8.81773 -2.64971 9.17031e-05 4
-8.72933 10.4773 -2.65081 0.000153212 4
-10.7183 12.8644 -2.65205 6.61717e-05 4
-6.45525 7.69307 -2.6909 4.22894e-05 4
-7.39052 8.80768 -2.65443 8.92177e-05 4
-8.77143 10.4534 -2.6525 8.85451e-05 4
-10.7595 12.8227 -2.65117 3.69124e-05 4
-6.48401 7.67279 -2.69171 0.000107639 4
-7.42039 8.78085 -2.65414 9.16888e-05 4
-8.80909 10.4241 -2.65287 0.000151777 4
-10.8149 12.7977 -2.6538 4.2479e-05 4
-6.51889 7.65967 -2.69508 0.000261391 4
-7.44429 8.74701 -2.65175 0.000151151 4
-8.83939 10.3863 -2.65106 6.18293e-05 4
-6.53111 7.61997 -2.68911 0.000161436 4
-7.46991 8.7153 -2.65002 7.9286e-05 4
-8.88294 10.3639 -2.65325 0.000102571 4
-10.8973 12.7141 -2.65217 3.20256e-05 4
-20.1011 23.4524 -2.70235 3.45187e-05 4
-6.5736 7.61559 -2.69565 0.000196017 4
-7.51074 8.70127 -2.65371 5.94599e-05 4
-8.92073 10.3348 -2.65375 3.37187e-05 4
-10.9479 12.6832 -2.65368 3.96792e-05 4
-19.97 23.1355 -2.67386 3.3887e-05 4
-6.60306 7.59596 -2.69684 0.000276712 4
-7.53086 8.66327 -2.65012 0.000314617 4
-8.9527 10.2989 -2.65255 5.75973e-05 4
-14.179 16.3111 -2.65368 4.56495e-05 4
-19.834 22.8165 -2.64497 3.36169e-05 4
-6.62344 7.56589 -2.69436 0.000368924 4
-7.56064 8.63645 -2.64998 0.000133764 4
-8.9932 10.2729 -2.65391 6.74245e-05 4
-11.0407 12.6117 -2.65478 3.89737e-05 4
-19.6938 22.496 -2.61577 3.37687e-05 4
-6.6555 7.54918 -2.69666 0.000103753 4
-7.6024 8.62324 -2.65405 0.0001288 4
-9.03147 10.2442 -2.65463 2.94954e-05 4
-11.0808 12.5688 -2.65387 3.13144e-05 4
-19.5585 22.1848 -2.58751 3.41262e-05 4
-6.68254 7.52672 -2.69696 0.000161383 4
-9.05659 10.2007 -2.65153 0.000129206 4
-14.3514 16.1643 -2.6541 3.19948e-05 4
-19.4437 21.9 -2.56219 3.99735e-05 4
-6.69095 7.48343 -2.68979 9.60549e-05 4
-7.66697 8.57504 -2.65562 7.92489e-05 4
-9.0954 10.1727 -2.65249 6.0384e-05 4
-11.1742 12.4977 -2.65527 3.20026e-05 4
-6.72811 7.47233 -2.69423 0.00025741 4
-7.70048 8.55224 -2.65687 9.90534e-05 4
-9.14445 10.1559 -2.65643 8.98653e-05 4
-11.2092 12.4491 -2.65324 9.1127e-05 4
-6.75424 7.44889 -2.69426 0.000368802 4
-7.71777 8.51152 -2.65257 0.000113903 4
-9.17507 10.1187 -2.65505 7.16047e-05 4
-6.77281 7.41717 -2.69133 0.000238169 4
-7.75617 8.49409 -2.65556 7.18025e-05 4
-9.20129 10.0767 -2.65244 8.28289e-05 4
-11.309 12.3849 -2.65633 2.99048e-05 4
-6.80278 7.39797 -2.69296 0.0002612 4
-7.78068 8.46143 -2.65383 0.000336703 4
-11.3431 12.3355 -2.65421 5.63255e-05 4
-6.83108 7.3769 -2.69395 0.00016516 4
-7.81272 8.43698 -2.6547 0.000237654 4
-9.27628 10.0175 -2.65384 9.40422e-05 4
-11.3886 12.2985 -2.65479 3.33741e-05 4
-20.4608 22.0957 -2.63465 4.14484e-05 4
-6.86188 7.35846 -2.69595 0.000207396 4
-7.83789 8.40511 -2.65326 0.000217832 4
-11.4232 12.2499 -2.65287 5.70072e-05 4
-20.3598 21.8332 -2.61181 4.01635e-05 4
-6.87306 7.31907 -2.69029 0.000115212 4
-7.86347 8.37375 -2.65201 3.46525e-05 4
-9.34541 9.95186 -2.65367 3.64871e-05 4
-20.2606 21.5754 -2.58941 4.10393e-05 4
-6.90191 7.29856 -2.69159 0.000257291 4
-7.88936 8.34276 -2.6509 0.000173249 4
-9.38405 9.92335 -2.65479 8.55962e-05 4
-11.5257 12.1881 -2.65685 3.1972e-05 4
-14.8621 15.7162 -2.6559 4.47276e-05 4
-20.1599 21.3185 -2.56702 3.49735e-05 4
-6.9394 7.28709 -2.69628 7.29582e-05 4
-7.93236 8.3298 -2.65556 0.000188084 4
-9.42501 9.89724 -2.65659 8.2782e-05 4
-11.566 12.1455 -2.65634 5.55969e-05 4
-6.94885 7.2462 -2.69011 0.000165105 4
-7.95938 8.29996 -2.65489 0.000121255 4
-9.45859 9.86333 -2.65634 4.77004e-05 4
-6.97997 7.22797 -2.69237 0.000764041 4
-7.97959 8.26311 -2.652 0.000108874 4
-7.00235 7.20068 -2.69129 0.000813899 4
-8.0231 8.25034 -2.65687 0.000455255 4
-9.52675 9.79658 -2.6562 0.000102396 4
-7.02549 7.17419 -2.69054 0.00076394 4
-8.03836 8.2085 -2.65242 6.92726e-05 4
-9.56511 9.76757 -2.65738 6.59201e-05 4
-11.7229 11.971 -2.65374 3.33422e-05 4
-33.8478 34.5643 -2.53535 6.64609e-05 10
-33.854 34.5705 -0.844582 6.68449e-05 10
-33.8605 34.5772 2.5363 5.1829e-05 10
-33.8646 34.5814 5.94293 5.03723e-05 10
-33.8631 34.5798 9.40783 4.78264e-05 10
-33.8503 34.5668 12.9636 4.43253e-05 10
-7.05254 7.15171 -2.69133 0.000679439 4
-8.06869 8.18215 -2.65299 6.18457e-05 4
-11.7697 11.9352 -2.65489 4.4451e-05 4
-34.0183 34.4967 -2.53908 6.60708e-05 10
-34.0272 34.5056 -0.845894 6.64525e-05 10
-34.0285 34.507 2.53985 5.15248e-05 10
-34.0212 34.4996 5.94924 5.0076e-05 10
-34.0162 34.4945 9.41687 4.7544e-05 10
-34.0218 34.5002 12.9831 4.4062e-05 10
-7.08315 7.13277 -2.69349 0.000886667 4
-8.10388 8.16065 -2.65517 0.000202838 4
-9.61507 9.68244 -2.65241 6.59076e-05 4
-11.8162 11.8989 -2.65598 3.88899e-05 4
-34.1192 34.3582 -0.845194 6.65402e-05 10
-34.1186 34.3576 2.5376 3.29359e-05 10
-34.1187 34.3577 5.94528 3.201e-05 10
-7.10146 7.10146 -2.69101 0.000855904 4
-8.13618 8.13618 -2.65644 0.000131093 4
-9.65333 9.65334 -2.65366 0.000112173 4
-15.3082 15.3082 -2.65817 5.41034e-05 4
-33.178 33.178 -2.45901 7.41555e-05 10
-33.1718 33.1718 -0.818852 7.45792e-05 10
-33.1752 33.1752 2.4588 5.78297e-05 10
-33.1599 33.1599 5.758 5.62219e-05 10
-33.1615 33.1615 7.42783 5.49591e-05 10
-33.1625 33.1625 9.11622 5.34111e-05 10
-33.1654 33.1655 10.8284 5.15979e-05 10
-33.1715 33.1715 12.5699 4.95431e-05 10
-7.1301 7.08049 -2.69248 0.000656278 4
-8.16432 8.10752 -2.65637 0.00010635 4
-9.69696 9.62949 -2.65639 0.000107956 4
-11.8989 11.8161 -2.65597 5.06838e-05 4
-15.3559 15.2491 -2.65719 4.82692e-05 4
-33.3388 33.1068 -2.46235 7.37108e-05 10
-33.3406 33.1086 -0.82016 7.41321e-05 10
-33.3319 33.1 2.46184 5.74829e-05 10
-33.3197 33.0879 5.76567 5.58841e-05 10
-33.3331 33.1012 7.44034 5.46283e-05 10
-33.3211 33.0892 9.128 5.30889e-05 10
-33.3307 33.0988 10.8446 5.12858e-05 10
-33.3373 33.1054 12.5889 4.92425e-05 10
-7.16285 7.06354 -2.69552 0.000103616 4
-8.19152 8.07794 -2.65603 9.89225e-05 4
-9.72645 9.59158 -2.65528 7.28985e-05 4
-7.18192 7.03305 -2.69344 0.000126633 4
-8.21911 8.04874 -2.65585 0.000207721 4
-9.76403 9.56164 -2.65641 0.000186434 4
-33.1479 32.4608 -2.43145 2.93725e-05 10
-33.1557 32.4684 -0.810017 2.95183e-05 10
-33.164 32.4766 0.810219 2.94986e-05 10
-7.2082 7.00967 -2.69411 0.00025325 4
-8.24425 8.01719 -2.65491 0.000133525 4
-9.79413 9.52437 -2.65554 7.42864e-05 4
-12.0222 11.6911 -2.65603 2.98442e-05 4
-32.9567 32.049 -2.40921 3.06267e-05 10
-32.9666 32.0587 -0.802659 3.07784e-05 10
-32.9742 32.066 0.802843 3.07581e-05 10
-7.23923 6.99085 -2.69657 0.00018417 4
-8.28056 7.99645 -2.6576 0.000135987 4
-9.83674 9.49923 -2.65809 0.000119127 4
-12.0686 11.6546 -2.65728 4.58019e-05 4
-32.781 31.6563 -2.38827 3.19165e-05 10
-32.79 31.665 -0.795664 3.20742e-05 10
-32.7835 31.6587 0.795504 3.20533e-05 10
-7.24865 6.9512 -2.69102 0.000341459 4
-8.29048 7.95028 -2.65186 0.000234868 4
-12.0969 11.6005 -2.65456 4.09392e-05 4
-16.0741 15.4145 -2.7345 4.21875e-05 1
-32.8278 31.4808 -2.38366 8.22372e-05 10
-32.8236 31.4767 -0.793806 8.27021e-05 10
-32.8257 31.4788 0.793858 8.27067e-05 10
-32.8254 31.4784 2.38349 6.41322e-05 10
-32.8259 31.4789 3.97901 6.34226e-05 10
-32.833 31.4858 5.5855 6.23681e-05 10
-32.835 31.4876 7.20538 6.09821e-05 10
-32.8298 31.4826 8.84152 5.92827e-05 10
-32.8164 31.4698 10.4969 5.72918e-05 10
-32.8349 31.4875 12.1898 5.50346e-05 10
-7.27857 6.93129 -2.69313 0.000237855 4
-8.32693 7.92963 -2.65465 0.00018788 4
-9.89638 9.4242 -2.65636 3.50309e-05 4
-12.1492 11.5695 -2.65716 5.2729e-05 4
-16.1263 15.3568 -2.73423 4.21806e-05 1
-32.9914 31.4173 -2.38757 8.1718e-05 10
-32.9858 31.4119 -0.795072 8.21802e-05 10
-32.9898 31.4158 0.795168 8.21847e-05 10
-30.675 29.2114 2.21993 3.27656e-05 10
-30.6705 29.2072 3.70537 3.23894e-05 10
-30.6749 29.2113 5.20098 3.18416e-05 10
-30.6987 29.234 6.71415 3.11289e-05 10
-32.9895 31.4155 8.85497 5.89062e-05 10
-32.9897 31.4156 10.5172 5.6927e-05 10
-32.9904 31.4163 12.2067 5.46832e-05 10
-7.30511 6.9081 -2.69401 0.000184134 4
-8.3609 7.90651 -2.65667 0.000150787 4
-9.92309 9.38381 -2.65472 7.56597e-05 4
-12.1882 11.5258 -2.65688 6.72909e-05 4
-16.1867 15.307 -2.73541 4.21738e-05 1
-33.1422 31.341 -2.39054 8.11965e-05 10
-33.1452 31.3438 -0.796273 8.16559e-05 10
-33.1301 31.3296 0.79591 8.16604e-05 10
-30.7477 29.0767 2.21783 8.25015e-05 10
-30.7333 29.063 3.70067 8.16106e-05 10
-30.7343 29.064 5.19383 8.02859e-05 10
-30.7307 29.0606 6.69892 7.85445e-05 10
-33.1282 31.3278 8.86277 5.85281e-05 10
-30.7349 29.0646 9.76598 7.39034e-05 10
-33.1273 31.327 12.2168 5.43301e-05 10
-7.33984 6.89257 -2.69793 0.000295361 4
-8.38641 7.87537 -2.65602 0.000135945 4
-9.95809 9.35127 -2.65534 3.08214e-05 4
-12.2178 11.4732 -2.65458 5.41038e-05 4
-16.2466 15.2566 -2.73651 4.2167e-05 1
-33.2984 31.2693 -2.39392 8.06728e-05 10
-33.2853 31.257 -0.797012 8.11295e-05 10
-33.2853 31.257 0.797012 8.11341e-05 10
-30.891 29.0086 2.22085 8.19827e-05 10
-30.8867 29.0046 3.70693 8.1097e-05 10
-30.8757 28.9942 5.20058 7.978e-05 10
-30.8853 29.0032 6.7105 7.80488e-05 10
-33.2835 31.2553 8.87508 5.81485e-05 10
-30.8878 29.0056 9.78232 7.3435e-05 10
-33.2931 31.2643 12.2376 5.39757e-05 10
-7.36126 6.86448 -2.69698 0.000172603 4
-8.40125 7.83429 -2.65204 7.41459e-05 4
-9.99091 9.31668 -2.6554 0.000110667 4
-12.2693 11.4413 -2.65707 4.16134e-05 4
-16.279 15.1804 -2.73303 4.21602e-05 1
-33.4453 31.1882 -2.39664 8.0147e-05 10
-33.4563 31.1985 -0.798496 8.0601e-05 10
-33.4462 31.1891 0.798253 8.06055e-05 10
-31.0167 28.9235 2.22261 5.21413e-05 10
-31.0016 28.9095 3.70859 5.15779e-05 10
-31.0155 28.9224 5.20709 5.07403e-05 10
-31.015 28.922 6.71672 4.96389e-05 10
-30.8887 28.8042 8.20966 3.14049e-05 10
-31.0003 28.9082 9.78592 4.67039e-05 10
-30.9007 28.8154 11.3212 2.91672e-05 10
-7.38779 6.84117 -2.69793 0.000161085 4
-8.42832 7.80471 -2.65197 5.43695e-05 4
-10.0195 9.27818 -2.65438 0.00011766 4
-12.3099 11.3991 -2.65725 3.12063e-05 4
-16.235 15.0338 -2.71682 0.000100255 4
-33.6142 31.1271 -2.40094 7.96193e-05 10
-33.61 31.1232 -0.799565 8.00705e-05 10
-33.6129 31.1259 0.799635 8.0075e-05 10
-30.0192 27.7981 2.14417 3.81739e-05 10
-30.7474 28.4724 8.14562 3.26206e-05 10
-30.0485 27.8253 10.9734 3.28003e-05 10
-7.4127 6.81633 -2.69832 0.000149569 4
-8.46294 7.78208 -2.6543 0.000118615 4
-10.0557 9.24667 -2.65539 6.44267e-05 4
-12.3572 11.363 -2.65887 3.25894e-05 4
-16.1501 14.8508 -2.69391 0.000109328 4
-33.7713 31.0543 -2.40441 7.90895e-05 10
-33.7556 31.0399 -0.800448 7.95378e-05 10
-33.7576 31.0417 0.800494 7.95424e-05 10
-30.0891 27.6683 2.14225 9.2478e-05 10
-30.0816 27.6615 3.57534 9.14905e-05 10
-30.0749 27.6552 5.01663 9.00224e-05 10
-30.0819 27.6617 6.47265 8.80916e-05 10
-30.568 28.1087 8.07205 3.38675e-05 10
-30.0833 27.6631 9.43529 8.2944e-05 10
-30.0785 27.6586 10.949 7.97907e-05 10
-7.42065 6.77598 -2.69259 0.000111211 4
-8.50031 7.76185 -2.65751 0.00012849 4
-10.0869 9.21063 -2.65514 7.98256e-05 4
-12.3954 11.3186 -2.65859 4.57585e-05 4
-16.0977 14.6992 -2.6766 0.000110643 4
-33.9347 30.9867 -2.40833 7.85578e-05 10
-33.9272 30.9798 -0.801946 7.90035e-05 10
-33.9293 30.9817 0.801996 7.90079e-05 10
-30.2251 27.5994 2.14506 9.18798e-05 10
-30.221 27.5956 3.58044 9.08984e-05 10
-30.2092 27.5848 5.02295 8.9439e-05 10
-30.2163 27.5913 6.48082 8.75199e-05 10
-30.43 27.7864 8.00996 3.51453e-05 10
-30.209 27.5846 9.44443 8.24033e-05 10
-30.2142 27.5893 10.9632 7.9269e-05 10
-7.45623 6.7609 -2.69692 0.0001994 4
-8.52555 7.7305 -2.65695 0.000130951 4
-10.1195 9.17585 -2.65528 4.48102e-05 4
-12.4225 11.264 -2.65593 7.27889e-05 4
-16.0117 14.5185 -2.65386 0.000124036 4
-34.0769 30.899 -2.41075 7.80243e-05 10
-34.0768 30.899 -0.802928 7.84672e-05 10
-34.0831 30.9047 0.803075 7.84716e-05 10
-30.2526 27.4314 2.14021 3.94297e-05 10
-30.2628 27.4406 3.57402 3.89838e-05 10
-30.263 27.4408 5.01593 3.83335e-05 10
-30.257 27.4354 6.46896 3.7487e-05 10
-30.2807 27.4568 7.94537 3.64547e-05 10
-30.2785 27.4549 9.43616 3.52494e-05 10
-30.2736 27.4504 10.95 3.38861e-05 10
-7.47829 6.73348 -2.69638 0.000203221 4
-8.55211 7.70035 -2.65683 0.000163058 4
-10.1569 9.1453 -2.65668 7.84105e-05 4
-12.4715 11.2294 -2.65802 5.6838e-05 4
-15.9431 14.3553 -2.63417 0.000131348 4
-34.2353 30.8256 -2.41433 7.7489e-05 10
-34.2429 30.8324 -0.804301 7.7929e-05 10
-34.252 30.8407 0.804515 7.79334e-05 10
-30.107 27.1085 2.1232 4.08714e-05 10
-30.0981 27.1005 3.54338 4.04106e-05 10
-30.1205 27.1207 4.9766 3.97384e-05 10
-30.1194 27.1196 6.41927 3.88633e-05 10
-30.1095 27.1107 7.87557 3.77961e-05 10
-30.1234 27.1232 9.35824 3.65499e-05 10
-30.1284 27.1277 10.8631 3.51401e-05 10
-7.50227 6.70781 -2.69657 0.000291392 4
-8.58049 7.67185 -2.65731 6.17598e-05 4
-10.1758 9.09825 -2.65331 7.84032e-05 4
-12.511 11.1862 -2.6581 6.58411e-05 4
-15.8807 14.199 -2.61565 0.000146815 4
-34.4058 30.7623 -2.41876 7.6952e-05 10
-34.3917 30.7497 -0.80527 7.73892e-05 10
-34.4022 30.7591 0.805516 7.73936e-05 10
-29.9523 26.7805 2.10568 4.23472e-05 10
-29.9668 26.7934 3.51689 4.18711e-05 10
-29.9721 26.7982 4.9366 4.11767e-05 10
-29.9727 26.7987 6.36802 4.02724e-05 10
-29.9641 26.791 7.81303 3.91695e-05 10
-29.9695 26.7959 9.28134 3.78815e-05 10
-29.975 26.8008 10.774 3.64243e-05 10
-7.51534 6.67243 -2.69288 0.000161022 4
-8.59124 7.62766 -2.65238 0.000227258 4
-10.2278 9.08064 -2.65858 6.57965e-05 4
-12.5525 11.1446 -2.65863 3.67281e-05 4
-15.825 14.0501 -2.59838 0.00012756 4
-34.5636 30.687 -2.42232 7.64132e-05 10
-34.5565 30.6807 -0.806617 7.68477e-05 10
-34.5504 30.6752 0.806472 7.6852e-05 10
-29.809 26.4656 2.0891 4.38578e-05 10
-29.817 26.4728 3.48844 4.33662e-05 10
-29.8138 26.4699 4.89527 4.26489e-05 10
-29.831 26.4852 6.31824 4.17149e-05 10
-29.828 26.4826 7.75341 4.05755e-05 10
-29.8355 26.4892 9.21112 3.92449e-05 10
-29.8405 26.4937 10.6924 3.77392e-05 10
-7.54394 6.65088 -2.69479 0.000115008 4
-10.2443 9.03161 -2.65467 4.61932e-05 4
-12.5884 11.0982 -2.65803 0.000127494 4
-15.7655 13.8991 -2.58063 0.000132066 4
-34.7299 30.6186 -2.42647 7.5873e-05 10
-34.7105 30.6015 -0.807714 7.63046e-05 10
-34.7178 30.6079 0.807882 7.6309e-05 10
-29.7013 26.1852 2.07513 0.000102022 10
-29.6945 26.1792 3.4634 0.000100944 10
-29.6868 26.1725 4.85939 9.93401e-05 10
-29.695 26.1796 6.27003 9.72308e-05 10
-29.6958 26.1804 7.69524 9.46417e-05 10
-29.6927 26.1776 9.13877 9.16049e-05 10
-29.7066 26.1899 10.6116 8.81571e-05 10
-7.57796 6.63401 -2.69866 0.000157168 4
-8.65013 7.57262 -2.65417 8.64437e-05 4
-10.2764 8.99629 -2.65482 6.43846e-05 4
-15.6829 13.7293 -2.55924 0.000159111 4
-34.8901 30.5439 -2.43019 7.53312e-05 10
-34.888 30.5421 -0.809357 7.57599e-05 10
-34.8792 30.5344 0.809153 7.57643e-05 10
-29.8331 26.1169 2.07796 0.000101331 10
-29.8382 26.1214 3.4695 0.000100259 10
-29.8248 26.1097 4.86703 9.86652e-05 10
-29.8279 26.1123 6.27881 9.65691e-05 10
-29.8329 26.1167 7.70708 9.39965e-05 10
-29.8435 26.126 9.15707 9.09788e-05 10
-29.8386 26.1217 10.6261 8.75529e-05 10
-7.5815 6.5905 -2.69171 0.000421642 4
-8.68493 7.5497 -2.65675 0.000185222 4
-10.3126 8.9646 -2.65608 3.35888e-05 4
-12.665 11.0095 -2.6579 2.9095e-05 4
-15.6479 13.6025 -2.54577 4.1422e-05 4
-35.0377 30.4578 -2.43305 7.47879e-05 10
-35.0543 30.4723 -0.810743 7.52139e-05 10
-35.0422 30.4617 0.810462 7.52182e-05 10
-29.963 26.0464 2.08066 0.000100637 10
-29.9761 26.0578 3.47494 9.95718e-05 10
-29.9756 26.0574 4.87677 9.79883e-05 10
-29.9798 26.0611 6.29162 9.59056e-05 10
-29.9733 26.0554 7.71981 9.33494e-05 10
-29.9769 26.0586 9.17005 9.0351e-05 10
-29.962 26.0456 10.6376 8.69471e-05 10
-7.62067 6.57799 -2.69745 0.000371787 4
-8.70686 7.51557 -2.65542 7.90221e-05 4
-10.3509 8.93464 -2.65789 0.000134343 4
-15.6916 13.5446 -2.54517 4.17269e-05 4
-35.2063 30.3893 -2.43738 7.42433e-05 10
-35.2027 30.3862 -0.811717 7.46663e-05 10
-35.2056 30.3887 0.811784 7.46707e-05 10
-30.1019 25.9833 2.084 9.99407e-05 10
-30.1067 25.9875 3.47954 9.88827e-05 10
-30.1052 25.9861 4.88306 9.73093e-05 10
-30.1162 25.9956 6.30114 9.52401e-05 10
-30.1128 25.9927 7.73233 9.27003e-05 10
-30.1 25.9817 9.1799 8.97214e-05 10
-30.1165 25.9959 10.6602 8.63395e-05 10
-7.64624 6.55362 -2.69838 0.000199296 4
-8.72493 7.47817 -2.65295 0.000158032 4
-10.3694 8.88766 -2.65466 6.29674e-05 4
-15.7356 13.4871 -2.54466 3.76728e-05 4
-35.3621 30.309 -2.44083 7.36972e-05 10
-35.3578 30.3053 -0.812849 7.41174e-05 10
-35.3631 30.3099 0.812971 7.41217e-05 10
-30.2548 25.9315 2.0883 9.92428e-05 10
-30.2571 25.9335 3.48644 9.81917e-05 10
-30.2479 25.9256 4.8915 9.66285e-05 10
-30.2495 25.927 6.31006 9.45727e-05 10
-30.2434 25.9217 7.74258 9.20495e-05 10
-30.2408 25.9195 9.1952 8.90899e-05 10
-30.2534 25.9303 10.6765 8.57302e-05 10
-7.67033 6.52796 -2.69882 0.000218444 4
-8.75251 7.44898 -2.65342 0.000135798 4
-10.4047 8.8551 -2.65577 4.89701e-05 4
-35.5344 30.2422 -2.44542 7.315e-05 10
-35.5402 30.2471 -0.814609 7.35673e-05 10
-35.534 30.2418 0.814467 7.35715e-05 10
-30.392 25.8656 2.09153 9.8543e-05 10
-30.3973 25.8702 3.49217 9.74988e-05 10
-30.3857 25.8602 4.89915 9.59459e-05 10
-30.3802 25.8556 6.31846 9.39036e-05 10
-30.398 25.8708 7.75901 9.1397e-05 10
-30.3845 25.8592 9.21138 8.84569e-05 10
-30.3994 25.8719 10.6961 8.51193e-05 10
-7.6805 6.49053 -2.69442 0.000210766 4
-8.80315 7.43924 -2.66088 0.000241936 4
-10.4349 8.8182 -2.65561 5.59606e-05 4
-35.696 30.1654 -0.815762 7.30159e-05 10
-35.6862 30.1571 0.815537 7.30201e-05 10
-30.5392 25.8077 2.09545 9.78415e-05 10
-30.5408 25.809 3.49828 9.68042e-05 10
-30.5211 25.7923 4.90644 9.52615e-05 10
-30.5343 25.8034 6.33173 9.32327e-05 10
-30.5309 25.8006 7.76988 9.07428e-05 10
-30.5364 25.8052 9.23005 8.78223e-05 10
-30.5361 25.805 10.7124 8.4507e-05 10
-7.71032 6.46973 -2.69694 0.000137947 4
-8.823 7.40338 -2.65905 0.00023096 4
-10.4753 8.78979 -2.65805 5.03599e-05 4
-12.8552 10.7868 -2.65789 3.39242e-05 4
-16.5844 13.9159 -2.65821 3.50961e-05 4
-35.8108 30.0489 -0.815984 3.44514e-05 10
-35.8118 30.0497 0.816006 3.44321e-05 10
-30.6791 25.7428 2.09886 9.71383e-05 10
-30.6805 25.744 3.50397 9.61079e-05 10
-30.6589 25.7259 4.91412 9.45756e-05 10
-30.6778 25.7418 6.34283 9.25604e-05 10
-30.6758 25.7401 7.78385 9.00872e-05 10
-30.671 25.7361 9.24355 8.71862e-05 10
-30.6748 25.7393 10.7295 8.38932e-05 10
-7.72453 6.43583 -2.69403 0.000176254 4
-8.88255 7.40066 -2.66919 0.000229657 4
-10.4936 8.7429 -2.65493 5.7349e-05 4
-16.6464 13.8692 -2.66037 3.48143e-05 4
-31.1459 25.9498 -2.12459 5.68756e-05 10
-31.1624 25.9635 -0.707995 5.71517e-05 10
-31.1601 25.9616 0.707944 5.71214e-05 10
-30.8011 25.6625 2.10107 9.64334e-05 10
-30.8172 25.676 3.50933 9.54099e-05 10
-30.819 25.6774 4.92539 9.3888e-05 10
-30.8206 25.6787 6.35377 9.18864e-05 10
-30.8177 25.6764 7.79707 8.94298e-05 10
-30.8095 25.6695 9.25822 8.65486e-05 10
-30.807 25.6674 10.7443 8.3278e-05 10
-7.74041 6.40343 -2.69176 8.04586e-05 4
-8.91911 7.37853 -2.67243 0.000970485 4
-10.5321 8.71294 -2.65698 0.000118883 4
-16.6218 13.7507 -2.64875 0.000119536 4
-31.0152 25.658 -2.10955 5.87275e-05 10
-31.0114 25.6549 -0.702526 5.90121e-05 10
-31.0164 25.659 0.702638 5.89812e-05 10
-30.9585 25.6111 2.1057 9.5727e-05 10
-30.9438 25.599 3.51355 9.47106e-05 10
-30.9442 25.5993 4.9311 9.31989e-05 10
-30.9591 25.6116 6.36387 9.12111e-05 10
-30.9425 25.5979 7.80598 8.87712e-05 10
-30.9556 25.6087 9.2752 8.59097e-05 10
-30.9408 25.5965 10.7598 8.26615e-05 10
-7.78279 6.39285 -2.69872 0.000854339 4
-8.95656 7.357 -2.67594 0.000756791 4
-10.5713 8.68333 -2.65919 4.75489e-05 4
-12.9647 10.6493 -2.65732 3.66806e-05 4
-16.5645 13.6062 -2.63204 0.000122288 4
-31.101 25.5467 -2.10931 0.000121844 10
-31.0986 25.5447 -0.702477 0.000122505 10
-31.0925 25.5396 0.702338 0.000122512 10
-31.0863 25.5346 2.10832 9.50191e-05 10
-31.0995 25.5454 3.52107 9.40096e-05 10
-31.1044 25.5495 4.94238 9.25084e-05 10
-31.088 25.5359 6.37199 9.05342e-05 10
-31.0983 25.5444 7.82274 8.81112e-05 10
-31.1028 25.5482 9.29254 8.52695e-05 10
-31.0825 25.5315 10.778 8.20437e-05 10
-7.78909 6.35263 -2.6932 0.000777666 4
-8.99969 7.33997 -2.68115 0.000771214 4
-10.5886 8.63581 -2.65594 5.59347e-05 4
-16.523 13.4759 -2.61796 0.00013533 4
-31.2267 25.4679 -2.11179 0.000120934 10
-31.2357 25.4753 -0.703563 0.000121591 10
-31.2367 25.476 0.703583 0.000121598 10
-31.113 25.3752 2.1041 3.38697e-05 10
-31.2474 25.4848 3.52773 9.33074e-05 10
-31.1291 25.3882 4.93218 3.29373e-05 10
-31.2355 25.4751 6.38397 8.98561e-05 10
-31.0991 25.3638 7.80063 4.08136e-05 10
-31.1359 25.3938 9.27586 3.03071e-05 10
-31.2256 25.467 10.7967 8.14249e-05 10
-7.81019 6.32458 -2.69285 0.000769954 4
-9.04676 7.32593 -2.68754 0.000972403 4
-10.6319 8.60958 -2.65927 0.000102071 4
-16.4675 13.3352 -2.60178 0.000147826 4
-32.8821 26.6275 -2.21745 0.000102146 10
-36.6825 29.7049 -0.823906 6.96855e-05 10
-36.6922 29.7128 0.824124 6.96896e-05 10
-30.9743 25.0825 2.08879 3.49401e-05 10
-32.6341 26.4266 3.67384 8.09972e-05 10
-31.0017 25.1047 4.89809 3.39806e-05 10
-32.617 26.4127 6.64743 7.79622e-05 10
-30.9716 25.0803 7.74664 4.2111e-05 10
-31.0048 25.1072 9.21066 3.12734e-05 10
-32.6306 26.4237 11.2506 7.05536e-05 10
-7.84985 6.31144 -2.69891 0.000750753 4
-9.07201 7.29409 -2.68746 0.000195192 4
-13.0734 10.5113 -2.65689 0.00013145 4
-16.4205 13.2024 -2.58705 0.000116837 4
-33.0357 26.5614 -2.22154 0.000101358 10
-36.8448 29.624 -0.825224 6.91273e-05 10
-36.8528 29.6304 0.825402 6.91313e-05 10
-30.8435 24.7988 2.07412 3.60322e-05 10
-32.7836 26.3587 3.68029 8.03729e-05 10
-30.8599 24.812 4.86198 3.50451e-05 10
-32.7838 26.3589 6.66264 7.73597e-05 10
-30.8227 24.7821 7.6877 4.34348e-05 10
-30.8751 24.8242 9.14632 3.22594e-05 10
-32.78 26.3558 11.2703 7.00043e-05 10
-7.85797 6.27294 -2.69416 0.000651121 4
-9.11387 7.27551 -2.69232 0.000434256 4
-10.6789 8.52485 -2.65606 7.68889e-05 4
-13.1222 10.4753 -2.65937 0.000124517 4
-16.3501 13.0521 -2.56877 0.000154495 4
-33.1948 26.499 -2.226 0.000100568 10
-37.0201 29.5528 -0.826835 6.85685e-05 10
-37.0188 29.5518 0.826806 6.85725e-05 10
-30.7229 24.5258 2.06024 3.71458e-05 10
-32.9315 26.2889 3.68658 9.64189e-05 10
-30.7348 24.5353 4.82873 3.61307e-05 10
-32.9347 26.2914 6.67461 9.2802e-05 10
-30.7017 24.5088 7.63614 4.47849e-05 10
-30.7435 24.5422 9.08191 3.32651e-05 10
-32.9138 26.2747 11.2847 6.94543e-05 10
-7.88603 6.25039 -2.69628 0.000762146 4
-9.15879 7.25917 -2.69809 0.000530667 4
-10.7217 8.49789 -2.65931 4.33334e-05 4
-13.1425 10.4166 -2.65609 0.000138337 4
-16.313 12.9295 -2.55583 0.000164614 4
-33.3486 26.4318 -2.23012 9.97767e-05 10
-37.1919 29.4779 -0.828368 6.80089e-05 10
-37.1927 29.4786 0.828385 6.80129e-05 10
-30.5955 24.2497 2.04601 3.82815e-05 10
-33.1238 26.2536 3.69782 9.50692e-05 10
-30.5613 24.2226 4.78816 4.84976e-05 10
-30.5792 24.2368 7.5846 4.61618e-05 10
-30.62 24.2691 9.02035 3.4291e-05 10
-33.0645 26.2066 11.305 6.89034e-05 10
-7.9093 6.22401 -2.69679 0.000712311 4
-9.17523 7.22019 -2.69549 0.000442586 4
-10.7441 8.45477 -2.65753 0.000103431 4
-13.2021 10.389 -2.6608 6.4319e-05 4
-16.3056 12.8312 -2.54763 2.9833e-05 4
-33.4894 26.3536 -2.23336 9.89847e-05 10
-37.3504 29.3919 -0.829609 6.74489e-05 10
-37.3702 29.4074 0.830047 6.74528e-05 10
-30.4853 23.9896 2.03303 3.94389e-05 10
-30.4455 23.9583 4.75689 4.99666e-05 10
-30.4544 23.9653 7.53285 4.75655e-05 10
-30.4881 23.9918 8.95677 3.53367e-05 10
-33.2254 26.1458 11.3287 6.8352e-05 10
-7.93544 6.19984 -2.6983 0.000777365 4
-9.20293 7.19012 -2.69624 0.000425897 4
-10.7678 8.41269 -2.65611 3.63374e-05 4
-13.232 10.3379 -2.65953 4.45051e-05 4
-16.3536 12.7769 -2.54816 3.29355e-05 4
-33.6422 26.2842 -2.23742 9.81916e-05 10
-37.5307 29.3222 -0.831336 6.68882e-05 10
-37.5279 29.32 0.831272 6.68921e-05 10
-30.3421 23.7059 2.01795 4.06186e-05 10
-33.3871 26.0849 3.7068 9.4145e-05 10
-30.3147 23.6845 4.72352 5.1464e-05 10
-30.3208 23.6892 7.47929 4.89963e-05 10
-30.3772 23.7332 8.89978 3.64027e-05 10
-33.3823 26.0811 11.3511 6.77998e-05 10
-7.94561 6.16325 -2.69443 0.000735195 4
-9.22723 7.15737 -2.69602 0.00049248 4
-10.8072 8.38294 -2.65861 6.84758e-05 4
-13.382 10.3802 -2.68239 3.81141e-05 4
-33.8035 26.2207 -2.24205 9.73978e-05 10
-37.6968 29.2406 -0.832748 6.63271e-05 10
-37.7033 29.2457 0.832892 6.63311e-05 10
-30.2419 23.4581 2.00583 4.18203e-05 10
-33.5394 26.0158 3.71359 9.33854e-05 10
-30.1876 23.4159 4.69095 5.29893e-05 10
-30.2083 23.432 7.43133 5.0454e-05 10
-30.2463 23.4614 8.83739 3.7489e-05 10
-33.5199 26.0007 11.3669 6.72472e-05 10
-7.97294 6.13999 -2.69642 0.000585821 4
-9.2495 7.12308 -2.69525 0.000437727 4
-13.5323 10.4213 -2.70521 3.52533e-05 4
-16.4317 12.6541 -2.54649 4.22437e-05 4
-33.9454 26.1414 -2.24539 9.66031e-05 10
-34.0403 26.2146 -0.749948 5.05089e-05 10
-34.063 26.232 0.750447 5.04837e-05 10
-30.1145 23.1913 1.99199 4.30446e-05 10
-33.6701 25.9295 3.71803 9.26249e-05 10
-30.0749 23.1608 4.66084 5.45434e-05 10
-30.0886 23.1713 7.38193 5.19392e-05 10
-30.1388 23.21 8.78224 3.85958e-05 10
-33.6839 25.9401 11.3918 6.6694e-05 10
-7.99767 6.11468 -2.69754 0.000888246 4
-9.2854 7.09922 -2.69847 0.000473376 4
-10.8614 8.30416 -2.6576 5.44912e-05 4
-13.6799 10.4591 -2.72739 3.61959e-05 4
-16.4873 12.6055 -2.54827 4.8759e-05 4
-33.9097 25.9259 -2.23703 5.17723e-05 10
-33.9371 25.9469 -0.745674 9.79494e-05 10
-33.952 25.9583 0.746002 9.7955e-05 10
-30.128 23.0346 1.98755 8.23345e-05 10
-33.8377 25.8709 3.72654 9.18638e-05 10
-30.1002 23.0133 4.65228 0.000104235 10
-33.8858 25.9077 6.75591 4.65554e-05 10
-30.1092 23.0202 7.36723 9.93703e-05 10
-30.1244 23.0318 8.75458 7.4034e-05 10
-33.8372 25.8705 11.413 6.61404e-05 10
-8.00517 6.07626 -2.6929 0.000780994 4
-9.31424 7.0699 -2.69966 0.00047334 4
-10.888 8.26446 -2.65705 9.91927e-05 4
-13.7512 10.4377 -2.73432 0.00010571 1
-16.5228 12.5415 -2.54698 3.44676e-05 4
-33.7803 25.6407 -2.22258 5.3315e-05 10
-33.8729 25.711 -0.742288 6.56012e-05 10
-33.8859 25.7208 0.742572 6.5605e-05 10
-30.2646 22.9721 1.99126 8.16769e-05 10
-33.8041 25.6588 3.71295 4.96167e-05 10
-30.2388 22.9525 4.66129 0.000103401 10
-33.9111 25.74 6.743 4.71394e-05 10
-30.2529 22.9632 7.38274 9.85727e-05 10
-30.263 22.9709 8.7715 7.34383e-05 10
-33.8201 25.6709 11.3769 3.56269e-05 10
-8.03071 6.05157 -2.69437 0.000780944 4
-9.33611 7.03526 -2.69887 0.000366275 4
-10.9161 8.22587 -2.65688 5.72751e-05 4
-13.7946 10.395 -2.73573 0.000105698 1
-16.5634 12.4814 -2.54651 3.35308e-05 4
-33.645 25.3533 -2.20784 5.4887e-05 10
-33.7989 25.4693 -0.738712 6.67055e-05 10
-33.7747 25.4511 0.738184 6.67094e-05 10
-30.411 22.9163 1.99562 8.10187e-05 10
-33.7895 25.4622 3.70156 5.04876e-05 10
-30.3925 22.9024 4.67264 0.000102566 10
-30.3801 22.893 7.39422 9.77744e-05 10
-30.413 22.9179 8.79174 7.28421e-05 10
-33.6908 25.3879 11.3036 3.66906e-05 10
-8.05471 6.02569 -2.69535 0.000746443 4
-9.35477 6.99827 -2.69718 0.000458999 4
-10.9538 8.19448 -2.65907 3.77143e-05 4
-13.8314 10.3472 -2.73584 0.000105686 1
-16.6103 12.4261 -2.54703 4.12862e-05 4
-33.5315 25.0848 -2.19464 5.64881e-05 10
-33.5301 25.0837 -0.730919 3.74967e-05 10
-33.6931 25.2057 0.734473 6.78372e-05 10
-30.5488 22.8534 1.99942 8.03601e-05 10
-33.6467 25.171 3.67627 5.1964e-05 10
-30.5326 22.8413 4.68189 0.000101731 10
-30.5128 22.8265 7.40708 9.69755e-05 10
-30.5463 22.8516 8.80716 7.22455e-05 10
-33.5462 25.0958 11.2256 3.77744e-05 10
-8.09005 6.0082 -2.70014 0.000784672 4
-9.3729 6.96093 -2.69539 0.000394757 4
-10.982 8.15592 -2.65898 8.93886e-05 4
-13.8782 10.3069 -2.73798 0.000105673 1
-16.6537 12.3681 -2.54705 3.41412e-05 4
-33.4058 24.8093 -2.18073 5.81187e-05 10
-33.3944 24.8008 -0.726069 3.85788e-05 10
-33.3942 24.8007 0.726065 3.85604e-05 10
-30.692 22.7939 2.00357 7.97009e-05 10
-33.4024 24.8068 3.64009 4.47406e-05 10
-30.6609 22.7708 4.68934 0.000100895 10
-33.4236 24.8225 6.594 4.3022e-05 10
-30.6595 22.7697 7.42336 9.6176e-05 10
-30.682 22.7865 8.8233 7.16484e-05 10
-33.4329 24.8295 11.1586 3.88785e-05 10
-8.10007 5.97189 -2.69652 0.000260265 4
-9.40769 6.93595 -2.69842 0.000430395 4
-13.9003 10.2482 -2.73527 0.000105661 1
-16.6968 12.3099 -2.54705 3.56875e-05 4
-33.2685 24.5277 -2.16616 5.97786e-05 10
-33.2797 24.5359 -0.721709 3.96804e-05 10
-33.2757 24.533 0.721623 3.96615e-05 10
-30.8149 22.7187 2.0064 7.90413e-05 10
-33.2768 24.5338 3.61705 4.60203e-05 10
-30.7938 22.7031 4.69751 0.000100059 10
-33.2849 24.5397 6.54969 4.42563e-05 10
-30.7992 22.7071 7.43794 9.53762e-05 10
-30.8279 22.7283 8.8424 7.1051e-05 10
-33.3118 24.5596 11.0895 4.00028e-05 10
-8.11068 5.93612 -2.69313 0.000156914 4
-9.43166 6.90293 -2.69836 0.000416097 4
-11.0239 8.0683 -2.65544 0.000100544 4
-13.9375 10.2007 -2.73554 0.000105649 1
-16.7531 12.2614 -2.5491 3.63026e-05 4
-33.1509 24.2628 -2.15297 6.14685e-05 10
-33.1458 24.259 -0.716965 7.32211e-05 10
-33.1544 24.2654 0.717151 7.32253e-05 10
-30.9693 22.6661 2.01129 7.83813e-05 10
-33.1679 24.2752 3.59598 4.7323e-05 10
-30.936 22.6417 4.70712 9.92222e-05 10
-33.1623 24.2712 6.50887 4.5513e-05 10
-30.9458 22.6489 7.45421 9.45759e-05 10
-30.9645 22.6626 8.85883 7.04533e-05 10
-33.1745 24.2801 11.0155 4.11477e-05 10
-8.13232 5.90848 -2.69345 0.000267885 4
-9.44483 6.86207 -2.69526 0.000216354 4
-11.0674 8.04095 -2.65914 5.86452e-05 4
-13.9834 10.1596 -2.73759 0.000105636 1
-16.7858 12.1956 -2.54758 3.97095e-05 4
-33.0183 23.9892 -2.13891 6.31879e-05 10
-33.0479 24.0107 -0.713029 7.44911e-05 10
-33.0531 24.0145 0.713141 7.44954e-05 10
-31.098 22.594 2.01452 7.77213e-05 10
-33.0299 23.9976 3.57191 4.86486e-05 10
-31.0763 22.5783 4.71645 9.83852e-05 10
-33.0562 24.0168 6.47155 4.67918e-05 10
-31.0683 22.5724 7.46468 9.37753e-05 10
-31.0909 22.5889 8.87238 6.98555e-05 10
-33.0562 24.0167 10.9483 4.23129e-05 10
-8.16635 5.88975 -2.6979 0.000160721 4
-9.46922 6.82941 -2.6954 0.0001783 4
-11.085 7.99474 -2.65664 2.93199e-05 4
-13.9462 10.0583 -2.7234 0.000259933 4
-16.8366 12.143 -2.54885 4.90088e-05 4
-32.9055 23.7322 -2.12622 6.49376e-05 10
-32.9538 23.7671 -0.709206 7.57892e-05 10
-32.9442 23.7601 0.708998 7.57936e-05 10
-31.232 22.5252 2.01809 7.70609e-05 10
-32.9262 23.7471 3.55172 4.99975e-05 10
-31.2212 22.5174 4.72648 9.75478e-05 10
-32.9209 23.7433 6.42879 4.80933e-05 10
-31.2047 22.5055 7.47854 9.29746e-05 10
-31.2384 22.5298 8.89196 6.92575e-05 10
-32.9435 23.7596 10.8835 4.3499e-05 10
-8.1804 5.85659 -2.69577 0.000329074 4
-9.50091 6.80199 -2.69765 0.000190173 4
-11.1116 7.95511 -2.65634 4.46739e-05 4
-13.8868 9.94194 -2.70501 0.00034125 4
-16.8866 12.0896 -2.55001 4.09378e-05 4
-32.7909 23.476 -2.11351 6.67172e-05 10
-32.8385 23.5101 -0.704955 7.71164e-05 10
-32.8514 23.5193 0.705231 7.71208e-05 10
-31.3834 22.4683 2.02279 7.64004e-05 10
-32.7944 23.4785 3.52863 5.13695e-05 10
-31.3678 22.4572 4.73679 9.67105e-05 10
-32.7932 23.4776 6.3878 4.9417e-05 10
-31.3501 22.4445 7.49458 9.21737e-05 10
-31.3688 22.4578 8.90671 6.86594e-05 10
-32.8086 23.4886 10.8117 4.47057e-05 10
-8.19519 5.82402 -2.69393 6.88717e-05 4
-9.53458 6.77588 -2.70047 0.00010221 4
-11.1368 7.91449 -2.65574 3.62943e-05 4
-13.8545 9.84589 -2.69202 0.000319252 4
-32.6718 23.2186 -2.1006 6.8527e-05 10
-32.7354 23.2638 -0.700992 7.84734e-05 10
-32.7459 23.2713 0.701218 7.84779e-05 10
-31.5167 22.3978 2.02633 7.574e-05 10
-32.6879 23.2301 3.50843 3.3684e-05 10
-31.4949 22.3823 4.74415 9.58731e-05 10
-32.6935 23.2341 6.35255 5.07634e-05 10
-31.4929 22.3808 7.50998 9.13729e-05 10
-31.5173 22.3982 8.92664 6.80614e-05 10
-32.7026 23.2405 10.75 4.59331e-05 10
-8.21488 5.79496 -2.69373 8.03452e-05 4
-9.54026 6.72991 -2.69541 9.50721e-05 4
-11.1677 7.87792 -2.65654 0.000121435 4
-13.818 9.74754 -2.6783 0.00029845 4
-32.5481 22.9602 -2.08748 7.03674e-05 10
-32.6439 23.0277 -0.697307 7.98612e-05 10
-32.6261 23.0152 0.696928 7.98657e-05 10
-31.6507 22.3271 2.02993 7.50794e-05 10
-31.6507 22.3271 4.75585 9.50356e-05 10
-31.6303 22.3127 7.52414 9.0572e-05 10
-31.6579 22.3322 8.94431 6.74633e-05 10
-8.2376 5.76803 -2.69457 0.000126249 4
-9.57417 6.70391 -2.69837 3.32728e-05 4
-11.2111 7.85013 -2.66034 4.60575e-05 4
-13.7673 9.63996 -2.66193 0.00023746 4
-17.0049 11.9069 -2.5489 3.6269e-05 4
-32.4358 22.7118 -2.07518 7.2238e-05 10
-32.5313 22.7787 -0.6932 8.12808e-05 10
-32.5252 22.7744 0.693069 8.12855e-05 10
-31.8086 22.2726 2.03505 7.44191e-05 10
-31.8626 22.3104 3.40305 5.91347e-05 10
-31.7779 22.2511 4.76326 9.41983e-05 10
-31.8755 22.3195 6.16318 5.69132e-05 10
-31.7685 22.2445 7.53849 8.97713e-05 10
-31.8006 22.267 8.96262 6.68655e-05 10
-31.8723 22.3173 10.4256 5.15479e-05 10
-8.26276 5.74276 -2.69622 0.000107113 4
-9.58878 6.66438 -2.69591 4.75289e-05 4
-11.2388 7.8112 -2.66043 8.51288e-05 4
-13.7309 9.54324 -2.64844 0.000336105 4
-17.0383 11.8419 -2.5477 4.27723e-05 4
-32.329 22.4693 -2.06332 7.41395e-05 10
-32.4158 22.5296 -0.689059 8.27331e-05 10
-32.4003 22.5188 0.688728 8.27379e-05 10
-31.9234 22.1873 2.03743 0.000102214 10
-31.9234 22.1873 3.40125 0.00010114 10
-31.9321 22.1934 4.77474 9.95422e-05 10
-31.9187 22.1841 6.15653 9.74408e-05 10
-31.9215 22.186 7.55638 9.48611e-05 10
-31.9169 22.1828 8.97352 9.18348e-05 10
-31.914 22.1808 10.4139 8.83982e-05 10
-8.27289 5.70709 -2.69301 6.5029e-05 4
-9.61779 6.63487 -2.69754 0.000125942 4
-11.263 7.76984 -2.65972 3.06994e-05 4
-13.6861 9.44138 -2.63341 0.000287499 4
-17.0809 11.7833 -2.54791 4.12162e-05 4
-32.2124 22.2218 -2.05091 7.60713e-05 10
-32.2227 22.229 -0.683301 7.64427e-05 10
-32.2048 22.2166 0.682921 7.6409e-05 10
-32.065 22.1202 2.04153 0.000101299 10
-32.0665 22.1212 3.40825 0.000100234 10
-32.0591 22.1161 4.78215 9.865e-05 10
-32.0548 22.1131 6.16785 9.65661e-05 10
-32.0747 22.1268 7.5743 9.40081e-05 10
-32.0674 22.1218 8.99405 9.1007e-05 10
-32.0552 22.1134 10.4347 8.75993e-05 10
-8.31461 5.69313 -2.70011 0.000172125 4
-9.63046 6.59411 -2.69462 6.41545e-05 4
-13.6572 9.35131 -2.62157 9.52286e-05 4
-17.1448 11.7393 -2.55131 3.62523e-05 4
-32.2108 22.0552 -2.0459 0.000128724 10
-32.2187 22.0606 -0.681578 0.000129417 10
-32.2073 22.0528 0.681337 0.000129424 10
-32.2088 22.0538 2.04577 0.000100385 10
-32.2127 22.0565 3.41559 9.93291e-05 10
-32.2219 22.0628 4.79492 9.77581e-05 10
-32.2078 22.0531 6.18243 9.56917e-05 10
-32.2149 22.058 7.58918 9.31552e-05 10
-32.2164 22.059 9.01421 9.01794e-05 10
-32.2106 22.055 10.4601 8.68005e-05 10
-8.3132 5.64965 -2.69323 0.000237135 4
-9.66308 6.56703 -2.69732 4.98942e-05 4
-11.3172 7.69115 -2.65976 6.13878e-05 4
-13.6154 9.25304 -2.60733 0.000306046 4
-17.1784 11.6744 -2.55022 4.73996e-05 4
-32.3655 21.9956 -2.05084 0.000127553 10
-32.3478 21.9835 -0.682682 0.000128239 10
-32.3665 21.9963 0.683077 0.000128247 10
-32.3616 21.9929 2.05058 9.94717e-05 10
-32.3543 21.988 3.42244 9.84245e-05 10
-32.3436 21.9807 4.80159 9.68668e-05 10
-32.3552 21.9886 6.19596 9.4818e-05 10
-32.3625 21.9936 7.60583 9.2303e-05 10
-32.3555 21.9888 9.0316 8.93525e-05 10
-32.3445 21.9813 10.4786 8.60024e-05 10
-8.33721 5.62352 -2.69463 0.000130033 4
-9.69817 6.5415 -2.70072 0.000118787 4
-11.3412 7.64974 -2.65912 5.4407e-05 4
-13.574 9.15578 -2.59326 0.000352379 4
-17.2253 11.6186 -2.55115 4.21266e-05 4
-26.4348 17.8305 -1.67108 0.000150049 10
-26.4179 17.8191 -0.55622 0.00015074 10
-26.4348 17.8305 0.556575 0.000150679 10
-26.4429 17.836 1.67159 0.000116852 10
-26.4484 17.8397 2.79111 0.000115638 10
-26.4418 17.8353 3.91617 0.000113859 10
-26.4341 17.83 5.05013 0.000111536 10
-26.4457 17.8379 6.2006 0.000108695 10
-26.4438 17.8366 7.364 0.000105369 10
-26.4562 17.8449 8.55078 0.000101595 10
-8.36234 5.5981 -2.69642 0.000133849 4
-9.70661 6.49801 -2.69674 0.000249434 4
-11.3759 7.6155 -2.661 0.000207844 4
-13.5394 9.06382 -2.58059 0.0003693 4
-17.254 11.5505 -2.54941 3.90231e-05 4
-26.3378 17.6316 -1.66105 0.000153609 10
-26.3364 17.6307 -0.553204 0.000154316 10
-26.3511 17.6405 0.553511 0.000154253 10
-26.3492 17.6392 1.66177 0.000119625 10
-26.3543 17.6427 2.77466 0.000118385 10
-26.3437 17.6356 3.89249 0.000116567 10
-26.3596 17.6462 5.02411 0.000114193 10
-26.3633 17.6487 6.16679 0.000111289 10
-26.3538 17.6423 7.32175 0.000107889 10
-26.3489 17.6391 8.49616 0.000104031 10
-8.38651 5.57199 -2.69793 0.000351811 4
-9.72737 6.46285 -2.69622 0.000144899 4
-11.4055 7.57782 -2.66173 0.000165981 4
-13.5045 8.9724 -2.56796 0.000362997 4
-17.2978 11.4927 -2.54995 4.11848e-05 4
-26.243 17.4358 -1.65122 0.000157218 10
-26.2449 17.4371 -0.55 0.000157941 10
-26.2615 17.4481 0.550347 0.000157878 10
-26.2455 17.4375 1.65138 0.000122437 10
-26.2563 17.4446 2.75792 0.00012117 10
-26.2705 17.4541 3.87266 0.000119312 10
-26.2738 17.4563 4.99611 0.000116886 10
-26.2647 17.4502 6.12944 0.000113918 10
-26.2596 17.4468 7.2786 0.000110443 10
-26.2657 17.4509 8.44963 0.000106501 10
-8.41354 5.5477 -2.70037 0.000202661 4
-9.75005 6.42898 -2.69627 0.000106884 4
-11.4091 7.52294 -2.65643 0.000104601 4
-13.468 8.8805 -2.5551 0.000353604 4
-18.6364 12.2884 -2.74093 4.18416e-05 1
-26.1502 17.2429 -2.74044 0.000159345 10
-26.1689 17.2552 -1.64276 0.000160879 10
-26.1539 17.2453 -0.546827 0.000161618 10
-26.1621 17.2507 0.546999 0.000161553 10
-26.1747 17.259 1.64312 0.000125288 10
-26.1663 17.2535 2.74212 0.000123994 10
-26.1758 17.2598 3.84979 0.000122096 10
-26.1778 17.2611 4.96635 0.000119617 10
-26.1881 17.2678 6.09745 0.000116585 10
-26.179 17.2619 7.23953 0.000113034 10
-26.1904 17.2694 8.40595 0.000109006 10
-8.42684 5.51437 -2.69845 0.000206472 4
-9.78298 6.40181 -2.69918 4.98757e-05 4
-11.4568 7.49715 -2.66142 4.18365e-05 4
-13.4511 8.80214 -2.54605 0.000111811 4
-18.6658 12.2146 -2.73897 4.18351e-05 1
-26.0848 17.0695 -2.72733 0.000163021 10
-26.0721 17.0611 -1.63294 0.000164588 10
-26.078 17.065 -0.543993 0.000165344 10
-26.0756 17.0634 0.543943 0.000165278 10
-26.0785 17.0653 1.63333 0.000128179 10
-26.0832 17.0684 2.72715 0.000126856 10
-26.0868 17.0708 3.82791 0.000124918 10
-26.0965 17.0771 4.9396 0.000122386 10
-26.102 17.0807 6.06349 0.000119288 10
-26.0899 17.0728 7.19835 0.000115661 10
-26.1013 17.0803 8.35819 0.000111545 10
-8.44967 5.48728 -2.69961 0.000145286 4
-9.80894 6.37 -2.70019 0.000102119 4
-11.465 7.44544 -2.65726 8.92432e-05 4
-13.4973 8.76524 -2.54899 8.48126e-05 4
-18.7118 12.1516 -2.73947 4.18287e-05 1
-25.4203 16.5081 -2.6518 0.000178366 10
-25.4277 16.5129 -1.58895 0.000180069 10
-25.4379 16.5196 -0.529434 0.000180889 10
-25.9879 16.8768 0.540881 0.000169054 10
-25.4394 16.5205 1.58968 0.000140236 10
-25.4271 16.5126 2.65251 0.000138801 10
-25.428 16.5131 3.72275 0.000136695 10
-25.444 16.5236 4.80515 0.000133945 10
-25.4552 16.5308 5.8998 0.000130579 10
-25.4438 16.5234 7.00413 0.000126637 10
-26.0198 16.8975 8.31315 0.00011412 10
-8.45176 5.44679 -2.69419 0.000183507 4
-9.82045 6.32885 -2.69726 0.000154354 4
-11.4929 7.40669 -2.65773 6.83207e-05 4
-13.531 8.72011 -2.54958 0.000102535 4
-18.7663 12.0941 -2.74126 4.18222e-05 1
-25.4726 16.416 -2.65127 0.000281551 10
-25.4715 16.4153 -1.5881 0.000284366 10
-25.4848 16.4238 -0.529213 0.000285788 10
-25.9191 16.7037 0.538232 0.00017288 10
