VERSION 0.7
FIELDS x y z intensity label
SIZE 4 4 4 4 4
TYPE F F F F F
COUNT 1 1 1 1 1
WIDTH 1174
HEIGHT 1
VIEWPOINT 11.0896 7.48989 2.72624 0.99999 -0.000271761 0.000979377 -0.00425888
POINTS 1174
DATA ascii
5.78005 -17.5801 4.95866 0.000895071 10
2.98385 -8.9698 -2.53294 0.000279219 4
3.47029 -10.4321 -2.5382 0.000323556 4
4.42546 -13.3034 -2.72525 0.000216935 1
1.57165 -4.72455 -0.788612 0.0200183 8
1.57276 -4.7279 -0.611791 0.019358 8
1.57442 -4.73287 -0.436382 0.0185988 8
6.2992 -18.9361 -1.04587 0.000700938 10
6.29578 -18.9258 -0.34815 0.000704048 10
6.29299 -18.9174 0.347996 0.000703997 10
6.2959 -18.9262 1.04532 0.000700785 10
5.84547 -17.5721 1.62019 0.000998177 10
5.85304 -17.5949 2.27678 0.000984842 10
5.85333 -17.5958 2.93705 0.000967299 10
5.84988 -17.5854 3.60242 0.000945725 10
5.85246 -17.5931 4.28053 0.00092034 10
5.84827 -17.5806 4.9645 0.000891399 10
3.02115 -8.97718 -2.53799 0.000500865 4
3.50495 -10.4148 -2.53694 0.000359544 4
4.47463 -13.2961 -2.72693 0.000216963 1
1.58735 -4.71671 -0.788223 0.0196281 8
1.59021 -4.72521 -0.612157 0.0190728 8
1.58588 -4.71235 -0.434998 0.0184229 8
9.47562 -28.1562 -1.55693 0.000224603 10
9.48468 -28.1832 -0.51905 0.000225691 10
9.47739 -28.1615 0.518651 0.000225673 10
6.42297 -19.0855 1.05535 4.15279e-05 10
5.91769 -17.5841 1.62319 0.000994057 10
5.91422 -17.5737 2.2767 0.000980774 10
5.92003 -17.591 2.93969 0.000963299 10
5.92136 -17.595 3.6086 0.00094181 10
5.91605 -17.5792 4.28214 0.000916525 10
5.91887 -17.5876 4.97228 0.000887698 10
3.04493 -8.94444 -2.53172 0.000536372 4
3.54232 -10.4055 -2.53769 0.000295963 4
4.51903 -13.2746 -2.72573 0.00021699 1
1.61108 -4.73251 -0.791799 0.0194509 8
1.61291 -4.7379 -0.614527 0.0188961 8
1.6124 -4.73639 -0.437733 0.0181387 8
6.4963 -19.0828 1.05645 4.15071e-05 10
5.98512 -17.5812 1.62484 0.000989903 10
5.98325 -17.5757 2.27964 0.000976673 10
5.98165 -17.571 2.93981 0.000959268 10
5.98662 -17.5856 3.61094 0.000937864 10
5.98374 -17.5771 4.2867 0.000912679 10
5.98755 -17.5883 4.97838 0.000883968 10
3.0796 -8.9438 -2.53457 0.000554152 4
3.57875 -10.3935 -2.53778 0.000390048 4
4.56272 -13.2511 -2.72417 0.000217018 1
5.60248 -16.2708 -2.72553 0.000107322 1
1.62851 -4.72954 -0.614176 0.0187195 8
1.62986 -4.73346 -0.437986 0.0179637 8
9.69995 -28.1707 -1.56143 7.43619e-05 10
9.7036 -28.1813 -0.520251 7.47937e-05 10
9.69649 -28.1607 0.519869 7.48587e-05 10
6.55959 -19.0504 1.05592 4.14863e-05 10
6.05068 -17.5725 1.62598 0.000985717 10
6.04883 -17.5671 2.28125 0.00097254 10
6.05574 -17.5872 2.94604 0.000955205 10
6.05415 -17.5825 3.61463 0.000933888 10
6.05672 -17.59 4.29497 0.000908804 10
6.04917 -17.5681 4.97859 0.000880208 10
3.10849 -8.92637 -2.53269 0.000647307 4
3.61441 -10.3792 -2.53736 0.000315391 4
4.60664 -13.2285 -2.72281 0.000217046 1
5.65531 -16.2398 -2.72364 0.000107339 1
1.64405 -4.72108 -0.613819 0.0184367 8
1.64161 -4.71406 -0.436719 0.017789 8
6.13221 -17.6093 -0.977222 0.000428065 10
6.13053 -17.6045 -0.325387 0.000430307 10
6.12573 -17.5907 0.325132 0.000430642 10
6.12717 -17.5949 0.976419 0.000429066 10
6.1177 -17.5677 1.6275 0.000981499 10
6.12008 -17.5745 2.28497 0.000968376 10
6.12287 -17.5825 2.94882 0.000951112 10
6.11847 -17.5699 3.61639 0.000929881 10
6.12519 -17.5891 4.29995 0.000307014 10
6.12453 -17.5873 4.99006 0.000297621 10
3.14531 -8.9316 -2.53727 0.00068727 4
3.65179 -10.3698 -2.53818 0.000276688 4
4.65439 -13.2169 -2.72374 0.000217073 1
5.7128 -16.2224 -2.72404 0.000107357 1
6.13014 -17.4075 -2.26603 0.000433901 10
6.13554 -17.4228 -1.61606 0.000440083 10
6.13143 -17.4111 -0.967405 0.000444356 10
6.12942 -17.4054 -0.322101 0.000446676 10
6.1262 -17.3963 0.321932 0.000447019 10
6.1224 -17.3855 0.965981 0.000445383 10
6.12207 -17.3846 1.6125 0.000344463 10
6.12407 -17.3902 2.26378 0.000340154 10
6.12154 -17.3831 2.91894 0.000334387 10
6.1226 -17.3861 3.58294 0.00032722 10
6.11804 -17.3731 4.25234 0.000318726 10
6.12194 -17.3842 4.93848 0.00030899 10
3.173 -8.91081 -2.5345 0.000563168 4
3.68049 -10.336 -2.53303 0.000384636 4
4.70363 -13.2093 -2.72556 0.000217101 1
5.76642 -16.194 -2.72263 0.000107374 1
6.13287 -17.2231 -2.2448 0.000450219 10
6.1291 -17.2125 -1.59852 0.00131825 10
6.1308 -17.2173 -0.957818 0.00132991 10
6.13409 -17.2265 -0.319184 0.00133572 10
6.12739 -17.2077 0.318836 0.00133562 10
6.13131 -17.2187 0.957899 0.00132962 10
5.75741 -16.1687 1.50158 0.00042041 10
5.75762 -16.1693 2.10745 0.000415211 10
5.74913 -16.1454 2.71447 0.000408254 10
5.7531 -16.1566 3.33368 0.000399608 10
6.11551 -17.1744 4.20889 0.000330722 10
6.11618 -17.1762 4.88543 0.000320636 10
3.2093 -8.91417 -2.53863 0.000616435 4
3.71802 -10.3272 -2.53404 0.000351466 4
4.74427 -13.1777 -2.72244 0.000217129 1
5.82206 -16.1714 -2.72223 0.000107391 1
6.12914 -17.0244 -2.22167 0.000466928 10
6.19467 -17.2064 -1.59995 0.00131244 10
6.20281 -17.229 -0.959666 0.00132404 10
6.20072 -17.2232 -0.319521 0.00132983 10
6.19676 -17.2122 0.319317 0.00132973 10
6.19931 -17.2192 0.959125 0.00132375 10
5.80863 -16.1341 1.50024 0.00121126 10
5.81654 -16.1561 2.10836 0.00119529 10
5.80977 -16.1373 2.71649 0.00117428 10
5.8074 -16.1307 3.3325 0.00114843 10
6.11303 -16.9796 4.16636 0.000343005 10
6.11792 -16.9932 4.83942 0.00033256 10
3.23146 -8.87836 -2.53163 0.000581008 4
3.75284 -10.3108 -2.53322 0.000390251 4
4.78844 -13.1561 -2.72142 0.000217156 1
5.87896 -16.1523 -2.72246 0.000107408 1
6.12951 -16.8407 -2.20048 0.00048403 10
6.26224 -17.2054 -1.60188 0.00130658 10
6.26228 -17.2055 -0.95957 0.00131813 10
6.26541 -17.2141 -0.319757 0.00132389 10
6.26263 -17.2064 0.319615 0.0013238 10
6.26734 -17.2194 0.960345 0.00131785 10
5.87637 -16.1452 1.50317 0.00120592 10
5.87067 -16.1296 2.10756 0.00119001 10
5.87045 -16.1289 2.71852 0.00116908 10
5.87829 -16.1505 3.34081 0.00114335 10
6.11494 -16.8007 4.12767 0.000355578 10
6.11488 -16.8005 4.79059 0.000344766 10
3.27072 -8.88956 -2.53806 0.000452427 4
3.78583 -10.2896 -2.53123 0.000307251 4
4.83804 -13.1494 -2.7235 0.000217184 1
5.9362 -16.1341 -2.72287 0.000107426 1
6.12339 -16.6429 -2.17742 0.000501529 10
6.32911 -17.202 -1.60362 0.00130068 10
6.33334 -17.2135 -0.961246 0.00131219 10
6.33561 -17.2197 -0.320269 0.00131792 10
6.33789 -17.2259 0.320385 0.00131782 10
6.33314 -17.213 0.961215 0.0013119 10
5.94012 -16.1448 1.50506 0.00120053 10
5.94265 -16.1517 2.11315 0.00118469 10
5.93991 -16.1442 2.72457 0.00116386 10
5.93867 -16.1409 3.34309 0.00113823 10
5.74662 -15.6189 3.84222 0.000433273 10
6.11103 -16.6093 4.74213 0.000357256 10
3.29655 -8.86415 -2.53407 0.00055893 4
3.82622 -10.2884 -2.5342 0.000307283 4
4.88085 -13.1242 -2.72179 0.000217211 1
5.99419 -16.1179 -2.72364 0.000107443 1
6.12645 -16.4735 -2.15804 0.000519428 10
6.39867 -17.2055 -1.60601 0.00129474 10
6.39805 -17.2038 -0.961947 0.0013062 10
6.4046 -17.2215 -0.320717 0.00131191 10
6.4009 -17.2115 0.320531 0.00131181 10
6.40095 -17.2116 0.962383 0.00130591 10
6.00276 -16.1409 1.50664 0.00119511 10
6.00453 -16.1457 2.1151 0.00117934 10
6.00323 -16.1422 2.72775 0.00115859 10
6.00276 -16.1409 3.34742 0.00113307 10
5.74317 -15.4429 3.80385 0.000448585 10
6.1091 -16.4269 4.6961 0.000370032 10
3.33267 -8.86643 -2.53804 0.000607779 4
3.85905 -10.2668 -2.5322 0.000368224 4
4.92885 -13.113 -2.72302 0.000217239 1
6.04894 -16.0929 -2.72298 0.00010746 1
6.11897 -16.2793 -2.13538 0.000537731 10
6.47332 -17.222 -1.60965 0.00128877 10
6.46609 -17.2028 -0.963142 0.00130017 10
6.47298 -17.2211 -0.321128 0.00130586 10
6.46889 -17.2102 0.320926 0.00130576 10
6.47277 -17.2205 0.964138 0.00129989 10
6.06189 -16.1274 1.50734 0.00118965 10
6.07118 -16.1521 2.1187 0.00117395 10
6.06824 -16.1443 2.73167 0.0011533 10
6.0676 -16.1426 3.35214 0.00112789 10
5.74205 -15.2765 3.76777 0.000464238 10
6.11376 -16.2654 4.65601 0.000383098 10
3.36192 -8.85032 -2.53677 0.000425927 4
3.89983 -10.2664 -2.53542 0.000426409 4
4.97769 -13.1039 -2.72472 0.000217267 1
6.1024 -16.0647 -2.72179 0.000107477 1
6.12665 -16.1285 -2.1184 0.000556441 10
10.3093 -27.1394 -2.53993 3.32971e-05 10
10.5559 -27.7886 -1.55787 0.000334951 10
10.5559 -27.7885 -0.518868 0.000336574 10
10.566 -27.8152 0.519364 0.000336547 10
7.16392 -18.8592 1.05727 4.12996e-05 10
6.11437 -16.0962 1.50641 0.0007596 10
6.11871 -16.1076 2.11565 0.000749576 10
6.11907 -16.1086 2.72922 0.000736387 10
6.11583 -16.1 3.34771 0.000720166 10
5.77696 -15.208 3.75582 0.000313604 10
6.10923 -16.0827 4.60978 0.000396455 10
3.38653 -8.82221 -2.53208 0.000532455 4
3.93827 -10.2596 -2.53712 0.000395992 4
5.0193 -13.0757 -2.72249 0.000217294 1
6.12273 -15.9503 -2.706 0.000565083 10
6.12426 -15.9543 -2.0983 0.000575561 10
10.4032 -27.1014 -2.53975 3.33078e-05 10
10.6754 -27.8104 -1.56118 0.000333201 10
10.6676 -27.79 -0.519588 0.000334816 10
10.6728 -27.8037 0.519843 0.000334789 10
7.22846 -18.8308 1.05709 4.1279e-05 10
6.18034 -16.1004 1.50881 0.000283143 10
6.18036 -16.1004 2.11753 0.000279625 10
6.184 -16.1099 2.73309 0.000274922 10
6.1753 -16.0872 3.34951 0.000269081 10
5.83649 -15.2046 3.75999 0.000313569 10
6.11012 -15.9174 4.5685 0.000410105 10
3.42165 -8.82154 -2.5353 0.000594627 4
3.968 -10.2301 -2.53325 0.000404342 4
5.06464 -13.0574 -2.72234 0.000217322 1
6.12492 -15.791 -2.68259 0.000584281 10
6.11692 -15.7704 -2.07691 0.000595094 10
10.5042 -27.0815 -2.54131 3.33186e-05 10
10.7783 -27.7881 -1.56202 0.000331441 10
10.7853 -27.8061 -0.520589 0.000333048 10
10.7838 -27.8023 0.520517 0.000333021 10
7.29341 -18.8035 1.05699 4.12583e-05 10
6.17579 -15.9222 2.0969 0.000289118 10
5.88474 -15.1718 3.75694 0.000313535 10
6.10724 -15.7454 4.52522 0.000424052 10
3.44697 -8.79564 -2.5313 0.000550301 4
4.30268 -10.9791 -2.72243 0.000383693 1
5.11174 -13.0436 -2.72317 0.000217349 1
6.1172 -15.6093 -2.65533 0.000603889 10
6.11982 -15.616 -2.05938 0.000615043 10
10.59 -27.0225 -2.53923 3.33294e-05 10
7.36747 -18.7996 1.0582 4.12376e-05 10
6.18089 -15.7718 2.07993 0.000298813 10
5.9355 -15.1456 3.75556 0.000313501 10
6.1089 -15.5881 4.4861 0.000438296 10
3.48039 -8.79047 -2.5333 0.000554787 4
4.34052 -10.9629 -2.72215 0.000383734 1
5.15637 -13.0235 -2.72271 0.000217377 1
6.1218 -15.4619 -2.63388 0.000623909 10
6.12033 -15.4582 -2.04138 0.000635412 10
10.6893 -26.9982 -2.54043 3.33401e-05 10
7.4334 -18.7746 1.05825 4.1217e-05 10
5.99202 -15.1341 3.75788 0.000313466 10
6.10156 -15.4108 4.44118 0.000452841 10
3.51074 -8.77748 -2.53307 0.000683558 4
4.37757 -10.9447 -2.72141 0.000383774 1
5.19955 -12.9998 -2.72154 0.000217404 1
6.11762 -15.2951 -2.6091 0.000644346 10
6.11416 -15.2865 -2.02151 0.000656204 10
10.7865 -26.9681 -2.54113 3.33509e-05 10
7.50131 -18.7546 1.05859 4.11964e-05 10
6.04099 -15.1036 3.7555 0.000313432 10
6.09914 -15.2489 4.40065 0.000467688 10
3.54185 -8.7664 -2.53342 0.000621471 4
4.42211 -10.9451 -2.72532 0.000383814 1
5.24422 -12.9799 -2.72119 0.000217432 1
6.1128 -15.1297 -2.58451 0.000665201 10
6.11024 -15.1234 -2.00275 0.000677422 10
10.8769 -26.9212 -2.54027 3.33617e-05 10
7.56778 -18.7309 1.05874 4.11758e-05 10
6.09633 -15.089 3.75714 0.000313397 10
6.09565 -15.0873 4.36011 0.000482841 10
3.57276 -8.75477 -2.53365 0.000608207 4
4.46112 -10.9316 -2.72583 0.000383854 1
5.28803 -12.9579 -2.72043 0.000217459 1
6.11034 -14.9729 -2.56135 0.000686478 10
6.11485 -14.984 -1.98711 0.000699067 10
10.9675 -26.8751 -2.53952 3.33724e-05 10
6.1092 -14.9701 0.282226 0.000475224 10
6.10735 -14.9656 0.84711 0.000473478 10
6.09912 -14.9454 3.72668 0.000327934 10
6.10062 -14.9491 4.32631 0.0004983 10
3.60371 -8.74326 -2.53395 0.000506144 4
4.49944 -10.9165 -2.72595 0.000383894 1
5.3411 -12.9585 -2.72444 0.000217487 1
6.10764 -14.8183 -2.53852 0.000708179 10
6.10759 -14.8181 -1.96793 0.000721143 10
6.12732 -14.866 -1.40675 0.00118998 10
6.1318 -14.8769 -0.843294 0.00120028 10
6.13685 -14.8891 -0.281101 0.00120541 10
6.13715 -14.8898 0.281114 0.00120532 10
6.13203 -14.8774 0.843324 0.00120002 10
5.74174 -13.9305 1.31823 0.00066962 10
5.73442 -13.9128 1.84769 0.000661448 10
5.73618 -13.917 2.38413 0.000650529 10
5.73703 -13.9191 2.9264 0.000636972 10
5.72726 -13.8954 3.46981 0.00062091 10
6.09813 -14.7952 4.28789 0.000514066 10
3.6346 -8.73156 -2.53422 0.000333019 4
4.53691 -10.8992 -2.72558 0.000383934 1
5.37861 -12.9213 -2.72056 0.000217514 1
6.11073 -14.6801 -2.51849 0.000730307 10
6.11116 -14.6811 -1.95255 0.000743653 10
6.10369 -14.6632 -1.38957 0.000497974 10
6.11246 -14.6842 -0.833579 0.000502637 10
6.10378 -14.6634 -0.27724 0.000505144 10
6.10501 -14.6663 0.277295 0.000505471 10
6.09859 -14.6509 0.831688 0.000503613 10
5.76526 -13.8501 1.31252 0.00167243 10
5.77522 -13.8741 1.84522 0.00165083 10
5.77185 -13.866 2.37882 0.0016224 10
5.76789 -13.8565 2.91745 0.00158743 10
5.76732 -13.8551 3.46476 0.00154624 10
6.09185 -14.6347 4.24754 0.000530144 10
3.6594 -8.70537 -2.53031 0.000519554 4
4.57376 -10.8805 -2.72488 0.000383974 1
5.43219 -12.9227 -2.72482 0.000217542 1
6.11274 -14.5416 -2.49839 0.000752864 10
6.10959 -14.5341 -1.93583 0.000766599 10
6.14276 -14.6131 -1.38684 0.00123428 10
6.13696 -14.5992 -0.829965 0.00124494 10
6.14636 -14.6216 -0.276854 0.00125025 10
6.14592 -14.6206 0.276834 0.00125016 10
6.13658 -14.5983 0.829914 0.00124467 10
5.82758 -13.8633 1.31568 0.00166405 10
5.82765 -13.8634 1.84649 0.00164255 10
5.83159 -13.8728 2.38347 0.00161426 10
5.82848 -13.8654 2.9236 0.00157946 10
5.83042 -13.87 3.47356 0.00153847 10
6.10125 -14.5143 4.21874 0.000546535 10
3.68994 -8.69295 -2.53042 0.000506277 4
4.61307 -10.8677 -2.72569 0.000384014 1
5.47628 -12.9013 -2.72433 0.00021757 1
6.10768 -14.3888 -2.47577 0.000775854 10
6.1023 -14.3761 -1.91761 0.000789986 10
6.10738 -14.3881 -1.36751 0.000528975 10
6.10665 -14.3864 -0.81907 0.000533909 10
6.10246 -14.3765 -0.272614 0.00053656 10
6.10031 -14.3714 0.272518 0.0005369 10
6.10653 -14.3861 0.819054 0.000534926 10
5.88348 -13.8606 1.31737 0.00165563 10
5.87875 -13.8495 1.84736 0.00163424 10
5.88417 -13.8622 2.38517 0.00160608 10
5.88592 -13.8664 2.92812 0.00157145 10
5.88606 -13.8667 3.47785 0.00153066 10
6.09626 -14.3619 4.18059 0.00056324 10
3.72213 -8.68438 -2.5317 0.000444141 4
4.6463 -10.8406 -2.72295 0.000384054 1
5.51274 -12.8622 -2.72012 0.000217597 1
6.10284 -14.239 -2.45365 0.000799278 10
6.10873 -14.2527 -1.90398 0.000813812 10
6.14119 -14.3285 -1.36387 0.00128091 10
6.14013 -14.326 -0.816848 0.00129194 10
6.14195 -14.3302 -0.272142 0.00129744 10
6.147 -14.342 0.272366 0.00129735 10
6.14221 -14.3308 0.817124 0.00129167 10
5.93886 -13.8564 1.31893 0.00164717 10
5.94457 -13.8697 1.85282 0.00162588 10
5.94296 -13.866 2.38937 0.00159787 10
5.94657 -13.8744 2.93418 0.0015634 10
5.9419 -13.8635 3.48223 0.00152281 10
6.08896 -14.2066 4.14156 0.000580262 10
3.7498 -8.66527 -2.52993 0.000750665 4
4.6816 -10.8186 -2.72149 0.000384094 1
5.56641 -12.8632 -2.72443 0.000217624 1
6.10726 -14.113 -2.4356 0.000823139 10
6.10762 -14.1139 -1.88827 0.000838084 10
6.0981 -14.0919 -1.34337 0.000561156 10
6.10237 -14.1017 -0.805271 0.000566372 10
6.10467 -14.1071 -0.268307 0.000569171 10
6.09624 -14.0876 0.267936 0.000569524 10
6.10395 -14.1054 0.80548 0.00056743 10
5.99304 -13.8491 1.32022 0.00163867 10
5.99955 -13.8642 1.85486 0.00161748 10
6.00136 -13.8683 2.39337 0.00158961 10
5.99283 -13.8486 2.93313 0.00155531 10
5.99577 -13.8554 3.48544 0.00151492 10
6.09146 -14.0765 4.10981 0.000597601 10
3.78977 -8.67444 -2.53645 0.000293185 4
4.72059 -10.805 -2.72221 0.000384134 1
5.60776 -12.8356 -2.72272 0.000217652 1
6.10104 -13.9647 -2.41367 0.00084744 10
6.10465 -13.973 -1.87226 0.000862803 10
6.14421 -14.0635 -1.3427 0.00133005 10
6.14858 -14.0736 -0.804882 0.00134147 10
6.14332 -14.0615 -0.267847 0.00134716 10
6.14592 -14.0675 0.26796 0.00134707 10
6.14941 -14.0754 0.80499 0.00134118 10
6.05107 -13.8503 1.32235 0.00163012 10
6.05024 -13.8485 1.85557 0.00160905 10
6.06114 -13.8734 2.39789 0.00158131 10
6.06011 -13.871 2.94235 0.00154718 10
6.05628 -13.8623 3.49246 0.001507 10
6.08972 -13.9388 4.07578 0.000615261 10
3.8105 -8.63957 -2.53013 0.000621961 4
4.758 -10.7878 -2.72205 0.000384174 1
5.64796 -12.8056 -2.72052 0.000217679 1
6.09882 -13.8279 -2.39368 0.000872182 10
6.09662 -13.8229 -1.85499 0.00088797 10
6.10054 -13.8318 -1.3226 0.000594532 10
6.10046 -13.8316 -0.792257 0.000600039 10
6.10273 -13.8367 -0.263969 0.00060299 10
6.09289 -13.8144 0.263543 0.000603358 10
6.09398 -13.8169 0.791416 0.000601138 10
6.09637 -13.8223 1.32169 0.000703961 10
6.09701 -13.8238 1.85511 0.000695339 10
6.08867 -13.8049 2.3897 0.00068383 10
6.09718 -13.8242 2.9369 0.000669546 10
6.08907 -13.8058 3.48355 0.000652629 10
6.08953 -13.8068 4.04337 0.000633242 10
3.84604 -8.63834 -2.53369 0.000590915 4
4.7972 -10.7747 -2.72295 0.000384214 1
5.68947 -12.7788 -2.71901 0.000217707 1
6.10629 -13.715 -2.37781 0.000897369 10
6.10189 -13.7051 -1.84202 0.000913588 10
6.14849 -13.8097 -1.32253 0.00138187 10
6.1422 -13.7956 -0.791419 0.00139371 10
6.14245 -13.7962 -0.263603 0.00139961 10
6.14093 -13.7928 0.263538 0.00139951 10
6.14712 -13.8067 0.792053 0.00139341 10
6.09749 -13.6952 1.31157 0.000724234 10
6.0888 -13.6757 1.83807 0.000715371 10
6.09537 -13.6904 2.37356 0.000703541 10
6.09473 -13.689 2.91269 0.00068886 10
6.09234 -13.6836 3.45808 0.000671472 10
6.09251 -13.684 4.01361 0.000651545 10
3.87704 -8.6268 -2.53425 0.000559863 4
4.83691 -10.7626 -2.72415 0.000384254 1
5.73903 -12.7699 -2.72138 0.000217734 1
6.10265 -13.579 -2.35792 0.000923002 10
6.10063 -13.5745 -1.82733 0.00093966 10
6.09385 -13.5594 -1.30059 0.000629115 10
6.09188 -13.555 -0.778834 0.000634921 10
6.09736 -13.5673 -0.259634 0.000638031 10
6.09444 -13.5608 0.259509 0.000638413 10
6.0896 -13.55 0.778543 0.000636063 10
6.09763 -13.5678 1.3014 0.000744866 10
6.08736 -13.545 1.82335 0.000735758 10
6.09387 -13.5595 2.35453 0.000723602 10
6.08828 -13.547 2.88699 0.000708517 10
6.0937 -13.5591 3.43197 0.000690649 10
6.08981 -13.5504 3.98065 0.000670175 10
3.90533 -8.60925 -2.53309 0.000697668 4
4.867 -10.7292 -2.71998 0.000384293 1
5.78824 -12.7601 -2.72357 0.000217762 1
6.10207 -13.452 -2.33954 0.000949085 10
6.09587 -13.4383 -1.81184 0.000966188 10
6.13823 -13.5317 -1.29998 0.00143659 10
6.14228 -13.5406 -0.77923 0.00144887 10
6.13895 -13.5333 -0.259392 0.00145499 10
6.131 -13.5157 0.259055 0.00145489 10
6.13953 -13.5345 0.778881 0.00144856 10
6.09631 -13.4392 1.2911 0.000765859 10
6.09052 -13.4265 1.81025 0.000756501 10
6.09118 -13.4279 2.33536 0.000744013 10
6.09334 -13.4327 2.86714 0.000728516 10
6.08441 -13.413 3.40034 0.000710163 10
6.08795 -13.4208 3.94879 0.000689131 10
3.93472 -8.59418 -2.53268 0.000471078 4
4.903 -10.7091 -2.71919 0.000384333 1
5.8327 -12.7397 -2.72355 0.000217789 1
6.1039 -13.3321 -2.32238 0.000975617 10
6.10035 -13.3243 -1.79934 0.000993174 10
6.09469 -13.312 -1.28091 0.000664916 10
6.0947 -13.312 -0.767294 0.000671032 10
6.10013 -13.3239 -0.255785 0.000674305 10
6.08729 -13.2958 0.255246 0.000674701 10
6.08748 -13.2962 0.766385 0.000672217 10
6.08854 -13.2985 1.27961 0.000787213 10
6.08425 -13.2892 1.79459 0.000777601 10
6.08412 -13.2889 2.31486 0.000764776 10
6.08653 -13.2941 2.84208 0.000748861 10
6.08386 -13.2883 3.37409 0.000730013 10
6.08689 -13.2949 3.91797 0.000708415 10
3.96001 -8.57025 -2.52969 0.000626678 4
4.94499 -10.7019 -2.72174 0.000384373 1
5.87486 -12.7144 -2.7225 0.000217816 1
6.09928 -13.2 -2.30308 0.0010026 10
6.093 -13.1865 -1.78358 0.00102062 10
6.12425 -13.2541 -1.27739 0.00149445 10
6.12934 -13.2651 -0.765821 0.00150719 10
6.12777 -13.2617 -0.255001 0.00151354 10
6.12667 -13.2593 0.254955 0.00151343 10
6.12708 -13.2602 0.765539 0.00150686 10
6.09248 -13.1853 1.27076 0.00080893 10
6.09166 -13.1836 1.78319 0.000799061 10
6.08368 -13.1663 2.29719 0.000785892 10
6.09262 -13.1856 2.82341 0.000769553 10
6.08326 -13.1654 3.34825 0.000750202 10
6.08946 -13.1788 3.88999 0.000728028 10
4.2952 -9.21109 -2.72325 0.000618114 1
4.98332 -10.6868 -2.72229 0.000384413 1
5.91287 -12.6802 -2.71958 0.000217844 1
6.09508 -13.0709 -2.28425 0.00103004 10
6.09677 -13.0746 -1.77131 0.00104853 10
6.09003 -13.0601 -1.26073 0.00106271 10
6.09222 -13.0648 -0.75548 0.00107245 10
6.09058 -13.0613 -0.251555 0.00107766 10
6.09416 -13.069 0.251702 0.00107828 10
6.09101 -13.0622 0.75533 0.00107431 10
6.08534 -13.0501 1.25976 0.000831012 10
6.08616 -13.0518 1.76823 0.000820881 10
6.09337 -13.0673 2.28361 0.000807364 10
6.08942 -13.0588 2.80079 0.000790593 10
6.08674 -13.0531 3.32507 0.000770732 10
6.09012 -13.0603 3.86127 0.000747972 10
4.33189 -9.20574 -2.72612 0.000618168 1
5.01544 -10.6584 -2.7195 0.000384453 1
5.96638 -12.6792 -2.72382 0.000217871 1
6.09174 -12.9456 -2.26605 0.00105794 10
6.09007 -12.9421 -1.75623 0.0010769 10
6.08973 -12.9413 -1.25131 0.00109144 10
6.09632 -12.9553 -0.750377 0.00110143 10
6.09725 -12.9573 -0.249961 0.00110677 10
6.09577 -12.9542 0.249899 0.00110741 10
6.09318 -12.9487 0.74999 0.00110333 10
6.09126 -12.9446 1.25163 0.000853459 10
6.08521 -12.9317 1.75483 0.000843061 10
6.08415 -12.9295 2.26323 0.000829191 10
6.09106 -12.9442 2.78074 0.000811981 10
6.08881 -12.9394 3.30151 0.000791601 10
6.0829 -12.9268 3.82806 0.000768248 10
4.35646 -9.17468 -2.72141 0.000618222 1
5.06104 -10.6585 -2.72404 0.000384493 1
6.00026 -12.6365 -2.71913 0.000217899 1
6.10048 -12.8476 -2.25261 0.00108629 10
6.0961 -12.8384 -1.74503 0.00110573 10
6.09153 -12.8287 -1.24247 0.00112065 10
6.09771 -12.8418 -0.745026 0.00113089 10
6.09511 -12.8363 -0.248034 0.00113636 10
6.087 -12.8192 0.247704 0.00113701 10
6.08787 -12.821 0.743823 0.00113282 10
6.08252 -12.8098 1.24063 0.000876275 10
6.08414 -12.8132 1.74161 0.000865607 10
6.08987 -12.8252 2.24869 0.000851377 10
6.0901 -12.8257 2.75985 0.000833722 10
6.08168 -12.808 3.27338 0.000812815 10
6.07651 -12.7971 3.7959 0.000788858 10
4.39437 -9.17176 -2.72508 0.000618277 1
5.09547 -10.6351 -2.72256 0.000384532 1
6.05234 -12.6322 -2.72274 0.000217926 1
6.09808 -12.7277 -2.2353 0.00111511 10
6.09516 -12.7216 -1.73204 0.00113504 10
6.09554 -12.7224 -1.23422 0.00115033 10
6.08714 -12.7048 -0.738311 0.00116082 10
6.09251 -12.7161 -0.246121 0.00116643 10
6.086 -12.7025 0.245857 0.00116709 10
6.08352 -12.6973 0.737872 0.00116279 10
6.08687 -12.7043 1.23247 0.00089946 10
6.08285 -12.6959 1.72855 0.000888517 10
6.08176 -12.6936 2.22932 0.000873922 10
6.08379 -12.6979 2.73689 0.000855815 10
6.07966 -12.6892 3.24843 0.000834373 10
6.08339 -12.697 3.77249 0.000809803 10
4.41695 -9.13691 -2.71929 0.000618331 1
5.13111 -10.6142 -2.7218 0.000384572 1
6.09256 -12.6031 -2.72102 0.000217953 1
6.08988 -12.5975 -2.21616 0.00114438 10
6.08675 -12.5911 -1.71716 0.00116481 10
6.08583 -12.5891 -1.22335 0.00118048 10
6.08676 -12.5911 -0.73293 0.00119124 10
6.08953 -12.5968 -0.244222 0.00119698 10
6.08635 -12.5902 0.244095 0.00119765 10
6.08568 -12.5888 0.732799 0.00119324 10
6.08978 -12.5973 1.22415 0.000923016 10
6.08645 -12.5904 1.71707 0.000911794 10
6.08882 -12.5953 2.21578 0.000896829 10
6.08443 -12.5863 2.71739 0.000878262 10
6.07704 -12.571 3.22356 0.000856277 10
6.07844 -12.5739 3.74218 0.000831085 10
4.45065 -9.12518 -2.72041 0.000618385 1
5.1714 -10.6029 -2.72352 0.000384612 1
6.1124 -12.5323 -2.71033 0.00238723 10
6.1207 -12.5493 -2.21142 0.0024389 10
6.109 -12.5253 -1.71109 0.00248082 10
6.11209 -12.5316 -1.21983 0.00251258 10
6.11482 -12.5372 -0.731034 0.00253386 10
6.11788 -12.5435 -0.243602 0.00254446 10
6.10963 -12.5266 0.243273 0.00254427 10
6.12024 -12.5484 0.731682 0.00253331 10
6.07841 -12.4626 1.21311 0.000946943 10
6.08912 -12.4846 1.70552 0.000935439 10
6.08815 -12.4826 2.19966 0.000920097 10
6.08784 -12.4819 2.69944 0.000901065 10
6.08068 -12.4672 3.20239 0.000878528 10
6.08273 -12.4714 3.718 0.000852704 10
4.48274 -9.11012 -2.72057 0.000618439 1
5.20139 -10.5706 -2.71986 0.000384651 1
6.17366 -12.5465 -2.71806 0.00237332 10
6.16637 -12.5317 -2.21211 0.00242471 10
6.17135 -12.5419 -1.71628 0.00246639 10
6.16546 -12.5299 -1.22175 0.00249796 10
6.16724 -12.5335 -0.732066 0.00251912 10
6.16486 -12.5287 -0.24373 0.00252967 10
6.17109 -12.5413 0.243976 0.00252948 10
6.17392 -12.5471 0.732859 0.00251858 10
6.0863 -12.369 1.20606 0.000971244 10
6.08499 -12.3663 1.69226 0.000959453 10
6.08424 -12.3648 2.18264 0.000943729 10
6.087 -12.3704 2.6799 0.000924223 10
6.07985 -12.3559 3.17922 0.000901127 10
6.07837 -12.3529 3.68895 0.000874662 10
4.51057 -9.08648 -2.71819 0.000618493 1
5.23677 -10.5494 -2.71909 0.000384691 1
6.22415 -12.5385 -2.721 0.00235936 10
6.21853 -12.5271 -2.21512 0.00241046 10
6.21961 -12.5293 -1.71752 0.0024519 10
6.22201 -12.5342 -1.22427 0.0024833 10
6.22563 -12.5414 -0.733796 0.00250434 10
6.22049 -12.5311 -0.244198 0.00251483 10
6.22363 -12.5374 0.244321 0.00251464 10
6.22515 -12.5405 0.733739 0.0025038 10
6.07924 -12.2465 1.19618 0.000995919 10
6.07853 -12.2451 1.67857 0.000983836 10
6.08647 -12.2611 2.16808 0.000967724 10
6.08552 -12.2592 2.6604 0.00094774 10
6.08161 -12.2513 3.15776 0.000924075 10
6.08196 -12.252 3.66515 0.000896959 10
4.54432 -9.0748 -2.71942 0.000618547 1
5.27559 -10.5351 -2.72013 0.000384731 1
6.26366 -12.5082 -2.71917 0.000218062 1
6.28207 -12.545 -2.22214 0.00239616 10
6.27575 -12.5324 -1.72094 0.00243738 10
6.27741 -12.5357 -1.22656 0.0024686 10
6.27814 -12.5372 -0.734823 0.00248952 10
6.28451 -12.5499 -0.24499 0.00249994 10
6.28261 -12.5461 0.244916 0.00249976 10
6.27998 -12.5408 0.735037 0.00248898 10
6.10227 -12.186 1.19234 0.00206768 10
6.10277 -12.187 1.6735 0.00204133 10
6.10365 -12.1887 2.15903 0.00200666 10
6.09708 -12.1756 2.64685 0.00196399 10
6.10367 -12.1888 3.1471 0.00191374 10
6.10187 -12.1852 3.6515 0.00185639 10
4.58011 -9.06707 -2.72188 0.000618601 1
5.30981 -10.5116 -2.71885 0.000384771 1
6.31038 -12.4924 -2.7205 0.00021809 1
6.3321 -12.5354 -2.22434 0.00238183 10
6.3273 -12.5259 -1.72307 0.0024228 10
6.33408 -12.5394 -1.22907 0.00245384 10
6.32679 -12.5249 -0.735395 0.00247464 10
6.33414 -12.5395 -0.245217 0.00248501 10
6.32836 -12.528 0.244993 0.00248482 10
6.32739 -12.5261 0.735465 0.0024741 10
6.15597 -12.1868 1.19451 0.00205537 10
6.15824 -12.1912 1.67703 0.00202917 10
6.15301 -12.1809 2.16143 0.0019947 10
6.15214 -12.1792 2.65228 0.00195227 10
6.15588 -12.1866 3.15207 0.00190231 10
6.14989 -12.1747 3.65478 0.00184529 10
4.61488 -9.05721 -2.72374 0.000618655 1
5.34769 -10.4954 -2.71947 0.00038481 1
6.35237 -12.4672 -2.71983 0.000218117 1
6.39248 -12.546 -2.23016 0.00236745 10
6.39003 -12.5411 -1.72822 0.00240819 10
6.3807 -12.5228 -1.22963 0.00243905 10
6.3812 -12.5238 -0.736633 0.00245973 10
6.39289 -12.5468 -0.245795 0.00247003 10
6.38608 -12.5334 0.245532 0.00246985 10
6.39296 -12.5469 0.737992 0.00245919 10
6.20568 -12.1793 1.1959 0.00204302 10
6.20038 -12.1689 1.67693 0.00201698 10
6.20194 -12.172 2.16368 0.0019827 10
6.20073 -12.1696 2.6549 0.00194052 10
6.20542 -12.1788 3.15565 0.00189085 10
6.20879 -12.1854 3.66448 0.00183416 10
4.6459 -9.03995 -2.72341 0.000618709 1
5.39356 -10.4947 -2.72415 0.00038485 1
6.39847 -12.4501 -2.72094 0.000218144 1
6.44595 -12.5425 -2.23352 0.00235303 10
6.44283 -12.5364 -1.73066 0.00239353 10
6.44213 -12.535 -1.23303 0.00242421 10
6.44176 -12.5343 -0.73857 0.00244477 10
6.44445 -12.5396 -0.246093 0.00245501 10
6.44334 -12.5374 0.24605 0.00245483 10
6.44659 -12.5437 0.739123 0.00244423 10
6.26344 -12.1873 1.19882 0.00203064 10
6.26185 -12.1842 1.68204 0.00200475 10
6.25913 -12.179 2.16879 0.00197067 10
6.25687 -12.1746 2.66073 0.00192874 10
6.41407 -12.4804 3.75991 0.000513906 10
4.66971 -9.0088 -2.71892 0.000618763 1
5.42516 -10.4662 -2.72164 0.000384889 1
6.44308 -12.43 -2.72144 0.000218171 1
6.49313 -12.5265 -2.2347 0.00233857 10
6.50328 -12.5461 -1.73512 0.00237882 10
13.3315 -25.719 -2.53445 3.36511e-05 10
15.0559 -29.0457 -1.71457 0.000120531 10
15.0427 -29.0203 -0.570559 0.000121216 10
15.0534 -29.041 0.570966 0.000121292 10
9.32739 -17.9944 1.06221 5.604e-05 10
6.50232 -12.5443 1.23616 0.00187789 10
6.50159 -12.5428 1.73467 0.00185384 10
6.46318 -12.4687 3.76316 0.00051386 10
4.71031 -9.00999 -2.72423 0.000618817 1
5.4587 -10.4415 -2.72016 0.000384929 1
6.48769 -12.4098 -2.72197 0.000218199 1
6.54635 -12.522 -2.23796 0.00232406 10
6.54797 -12.5251 -1.73537 0.00236408 10
13.4197 -25.6694 -2.53416 3.36617e-05 10
15.0539 -28.7955 -1.70289 0.00012399 10
15.0462 -28.7808 -0.56688 0.000124693 10
15.0393 -28.7676 0.566619 0.00012477 10
9.39531 -17.9716 1.06279 5.60123e-05 10
6.55745 -12.5432 1.23831 0.00186626 10
6.55196 -12.5328 1.73643 0.00184235 10
6.49439 -12.4226 3.75606 0.000513813 10
4.74172 -8.99347 -2.72422 0.000618871 1
5.50144 -10.4344 -2.72329 0.000384968 1
6.52113 -12.3684 -2.71787 0.000218226 1
6.60838 -12.5339 -2.2442 0.00230953 10
6.60508 -12.5277 -1.73891 0.0023493 10
13.5015 -25.6078 -2.53272 3.36724e-05 10
14.8578 -28.1803 -1.66957 0.000132462 10
14.8686 -28.2007 -0.556473 0.000133208 10
14.8543 -28.1737 0.555939 0.00013329 10
9.44746 -17.9187 1.06161 5.59846e-05 10
6.61046 -12.5379 1.24005 0.00185459 10
6.60876 -12.5346 1.73987 0.00183083 10
6.54859 -12.4205 3.76231 0.000513766 10
4.76879 -8.96879 -2.72177 0.000618925 1
5.53085 -10.402 -2.71986 0.000385008 1
6.56484 -12.3467 -2.71811 0.000218253 1
6.65809 -12.5221 -2.24622 0.00229495 10
6.66096 -12.5274 -1.74209 0.00233449 10
13.5988 -25.5756 -2.53421 3.3683e-05 10
14.8573 -27.9426 -1.65854 0.000136171 10
14.8601 -27.9477 -0.552501 0.000136936 10
14.8527 -27.9338 0.552226 0.000137019 10
9.51854 -17.9018 1.06257 5.59569e-05 10
6.65983 -12.5253 1.2411 0.0018429 10
6.66064 -12.5268 1.74201 0.00181928 10
6.58472 -12.3841 3.75821 0.00051372 10
4.79438 -8.94148 -2.71854 0.000618979 1
5.56932 -10.3867 -2.72093 0.000385047 1
6.61624 -12.3392 -2.72154 0.00021828 1
6.72581 -12.5436 -2.25429 0.00228034 10
6.71595 -12.5252 -1.74503 0.00231963 10
13.685 -25.5225 -2.53366 3.36937e-05 10
14.8911 -27.7718 -1.65149 0.000265037 10
14.8905 -27.7707 -0.550025 0.00026634 10
14.8895 -27.7688 0.549987 0.000266317 10
9.58465 -17.8753 1.06298 5.59293e-05 10
6.7147 -12.5229 1.24317 0.00183118 10
6.71964 -12.5321 1.74599 0.00180771 10
6.63384 -12.3721 3.76157 0.000513673 10
4.8336 -8.93956 -2.72307 0.000619032 1
5.60236 -10.3614 -2.71939 0.000385086 1
6.65031 -12.2995 -2.71788 0.000218307 1
6.77507 -12.5302 -2.25612 0.00226569 10
6.77035 -12.5215 -1.7478 0.00230475 10
13.776 -25.4781 -2.53402 3.37043e-05 10
15.0114 -27.763 -1.65407 0.000263046 10
15.0052 -27.7515 -0.550679 0.00026434 10
15.0184 -27.7759 0.551163 0.000264317 10
9.64286 -17.8341 1.06252 5.59017e-05 10
6.77735 -12.5345 1.24666 0.00181943 10
6.77009 -12.521 1.74773 0.0017961 10
6.81395 -12.6021 2.26907 0.00111203 10
6.8119 -12.5984 2.78392 0.00108822 10
6.81854 -12.6106 3.30972 0.00106018 10
6.68063 -12.3556 3.76362 0.000513626 10
4.86486 -8.92278 -2.72312 0.000619086 1
5.6341 -10.3337 -2.71727 0.000385126 1
6.69272 -12.2753 -2.71769 0.000218334 1
6.82964 -12.5264 -2.25972 0.00225102 10
6.82838 -12.5241 -1.75148 0.00228983 10
13.8534 -25.409 -2.53194 3.37149e-05 10
15.0342 -27.5747 -1.64596 0.000142216 10
15.0435 -27.5918 -0.548549 0.000143012 10
15.0285 -27.5642 0.547999 0.000143097 10
9.70489 -17.8 1.0625 5.58742e-05 10
6.83183 -12.5305 1.24863 0.00180766 10
6.82639 -12.5205 1.75097 0.00178447 10
6.71132 -12.3094 3.75668 0.00051358 10
4.89172 -8.898 -2.72075 0.00061914 1
5.67657 -10.3256 -2.72035 0.000385165 1
6.74257 -12.2647 -2.72053 0.000218361 1
6.89369 -12.5396 -2.26641 0.00223631 10
6.89068 -12.5341 -1.75623 0.00227487 10
13.9453 -25.3664 -2.53253 3.37256e-05 10
15.0408 -27.359 -1.63622 0.00014605 10
15.0398 -27.3573 -0.544927 0.000146865 10
15.0293 -27.3383 0.544548 0.000146952 10
9.76988 -17.7714 1.06282 5.58466e-05 10
6.88986 -12.5326 1.25123 0.00179586 10
6.88511 -12.524 1.75481 0.00177282 10
6.765 -12.3055 3.76267 0.000513533 10
4.91718 -8.87082 -2.71767 0.000619193 1
5.71823 -10.316 -2.72304 0.000385205 1
6.78864 -12.247 -2.72185 0.000218388 1
6.9465 -12.5318 -2.26938 0.00222157 10
6.94406 -12.5274 -1.75868 0.00225989 10
14.0279 -25.3071 -2.53148 3.37362e-05 10
15.0334 -27.1209 -1.6251 0.000149946 10
15.0341 -27.1223 -0.541289 0.000150782 10
15.0309 -27.1165 0.541172 0.00015087 10
9.83523 -17.7432 1.06319 5.58191e-05 10
6.94331 -12.5261 1.25299 0.00178403 10
6.95264 -12.5429 1.76085 0.00176114 10
6.80313 -12.2732 3.76002 0.000513487 10
4.95083 -8.85848 -2.71917 0.000619247 1
5.74322 -10.2763 -2.71784 0.000385244 1
6.83097 -12.2226 -2.7217 0.000218415 1
7.00305 -12.5305 -2.27355 0.0022068 10
7.00932 -12.5417 -1.76411 0.00224488 10
14.1268 -25.2769 -2.53338 3.37468e-05 10
15.0296 -26.8924 -1.61454 0.000153907 10
15.0308 -26.8944 -0.537784 0.000154762 10
15.0311 -26.895 0.537795 0.000154852 10
9.90434 -17.7217 1.06396 5.57916e-05 10
7.00085 -12.5265 1.25547 0.00177219 10
7.00114 -12.5271 1.76205 0.00174944 10
6.84048 -12.2396 3.75702 0.00051344 10
4.98223 -8.84204 -2.71944 0.0006193 1
5.78892 -10.2737 -2.72248 0.000385283 1
6.86603 -12.1852 -2.7187 0.000218442 1
7.0613 -12.5318 -2.27825 0.002192 10
7.05982 -12.5292 -1.7658 0.00222984 10
14.2146 -25.2269 -2.53332 3.37574e-05 10
15.0352 -26.6832 -1.60512 0.000157931 10
15.0292 -26.6726 -0.534395 0.000158806 10
15.0339 -26.6808 0.534559 0.000158897 10
9.96697 -17.6885 1.06405 5.57642e-05 10
7.06554 -12.5393 1.25922 0.00176032 10
7.05835 -12.5266 1.76543 0.00173772 10
6.88776 -12.2238 3.75953 0.000513394 10
5.00934 -8.81803 -2.71742 0.000619354 1
5.82048 -10.2459 -2.72049 0.000385323 1
6.91212 -12.1675 -2.72012 0.000218469 1
7.11847 -12.5308 -2.28257 0.00217718 10
7.12099 -12.5352 -1.77014 0.00221477 10
14.289 -25.1531 -2.53091 3.3768e-05 10
15.0327 -26.4623 -1.59499 0.000162019 10
15.0281 -26.4543 -0.531069 0.000162915 10
15.0298 -26.4573 0.531128 0.000163008 10
10.0273 -17.6513 1.06391 5.57368e-05 10
7.11933 -12.5323 1.261 0.00174843 10
7.11434 -12.5235 1.76849 0.00172597 10
6.92614 -12.1922 3.75723 0.000513348 10
5.04052 -8.80124 -2.71765 0.000619407 1
5.85325 -10.2204 -2.71912 0.000385362 1
6.94506 -12.1268 -2.71641 0.000218496 1
7.17239 -12.5237 -2.28583 0.00216233 10
7.17988 -12.5368 -1.77389 0.00219968 10
14.3766 -25.1029 -2.53089 3.37786e-05 10
15.0323 -26.248 -1.58522 0.000166171 10
15.025 -26.2352 -0.52772 0.000167088 10
15.0184 -26.2236 0.527486 0.000167183 10
10.0897 -17.6176 1.06399 5.57094e-05 10
7.17524 -12.5287 1.26315 0.00173652 10
7.17606 -12.5301 1.77295 0.00171421 10
6.98223 -12.1917 3.76455 0.000513301 10
5.0836 -8.80506 -2.72429 0.000619461 1
5.88533 -10.1937 -2.71747 0.000385401 1
7.00028 -12.1248 -2.72143 0.000218523 1
7.23122 -12.5248 -2.29063 0.00214746 10
7.22677 -12.5171 -1.77467 0.00218456 10
14.4623 -25.0494 -2.53057 3.37892e-05 10
15.0213 -26.0177 -1.57447 0.000170388 10
15.0268 -26.0273 -0.524589 0.000171326 10
15.0287 -26.0304 0.524653 0.000171422 10
10.1553 -17.5895 1.06443 5.5682e-05 10
7.23046 -12.5235 1.26517 0.00172459 10
7.23927 -12.5388 1.77774 0.00170243 10
7.27542 -12.6014 2.30463 0.00105395 10
7.27382 -12.5986 2.82777 0.00103133 10
7.27826 -12.6063 3.36064 0.00100469 10
7.03294 -12.1814 3.76894 0.00166383 10
5.11399 -8.78671 -2.72412 0.000619514 1
5.91925 -10.1703 -2.71673 0.00038544 1
7.02965 -12.0781 -2.71644 0.00021855 1
7.28855 -12.523 -2.29493 0.00213257 10
7.29186 -12.5287 -1.77991 0.00216942 10
14.5555 -25.0088 -2.53159 3.37998e-05 10
15.026 -25.8172 -1.5655 0.000174669 10
15.0238 -25.8135 -0.521335 0.000175629 10
15.0241 -25.814 0.521345 0.000175727 10
10.2123 -17.5465 1.06398 5.56547e-05 10
7.28858 -12.523 1.26768 0.00171264 10
7.28641 -12.5193 1.77858 0.00169063 10
7.30929 -12.5586 2.30145 0.000601452 10
7.30607 -12.5531 2.82326 0.000588885 10
7.31696 -12.5718 3.35822 0.000574014 10
7.07735 -12.1601 3.76997 0.0016523 10
5.14322 -8.76641 -2.72338 0.000619567 1
5.9619 -10.1618 -2.72 0.000385479 1
7.07952 -12.0668 -2.71942 0.000218577 1
7.34676 -12.5223 -2.29948 0.00211766 10
7.35409 -12.5348 -1.78441 0.00215426 10
10.4007 -17.7276 -1.79819 0.00050874 10
10.3955 -17.7187 -1.07662 0.000513635 10
10.3929 -17.7143 -0.358492 0.000516229 10
10.3878 -17.7056 0.358316 0.000516492 10
10.2784 -17.5192 1.0645 5.56274e-05 10
7.34722 -12.523 1.27027 0.00170068 10
7.34482 -12.5189 1.78216 0.00167881 10
7.33731 -12.5061 2.29652 0.000952523 10
7.34555 -12.5202 2.82161 0.000932622 10
7.34765 -12.5238 3.35222 0.000909076 10
7.1389 -12.168 3.78011 0.00164076 10
5.16557 -8.7345 -2.71905 0.000619621 1
6.001 -10.1471 -2.72167 0.000385518 1
7.12279 -12.044 -2.71988 0.000218604 1
7.40433 -12.52 -2.3038 0.00210272 10
7.40183 -12.5158 -1.78538 0.00213908 10
10.3959 -17.5785 -1.78674 0.000520286 10
10.387 -17.5635 -1.06938 0.000525286 10
10.3851 -17.5602 -0.356106 0.000527933 10
10.3912 -17.5705 0.356314 0.0005282 10
10.3448 -17.4921 1.06504 5.56002e-05 10
7.40409 -12.5196 1.27254 0.0016887 10
7.41464 -12.5375 1.78847 0.00166698 10
7.34035 -12.4119 2.2839 0.000972917 10
7.34693 -12.423 2.80547 0.000952604 10
7.34111 -12.4132 3.32945 0.000928571 10
7.19781 -12.1708 3.78878 0.00162919 10
5.19558 -8.71567 -2.71882 0.000619674 1
6.02777 -10.1117 -2.71778 0.000385557 1
7.15842 -12.0084 -2.71746 0.000218631 1
7.46195 -12.5175 -2.30812 0.00208777 10
7.47264 -12.5355 -1.79189 0.00212388 10
7.56686 -12.6935 -1.29289 0.000804661 10
7.56671 -12.6933 -0.774455 0.00081198 10
7.55613 -12.6755 -0.257582 0.000815853 10
7.56436 -12.6893 0.257862 0.000816242 10
7.56479 -12.6901 0.774259 0.000813143 10
7.47523 -12.5398 1.27723 0.0016767 10
7.46774 -12.5272 1.79072 0.00165513 10
7.34526 -12.3218 2.27203 0.00099356 10
7.34329 -12.3185 2.78764 0.000972832 10
7.34131 -12.3152 3.31003 0.000948306 10
7.26182 -12.1818 3.80007 0.00161762 10
5.2232 -8.69286 -2.71737 0.000619727 1
6.0593 -10.0844 -2.71611 0.000385596 1
7.20023 -11.9832 -2.71744 0.000218658 1
7.5323 -12.5359 -2.31633 0.00207281 10
7.51838 -12.5127 -1.79237 0.00210866 10
7.55885 -12.58 -1.28401 0.00082165 10
7.56653 -12.5928 -0.769934 0.000829115 10
7.55722 -12.5773 -0.256121 0.000833064 10
7.55935 -12.5809 0.256192 0.000833459 10
7.55759 -12.5779 0.769024 0.000830294 10
7.53439 -12.5393 1.27985 0.00166469 10
7.53024 -12.5324 1.7952 0.00164327 10
7.34367 -12.2219 2.25833 0.00101445 10
7.33574 -12.2087 2.76858 0.000993304 10
7.33799 -12.2125 3.28929 0.000968281 10
7.31448 -12.1733 3.80537 0.00160603 10
5.25758 -8.68131 -2.71948 0.00061978 1
6.0992 -10.071 -2.71822 0.000385635 1
7.24903 -11.9696 -2.72007 0.000218685 1
7.58573 -12.5255 -2.3193 0.00205782 10
7.58854 -12.5302 -1.79866 0.00209343 10
7.5855 -12.5252 -1.2811 0.00140058 10
7.57998 -12.516 -0.766852 0.00141252 10
7.57893 -12.5143 -0.255374 0.00141847 10
7.58515 -12.5246 0.255584 0.00141836 10
7.58981 -12.5323 0.767846 0.0014122 10
7.5834 -12.5217 1.28075 0.00165267 10
7.58982 -12.5323 1.79897 0.00163139 10
7.37236 -12.1732 2.25407 0.00172433 10
7.36526 -12.1615 2.76368 0.00168744 10
7.3707 -12.1705 3.28489 0.001644 10
7.3691 -12.1678 3.81167 0.00159443 10
5.28212 -8.6535 -2.71653 0.000619833 1
6.13372 -10.0487 -2.71796 0.000385674 1
7.28711 -11.9382 -2.71871 0.000218711 1
7.65165 -12.5354 -2.32607 0.00204282 10
7.63811 -12.5132 -1.80005 0.00207818 10
7.64881 -12.5308 -1.2844 0.00139038 10
7.64874 -12.5307 -0.769379 0.00140224 10
7.6444 -12.5235 -0.256106 0.00140814 10
7.64433 -12.5234 0.256103 0.00140804 10
7.63843 -12.5138 0.768341 0.00140192 10
7.64844 -12.5302 1.28434 0.00164064 10
7.64171 -12.5191 1.8009 0.00161951 10
7.42293 -12.1607 2.25654 0.00171181 10
7.42149 -12.1584 2.76884 0.00167518 10
7.42238 -12.1598 3.28898 0.00163204 10
7.42252 -12.16 3.81732 0.00158281 10
5.31984 -8.64728 -2.72039 0.000619886 1
6.17623 -10.0393 -2.72125 0.000385713 1
7.32982 -11.9145 -2.71911 0.000218738 1
7.69818 -12.5132 -2.32692 0.00202781 10
7.70988 -12.5322 -1.80664 0.00206292 10
10.5764 -17.1917 -1.76591 0.000918174 10
10.5744 -17.1885 -1.05763 0.000926431 10
10.5691 -17.1798 -0.352079 0.000930544 10
10.5674 -17.177 0.352021 0.000930469 10
10.5737 -17.1873 1.05756 0.000926206 10
7.70659 -12.5269 1.28675 0.00162859 10
7.7052 -12.5246 1.80554 0.00160761 10
7.70374 -12.5223 2.3286 0.00158001 10
7.70891 -12.5307 2.85974 0.00154604 10
7.71301 -12.5373 3.39835 0.00150604 10
7.70116 -12.5181 3.93812 0.00146041 10
5.35567 -8.63782 -2.72328 0.000619939 1
6.19967 -9.99905 -2.71618 0.000385752 1
7.3694 -11.8856 -2.71838 0.000218765 1
7.76101 -12.5172 -2.33269 0.00201278 10
7.7587 -12.5135 -1.80783 0.00204764 10
7.8367 -12.6393 -1.3011 0.000815497 10
7.8347 -12.6361 -0.779191 0.000822911 10
7.82844 -12.626 -0.259312 0.000826828 10
7.82251 -12.6164 0.259115 0.000827211 10
7.82635 -12.6226 0.778361 0.000824056 10
7.76777 -12.5281 1.28966 0.00161654 10
7.76184 -12.5186 1.80856 0.00159571 10
7.76613 -12.5255 2.33423 0.0015683 10
7.76201 -12.5188 2.8632 0.00153457 10
7.76685 -12.5266 3.40279 0.00149486 10
7.76403 -12.5221 3.9479 0.00144955 10
5.37859 -8.60755 -2.71964 0.000619993 1
6.23725 -9.98169 -2.71736 0.000385791 1
7.4086 -11.8562 -2.71756 0.000218792 1
7.8307 -12.5317 -2.34047 0.00199775 10
7.83126 -12.5326 -1.81454 0.00203236 10
7.83763 -12.5428 -1.29398 0.000832056 10
7.82228 -12.5183 -0.773605 0.000839611 10
7.82316 -12.5197 -0.257688 0.000843602 10
7.8294 -12.5297 0.257893 0.00084399 10
7.82851 -12.5282 0.774221 0.00137103 10
7.83395 -12.5369 1.29337 0.00160448 10
7.82689 -12.5256 1.81352 0.0015838 10
7.81982 -12.5143 2.33722 0.00155658 10
7.81945 -12.5137 2.86826 0.00152309 10
7.83428 -12.5375 3.41314 0.00148367 10
7.82186 -12.5176 3.95506 0.00143869 10
5.41164 -8.59354 -2.72117 0.000620045 1
6.2709 -9.95802 -2.71686 0.00038583 1
7.44608 -11.8242 -2.71615 0.000218818 1
7.89019 -12.5294 -2.34517 0.00198271 10
7.89003 -12.5292 -1.81801 0.00201707 10
7.87969 -12.5127 -1.2937 0.00134952 10
7.87987 -12.513 -0.774977 0.00136104 10
7.88278 -12.5176 -0.258211 0.00136677 10
7.89187 -12.5321 0.258508 0.00136667 10
7.88527 -12.5216 0.775508 0.00136072 10
7.88389 -12.5194 1.29439 0.00159241 10
7.88844 -12.5266 1.81764 0.00157188 10
7.88609 -12.5229 2.34395 0.00154486 10
7.88089 -12.5146 2.87476 0.00151161 10
7.88806 -12.526 3.4175 0.00147247 10
7.88821 -12.5263 3.96647 0.00142781 10
5.43142 -8.55855 -2.71607 0.000620098 1
6.3028 -9.93162 -2.71565 0.000385868 1
7.48772 -11.7988 -2.7163 0.000218845 1
7.94619 -12.5212 -2.34881 0.00196765 10
7.94772 -12.5236 -1.82122 0.00200176 10
15.0009 -23.6376 -2.44931 0.000223771 10
14.9991 -23.6348 -1.46702 0.000226069 10
14.9973 -23.6319 -0.488551 0.000227283 10
14.9983 -23.6336 0.488585 0.0002274 10
10.8973 -17.1714 1.06584 5.53566e-05 10
7.94406 -12.5178 1.29709 0.00158033 10
7.95282 -12.5317 1.82239 0.00155995 10
7.94618 -12.5212 2.3488 0.00153312 10
7.95271 -12.5315 2.88498 0.00150012 10
7.94536 -12.5199 3.42336 0.00146127 10
7.9413 -12.5135 3.97118 0.00141694 10
5.47209 -8.55647 -2.72146 0.000620151 1
6.34373 -9.91942 -2.71835 0.000385907 1
7.52816 -11.7715 -2.71605 0.000218872 1
8.00079 -12.5105 -2.35202 0.00195259 10
8.01455 -12.532 -1.8265 0.00198645 10
8.10317 -12.6706 -1.31584 0.000809765 10
8.10062 -12.6666 -0.787971 0.000817131 10
8.09234 -12.6536 -0.262175 0.000821019 10
8.10057 -12.6665 0.262442 0.000821392 10
8.09511 -12.658 0.787435 0.000818245 10
8.00305 -12.514 1.29958 0.00156825 10
8.00291 -12.5138 1.82384 0.00154802 10
8.01053 -12.5257 2.35489 0.00152139 10
8.01711 -12.536 2.89245 0.00148863 10
8.01448 -12.5319 3.43428 0.00145006 10
8.0039 -12.5154 3.98061 0.00140605 10
5.49522 -8.52691 -2.71814 0.000620204 1
6.3737 -9.89005 -2.71638 0.000385946 1
7.57852 -11.7596 -2.71939 0.000218898 1
8.07116 -12.524 -2.35984 0.00193753 10
8.06667 -12.517 -1.82841 0.00197114 10
8.10443 -12.5756 -1.30891 0.000825726 10
8.10336 -12.574 -0.783963 0.000833228 10
8.09637 -12.5631 -0.260884 0.000837188 10
8.09854 -12.5665 0.260953 0.000837565 10
8.09665 -12.5635 0.783314 0.000834357 10
8.06361 -12.5123 1.30231 0.00155617 10
8.07239 -12.5259 1.8297 0.00153608 10
8.07033 -12.5227 2.3596 0.00150965 10
8.07664 -12.5325 2.89813 0.00147713 10
8.07023 -12.5225 3.43941 0.00143885 10
8.06415 -12.5131 3.98883 0.00139517 10
5.52037 -8.50062 -2.71589 0.000620256 1
6.4135 -9.87593 -2.71863 0.000385985 1
7.61615 -11.7278 -2.71819 0.000218925 1
8.13533 -12.5273 -2.3658 0.00192246 10
8.13327 -12.5241 -1.83358 0.00195582 10
8.1378 -12.5311 -1.30722 0.00130856 10
8.12292 -12.5082 -0.781626 0.00131975 10
8.12647 -12.5137 -0.260444 0.00132531 10
8.12834 -12.5165 0.260504 0.00132521 10
8.13319 -12.524 0.782615 0.00131944 10
8.12399 -12.5098 1.305 0.00154408 10
8.13514 -12.527 1.834 0.00152414 10
8.13483 -12.5265 2.36566 0.0014979 10
8.12821 -12.5163 2.90094 0.00146563 10
8.12803 -12.5161 3.44541 0.00142763 10
8.12566 -12.5124 3.99763 0.00138427 10
5.55703 -8.49203 -2.71932 0.000620309 1
6.44878 -9.85477 -2.71899 0.000386023 1
7.65817 -11.7029 -2.71859 0.000218952 1
8.18759 -12.512 -2.36829 0.00190739 10
8.18893 -12.514 -1.83627 0.0019405 10
15.0028 -22.9267 -2.39713 0.000244242 10
14.9998 -22.9221 -1.43564 0.000246734 10
14.9959 -22.9161 -0.478034 0.000248049 10
14.9973 -22.9182 0.478078 0.000248173 10
11.1358 -17.0173 1.06582 5.52492e-05 10
8.19851 -12.5286 1.30994 0.00153198 10
8.20066 -12.5319 1.8389 0.0015122 10
8.18832 -12.5131 2.3685 0.00148616 10
8.19131 -12.5176 2.90785 0.00145413 10
8.1902 -12.5159 3.45322 0.00141641 10
8.20245 -12.5347 4.01386 0.00137338 10
5.59131 -8.47967 -2.7216 0.000620361 1
6.48668 -9.83757 -2.72047 0.000386062 1
7.69171 -11.6651 -2.71602 0.000218978 1
8.24869 -12.5098 -2.37331 0.00189232 10
8.24685 -12.507 -1.83946 0.00192517 10
8.36608 -12.6878 -1.32963 0.00080438 10
8.36306 -12.6832 -0.796194 0.000811701 10
8.37075 -12.6949 -0.265426 0.000815562 10
8.37485 -12.7011 0.265556 0.000815925 10
8.36046 -12.6793 0.795947 0.000812786 10
8.26383 -12.5328 1.31338 0.00151989 10
8.26283 -12.5312 1.84302 0.00150025 10
8.25494 -12.5193 2.37511 0.00147441 10
8.25717 -12.5227 2.91569 0.00144262 10
8.26148 -12.5292 3.46481 0.00140519 10
8.25324 -12.5167 4.01731 0.00136249 10
5.61876 -8.45692 -2.72057 0.000620414 1
6.51342 -9.80349 -2.71732 0.0003861 1
7.73992 -11.6495 -2.71867 0.000219005 1
8.3234 -12.5277 -2.38221 0.00187724 10
8.31481 -12.5148 -1.84486 0.00190985 10
8.36845 -12.5955 -1.32301 0.000819776 10
8.36871 -12.5959 -0.792541 0.00082723 10
8.3612 -12.5846 -0.263729 0.000831159 10
8.37352 -12.6032 0.264117 0.000831526 10
8.37311 -12.6025 0.792958 0.000828328 10
8.31692 -12.518 1.31487 0.0015078 10
8.31308 -12.5122 1.84448 0.00148831 10
8.32071 -12.5237 2.38144 0.00146266 10
8.32258 -12.5265 2.92333 0.00143111 10
8.32619 -12.5319 3.47358 0.00139397 10
8.32252 -12.5264 4.02972 0.0013516 10
5.65122 -8.44169 -2.722 0.000620466 1
6.54631 -9.77876 -2.71678 0.000386139 1
7.78294 -11.626 -2.71951 0.000219031 1
8.37348 -12.5082 -2.38404 0.00186217 10
8.38352 -12.5232 -1.8504 0.00189452 10
8.38367 -12.5234 -1.3185 0.00126757 10
8.37909 -12.5165 -0.789382 0.00127842 10
8.37635 -12.5125 -0.262828 0.00128382 10
8.37852 -12.5157 0.262895 0.00128372 10
8.37379 -12.5086 0.788882 0.00127812 10
8.38416 -12.5241 1.31858 0.0014957 10
8.37512 -12.5106 1.84854 0.00147637 10
8.37769 -12.5144 2.38524 0.00145092 10
8.37441 -12.5095 2.92618 0.00141961 10
8.3878 -12.5295 3.48102 0.00138275 10
8.38162 -12.5203 4.03715 0.00134071 10
5.66891 -8.40451 -2.71638 0.000620519 1
