VERSION 0.7
FIELDS x y z intensity label
SIZE 4 4 4 4 4
TYPE F F F F F
COUNT 1 1 1 1 1
WIDTH 1146
HEIGHT 1
VIEWPOINT 9.56176 4.06916 2.73133 -0.538061 -0.000421564 0.00070267 0.842905
POINTS 1146
DATA ascii
-23.3742 -1.47058 -2.04902 0.000258166 10
-23.7294 -1.49293 -1.24607 0.000422922 10
-23.7195 -1.49231 -0.414845 0.000424943 10
-23.7269 -1.49277 0.414974 0.000424988 10
-22.7759 -1.43294 1.196 0.000561084 10
-22.762 -1.43206 1.99535 0.000555972 10
-22.7633 -1.43215 2.80051 0.000548342 10
-22.7738 -1.43281 3.61415 0.000538275 10
-22.7731 -1.43276 4.43539 0.000525877 10
-22.7484 -1.43121 5.26226 0.000511281 10
-22.7548 -1.43161 6.10918 0.000494639 10
-10.0207 -0.665574 -2.69095 0.000311813 4
-11.1414 -0.740008 -2.57785 0.000326384 4
-13.047 -0.866583 -2.54168 0.000117609 4
-17.191 -1.14182 -2.72878 0.000106896 1
-22.1753 -1.47288 -2.72878 4.26244e-05 1
-23.583 -1.56638 -2.06779 0.000249447 10
-23.6934 -1.57371 -1.24446 0.000425117 10
-23.6896 -1.57346 -0.414415 0.000427148 10
-23.6867 -1.57327 0.414363 0.000427193 10
-22.7379 -1.51025 1.19427 0.000563971 10
-22.7133 -1.50862 1.99154 0.000558834 10
-22.7123 -1.50855 2.79486 0.000551166 10
-22.7386 -1.5103 3.60938 0.00054105 10
-22.7303 -1.50974 4.42806 0.000528592 10
-22.725 -1.50939 5.25803 0.000513925 10
-22.7224 -1.50922 6.10185 0.000497201 10
-10.0357 -0.701765 -2.69563 0.000538975 4
-11.1345 -0.778597 -2.57687 0.000363564 4
-13.0308 -0.911202 -2.53911 0.000225832 4
-17.1895 -1.202 -2.72919 0.00010691 1
-22.16 -1.54958 -2.72755 4.26319e-05 1
-23.7984 -1.66414 -2.08717 0.000240919 10
-23.936 -1.67377 -1.2575 0.000412908 10
-23.9422 -1.6742 -0.418934 0.000414886 10
-23.9373 -1.67386 0.418847 0.000414929 10
-22.7907 -1.59368 1.19732 0.000213636 10
-22.789 -1.59356 1.99865 0.000211551 10
-22.8093 -1.59498 2.80747 0.00020851 10
-22.8037 -1.59459 3.62057 0.000204544 10
-22.8214 -1.59583 4.44686 0.000199697 10
-22.8142 -1.59532 5.27994 0.000194019 10
-22.8229 -1.59593 6.1303 0.000187569 10
-10.0289 -0.736477 -2.69447 0.00041196 4
-11.1494 -0.818761 -2.58097 0.000403404 4
-13.027 -0.956646 -2.53902 0.00021017 4
-17.1721 -1.26104 -2.72712 0.000106923 1
-22.1381 -1.62572 -2.72553 4.26393e-05 1
-24.0146 -1.76352 -2.10666 0.000232581 10
-24.1806 -1.77572 -1.27067 0.000401155 10
-24.1859 -1.7761 -0.423304 0.000403081 10
-24.1836 -1.77593 0.423263 0.000403123 10
-24.0262 -1.76437 1.26255 0.000182646 10
-23.0155 -1.69016 2.01902 0.00020429 10
-23.9953 -1.76211 2.95419 0.000473391 10
-23.6266 -1.73503 3.75216 8.20816e-05 10
-24.0317 -1.76478 4.68387 0.000170594 10
-24.0264 -1.76439 5.56188 0.000165688 10
-23.9829 -1.7612 6.44351 0.000426514 10
-10.0252 -0.771395 -2.69418 0.000569854 4
-11.1821 -0.860413 -2.58922 0.000601958 4
-13.0162 -1.00154 -2.53757 0.000186662 4
-17.1594 -1.32034 -2.72581 0.000106937 1
-22.143 -1.70381 -2.72686 4.26468e-05 1
-24.2043 -1.86241 -2.12386 0.000224433 10
-24.2266 -1.86413 -1.27342 0.000149557 10
-24.2237 -1.86391 -0.424077 0.000150175 10
-24.2375 -1.86497 0.424317 0.00015009 10
-24.2423 -1.86534 1.27424 0.000176246 10
-23.223 -1.78691 2.03776 0.000197192 10
-23.9459 -1.84253 2.94888 0.000475781 10
-23.6367 -1.81874 3.75476 8.20703e-05 10
-24.2544 -1.86627 4.72852 0.00016459 10
-24.2531 -1.86617 5.61582 0.000159846 10
-23.9485 -1.84273 6.43595 0.00042868 10
-10.002 -0.804737 -2.68868 0.000265694 4
-11.2487 -0.905046 -2.60536 0.000607495 4
-13.0302 -1.04838 -2.541 0.000181975 4
-17.1546 -1.38023 -2.72581 0.000106951 1
-22.1356 -1.78098 -2.72669 4.26542e-05 1
-24.4361 -1.96608 -2.14479 0.000216471 10
-24.4518 -1.96734 -1.28561 0.000144253 10
-24.455 -1.9676 -0.428243 0.000144849 10
-24.4649 -1.9684 0.428417 0.000144767 10
-24.4452 -1.96681 1.28526 0.000169992 10
-23.4134 -1.88379 2.05503 0.000190254 10
-23.908 -1.92359 2.94502 0.000478157 10
-23.6233 -1.90068 3.75365 8.2059e-05 10
-24.4719 -1.96896 4.77222 0.000158724 10
-24.4656 -1.96845 5.66659 0.000154138 10
-23.9082 -1.92361 6.4269 0.000430834 10
-10.0052 -0.840158 -2.69032 0.000496768 4
-11.3283 -0.951259 -2.62454 0.000616955 4
-13.0303 -1.09418 -2.54175 0.000213372 4
-17.154 -1.44046 -2.72649 0.000106965 1
-22.118 -1.8573 -2.72531 4.26617e-05 1
-24.6556 -2.07039 -2.16468 0.000208694 10
-24.6838 -2.07275 -1.29818 0.000139072 10
-24.6739 -2.07192 -0.432201 0.000139648 10
-24.6914 -2.07339 0.432506 0.000139567 10
-24.6885 -2.07315 1.29842 0.000163884 10
-23.6538 -1.98626 2.07673 0.000183476 10
-23.8734 -2.0047 2.94161 0.000480518 10
-23.646 -1.9856 3.75833 0.000177344 10
-24.6908 -2.07334 4.8163 0.000152995 10
-24.6958 -2.07376 5.72154 0.000148565 10
-23.8895 -2.00606 6.4237 0.000432974 10
-10.0005 -0.874928 -2.68986 0.000458292 4
-11.3818 -0.995781 -2.63774 0.000656861 4
-13.0025 -1.13757 -2.53709 0.000225946 4
-17.1507 -1.50049 -2.72678 0.000106979 1
-22.1126 -1.9346 -2.72546 4.26691e-05 1
-24.9105 -2.17938 -2.18771 0.000201101 10
-24.9034 -2.17877 -1.31012 0.000134014 10
-24.8968 -2.17818 -0.436235 0.000134569 10
-24.9183 -2.18007 0.436612 0.000134491 10
-24.9098 -2.17933 1.31046 0.00015792 10
-23.8572 -2.08724 2.09521 0.000176856 10
-23.8572 -2.08723 2.94049 0.000174284 10
-23.8694 -2.0883 3.79498 0.000170931 10
-24.914 -2.17969 4.86129 0.000147402 10
-24.9288 -2.18098 5.77724 0.000143123 10
-23.8918 -2.09026 6.42624 0.000156594 10
-10.0111 -0.911085 -2.69356 0.000238791 4
-11.4545 -1.04244 -2.65541 0.000602819 4
-13.0058 -1.18362 -2.53852 0.000186738 4
-15.9661 -1.45303 -2.53924 0.000110268 4
-22.1033 -2.01156 -2.72516 4.26766e-05 1
-25.1178 -2.2859 -2.2066 0.000193689 10
-25.1358 -2.28754 -1.32276 0.000360031 10
-25.1314 -2.28713 -0.440483 0.000361774 10
-25.1391 -2.28783 0.440617 0.000361813 10
-25.1371 -2.28765 1.32282 0.000152098 10
-25.1424 -2.28813 2.20876 0.000150576 10
-25.162 -2.28992 3.10228 0.000148359 10
-25.1502 -2.28884 3.99986 0.000145471 10
-25.172 -2.29083 4.91316 0.000141943 10
-25.1766 -2.29125 5.8365 0.000137814 10
-25.1661 -2.29029 6.77111 0.000133127 10
-10.0036 -0.945621 -2.69241 0.000335101 4
-11.5445 -1.09128 -2.67714 0.000559299 4
-13.0084 -1.22965 -2.53985 0.000167924 4
-15.9424 -1.507 -2.53628 0.000111846 4
-22.1204 -2.09099 -2.72815 4.2684e-05 1
-25.3552 -2.39677 -2.22818 0.000186457 10
-25.3778 -2.39891 -1.33593 0.000350191 10
-25.3871 -2.39978 -0.445109 0.00035189 10
-25.3932 -2.40036 0.445216 0.000351927 10
-25.3962 -2.40065 1.33689 0.000146419 10
-25.3874 -2.39982 4.0389 0.000140022 10
-25.396 -2.40063 4.95848 0.000136618 10
-9.57258 -0.9386 -2.57727 0.000532338 4
-11.5411 -1.13161 -2.67724 5.57435e-05 4
-12.9941 -1.27408 -2.5379 0.000202471 4
-15.9624 -1.56513 -2.54032 0.000115772 4
-22.0993 -2.16686 -2.72647 4.26915e-05 1
-25.6277 -2.51282 -2.25289 0.000179404 10
-25.6337 -2.51341 -1.34985 0.000340695 10
-25.6431 -2.51433 -0.449749 0.000342352 10
-25.6449 -2.5145 0.44978 0.000342388 10
-25.6245 -2.5125 1.34936 0.000140879 10
-25.8466 -2.53428 2.27213 8.70116e-05 10
-25.8459 -2.53421 3.1887 8.57214e-05 10
-25.6411 -2.51413 4.08063 0.000134708 10
-25.6388 -2.51391 5.00758 0.000131425 10
-25.8592 -2.53551 5.99869 7.95875e-05 10
-9.5794 -0.97304 -2.58 0.000494045 4
-11.5034 -1.16847 -2.66943 6.57281e-05 4
-12.998 -1.32029 -2.53956 0.000197783 4
-15.933 -1.61842 -2.53653 0.000124392 4
-22.081 -2.24291 -2.72516 4.26989e-05 1
-8.16218 -0.829084 -0.717772 0.00614106 8
-8.18619 -0.831523 -0.431228 0.00672814 8
-25.889 -2.62971 -0.45422 0.000333144 10
-25.8734 -2.62812 0.453945 0.000333179 10
-25.8881 -2.62962 1.36372 0.000135478 10
-25.9017 -2.63099 4.12353 0.000129528 10
-25.8899 -2.6298 5.05838 0.000126363 10
-9.57508 -1.00638 -2.57977 0.00061334 4
-11.4793 -1.20653 -2.66481 0.000137378 4
-12.9741 -1.36364 -2.53581 0.000204082 4
-15.9252 -1.6738 -2.5362 9.23281e-05 4
-22.0769 -2.32037 -2.72563 4.27063e-05 1
-8.25275 -0.867399 -0.725999 0.00621711 8
-8.26576 -0.868767 -0.435576 0.00679307 8
-26.1378 -2.74719 -0.45875 0.000110974 10
-26.1287 -2.74624 0.45859 0.000110905 10
-26.1324 -2.74663 1.37708 0.000130214 10
-26.2874 -2.76292 2.31252 0.000236758 10
-26.2755 -2.76167 3.244 0.000233401 10
-26.1554 -2.74904 4.16542 0.00012448 10
-26.1497 -2.74844 5.11098 0.00012143 10
-26.2898 -2.76318 6.10292 0.000217116 10
-26.2684 -2.76092 7.07735 0.000209813 10
-9.57092 -1.03973 -2.57961 0.000621903 4
-11.468 -1.24582 -2.66317 0.000115913 4
-12.9849 -1.41061 -2.53886 0.000197822 4
-15.9271 -1.73023 -2.53745 0.000100948 4
-22.0681 -2.39736 -2.72557 4.27138e-05 1
-8.33452 -0.905417 -0.733466 0.00635333 8
-8.3453 -0.906588 -0.439932 0.00691872 8
-8.35141 -0.907252 -0.146632 0.00174062 8
-26.3958 -2.8675 0.463451 0.00010654 10
-26.3919 -2.86708 1.39128 0.000125086 10
-26.3947 -2.86738 2.32283 0.000123816 10
-26.3978 -2.86771 3.26031 0.000121968 10
-26.4137 -2.86944 4.20813 0.000119562 10
-26.4055 -2.86855 5.16291 0.000116626 10
-26.4159 -2.86968 6.13448 0.000113189 10
-26.4126 -2.86932 7.11887 0.000109291 10
-9.56475 -1.07286 -2.57894 0.000430251 4
-11.4659 -1.28611 -2.66372 0.000179332 4
-12.9837 -1.45635 -2.5396 0.000199413 4
-15.9353 -1.78743 -2.53974 0.000100178 4
-22.0636 -2.47483 -2.72606 4.27212e-05 1
-8.4298 -0.945553 -0.742137 0.00641168 8
-8.42621 -0.94515 -0.444368 0.00696601 8
-8.42259 -0.944744 -0.147939 0.00662009 8
-26.6424 -2.98842 0.467961 0.000102289 10
-26.6466 -2.98889 1.40525 0.000120092 10
-26.668 -2.99129 2.34778 0.000118869 10
-26.6686 -2.99136 3.29503 0.00011709 10
-26.6652 -2.99098 4.24984 0.000114774 10
-26.6834 -2.99302 5.21925 0.000111947 10
-26.6733 -2.99188 6.19662 0.00010864 10
-26.6851 -2.99321 7.1951 0.000104889 10
-9.58607 -1.10915 -2.58572 0.00057365 4
-11.4356 -1.32314 -2.65772 0.000157812 4
-12.9836 -1.50225 -2.54059 0.000205714 4
-15.9155 -1.84148 -2.53758 0.000112715 4
-22.0639 -2.55288 -2.72718 4.27286e-05 1
-8.49068 -0.982405 -0.747795 0.0064948 8
-8.51161 -0.984826 -0.449051 0.00667656 8
-8.50149 -0.983654 -0.149384 0.00623897 8
-26.9268 -3.11553 0.473144 9.81503e-05 10
-26.9407 -3.11714 1.42132 0.000115231 10
-26.9286 -3.11574 2.37167 0.000114054 10
-26.9473 -3.1179 3.33078 0.000112342 10
-26.9277 -3.11563 4.29338 0.000110114 10
-26.9582 -3.11917 5.27511 0.000107394 10
-26.9516 -3.1184 6.26377 0.000104213 10
-26.9574 -3.11907 7.2714 0.000100604 10
-8.51547 -1.01541 -2.29788 0.00156442 8
-8.53051 -1.0172 -1.98338 0.00160993 8
-8.50803 -1.01452 -1.66551 0.00164971 8
-8.51886 -1.01581 -1.35881 0.00168341 8
-8.52893 -1.01701 -1.05464 0.00171071 8
-8.53288 -1.01748 -0.751819 0.00173136 8
-8.51527 -1.01538 -0.449428 0.00174518 8
-8.57976 -1.02307 -0.150821 0.00583753 8
-27.1884 -3.24202 0.477938 0.000142498 10
-27.2115 -3.24477 1.4362 0.000110502 10
-27.2173 -3.24546 2.39807 0.000109369 10
-27.2194 -3.24571 3.3658 0.000107722 10
-27.2244 -3.24631 4.34246 0.000105579 10
-27.2168 -3.2454 5.32789 0.000102964 10
-27.2155 -3.24525 6.32771 9.99056e-05 10
-27.2386 -3.248 7.35027 9.64368e-05 10
-8.56847 -1.05208 -2.31316 0.00473237 8
-11.4074 -1.40065 -2.65338 0.000251174 4
-12.9468 -1.58967 -2.53551 0.000197902 4
-15.9021 -1.95253 -2.53756 0.00011196 4
-22.0457 -2.70687 -2.7272 4.27435e-05 1
-8.67962 -1.06572 -0.765072 0.0063532 8
-8.67802 -1.06553 -0.458211 0.0059002 8
-8.67252 -1.06485 -0.152516 0.0054494 8
-27.481 -3.37424 0.483285 0.000136569 10
-27.4903 -3.37539 1.45153 0.000105901 10
-27.4739 -3.37337 2.42171 0.000325077 10
-27.4877 -3.37506 3.40041 0.000320416 10
-27.4914 -3.37552 4.38691 0.00010117 10
-27.4922 -3.37561 5.38407 9.86569e-05 10
-27.4688 -3.37274 6.38929 0.000297814 10
-27.4877 -3.37506 7.42062 0.000287683 10
-9.8091 -1.23918 -2.64923 0.000755322 4
-11.3872 -1.43853 -2.64983 0.000325692 4
-12.9568 -1.63683 -2.53857 0.000210488 4
-15.8919 -2.00761 -2.53703 0.000114324 4
-22.015 -2.78114 -2.72458 4.27509e-05 1
-8.7818 -1.1094 -0.774414 0.00599004 8
-8.76634 -1.10745 -0.463076 0.00554613 8
-37.1253 -4.69002 -0.653176 0.000109275 10
-37.1218 -4.68957 0.653112 0.000109287 10
-27.7704 -3.50822 1.46695 0.00010143 10
-27.4539 -3.46823 2.42099 0.000326523 10
-27.4433 -3.46689 3.39639 0.000321843 10
-27.8007 -3.51204 4.43819 9.68841e-05 10
-27.8088 -3.51306 5.44844 9.44704e-05 10
-27.4493 -3.46766 6.38755 0.000299146 10
-27.4453 -3.46715 7.41239 0.000288973 10
-9.89765 -1.28548 -2.67434 0.000663949 4
-11.3812 -1.47816 -2.64962 0.000534577 4
-12.96 -1.68322 -2.54034 0.000340636 4
-15.8886 -2.06357 -2.53765 6.42173e-05 4
-22.0088 -2.85844 -2.72504 4.27583e-05 1
-8.85237 -1.14972 -0.780987 0.00563851 8
-8.85031 -1.14946 -0.467721 0.00520367 8
-28.0698 -3.64563 1.48343 9.70845e-05 10
-27.4004 -3.55869 2.41736 0.000327958 10
-27.4062 -3.55945 3.39333 0.000323259 10
-28.1 -3.64956 4.48799 9.27199e-05 10
-28.0939 -3.64875 5.50676 9.0403e-05 10
-27.3813 -3.55621 6.37457 0.000300468 10
-27.3929 -3.55772 7.40156 0.000290253 10
-9.97118 -1.33044 -2.69545 0.00078673 4
-11.3757 -1.51784 -2.64956 0.000201416 4
-13.0758 -1.74469 -2.5642 0.00105336 4
-15.8812 -2.119 -2.53762 0.000104954 4
-21.9943 -2.93467 -2.7245 4.27657e-05 1
-28.3587 -3.78385 -2.50305 0.000118271 10
-8.95716 -1.19514 -0.473585 0.00481433 8
-28.7901 -3.84142 -0.506987 0.00024306 10
-28.7921 -3.84169 0.507022 0.000243086 10
-28.2395 -3.76796 1.49309 0.000302925 10
-27.3402 -3.64796 2.41315 0.000329382 10
-27.3658 -3.65138 3.38988 0.000324663 10
-28.2367 -3.76758 4.51189 0.00028998 10
-28.2162 -3.76484 5.53328 0.000282954 10
-27.3388 -3.64778 6.3676 0.000301779 10
-27.3617 -3.65084 7.39653 0.000291522 10
-10.0768 -1.38034 -2.72528 0.000652105 4
-11.3882 -1.55999 -2.65373 0.00049239 4
-13.1635 -1.80317 -2.58262 0.000873487 4
-15.8689 -2.17376 -2.53686 0.000119851 4
-21.9987 -3.01344 -2.72633 4.27731e-05 1
-28.6691 -3.92717 -2.53165 0.000113055 10
-28.747 -3.93785 -1.52064 0.000242899 10
-28.75 -3.93826 -0.50652 0.000244114 10
-28.7369 -3.93645 0.506288 0.00024414 10
-28.1821 -3.86046 1.49075 0.000304232 10
-28.1882 -3.8613 2.48918 0.000301317 10
-28.1823 -3.86048 3.49266 0.000296968 10
-28.17 -3.8588 4.50335 0.000291235 10
-28.1866 -3.86107 5.53008 0.000284181 10
-28.1823 -3.86049 6.56715 0.000275884 10
-27.4984 -3.7668 7.43697 8.80791e-05 10
-10.0898 -1.41802 -2.73012 0.000614977 1
-11.3573 -1.59616 -2.64781 0.000248703 4
-13.2503 -1.8622 -2.6009 0.000308672 4
-15.8478 -2.22727 -2.53472 0.000111248 4
-21.9757 -3.08848 -2.72479 4.27805e-05 1
-28.9898 -4.07425 -2.56121 0.000107994 10
-28.9826 -4.07324 -1.53384 7.19845e-05 10
-29.0011 -4.07584 -0.511192 7.22865e-05 10
-28.9787 -4.07268 0.510795 7.22354e-05 10
-28.1498 -3.9562 1.48977 0.000305529 10
-28.1249 -3.9527 2.48479 0.000302602 10
-28.153 -3.95664 3.49072 0.000298236 10
-28.148 -3.95594 4.50202 0.000292479 10
-28.1359 -3.95424 5.52281 0.000285397 10
-28.1396 -3.95475 6.56037 0.000277067 10
-28.1402 -3.95485 7.61426 0.000267582 10
-10.0749 -1.45182 -2.72745 0.00061502 1
-11.363 -1.63743 -2.65045 0.00042283 4
-13.3655 -1.926 -2.62483 0.000821274 4
-15.8432 -2.28304 -2.53524 8.38383e-05 4
-21.9717 -3.16616 -2.72565 4.27879e-05 1
-29.2952 -4.2215 -2.58947 0.000103086 10
-29.2982 -4.22194 -1.55132 6.87142e-05 10
-29.489 -4.24942 -0.520049 0.000225706 10
-29.4774 -4.24776 0.519845 0.00022573 10
-28.0875 -4.04747 1.48721 0.000306815 10
-28.085 -4.0471 2.4825 0.000303876 10
-28.0812 -4.04657 3.48356 0.000299493 10
-28.1011 -4.04942 4.49675 0.000293713 10
-28.0915 -4.04805 5.51684 8.5814e-05 10
-28.1032 -4.04973 6.55515 8.32383e-05 10
-28.1161 -4.05158 7.6115 8.03188e-05 10
-10.0652 -1.48629 -2.7262 0.000615064 1
-11.0411 -1.6304 -2.57668 0.000348279 4
-13.4634 -1.98811 -2.64541 0.000931311 4
-15.8547 -2.34122 -2.53837 9.09016e-05 4
-21.9532 -3.24176 -2.72474 4.27953e-05 1
-29.6315 -4.3756 -2.62054 9.83285e-05 10
-29.7207 -4.38877 -1.57449 0.00021916 10
-29.7115 -4.38741 -0.52424 0.000220266 10
-29.7135 -4.3877 0.524275 0.00022029 10
-28.4609 -4.20274 1.50775 6.3094e-05 10
-31.5796 -4.66327 2.79282 0.00021267 10
-31.592 -4.6651 3.92108 0.000209508 10
-28.4006 -4.19383 4.54699 8.39841e-05 10
-28.489 -4.20688 5.59775 5.87246e-05 10
-31.5703 -4.66189 7.3676 0.000194195 10
-28.4204 -4.19676 7.6978 7.66154e-05 10
-10.0763 -1.5239 -2.73064 0.000615107 1
-11.0497 -1.67112 -2.58004 0.000337673 4
-13.4905 -2.04025 -2.65211 9.32155e-05 4
-15.8288 -2.39388 -2.53554 0.000104237 4
-21.9513 -3.31982 -2.72593 4.28027e-05 1
-29.9807 -4.53415 -2.6528 9.37201e-05 10
-29.9823 -4.5344 -1.58918 6.24737e-05 10
-29.9801 -4.53406 -0.529255 6.27366e-05 10
-29.976 -4.53344 0.529183 6.26902e-05 10
-28.8124 -4.35746 1.52716 6.01657e-05 10
-31.5316 -4.76871 2.79003 0.000213569 10
-31.536 -4.76937 3.91616 0.000210395 10
-28.744 -4.34711 4.60437 8.00756e-05 10
-28.815 -4.35786 5.66477 5.59851e-05 10
-31.5354 -4.76927 7.3633 0.000195021 10
-28.76 -4.34953 7.79384 7.30276e-05 10
-10.0503 -1.55587 -2.72505 0.000615151 1
-11.0209 -1.70612 -2.57468 0.000374927 4
-13.4641 -2.08434 -2.64832 0.000105937 4
-15.8393 -2.45205 -2.53858 0.000102682 4
-21.9313 -3.39514 -2.7249 4.28101e-05 1
-30.2984 -4.69044 -2.68234 8.92581e-05 10
-31.4783 -4.87309 -1.66936 0.000277701 10
-31.4955 -4.87575 -0.556304 0.000279125 10
-31.4791 -4.87323 0.556015 0.000279155 10
-29.1316 -4.5098 1.54491 5.73294e-05 10
-31.4896 -4.87484 2.7878 0.000214461 10
-31.4824 -4.87373 3.9116 0.000211274 10
-29.0719 -4.50057 4.65938 7.15532e-05 10
-29.1525 -4.51305 5.73417 5.33322e-05 10
-31.4866 -4.87438 7.35584 0.00019584 10
-29.0814 -4.50204 7.88516 6.95538e-05 10
-10.0473 -1.59133 -2.72572 0.000615194 1
-11.026 -1.74635 -2.57729 0.000289861 4
-13.4624 -2.13223 -2.64944 0.00025145 4
-15.8286 -2.50701 -2.53826 0.000103479 4
-21.9 -3.46862 -2.7225 4.28175e-05 1
-30.6584 -4.85581 -2.7157 8.49407e-05 10
-31.4374 -4.97919 -0.555582 0.000280273 10
-31.4448 -4.98036 0.555712 0.000280304 10
-29.4677 -4.66722 1.56359 5.45838e-05 10
-31.4446 -4.98034 2.78534 0.000215344 10
-31.426 -4.97739 3.90673 0.000212145 10
-29.3961 -4.65588 4.71391 6.8117e-05 10
-31.4273 -4.97759 6.18499 0.000202745 10
-31.421 -4.9766 7.34453 0.000196651 10
-29.4157 -4.65898 7.98015 6.61923e-05 10
-10.0474 -1.62733 -2.72728 0.000615237 1
-11.0699 -1.79293 -2.58899 0.000508449 4
-13.4416 -2.17706 -2.64682 8.33542e-05 4
-15.7989 -2.55886 -2.53491 0.000100356 4
-21.9101 -3.54866 -2.72528 4.28249e-05 1
-31.028 -5.02544 -1.6473 8.15131e-05 10
-31.389 -5.0839 -0.555036 0.000281411 10
-31.3796 -5.08239 0.554871 0.000281442 10
-29.7457 -4.81775 1.57922 6.79085e-05 10
-31.383 -5.08294 2.78143 0.000216219 10
-30.2096 -4.8929 3.75762 3.04756e-05 10
-29.7568 -4.81955 4.77443 6.47929e-05 10
-31.3939 -5.0847 6.18187 0.000203572 10
-31.3887 -5.08386 7.34108 0.000197455 10
-29.7836 -4.82389 8.08449 6.29414e-05 10
-10.0428 -1.66257 -2.72758 0.000615281 1
-11.1749 -1.84998 -2.61503 0.000535674 4
-13.4427 -2.22542 -2.64856 0.000219003 4
-15.7901 -2.61402 -2.53494 0.000106642 4
-21.8844 -3.62294 -2.72365 4.28322e-05 1
-31.4223 -5.20192 -1.66919 7.74425e-05 10
-31.4196 -5.20148 -0.555897 7.77697e-05 10
-31.4306 -5.2033 0.55609 7.77085e-05 10
-30.1843 -4.99697 1.60342 4.93595e-05 10
-31.3515 -5.19021 2.78024 0.000217086 10
-30.1902 -4.99794 3.75734 3.04699e-05 10
-30.1007 -4.98313 4.83237 6.15796e-05 10
-31.3268 -5.18611 6.17219 0.000204391 10
-31.3454 -5.18918 7.33514 0.000198251 10
-30.1201 -4.98635 8.18051 5.97996e-05 10
-10.0286 -1.69621 -2.72532 0.000615324 1
-11.2322 -1.89979 -2.62999 0.000911077 4
-13.4325 -2.27193 -2.64809 0.000111632 4
-15.7966 -2.67179 -2.53747 0.000102734 4
-21.8784 -3.70044 -2.72448 4.28396e-05 1
-31.7793 -5.37506 -1.68914 7.35105e-05 10
-31.8003 -5.37861 -0.562959 7.38214e-05 10
-31.808 -5.37991 0.563095 7.37624e-05 10
-30.5535 -5.16773 1.62398 4.68778e-05 10
-31.2997 -5.29394 2.77726 0.000217944 10
-30.4821 -5.15565 3.79588 6.36587e-05 10
-30.5586 -5.16859 4.90874 4.47089e-05 10
-31.2721 -5.28928 6.16502 0.000205202 10
-31.283 -5.29112 7.32483 0.00019904 10
-30.504 -5.15935 8.2896 5.32398e-05 10
-10.0181 -1.73042 -2.72409 0.000615367 1
-11.3294 -1.95693 -2.65433 0.00120836 4
-13.4225 -2.31847 -2.64771 0.00014556 4
-15.7821 -2.72603 -2.53665 0.000113727 4
-20.336 -3.51263 -2.53392 4.40498e-05 4
-32.1797 -5.5584 -1.71144 6.9715e-05 10
-30.9263 -5.3419 1.64478 4.44813e-05 10
-31.2302 -5.39439 2.77275 0.000218793 10
-30.837 -5.32647 3.84237 6.03999e-05 10
-30.9305 -5.34262 4.97146 4.24151e-05 10
-31.2421 -5.39645 6.16278 0.000206005 10
-31.225 -5.39349 7.31561 0.00019982 10
-30.8738 -5.33283 8.39512 5.04922e-05 10
-10.0366 -1.76972 -2.73079 0.000615411 1
-11.4447 -2.01802 -2.68299 0.00136693 4
-13.4173 -2.36584 -2.6483 0.000255816 4
-15.7596 -2.77883 -2.53457 0.000113742 4
-20.3322 -3.58512 -2.535 3.61333e-05 4
-32.5931 -5.74704 -1.73448 6.6054e-05 10
-31.2175 -5.50449 1.66128 5.88061e-05 10
-31.2218 -5.50524 2.77369 5.81724e-05 10
-31.2275 -5.50625 3.89341 5.72553e-05 10
-31.2292 -5.50654 5.02252 5.60653e-05 10
-31.2617 -5.51227 6.17039 5.46162e-05 10
-31.2559 -5.51126 7.32731 5.29244e-05 10
-31.2744 -5.51452 8.50922 5.10092e-05 10
-10.0129 -1.80161 -2.72604 0.000615454 1
-11.5437 -2.07704 -2.70787 0.00155752 4
-13.417 -2.4141 -2.64988 0.00036044 4
-15.7589 -2.83547 -2.53604 9.64965e-05 4
-20.3037 -3.65321 -2.53301 3.42373e-05 4
-32.9938 -5.93652 -1.7569 6.25251e-05 10
-32.6671 -5.87774 1.7395 0.000191742 10
-32.6572 -5.87596 2.90302 0.000189828 10
-33.037 -5.94429 4.12157 4.73257e-05 10
-32.6727 -5.87875 5.25795 0.000183217 10
-32.6542 -5.87541 6.44925 0.000178596 10
-33.0447 -5.94568 7.75149 4.36901e-05 10
-32.6651 -5.87737 8.89312 0.00016699 10
-9.99905 -1.83517 -2.72399 0.000615497 1
-11.6249 -2.13357 -2.72865 0.000382758 1
-13.413 -2.46174 -2.65076 0.000288381 4
-15.7606 -2.89261 -2.53793 0.000116124 4
-20.3122 -3.72799 -2.53568 3.17066e-05 4
-33.4123 -6.13229 -1.78031 5.91259e-05 10
-33.9261 -6.22659 -0.602073 0.000144592 10
-33.9462 -6.2303 0.60243 0.000144608 10
-32.6127 -5.98555 1.73771 0.000192467 10
-32.6224 -5.98733 2.90176 0.000190546 10
-33.4655 -6.14206 4.17768 4.47452e-05 10
-32.6324 -5.98916 5.25479 0.000183912 10
-32.6041 -5.98397 6.44346 0.000179274 10
-33.4778 -6.14433 7.85806 4.12939e-05 10
-32.6222 -5.98729 8.88709 0.000167628 10
-10.009 -1.87313 -2.72847 0.00061554 1
-11.6218 -2.17497 -2.7297 0.00038279 1
-13.3985 -2.50746 -2.64962 0.000229031 4
-15.7353 -2.94478 -2.53549 9.88749e-05 4
-20.2877 -3.79673 -2.53426 3.64687e-05 4
-33.855 -6.33579 -1.80507 5.58542e-05 10
-33.8739 -6.33933 -0.601536 0.000145136 10
-33.8824 -6.34092 0.601687 0.000145152 10
-32.5605 -6.09352 1.73605 0.000193184 10
-32.5736 -6.09597 2.89929 0.000191257 10
-33.8938 -6.34304 4.23388 4.22619e-05 10
-32.5603 -6.0935 5.24658 0.000184599 10
-32.5672 -6.09479 6.44033 0.000179945 10
-33.911 -6.34627 7.96489 3.89884e-05 10
-32.5728 -6.09583 8.87937 0.000168258 10
-10.0011 -1.90782 -2.72812 0.000615583 1
-11.6151 -2.21569 -2.7299 0.000382822 1
-12.8164 -2.44485 -2.53617 0.000209294 4
-15.839 -3.02145 -2.55388 0.000535618 4
-20.2776 -3.86816 -2.53467 3.07658e-05 4
-34.3136 -6.54567 -1.83073 5.27074e-05 10
-34.3609 -6.55469 -0.610587 0.00013838 10
-34.3624 -6.55497 0.610613 0.000138395 10
-34.3489 -6.55241 4.29357 3.98737e-05 10
-34.3589 -6.55431 8.07541 3.67719e-05 10
-9.99504 -1.94284 -2.72829 0.000615627 1
-11.5869 -2.25226 -2.72511 0.000382853 1
-12.8057 -2.48917 -2.53576 0.000203019 4
-15.9584 -3.10199 -2.57486 0.000539822 4
-20.2657 -3.93926 -2.53489 5.13907e-05 4
-34.761 -6.75686 -1.85585 4.96834e-05 10
-34.8711 -6.77825 -0.62007 0.000132002 10
-34.856 -6.77532 0.6198 0.000132016 10
-34.7898 -6.76245 1.85738 0.000156368 10
-34.773 -6.75919 3.09919 0.000154779 10
-34.8049 -6.76539 4.35349 3.7579e-05 10
-34.7758 -6.75974 5.61104 0.000149289 10
-34.7672 -6.75806 6.88455 0.000145453 10
-34.8367 -6.77157 8.19322 3.46428e-05 10
-34.7771 -6.75998 9.4929 0.000135828 10
-9.98931 -1.97793 -2.72859 0.00061567 1
-11.5809 -2.29308 -2.72558 0.000382885 1
-12.8028 -2.53502 -2.53692 0.000190448 4
-16.1258 -3.19299 -2.60366 0.000398172 4
-20.2342 -4.00647 -2.53268 3.93427e-05 4
-35.2483 -6.97934 -1.88315 4.67798e-05 10
-35.3647 -7.00239 -0.629277 0.000125977 10
-35.3641 -7.00227 0.629266 0.000125991 10
-34.7291 -6.87655 1.85541 0.000156936 10
-34.7339 -6.8775 3.09782 0.000155341 10
-35.2663 -6.98291 4.41422 3.5376e-05 10
-34.7321 -6.87713 5.60782 0.000149832 10
-34.7079 -6.87234 6.87751 0.000145984 10
-35.3075 -6.99107 8.30963 3.25994e-05 10
-34.7185 -6.87443 9.48339 0.000136326 10
-9.94734 -2.00573 -2.71902 0.000408138 4
-11.5807 -2.33508 -2.72742 0.000382916 1
-12.7892 -2.57876 -2.53601 0.000214078 4
-16.2539 -3.27737 -2.62618 0.000416716 4
-20.2365 -4.08039 -2.53474 4.72827e-05 4
-35.7262 -7.20366 -1.91001 4.3994e-05 10
-35.7397 -7.20638 -0.636394 4.41818e-05 10
-35.7393 -7.20629 0.636386 4.41405e-05 10
-34.6711 -6.99091 1.8536 0.000157497 10
-34.6575 -6.98817 3.09316 0.000155897 10
-35.7634 -7.21116 4.47957 3.32626e-05 10
-34.6749 -6.99168 5.60249 0.00015037 10
-34.6732 -6.99134 6.87544 0.000146509 10
-35.7905 -7.21662 8.42918 3.06398e-05 10
-34.6535 -6.98737 9.47226 0.000136818 10
-9.90911 -2.03405 -2.7105 0.00032779 4
-11.554 -2.3717 -2.72308 0.000382948 1
-12.8864 -2.64519 -2.55708 0.000537739 4
-16.3852 -3.3634 -2.64928 9.20103e-05 4
-20.2259 -4.15178 -2.53521 3.71343e-05 4
-34.7149 -7.12594 1.85726 3.69862e-05 10
-34.7171 -7.12639 3.10068 3.65714e-05 10
-36.2523 -7.44152 4.54403 3.12371e-05 10
-36.2617 -7.44346 5.86304 3.05558e-05 10
-36.291 -7.44947 7.20134 2.97275e-05 10
-36.2855 -7.44833 8.55183 2.87623e-05 10
-9.87557 -2.06311 -2.70328 0.000371922 4
-11.571 -2.41731 -2.72905 0.00038298 1
-13.0333 -2.72279 -2.58811 0.00118244 4
-16.3527 -3.41625 -2.64592 0.000103261 4
-20.2011 -4.22023 -2.53393 4.85684e-05 4
-9.84148 -2.09187 -2.69593 0.000432776 4
-11.5413 -2.45318 -2.72405 0.000383011 1
-13.1707 -2.79953 -2.61733 0.00106848 4
-16.3376 -3.47266 -2.64543 8.14953e-05 4
-20.1689 -4.28702 -2.53175 3.23843e-05 4
-9.81123 -2.12126 -2.68965 0.000104246 4
-11.5204 -2.49079 -2.72114 6.34134e-05 4
-13.3304 -2.88212 -2.65103 0.000952359 4
-16.3326 -3.53123 -2.6466 0.000100477 4
-20.1663 -4.36012 -2.53333 4.19162e-05 4
-9.81334 -2.1576 -2.69228 0.000389986 4
-11.4758 -2.52313 -2.71269 5.79577e-05 4
-13.4857 -2.96502 -2.68396 0.000584225 4
-16.3343 -3.59134 -2.6489 0.000128598 4
-20.1513 -4.43056 -2.53337 3.23952e-05 4
-9.80327 -2.19129 -2.6916 0.000814779 4
-11.4318 -2.55531 -2.70437 7.81779e-05 4
-13.6306 -3.0468 -2.7149 0.000688729 4
-20.1302 -4.49963 -2.53267 4.7648e-05 4
-9.78869 -2.22394 -2.68971 0.000702844 4
-11.3862 -2.58689 -2.69571 5.51658e-05 4
-13.6633 -3.10422 -2.72355 0.000217146 1
-16.2882 -3.70059 -2.64554 8.22391e-05 4
-20.1178 -4.57064 -2.5331 3.463e-05 4
-9.77256 -2.25617 -2.68743 0.000714479 4
-11.3201 -2.61344 -2.68219 5.88994e-05 4
-13.66 -3.15365 -2.72507 0.000217167 1
-16.2976 -3.7626 -2.64919 0.000104042 4
-20.0976 -4.63988 -2.53258 4.54397e-05 4
-9.76669 -2.29076 -2.688 0.000714528 4
-11.2864 -2.64719 -2.67638 5.13225e-05 4
-13.641 -3.19946 -2.72349 0.000217189 1
-20.0719 -4.70781 -2.5314 3.08279e-05 4
-9.75143 -2.32312 -2.68601 0.000679815 4
-11.2427 -2.67838 -2.66821 5.06087e-05 4
-13.6258 -3.24612 -2.72271 0.00021721 1
-16.2642 -3.87467 -2.64809 7.03162e-05 4
-20.0531 -4.77731 -2.53111 3.75082e-05 4
-9.753 -2.3595 -2.6887 0.000139063 4
-11.1955 -2.70847 -2.65925 4.98864e-05 4
-13.6208 -3.29522 -2.724 0.000217232 1
-15.5563 -3.76347 -2.53496 0.000101419 4
-20.0586 -4.85268 -2.53393 4.3237e-05 4
-9.75473 -2.39599 -2.69146 0.000189293 4
-11.1539 -2.73967 -2.65163 3.98875e-05 4
-13.6194 -3.34525 -2.72604 0.000217253 1
-15.5534 -3.82029 -2.53664 0.000116371 4
-20.041 -4.92255 -2.53387 3.11613e-05 4
-9.72886 -2.42568 -2.68665 0.000112038 4
-11.141 -2.77777 -2.65085 0.000132138 4
-13.6026 -3.39152 -2.72503 0.000217275 1
-15.5714 -3.8824 -2.54178 0.000502318 4
-20.1258 -5.01793 -2.54679 0.000143722 4
-9.73875 -2.46428 -2.69174 0.000150682 4
-11.1197 -2.81373 -2.64811 0.000498675 4
-15.7795 -3.99281 -2.57799 0.000531177 4
-20.3659 -5.15337 -2.57943 0.000199684 4
-11.1115 -2.85294 -2.64849 0.000548587 4
-16.0025 -4.10874 -2.61676 0.000642338 4
-20.6372 -5.29873 -2.61612 0.000245297 4
-9.70701 -2.52849 -2.68778 0.000200938 4
-11.103 -2.8921 -2.64885 0.00040898 4
-16.2168 -4.22415 -2.65419 0.000393779 4
-20.8309 -5.42605 -2.64306 3.19367e-05 4
-9.70167 -2.56329 -2.68876 0.000181629 4
-11.082 -2.92799 -2.64628 0.000493808 4
-16.4531 -4.34709 -2.69533 0.000649837 4
-20.805 -5.4969 -2.64219 4.6641e-05 4
-9.69539 -2.59787 -2.68951 7.72943e-05 4
-11.0938 -2.97256 -2.65155 0.000461424 4
-16.605 -4.44929 -2.72275 0.000107661 1
-9.6896 -2.6326 -2.69044 0.000200979 4
-11.0709 -3.00791 -2.64859 0.000184584 4
-16.5767 -4.5038 -2.72068 0.000107674 1
-9.67776 -2.6657 -2.68972 0.000208723 4
-11.0643 -3.04761 -2.64952 9.97834e-05 4
-16.5647 -4.56269 -2.72131 0.000107687 1
-9.66411 -2.69827 -2.68853 8.11757e-05 4
-11.0469 -3.08436 -2.64793 0.000259458 4
-13.1272 -3.66519 -2.64927 5.24391e-05 4
-16.5588 -4.6233 -2.72296 0.000107701 1
-20.7325 -5.78862 -2.64299 3.0549e-05 4
-9.65891 -2.7332 -2.68972 0.000112107 4
-11.026 -3.12006 -2.64552 0.000134729 4
-13.1122 -3.71039 -2.64884 0.000304743 4
-16.5365 -4.67935 -2.72196 0.000107714 1
-24.0022 -6.79194 0.43541 0.000158447 5
-9.63959 -2.76411 -2.68701 0.000297685 4
-11.0371 -3.16485 -2.65081 0.000187139 4
-13.0775 -3.74993 -2.64446 0.000256576 4
-16.5263 -4.73885 -2.723 0.000107727 1
-20.6832 -5.93082 -2.64192 3.7916e-05 4
-24.0334 -6.89146 0.43641 0.000628522 5
-9.63676 -2.79974 -2.68893 0.00020878 4
-11.0218 -3.20213 -2.6498 9.23293e-05 4
-13.0748 -3.79859 -2.64658 0.000258019 4
-19.8016 -5.75288 -2.53186 4.39673e-05 4
-9.63633 -2.83612 -2.69156 0.00011213 4
-11.015 -3.24188 -2.65086 0.000356869 4
-13.0535 -3.84186 -2.64496 0.000266551 4
-9.62754 -2.87009 -2.69188 0.000212675 4
-10.9979 -3.27861 -2.64949 0.000164722 4
-13.0584 -3.89288 -2.64869 0.000255233 4
-20.0637 -5.98126 -2.57066 0.00023493 4
-24.5372 -7.31484 0.446924 0.000109291 5
-9.60561 -2.9001 -2.68857 9.66773e-05 4
-13.0227 -3.93178 -2.64421 8.5086e-05 4
-20.4095 -6.162 -2.6177 0.000319932 4
-24.0038 -7.24716 0.437667 0.000633998 5
-9.6037 -2.93614 -2.69088 0.000119888 4
-10.9594 -3.35063 -2.64579 0.000449313 4
-13.0121 -3.97819 -2.64486 4.53836e-05 4
-20.7862 -6.35497 -2.66884 0.000301464 4
-24.0264 -7.3456 -2.19808 0.000123256 5
-24.0525 -7.35358 -1.31813 0.000140235 5
-24.0155 -7.34227 -0.438346 0.000215342 5
-23.9651 -7.32687 0.437426 0.000635191 5
-9.59279 -2.96946 -2.69071 0.00025913 4
-10.9518 -3.39016 -2.6468 0.000124819 4
-12.9929 -4.02197 -2.6438 5.95717e-05 4
-21.1515 -6.5475 -2.71867 4.31158e-05 1
-27.9226 -8.64348 -2.55728 0.000111372 4
-23.9224 -7.40522 0.437116 0.000636356 5
-9.58198 -3.00281 -2.69061 0.000398391 4
-10.9302 -3.4253 -2.64443 0.000112346 4
-12.9921 -4.07147 -2.64651 4.39739e-05 4
-21.1374 -6.62407 -2.71981 4.3123e-05 1
-28.4079 -8.9025 -2.60455 0.000115074 4
-23.4846 -7.35964 0.429583 0.000651687 5
-9.55512 -3.03106 -2.68602 0.000146989 4
-10.9326 -3.46802 -2.64794 0.000142317 4
-12.9791 -4.11722 -2.64678 7.6607e-05 4
-15.9169 -5.04914 -2.64479 0.000142407 4
-21.1083 -6.69594 -2.71905 4.31301e-05 1
-9.55916 -3.06911 -2.69015 0.000344288 4
-10.9284 -3.50874 -2.64988 0.000177286 4
-12.9632 -4.16202 -2.64647 5.39138e-05 4
-15.8982 -5.10436 -2.64463 0.000119862 4
-21.0946 -6.77273 -2.72031 4.31372e-05 1
-9.55514 -3.10465 -2.69205 0.000785338 4
-10.9156 -3.5467 -2.64976 0.000192283 4
-12.9403 -4.20457 -2.64479 0.000105 4
-15.8945 -5.16444 -2.647 0.000129749 4
-21.0462 -6.83831 -2.71713 4.31443e-05 1
-9.53578 -3.1352 -2.68966 0.000781522 4
-10.8815 -3.57766 -2.6445 5.74397e-05 4
-12.9201 -4.24791 -2.64367 6.81148e-05 4
-15.875 -5.21945 -2.64677 8.1103e-05 4
-24.0134 -7.8952 0.441229 0.000592885 5
-9.5118 -3.16415 -2.686 0.00070806 4
-10.8888 -3.62223 -2.64933 8.74152e-05 4
-12.9276 -4.30044 -2.64826 9.79244e-05 4
-15.8432 -5.27033 -2.64451 3.80878e-05 4
-9.50845 -3.19994 -2.68819 0.0006965 4
-10.8636 -3.656 -2.64628 9.99109e-05 4
-12.8979 -4.34062 -2.64526 4.39993e-05 4
-15.8286 -5.3269 -2.64516 3.66816e-05 4
-9.48418 -3.22868 -2.6845 0.000750722 4
-10.8549 -3.69529 -2.64727 0.000257291 4
-12.8948 -4.38976 -2.64776 5.39397e-05 4
-15.7933 -5.37649 -2.64239 2.89255e-05 4
-9.48178 -3.26484 -2.68703 0.000700463 4
-10.8421 -3.73322 -2.64732 0.000129905 4
-12.8673 -4.43057 -2.64527 3.12313e-05 4
-15.7894 -5.43671 -2.64489 8.32591e-05 4
-27.7976 -9.57149 -2.57211 9.69166e-05 4
-9.48338 -3.30246 -2.69073 0.000116107 4
-10.835 -3.77316 -2.6488 0.000124918 4
-12.8599 -4.47828 -2.64694 8.66041e-05 4
-15.7599 -5.48818 -2.64315 3.95176e-05 4
-20.3262 -7.07833 -2.64274 5.5889e-05 4
-28.508 -9.92755 -2.64103 0.00012094 4
-9.45709 -3.33037 -2.68655 8.9021e-05 4
-10.8104 -3.80693 -2.646 9.99424e-05 4
-12.8256 -4.51661 -2.64312 4.96956e-05 4
-15.751 -5.5468 -2.64488 3.03475e-05 4
-20.2783 -7.14113 -2.63974 5.10744e-05 4
-9.45062 -3.36522 -2.68804 0.000193537 4
-10.7941 -3.84362 -2.6453 9.49528e-05 4
-12.8178 -4.56421 -2.64477 0.000247082 4
-20.2621 -7.21499 -2.64089 5.44882e-05 4
-9.45032 -3.40232 -2.69132 8.12909e-05 4
-10.7947 -3.88633 -2.64874 0.000134944 4
-12.7997 -4.60819 -2.64435 5.39655e-05 4
-9.4248 -3.43034 -2.68744 0.000120009 4
-10.7809 -3.92394 -2.64871 9.49677e-05 4
-12.7873 -4.65421 -2.64513 9.23182e-05 4
-15.6758 -5.70552 -2.64214 6.9895e-05 4
-9.41616 -3.46447 -2.68841 0.000301978 4
-12.7802 -4.70219 -2.64702 5.8237e-05 4
-15.6524 -5.75898 -2.64158 8.54375e-05 4
-9.40004 -3.49584 -2.68727 0.000402664 4
-12.758 -4.74466 -2.64585 7.38685e-05 4
-15.656 -5.82242 -2.6456 6.21438e-05 4
-9.37837 -3.5251 -2.68458 0.000216833 4
-10.7274 -4.03215 -2.64578 0.00018748 4
-12.7261 -4.78342 -2.64267 7.38755e-05 4
-9.3811 -3.56354 -2.6889 0.000251698 4
-10.7104 -4.06848 -2.64507 7.74978e-05 4
-12.7186 -4.83134 -2.6446 0.000112245 4
-15.6152 -5.93166 -2.64563 4.6619e-05 4
-9.35203 -3.58991 -2.68415 9.29409e-05 4
-10.712 -4.11196 -2.64901 4.75024e-05 4
-12.6968 -4.87383 -2.64359 9.37828e-05 4
-15.5839 -5.98208 -2.64384 3.95602e-05 4
-9.3609 -3.63085 -2.69032 0.00023624 4
-10.6783 -4.14185 -2.64424 6.00077e-05 4
-12.6987 -4.92549 -2.64755 9.52127e-05 4
-15.5602 -6.03539 -2.64338 2.89672e-05 4
-40.9041 -15.8656 -0.76581 7.111e-05 9
-9.34829 -3.66355 -2.69035 0.000158795 4
-10.6807 -4.18571 -2.64842 0.000212544 4
-12.6696 -4.96518 -2.64509 4.12153e-05 4
-15.5459 -6.09239 -2.64456 3.25036e-05 4
-40.8394 -16.0048 -0.765641 7.07356e-05 9
-9.31632 -3.68859 -2.68484 0.000139439 4
-10.6544 -4.21838 -2.64554 0.000200056 4
-12.6645 -5.01422 -2.64765 3.83765e-05 4
-40.7627 -16.1391 -0.765255 7.30284e-05 9
-9.30504 -3.72175 -2.68532 0.000139448 4
-10.6406 -4.25593 -2.64579 0.000122544 4
-12.6325 -5.05263 -2.64464 0.000117983 4
-15.5025 -6.20055 -2.64447 6.36091e-05 4
-9.29434 -3.75516 -2.686 0.000143331 4
-12.6243 -5.10057 -2.64664 3.83837e-05 4
-15.4805 -6.25453 -2.64443 6.14961e-05 4
-20.9129 -8.44938 -1.97334 0.000265952 6
-9.28539 -3.7893 -2.68721 8.13554e-05 4
-10.6081 -4.32907 -2.64515 0.000185095 4
-12.5914 -5.13844 -2.64347 6.54005e-05 4
-20.828 -8.49973 -1.96811 0.000180629 6
-9.27761 -3.82395 -2.68881 0.000302197 4
-10.587 -4.36364 -2.64368 0.000102561 4
-12.5728 -5.18213 -2.64335 6.25629e-05 4
-20.7467 -8.55115 -1.96323 0.000139493 6
-9.24627 -3.84885 -2.68361 8.1366e-05 4
-10.5876 -4.4072 -2.64766 0.00024016 4
-12.5553 -5.22627 -2.6435 4.97706e-05 4
-20.7563 -8.63999 -1.96698 0.00010792 6
-21.0179 -8.74889 -1.19312 9.39941e-05 6
-9.23302 -3.8812 -2.68367 0.000236364 4
-10.5527 -4.43595 -2.64279 6.50484e-05 4
-12.5549 -5.27759 -2.64727 5.26195e-05 4
-15.3841 -6.46686 -2.64312 4.10167e-05 4
-20.705 -8.70356 -1.96499 9.26376e-05 6
-9.23264 -3.91902 -2.68752 0.000197629 4
-10.5477 -4.47724 -2.64543 0.000150123 4
-12.5163 -5.31284 -2.64303 2.98679e-05 4
-15.3639 -6.5216 -2.64356 3.53634e-05 4
-20.6661 -8.77224 -1.96419 6.91566e-05 6
-9.21985 -3.95163 -2.6878 0.000248021 4
-10.5355 -4.5155 -2.64629 0.000120108 4
-15.3461 -6.57736 -2.64443 3.81969e-05 4
-19.7639 -8.4708 -2.6402 2.98842e-05 4
-20.6023 -8.83015 -1.96105 5.03766e-05 6
-9.19268 -3.97803 -2.68391 5.03826e-05 4
-10.5256 -4.55484 -2.6478 7.00683e-05 4
-12.4951 -5.40709 -2.64645 8.25076e-05 4
-15.3098 -6.62512 -2.64213 4.81055e-05 4
-19.7164 -8.53203 -2.63781 3.98519e-05 4
-20.5835 -8.90726 -1.9622 3.52489e-05 6
-9.19907 -4.01897 -2.68986 0.000162785 4
-10.5035 -4.58885 -2.64624 0.000122629 4
-12.4552 -5.44152 -2.64201 0.000109546 4
-9.17054 -4.04469 -2.68563 0.000775217 4
-10.4869 -4.62528 -2.64612 8.50958e-05 4
-12.4434 -5.4882 -2.64357 7.3986e-05 4
-9.1534 -4.07535 -2.68475 0.000763638 4
-10.4762 -4.66432 -2.64752 0.000115138 4
-12.4249 -5.5319 -2.64371 6.40322e-05 4
-15.2438 -6.78699 -2.64287 6.29836e-05 4
-9.14652 -4.11061 -2.68693 0.000883861 4
-10.4498 -4.69631 -2.64496 8.01023e-05 4
-12.4133 -5.57874 -2.64537 7.96919e-05 4
-15.2217 -6.84088 -2.64315 5.73288e-05 4
-9.13607 -4.14431 -2.68809 0.000728845 4
-10.4425 -4.73694 -2.64729 0.000117659 4
-12.3992 -5.62451 -2.64653 0.000199248 4
-15.2012 -6.89556 -2.64376 6.51218e-05 4
-19.5571 -8.8715 -2.63682 3.3046e-05 4
-9.11276 -4.17215 -2.6855 0.000767662 4
-10.4147 -4.76821 -2.64443 0.000182761 4
-12.3717 -5.66421 -2.64488 0.0002135 4
-15.1625 -6.94192 -2.64123 3.04409e-05 4
-19.5335 -8.94312 -2.63783 3.70401e-05 4
-9.1097 -4.20927 -2.68892 0.000891786 4
-10.389 -4.8004 -2.64216 0.000175264 4
-12.3449 -5.70416 -2.64339 3.701e-05 4
-20.35 -9.403 -1.96126 3.01985e-05 6
-9.09643 -4.24173 -2.68935 0.000771638 4
-10.3742 -4.83755 -2.64266 0.000135214 4
-12.3222 -5.74593 -2.6428 8.82626e-05 4
-15.1138 -7.04765 -2.64125 7.93062e-05 4
-20.3251 -9.47776 -1.96205 4.44093e-05 6
-9.0614 -4.26397 -2.68338 0.000674742 4
-12.3176 -5.79623 -2.64614 3.70167e-05 4
-20.3004 -9.55265 -1.96287 6.34225e-05 6
-9.04987 -4.29719 -2.68439 0.000864811 4
-10.3545 -4.91668 -2.64633 5.00866e-05 4
-12.2858 -5.83373 -2.64367 7.40402e-05 4
-15.0571 -7.14961 -2.64 7.50749e-05 4
-20.2827 -9.63094 -1.9644 8.73673e-05 6
-9.04228 -4.33234 -2.68661 0.000740759 4
-10.3419 -4.955 -2.64751 4.25768e-05 4
-12.2533 -5.87081 -2.64107 9.39826e-05 4
-15.0412 -7.20653 -2.64161 3.68334e-05 4
-20.2636 -9.70868 -1.96581 0.00010436 6
-9.0188 -4.35986 -2.68414 8.53284e-05 4
-10.308 -4.98307 -2.64327 0.000137759 4
-12.243 -5.91852 -2.64329 3.84509e-05 4
-20.1917 -9.76106 -1.96214 0.000109188 6
-20.6175 -9.96686 -1.20015 0.000273382 6
-8.99902 -4.38912 -2.6828 0.000566307 4
-10.2923 -5.01989 -2.64372 5.00979e-05 4
-12.222 -5.96107 -2.64323 5.9818e-05 4
-15.0003 -7.31614 -2.64334 7.86431e-05 4
-20.197 -9.85075 -1.96598 0.000157764 6
-8.99283 -4.42502 -2.68554 0.000108614 4
-10.2845 -5.0606 -2.64624 0.000145295 4
-12.2063 -6.00623 -2.64434 5.41259e-05 4
-14.9545 -7.35852 -2.63977 3.6846e-05 4
-20.2243 -9.95158 -1.972 0.000237923 6
-8.97163 -4.45355 -2.68383 0.000356896 4
-10.2547 -5.09047 -2.64313 7.76633e-05 4
-12.1889 -6.05061 -2.64514 9.40166e-05 4
-8.95287 -4.48326 -2.68289 0.000228893 4
-10.2406 -5.12811 -2.6441 7.51636e-05 4
-12.1583 -6.08842 -2.64309 3.98894e-05 4
-14.8975 -7.46011 -2.63884 6.5204e-05 4
-8.935 -4.51339 -2.68224 0.000225028 4
-10.2323 -5.16869 -2.64659 0.000160361 4
-12.1436 -6.13419 -2.64455 5.699e-05 4
-14.8889 -7.52093 -2.64196 5.81232e-05 4
-8.91959 -4.54476 -2.68236 0.000310403 4
-10.2085 -5.20148 -2.64511 0.00016789 4
-12.1091 -6.16989 -2.6417 5.12956e-05 4
-8.9076 -4.57789 -2.68354 6.59648e-05 4
-10.1777 -5.23062 -2.64185 0.000157879 4
-12.0901 -6.21347 -2.64227 7.41003e-05 4
-14.8347 -7.62401 -2.64172 4.96286e-05 4
-8.89692 -4.61172 -2.68515 0.000120296 4
-10.1689 -5.27107 -2.64434 7.51858e-05 4
-10.1622 -5.31265 -2.64738 0.000162915 4
-12.0479 -6.29851 -2.6426 5.84357e-05 4
-14.7758 -7.72459 -2.64076 3.12022e-05 4
-8.85633 -4.66941 -2.68268 0.000240623 4
-10.1282 -5.33998 -2.64337 0.000162926 4
-12.0195 -6.33714 -2.64119 3.84855e-05 4
-8.85994 -4.71091 -2.68874 0.000205706 4
-10.1258 -5.384 -2.64765 0.000170459 4
-12.0058 -6.38361 -2.64308 5.13185e-05 4
-14.7203 -7.8269 -2.64054 5.10695e-05 4
-8.84468 -4.74248 -2.68911 0.000213482 4
-10.0993 -5.41521 -2.64564 0.000137881 4
-11.9882 -6.42804 -2.64413 5.70256e-05 4
-14.7019 -7.8831 -2.64217 5.2494e-05 4
-8.82802 -4.77329 -2.6891 0.000116452 4
-10.0781 -5.44918 -2.64504 0.000157948 4
-11.9557 -6.4644 -2.6419 6.1308e-05 4
-14.6759 -7.93524 -2.64246 2.90878e-05 4
-8.80044 -4.79816 -2.68578 0.000248446 4
-10.0639 -5.48702 -2.64633 0.000210613 4
-11.9323 -6.50572 -2.64175 5.56098e-05 4
-14.6258 -7.97425 -2.63844 3.90245e-05 4
-8.79538 -4.8353 -2.68937 0.000252344 4
-10.0282 -5.51307 -2.642 0.000215643 4
-11.9195 -6.55278 -2.64395 4.70586e-05 4
-18.8154 -10.3439 -2.63634 3.00132e-05 4
-8.7702 -4.8614 -2.68684 9.31788e-05 4
-10.0082 -5.54763 -2.6418 6.51991e-05 4
-8.74899 -4.88965 -2.68556 8.93018e-05 4
-9.99981 -5.5887 -2.64472 4.26333e-05 4
-11.8547 -6.62538 -2.63978 8.12973e-05 4
-8.71972 -4.91331 -2.68182 0.000217444 4
-9.96572 -5.61539 -2.64087 0.000190609 4
-11.8528 -6.67869 -2.64452 3.56598e-05 4
-14.5252 -8.18452 -2.64064 3.40729e-05 4
-8.70278 -4.94387 -2.6819 9.3196e-05 4
-9.96932 -5.66336 -2.64705 6.77214e-05 4
-14.4909 -8.23195 -2.63961 7.45426e-05 4
-8.69832 -4.98157 -2.68587 0.000217471 4
-9.92915 -5.68647 -2.64164 0.00017057 4
-11.8038 -6.76008 -2.64406 9.13051e-05 4
-14.4578 -8.28006 -2.63884 8.66209e-05 4
-8.68159 -5.01232 -2.68609 0.000182531 4
-9.9182 -5.72627 -2.64403 0.000213228 4
-11.7641 -6.79201 -2.64047 6.99115e-05 4
-14.4227 -8.32696 -2.63772 4.54455e-05 4
-8.65459 -5.03709 -2.68316 0.000209729 4
-9.90589 -5.76536 -2.6461 5.7701e-05 4
-14.3946 -8.37784 -2.63791 7.17265e-05 4
-8.64759 -5.07351 -2.68647 0.000648647 4
-9.86732 -5.78912 -2.64118 9.03211e-05 4
-11.7332 -6.88381 -2.64425 6.84966e-05 4
-14.3699 -8.43079 -2.63877 4.47452e-05 4
-8.6275 -5.10229 -2.68574 0.000873978 4
-9.84732 -5.82369 -2.64125 0.000130473 4
-11.6865 -6.91137 -2.63915 5.56583e-05 4
-14.3549 -8.48946 -2.64143 3.26747e-05 4
-8.59674 -5.12468 -2.68172 0.00065261 4
-9.84351 -5.86791 -2.6457 0.000178159 4
-11.6633 -6.95273 -2.63938 4.70996e-05 4
-14.3027 -8.52612 -2.63729 9.30619e-05 4
-8.58925 -5.16094 -2.68499 0.000722576 4
-9.80429 -5.89101 -2.64067 7.02647e-05 4
-14.2902 -8.58643 -2.6405 3.62341e-05 4
-8.56126 -5.18488 -2.68188 0.000730389 4
-9.79283 -5.93075 -2.64315 0.000125482 4
-11.6336 -7.04554 -2.64371 3.56876e-05 4
-14.2554 -8.63338 -2.63962 5.61335e-05 4
-8.55461 -5.22176 -2.68549 7.38204e-05 4
-9.77344 -5.96573 -2.64352 0.000165647 4
-11.6034 -7.08275 -2.64246 3.4263e-05 4
-8.52423 -5.24414 -2.68168 0.000466262 4
-9.75936 -6.00399 -2.64536 3.26298e-05 4
-8.52287 -5.2844 -2.68704 0.000104915 4
-9.73034 -6.03306 -2.64319 0.000258547 4
-11.5598 -7.16736 -2.64385 8.71001e-05 4
-14.1671 -8.784 -2.64016 0.000122965 4
-8.49091 -5.30571 -2.68279 0.000174869 4
-9.72177 -6.07483 -2.6466 0.000175724 4
-14.1358 -8.833 -2.64004 0.000150702 4
-8.47911 -5.33958 -2.68493 8.93829e-05 4
-9.68515 -6.09906 -2.64241 5.52313e-05 4
-11.5017 -7.24298 -2.64206 0.000132815 4
-14.0933 -8.87504 -2.63789 0.000119437 4
-8.46962 -5.37498 -2.68785 0.000101047 4
-9.67622 -6.14071 -2.64581 6.52779e-05 4
-11.4656 -7.27627 -2.63959 4.42752e-05 4
-14.0656 -8.92632 -2.63852 3.19954e-05 4
-8.44127 -5.39842 -2.68482 0.0003498 4
-9.64432 -6.1678 -2.64296 0.000308836 4
-11.4474 -7.32089 -2.64127 5.14208e-05 4
-8.42547 -5.42984 -2.6858 0.000229327 4
-11.4107 -7.35371 -2.63872 4.99966e-05 4
-8.41166 -5.46259 -2.68746 0.000194357 4
-9.59452 -6.23076 -2.64117 0.00010296 4
-11.3983 -7.40217 -2.64182 8.42871e-05 4
-13.959 -9.06508 -2.63618 4.33854e-05 4
-8.37959 -5.48345 -2.68332 0.000244904 4
-9.57186 -6.26365 -2.64093 0.000113012 4
-11.3602 -7.43388 -2.63896 6.85783e-05 4
-8.36995 -5.51896 -2.68638 0.00020993 4
-9.55463 -6.30012 -2.64223 9.54393e-05 4
-11.3355 -7.47437 -2.63928 0.000290053 4
-8.34491 -5.54434 -2.68454 0.000256596 4
-9.54734 -6.34323 -2.64632 0.000195915 4
-11.3254 -7.52455 -2.64302 0.000251496 4
-8.32128 -5.57061 -2.68318 0.000116641 4
-9.5119 -6.36766 -2.64264 8.54048e-05 4
-11.2822 -7.55277 -2.63908 0.000280098 4
-13.8526 -9.2735 -2.64028 5.12306e-05 4
-8.31631 -5.60942 -2.68788 0.00017886 4
-9.48439 -6.3973 -2.64119 0.000130628 4
-11.256 -7.59226 -2.63914 0.000254396 4
-13.7969 -9.30611 -2.63584 5.19476e-05 4
-8.29021 -5.63402 -2.68578 0.000167205 4
-9.45764 -6.42741 -2.63997 0.000148223 4
-11.2362 -7.63609 -2.64072 8.28999e-05 4
-8.25397 -5.65161 -2.68041 0.000178881 4
-9.43884 -6.46291 -2.641 0.000286416 4
-11.2197 -7.68229 -2.64314 0.000102919 4
-8.23957 -5.6841 -2.68216 0.000213892 4
-9.43124 -6.50618 -2.64522 0.000148243 4
-11.181 -7.71329 -2.64036 3.145e-05 4
-13.6975 -9.44925 -2.63561 6.76241e-05 4
-8.22713 -5.718 -2.6846 0.000260574 4
-9.3913 -6.52712 -2.64039 0.000113074 4
-11.1655 -7.76021 -2.64306 7.43424e-05 4
-13.6775 -9.50613 -2.63814 3.27477e-05 4
-8.20035 -5.74195 -2.68238 0.000175022 4
-9.36677 -6.55868 -2.63991 9.29784e-05 4
-11.1383 -7.79913 -2.64306 5.29018e-05 4
-13.6324 -9.5455 -2.63584 4.05829e-05 4
-8.1801 -5.77043 -2.68233 0.000311169 4
-9.34816 -6.5944 -2.64114 0.000140734 4
-11.0951 -7.82675 -2.63928 5.57659e-05 4
-13.5974 -9.59193 -2.63554 5.3404e-05 4
-8.15684 -5.79676 -2.68132 0.000365644 4
-9.32615 -6.62774 -2.64144 0.00026138 4
-11.0828 -7.87613 -2.64287 5.43405e-05 4
-17.4875 -12.4277 -2.63418 2.90075e-05 4
-8.13266 -5.82241 -2.68004 0.000241183 4
-9.31753 -6.6707 -2.64558 8.29434e-05 4
-11.04 -7.90389 -2.63924 5.43449e-05 4
-8.12772 -5.86189 -2.68513 3.50125e-05 4
-9.27883 -6.6921 -2.64121 7.79218e-05 4
-11.0122 -7.94225 -2.6392 9.29659e-05 4
-13.4986 -9.73552 -2.63601 5.34205e-05 4
-8.10027 -5.88519 -2.68284 0.000124496 4
-9.26282 -6.72983 -2.64332 0.000186019 4
-10.9834 -7.97994 -2.63896 9.58341e-05 4
-13.475 -9.79012 -2.63804 3.49049e-05 4
-8.07961 -5.91338 -2.68282 0.000712002 4
-9.23346 -6.75787 -2.64166 0.000138267 4
-10.9573 -8.01952 -2.63939 3.71924e-05 4
-13.4475 -9.84208 -2.63938 4.41699e-05 4
-8.07092 -5.95039 -2.68681 0.000739278 4
-9.21326 -6.7926 -2.64265 0.000120677 4
-10.9432 -8.06806 -2.64277 5.15013e-05 4
-13.3961 -9.87645 -2.63604 3.84745e-05 4
-8.03462 -5.96704 -2.68164 0.000715973 4
-10.9085 -8.1014 -2.64121 8.87037e-05 4
-8.0221 -6.0013 -2.68444 0.000614837 4
-9.15367 -6.84782 -2.6392 0.000115664 4
-10.8662 -8.12892 -2.6378 8.29875e-05 4
-7.98758 -6.01907 -2.6799 0.000692704 4
-9.14774 -6.89331 -2.64441 7.29235e-05 4
-13.3055 -10.0264 -2.63874 7.91104e-05 4
-7.97134 -6.05058 -2.68152 0.000782254 4
-9.10964 -6.91459 -2.64036 0.000186093 4
-10.8195 -8.21242 -2.64032 8.15696e-05 4
-7.95686 -6.08348 -2.68378 0.000840678 4
-9.08448 -6.94561 -2.64008 0.000138321 4
-10.7925 -8.25149 -2.64075 5.86776e-05 4
-13.2155 -10.104 -2.6348 5.56023e-05 4
-24.2719 -18.5573 -2.67306 2.92411e-05 4
-7.93671 -6.11209 -2.68416 0.000731742 4
-9.06339 -6.97975 -2.64101 0.000198693 4
-10.7675 -8.29205 -2.64169 0.000107346 4
-13.1978 -10.1636 -2.63833 6.345e-05 4
-7.91911 -6.14269 -2.68545 0.000147913 4
-9.05206 -7.02149 -2.64484 5.7851e-05 4
-10.7296 -8.32272 -2.63951 7.44321e-05 4
-13.1565 -10.2052 -2.63718 5.34743e-05 4
-7.89806 -6.17064 -2.6856 7.78534e-05 4
-9.02363 -7.05003 -2.64371 8.55244e-05 4
-10.6984 -8.35854 -2.63901 3.29245e-05 4
-13.1227 -10.2526 -2.63756 4.27837e-05 4
-7.87635 -6.19807 -2.68555 0.000186858 4
