VERSION 0.7
FIELDS x y z intensity label
SIZE 4 4 4 4 4
TYPE F F F F F
COUNT 1 1 1 1 1
WIDTH 1194
HEIGHT 1
VIEWPOINT 9.56316 49.052 2.7286 -0.538135 -0.000578149 -0.000564686 0.842859
POINTS 1194
DATA ascii
3.72461 13.7088 0.247963 0.001145 10
3.72657 13.716 0.744887 0.00114047 10
3.72415 13.7071 1.24269 0.00133523 10
3.72612 13.7144 1.74496 0.00131861 10
3.72151 13.6974 2.2481 0.00129657 10
3.72772 13.7203 2.76364 0.00126933 10
3.72503 13.7104 3.28004 0.00123714 10
3.72017 13.6925 3.80189 0.00120032 10
2.6259 9.79999 -2.71853 0.000619958 1
3.04615 11.3684 -2.71718 0.000385889 1
3.62008 13.5103 -2.71878 0.000218943 1
3.69893 13.8046 -2.26356 0.00163439 10
3.69197 13.7786 -1.75148 0.00166321 10
3.72836 13.9144 -1.2603 0.00130142 10
3.73214 13.9285 -0.755713 0.00131252 10
3.73041 13.9221 -0.251583 0.00131805 10
3.73259 13.9302 0.25173 0.00131798 10
3.72618 13.9063 0.754507 0.00131229 10
3.69583 13.793 1.2493 0.00131595 10
3.69397 13.7861 1.75243 0.00129956 10
3.69059 13.7735 2.25846 0.00127783 10
3.68822 13.7646 2.76996 0.00125096 10
3.69406 13.7864 3.29513 0.00121923 10
3.69331 13.7836 3.8236 0.00118292 10
2.59087 9.80606 -2.71769 0.000619919 1
3.00783 11.3842 -2.71843 0.00038586 1
3.57475 13.5299 -2.72019 0.000218923 1
3.66153 13.8583 -2.27026 0.00161057 10
3.66217 13.8607 -1.76028 0.00163898 10
3.67272 13.9007 -1.25788 0.00131473 10
3.67117 13.8948 -0.753185 0.00132594 10
3.66998 13.8903 -0.250776 0.00133152 10
3.66713 13.8795 0.250581 0.00133145 10
3.67004 13.8905 0.752952 0.0013257 10
3.66319 13.8646 1.25462 0.0012968 10
3.6593 13.8499 1.7589 0.00128065 10
3.66121 13.8571 2.27006 0.00125922 10
3.6603 13.8537 2.78529 0.00123273 10
3.6578 13.8442 3.30586 0.00120144 10
3.65925 13.8497 3.83836 0.00116565 10
2.55626 9.81362 -2.7173 0.00061988 1
2.96652 11.3886 -2.71701 0.000385832 1
3.52434 13.5302 -2.71776 0.000218903 1
3.62578 13.9196 -2.27821 0.00158691 10
3.63258 13.9457 -1.76945 0.00161492 10
3.62803 13.9282 -1.25922 0.00108082 10
3.62905 13.9321 -0.754516 0.00109043 10
3.63168 13.9422 -0.251483 0.00109542 10
3.63086 13.9391 0.251426 0.00109576 10
3.62769 13.9269 0.754234 0.00109142 10
3.62789 13.9277 1.25917 0.00127779 10
3.62566 13.9191 1.76608 0.00126186 10
3.62839 13.9296 2.27985 0.00124074 10
3.62639 13.9219 2.79645 0.00121462 10
3.6234 13.9104 3.31864 0.00118377 10
3.62647 13.9222 3.85493 0.00114849 10
2.52533 9.83551 -2.7209 0.000619841 1
2.92831 11.405 -2.71846 0.000385803 1
3.47449 13.5322 -2.71572 0.000218883 1
3.59272 13.9927 -2.28811 0.00156342 10
3.59333 13.9951 -1.77412 0.00159104 10
3.63871 14.1718 -1.28009 0.00126285 10
3.64103 14.1809 -0.767293 0.00127364 10
3.63825 14.17 -0.255362 0.00127902 10
3.64008 14.1771 0.25549 0.00127895 10
3.63923 14.1738 0.766914 0.00127341 10
3.59621 14.0063 1.26514 0.00125891 10
3.59472 14.0005 1.7748 0.00124321 10
3.59518 14.0023 2.28968 0.00122239 10
3.5961 14.0059 2.81077 0.00119665 10
3.59596 14.0053 3.33826 0.00116624 10
3.59032 13.9834 3.86836 0.00113145 10
2.48897 9.83631 -2.7187 0.000619802 1
2.89001 11.4212 -2.7199 0.000385774 1
3.42798 13.5472 -2.71631 0.000218864 1
3.5634 14.0824 -2.30074 0.0015401 10
3.56113 14.0735 -1.78247 0.00156732 10
3.57807 14.1404 -1.27612 0.00127552 10
3.58304 14.16 -0.765485 0.00128641 10
3.58225 14.1569 -0.254899 0.00129185 10
3.58298 14.1598 0.25495 0.00129177 10
3.5799 14.1476 0.764814 0.00128619 10
3.562 14.0769 1.27038 0.00124016 10
3.55852 14.0631 1.78116 0.00122469 10
3.55737 14.0586 2.29684 0.00120417 10
3.56136 14.0744 2.822 0.0011788 10
3.55573 14.0521 3.34643 0.00114882 10
3.55736 14.0585 3.8857 0.00111454 10
2.45386 9.84187 -2.71785 0.000619762 1
2.85103 11.4348 -2.72076 0.000385745 1
3.38521 13.5773 -2.71996 0.000218844 1
3.52755 14.1482 -2.30946 0.00151695 10
3.53066 14.1607 -1.79194 0.00154378 10
3.52729 14.1472 -1.27561 0.00103324 10
3.52851 14.1521 -0.764384 0.00104245 10
3.52816 14.1507 -0.254562 0.00104723 10
3.52531 14.1392 0.254357 0.00104755 10
3.52446 14.1358 0.763508 0.00104341 10
3.52581 14.1413 1.27507 0.00122156 10
3.5291 14.1544 1.79115 0.00120631 10
3.52509 14.1384 2.30785 0.00118609 10
3.52837 14.1515 2.83498 0.00116108 10
3.52308 14.1303 3.36211 0.00113154 10
3.52158 14.1243 3.90045 0.00109775 10
2.41997 9.85233 -2.71839 0.000619722 1
2.81211 11.4488 -2.72174 0.000385716 1
3.33542 13.5794 -2.71802 0.000218824 1
3.49117 14.2135 -2.31811 0.00149397 10
3.49023 14.2097 -1.79659 0.00152042 10
3.54165 14.419 -1.29899 0.00122623 10
3.54639 14.4383 -0.77917 0.00123673 10
3.54722 14.4417 -0.259573 0.00124197 10
3.54078 14.4155 0.259102 0.0012419 10
3.54378 14.4277 0.778597 0.00123652 10
3.49059 14.2111 1.28027 0.00120309 10
3.49215 14.2175 1.79757 0.00118807 10
3.49083 14.2121 2.31788 0.00116814 10
3.48831 14.2018 2.84261 0.00114349 10
3.48805 14.2008 3.37596 0.00111439 10
3.48851 14.2026 3.9187 0.00108109 10
2.38769 9.86954 -2.72083 0.000619683 1
2.77296 11.462 -2.72256 0.000385687 1
3.28878 13.5942 -2.71867 0.000218804 1
3.45737 14.291 -2.32877 0.00147116 10
3.46153 14.3082 -1.80751 0.00149722 10
3.48273 14.3959 -1.29581 0.0012383 10
3.4824 14.3945 -0.776147 0.0012489 10
3.48136 14.3902 -0.258428 0.00125419 10
3.48278 14.3961 0.258534 0.00125412 10
3.48705 14.4137 0.777184 0.00124868 10
3.45777 14.2927 1.28652 0.00118476 10
3.45756 14.2918 1.80544 0.00116995 10
3.45595 14.2852 2.32782 0.00115032 10
3.45791 14.2933 2.85848 0.00112604 10
3.45507 14.2815 3.39227 0.00109736 10
3.45353 14.2752 3.93536 0.00106455 10
2.35052 9.86643 -2.71769 0.000619643 1
2.73075 11.4625 -2.72038 0.000385658 1
3.24229 13.6097 -2.71949 0.000218784 1
3.42373 14.3713 -2.33989 0.00144853 10
3.42714 14.3856 -1.81576 0.00147421 10
3.42258 14.3665 -1.29208 0.000986705 10
3.42208 14.3644 -0.773873 0.00126109 10
3.42242 14.3658 -0.257774 0.00126643 10
3.42148 14.3619 0.257703 0.00126636 10
3.4254 14.3783 0.774623 0.00126087 10
3.42005 14.3559 1.29113 0.00116657 10
3.42103 14.36 1.81253 0.00115198 10
3.42002 14.3557 2.33735 0.00113264 10
3.41874 14.3503 2.86749 0.00110872 10
3.41813 14.3478 3.40515 0.00108046 10
3.41959 14.3539 3.95376 0.00104814 10
2.31822 9.88377 -2.72022 0.000619603 1
2.69353 11.4839 -2.72322 0.000385629 1
3.19297 13.6133 -2.71797 0.000218764 1
3.38909 14.4495 -2.35068 0.00142607 10
3.39205 14.4621 -1.82391 0.00145137 10
3.38565 14.4348 -1.29715 0.000971427 10
3.39157 14.46 -0.778385 0.000980109 10
3.3909 14.4572 -0.259199 0.000984625 10
3.38473 14.4309 0.258728 0.000984934 10
3.38692 14.4402 0.777316 0.00098103 10
3.38503 14.4322 1.29692 0.00114851 10
3.38738 14.4422 1.8214 0.00113415 10
3.38376 14.4267 2.34698 0.00111509 10
3.38411 14.4282 2.88068 0.00109153 10
3.38632 14.4377 3.42365 0.00106369 10
3.38461 14.4304 3.97153 0.00103185 10
2.28432 9.89445 -2.72095 0.000619564 1
2.65213 11.4876 -2.72189 0.0003856 1
3.14512 13.623 -2.7177 0.000218744 1
3.35275 14.5223 -2.36061 0.00140378 10
3.35074 14.5137 -1.82893 0.00142871 10
3.3814 14.6464 -1.3151 0.00120291 10
3.38495 14.6618 -0.788605 0.00121323 10
3.38312 14.6539 -0.262513 0.00121838 10
3.3856 14.6646 0.262705 0.00121831 10
3.37957 14.6385 0.787352 0.00121302 10
3.35505 14.5323 1.30485 0.0011306 10
3.35449 14.5299 1.83097 0.00111645 10
3.35368 14.5264 2.36127 0.00109768 10
3.34885 14.5055 2.89374 0.00107447 10
3.3528 14.5226 3.44099 0.00104706 10
3.35211 14.5196 3.99284 0.0010157 10
2.24717 9.89095 -2.71781 0.000619524 1
2.60952 11.4858 -2.71929 0.000385571 1
3.10147 13.6512 -2.72115 0.000218724 1
3.31694 14.5996 -2.37127 0.00138167 10
3.31488 14.5905 -1.83715 0.00140623 10
3.32431 14.632 -1.31276 0.00121443 10
3.32012 14.6136 -0.785381 0.00122485 10
3.32117 14.6182 -0.261664 0.00123004 10
3.32105 14.6177 0.261655 0.00122997 10
3.32326 14.6274 0.786125 0.00122464 10
3.31857 14.6067 1.31049 0.00111283 10
3.31445 14.5886 1.8369 0.0010989 10
3.31735 14.6014 2.37156 0.00108041 10
3.31482 14.5903 2.90833 0.00105755 10
3.31185 14.5772 3.45117 0.00103055 10
3.31496 14.5908 4.00924 0.000999666 10
2.21777 9.92172 -2.72412 0.000619484 1
2.572 11.5065 -2.72203 0.000385541 1
3.04879 13.6395 -2.71667 0.000218704 1
3.28389 14.6912 -2.38429 0.00135974 10
3.28163 14.6812 -1.84711 0.00138393 10
3.28076 14.6773 -1.31578 0.000926314 10
3.28185 14.6821 -0.788446 0.000934613 10
3.28109 14.6787 -0.262541 0.000938933 10
3.28199 14.6828 0.262613 0.000939232 10
3.28231 14.6842 0.788558 0.000935506 10
3.28304 14.6875 1.3167 0.0010952 10
3.27937 14.671 1.84583 0.00108148 10
3.27966 14.6724 2.38122 0.00106328 10
3.27811 14.6654 2.92101 0.00104077 10
3.27837 14.6666 3.46961 0.00101418 10
3.27772 14.6637 4.02607 0.000983767 10
2.18077 9.9187 -2.72119 0.000619444 1
2.53244 11.5182 -2.7227 0.000385512 1
3.00598 13.672 -2.72104 0.000218683 1
3.24562 14.7619 -2.3939 0.00133799 10
3.2427 14.7486 -1.85416 0.0013618 10
3.27449 14.8932 -1.33411 0.0011692 10
3.27593 14.8998 -0.799515 0.00117926 10
3.27865 14.9122 -0.26651 0.00118427 10
3.27648 14.9023 0.266334 0.00118421 10
3.27481 14.8947 0.799243 0.00117906 10
3.24129 14.7422 1.32058 0.00107772 10
3.24118 14.7417 1.85329 0.00106421 10
3.23355 14.707 2.385 0.00138127 10
3.23589 14.7177 2.92916 0.0013515 10
3.23504 14.7138 3.47809 0.00131644 10
3.24325 14.7511 4.04696 0.000967996 10
2.14888 9.93895 -2.72467 0.000619404 1
2.4902 11.5176 -2.72049 0.000385483 1
2.95864 13.6842 -2.72141 0.000218663 1
3.2093 14.8436 -2.40531 0.00131642 10
3.20543 14.8257 -1.86243 0.00133986 10
3.2157 14.8732 -1.3313 0.00118019 10
3.21448 14.8675 -0.797178 0.00119033 10
3.21288 14.8602 -0.265379 0.00119539 10
3.2173 14.8806 0.265743 0.00119532 10
3.21283 14.8599 0.796769 0.00119012 10
3.207 14.8329 1.3277 0.00106038 10
3.20321 14.8154 1.86114 0.00104708 10
3.17562 14.6878 2.38007 0.00139424 10
3.1764 14.6914 2.92171 0.0013642 10
3.17698 14.6941 3.47079 0.00132882 10
3.20744 14.835 4.06688 0.000952356 10
2.11343 9.94288 -2.72371 0.000619364 1
2.45258 11.5385 -2.72338 0.000385453 1
2.90684 13.6756 -2.71765 0.000218643 1
3.1703 14.9151 -2.41509 0.00129502 10
3.1683 14.9056 -1.87107 0.00131811 10
3.17135 14.92 -1.33449 0.000882289 10
3.16797 14.9041 -0.798541 0.000890214 10
3.17264 14.9261 -0.266356 0.000894341 10
3.17103 14.9185 0.266221 0.00089463 10
3.16813 14.9049 0.798582 0.000891077 10
3.17118 14.9192 1.33442 0.00104318 10
3.16854 14.9068 1.87121 0.00103009 10
3.11849 14.6713 2.37562 0.00140722 10
3.11364 14.6485 2.91099 0.00137692 10
3.11641 14.6615 3.4605 0.00134123 10
3.16626 14.896 4.08055 0.000936847 10
2.0747 9.93103 -2.71846 0.000619324 1
2.4104 11.5379 -2.72125 0.000385424 1
2.86228 13.701 -2.72069 0.000218623 1
3.13105 14.9875 -2.42503 0.00127381 10
3.1366 15.0141 -1.88329 0.00129653 10
3.16091 15.1304 -1.35232 0.00113705 10
3.16197 15.1355 -0.810343 0.00114685 10
3.16516 15.1507 -0.270167 0.00115174 10
3.16165 15.134 0.269867 0.00115167 10
3.16161 15.1338 0.810249 0.00114665 10
3.13158 14.99 1.33977 0.00102612 10
3.13273 14.9955 1.88097 0.00101324 10
3.05998 14.6473 2.36999 0.00142023 10
3.05535 14.6251 2.90421 0.00138966 10
3.05649 14.6306 3.45066 0.00135365 10
3.1293 14.9791 4.10029 0.000921467 10
2.04012 9.93867 -2.71859 0.000619284 1
2.37212 11.556 -2.72355 0.000385394 1
2.81029 13.6906 -2.71668 0.000218603 1
3.09389 15.0722 -2.43698 0.00125278 10
3.09776 15.0911 -1.89159 0.00127515 10
3.10015 15.1027 -1.34887 0.00114752 10
3.102 15.1118 -0.808487 0.0011574 10
3.10196 15.1116 -0.269273 0.00116233 10
3.10135 15.1086 0.26922 0.00116227 10
3.10506 15.1267 0.809285 0.00115721 10
3.09174 15.0618 1.34521 0.00100922 10
3.09519 15.0786 1.89002 0.000996536 10
2.99963 14.613 2.36273 0.00143326 10
3.00053 14.6174 2.90058 0.00140242 10
2.99667 14.5986 3.44063 0.0013661 10
3.09483 15.0768 4.12406 0.000906221 10
2.00815 9.9593 -2.72229 0.000619244 1
2.33149 11.5629 -2.72324 0.000385365 1
2.76573 13.7165 -2.71988 0.000218582 1
3.05896 15.1708 -2.45117 0.00123193 10
3.05981 15.175 -1.90075 0.00125394 10
3.0556 15.1541 -1.35249 0.000839364 10
3.05808 15.1664 -0.810833 0.000846923 10
3.05935 15.1727 -0.27017 0.000850862 10
3.05413 15.1468 0.26971 0.000851142 10
3.05883 15.1701 0.811032 0.000847759 10
3.05864 15.1692 1.35384 0.000992453 10
3.05439 15.1481 1.89738 0.000979975 10
2.94002 14.5809 2.35586 0.00144631 10
2.93781 14.5699 2.88911 0.0014152 10
2.93857 14.5737 3.43232 0.00137856 10
3.0554 15.1531 4.14198 0.000891106 10
1.97213 9.95997 -2.72058 0.000619203 1
2.28811 11.5558 -2.71965 0.000385335 1
2.7155 13.7142 -2.71754 0.000218562 1
3.02129 15.2586 -2.46365 0.00121126 10
3.02035 15.2539 -1.9093 0.00123292 10
3.04906 15.3989 -1.37338 0.00110632 10
3.04907 15.3989 -0.82269 0.00111588 10
3.04952 15.4012 -0.274048 0.00112064 10
3.04855 15.3963 0.273961 0.00112058 10
3.04526 15.3797 0.821662 0.00111569 10
3.01492 15.2265 1.35801 0.000975838 10
3.01885 15.2463 1.90835 0.000963562 10
2.89541 14.6229 2.361 0.00104868 10
2.89798 14.6358 2.90015 0.00102651 10
2.89793 14.6356 3.44449 0.00100033 10
3.01658 15.2348 4.16141 0.000876125 10
1.94059 9.98347 -2.72513 0.000619164 1
2.2467 11.5583 -2.71838 0.000385306 1
2.6682 13.7267 -2.71814 0.000218542 1
2.9783 15.322 -2.47219 0.00119077 10
2.97906 15.3259 -1.91701 0.00121209 10
2.98553 15.3592 -1.36891 0.00111631 10
2.9847 15.355 -0.819781 0.00112595 10
2.98679 15.3657 -0.27323 0.00113076 10
2.98474 15.3552 0.273042 0.00113069 10
2.98816 15.3727 0.82073 0.00112576 10
2.98042 15.333 1.36657 0.000959368 10
2.97816 15.3213 1.91643 0.000947291 10
2.97751 15.318 4.18126 0.000861276 10
1.90394 9.98078 -2.72257 0.000619123 1
2.20807 11.5751 -2.72051 0.000385276 1
2.62123 13.741 -2.71914 0.000218521 1
2.94137 15.4192 -2.48619 0.00117048 10
2.9423 15.4241 -1.92799 0.00119144 10
2.93897 15.4066 -1.37221 0.000797558 10
2.94075 15.4159 -0.822483 0.00080476 10
2.94237 15.4244 -0.274089 0.000808515 10
2.93979 15.4109 0.273849 0.000808785 10
2.93857 15.4045 0.821875 0.000805567 10
2.93859 15.4046 1.37203 0.000943048 10
2.93887 15.4061 1.92574 0.000931169 10
2.93504 15.386 4.19701 0.000846563 10
1.86989 9.9917 -2.72375 0.000619082 1
2.16847 11.5871 -2.72154 0.000385247 1
2.57468 13.7577 -2.72065 0.000218501 1
2.90077 15.5001 -2.4976 0.00115036 10
2.90012 15.4967 -1.93579 0.00117098 10
2.89813 15.486 -1.37837 0.00118674 10
2.90081 15.5004 -0.826443 0.00119747 10
2.89997 15.4958 -0.275177 0.00120306 10
2.90043 15.4983 0.27522 0.00120346 10
2.89845 15.4877 0.825769 0.00119867 10
2.89837 15.4873 1.37849 0.000926873 10
2.90156 15.5044 1.93675 0.000915191 10
2.89561 15.4726 4.21784 0.000831981 10
1.83459 9.9959 -2.72313 0.000619042 1
2.1275 11.5918 -2.72088 0.000385217 1
2.52716 13.7694 -2.72121 0.00021848 1
2.86037 15.5849 -2.50964 0.00113043 10
2.86021 15.5841 -1.94544 0.00115072 10
2.85917 15.5784 -1.3857 0.00116621 10
2.86078 15.5872 -0.830533 0.00117676 10
2.86062 15.5863 -0.276604 0.00118227 10
2.85723 15.5678 0.276276 0.00118266 10
2.85812 15.5726 0.829759 0.00117796 10
2.86082 15.5874 1.38649 0.00091085 10
2.85729 15.5681 1.94346 0.000899363 10
2.8804 15.6941 3.68378 0.000528113 10
2.85674 15.5652 4.24033 0.000817537 10
1.80094 10.0092 -2.72502 0.000619002 1
2.0863 11.5952 -2.71994 0.000385187 1
2.47895 13.7774 -2.72106 0.00021846 1
2.821 15.6784 -2.52309 0.00111069 10
2.82218 15.685 -1.9568 0.00113064 10
2.81939 15.6695 -1.39292 0.00114587 10
2.82049 15.6756 -0.834714 0.00115625 10
2.81805 15.662 -0.277772 0.00116167 10
2.81943 15.6697 0.277907 0.00116206 10
2.8171 15.6568 0.833713 0.00115743 10
2.82129 15.68 1.39385 0.000894975 10
2.81887 15.6666 1.95451 0.000883681 10
2.84002 15.7841 2.5401 0.000544225 10
2.84106 15.7899 3.11853 0.000532602 10
2.83994 15.7837 3.70247 0.000518871 10
2.81769 15.66 4.26347 0.000803228 10
1.76311 9.99911 -2.72058 0.000618961 1
2.04442 11.5945 -2.71809 0.000385157 1
2.42848 13.7726 -2.71842 0.000218439 1
2.77772 15.7532 -2.53355 0.00109113 10
2.77911 15.7611 -1.96508 0.00111074 10
4.6965 26.6352 -2.36622 0.000385152 10
4.71776 26.7557 -1.42384 0.000176541 10
2.77792 15.7544 -0.279236 0.00114126 10
2.78075 15.7704 0.27952 0.00114165 10
2.78058 15.7694 0.83919 0.0011371 10
2.7765 15.7463 1.39888 0.000879248 10
2.77545 15.7404 1.96249 0.000868145 10
2.78389 15.7882 2.53919 0.000775215 10
2.78569 15.7984 3.11828 0.000758347 10
2.78324 15.7846 3.70037 0.000738487 10
2.77882 15.7594 4.28787 0.000789053 10
1.72969 10.0138 -2.72294 0.00061892 1
2.00582 11.6124 -2.72064 0.000385128 1
2.38152 13.7875 -2.71971 0.000218419 1
2.739 15.8571 -2.54871 0.00107176 10
2.73677 15.8442 -1.97423 0.00109104 10
4.59373 26.5948 -2.3612 0.000388849 10
5.90114 34.1639 -1.81697 0.00018213 10
5.91561 34.2477 -0.606648 8.30814e-05 10
5.91352 34.2356 0.606433 8.31151e-05 10
3.45155 19.9823 1.06274 5.56473e-05 10
2.72767 15.7915 1.40203 0.00125565 10
2.73203 15.8168 1.97081 0.00123929 10
2.73128 15.8124 2.54152 0.00121775 10
2.73117 15.8118 3.11901 0.00119126 10
2.72943 15.8017 3.70213 0.00116006 10
2.73211 15.8172 4.30097 0.00112447 10
1.69576 10.0259 -2.72459 0.00061888 1
1.96646 11.6264 -2.72229 0.000385098 1
2.33151 13.7847 -2.71753 0.000218398 1
2.69436 15.93 -2.5589 0.00105257 10
2.69494 15.9335 -1.98417 0.00107153 10
4.48757 26.5321 -2.35423 0.000392552 10
5.76883 34.1074 -1.81288 0.000183981 10
5.76705 34.0969 -0.603616 0.00012214 10
5.76952 34.1115 0.603874 0.000122132 10
3.38254 19.9988 1.06298 5.56682e-05 10
2.66655 15.7656 1.3989 0.00126645 10
2.66807 15.7746 1.96438 0.00124995 10
2.66896 15.7799 2.53478 0.00122824 10
2.66932 15.782 3.11127 0.00120153 10
2.6701 15.7866 3.69639 0.00117007 10
2.66751 15.7713 4.28592 0.00113419 10
1.65779 10.0139 -2.71973 0.000618839 1
1.92448 11.6248 -2.72033 0.000385068 1
2.28546 13.8053 -2.72 0.000218378 1
2.65464 16.0353 -2.57432 0.00103358 10
2.65227 16.021 -1.99391 0.00105221 10
4.38356 26.4789 -2.34814 0.000396259 10
5.6357 34.0424 -1.80837 0.000185835 10
5.6547 34.1572 -0.604331 8.31911e-05 10
5.65456 34.1564 0.604316 8.32253e-05 10
3.313 20.0122 1.06307 5.56892e-05 10
2.60448 15.7324 1.39514 0.00127725 10
2.60852 15.7568 1.96102 0.00126062 10
2.60655 15.7449 2.52768 0.00123873 10
2.60579 15.7403 3.10124 0.0012118 10
2.60493 15.7351 3.68218 0.00118009 10
2.60739 15.75 4.27763 0.00114391 10
1.62498 10.0329 -2.72334 0.000618798 1
1.88528 11.6401 -2.72234 0.000385038 1
2.23814 13.8187 -2.72109 0.000218357 1
2.61347 16.1361 -2.589 0.00101477 10
2.61032 16.1166 -2.00465 0.00103308 10
4.28142 26.4343 -2.34284 0.000399972 10
5.50302 33.9767 -1.80385 0.000187694 10
5.50213 33.9712 -0.600696 0.000124604 10
5.50455 33.9861 0.600961 0.000124596 10
3.24097 20.0104 1.06237 5.57101e-05 10
2.54721 15.727 1.39386 0.00128806 10
2.54819 15.733 1.95695 0.0012713 10
2.5467 15.7238 2.52286 0.00124923 10
2.54656 15.723 3.09606 0.00122208 10
2.54686 15.7248 3.67767 0.00119012 10
2.54604 15.7198 4.26699 0.00115365 10
1.58865 10.0303 -2.72111 0.000618757 1
1.84448 11.6456 -2.72211 0.000385008 1
2.18692 13.8077 -2.7174 0.000218336 1
2.56941 16.2226 -2.60143 0.000996154 10
2.56904 16.2203 -2.01643 0.00101414 10
4.1814 26.4003 -2.33852 0.000403689 10
5.37023 33.9063 -1.7991 0.000189555 10
5.39774 34.0799 -0.602283 8.3297e-05 10
5.39384 34.0553 0.601848 8.33315e-05 10
3.17092 20.0204 1.0623 5.57311e-05 10
2.48535 15.6919 1.38997 0.00129888 10
2.48314 15.6779 1.949 0.00128198 10
2.48644 15.6987 2.51743 0.00125974 10
2.48416 15.6844 3.08674 0.00123237 10
2.48593 15.6955 3.66877 0.00120014 10
2.4838 15.6821 4.25438 0.00116338 10
1.55479 10.0433 -2.72315 0.000618716 1
1.80507 11.66 -2.724 0.000384978 1
2.14222 13.8379 -2.72186 0.000218316 1
2.52617 16.318 -2.61531 0.000977726 10
2.52437 16.3064 -2.02602 0.0009954 10
4.07884 26.3476 -2.33258 0.000407409 10
5.24073 33.853 -1.79529 0.000191419 10
5.24121 33.8561 -0.598 0.000192386 10
5.24088 33.854 0.597962 0.000192374 10
3.10269 20.0421 1.06287 5.57522e-05 10
2.42251 15.6484 1.38537 0.0013097 10
2.42266 15.6494 1.94439 0.00129267 10
2.42285 15.6506 2.50834 0.00127025 10
2.42347 15.6546 3.0792 0.00124266 10
2.42347 15.6546 3.65721 0.00121018 10
2.42673 15.6757 4.25032 0.00117312 10
1.51991 10.0499 -2.72349 0.000618675 1
1.76199 11.6506 -2.72035 0.000384948 1
2.09087 13.8252 -2.7179 0.000218295 1
2.48269 16.416 -2.6296 0.000959486 10
2.48099 16.4048 -2.03716 0.000976846 10
3.97937 26.3123 -2.32821 0.000411135 10
5.11113 33.7957 -1.7913 0.000193286 10
5.11061 33.7923 -0.596555 0.000194262 10
5.11285 33.8071 0.596815 0.00019425 10
3.03318 20.056 1.06304 5.57732e-05 10
2.38249 15.7535 1.39392 0.00085725 10
2.38074 15.7419 1.95484 0.000846443 10
2.38001 15.7371 2.52085 0.000832097 10
2.3813 15.7456 3.09544 0.000814356 10
2.38264 15.7545 3.67857 0.000793393 10
2.38288 15.756 4.26983 0.000769416 10
1.48227 10.0379 -2.71882 0.000618634 1
1.72234 11.6636 -2.72196 0.000384918 1
2.04279 13.8337 -2.71816 0.000218274 1
2.435 16.4898 -2.64004 0.000941437 10
2.43698 16.5031 -2.0483 0.000958488 10
3.87693 26.2545 -2.32188 0.000414863 10
4.98328 33.7466 -1.78776 0.000195156 10
4.98171 33.736 -0.59525 0.000196141 10
4.98026 33.7262 0.595076 0.000196128 10
2.96327 20.0672 1.06308 5.57943e-05 10
2.3397 15.8444 1.40124 0.000841261 10
2.33976 15.8448 1.96659 0.000830649 10
2.34095 15.8528 2.53807 0.000816561 10
2.33885 15.8386 3.1121 0.000799137 10
2.33895 15.8393 3.69645 0.000778551 10
2.33889 15.8389 4.29005 0.000755005 10
1.44988 10.0615 -2.72381 0.000618593 1
1.68017 11.6596 -2.71963 0.000384887 1
1.99625 13.853 -2.72057 0.000218254 1
2.39218 16.6006 -2.65643 0.000923576 10
2.39141 16.5953 -2.05869 0.00094032 10
3.74594 25.995 -2.29776 0.000428662 10
3.74501 25.9886 -1.37607 0.00043275 10
3.74828 26.0113 -0.458718 0.000434792 10
3.74533 25.9908 0.458357 0.000434766 10
2.89256 20.073 1.06285 5.58154e-05 10
2.29855 15.9508 1.40993 0.000825437 10
2.29551 15.9297 1.97613 0.000815017 10
2.29724 15.9417 2.55101 0.000801184 10
2.29411 15.9201 3.12651 0.000784076 10
2.29745 15.9432 3.7188 0.000763862 10
2.29707 15.9406 4.31538 0.000740743 10
1.41495 10.0679 -2.72418 0.000618552 1
1.64187 11.6825 -2.72362 0.000384857 1
1.94974 13.8731 -2.72316 0.000218233 1
2.34839 16.7097 -2.67256 0.000905908 10
2.34536 16.6881 -2.06917 0.000922349 10
3.64672 25.9477 -2.29244 0.000432479 10
3.64742 25.9527 -1.37349 0.000436601 10
3.64758 25.9539 -0.457478 0.00043866 10
3.64706 25.9501 0.457412 0.000438634 10
2.82274 20.0848 1.06295 5.58366e-05 10
2.25343 16.034 1.41658 0.000809782 10
2.25131 16.0189 1.9862 0.000799552 10
2.2543 16.0402 2.56548 0.000785972 10
2.25174 16.0219 3.14495 0.000769176 10
2.25277 16.0293 3.73702 0.000749331 10
2.25089 16.0159 4.33361 0.000726633 10
1.37939 10.0698 -2.72339 0.000618511 1
1.59937 11.6757 -2.72072 0.000384827 1
1.90007 13.8709 -2.7214 0.000218212 1
2.29921 16.7847 -2.68325 0.000888429 10
2.30025 16.7923 -2.08108 0.000904568 10
3.54893 25.9078 -2.28781 0.000436299 10
3.54836 25.9037 -1.37023 0.000440455 10
3.5483 25.9033 -0.456366 0.000442531 10
3.55046 25.919 0.456643 0.000442505 10
2.74986 20.0745 1.06188 5.58578e-05 10
2.20808 16.1194 1.42343 0.000794291 10
2.20818 16.1201 1.99779 0.00078425 10
2.20807 16.1193 2.57689 0.00077092 10
2.20782 16.1175 3.16218 0.000754433 10
2.20828 16.1208 3.75654 0.000734953 10
2.20719 16.1129 4.35776 0.000712673 10
1.3444 10.0758 -2.72372 0.00061847 1
1.55851 11.6804 -2.72054 0.000384797 1
1.8515 13.8763 -2.72119 0.000218191 1
2.25429 16.8951 -2.69964 0.000871142 10
2.25282 16.8841 -2.09148 0.000886984 10
3.45112 25.8649 -2.28294 0.00044012 10
3.45097 25.8638 -1.36748 0.00044431 10
3.4509 25.8633 -0.455446 0.000446404 10
3.45085 25.8629 0.455439 0.000446377 10
2.67915 20.0793 1.06164 5.5879e-05 10
2.16534 16.2284 1.43239 0.00077897 10
2.16613 16.2344 2.01099 0.000769116 10
2.16437 16.2212 2.59195 0.000756033 10
2.16395 16.218 3.18041 0.000739852 10
2.16406 16.2189 3.7776 0.000720734 10
2.16499 16.2258 4.38622 0.000698867 10
1.30784 10.0698 -2.72087 0.000618428 1
1.51694 11.6798 -2.71913 0.000384767 1
1.80305 13.8827 -2.72119 0.00021817 1
2.20804 17.001 -2.71531 0.000854045 10
2.20941 17.0115 -2.10629 0.000869592 10
3.3522 25.8105 -2.27709 0.000443943 10
3.35347 25.8203 -1.36455 0.000448168 10
3.35119 25.8028 -0.454172 0.000450279 10
3.3542 25.8259 0.454579 0.000450252 10
2.6113 20.1059 1.06256 5.59002e-05 10
2.12029 16.3254 1.44028 0.000763814 10
2.11773 16.3056 2.0189 0.000754144 10
2.11802 16.3079 2.60461 0.000741306 10
2.12044 16.3265 3.2002 0.000725428 10
2.11859 16.3123 3.79761 0.000706668 10
2.11946 16.319 4.40938 0.00068521 10
1.27238 10.0719 -2.72021 0.000618387 1
1.47802 11.6997 -2.72256 0.000384736 1
1.75468 13.8897 -2.72135 0.00021815 1
2.15172 17.0326 -2.71914 0.000108082 1
2.16177 17.1122 -2.11781 0.000852396 10
3.26455 25.8416 -2.27881 0.000278392 10
3.2631 25.8301 -1.36446 0.000281173 10
3.26529 25.8474 -0.454754 0.000282628 10
3.2623 25.8237 0.454337 0.000282742 10
2.54147 20.1178 1.06271 5.59215e-05 10
2.07536 16.4282 1.4487 0.000748827 10
2.07302 16.4096 2.03086 0.000739341 10
2.07326 16.4115 2.61999 0.000726745 10
2.07384 16.4161 3.21633 0.000711167 10
2.07408 16.418 3.82053 0.00069276 10
2.07346 16.4131 4.43284 0.000671707 10
1.23825 10.0847 -2.72248 0.000618345 1
1.43671 11.701 -2.72168 0.000384706 1
1.70522 13.8878 -2.71979 0.000218129 1
2.09271 17.0437 -2.71973 0.000108069 1
2.11044 17.1881 -2.12629 0.000835395 10
3.18475 25.9376 -2.28629 0.00044103 10
3.19148 25.9925 -1.37244 0.0002751 10
3.19078 25.9867 -0.457006 0.000276526 10
3.19094 25.988 0.457029 0.000276639 10
2.47104 20.1249 1.06262 5.59428e-05 10
2.02963 16.53 1.45705 0.000734009 10
2.02597 16.5001 2.04117 0.000724703 10
2.02625 16.5024 2.63336 0.000712348 10
2.02798 16.5165 3.2346 0.000697065 10
2.02576 16.4985 3.83758 0.000679009 10
2.02816 16.518 4.45921 0.000658357 10
1.20341 10.0921 -2.72332 0.000618304 1
1.39508 11.6994 -2.72016 0.000384675 1
1.65892 13.9121 -2.72339 0.000218108 1
2.03242 17.0443 -2.71868 0.000108056 1
2.06327 17.3031 -2.13961 0.000818587 10
3.08804 25.897 -2.28175 0.000444775 10
3.96707 33.2688 -1.7559 0.000210188 10
5.19444 43.5619 -0.765762 8.60218e-05 10
5.19558 43.5714 0.765929 8.6016e-05 10
2.4002 20.1286 1.06237 5.59642e-05 10
1.98057 16.6095 1.46344 0.000719356 10
1.98179 16.6198 2.05511 0.000710229 10
1.98215 16.6228 2.65145 0.000698111 10
1.97919 16.598 3.24918 0.000683122 10
1.98214 16.6227 3.86485 0.000665412 10
1.9791 16.5972 4.47871 0.000645156 10
1.16655 10.0822 -2.71953 0.000618263 1
1.35655 11.7243 -2.72482 0.000384645 1
1.60931 13.9088 -2.72164 0.000218087 1
1.97254 17.0481 -2.71817 0.000108043 1
2.01454 17.4111 -2.15208 0.000801975 10
2.99101 25.8505 -2.27671 0.000448519 10
3.84314 33.2152 -1.75235 0.000212074 10
5.03205 43.4906 -0.764197 8.68601e-05 10
5.02965 43.4699 0.763832 8.68543e-05 10
2.32726 20.1138 1.06115 5.59856e-05 10
1.93393 16.7144 1.47208 0.000704873 10
1.9337 16.7124 2.06572 0.000695923 10
1.93229 16.7002 2.6627 0.000684039 10
1.93484 16.7223 3.27217 0.000669341 10
1.93441 16.7186 3.88553 0.000651973 10
1.9344 16.7185 4.5096 0.000632109 10
1.13183 10.0905 -2.72071 0.000618221 1
1.31397 11.7143 -2.72142 0.000384615 1
1.55936 13.902 -2.71923 0.000218066 1
1.91468 17.0697 -2.72053 0.00010803 1
1.96406 17.51 -2.16344 0.000785555 10
2.00126 17.8416 -1.57073 0.000824823 10
2.00167 17.8453 -0.941099 0.000832107 10
2.00337 17.8605 -0.313711 0.000835745 10
2.00278 17.8551 0.313617 0.000835699 10
2.00195 17.8478 0.941229 0.000831971 10
1.88633 16.817 1.48052 0.000690556 10
1.88599 16.8139 2.07744 0.000681781 10
1.88532 16.808 2.67882 0.00067013 10
1.88696 16.8226 3.2905 0.000655718 10
1.88714 16.8242 3.90854 0.000638689 10
1.88512 16.8062 4.53145 0.000619213 10
1.09735 10.1012 -2.72254 0.00061818 1
1.27197 11.7087 -2.71907 0.000384584 1
1.51221 13.9201 -2.72171 0.000218045 1
1.8539 17.0654 -2.7188 0.000108016 1
1.91595 17.6366 -2.17824 0.000769332 10
1.93652 17.8259 -1.56874 0.000831162 10
1.93632 17.8241 -0.939616 0.0008385 10
1.93654 17.8261 -0.312986 0.000842164 10
1.93418 17.8044 0.312606 0.000842119 10
1.93428 17.8053 0.938626 0.000838363 10
1.83819 16.9208 1.48909 0.000676409 10
1.83797 16.9187 2.08958 0.000667807 10
1.83855 16.9241 2.69628 0.000656385 10
1.83877 16.9262 3.30947 0.000642257 10
1.83874 16.9258 3.93062 0.000625564 10
1.83763 16.9157 4.55921 0.000606471 10
1.06181 10.1024 -2.72185 0.000618138 1
1.23117 11.7138 -2.71923 0.000384554 1
1.46413 13.9303 -2.72268 0.000218024 1
1.79403 17.0691 -2.71837 0.000108003 1
1.86554 17.7494 -2.19136 0.000753302 10
1.87003 17.7922 -1.56519 0.000837499 10
1.86844 17.777 -0.936785 0.00084489 10
1.86865 17.779 -0.312043 0.000848581 10
1.86822 17.7749 0.311971 0.000848535 10
1.86808 17.7736 0.936606 0.000844753 10
1.78972 17.0281 1.49797 0.000662428 10
1.78911 17.0223 2.10159 0.000653998 10
1.78919 17.023 2.71103 0.000642802 10
1.79013 17.032 3.32892 0.000628955 10
1.78953 17.0262 3.95247 0.000612593 10
1.78759 17.0078 4.58233 0.00059388 10
1.02696 10.1102 -2.72297 0.000618096 1
1.19307 11.7455 -2.72562 0.000384523 1
1.41529 13.9332 -2.72229 0.000218003 1
1.73469 17.0777 -2.71875 0.00010799 1
1.81436 17.862 -2.20446 0.000737469 10
1.81415 17.8599 -1.57058 0.000493835 10
1.81131 17.832 -0.939345 0.000498418 10
1.8119 17.8377 -0.312961 0.000500819 10
1.8117 17.8359 0.312928 0.000501015 10
1.81081 17.827 0.939083 0.000499002 10
1.74013 17.1312 1.5065 0.000648617 10
1.74138 17.1435 2.11579 0.000640356 10
1.74115 17.1413 2.72888 0.000629385 10
1.74028 17.1328 3.34741 0.000615814 10
1.74053 17.1352 3.97632 0.00059978 10
1.73961 17.1261 4.61255 0.000581442 10
0.991425 10.1113 -2.72232 0.000618054 1
1.15144 11.7433 -2.72416 0.000384493 1
1.36731 13.9449 -2.72362 0.000217982 1
1.67609 17.0941 -2.72043 0.000107977 1
1.76024 17.9523 -2.21484 0.000721828 10
1.76803 18.0318 -1.58515 0.000812114 10
1.76723 18.0236 -0.949108 0.000819297 10
1.76908 18.0425 -0.316443 0.000822885 10
1.7679 18.0304 0.316231 0.00082284 10
1.76824 18.034 0.949653 0.000819165 10
1.69113 17.2475 1.51619 0.000634972 10
1.69157 17.252 2.12844 0.000626878 10
1.69041 17.2402 2.74367 0.000616129 10
1.69127 17.2489 3.36893 0.000602833 10
1.69062 17.2423 3.99979 0.000587123 10
1.68957 17.2315 4.63932 0.000569155 10
0.957362 10.1278 -2.72584 0.000618013 1
1.11023 11.745 -2.72362 0.000384462 1
1.3162 13.9239 -2.7186 0.000217961 1
1.6148 17.0828 -2.71772 0.000107964 1
1.70776 18.0662 -2.22813 0.000706384 10
1.70776 18.0662 -1.58764 0.000473035 10
1.70941 18.0837 -0.95195 0.000477437 10
1.70743 18.0627 -0.31669 0.000479744 10
1.70856 18.0747 0.316901 0.000479933 10
1.7074 18.0624 0.950832 0.000478004 10
1.641 17.36 1.52557 0.000621497 10
1.64025 17.352 2.14005 0.000613568 10
1.63944 17.3435 2.75918 0.000603038 10
1.63882 17.3369 3.38497 0.000590013 10
1.63937 17.3427 4.02173 0.000574623 10
1.63949 17.3439 4.66801 0.000557021 10
0.921647 10.1272 -2.72478 0.000617971 1
1.06804 11.7357 -2.72059 0.000384431 1
1.2679 13.9318 -2.71926 0.00021794 1
1.55526 17.0893 -2.71787 0.000107951 1
1.65532 18.1888 -2.24254 0.000691135 10
1.66426 18.2871 -1.60652 0.000787843 10
1.66283 18.2714 -0.961519 0.000794828 10
1.66372 18.2811 -0.320417 0.000798316 10
1.66345 18.2781 0.320364 0.000798273 10
1.66293 18.2724 0.961576 0.000794699 10
1.58949 17.4655 1.53435 0.000608189 10
1.58825 17.4519 2.15168 0.000600424 10
1.58805 17.4497 2.77518 0.000590111 10
1.58759 17.4446 3.40491 0.000577353 10
1.58836 17.453 4.046 0.000562279 10
1.58701 17.4383 4.69188 0.00054504 10
0.884802 10.1133 -2.72021 0.00061793 1
1.02726 11.7417 -2.72113 0.000384401 1
1.2202 13.9469 -2.72136 0.000217919 1
1.4971 17.1119 -2.72061 0.000107937 1
1.60257 18.3175 -2.25769 0.000676077 10
1.60118 18.3016 -1.6073 0.000452755 10
1.60217 18.3128 -0.963401 0.000456979 10
1.60196 18.3105 -0.320832 0.000459194 10
1.59981 18.2859 0.320401 0.000459378 10
1.59971 18.2848 0.961925 0.00045753 10
1.5378 17.5771 1.54367 0.000595047 10
1.5385 17.5851 2.16743 0.000587444 10
1.53681 17.5658 2.79278 0.000577345 10
1.5369 17.5668 3.42769 0.000564851 10
1.53746 17.5732 4.0726 0.000550091 10
1.53537 17.5493 4.72028 0.000533209 10
0.849947 10.1217 -2.72165 0.000617888 1
0.986564 11.7486 -2.72193 0.00038437 1
1.17279 13.9664 -2.72435 0.000217898 1
1.43818 17.1267 -2.72215 0.000107924 1
1.54684 18.4208 -2.26975 0.000661216 10
1.55735 18.546 -1.62827 0.000764618 10
1.55633 18.5338 -0.974734 0.000771412 10
1.55507 18.5188 -0.324385 0.000774806 10
1.55568 18.5261 0.324512 0.000774764 10
1.55675 18.5388 0.974998 0.000771288 10
1.4849 17.6831 1.55251 0.000582075 10
1.48383 17.6704 2.17729 0.000574631 10
1.48415 17.6742 2.80918 0.000564743 10
1.48497 17.684 3.44953 0.000552512 10
1.48338 17.6651 4.09266 0.00053806 10
1.4854 17.6891 4.75647 0.000521531 10
0.814491 10.1232 -2.72126 0.000617846 1
0.945415 11.7504 -2.72156 0.000384339 1
1.12318 13.9598 -2.72229 0.000217876 1
1.37797 17.1266 -2.72135 0.000107911 1
1.49128 18.5349 -2.28315 0.000646546 10
1.49181 18.5415 -1.62741 0.000432994 10
1.49229 18.5474 -0.975171 0.000437044 10
1.49115 18.5333 -0.324545 0.00043917 10
1.49127 18.5347 0.32457 0.000439348 10
1.49172 18.5403 0.974797 0.000437579 10
1.43238 17.8028 1.56258 0.000569268 10
1.43081 17.7833 2.19057 0.000561982 10
1.43118 17.7879 2.82644 0.000552303 10
1.43276 17.8075 3.47261 0.00054033 10
1.43109 17.7867 4.11966 0.000526183 10
1.43045 17.7788 4.77921 0.000510003 10
0.779379 10.1289 -2.72205 0.000617804 1
0.905212 11.7642 -2.72402 0.000384308 1
1.07521 13.9735 -2.7242 0.000217855 1
1.31742 17.1213 -2.71977 0.000107898 1
1.4355 18.656 -2.29743 0.000632072 10
1.4372 18.678 -1.63895 0.000114703 10
1.44459 18.7741 -0.986818 0.000748985 10
1.44509 18.7806 -0.328785 0.000752288 10
1.44396 18.7659 0.328528 0.000752248 10
1.44407 18.7673 0.986459 0.000748864 10
1.37876 17.9185 1.5723 0.000556631 10
1.37783 17.9065 2.20514 0.0005495 10
1.37855 17.9158 2.84598 0.000540027 10
1.37826 17.9121 3.49204 0.000528309 10
1.37782 17.9063 4.14623 0.000514463 10
1.37687 17.894 4.80885 0.000498629 10
0.745311 10.1492 -2.7268 0.000617762 1
0.863825 11.7631 -2.72303 0.000384278 1
1.02493 13.9569 -2.72025 0.000217834 1
1.25822 17.1337 -2.72102 0.000107884 1
1.37837 18.7698 -2.31085 0.00061779 10
1.37957 18.7862 -1.648 0.000626396 10
1.37816 18.767 -0.986187 0.000417632 10
1.37969 18.7878 -0.328825 0.000419669 10
1.37935 18.7832 0.328744 0.000419843 10
1.37857 18.7725 0.986476 0.00041815 10
1.32477 18.0399 1.58254 0.000544158 10
1.3239 18.0281 2.21954 0.000537181 10
1.32431 18.0337 2.86396 0.000527912 10
1.32468 18.0388 3.51582 0.000516446 10
1.32368 18.0251 4.17264 0.000502898 10
1.32385 18.0275 4.84346 0.000487404 10
0.70921 10.1422 -2.72422 0.00061772 1
0.822194 11.7579 -2.72115 0.000384247 1
0.97643 13.9636 -2.72087 0.000217813 1
1.1985 17.1393 -2.72123 0.000107871 1
1.32276 18.9163 -2.3283 0.000603702 10
1.32289 18.9182 -1.65917 0.000612123 10
1.32971 19.0157 -0.999005 0.000727487 10
1.33019 19.0226 -0.332851 0.000730702 10
1.33001 19.02 0.332806 0.000730663 10
1.33113 19.036 1.00007 0.00072737 10
1.26869 18.1431 1.59119 0.000531855 10
1.26847 18.1399 2.23273 0.000525029 10
1.26804 18.1338 2.87913 0.000515961 10
1.26851 18.1405 3.53477 0.000504744 10
1.26947 18.1542 4.20146 0.000491489 10
1.2676 18.1275 4.86911 0.000476331 10
0.673302 10.1371 -2.7222 0.000617677 1
0.781051 11.7593 -2.72083 0.000384216 1
0.928554 13.9801 -2.72344 0.000217792 1
1.13937 17.1541 -2.72293 0.000107858 1
1.26333 19.0204 -2.34056 0.000589806 10
1.26458 19.0392 -1.66938 0.000598044 10
1.26438 19.0362 -0.999846 0.00039874 10
1.26345 19.0221 -0.332764 0.000400691 10
1.26333 19.0204 0.332734 0.00040086 10
1.26341 19.0215 0.999073 0.000399242 10
1.21334 18.2678 1.60175 0.000519715 10
1.21267 18.2577 2.24671 0.000513039 10
1.21238 18.2532 2.89739 0.000504171 10
1.21379 18.2745 3.56003 0.000493198 10
1.21209 18.249 4.22239 0.000480234 10
1.21208 18.2488 4.90054 0.000465408 10
0.638773 10.153 -2.72587 0.000617636 1
0.74113 11.7799 -2.72498 0.000384185 1
0.879685 13.9822 -2.72323 0.00021777 1
1.07814 17.1365 -2.71952 0.000107845 1
1.2052 19.156 -2.35672 0.000576103 10
1.2045 19.145 -1.67828 0.000584161 10
1.22515 19.4732 -1.02256 0.00104038 10
1.22469 19.4659 -0.340451 0.001045 10
1.22421 19.4583 0.340316 0.00104494 10
1.22583 19.484 1.02313 0.00104021 10
1.15708 18.3913 1.61221 0.000507744 10
1.15674 18.3858 2.26195 0.000501216 10
1.15648 18.3817 2.91714 0.000492543 10
1.15604 18.3747 3.57874 0.000481814 10
1.15572 18.3697 4.24936 0.000469135 10
1.15653 18.3825 4.9353 0.000454637 10
0.602021 10.1331 -2.71995 0.000617593 1
0.700174 11.7852 -2.72563 0.000384154 1
0.830117 13.9724 -2.72075 0.000217749 1
1.01877 17.1477 -2.72072 0.000107831 1
1.14667 19.3006 -2.37399 0.000562593 10
1.14517 19.2754 -1.68935 0.000570473 10
1.15443 19.4312 -1.02014 0.00104762 10
1.15398 19.4236 -0.339638 0.00105227 10
1.15512 19.4428 0.339974 0.00105221 10
1.15417 19.4267 1.01991 0.00104745 10
1.09976 18.511 1.62236 0.000495939 10
1.09925 18.5023 2.2758 0.000489557 10
1.09906 18.4991 2.93514 0.000481078 10
1.1004 18.5217 3.6066 0.000470587 10
1.09944 18.5055 4.27987 0.000458191 10
1.09967 18.5094 4.96832 0.000444016 10
0.567074 10.1429 -2.72201 0.000617551 1
0.659057 11.7881 -2.72575 0.000384123 1
0.78237 13.9937 -2.72435 0.000217728 1
0.959524 17.1623 -2.72249 0.000107818 1
1.08525 19.4112 -2.38712 0.000549273 10
1.08611 19.4265 -1.70225 0.000556977 10
1.08584 19.4216 -1.01943 0.00056224 10
1.08537 19.4132 -0.339387 0.000565006 10
1.08487 19.4042 0.339231 0.000565249 10
1.08512 19.4088 1.01876 0.00105468 10
1.08498 19.4062 1.70047 0.000435217 10
1.0846 19.3996 2.38569 0.000274229 10
1.08463 19.4 3.07746 0.000269441 10
1.07917 19.3024 3.75786 0.000171978 10
1.08374 19.3841 4.48217 0.000401824 10
1.0846 19.3995 5.2062 0.000389289 10
0.53259 10.1624 -2.72674 0.000617509 1
0.617386 11.7804 -2.72345 0.000384092 1
0.733444 13.9949 -2.72406 0.000217707 1
0.898547 17.1452 -2.71926 0.000107805 1
1.02433 19.5452 -2.40315 0.000536146 10
1.0241 19.541 -1.71196 0.000543676 10
1.02439 19.5465 -1.0258 0.000548821 10
1.0239 19.537 -0.341488 0.000551527 10
1.02374 19.534 0.341435 0.000551765 10
1.02316 19.523 1.02456 0.000549534 10
1.02319 19.5236 1.71044 0.000424831 10
1.01511 19.3693 2.38151 0.000809494 10
1.01568 19.3802 3.07374 0.000794971 10
1.01233 19.3162 3.75985 0.000171996 10
1.02257 19.5117 4.51082 0.000392202 10
1.02269 19.5141 5.23596 0.000379952 10
0.496443 10.1505 -2.72307 0.000617467 1
0.576243 11.7821 -2.72337 0.000384061 1
0.683682 13.9789 -2.72047 0.000217685 1
0.8393 17.1607 -2.72124 0.000107791 1
0.962169 19.673 -2.41843 0.000523207 10
0.963119 19.6924 -1.72492 0.000530567 10
0.962883 19.6876 -1.03302 0.000535595 10
0.961964 19.6688 -0.343731 0.00053824 10
0.96151 19.6595 0.343568 0.000538475 10
0.962723 19.6843 1.03284 0.000536296 10
0.962536 19.6805 1.72388 0.000414594 10
0.946038 19.3432 2.37788 0.000814988 10
0.946037 19.3431 3.06731 0.000800371 10
0.94497 19.3213 3.76017 0.000172014 10
0.961042 19.6499 4.54197 0.000382718 10
0.961623 19.6618 5.27467 0.000370751 10
0.461588 10.1649 -2.72649 0.000617424 1
0.535618 11.7952 -2.72594 0.00038403 1
0.636018 14.0062 -2.72533 0.000217664 1
0.779316 17.1618 -2.72096 0.000107778 1
0.899912 19.8175 -2.43579 0.000510461 10
0.899922 19.8177 -1.73561 0.000517652 10
1.13405 24.9737 -1.31016 0.000348682 10
1.13417 24.9761 -0.43641 0.000350311 10
1.135 24.9946 0.436732 0.000350291 10
0.916451 20.1817 1.05877 5.64191e-05 10
0.898612 19.7889 1.73309 0.000404509 10
0.877479 19.3235 2.37507 0.00082047 10
0.876903 19.3108 3.06169 0.000805759 10
0.876242 19.2963 3.75468 0.000787667 10
0.899206 19.802 4.57635 0.000373375 10
0.89838 19.7838 5.30651 0.000361687 10
0.425191 10.1448 -2.72067 0.000617382 1
0.493795 11.7816 -2.72239 0.000383999 1
0.586467 13.9927 -2.7223 0.000217643 1
0.719849 17.1751 -2.72266 0.000107764 1
0.836718 19.9635 -2.45336 0.000497903 10
0.83592 19.9445 -1.74645 0.000504927 10
1.05005 25.0535 -1.31415 0.000178864 10
1.04954 25.0414 -0.437483 0.000179793 10
1.05018 25.0566 0.437748 0.000179877 10
0.846322 20.1927 1.05918 4.36255e-05 10
0.835332 19.9305 1.74522 0.000394573 10
0.808346 19.2866 2.37017 0.000825941 10
0.808285 19.2851 3.05715 0.000811137 10
0.807439 19.2649 3.74801 0.000792929 10
0.835403 19.9321 4.60574 0.000364171 10
0.835179 19.9268 5.34406 0.000352757 10
0.39023 10.1579 -2.72382 0.00061734 1
0.453207 11.7973 -2.72562 0.000383968 1
0.538076 14.0065 -2.72459 0.000217621 1
0.659297 17.1619 -2.72019 0.000107751 1
0.771824 20.0911 -2.46869 0.000485535 10
0.77171 20.0881 -1.75878 0.000492396 10
1.22874 31.9849 -1.67749 0.00025345 10
1.60215 41.705 -0.7285 0.000107155 10
1.60169 41.6931 0.728292 0.000107148 10
0.775521 20.1873 1.05875 4.36425e-05 10
0.771138 20.0732 1.75747 0.000384787 10
0.74048 19.2752 2.36844 0.00042302 10
0.741109 19.2916 3.05774 0.000415648 10
0.740778 19.2829 3.75099 0.000406526 10
0.771056 20.0711 4.63719 0.000355107 10
0.770919 20.0675 5.38104 0.000343964 10
0.354983 10.1653 -2.72544 0.000617297 1
0.411941 11.7963 -2.72506 0.000383937 1
0.488617 13.992 -2.72143 0.0002176 1
0.600051 17.183 -2.72318 0.000107738 1
0.7062 20.2227 -2.48455 0.000473356 10
0.706054 20.2185 -1.76997 0.000480055 10
0.86865 24.8746 -1.30442 0.000356008 10
0.868406 24.8676 -0.434331 0.000357669 10
0.868224 24.8624 0.43424 0.000357649 10
0.70626 20.2244 1.06056 0.000378386 10
0.705787 20.2109 1.7693 0.00037515 10
0.705858 20.2129 2.48335 0.000370253 10
0.706056 20.2186 3.20426 0.000363745 10
0.70609 20.2196 3.93268 0.000355693 10
0.705247 20.1954 4.66532 0.000346181 10
0.705516 20.2031 5.41671 0.000335306 10
0.0844322 2.68667 -0.720246 0.00525606 9
0.370391 11.786 -2.72236 0.000383906 1
0.440223 14.0081 -2.72424 0.000217578 1
0.540077 17.1855 -2.72325 0.000107724 1
0.640113 20.3687 -2.50219 0.000461364 10
0.640668 20.3863 -1.78445 0.000467903 10
0.784758 24.9713 -1.30934 0.000176842 10
0.785097 24.9821 -0.43628 0.000177761 10
0.78528 24.9879 0.436381 0.000177846 10
0.64023 20.3724 1.0682 0.000368817 10
0.639715 20.356 1.7818 0.000365661 10
0.639757 20.3573 2.5008 0.000360882 10
0.640179 20.3708 3.22801 0.000354532 10
0.639247 20.3411 3.95586 0.000346675 10
0.639197 20.3395 4.69806 0.000337392 10
0.639765 20.3576 5.4575 0.00032678 10
0.0749733 2.68406 -0.719471 0.0017674 9
0.329287 11.7885 -2.72266 0.000383874 1
0.391279 14.0078 -2.72391 0.000217557 1
0.479568 17.1686 -2.7203 0.000107711 1
0.573228 20.5217 -2.52073 0.000449561 10
0.573416 20.5284 -1.7967 0.000455943 10
0.88891 31.8231 -1.66843 0.000259014 10
0.889333 31.8383 -0.555956 0.000260299 10
0.889247 31.8352 0.555902 0.000260283 10
0.572465 20.4943 1.07448 0.000359399 10
0.572529 20.4966 1.79392 0.000356321 10
0.572919 20.5106 2.51937 0.000351659 10
0.572832 20.5075 3.24934 0.000345464 10
0.572757 20.5048 3.98728 0.000337799 10
0.572322 20.4892 4.73216 0.000328743 10
0.572335 20.4897 5.49233 0.00031839 10
0.0664733 2.71991 -0.729016 0.00288211 9
0.28807 11.7871 -2.72207 0.000383843 1
0.342182 14.0012 -2.72237 0.000217536 1
0.419759 17.1754 -2.72113 0.000107697 1
0.50525 20.6735 -2.53914 0.000437943 10
0.50475 20.653 -1.80745 0.000444169 10
0.604355 24.7286 -1.29636 0.000363285 10
0.604445 24.7323 -0.431833 0.000364978 10
0.604602 24.7387 0.431944 0.000364958 10
0.505135 20.6688 1.08353 0.000350129 10
0.504608 20.6472 1.80694 0.000347126 10
0.504598 20.6468 2.53587 0.00034258 10
0.50432 20.6355 3.26931 0.000336538 10
0.504837 20.6566 4.01644 0.000329062 10
0.504764 20.6536 4.76968 0.000320229 10
0.504764 20.6536 5.53577 0.000310132 10
0.057444 2.74231 -0.734962 0.00281937 9
0.246896 11.7866 -2.72174 0.000383812 1
0.29334 14.0037 -2.72265 0.000217514 1
0.35992 17.1822 -2.72199 0.000107684 1
0.436239 20.8256 -2.55762 0.000426512 10
0.435978 20.8131 -1.82131 0.000432586 10
0.664836 31.7386 -1.66371 0.000262706 10
0.664704 31.7323 -0.554011 0.000264007 10
0.664423 31.7188 0.553776 0.000263991 10
0.435989 20.8137 1.09104 0.000341008 10
0.43596 20.8123 1.82124 0.000338081 10
0.435711 20.8004 2.55453 0.000333648 10
0.43543 20.787 3.29306 0.000327756 10
0.435842 20.8066 4.04529 0.000320466 10
0.43541 20.786 4.79988 0.000311854 10
0.435247 20.7782 5.56873 0.000302008 10
0.0481722 2.75979 -0.739596 0.00220595 9
0.206044 11.8043 -2.72565 0.000383781 1
0.244317 13.9969 -2.72114 0.000217493 1
0.300137 17.1949 -2.72382 0.000107671 1
0.366067 20.972 -2.57543 0.000415265 10
0.365866 20.9605 -1.83408 0.000421189 10
0.430615 24.6699 -1.29309 0.000368107 10
0.430584 24.6682 -0.43065 0.000369821 10
0.43046 24.6611 0.430526 0.0003698 10
0.365567 20.9433 1.09776 0.000332033 10
0.365559 20.9429 1.83254 0.00032918 10
0.365425 20.9352 2.57091 0.000324859 10
0.365786 20.9559 3.31959 0.000319116 10
0.36562 20.9464 4.07218 0.000312009 10
0.36555 20.9424 4.83566 0.000303613 10
0.36559 20.9446 5.61295 0.000294015 10
0.0389065 2.78626 -0.746648 0.00233681 9
0.164919 11.8106 -2.72695 0.00038375 1
0.195808 14.0226 -2.72598 0.000217471 1
0.239891 17.1796 -2.72125 0.000107657 1
0.294904 21.1193 -2.59337 0.000404205 10
0.294715 21.1057 -1.84669 0.00040998 10
0.343995 24.6349 -1.29118 0.000177555 10
0.344287 24.6558 -0.430411 0.000178479 10
0.343982 24.634 0.430029 0.000178566 10
0.294674 21.1028 1.10606 0.000323206 10
0.294645 21.1007 1.84625 0.000320427 10
0.294759 21.1089 2.5921 0.000316216 10
0.294543 21.0934 3.3412 0.000310618 10
0.294677 21.103 4.10241 0.000303692 10
0.294454 21.0871 4.86881 0.00029551 10
0.294421 21.0847 5.65017 0.000286155 10
0.0291653 2.785 -0.746279 0.0021088 9
0.123444 11.7877 -2.72156 0.000383719 1
0.146645 14.0032 -2.72209 0.00021745 1
0.180065 17.1944 -2.72347 0.000107644 1
0.222698 21.2655 -2.61122 0.000393327 10
0.22271 21.2666 -1.86069 0.000398957 10
0.330763 31.5847 -1.65537 0.00026821 10
0.450594 43.0273 0.751085 4.65783e-05 10
0.222665 21.2623 1.11437 0.000314525 10
0.222777 21.273 1.86125 0.000311817 10
0.222683 21.264 2.61104 0.000307715 10
0.222671 21.2629 3.3679 0.000302261 10
0.222475 21.2441 4.12967 0.000295513 10
0.222486 21.2452 4.90512 0.00028754 10
0.222652 21.2611 5.69722 0.000278426 10
0.082318 11.7908 -2.72218 0.000383687 1
0.0978119 14.01 -2.72334 0.000217428 1
0.120015 17.1903 -2.72274 0.00010763 1
0.149616 21.4302 -2.63136 0.000382633 10
0.149703 21.4426 -1.87603 0.000388119 10
0.171365 24.5454 -1.2864 0.000375289 10
0.171263 24.5308 -0.428196 0.000377034 10
0.171239 24.5273 0.428135 0.000377014 10
0.149557 21.4217 1.12269 0.000305991 10
0.149479 21.4106 1.87323 0.000303353 10
0.149586 21.4259 2.63083 0.000299358 10
0.149552 21.421 3.39284 0.000294045 10
0.149416 21.4015 4.16014 0.000287472 10
0.149516 21.4158 4.94434 0.000279706 10
0.149459 21.4077 5.73633 0.000270828 10
0.00989805 2.83529 -0.759719 0.00201425 9
0.0411585 11.7898 -2.72192 0.000383656 1
0.0489238 14.0142 -2.7241 0.000217407 1
0.0599624 17.1762 -2.72046 0.000107617 1
0.0753964 21.5973 -2.65183 0.000372122 10
0.0753292 21.578 -1.88784 0.000377467 10
0.0857507 24.5633 -1.28731 0.000175437 10
0.0857413 24.5606 -0.428709 0.000176351 10
0.0857646 24.5673 0.428825 0.000176439 10
0.0753062 21.5714 1.13052 0.000297601 10
0.0753492 21.5838 1.88835 0.000295034 10
0.074668 21.3886 2.62621 0.000636952 10
0.0746618 21.3869 3.38737 0.00062531 10
0.0753108 21.5728 4.19334 0.000279569 10
0.0752572 21.5574 4.97695 0.000272006 10
