VERSION 0.7
FIELDS x y z intensity label
SIZE 4 4 4 4 4
TYPE F F F F F
COUNT 1 1 1 1 1
WIDTH 1140
HEIGHT 1
VIEWPOINT 5.05757 48.9161 2.72861 0.727443 0.000604035 0.000510622 -0.686168
POINTS 1140
DATA ascii
-13.0579 -5.38206 -2.74534 0.000210762 1
-16.0772 -6.62653 -2.75419 0.000103468 1
-19.8712 -8.19032 -2.639 0.000328181 10
-19.8678 -8.1889 -1.88006 0.000332668 10
-19.8651 -8.1878 -1.12605 0.000335667 10
-19.8666 -8.18842 -0.375074 0.000337145 10
-19.8793 -8.19366 0.375313 0.000337087 10
-19.8603 -8.18583 1.12578 0.000335493 10
-19.8585 -8.18507 1.87918 0.000332381 10
-18.854 -7.77107 2.50391 0.000161419 10
-22.5637 -9.30009 6.53935 0.000188127 10
-8.90691 -3.70759 -2.58511 0.00150934 4
-10.2216 -4.25486 -2.55614 0.00023759 4
-13.0415 -5.42865 -2.74587 0.000210772 1
-16.0475 -6.67993 -2.75308 0.000103475 1
-19.8644 -8.26877 -2.64192 0.000328555 10
-19.8654 -8.26918 -1.88256 0.000333049 10
-19.879 -8.27484 -1.12847 0.000336052 10
-19.8829 -8.27644 -0.375924 0.000337533 10
-19.8869 -8.27812 0.376 0.000337474 10
-19.8759 -8.27352 1.12829 0.000335879 10
-19.8803 -8.27535 1.88397 0.000332762 10
-18.8615 -7.85129 2.50853 0.000161622 10
-22.5627 -9.39194 6.54852 0.000188567 10
-8.89756 -3.74019 -2.58617 0.00124681 4
-10.1867 -4.2821 -2.55112 0.0003618 4
-13.0244 -5.47497 -2.74628 0.000210782 1
-16.0284 -6.73773 -2.75383 0.000103481 1
-19.8733 -8.35398 -2.64696 0.000328897 10
-19.8812 -8.35728 -1.88681 0.000333398 10
-19.8818 -8.35754 -1.13028 0.000336405 10
-19.8809 -8.35714 -0.376435 0.000337888 10
-19.8827 -8.35791 0.376469 0.000337829 10
-19.8857 -8.35919 1.1305 0.000336231 10
-19.886 -8.35931 1.88726 0.000333109 10
-18.8934 -7.94206 2.51645 0.00016181 10
-22.5538 -9.48073 6.55549 0.000188989 10
-8.89147 -3.7742 -2.58821 0.00154081 4
-10.1705 -4.31713 -2.55083 0.000388815 4
-13.0237 -5.52825 -2.75019 0.000210793 1
-15.9822 -6.78402 -2.74993 0.000103487 1
-19.8999 -8.447 -2.65441 0.000329208 10
-19.8952 -8.44499 -1.89092 0.000333714 10
-19.8902 -8.44289 -1.13242 0.000336725 10
-19.8963 -8.44548 -0.377284 0.000338209 10
-19.9035 -8.44852 0.377419 0.000338151 10
-19.9029 -8.44826 1.13314 0.00033655 10
-19.892 -8.44363 1.89062 0.000333424 10
-18.883 -8.01537 2.51878 0.000161982 10
-22.5622 -9.57708 6.56762 0.00018939 10
-8.89924 -3.81422 -2.59433 0.00160398 4
-10.1554 -4.3526 -2.55083 0.000324026 4
-12.9809 -5.56364 -2.74523 0.000210803 1
-15.9634 -6.84192 -2.7508 0.000103494 1
-19.9118 -8.5342 -2.65996 0.000288637 10
-19.8912 -8.52538 -1.89336 0.000292594 10
-19.891 -8.5253 -1.13416 0.000295239 10
-19.8996 -8.52896 -0.377907 0.000296545 10
-19.9054 -8.53145 0.378018 0.000296499 10
-19.8926 -8.52597 1.13425 0.000295099 10
-19.9176 -8.53671 1.89588 0.000292362 10
-22.5803 -9.67791 6.58267 0.000189772 10
-8.90656 -3.85421 -2.60037 0.00138065 4
-10.141 -4.38841 -2.55105 0.000342941 4
-12.961 -5.60871 -2.74513 0.000210814 1
-15.9488 -6.90166 -2.75242 0.0001035 1
-19.9021 -8.6124 -2.66266 0.000289422 10
-19.9057 -8.61395 -1.89759 0.000293391 10
-19.9145 -8.61778 -1.13721 0.000296045 10
-19.9065 -8.6143 -0.378608 0.000297355 10
-19.9181 -8.61934 0.378829 0.000297308 10
-19.913 -8.6171 1.13712 0.000295904 10
-19.9172 -8.61892 1.89868 0.000293158 10
-22.5804 -9.7714 6.59261 0.000190134 10
-8.89838 -3.8876 -2.60193 0.00162128 4
-10.1279 -4.42478 -2.55163 0.000261942 4
-12.9495 -5.65748 -2.74686 0.000210824 1
-15.9261 -6.95792 -2.75266 0.000103507 1
-19.9161 -8.70111 -2.66858 0.000290178 10
-19.9031 -8.69546 -1.90023 0.000294159 10
-19.8936 -8.69131 -1.13774 0.00029682 10
-19.9 -8.69409 -0.379059 0.000298134 10
-19.9002 -8.69417 0.379063 0.000298087 10
-19.9077 -8.69745 1.13854 0.000296678 10
-19.9024 -8.69513 1.90015 0.000293924 10
-22.5861 -9.86762 6.60429 0.000190477 10
-8.89577 -3.9235 -2.60516 0.00111776 4
-10.1179 -4.46253 -2.55301 0.000140428 4
-12.9399 -5.70717 -2.74904 0.000210835 1
-15.897 -7.01142 -2.75186 0.000103514 1
-19.9061 -8.77961 -2.67133 0.000290905 10
-19.9033 -8.77842 -1.90316 0.000294897 10
-19.9072 -8.78013 -1.14026 0.000297566 10
-19.914 -8.78311 -0.379907 0.000298883 10
-19.9129 -8.78262 0.379886 0.000298835 10
-19.9135 -8.78291 1.14062 0.000297423 10
-19.9198 -8.78566 1.90473 0.000294661 10
-22.5836 -9.96054 6.61368 0.0001908 10
-8.90952 -3.96677 -2.61322 0.00106447 4
-10.0925 -4.49349 -2.55055 8.91217e-05 4
-12.923 -5.75367 -2.74969 0.000210846 1
-15.8612 -7.06188 -2.74992 0.00010352 1
-19.9044 -8.86202 -2.67524 0.000291602 10
-19.9097 -8.86439 -1.90672 0.000295605 10
-19.9008 -8.86039 -1.14166 0.000298281 10
-19.9182 -8.86817 -0.380577 0.000299602 10
-19.9239 -8.87069 0.380685 0.000299554 10
-19.9275 -8.8723 1.14319 0.000298138 10
-19.9121 -8.86543 1.90695 0.000295368 10
-22.6063 -10.065 6.63058 0.000191103 10
-8.91017 -4.00439 -2.6175 0.0016513 4
-10.0912 -4.53517 -2.5542 0.000367305 4
-12.8846 -5.79058 -2.74582 0.000210856 1
-15.8496 -7.12311 -2.7522 0.000103527 1
-19.913 -8.94928 -2.68058 0.00029227 10
-19.9282 -8.95609 -1.91147 0.000296283 10
-19.9158 -8.95051 -1.1443 0.000298966 10
-19.9318 -8.9577 -0.381431 0.00030029 10
-19.9209 -8.95281 0.381222 0.000300242 10
-19.9276 -8.95583 1.14498 0.000298822 10
-19.9335 -8.95849 1.91198 0.000296045 10
-22.6153 -10.1637 6.6436 0.000191386 10
-8.91989 -4.04624 -2.62449 0.00180337 4
-10.0679 -4.56702 -2.55233 0.000321405 4
-12.8846 -5.8447 -2.75014 0.000210867 1
-15.8234 -7.1778 -2.75197 0.000103534 1
-19.9121 -9.03253 -2.68469 0.000292908 10
-19.9114 -9.03222 -1.91287 0.000296932 10
-19.9333 -9.04215 -1.14712 0.000299621 10
-19.9346 -9.04276 -0.382087 0.000300949 10
-19.92 -9.03612 0.381806 0.0003009 10
-19.9323 -9.04171 1.14706 0.000299477 10
-19.9149 -9.03378 1.91321 0.000296692 10
-22.6048 -10.254 6.65098 0.00019165 10
-8.9122 -4.08032 -2.6264 0.00164323 4
-10.0445 -4.59875 -2.55046 0.000343026 4
-12.8501 -5.88325 -2.74716 0.000210878 1
-15.8006 -7.2341 -2.75239 0.00010354 1
-19.9083 -9.11474 -2.68845 0.000293517 10
-19.9122 -9.11653 -1.916 0.00029755 10
-19.934 -9.12649 -1.14898 0.000300246 10
-19.9197 -9.11995 -0.382409 0.000301577 10
-19.9273 -9.12344 0.382555 0.000301528 10
-19.9224 -9.12119 1.14832 0.000300101 10
-19.9308 -9.12504 1.91779 0.00029731 10
-22.607 -10.3503 6.66222 0.000191894 10
-8.91991 -4.12157 -2.63289 0.00109651 4
-10.0393 -4.63881 -2.55322 0.000337639 4
-12.8243 -5.92565 -2.74603 0.000210889 1
-15.7754 -7.28924 -2.75241 0.000103547 1
-19.9292 -9.20856 -2.69559 0.000294097 10
-19.9351 -9.21129 -1.92128 0.000298139 10
-19.9251 -9.20667 -1.15031 0.000300841 10
-19.9388 -9.21303 -0.383391 0.000302175 10
-19.939 -9.21309 0.383393 0.000302126 10
-19.9408 -9.21395 1.15122 0.000300695 10
-19.9424 -9.2147 1.92199 0.000297897 10
-22.6198 -10.4518 6.6767 0.000192118 10
-8.91634 -4.15775 -2.63611 0.00152125 4
-10.0316 -4.67782 -2.5554 0.000402483 4
-12.7967 -5.96718 -2.74456 0.0002109 1
-15.7362 -7.33793 -2.75003 0.000103554 1
-19.9325 -9.29467 -2.70041 0.000294646 10
-19.9364 -9.29649 -1.92452 0.000298698 10
-19.9251 -9.29122 -1.15218 0.000301406 10
-19.9386 -9.29751 -0.384008 0.000302742 10
-19.9403 -9.2983 0.38404 0.000302693 10
-19.9359 -9.29627 1.15281 0.000301259 10
-19.9372 -9.29688 1.9246 0.000298455 10
-22.6307 -10.5529 6.69074 0.000192323 10
-8.90136 -4.18866 -2.63599 0.00165862 4
-10.0205 -4.71529 -2.55675 0.00022151 4
-12.7804 -6.01399 -2.74556 0.000210911 1
-15.716 -7.39538 -2.75099 0.000103561 1
-19.9346 -9.3805 -2.70511 0.000246705 10
-19.9273 -9.37706 -1.92679 0.000250104 10
-19.9177 -9.37257 -1.15364 0.000252377 10
-19.9377 -9.38196 -0.384619 0.000253502 10
-19.9206 -9.37392 0.384289 0.000253467 10
-19.944 -9.38491 1.15516 0.000252271 10
-19.9273 -9.37706 1.92679 0.000249927 10
-22.6312 -10.6494 6.70185 0.000192509 10
-8.92318 -4.23703 -2.64681 0.00172687 4
-9.98194 -4.73977 -2.55111 0.000321473 4
-12.7707 -6.06396 -2.748 0.000210922 1
-15.6987 -7.45427 -2.75249 0.000103568 1
-19.9094 -9.45369 -2.70616 0.000247766 10
-19.9173 -9.45745 -1.92901 0.00025118 10
-19.9172 -9.45737 -1.15551 0.000253464 10
-19.9255 -9.46133 -0.385019 0.000254594 10
-19.9325 -9.46464 0.385154 0.000254558 10
-19.9214 -9.45938 1.15576 0.000253356 10
-19.9287 -9.46285 1.93011 0.000251002 10
-22.6446 -10.7525 6.7169 0.000192675 10
-8.89988 -4.26411 -2.6443 0.00134838 4
-9.98383 -4.78345 -2.55585 0.0003431 4
-12.7379 -6.10296 -2.74551 0.000210933 1
-15.6762 -7.51076 -2.75313 0.000103575 1
-19.9077 -9.53816 -2.71043 0.0002488 10
-19.9097 -9.53915 -1.93149 0.000252229 10
-19.931 -9.54934 -1.15824 0.000254523 10
-19.9188 -9.54349 -0.385531 0.000255658 10
-19.9267 -9.54729 0.385684 0.000255622 10
-19.9178 -9.543 1.15747 0.000254415 10
-19.9228 -9.54542 1.93275 0.00025205 10
-22.6562 -10.855 6.73154 0.000192821 10
-8.92134 -4.31275 -2.65513 0.00140636 4
-9.96123 -4.81545 -2.55435 0.00033501 4
-12.7269 -6.15243 -2.74776 0.000210944 1
-15.6319 -7.55675 -2.74997 0.000103582 1
-19.9269 -9.63303 -2.71761 0.000249809 10
-19.9108 -9.62525 -1.93483 0.000253253 10
-19.9178 -9.62862 -1.15942 0.000255557 10
-19.9099 -9.62481 -0.386006 0.000256697 10
-19.9164 -9.62796 0.386132 0.00025666 10
-19.9091 -9.62445 1.15892 0.000255448 10
-19.9217 -9.63052 1.93589 0.000253072 10
-22.6523 -10.9506 6.74169 0.000192948 10
-8.92342 -4.35224 -2.66026 0.00129842 4
-9.93713 -4.84666 -2.55249 0.000378253 4
-12.6919 -6.19023 -2.74484 0.000210956 1
-15.6256 -7.62109 -2.75352 0.000103589 1
-19.9093 -9.7104 -2.71981 0.000250791 10
-19.9235 -9.71734 -1.93935 0.00025425 10
-19.9066 -9.7091 -1.16073 0.000256564 10
-19.9015 -9.7066 -0.386498 0.000257708 10
-19.9095 -9.71052 0.386653 0.000257671 10
-19.9176 -9.71448 1.16138 0.000256454 10
-19.9092 -9.71038 1.93797 0.000254068 10
-22.6458 -11.0451 6.75118 0.000193055 10
-8.90706 -4.38282 -2.65992 0.0013448 4
-9.91232 -4.87746 -2.55048 0.000394481 4
-12.684 -6.24132 -2.74784 0.000210967 1
-15.5984 -7.67535 -2.75343 0.000103596 1
-19.9087 -9.79631 -2.72439 0.000251748 10
-19.9104 -9.79714 -1.9414 0.00025522 10
-19.904 -9.79399 -1.16257 0.000257544 10
-19.914 -9.79892 -0.387403 0.000258693 10
-19.9192 -9.80145 0.387503 0.000258656 10
-19.9207 -9.80219 1.16354 0.000257433 10
-19.9097 -9.79681 1.94133 0.000255037 10
-22.6755 -11.1577 6.77162 0.000193143 10
-8.90969 -4.42281 -2.6653 0.00152082 4
-9.91706 -4.92287 -2.55611 0.000416115 4
-12.6497 -6.27937 -2.74514 0.000210978 1
-15.5468 -7.71751 -2.74907 0.000103603 1
-19.9051 -9.88095 -2.72859 0.000252678 10
-19.8981 -9.87749 -1.94354 0.000256164 10
-19.8951 -9.87603 -1.16406 0.000258497 10
-19.9129 -9.88485 -0.38805 0.000259651 10
-19.9038 -9.88034 0.387873 0.000259613 10
-19.9111 -9.88398 1.16499 0.000258385 10
-19.9229 -9.88982 1.94597 0.00025598 10
-22.664 -11.2505 4.91836 0.000205832 10
-22.6779 -11.2574 5.8452 0.000199928 10
-22.6798 -11.2583 6.78458 0.000193212 10
-8.92224 -4.46792 -2.67371 0.00155412 4
-9.89722 -4.95615 -2.55543 0.000435049 4
-12.6325 -6.3259 -2.74619 0.00021099 1
-15.5239 -7.77379 -2.7498 0.00010361 1
-19.9004 -9.96538 -2.73271 0.000253582 10
-19.9054 -9.96788 -1.94765 0.000257082 10
-19.8966 -9.96345 -1.16617 0.000259423 10
-19.8954 -9.96286 -0.388384 0.000260581 10
-19.8913 -9.96083 0.388305 0.000260544 10
-19.9023 -9.96632 1.1665 0.000259311 10
-19.9186 -9.97448 1.94894 0.000256896 10
-22.6625 -11.3485 4.9266 0.000205891 10
-22.6756 -11.3551 5.85477 0.000199982 10
-22.6717 -11.3531 6.79397 0.000193261 10
-8.92619 -4.50894 -2.67959 0.000997137 4
-9.88637 -4.99396 -2.55712 0.000546653 4
-12.6167 -6.37314 -2.74756 0.000211002 1
-15.4921 -7.82563 -2.74899 0.000103617 1
-19.8907 -10.0475 -2.73618 0.000197457 10
-19.9 -10.0522 -1.95054 0.00020019 10
-19.8818 -10.043 -1.16735 0.00020202 10
-19.9052 -10.0548 -0.389258 0.000202929 10
-19.8937 -10.049 0.389033 0.000202906 10
-19.9002 -10.0523 1.16843 0.000201952 10
-19.8873 -10.0458 1.9493 0.000200077 10
-22.6686 -11.4507 4.9366 0.000205929 10
-22.6917 -11.4624 5.86923 0.000200017 10
-22.6797 -11.4563 6.80832 0.000193291 10
-8.92231 -4.54614 -2.68317 0.000468652 4
-9.88747 -5.03792 -2.56194 0.00151181 4
-12.594 -6.41697 -2.74749 0.000211013 1
-15.4809 -7.8879 -2.75187 0.000103625 1
-19.8653 -10.1219 -2.73752 0.000198858 10
-19.8791 -10.1289 -1.95195 0.000201611 10
-19.8688 -10.1237 -1.16866 0.000203454 10
-19.8864 -10.1326 -0.38958 0.000204369 10
-19.882 -10.1304 0.389495 0.000204346 10
-19.8893 -10.1341 1.16986 0.000203385 10
-19.8942 -10.1366 1.95343 0.000201496 10
-22.6718 -11.5518 4.94603 0.000205947 10
-22.6929 -11.5626 5.87995 0.000200031 10
-22.675 -11.5535 6.81898 0.000193302 10
-8.91108 -4.57967 -2.68459 0.000338383 4
-9.87376 -5.07442 -2.56296 0.000756362 4
-12.5741 -6.46222 -2.74805 0.000211025 1
-15.4418 -7.936 -2.74983 0.000103632 1
-19.8709 -10.2123 -2.74319 0.000200237 10
-19.8565 -10.2049 -1.95322 0.00020301 10
-19.8742 -10.2139 -1.17106 0.000204866 10
-19.8767 -10.2153 -0.390087 0.000205788 10
-19.8761 -10.2149 0.390073 0.000205765 10
-19.8802 -10.217 1.17142 0.000204796 10
-19.8648 -10.2091 1.95403 0.000202894 10
-22.691 -11.6616 4.95909 0.000205944 10
-22.6937 -11.663 5.89065 0.000200026 10
-22.7014 -11.667 6.83913 0.000193293 10
-8.92692 -4.62728 -2.69421 0.00160371 4
-9.87187 -5.11709 -2.56709 0.00112293 4
-12.5404 -6.50033 -2.74563 0.000211037 1
-15.4144 -7.99004 -2.74989 0.000103639 1
-19.8618 -10.2954 -2.74688 0.000201595 10
-19.8479 -10.2882 -1.95589 0.000204387 10
-19.8618 -10.2954 -1.17244 0.000206256 10
-19.8495 -10.289 -0.390254 0.000207184 10
-19.8529 -10.2908 0.390322 0.000207161 10
-19.8496 -10.2891 1.17172 0.000206186 10
-19.8631 -10.2961 1.95738 0.00020427 10
-22.7 -11.7665 4.96998 0.000205921 10
-22.6998 -11.7665 5.90287 0.000200001 10
-22.6507 -11.741 6.83614 0.00010236 10
-8.9225 -4.66457 -2.69777 0.00159357 4
-9.87153 -5.16071 -2.57167 0.0012618 4
-12.5234 -6.54708 -2.74689 0.000211048 1
-15.3858 -8.04352 -2.74979 0.000103647 1
-19.8294 -10.3666 -2.74739 0.000202932 10
-19.8563 -10.3806 -1.96028 0.000205742 10
-19.8334 -10.3686 -1.1729 0.000207624 10
-19.8413 -10.3728 -0.390803 0.000208559 10
-19.85 -10.3773 0.390975 0.000208535 10
-19.8438 -10.3741 1.17351 0.000207553 10
-19.8507 -10.3777 1.95972 0.000205623 10
-22.6981 -11.8663 4.9786 0.000205878 10
-22.7173 -11.8763 5.91816 0.000199956 10
-22.6133 -11.822 6.83728 0.000102355 10
-8.91318 -4.69939 -2.6999 0.00139187 4
-9.87318 -5.20554 -2.57682 0.00107089 4
-12.4876 -6.58396 -2.74406 0.00021106 1
-15.3739 -8.10572 -2.75269 0.000103654 1
-19.8322 -10.4563 -2.75281 0.000204246 10
-19.8275 -10.4539 -1.96102 0.000207075 10
-19.8414 -10.4612 -1.17552 0.00020897 10
-19.8448 -10.463 -0.39159 0.00020991 10
-19.8453 -10.4633 0.391599 0.000209886 10
-19.849 -10.4652 1.17597 0.000208898 10
-19.84 -10.4604 1.96226 0.000206955 10
-22.7136 -11.9755 4.99116 0.000205814 10
-22.7042 -11.9706 5.9256 0.000199891 10
-22.5773 -11.9037 6.83891 0.000102351 10
-8.92581 -4.74594 -2.70873 0.00137024 4
-9.89392 -5.26069 -2.58701 0.00133288 4
-12.4875 -6.63975 -2.74912 0.000211072 1
-15.3256 -8.14876 -2.74913 0.000103661 1
-19.8137 -10.5351 -2.75534 0.000205538 10
-19.8127 -10.5346 -1.96319 0.000208386 10
-19.8189 -10.5379 -1.17636 0.000210293 10
-19.8187 -10.5378 -0.391798 0.00021124 10
-19.8308 -10.5442 0.392037 0.000211215 10
-19.8202 -10.5386 1.17644 0.00021022 10
-19.8254 -10.5414 1.96444 0.000208265 10
-22.7028 -12.0713 4.998 0.000205731 10
-22.7142 -12.0773 5.93918 0.000199807 10
-22.5341 -11.9816 6.83846 0.000102346 10
-8.92829 -4.78731 -2.71453 0.00151264 4
-9.88189 -5.29862 -2.58868 0.00149626 4
-12.4554 -6.67855 -2.74717 0.000211084 1
-15.295 -8.20111 -2.74876 0.000103669 1
-19.7858 -10.6091 -2.75659 4.0862e-05 1
-19.8021 -10.6178 -1.96579 0.000145122 10
-19.8081 -10.621 -1.17791 0.000146459 10
-19.8006 -10.617 -0.392171 0.000147126 10
-19.8033 -10.6184 0.392223 0.000147116 10
-19.7995 -10.6164 1.1774 0.000146431 10
-19.8096 -10.6218 1.96653 0.000145076 10
-22.7171 -12.1808 5.01049 0.000205627 10
-22.7179 -12.1812 5.95124 0.000199703 10
-22.4795 -12.0534 6.8346 0.000102342 10
-8.91821 -4.82206 -2.71657 0.00132745 4
-9.87463 -5.33919 -2.59165 0.00091874 4
-12.4414 -6.72704 -2.74924 0.000211096 1
-15.2803 -8.26202 -2.75128 0.000103676 1
-19.7501 -10.6788 -2.75679 4.0866e-05 1
-19.776 -10.6928 -1.9669 0.000146858 10
-19.771 -10.6901 -1.17792 0.00014821 10
-19.792 -10.7015 -0.392738 0.000148885 10
-19.7833 -10.6968 0.392564 0.000148875 10
-19.7908 -10.7008 1.1791 0.000148181 10
-19.7919 -10.7015 1.96848 0.00014681 10
-22.7151 -12.282 5.01947 0.000205504 10
-22.738 -12.2944 5.96771 0.00019958 10
-22.443 -12.1349 6.83635 0.000102337 10
-8.91229 -4.85914 -2.71992 0.00145557 4
-9.87004 -5.38132 -2.59536 0.00109187 4
-12.4036 -6.76265 -2.74608 0.000211108 1
-15.2375 -8.30773 -2.74877 0.000103684 1
-19.7041 -10.743 -2.75559 4.087e-05 1
-19.7717 -10.7799 -1.9702 0.000148577 10
-19.7674 -10.7775 -1.17994 0.000149945 10
-19.7562 -10.7714 -0.39277 0.000150628 10
-19.7529 -10.7696 0.392705 0.000150618 10
-19.7638 -10.7755 1.17972 0.000149915 10
-19.7651 -10.7763 1.96954 0.000148528 10
-22.7458 -12.4014 5.03579 0.00020536 10
-22.7425 -12.3996 5.98021 0.000199438 10
-22.398 -12.2118 6.83558 0.000102332 10
-8.91645 -4.90186 -2.72639 0.00124819 4
-9.88275 -5.43309 -2.60367 0.00159013 4
-12.3791 -6.80546 -2.7459 0.00021112 1
-15.2194 -8.36695 -2.75077 0.000103691 1
-19.6835 -10.8211 -2.75797 4.08741e-05 1
-19.7356 -10.8497 -1.97036 0.00015028 10
-19.7423 -10.8534 -1.18069 0.000151664 10
-19.751 -10.8582 -0.393419 0.000152354 10
-19.7435 -10.8541 0.393269 0.000152344 10
-19.7433 -10.8539 1.18075 0.000151633 10
-19.7549 -10.8603 1.97229 0.000150229 10
-22.7446 -12.504 5.04516 0.000205197 10
-22.7515 -12.5077 5.99401 0.000199276 10
-22.3768 -12.3018 6.84218 0.000102327 10
-8.92372 -4.9465 -2.73388 0.00155903 4
-9.88703 -5.48047 -2.60982 0.00103171 4
-12.3467 -6.84388 -2.744 0.000211133 1
-15.1804 -8.41463 -2.74901 0.000103699 1
-19.6315 -10.8819 -2.75599 4.08781e-05 1
-19.712 -10.9265 -1.9718 0.000151966 10
-19.7201 -10.931 -1.18164 0.000153365 10
-19.7198 -10.9309 -0.393554 0.000154064 10
-19.718 -10.9298 0.393518 0.000154053 10
-19.7309 -10.937 1.18229 0.000153334 10
-19.7241 -10.9332 1.97301 0.000151914 10
-22.7553 -12.6134 5.05725 0.000205014 10
-22.7495 -12.6102 6.00504 0.000199095 10
-22.3289 -12.3771 6.84069 0.000102323 10
-8.91901 -4.98467 -2.73775 0.00188995 4
-9.87353 -5.51813 -2.61132 0.00138533 4
-12.3307 -6.89138 -2.74577 0.000211145 1
-15.1708 -8.47864 -2.75261 0.000103707 1
-19.6062 -10.9575 -2.75779 4.08822e-05 1
-19.7002 -11.0101 -1.97445 0.000153635 10
-19.7016 -11.0108 -1.18283 0.00015505 10
-19.6949 -11.0071 -0.393821 0.000155756 10
-19.7068 -11.0138 0.394059 0.000155745 10
-19.7071 -11.0139 1.18316 0.000155018 10
-19.7057 -11.0132 1.97501 0.000153581 10
-22.7461 -12.7124 6.01582 0.000198895 10
-22.2763 -12.4498 6.83786 0.000102318 10
-8.92259 -5.02762 -2.74422 0.000604484 1
-9.88286 -5.56871 -2.61892 0.00147739 4
-11.448 -6.45061 -2.55421 0.000209945 4
-15.1385 -8.5301 -2.75214 0.000103714 1
-19.5681 -11.026 -2.75782 4.08863e-05 1
-19.6655 -11.0809 -1.97484 8.97145e-05 10
-19.6807 -11.0895 -1.18389 9.05502e-05 10
-19.6694 -11.0831 -0.394083 9.0972e-05 10
-19.6681 -11.0824 0.394057 9.09749e-05 10
-19.6716 -11.0844 1.18334 9.05593e-05 10
-19.6925 -11.0962 1.97755 8.97294e-05 10
-22.7587 -12.8238 6.03095 0.000198676 10
-22.2305 -12.5263 6.83719 0.000102313 10
-8.89349 -5.05221 -2.74068 0.000604509 1
-9.86788 -5.60574 -2.62012 0.00142226 4
-11.4251 -6.49034 -2.55414 0.000213022 4
-15.1107 -8.58406 -2.75251 0.000103722 1
-19.5102 -11.0833 -2.75511 4.08904e-05 1
-19.6388 -11.1564 -1.97606 9.16712e-05 10
-19.6412 -11.1577 -1.18385 9.25249e-05 10
-19.6566 -11.1665 -0.394605 9.29555e-05 10
-19.6653 -11.1715 0.394781 9.29582e-05 10
-19.6416 -11.158 1.18388 9.25331e-05 10
-19.6551 -11.1656 1.9777 9.16846e-05 10
-22.7749 -12.9379 6.04718 0.000198438 10
-22.2036 -12.6134 6.84239 0.000102308 10
-8.88172 -5.0866 -2.7425 0.000604534 1
-9.87213 -5.65382 -2.62647 0.0013949 4
-11.4128 -6.53617 -2.55648 0.000168589 4
-15.0759 -8.63405 -2.75165 0.00010373 1
-19.483 -11.158 -2.75675 4.08946e-05 1
-19.6246 -11.2391 -1.97856 9.36175e-05 10
-19.6268 -11.2404 -1.18534 9.44891e-05 10
-19.6117 -11.2317 -0.394489 9.49284e-05 10
-19.6146 -11.2334 0.394547 9.49308e-05 10
-19.6376 -11.2465 1.18599 9.44963e-05 10
-19.6254 -11.2396 1.97864 9.36294e-05 10
-22.774 -13.0428 6.059 0.000198181 10
-22.156 -12.6889 6.84136 0.000102303 10
-8.86029 -5.11549 -2.74138 0.000604559 1
-9.86343 -5.69465 -2.62943 0.000962828 4
-11.3833 -6.57216 -2.555 0.000216113 4
-15.0338 -8.67975 -2.74948 0.000103738 1
-19.4458 -11.227 -2.75701 4.08988e-05 1
-19.5928 -11.3119 -1.97933 9.55535e-05 10
-19.5832 -11.3063 -1.18508 9.64428e-05 10
-19.5843 -11.307 -0.394729 9.68909e-05 10
-19.5879 -11.3091 0.3948 9.6893e-05 10
-19.6007 -11.3165 1.18614 9.64491e-05 10
-19.5934 -11.3122 1.97938 9.55639e-05 10
-22.7829 -13.1537 6.07354 0.000197905 10
-22.0956 -12.7569 6.83641 0.000102299 10
-8.83113 -5.13984 -2.7379 0.000604584 1
-9.86258 -5.74016 -2.63453 0.00128721 4
-11.363 -6.61344 -2.55561 0.000193133 4
-15.0113 -8.73676 -2.75092 0.000103746 1
-19.398 -11.2899 -2.75581 4.0903e-05 1
-19.5552 -11.3814 -1.97953 9.74783e-05 10
-19.5665 -11.388 -1.18647 9.83854e-05 10
-19.5686 -11.3892 -0.395212 9.88423e-05 10
-19.5592 -11.3837 0.395022 9.88441e-05 10
-19.5597 -11.384 1.18606 9.83908e-05 10
-19.5728 -11.3916 1.98131 9.74872e-05 10
-22.7863 -13.2619 6.08675 0.000197611 10
-22.0528 -12.8351 6.83699 0.000102294 10
-8.81862 -5.17385 -2.7396 0.000604609 1
-9.87053 -5.79101 -2.64204 0.00118985 4
-11.3444 -6.65571 -2.55662 0.000182415 4
-14.9825 -8.79016 -2.75125 0.000103753 1
-19.3574 -11.3569 -2.75566 4.09072e-05 1
-19.527 -11.4564 -1.98072 9.93925e-05 10
-19.5488 -11.4692 -1.18782 0.000100317 10
-19.549 -11.4693 -0.395621 0.000100783 10
-19.532 -11.4593 0.395277 0.000100784 10
-19.5379 -11.4628 1.18716 0.000100322 10
-19.5284 -11.4572 1.98085 9.93998e-05 10
-22.7893 -13.3704 6.09998 0.000197298 10
-22.0098 -12.9131 6.83758 0.000102289 10
-8.79704 -5.20255 -2.73852 0.000604635 1
-9.86756 -5.83566 -2.64668 0.00133182 4
-11.3082 -6.68762 -2.55371 0.00020542 4
-14.9555 -8.84467 -2.75195 0.000103761 1
-19.3235 -11.4279 -2.75649 4.09114e-05 1
-19.5 -11.5323 -1.98205 4.4456e-05 10
-19.4938 -11.5286 -1.18691 4.48814e-05 10
-19.5035 -11.5344 -0.395514 4.51014e-05 10
-19.5051 -11.5353 0.395545 4.51137e-05 10
-19.4971 -11.5305 1.18711 4.49184e-05 10
-19.5129 -11.5399 1.98335 4.45172e-05 10
-22.8042 -13.4864 6.11654 0.000196966 10
-21.9598 -12.987 6.83609 0.000102284 10
-8.79776 -5.24451 -2.74443 0.00060466 1
-9.88297 -5.89143 -2.65631 0.00119142 4
-11.2998 -6.73605 -2.55712 0.000206966 4
-14.9177 -8.89272 -2.75068 0.000103769 1
-19.2795 -11.4929 -2.75593 4.09156e-05 1
-19.4648 -11.6034 -1.98257 4.65131e-05 10
-19.4795 -11.6121 -1.1885 4.69573e-05 10
-19.4714 -11.6073 -0.395682 4.71867e-05 10
-19.4798 -11.6123 0.395853 4.71987e-05 10
-19.4744 -11.6091 1.18819 4.69934e-05 10
-19.4599 -11.6004 1.98208 4.65729e-05 10
-22.7947 -13.5883 6.12667 0.000196616 10
-21.9304 -13.0731 6.8411 0.000102279 10
-8.77902 -5.27496 -2.74431 0.000604686 1
-9.87228 -5.93186 -2.65899 0.00127032 4
-11.2574 -6.76415 -2.55286 0.000180914 4
-14.8897 -8.94663 -2.75127 0.000103777 1
-19.2401 -11.5606 -2.75604 4.09199e-05 1
-19.4387 -11.6799 -1.98405 4.85649e-05 10
-19.4347 -11.6775 -1.18825 4.90278e-05 10
-19.438 -11.6795 -0.395829 4.92665e-05 10
-19.4382 -11.6797 0.395833 4.92783e-05 10
-19.4467 -11.6848 1.18899 4.90631e-05 10
-19.424 -11.6711 1.98255 4.86232e-05 10
-22.8029 -13.7014 6.14171 0.000196248 10
-21.8848 -13.1497 6.84115 0.000102274 10
-8.75191 -5.30035 -2.7416 0.000604711 1
-9.86795 -5.97624 -2.66342 0.00120977 4
-11.2328 -6.80285 -2.55265 0.000179392 4
-14.8469 -8.99163 -2.74915 0.000103785 1
-19.1946 -11.6246 -2.75531 4.09242e-05 1
-19.3911 -11.7436 -1.98336 5.06111e-05 10
-19.4045 -11.7518 -1.1889 5.10928e-05 10
-19.3877 -11.7416 -0.395638 5.13407e-05 10
-19.4075 -11.7536 0.39604 5.13523e-05 10
-19.4061 -11.7528 1.189 5.11272e-05 10
-19.3999 -11.749 1.98427 5.06681e-05 10
-22.8091 -13.8137 6.15631 0.000195861 10
-21.8431 -13.2287 6.84252 0.000102269 10
-8.72515 -5.32585 -2.73903 0.000604738 1
-9.8451 -6.00947 -2.6629 0.000255955 4
-11.2303 -6.855 -2.55749 0.000196269 4
-14.8127 -9.04173 -2.74864 0.000103793 1
-19.158 -11.6941 -2.75591 4.09285e-05 1
-19.3666 -11.8214 -1.98507 5.26516e-05 10
-19.3726 -11.8251 -1.18947 5.31519e-05 10
-19.3583 -11.8164 -0.395877 5.34092e-05 10
-19.3634 -11.8195 0.395981 5.34204e-05 10
-19.3648 -11.8203 1.18899 5.31855e-05 10
-19.3656 -11.8208 1.98496 5.27071e-05 10
-22.8362 -13.9393 6.17673 0.000195457 10
-21.7775 -13.2931 6.83647 0.000102264 10
-8.72027 -5.36474 -2.74335 0.000604763 1
-9.82298 -6.04313 -2.66261 0.000333977 4
-11.185 -6.88105 -2.55263 0.000148745 4
-14.7835 -9.09487 -2.74909 0.000103801 1
-19.1148 -11.7595 -2.75558 4.09328e-05 1
-22.8275 -14.0436 6.18759 0.000195034 10
-21.7485 -13.3798 6.84199 0.000102259 10
-8.70524 -5.39747 -2.74454 0.000604789 1
-9.82115 -6.08937 -2.66785 0.00050221 4
-11.1593 -6.91907 -2.55227 0.000205495 4
-14.7632 -9.15358 -2.75125 0.00010381 1
-19.0857 -11.8336 -2.75733 4.09372e-05 1
-22.8357 -14.1588 6.20319 0.000194594 10
-21.6823 -13.4436 6.83586 0.000102254 10
-8.68667 -5.42803 -2.74464 0.000604815 1
-9.80119 -6.12446 -2.66823 3.65706e-05 4
-11.1393 -6.96059 -2.55322 5.21437e-05 4
-14.7301 -9.20438 -2.75104 0.000103818 1
-19.045 -11.9006 -2.75742 4.09415e-05 1
-22.8363 -14.2697 6.21685 0.000194136 10
-21.6552 -13.5317 6.84217 0.000102249 10
-8.65613 -5.45106 -2.74099 0.000604842 1
-9.76082 -6.14672 -2.66306 0.000433993 4
-11.1312 -7.00967 -2.55696 0.000222391 4
-14.6865 -9.24858 -2.74892 0.000103826 1
-19.003 -11.9668 -2.75738 4.09459e-05 1
-22.8422 -14.3845 6.23207 0.00019366 10
-21.5998 -13.6021 6.83961 0.000102243 10
-8.632 -5.47803 -2.73938 0.000604868 1
-9.74121 -6.18196 -2.66358 0.000402317 4
-11.1013 -7.04507 -2.55572 0.000174856 4
-14.6541 -9.29978 -2.74891 0.000103834 1
-18.9547 -12.029 -2.75645 4.09503e-05 1
-22.865 -14.5106 6.25207 0.000193167 10
-21.5529 -13.6779 6.83986 0.000102238 10
-8.62888 -5.5184 -2.74449 0.000604895 1
-9.71517 -6.21311 -2.66238 0.000263349 4
-11.0644 -7.07601 -2.55292 0.000211681 4
-14.6341 -9.3589 -2.75127 0.000103842 1
-18.9181 -12.0986 -2.75725 4.09548e-05 1
-22.8677 -14.6245 6.26674 0.000192657 10
-21.4953 -13.7468 6.83675 0.000102233 10
-8.60082 -5.54285 -2.7417 0.000193744 4
-9.69886 -6.25049 -2.66387 0.000368219 4
-11.0402 -7.11492 -2.55304 0.000173344 4
-14.5892 -9.40211 -2.74899 0.000103851 1
-18.8715 -12.1619 -2.75663 4.09592e-05 1
-22.871 -14.7393 6.28169 0.000192129 10
-21.4562 -13.8276 6.83963 0.000102228 10
-8.53079 -5.53996 -2.72553 0.000156454 4
-9.6812 -6.28705 -2.66503 0.000407257 4
-11.0111 -7.15071 -2.55207 0.000193298 4
-14.5503 -9.44908 -2.74785 0.000103859 1
-18.8277 -12.2268 -2.75644 4.09637e-05 1
-22.8802 -14.8586 6.29843 0.000191584 10
-21.4053 -13.9008 6.83884 0.000102223 10
-8.48991 -5.55564 -2.71864 0.00021739 4
-9.67119 -6.32865 -2.66834 0.000278022 4
-11.0012 -7.19897 -2.55557 0.000242405 4
-14.5235 -9.50392 -2.74904 0.000103868 1
-18.767 -12.2808 -2.75382 4.09682e-05 1
-19.0128 -12.4416 -1.9879 2.94878e-05 10
-18.9998 -12.4331 -1.18999 2.97782e-05 10
-19.014 -12.4424 -0.396635 2.99324e-05 10
-19.0168 -12.4443 0.396695 2.99487e-05 10
-19.0179 -12.445 1.19112 2.9827e-05 10
-19.0113 -12.4407 1.98775 2.95685e-05 10
-22.8949 -14.982 6.31685 0.000191022 10
-21.3634 -13.9798 6.84101 0.000102218 10
-8.4515 -5.57274 -2.71256 0.00024252 4
-9.62861 -6.3489 -2.66269 0.00031706 4
-10.9728 -7.23522 -2.55483 0.000202529 4
-14.5 -9.56098 -2.75089 0.000103876 1
-18.7373 -12.3549 -2.75577 4.09727e-05 1
-18.9565 -12.4995 -1.98656 3.1553e-05 10
-18.9621 -12.5032 -1.19035 3.18624e-05 10
-18.9676 -12.5068 -0.396576 3.2026e-05 10
-18.9766 -12.5127 0.396763 3.2042e-05 10
-18.9595 -12.5015 1.19018 3.19104e-05 10
-18.9549 -12.4984 1.98639 3.16325e-05 10
-22.8876 -15.0916 5.32898 0.000196181 10
-22.8953 -15.0967 6.33146 0.000190443 10
-21.3017 -14.0459 6.83689 0.000102212 10
-8.39526 -5.57779 -2.70074 0.00017989 4
-9.62053 -6.39186 -2.66661 0.000221954 4
-10.9351 -7.26529 -2.55195 0.000185663 4
-14.4585 -9.60618 -2.74936 0.000103884 1
-18.6832 -12.4131 -2.75417 4.09772e-05 1
-18.9225 -12.5721 -1.98759 3.36149e-05 10
-18.9235 -12.5727 -1.19067 3.39431e-05 10
-18.9133 -12.566 -0.396355 3.4116e-05 10
-18.9201 -12.5705 0.396498 3.41318e-05 10
-18.9248 -12.5736 1.19076 3.39903e-05 10
-18.9147 -12.5669 1.98677 3.3693e-05 10
-22.9053 -15.2182 5.34544 0.000195571 10
-22.9106 -15.2218 6.35033 0.000189848 10
-21.2523 -14.12 6.83682 0.000102207 10
-8.36088 -5.59712 -2.69595 0.0001985 4
-9.17357 -6.14117 -2.54865 0.000360019 4
-10.909 -7.30297 -2.5518 0.000211762 4
-14.4139 -9.64924 -2.74726 0.000103893 1
-18.6534 -12.4873 -2.75618 4.09817e-05 1
-18.8899 -12.6457 -1.98878 3.56728e-05 10
-18.8821 -12.6405 -1.19084 3.60199e-05 10
-18.8899 -12.6457 -0.396787 3.62022e-05 10
-18.8895 -12.6454 0.396779 3.62177e-05 10
-18.894 -12.6484 1.19159 3.60664e-05 10
-18.8904 -12.646 1.98884 3.57496e-05 10
-22.9179 -15.3422 5.36086 0.000194945 10
-22.8962 -15.3276 6.36112 0.000189236 10
-21.2074 -14.1971 6.83829 0.000102202 10
-8.29475 -5.59488 -2.6809 0.000224208 4
-9.16589 -6.18247 -2.55249 0.000338381 4
-10.9063 -7.35639 -2.55715 0.000201033 4
-14.3856 -9.70321 -2.74831 0.000103901 1
-18.6129 -12.5545 -2.75666 4.09863e-05 1
-18.8387 -12.7068 -1.98805 3.77268e-05 10
-18.8493 -12.714 -1.19156 3.80927e-05 10
-18.8415 -12.7087 -0.3967 3.82843e-05 10
-18.8455 -12.7114 0.396784 3.82996e-05 10
-18.8433 -12.71 1.19118 3.81383e-05 10
-18.8381 -12.7065 1.98799 3.78022e-05 10
-22.911 -15.4537 5.37183 0.000194301 10
-22.9117 -15.4541 6.38039 0.000188608 10
-21.1619 -14.2739 6.83963 0.000102196 10
-8.26221 -5.61499 -2.67671 0.000194633 4
-9.14095 -6.21218 -2.55157 0.000330278 4
-10.8739 -7.38987 -2.55557 0.000156539 4
-14.3435 -9.74786 -2.74676 0.00010391 1
-18.5504 -12.6068 -2.7539 4.09909e-05 1
-18.8033 -12.7787 -1.98902 9.01426e-05 10
-18.8119 -12.7846 -1.19201 9.0986e-05 10
-18.8025 -12.7782 -0.396817 9.14127e-05 10
-18.7995 -12.7761 0.396752 9.14183e-05 10
-18.8192 -12.7895 1.19247 9.10026e-05 10
-18.8195 -12.7897 1.99073 9.01699e-05 10
-22.9145 -15.5727 5.38537 0.000193641 10
-22.9339 -15.5859 6.40168 0.000187963 10
-21.1165 -14.3507 6.8411 0.000102191 10
-8.19907 -5.61402 -2.66259 0.000191739 4
-9.12219 -6.2461 -2.55241 0.000314051 4
-10.837 -7.42025 -2.55298 0.000199524 4
-14.3276 -9.8103 -2.75025 0.000103919 1
-18.5149 -12.6774 -2.75519 4.09955e-05 1
-18.7746 -12.8553 -1.99072 9.20564e-05 10
-18.7673 -12.8502 -1.19202 9.29173e-05 10
-18.7648 -12.8486 -0.396965 9.33528e-05 10
-18.775 -12.8555 0.397179 9.33581e-05 10
-18.7787 -12.858 1.19274 9.2933e-05 10
-18.764 -12.848 1.98959 9.20823e-05 10
-22.9339 -15.7031 5.40276 0.000192964 10
-22.9323 -15.7021 6.41651 0.000187303 10
-21.066 -14.4242 6.84101 0.000102186 10
-8.17321 -5.63832 -2.66056 0.000102191 4
-9.10139 -6.27863 -2.5527 0.000327606 4
-10.8205 -7.46458 -2.55522 0.000191863 4
-14.2932 -9.86019 -2.75023 0.000103927 1
-18.4757 -12.7455 -2.75596 4.10001e-05 1
-18.7403 -12.9281 -1.99185 9.39597e-05 10
-18.7276 -12.9193 -1.19236 9.48381e-05 10
-18.7433 -12.9301 -0.397462 9.52823e-05 10
-18.7445 -12.931 0.397488 9.52872e-05 10
-18.7466 -12.9324 1.19357 9.4853e-05 10
-18.734 -12.9237 1.99117 9.39842e-05 10
-22.935 -15.8218 5.416 0.000192271 10
-22.941 -15.8259 6.43434 0.000186626 10
-21.0218 -14.502 6.84307 0.00010218 10
-8.1611 -5.67211 -2.66305 0.000149363 4
-9.07269 -6.30568 -2.55081 0.000362822 4
-10.7844 -7.49536 -2.55286 8.4425e-05 4
-14.2588 -9.91014 -2.75026 0.000103936 1
-18.4213 -12.8031 -2.7545 4.10047e-05 1
-18.7022 -12.9983 -1.99261 9.58523e-05 10
-18.7089 -13.003 -1.19405 9.67481e-05 10
-18.7052 -13.0004 -0.397614 9.72009e-05 10
-18.7072 -13.0018 0.397655 9.72055e-05 10
-18.6944 -12.993 1.19313 9.67622e-05 10
-18.7137 -13.0064 1.99384 9.58753e-05 10
-22.9469 -15.9485 5.43192 0.000191562 10
-22.9528 -15.9526 6.45324 0.000185933 10
-20.9717 -14.5757 6.84328 0.000102175 10
-8.13589 -5.69681 -2.66129 0.000856914 4
-9.05816 -6.34259 -2.55293 0.00129669 4
-10.7652 -7.53784 -2.55451 0.000202633 4
-14.2054 -9.94675 -2.74664 0.000103945 1
-18.3768 -12.8676 -2.75454 4.10094e-05 1
-18.665 -13.0694 -1.99349 9.77342e-05 10
-18.6669 -13.0707 -1.19427 9.86475e-05 10
-18.6593 -13.0654 -0.397606 9.91088e-05 10
-18.6691 -13.0722 0.397814 9.91132e-05 10
-18.6627 -13.0678 1.194 9.86606e-05 10
-18.6596 -13.0656 1.99291 9.77558e-05 10
-22.9415 -16.0638 5.4439 0.000190836 10
-22.9431 -16.0649 6.46624 0.000185225 10
-20.9145 -14.6445 6.84126 0.000102169 10
-8.12228 -5.72964 -2.66337 0.000786196 4
-9.05781 -6.38958 -2.5591 0.000295222 4
-10.7327 -7.57107 -2.55306 0.000116675 4
-14.1744 -9.99895 -2.74738 0.000103953 1
-18.344 -12.9402 -2.75637 4.10141e-05 1
-18.6336 -13.1446 -1.99503 9.9605e-05 10
-18.6289 -13.1412 -1.19477 0.000100535 10
-18.6377 -13.1475 -0.398122 0.000101005 10
-18.6214 -13.1359 0.397772 0.000101009 10
-18.636 -13.1462 1.19522 0.000100548 10
-18.6415 -13.1501 1.99588 9.96251e-05 10
-19.9453 -14.0698 4.74453 0.000435921 10
-19.955 -14.0767 5.63788 0.000423659 10
-19.9466 -14.0708 6.54066 0.00040968 10
-8.09844 -5.75526 -2.66212 0.000719402 4
-9.07355 -6.44823 -2.56989 0.000585375 4
-10.7 -7.60411 -2.55159 0.000185772 4
-14.1389 -10.048 -2.74727 0.000103962 1
-18.2816 -12.992 -2.75379 4.10188e-05 1
-18.6025 -13.2201 -1.99662 0.000101465 10
-18.5929 -13.2133 -1.19541 0.000102412 10
-18.589 -13.2105 -0.398062 0.000102891 10
-18.5977 -13.2167 0.398248 0.000102894 10
-18.6104 -13.2257 1.19654 0.000102424 10
-18.5899 -13.2111 1.99527 0.000101483 10
-19.8079 -14.0768 4.72352 0.00036388 10
-19.8109 -14.0789 5.61104 0.000353583 10
-19.7958 -14.0682 6.5073 0.000341857 10
-8.08883 -5.79103 -2.66559 0.000739093 4
-9.06868 -6.49254 -2.57492 0.00104831 4
-10.6907 -7.65376 -2.55571 0.000198067 4
-14.1171 -10.1068 -2.74988 0.000103971 1
-18.2455 -13.0625 -2.75521 4.10235e-05 1
-18.5729 -13.2969 -1.99842 0.000185211 10
-18.5739 -13.2976 -1.19717 0.000186919 10
-18.564 -13.2905 -0.398519 0.00018777 10
-18.5706 -13.2953 0.398661 0.000187756 10
-18.5781 -13.3006 1.19743 0.000186875 10
-18.5685 -13.2937 1.99794 0.000185138 10
-19.697 -14.1017 4.70879 0.000242154 10
-19.6969 -14.1016 5.59266 0.00023528 10
-19.7051 -14.1075 6.49363 0.000227457 10
-8.05327 -5.8082 -2.66054 0.000774511 4
-9.06412 -6.53725 -2.58009 0.000946396 4
-10.647 -7.67885 -2.55167 0.000182725 4
-14.0682 -10.1463 -2.74724 0.00010398 1
-18.1913 -13.12 -2.75393 4.10282e-05 1
-18.5433 -13.3738 -2.00024 0.000186549 10
-18.5343 -13.3674 -1.19761 0.00018827 10
-18.5506 -13.3791 -0.399232 0.000189128 10
-18.5527 -13.3806 0.399276 0.000189113 10
-18.5363 -13.3688 1.19774 0.000188225 10
-18.5572 -13.3839 2.00174 0.000186475 10
-19.6304 -14.1579 4.70465 8.86269e-05 10
-19.6314 -14.1586 5.58806 8.6096e-05 10
-19.6352 -14.1613 6.48682 8.32185e-05 10
-8.03002 -5.83415 -2.65957 0.000762752 4
-9.06462 -6.58583 -2.58676 0.00142554 4
-10.6357 -7.72725 -2.5554 0.000187344 4
-14.031 -10.1941 -2.74691 0.000103989 1
-18.1396 -13.1792 -2.75305 4.1033e-05 1
-18.5131 -13.4506 -2.00205 0.000187867 10
-18.5225 -13.4574 -1.19988 0.000189601 10
-18.5095 -13.4479 -0.399354 0.000190464 10
-18.5219 -13.4569 0.399622 0.000190449 10
-18.5305 -13.4632 1.2004 0.000189555 10
-18.5251 -13.4593 2.00334 0.000187792 10
-19.5789 -14.2249 4.70417 7.66794e-05 10
-19.5689 -14.2176 5.58434 7.45196e-05 10
-19.5689 -14.2176 6.48129 7.20585e-05 10
-8.02995 -5.87703 -2.66633 0.000743128 4
-9.07705 -6.64339 -2.59691 0.00117594 4
-10.5909 -7.75134 -2.55112 0.000244178 4
-14.0085 -10.2527 -2.74948 0.000103998 1
-18.0893 -13.2393 -2.75241 4.10377e-05 1
-18.4806 -13.5258 -2.00362 0.000189165 10
-18.4953 -13.5365 -1.20117 0.000190911 10
-18.4914 -13.5336 -0.39998 0.000191781 10
-18.5008 -13.5405 0.400184 0.000191765 10
-18.4846 -13.5287 1.20048 0.000190864 10
-18.5037 -13.5426 2.00612 0.000189088 10
-19.5363 -14.2984 4.70589 7.81738e-05 10
-19.5454 -14.3051 5.59186 7.59714e-05 10
-19.5474 -14.3065 6.49067 7.34617e-05 10
-7.99621 -5.89532 -2.66194 0.000727435 4
-9.07569 -6.69118 -2.60319 0.00122872 4
-10.5725 -7.79475 -2.55325 0.000210407 4
-13.9704 -10.2999 -2.74906 0.000104007 1
-18.0435 -13.3028 -2.7525 4.10425e-05 1
-18.4645 -13.6132 -2.00701 0.000190443 10
-18.466 -13.6143 -1.20235 0.0001922 10
-18.4578 -13.6083 -0.400279 0.000193076 10
-18.4646 -13.6133 0.400426 0.00019306 10
-18.4591 -13.6092 1.2019 0.000192153 10
-18.4789 -13.6238 2.00858 0.000190364 10
-19.5135 -14.3866 4.71247 0.000232556 10
-19.5228 -14.3934 5.59973 0.000225955 10
-19.5171 -14.3892 6.49723 0.000218441 10
-7.97834 -5.92524 -2.66286 0.000904421 4
-9.05961 -6.72826 -2.6053 0.00123561 4
-10.552 -7.83661 -2.55488 0.000210421 4
-13.9255 -10.342 -2.7473 0.000104016 1
-18.0011 -13.3688 -2.75312 4.10473e-05 1
-18.4492 -13.7016 -2.01054 0.000191699 10
-18.4466 -13.6996 -1.20419 0.000193469 10
-18.4438 -13.6975 -0.401009 0.00019435 10
-18.4332 -13.6897 0.400779 0.000194334 10
-18.4415 -13.6958 1.20386 0.000193421 10
-18.4445 -13.6981 2.01002 0.00019162 10
-19.5299 -14.5041 4.72862 0.000355604 10
-19.5225 -14.4987 5.61414 0.000345467 10
-19.5419 -14.5131 6.52233 0.000333936 10
-7.96499 -5.95858 -2.66533 0.000141568 4
-9.08115 -6.79357 -2.61829 0.00111799 4
-10.5144 -7.86575 -2.5524 0.000208899 4
-13.8957 -10.3953 -2.74856 0.000104025 1
-17.9651 -13.4396 -2.75478 4.10521e-05 1
-18.4209 -13.7806 -2.01268 0.000192936 10
-18.4192 -13.7793 -1.20553 0.000194717 10
-18.4065 -13.7698 -0.401241 0.000195604 10
-18.4144 -13.7757 0.401414 0.000195588 10
-18.4177 -13.7782 1.20543 0.000194668 10
-18.4253 -13.7839 2.01316 0.000192854 10
-22.0781 -16.5165 5.35953 0.000246462 10
-22.0857 -16.5222 6.36779 0.00023928 10
-20.4449 -15.2948 6.8415 0.00010212 10
-7.9299 -5.9756 -2.66055 0.000141575 4
-9.07661 -6.83971 -2.62385 0.00116058 4
-10.4952 -7.90873 -2.55444 0.000176655 4
-13.8608 -10.4449 -2.74886 0.000104034 1
-17.9175 -13.5018 -2.75469 4.1057e-05 1
-18.3916 -13.8591 -2.01476 0.000276938 10
-18.3983 -13.8641 -1.20733 0.000279479 10
-18.382 -13.8518 -0.40176 0.000280737 10
-18.4015 -13.8666 0.402186 0.000280697 10
-18.3897 -13.8576 1.20676 0.00027936 10
-18.4085 -13.8718 2.01661 0.000276741 10
-21.9361 -16.53 5.33904 0.000248764 10
-21.9233 -16.5204 6.33756 0.000241522 10
-20.4045 -15.3759 6.84589 0.000102114 10
-7.9208 -6.01222 -2.66452 0.000184843 4
-9.06448 -6.88031 -2.62727 0.00114996 4
-10.4557 -7.93627 -2.55153 0.000184348 4
-13.8153 -10.4864 -2.74708 0.000104043 1
-17.8647 -13.56 -2.75382 4.10618e-05 1
-18.3899 -13.9587 -2.0199 0.00027719 10
-18.3896 -13.9585 -1.20995 0.000279734 10
-18.3817 -13.9525 -0.402815 0.000280993 10
-18.3748 -13.9473 0.402664 0.000280953 10
-18.3928 -13.9609 1.21016 0.000279614 10
-18.3733 -13.9461 2.01807 0.000276992 10
-21.7827 -16.534 5.31572 0.000251057 10
-21.7775 -16.53 6.31205 0.000243756 10
-20.3489 -15.4456 6.84528 0.000102108 10
-7.89159 -6.03358 -2.66177 0.000176986 4
-9.07281 -6.93669 -2.63669 0.00106168 4
-10.4269 -7.972 -2.5513 0.000181288 4
-13.7804 -10.5359 -2.74744 0.000104052 1
-17.8113 -13.6177 -2.7529 4.10667e-05 1
-18.3604 -14.0376 -2.02202 0.000277414 10
-18.3629 -14.0395 -1.21141 0.000279961 10
-18.3613 -14.0382 -0.403438 0.000281221 10
-18.3667 -14.0424 0.403557 0.000281181 10
-18.3721 -14.0466 1.21202 0.000279841 10
-18.3707 -14.0454 2.02315 0.000277215 10
-21.6267 -16.5349 5.29171 0.00025334 10
-21.6424 -16.5469 6.2896 0.000245979 10
-20.283 -15.5075 6.84129 0.000102103 10
-7.86892 -6.05988 -2.66124 0.000291057 4
-9.06781 -6.98315 -2.6423 0.00112023 4
-10.4043 -8.01237 -2.55259 0.00020281 4
-13.7379 -10.5796 -2.74632 0.000104061 1
-17.7618 -13.6785 -2.75263 4.10716e-05 1
-18.3493 -14.1309 -2.02622 0.00027761 10
-18.3547 -14.135 -1.21411 0.000280161 10
-18.3655 -14.1433 -0.404612 0.000281422 10
-18.3639 -14.1421 0.404578 0.000281382 10
-18.3534 -14.1341 1.21403 0.00028004 10
-18.3664 -14.144 2.02811 0.00027741 10
-21.492 -16.5511 5.27285 0.000255613 10
-21.4822 -16.5435 6.25976 0.000248193 10
-20.2285 -15.5781 6.84121 0.000102097 10
-7.85347 -6.09178 -2.66319 0.000236004 4
-9.06776 -7.03368 -2.64943 0.00126224 4
-10.3802 -8.05173 -2.55357 0.000185922 4
-13.7143 -10.6379 -2.74899 0.00010407 1
-17.7299 -13.7527 -2.75511 4.10765e-05 1
-18.3375 -14.224 -2.03039 0.00027778 10
-18.3423 -14.2277 -1.21657 0.000280333 10
-18.346 -14.2306 -0.405275 0.000281595 10
-18.3491 -14.233 0.405344 0.000281555 10
-18.3467 -14.2312 1.21686 0.000280211 10
-18.3362 -14.223 2.03025 0.000277579 10
-21.3438 -16.556 5.25065 0.000257874 10
-21.3569 -16.5661 6.24009 0.000250396 10
-20.1724 -15.6473 6.84065 0.000102091 10
-7.82008 -6.10972 -2.65908 0.000295019 4
-9.06938 -7.08578 -2.65711 0.000914693 4
-10.3604 -8.09444 -2.55563 0.000170569 4
-13.6773 -10.6859 -2.74903 0.000104079 1
-17.6714 -13.8064 -2.75349 4.10815e-05 1
-18.3154 -14.3095 -2.03346 0.000277922 10
-18.3323 -14.3228 -1.21922 0.000280477 10
-18.338 -14.3272 -0.406201 0.000281741 10
-18.3324 -14.3229 0.406078 0.0002817 10
-18.3418 -14.3302 1.21985 0.000280355 10
-18.3324 -14.3228 2.03535 0.00027772 10
-21.2001 -16.5633 5.22947 0.000260125 10
-21.1973 -16.5611 6.2103 0.000252589 10
-20.116 -15.7163 6.84009 0.000102086 10
-7.81731 -6.15162 -2.66542 8.26094e-05 4
-9.07401 -7.14055 -2.66575 0.00111382 4
-10.3188 -8.12007 -2.55233 0.000228977 4
-13.6371 -10.7313 -2.74847 0.000104089 1
-17.6236 -13.8684 -2.75356 4.10864e-05 1
-18.316 -14.4132 -2.0391 0.000278038 10
-18.3158 -14.4131 -1.22146 0.000280594 10
-18.321 -14.4172 -0.406938 0.000281859 10
-18.3188 -14.4155 0.406888 0.000281818 10
-18.318 -14.4149 1.2216 0.000280472 10
-18.3252 -14.4205 2.04013 0.000277835 10
-21.0651 -16.5766 5.21042 0.000262364 10
-21.0629 -16.5749 6.18785 0.00025477 10
-20.0727 -15.7957 6.84409 0.00010208 10
-7.78551 -6.17072 -2.66191 7.86795e-05 4
-9.08114 -7.19762 -2.67521 0.000971463 4
-10.3019 -8.16518 -2.55519 9.98965e-05 4
-13.5984 -10.7779 -2.74823 0.000104098 1
-17.5787 -13.9327 -2.75413 4.10914e-05 1
-18.2889 -14.4956 -2.0417 0.000278126 10
-18.304 -14.5076 -1.22404 0.000280684 10
-18.3044 -14.5078 -0.40769 0.00028195 10
-18.3001 -14.5045 0.407595 0.000281908 10
-18.3109 -14.513 1.2245 0.000280561 10
-18.3072 -14.5101 2.04375 0.000277922 10
-20.9341 -16.5921 5.1923 0.000264591 10
-20.9291 -16.5882 6.16551 0.00025694 10
-20.0029 -15.8541 6.83909 0.000102074 10
-7.76487 -6.19862 -2.66224 8.65517e-05 4
-9.07031 -7.24074 -2.67945 0.000970274 4
-10.2589 -8.18959 -2.55161 0.000155235 4
-13.5475 -10.8148 -2.74556 0.000104107 1
-17.5174 -13.984 -2.75216 4.10964e-05 1
-18.2826 -14.5948 -2.04668 0.000341125 10
-18.292 -14.6023 -1.22664 0.000344251 10
-18.2878 -14.5989 -0.408452 0.00034579 10
-18.2918 -14.6021 0.408542 0.000345725 10
-18.2839 -14.5958 1.22609 0.000344058 10
-20.781 -16.5892 5.16866 0.000266806 10
-20.7773 -16.5863 6.13781 0.000259097 10
-19.9662 -15.9388 6.84553 0.000102068 10
-7.73564 -6.21961 -2.65964 0.000196718 4
-9.06889 -7.29157 -2.68653 0.00120312 4
-10.236 -8.22996 -2.55304 0.000182913 4
-13.518 -10.8687 -2.74725 0.000104117 1
-17.4856 -14.0588 -2.75485 4.11013e-05 1
-18.296 -14.7103 -2.05391 0.000339958 10
-18.2769 -14.695 -1.22906 0.000343074 10
-18.2966 -14.7109 -0.409795 0.000344608 10
-18.2811 -14.6984 0.409448 0.000344544 10
-18.2802 -14.6976 1.22928 0.000342881 10
-20.6514 -16.6041 5.1508 0.000269008 10
-20.6411 -16.5959 6.11465 0.000261243 10
-19.9036 -16.0029 6.84319 0.000102062 10
-7.72649 -6.25679 -2.66399 0.000424932 4
-9.07448 -7.34837 -2.69577 0.000879544 4
-10.2036 -8.2627 -2.55213 4.91901e-05 4
-13.4834 -10.9186 -2.74795 0.000104126 1
-17.416 -14.1032 -2.75163 4.11064e-05 1
-18.2899 -14.8109 -2.05902 0.000338762 10
-18.2878 -14.8092 -1.23326 0.00034187 10
-18.2804 -14.8032 -0.410586 0.000343399 10
-18.3003 -14.8193 0.411033 0.000343335 10
-18.2815 -14.804 1.23283 0.000341677 10
-20.5037 -16.6036 5.1284 0.000271197 10
-20.5126 -16.6108 6.09372 0.000263375 10
-19.8453 -16.0704 6.8424 0.000102057 10
-7.70168 -6.28133 -2.66298 0.000121977 4
-9.07246 -7.39932 -2.70283 0.001053 4
-10.171 -8.2953 -2.55122 0.000187551 4
-13.4514 -10.9707 -2.74922 0.000104135 1
-17.3675 -14.1646 -2.75176 4.11114e-05 1
-18.2839 -14.912 -2.0642 0.00033754 10
-18.2755 -14.9051 -1.23593 0.000340637 10
-18.2951 -14.9211 -0.412084 0.000342162 10
-18.2968 -14.9225 0.412123 0.000342097 10
-18.2975 -14.923 1.23742 0.000340444 10
-20.3782 -16.6201 5.11149 0.000273372 10
-20.38 -16.6215 6.07153 0.000265495 10
-19.7947 -16.1442 6.84434 0.000102051 10
-7.68649 -6.31376 -2.66533 0.000129853 4
-9.07588 -7.45501 -2.71158 0.00101123 4
-10.1522 -8.33909 -2.55377 0.000201401 4
-13.4006 -11.0074 -2.74668 0.000104145 1
-17.3205 -14.2272 -2.75216 4.11165e-05 1
-18.2904 -15.0239 -2.07084 0.000336289 10
-18.2896 -15.0233 -1.24043 0.000339377 10
-18.2777 -15.0135 -0.41287 0.000340897 10
-18.2813 -15.0165 0.412952 0.000340832 10
-18.2802 -15.0156 1.23979 0.000339184 10
-20.25 -16.6336 5.09387 0.000275533 10
-20.2477 -16.6316 6.04937 0.000267601 10
-19.7353 -16.2108 6.84332 0.000102045 10
-7.65418 -6.33209 -2.66177 0.000220368 4
-9.07903 -7.51083 -2.72034 0.00103997 4
-10.11 -8.36371 -2.55049 0.000135302 4
-13.3744 -11.0643 -2.7492 0.000104154 1
-17.2796 -14.2949 -2.75358 4.11216e-05 1
-18.2876 -15.1288 -2.07648 0.000335012 10
-18.2847 -15.1264 -1.24367 0.00033809 10
-18.2912 -15.1318 -0.414366 0.000339605 10
-18.2918 -15.1323 0.414378 0.00033954 10
-18.2954 -15.1353 1.24439 0.000337897 10
-20.1137 -16.6395 5.07417 0.00027768 10
-20.0961 -16.6249 6.02137 0.000269693 10
-19.6817 -16.2821 6.84439 0.000102039 10
-7.62622 -6.35393 -2.65975 0.000232185 4
-9.08405 -7.56855 -2.72975 0.00109868 4
-10.0916 -8.40803 -2.55324 0.00011686 4
-13.3146 -11.0933 -2.74485 0.000104164 1
-17.215 -14.343 -2.75125 4.11266e-05 1
-18.2863 -15.2355 -2.08236 0.000333708 10
-18.2758 -15.2268 -1.24667 0.000336776 10
-18.2961 -15.2438 -0.415681 0.000338285 10
-18.2827 -15.2326 0.415375 0.000338221 10
-18.2843 -15.2339 1.24725 0.000336582 10
-19.9612 -16.631 5.0503 0.000279813 10
-19.9674 -16.6362 6.00017 0.00027177 10
-19.6259 -16.3517 6.84481 0.000102033 10
-7.61586 -6.39047 -2.6639 6.29686e-05 4
-9.06822 -7.60914 -2.73295 0.00123969 4
-10.0938 -8.46973 -2.56126 0.000630988 4
-13.2766 -11.1404 -2.74503 0.000104173 1
-17.1722 -14.4092 -2.75243 4.11317e-05 1
-18.2833 -15.3415 -2.08811 0.000332378 10
-18.2737 -15.3335 -1.25017 0.000335435 10
-18.2955 -15.3517 -0.41688 0.000336939 10
-18.2778 -15.3369 0.416478 0.000336875 10
-18.2785 -15.3375 1.25049 0.000335242 10
-19.8381 -16.6462 5.03384 0.00028193 10
-19.8327 -16.6416 5.97713 0.000273834 10
-19.5712 -16.4222 6.84566 0.000102027 10
-7.59559 -6.41877 -2.66463 0.000161365 4
-9.07387 -7.66801 -2.74271 0.000375649 1
-10.0788 -8.51726 -2.56498 0.000730894 4
-13.2424 -11.1907 -2.74601 0.000104183 1
-17.128 -14.4742 -2.75342 4.11369e-05 1
-18.2792 -15.4471 -2.09378 0.000331022 10
-18.2882 -15.4547 -1.25484 0.000334067 10
-18.2838 -15.451 -0.41784 0.000335566 10
-18.2801 -15.4479 0.417756 0.000335502 10
