VERSION 0.7
FIELDS x y z intensity label
SIZE 4 4 4 4 4
TYPE F F F F F
COUNT 1 1 1 1 1
WIDTH 1174
HEIGHT 1
VIEWPOINT 5.57265 54.0758 2.7298 0.876742 -4.86667e-05 0.000246736 -0.48096
POINTS 1174
DATA ascii
6.64946 -7.70347 -2.72675 0.000613751 1
7.21551 -8.35925 -2.5494 0.00123256 4
8.92391 -10.3385 -2.6547 7.59925e-05 4
10.4694 -12.1289 -2.53771 0.000114659 4
14.5153 -16.8161 -2.72758 4.24999e-05 1
15.1041 -17.4983 -2.02234 0.00021171 10
15.1306 -17.529 -1.21356 0.000467956 10
15.1272 -17.525 -0.404098 0.00047014 10
15.1371 -17.5365 0.404363 0.000470151 10
15.1007 -17.4943 1.21115 0.000166465 10
15.0084 -17.3874 2.00952 5.11127e-05 10
14.5085 -16.8083 2.7263 0.000608294 10
14.4947 -16.7923 3.51341 0.000597139 10
15.1172 -17.5134 4.49708 0.000155783 10
15.1184 -17.5148 5.34166 0.000151394 10
14.5087 -16.8085 5.94962 0.000548854 10
6.69093 -7.69704 -2.73273 0.000613764 1
7.30101 -8.39886 -2.56924 0.00110434 4
8.94631 -10.2916 -2.65066 0.000182951 4
10.517 -12.0984 -2.539 7.56621e-05 4
14.5724 -16.7637 -2.7273 4.25022e-05 1
15.3431 -17.6502 -2.04608 0.000202474 10
16.1136 -18.5366 -1.2872 0.000601873 10
16.1116 -18.5343 -0.428664 0.000604718 10
16.1014 -18.5225 0.428391 0.000604731 10
15.3418 -17.6487 1.22554 0.000159204 10
15.0718 -17.3381 2.0099 5.11088e-05 10
14.5349 -16.7205 2.72028 0.000610688 10
14.5527 -16.741 3.51328 0.000599491 10
15.361 -17.6708 4.55122 0.000148962 10
15.3612 -17.6711 5.40563 0.000144755 10
14.5368 -16.7226 5.93714 0.000551025 10
6.71547 -7.67102 -2.7318 0.000613778 1
7.39664 -8.44912 -2.5925 0.00163817 4
8.98254 -10.2607 -2.65076 0.00014918 4
10.556 -12.058 -2.53823 0.000114668 4
14.6469 -16.731 -2.73029 4.25045e-05 1
15.5961 -17.8153 -2.07151 0.000193507 10
16.1594 -18.4587 -1.2857 0.000604259 10
16.1547 -18.4533 -0.428094 0.000607115 10
16.1421 -18.439 0.427761 0.000607127 10
15.6007 -17.8205 1.24125 0.000152156 10
15.134 -17.2875 2.01014 5.11049e-05 10
15.4153 -17.6088 2.87353 0.000525825 10
15.4115 -17.6044 3.70575 0.000516076 10
15.6023 -17.8223 4.60426 0.000142341 10
15.6006 -17.8204 5.46795 0.00013831 10
15.4067 -17.5989 6.26731 0.000473894 10
6.74061 -7.64572 -2.73115 0.000613792 1
7.503 -8.51048 -2.61935 0.00130861 4
9.0183 -10.2293 -2.65076 0.000358887 4
10.609 -12.0336 -2.54087 0.000101411 4
14.6988 -16.6725 -2.72909 4.25068e-05 1
15.8391 -17.9659 -2.09544 0.000184807 10
16.2042 -18.3801 -1.28416 0.000606622 10
16.1985 -18.3736 -0.427553 0.000609489 10
16.2043 -18.3802 0.427706 0.000609502 10
15.8485 -17.9766 1.25597 0.000145316 10
15.1967 -17.2373 2.01046 5.11011e-05 10
15.4551 -17.5304 2.86952 0.000527864 10
15.4595 -17.5354 3.70257 0.000518079 10
15.8459 -17.9736 4.65761 0.000135917 10
15.8525 -17.9811 5.5342 0.000132058 10
15.4591 -17.5349 6.2637 0.000475743 10
6.75733 -7.61097 -2.72714 0.000613805 1
7.60989 -8.57123 -2.6462 0.000832127 4
9.05296 -10.1966 -2.65047 5.0668e-05 4
10.6436 -11.9882 -2.53912 0.000108436 4
14.7658 -16.6311 -2.73074 4.25091e-05 1
16.107 -18.1418 -2.1225 0.000176369 10
16.2483 -18.3009 -1.28258 0.000608964 10
16.2405 -18.2921 -0.426973 0.00061184 10
16.2428 -18.2947 0.427033 0.000611854 10
16.111 -18.1463 1.27174 0.000138683 10
15.2581 -17.1856 2.01062 5.10971e-05 10
15.5066 -17.4656 2.86775 0.000529883 10
15.4939 -17.4512 3.69619 0.000520063 10
16.1054 -18.1399 4.71524 0.000129688 10
16.1072 -18.1419 5.60097 0.000125996 10
15.4937 -17.4509 6.25298 0.000477573 10
6.79081 -7.59511 -2.72994 0.000169793 4
7.70211 -8.61434 -2.66779 0.00119986 4
9.10293 -10.1811 -2.65468 0.000130897 4
10.6933 -11.9598 -2.54098 0.000117022 4
14.8051 -16.5586 -2.7273 4.25114e-05 1
16.3617 -18.2995 -2.14762 0.00016819 10
16.3573 -18.2946 -1.28613 0.000169739 10
16.3641 -18.3022 -0.42854 0.000170497 10
16.3736 -18.3129 0.42879 0.000170456 10
16.3619 -18.2998 1.2865 0.000132253 10
15.4716 -17.3041 2.03079 0.000153363 10
15.5482 -17.3897 2.86419 0.000531883 10
15.5421 -17.3829 3.69319 0.000522027 10
16.374 -18.3133 4.77514 0.000123651 10
16.3641 -18.3022 5.66807 0.000120121 10
15.5467 -17.3881 6.24986 0.000479386 10
6.78865 -7.53956 -2.71847 0.000128568 4
7.81366 -8.67795 -2.69593 0.00118331 4
9.12269 -10.1318 -2.65011 0.00012527 4
10.7224 -11.9085 -2.53802 0.000112345 4
13.8407 -15.3716 -2.53975 3.837e-05 4
16.6276 -18.4668 -2.17406 0.000160267 10
16.6316 -18.4713 -1.30263 0.000161746 10
16.6295 -18.4689 -0.4338 0.00016247 10
16.6447 -18.4859 0.434198 0.000162431 10
16.5184 -18.3455 1.29375 0.0004648 10
16.5046 -18.3303 2.15798 0.000460454 10
16.5052 -18.3309 3.02869 0.000453989 10
16.6336 -18.4735 3.9372 0.000120678 10
16.5131 -18.3397 4.797 0.000435001 10
16.5132 -18.3398 5.69752 0.000422682 10
16.5053 -18.331 6.60944 0.00040865 10
6.79156 -7.49005 -2.70915 0.000150932 4
7.91109 -8.72472 -2.71902 0.00134601 4
9.16273 -10.1051 -2.65148 9.9938e-05 4
10.7687 -11.8762 -2.53913 0.000102207 4
13.8965 -15.3257 -2.54015 4.81223e-05 4
16.9206 -18.6608 -2.20383 0.000152595 10
16.9099 -18.649 -1.31931 0.000154008 10
16.9104 -18.6496 -0.439428 0.000154698 10
16.9135 -18.653 0.439508 0.00015466 10
16.5626 -18.266 1.29222 0.000466526 10
16.5485 -18.2504 2.15537 0.000462165 10
16.5535 -18.2559 3.02583 0.000455677 10
16.921 -18.6613 3.98979 0.000114887 10
16.5594 -18.2625 4.7919 0.000436622 10
16.5492 -18.2513 5.68792 0.000424261 10
16.5471 -18.2489 6.60063 0.000410179 10
6.81475 -7.46311 -2.70799 0.000117697 4
7.9799 -8.73911 -2.73216 0.000381478 1
9.20791 -10.084 -2.65435 0.000170322 4
10.8133 -11.8421 -2.53991 9.67494e-05 4
13.9406 -15.2669 -2.53846 4.24631e-05 4
17.1932 -18.829 -2.23077 0.000145172 10
17.1869 -18.822 -1.33579 0.000146519 10
17.201 -18.8376 -0.445268 0.000147178 10
17.2045 -18.8413 0.445357 0.000147141 10
16.6121 -18.1926 1.29112 0.000468235 10
16.6005 -18.1799 2.15386 0.000463858 10
16.6087 -18.1888 3.0243 0.000457347 10
17.2047 -18.8415 4.04114 0.000109284 10
16.6009 -18.1803 4.78553 0.000438227 10
16.5961 -18.1751 5.6822 0.000425823 10
16.5955 -18.1744 6.59458 0.000411692 10
6.81635 -7.41273 -2.69833 0.000149977 4
8.00875 -8.70946 -2.73162 0.000381487 1
9.23529 -10.0433 -2.65212 0.000105575 4
10.858 -11.808 -2.54071 0.000105336 4
13.9886 -15.2125 -2.53752 3.86907e-05 4
17.4828 -19.0124 -2.25972 0.000137992 10
17.4812 -19.0106 -1.3535 0.000139276 10
17.4803 -19.0097 -0.450777 0.000139903 10
17.4955 -19.0262 0.451167 0.000139868 10
16.6519 -18.1089 1.28929 0.000469925 10
16.645 -18.1014 2.15143 0.000465534 10
16.6518 -18.1087 3.02061 0.000459001 10
17.4965 -19.0273 4.09406 0.000103866 10
16.6551 -18.1123 4.78289 0.000439815 10
16.6533 -18.1104 5.6801 0.000427368 10
16.6615 -18.1193 6.59566 0.000413189 10
6.82259 -7.36773 -2.6906 0.000166642 4
8.02734 -8.66875 -2.72762 0.000381497 1
8.8831 -9.59288 -2.54135 0.000186457 4
10.9033 -11.7745 -2.54167 0.000504791 4
14.049 -15.1715 -2.53884 4.62425e-05 4
17.7835 -19.2044 -2.2899 0.000131053 10
17.7918 -19.2135 -1.37235 0.000132275 10
17.7968 -19.2188 -0.457206 0.000132873 10
17.7972 -19.2192 0.457216 0.000132839 10
17.9801 -19.4167 1.38687 0.000243069 10
17.9773 -19.4137 2.31486 0.00024076 10
17.9784 -19.4149 3.24895 0.000237325 10
17.7983 -19.2204 4.14895 9.86301e-05 10
16.8339 -18.179 4.816 0.000113129 10
17.9926 -19.4303 6.11374 0.000220701 10
17.9872 -19.4244 7.09355 0.000213254 10
6.82249 -7.31623 -2.68048 0.000157611 4
8.07134 -8.65546 -2.73229 0.000381507 1
8.91006 -9.55487 -2.53951 0.000189597 4
11.054 -11.854 -2.56714 0.000501691 4
14.1102 -15.1313 -2.54035 3.17738e-05 4
18.1011 -19.4111 -2.32206 0.000124351 10
18.0985 -19.4082 -1.39077 0.000125514 10
18.0912 -19.4004 -0.463026 0.000126082 10
18.1034 -19.4136 0.463339 0.000126049 10
18.096 -19.4056 1.39058 6.24256e-05 10
18.1015 -19.4115 2.32212 0.000374628 10
18.1031 -19.4132 3.25921 0.000369279 10
18.1097 -19.4203 4.20573 9.35733e-05 10
18.1077 -19.4181 5.16097 0.000353578 10
18.0974 -19.407 6.12627 0.000343396 10
18.0977 -19.4075 7.11039 0.000331804 10
6.83003 -7.27325 -2.67345 0.000148488 4
8.08397 -8.60855 -2.72637 0.000381517 1
8.94882 -9.52953 -2.54106 0.000188036 4
11.2017 -11.9286 -2.59174 0.000376872 4
14.1516 -15.07 -2.53832 3.49215e-05 4
18.4086 -19.6032 -2.35272 0.000117881 10
18.4115 -19.6062 -1.40955 0.000118987 10
18.4191 -19.6144 -0.469665 0.000119527 10
18.4247 -19.6203 0.469805 0.000119495 10
18.1494 -19.3271 1.38949 0.000379555 10
18.1573 -19.3355 2.32059 0.000375947 10
18.1441 -19.3215 3.25444 0.000370581 10
18.416 -19.611 4.26093 8.86926e-05 10
18.1431 -19.3204 5.15181 0.000354827 10
18.1516 -19.3294 6.12174 0.000344612 10
18.1479 -19.3255 7.10354 0.000332981 10
6.84544 -7.23885 -2.66957 0.000161654 4
8.11243 -8.57866 -2.72586 0.000381527 1
8.98487 -9.50123 -2.54186 0.000219382 4
11.3461 -11.9982 -2.61546 0.000396535 4
14.2164 -15.0335 -2.54052 4.21598e-05 4
18.7294 -19.8058 -2.38487 0.000111641 10
18.7276 -19.8039 -1.42845 0.000112692 10
18.7457 -19.823 -0.476223 0.000113204 10
18.7386 -19.8155 0.476044 0.000113174 10
18.1979 -19.2437 1.38805 0.000380871 10
18.2132 -19.2599 2.31914 0.000377251 10
18.193 -19.2385 3.25114 0.000371867 10
18.7361 -19.8129 4.31897 8.39854e-05 10
18.1934 -19.239 5.14701 0.000356062 10
18.2116 -19.2583 6.11929 0.000345814 10
18.2117 -19.2584 7.10218 0.000334144 10
6.84792 -7.19102 -2.66073 0.00010122 4
8.14751 -8.55573 -2.72759 0.000381537 1
9.09278 -9.54836 -2.56295 0.00101585 4
11.488 -12.0636 -2.63844 0.000406936 4
14.2609 -14.9754 -2.53911 3.87009e-05 4
19.0687 -20.0241 -2.41915 0.000105626 10
19.0642 -20.0194 -1.44879 0.000106623 10
19.0638 -20.019 -0.482528 0.000107109 10
19.0791 -20.035 0.482914 0.00010708 10
18.2524 -19.1669 1.38709 0.000382172 10
18.2442 -19.1583 2.31455 0.000378541 10
18.2613 -19.1762 3.25136 0.00037314 10
19.0882 -20.0446 4.38398 7.94487e-05 10
18.2499 -19.1643 5.14403 0.000357283 10
18.2469 -19.1611 6.10862 0.000347002 10
18.2605 -19.1755 7.09507 0.000335295 10
6.8593 -7.15281 -2.65544 0.000422646 4
8.19065 -8.54113 -2.73204 0.000381547 1
9.23119 -9.6262 -2.59247 0.000921068 4
11.5935 -12.0896 -2.65295 0.000100518 4
14.3028 -14.9149 -2.53729 4.02763e-05 4
19.4245 -20.2556 -2.4553 9.98322e-05 10
19.2516 -20.0754 -1.45769 0.000424391 10
19.2542 -20.0781 -0.48557 0.000426456 10
19.4119 -20.2425 0.489545 0.00010121 10
18.3599 -19.1455 1.39018 9.25222e-05 10
18.3783 -19.1648 2.32307 9.1615e-05 10
18.3674 -19.1534 3.25834 9.02797e-05 10
19.4175 -20.2484 4.44335 7.50795e-05 10
18.3669 -19.1528 5.15812 8.63879e-05 10
18.3694 -19.1554 6.1272 8.38739e-05 10
18.3754 -19.1617 7.11367 8.10163e-05 10
6.86693 -7.11092 -2.64877 0.000338921 4
8.2143 -8.50616 -2.73001 0.000381557 1
9.36929 -9.70219 -2.62173 0.000852293 4
11.6256 -12.0386 -2.65067 0.000111691 4
14.3622 -14.8725 -2.5386 3.24116e-05 4
19.7658 -20.4681 -2.4894 9.42564e-05 10
19.3008 -19.9866 -1.45613 0.000425814 10
19.2934 -19.9789 -0.484796 0.000427885 10
19.7776 -20.4803 0.496962 9.55604e-05 10
19.7711 -20.4736 1.49161 7.4127e-05 10
19.3004 -19.9861 2.43078 0.000328842 10
19.3057 -19.9916 3.41238 0.000324096 10
19.7713 -20.4738 4.50793 7.08749e-05 10
19.7767 -20.4794 5.53395 6.91297e-05 10
19.3063 -19.9923 6.41642 0.000301137 10
19.3024 -19.9882 7.44547 0.000290858 10
6.90348 -7.09901 -2.65329 0.000789505 4
8.21481 -8.44748 -2.72036 6.11312e-05 4
9.497 -9.76599 -2.64791 0.000871982 4
11.6675 -11.9979 -2.65066 4.11875e-05 4
14.4108 -14.819 -2.53804 2.9581e-05 4
20.1299 -20.7 -2.52614 8.88937e-05 10
19.3619 -19.9103 -1.45549 0.000427219 10
19.3527 -19.9008 -0.484537 0.000429297 10
20.1304 -20.7005 0.504008 9.01268e-05 10
20.1475 -20.7181 1.51454 6.99106e-05 10
19.3522 -19.9003 2.42855 0.000329928 10
19.3619 -19.9103 3.41002 0.000325167 10
20.1396 -20.7101 4.57539 6.68316e-05 10
20.1306 -20.7008 5.61273 5.52558e-05 10
19.3555 -19.9037 6.40962 0.000302136 10
19.3523 -19.9004 7.43787 0.000291826 10
6.9194 -7.06586 -2.64991 0.000821422 4
8.22055 -8.39455 -2.71254 5.56416e-05 4
9.64637 -9.85055 -2.67995 0.000993834 4
11.7113 -11.9591 -2.65111 0.000100529 4
14.4707 -14.777 -2.53948 4.28004e-05 4
20.51 -20.9441 -2.56465 8.37406e-05 10
19.4157 -19.8267 -1.45432 0.000428607 10
19.4036 -19.8143 -0.484078 0.000430691 10
20.5193 -20.9537 0.511912 8.49054e-05 10
20.5236 -20.958 1.5373 6.58588e-05 10
19.4161 -19.8271 2.42786 0.000331001 10
19.4159 -19.8269 3.40732 0.000326225 10
20.5096 -20.9438 4.64282 6.29467e-05 10
20.1877 -20.615 5.60855 5.52538e-05 10
19.4009 -19.8116 6.40174 7.04463e-05 10
19.41 -19.8208 7.43342 6.80198e-05 10
6.95455 -7.05234 -2.65393 0.0007058 4
8.2259 -8.34157 -2.70468 6.37118e-05 4
9.80529 -9.94317 -2.71445 0.000945683 4
11.7642 -11.9297 -2.65365 5.02667e-05 4
14.5277 -14.7319 -2.54043 3.08431e-05 4
20.893 -21.1868 -2.60328 7.87927e-05 10
20.319 -20.6047 -1.51658 0.000377695 10
20.3334 -20.6193 -0.505474 0.000379552 10
20.8895 -21.1832 0.519299 7.98919e-05 10
20.8928 -21.1866 1.55941 6.19684e-05 10
20.322 -20.6078 2.53213 0.000291654 10
20.3161 -20.6018 3.55265 0.000287401 10
20.9074 -21.2014 4.71608 5.92171e-05 10
20.2672 -20.5522 5.61068 5.52518e-05 10
20.3336 -20.6195 6.68568 0.000266839 10
20.913 -21.207 7.98061 5.40482e-05 10
6.96577 -7.01457 -2.64885 0.00088526 4
8.21429 -8.27184 -2.69135 6.45318e-05 4
9.88984 -9.95913 -2.72821 0.000216033 1
11.79 -11.8726 -2.65011 0.000148013 4
14.5607 -14.6627 -2.53724 4.18607e-05 4
21.2878 -21.437 -2.64313 7.40463e-05 10
20.3706 -20.5133 -1.51508 0.000378897 10
20.3762 -20.519 -0.504756 0.000380758 10
21.3048 -21.454 0.527758 7.50823e-05 10
21.3085 -21.4578 1.58484 5.82365e-05 10
20.3733 -20.516 2.52958 0.000292582 10
20.3839 -20.5267 3.55196 0.000288317 10
21.309 -21.4582 4.78973 5.564e-05 10
20.3456 -20.4882 5.61254 5.52498e-05 10
20.3825 -20.5253 6.67817 0.000267693 10
21.3046 -21.4538 8.10143 5.07638e-05 10
6.99198 -6.99198 -2.64952 0.000745708 4
8.22647 -8.22648 -2.68592 5.94624e-05 4
9.9283 -9.9283 -2.72924 0.00021604 1
11.8326 -11.8326 -2.65038 7.40097e-05 4
14.624 -14.624 -2.53937 3.71415e-05 4
21.699 -21.699 -2.68477 6.94972e-05 10
21.7157 -21.7157 -1.60948 7.01684e-05 10
21.7151 -21.7151 -0.536041 7.04948e-05 10
21.705 -21.705 0.535793 7.04726e-05 10
21.7137 -21.7137 1.60933 5.46595e-05 10
21.7202 -21.7202 2.68739 5.41024e-05 10
21.7064 -21.7064 3.76917 5.32835e-05 10
21.7227 -21.7227 4.86565 5.2212e-05 10
21.7172 -21.7172 5.96995 5.09001e-05 10
21.7206 -21.7206 7.09171 4.93628e-05 10
21.7121 -21.7121 8.22753 4.76173e-05 10
7.02094 -6.9721 -2.65126 0.000709834 4
8.21255 -8.15541 -2.67206 6.02669e-05 4
9.95097 -9.88174 -2.72598 0.000216046 1
11.8721 -11.7895 -2.65 7.19179e-05 4
14.6666 -14.5646 -2.53793 3.52548e-05 4
21.9785 -21.8256 -2.7099 0.000305336 10
21.9699 -21.8171 -1.62267 0.000308396 10
21.9666 -21.8138 -0.540368 0.000309938 10
22.1334 -21.9795 0.544471 6.60585e-05 10
21.9735 -21.8206 1.62293 0.000240476 10
21.9691 -21.8163 2.70875 0.000238101 10
21.9702 -21.8174 3.80174 0.000234568 10
21.9657 -21.8129 4.90301 0.00022992 10
21.9686 -21.8158 6.01809 0.000224209 10
21.98 -21.8271 7.1515 0.0002175 10
22.002 -21.8489 8.30843 5.72274e-05 10
7.04173 -6.94409 -2.64994 0.000251239 4
8.22485 -8.11081 -2.66684 6.25688e-05 4
9.99666 -9.85804 -2.72905 0.000216053 1
11.9171 -11.7518 -2.65086 0.000131971 4
14.7213 -14.5172 -2.53861 4.53301e-05 4
22.0327 -21.7272 -2.70722 0.000306277 10
22.0324 -21.7269 -1.62167 0.000309346 10
22.0385 -21.733 -0.540267 0.000310892 10
22.5767 -22.2636 0.553459 6.18358e-05 10
22.0377 -21.7322 1.62206 0.000241217 10
22.0268 -21.7214 2.70649 0.000238834 10
22.0298 -21.7243 3.7989 0.000235292 10
22.0221 -21.7167 4.89863 0.00023063 10
22.0393 -21.7337 6.01664 0.000224903 10
22.0334 -21.7278 7.14412 0.000218174 10
22.0872 -21.781 8.31185 5.72259e-05 10
7.07015 -6.9236 -2.65152 0.000446657 4
8.21358 -8.04333 -2.65406 6.63915e-05 4
10.0195 -9.81183 -2.72592 0.00021606 1
11.4458 -11.2086 -2.53731 0.000107741 4
14.7655 -14.4594 -2.5375 3.87215e-05 4
22.1022 -21.644 -2.70645 0.000307204 10
22.0833 -21.6256 -1.61985 0.000310282 10
22.0818 -21.6241 -0.539475 0.000311833 10
23.0227 -22.5455 0.56246 5.78003e-05 10
22.0883 -21.6304 1.62021 0.000241947 10
22.0846 -21.6268 2.7043 0.000239558 10
22.0999 -21.6418 3.79794 0.000236005 10
22.0904 -21.6325 4.897 0.00023133 10
22.0823 -21.6246 6.00773 0.000225586 10
22.0993 -21.6412 7.14097 0.000218839 10
22.1553 -21.696 8.3089 5.72243e-05 10
7.08612 -6.89095 -2.64848 0.000291131 4
8.23152 -8.00481 -2.65081 0.000111707 4
10.0721 -9.79465 -2.7309 0.000216067 1
11.4917 -11.1752 -2.53883 4.99686e-05 4
14.8276 -14.4192 -2.53951 3.46308e-05 4
22.2225 -21.6104 -2.71194 6.32511e-05 10
22.221 -21.609 -1.6244 6.3862e-05 10
22.2234 -21.6113 -0.541086 6.41585e-05 10
23.4941 -22.847 0.572026 5.39482e-05 10
22.2313 -21.619 1.62516 4.97437e-05 10
22.2301 -21.6179 2.71287 4.92345e-05 10
22.2208 -21.6088 3.80574 4.84862e-05 10
22.2343 -21.6219 4.91214 4.75078e-05 10
22.2383 -21.6258 6.02962 4.63101e-05 10
22.2231 -21.611 7.15655 4.49069e-05 10
22.2486 -21.6358 8.31553 5.72228e-05 10
7.11334 -6.86928 -2.64967 0.000211374 4
8.26095 -7.97751 -2.65131 0.000494007 4
10.0979 -9.75142 -2.72866 0.000216073 1
11.5239 -11.1285 -2.53734 0.000115557 4
14.8758 -14.3654 -2.53916 4.25037e-05 4
23.6193 -22.8089 -1.72079 0.000257833 10
23.6089 -22.7989 -0.572881 0.000259143 10
23.6179 -22.8075 0.573097 0.000259149 10
23.6244 -22.8138 1.72116 0.000201049 10
23.6276 -22.817 2.87368 0.000199032 10
22.693 -21.9144 3.87348 4.52252e-05 10
23.6272 -22.8165 5.20225 0.000192087 10
23.6171 -22.8068 6.38184 0.00018724 10
22.9092 -22.1231 7.35257 4.70838e-05 10
23.6236 -22.8131 8.79964 0.000175076 10
7.1525 -6.85901 -2.65533 0.000151554 4
8.28303 -7.94314 -2.64948 0.000471677 4
11.6591 -11.1806 -2.55849 0.000629772 4
14.9705 -14.3562 -2.54676 0.000123371 4
23.6827 -22.7109 -1.71963 0.000258585 10
23.6802 -22.7085 -0.572683 0.000259899 10
23.6885 -22.7165 0.572884 0.000259905 10
23.6759 -22.7044 1.71913 0.000201636 10
23.6716 -22.7002 2.86936 0.000199613 10
24.4776 -23.4732 4.16409 3.53329e-05 10
23.6709 -22.6996 5.1944 0.000192648 10
23.6808 -22.7091 6.37759 0.000187788 10
23.1656 -22.215 7.40993 3.89783e-05 10
23.6806 -22.7089 8.79129 0.000175591 10
7.17063 -6.8285 -2.65319 0.000402824 4
8.31964 -7.92269 -2.65233 0.000464242 4
11.8704 -11.304 -2.59618 0.000580696 4
15.2249 -14.4985 -2.58141 0.00033633 4
23.739 -22.6064 -1.71798 0.000259326 10
23.7391 -22.6064 -0.572195 0.000260643 10
23.7499 -22.6167 0.572455 0.000260649 10
23.7481 -22.615 1.71863 0.000202213 10
23.749 -22.6159 2.86917 0.000200184 10
23.7494 -22.6162 5.19426 0.000193202 10
23.7469 -22.6139 6.37408 0.000188328 10
23.7389 -22.6062 8.78357 0.000176099 10
7.1937 -6.80275 -2.65292 8.37573e-05 4
8.34977 -7.89598 -2.65313 0.000481632 4
12.0647 -11.409 -2.62996 0.000489776 4
15.46 -14.6198 -2.6126 0.000266423 4
7.20932 -6.77 -2.64995 0.000315094 4
8.36968 -7.85965 -2.65072 0.000461783 4
12.2914 -11.5424 -2.67058 0.000472319 4
15.7046 -14.7476 -2.64522 0.000255396 4
7.24331 -6.75449 -2.65376 0.000323078 4
8.39942 -7.83259 -2.65147 0.000546209 4
12.5152 -11.6706 -2.71034 0.00059459 4
15.7864 -14.7211 -2.65033 4.53096e-05 4
7.26538 -6.72782 -2.65323 0.000291176 4
8.43701 -7.81276 -2.65471 6.45536e-05 4
12.6311 -11.6965 -2.72657 0.000106834 1
7.27433 -6.68909 -2.64795 0.000127641 4
8.44781 -7.76817 -2.64956 0.000124145 4
12.6895 -11.6686 -2.73037 0.000106838 1
15.8981 -14.6191 -2.65189 3.69228e-05 4
7.30435 -6.66979 -2.65039 9.17442e-05 4
8.4914 -7.75371 -2.65472 6.95228e-05 4
10.0712 -9.19624 -2.65099 0.000121154 4
12.7171 -11.6123 -2.72757 0.000106842 1
15.9472 -14.5618 -2.65157 6.21008e-05 4
7.3238 -6.64081 -2.64902 5.58455e-05 4
8.50138 -7.70858 -2.64941 0.000146498 4
10.1086 -9.16591 -2.6524 0.000281762 4
12.7523 -11.5631 -2.72645 0.000106846 1
16.0034 -14.511 -2.65248 3.60875e-05 4
7.36168 -6.62849 -2.65434 0.000119672 4
8.54125 -7.69057 -2.65346 4.22125e-05 4
10.1292 -9.12039 -2.64944 0.000262047 4
12.8031 -11.528 -2.72869 0.000106851 1
16.0417 -14.444 -2.65046 3.44109e-05 4
7.37338 -6.59257 -2.65024 0.000127652 4
8.56753 -7.66026 -2.6533 8.44271e-05 4
10.1586 -9.0828 -2.64881 0.000255011 4
12.8459 -11.4856 -2.72925 0.000106855 1
7.40407 -6.57365 -2.65301 0.000370998 4
8.58872 -7.62543 -2.6516 0.000136577 4
10.1923 -9.04911 -2.64934 0.000273335 4
7.41369 -6.53605 -2.64826 0.000227391 4
8.60685 -7.58796 -2.64901 6.45652e-05 4
10.2394 -9.02721 -2.65338 0.000267708 4
15.4979 -13.6632 -2.53682 4.3163e-05 4
7.43939 -6.51269 -2.64931 0.00013564 4
8.64542 -7.56849 -2.65273 0.0001192 4
10.2665 -8.98767 -2.65228 0.000123995 4
15.7236 -13.7649 -2.56589 0.000325244 4
7.46755 -6.49144 -2.65125 0.000103727 4
8.65806 -7.52633 -2.64853 0.000168871 4
10.2989 -8.95274 -2.65256 6.19993e-05 4
16.0604 -13.9611 -2.61289 0.000323533 4
7.5007 -6.47443 -2.65498 0.000163572 4
8.69589 -7.5061 -2.65207 0.000285599 4
10.318 -8.90625 -2.64944 5.35465e-05 4
16.4185 -14.1721 -2.66309 0.000263717 4
7.52013 -6.44554 -2.65388 9.17621e-05 4
8.71594 -7.47046 -2.65022 0.000149012 4
10.3597 -8.87932 -2.65217 5.35482e-05 4
16.7842 -14.3858 -2.71424 0.000277603 4
7.53118 -6.40953 -2.64986 0.000139641 4
8.7493 -7.44625 -2.65244 0.000111762 4
10.3828 -8.83648 -2.65019 3.52302e-05 4
12.7414 -10.8438 -2.64995 0.000129285 4
16.9062 -14.3883 -2.72583 4.26004e-05 1
22.4208 -19.0816 -2.5758 8.9809e-05 4
7.56046 -6.38909 -2.6523 0.000211461 4
8.76122 -7.4038 -2.6482 0.000151503 4
10.4111 -8.79811 -2.64956 8.03272e-05 4
12.7755 -10.7962 -2.6492 0.000123 4
16.9767 -14.3464 -2.7291 4.26027e-05 1
22.8933 -19.3464 -2.6223 2.96758e-05 4
7.59101 -6.36962 -2.65521 3.98992e-05 4
8.78639 -7.37266 -2.64802 8.69303e-05 4
10.4582 -8.77545 -2.65371 4.7916e-05 4
12.8176 -10.7552 -2.65011 0.000142574 4
17.0127 -14.2753 -2.72686 4.2605e-05 1
7.59581 -6.32859 -2.64914 0.00012369 4
8.81649 -7.34562 -2.64934 0.000104319 4
10.4683 -8.72189 -2.64855 0.00012684 4
12.8482 -10.7047 -2.6487 0.00012301 4
17.0642 -14.2174 -2.72715 4.26072e-05 1
7.62452 -6.30755 -2.65146 0.000179554 4
8.85346 -7.32422 -2.65276 9.68701e-05 4
10.5043 -8.68989 -2.64995 0.000121207 4
12.8992 -10.6711 -2.65152 3.63452e-05 4
7.63658 -6.27276 -2.64802 0.00045887 4
8.8806 -7.29461 -2.65324 8.19691e-05 4
10.5458 -8.66245 -2.65279 5.6377e-05 4
12.9439 -10.6323 -2.65307 4.40354e-05 4
7.66574 -6.25202 -2.65055 0.000239416 4
8.89292 -7.25289 -2.64934 0.000240945 4
10.5673 -8.61849 -2.65061 7.89302e-05 4
12.9782 -10.5848 -2.65251 6.85021e-05 4
46.1668 -37.6527 -1.03987 3.15604e-05 10
46.1627 -37.6493 1.03978 3.15612e-05 10
7.70089 -6.23606 -2.65516 9.1778e-05 4
8.93528 -7.23565 -2.65442 9.68775e-05 4
13.0087 -10.5342 -2.65121 3.49514e-05 4
46.2887 -37.4838 -1.03967 3.16249e-05 10
46.2834 -37.4796 1.03955 3.16258e-05 10
7.71057 -6.19946 -2.65102 0.000127694 4
8.9485 -7.19478 -2.65087 0.000126689 4
10.6201 -8.53875 -2.64883 9.72593e-05 4
7.7243 -6.16623 -2.64832 0.000411024 4
8.97243 -7.1626 -2.65054 0.00020867 4
10.6534 -8.50452 -2.64973 8.31663e-05 4
13.0815 -10.4428 -2.65112 3.84496e-05 4
16.8757 -13.4717 -2.65133 4.81625e-05 4
23.1881 -18.5109 -2.59584 0.000111931 4
7.75066 -6.1431 -2.64999 0.000215493 4
9.00956 -7.14089 -2.65413 5.71372e-05 4
10.6825 -8.46685 -2.64959 5.35664e-05 4
13.118 -10.3972 -2.65115 4.89377e-05 4
16.9087 -13.4017 -2.64916 4.39646e-05 4
23.876 -18.9239 -2.66543 0.000101802 4
7.77066 -6.11491 -2.64952 0.000103758 4
9.02181 -7.09947 -2.65042 4.96858e-05 4
10.7261 -8.44062 -2.65309 5.63874e-05 4
16.9649 -13.3501 -2.65064 6.46902e-05 4
7.80537 -6.09823 -2.65408 0.000115733 4
9.05471 -7.07432 -2.65281 0.000129186 4
10.7492 -8.3982 -2.65153 0.000126876 4
7.82544 -6.07003 -2.65368 0.00055473 4
9.06749 -7.03347 -2.64935 0.000181362 4
10.7793 -8.36126 -2.65173 6.20299e-05 4
13.2305 -10.2627 -2.65203 0.000114667 4
7.84039 -6.03792 -2.65159 0.000235466 4
9.09045 -7.00059 -2.6489 5.96275e-05 4
7.84907 -6.00107 -2.64743 0.000119731 4
9.12501 -6.9766 -2.65186 0.00010932 4
10.8403 -8.28801 -2.65244 7.75422e-05 4
7.87138 -5.97471 -2.6479 0.000790242 4
9.14393 -6.94062 -2.6503 0.000198768 4
10.8708 -8.25139 -2.65285 4.65267e-05 4
7.90624 -5.95778 -2.65261 0.000291358 4
9.16849 -6.90895 -2.65041 0.00022362 4
10.8893 -8.20568 -2.65035 0.000138175 4
7.91605 -5.92196 -2.64895 0.000195573 4
9.19306 -6.87729 -2.65056 0.000126721 4
10.9214 -8.17025 -2.65121 7.61393e-05 4
33.5742 -25.1167 -0.731882 0.000116075 8
7.94569 -5.90099 -2.65196 0.000267422 4
9.21531 -6.84389 -2.65007 0.000168966 4
33.6386 -24.9822 -0.731379 0.000116208 8
7.97418 -5.87908 -2.65461 0.000143693 4
9.2478 -6.81807 -2.65255 0.000231092 4
10.9758 -8.09205 -2.65063 9.72951e-05 4
13.4786 -9.93725 -2.65227 3.91654e-05 4
17.3694 -12.8058 -2.64965 4.59488e-05 4
33.7137 -24.8559 -0.731121 0.000116334 8
7.9733 -5.83557 -2.64751 7.58394e-05 4
9.25913 -6.77666 -2.649 9.1942e-05 4
33.7979 -24.7363 -0.731069 0.000116454 8
7.99837 -5.81116 -2.64909 0.000327314 4
9.29734 -6.75491 -2.65317 0.000250983 4
11.0323 -8.01543 -2.6507 7.89689e-05 4
13.5322 -9.83169 -2.64925 4.54633e-05 4
33.8825 -24.6171 -0.731038 0.000116568 8
8.02556 -5.78821 -2.65138 7.18509e-05 4
9.30703 -6.71244 -2.64923 0.000146618 4
11.0559 -7.97374 -2.64966 4.37163e-05 4
13.5775 -9.79241 -2.65142 3.35742e-05 4
33.9571 -24.4906 -0.730798 0.000116675 8
8.03805 -5.75468 -2.64886 0.000247492 4
9.336 -6.68392 -2.65082 0.000186383 4
11.0972 -7.94482 -2.6529 9.1666e-05 4
13.5938 -9.73218 -2.64794 3.1477e-05 4
8.05409 -5.72374 -2.64754 0.000107781 4
9.36074 -6.65233 -2.65124 7.20698e-05 4
11.1079 -7.89395 -2.64885 4.51292e-05 4
13.6459 -9.69765 -2.65149 4.82666e-05 4
8.07927 -5.6993 -2.64926 0.000467061 4
9.38205 -6.61831 -2.65072 0.000121776 4
11.148 -7.86404 -2.65185 7.33372e-05 4
13.6619 -9.63738 -2.64803 5.24657e-05 4
8.11404 -5.68152 -2.65415 0.000491023 4
9.4162 -6.59329 -2.65384 0.000116809 4
11.1644 -7.81741 -2.64925 4.37216e-05 4
8.11245 -5.6383 -2.64717 7.18586e-05 4
9.43577 -6.55803 -2.65289 0.00013918 4
13.7373 -9.54767 -2.64967 4.19758e-05 4
8.1385 -5.61437 -2.64926 0.000239534 4
9.44208 -6.51366 -2.64826 8.9475e-05 4
11.2211 -7.74093 -2.64982 9.16798e-05 4
13.775 -9.50274 -2.65053 5.87684e-05 4
17.7593 -12.2513 -2.6491 3.4758e-05 4
8.15313 -5.58257 -2.64767 0.000351323 4
9.46498 -6.48081 -2.64832 0.000169013 4
11.2434 -7.6985 -2.64871 5.50096e-05 4
13.8036 -9.45154 -2.64967 0.000128036 4
8.18676 -5.56372 -2.65226 0.000243536 4
9.49957 -6.4559 -2.65167 0.000203814 4
11.289 -7.67201 -2.65314 8.18116e-05 4
8.20598 -5.53501 -2.65222 0.000255519 4
9.51815 -6.42008 -2.65059 0.000141679 4
11.3066 -7.62643 -2.65101 0.000112847 4
13.8602 -9.34881 -2.64793 8.7463e-05 4
8.22162 -5.5039 -2.65104 7.58587e-05 4
9.55144 -6.39413 -2.65363 6.21416e-05 4
13.8913 -9.29943 -2.64767 4.82814e-05 4
8.25159 -5.48235 -2.65452 3.99265e-05 4
9.56173 -6.3528 -2.65031 0.000288344 4
11.361 -7.54826 -2.65135 5.50162e-05 4
13.9422 -9.26316 -2.65118 6.29781e-05 4
8.25455 -5.44287 -2.64934 0.000231579 4
9.57399 -6.31288 -2.64758 9.44599e-05 4
8.27036 -5.41197 -2.64834 0.000139749 4
9.60423 -6.28483 -2.64986 4.72312e-05 4
11.4043 -7.46279 -2.64923 3.80905e-05 4
14.0019 -9.16258 -2.65031 3.70899e-05 4
8.28832 -5.3825 -2.64806 0.000235581 4
9.61878 -6.24651 -2.64784 0.00010938 4
11.4296 -7.42248 -2.64906 0.000258176 4
14.0362 -9.11525 -2.65077 4.12904e-05 4
8.31525 -5.35881 -2.65067 7.18737e-05 4
9.64207 -6.21389 -2.64827 4.47475e-05 4
11.4492 -7.37848 -2.64761 8.18288e-05 4
14.0734 -9.06966 -2.65178 7.13861e-05 4
9.67141 -6.18513 -2.65038 0.00018148 4
11.4795 -7.34148 -2.64869 0.000149554 4
14.1004 -9.01757 -2.65093 4.26933e-05 4
8.35776 -5.304 -2.65235 4.79178e-05 4
9.68169 -6.14419 -2.64731 0.000129277 4
11.5093 -7.30401 -2.64966 0.000145325 4
8.35936 -5.26417 -2.64701 0.000431269 4
9.71548 -6.11817 -2.65069 7.20985e-05 4
11.5431 -7.26911 -2.65159 3.10413e-05 4
8.38745 -5.24107 -2.6501 0.000115806 4
9.73689 -6.08428 -2.65072 0.000251108 4
11.5554 -7.22059 -2.64859 0.000131224 4
8.40268 -5.20988 -2.64915 0.000415314 4
9.75445 -6.04802 -2.64974 0.00014669 4
11.5989 -7.19161 -2.6528 9.45406e-05 4
14.2062 -8.80824 -2.64745 5.94997e-05 4
8.41612 -5.17763 -2.64767 0.000339446 4
9.78958 -6.02259 -2.65355 0.000116858 4
11.5997 -7.13617 -2.64727 3.80996e-05 4
14.2538 -8.76898 -2.65059 4.34014e-05 4
8.43251 -5.14723 -2.64716 0.000103833 4
9.80247 -5.98345 -2.65137 0.000134266 4
11.63 -7.09898 -2.64852 5.92678e-05 4
14.2827 -8.71821 -2.6503 2.94021e-05 4
8.46717 -5.1279 -2.6524 0.000171727 4
9.82472 -5.95006 -2.65175 0.000183998 4
11.6503 -7.05566 -2.64751 7.76149e-05 4
8.47587 -5.09282 -2.64954 0.000287549 4
9.83743 -5.91093 -2.6496 0.000151678 4
11.6923 -7.02544 -2.65147 3.8103e-05 4
8.48974 -5.0609 -2.64834 0.000123808 4
9.85882 -5.87703 -2.64982 0.000171574 4
11.7205 -6.98683 -2.65232 0.000135481 4
14.3674 -8.56467 -2.64921 4.4108e-05 4
8.51072 -5.03323 -2.64939 7.58841e-05 4
9.87578 -5.84052 -2.64888 9.44925e-05 4
11.7296 -6.9369 -2.64889 5.64522e-05 4
14.4088 -8.52137 -2.65136 3.50077e-05 4
8.5213 -4.99942 -2.64723 0.00055117 4
9.88962 -5.80221 -2.64715 0.000161636 4
11.7689 -6.90476 -2.65229 0.00014678 4
14.4282 -8.46498 -2.64947 3.22083e-05 4
8.55986 -4.98196 -2.6538 0.000411389 4
9.92432 -5.7761 -2.65102 8.95235e-05 4
14.4623 -8.41726 -2.65032 3.08091e-05 4
8.56349 -4.94414 -2.64955 0.000183731 4
9.93822 -5.73783 -2.64937 0.000119368 4
11.8 -6.81274 -2.64853 0.000173606 4
8.59171 -4.92052 -2.65295 0.000159769 4
9.95149 -5.69927 -2.64758 5.47115e-05 4
11.8269 -6.77336 -2.64925 4.23442e-05 4
14.5089 -8.30933 -2.64816 4.3416e-05 4
8.59537 -4.88285 -2.64881 0.000151784 4
9.97032 -5.66393 -2.64732 9.4504e-05 4
11.8449 -6.72883 -2.64799 5.36375e-05 4
8.61005 -4.85151 -2.64809 7.58935e-05 4
9.99379 -5.63121 -2.64831 9.20193e-05 4
11.878 -6.69289 -2.65014 7.6224e-05 4
14.564 -8.20642 -2.64771 2.9413e-05 4
8.647 -4.83264 -2.65425 0.000107851 4
10.0176 -5.59867 -2.64944 4.47672e-05 4
11.8902 -6.64523 -2.64769 0.000139748 4
8.65535 -4.79774 -2.65166 0.000255652 4
10.046 -5.56857 -2.65177 0.000293481 4
11.9313 -6.61361 -2.65167 0.000131282 4
14.6239 -8.10615 -2.64823 3.71192e-05 4
8.65656 -4.75899 -2.64693 0.000119839 4
10.0671 -5.53444 -2.65224 0.000407899 4
11.9399 -6.56402 -2.64848 8.18774e-05 4
14.6687 -8.06419 -2.65123 7.63423e-05 4
8.68928 -4.73755 -2.65186 0.000339551 4
10.0761 -5.49367 -2.64954 0.000164158 4
14.6732 -8.00011 -2.64699 3.36199e-05 4
8.71123 -4.71015 -2.65352 0.000179766 4
10.0922 -5.45683 -2.64875 8.20811e-05 4
11.9893 -6.48261 -2.64934 7.76469e-05 4
14.7113 -7.95437 -2.64883 7.0044e-05 4
8.72077 -4.67604 -2.65144 0.000223714 4
10.1245 -5.42873 -2.65225 0.000216401 4
12.0104 -6.43991 -2.64901 0.000108709 4
14.7396 -7.9033 -2.64894 3.012e-05 4
8.72315 -4.63818 -2.64723 0.000167789 4
10.1384 -5.39066 -2.65092 0.000114422 4
12.0317 -6.39739 -2.64878 6.49448e-05 4
14.7611 -7.84861 -2.64786 5.39379e-05 4
8.75691 -4.617 -2.65256 0.000219728 4
10.1455 -5.34912 -2.64789 4.22873e-05 4
12.0538 -6.35525 -2.64874 5.08279e-05 4
8.76261 -4.58098 -2.64943 9.1888e-05 4
10.1724 -5.31799 -2.65004 9.20392e-05 4
12.0899 -6.32044 -2.6518 0.000163783 4
14.8329 -7.75444 -2.65097 4.13321e-05 4
19.1064 -9.98858 -2.64721 4.99831e-05 4
8.77362 -4.54781 -2.64794 5.59329e-05 4
10.196 -5.28508 -2.65137 0.000218909 4
12.0906 -6.26719 -2.64715 4.3771e-05 4
19.1542 -9.92859 -2.64902 4.26843e-05 4
8.80373 -4.5245 -2.65225 0.000259694 4
10.2214 -5.25307 -2.65318 0.000199013 4
19.1905 -9.8626 -2.64927 5.27964e-05 4
8.80106 -4.48437 -2.64671 0.000195773 4
10.2147 -5.20467 -2.64673 0.000159214 4
12.1333 -6.18224 -2.64698 0.000101668 4
8.81742 -4.454 -2.64694 0.000223745 4
10.2439 -5.17458 -2.6496 0.000181608 4
12.1612 -6.14309 -2.64838 0.000232995 4
8.8479 -4.4307 -2.65143 5.59375e-05 4
10.2581 -5.13688 -2.64862 0.000228881 4
12.1974 -6.10799 -2.65159 4.94246e-05 4
8.86199 -4.39913 -2.65103 0.000115873 4
10.2789 -5.10248 -2.64936 9.95161e-05 4
12.2084 -6.06031 -2.64937 6.6372e-05 4
8.88271 -4.37084 -2.65265 0.000159828 4
10.2971 -5.06678 -2.64948 6.96629e-05 4
12.2209 -6.01343 -2.64751 0.00010874 4
15.0065 -7.38413 -2.64896 4.90506e-05 4
8.90016 -4.3409 -2.65332 0.00025573 4
10.3231 -5.03491 -2.65164 0.000131865 4
12.2636 -5.98136 -2.65223 0.000148286 4
8.89342 -4.29925 -2.64682 0.000351635 4
10.3221 -4.98989 -2.64689 0.000191582 4
12.2669 -5.93006 -2.64845 4.66057e-05 4
8.9262 -4.27672 -2.65212 0.00014785 4
10.342 -4.95508 -2.64755 0.000206515 4
12.283 -5.88501 -2.64746 9.18016e-05 4
15.0803 -7.22527 -2.64848 3.01343e-05 4
8.93266 -4.24154 -2.64962 5.99402e-05 4
10.3563 -4.91753 -2.64679 0.000154268 4
12.3169 -5.84848 -2.65035 3.67217e-05 4
8.96091 -4.21669 -2.65362 0.00025575 4
10.3755 -4.88233 -2.64732 0.00052751 4
12.3415 -5.80748 -2.65128 4.80221e-05 4
15.1267 -7.11807 -2.64783 6.23756e-05 4
24.3077 -11.4383 -2.35034 0.000196751 6
46.83 -22.0365 -0.903401 3.97348e-05 8
8.97186 -4.18365 -2.65252 0.00021979 4
10.3918 -4.84576 -2.64715 0.000218971 4
12.3538 -5.76067 -2.64958 8.47472e-05 4
23.7217 -11.0616 -2.28993 4.16714e-05 6
46.9148 -21.8767 -0.903557 4.26011e-05 8
8.96589 -4.14282 -2.64647 0.000403621 4
10.4236 -4.81637 -2.65095 0.000218977 4
12.3796 -5.72016 -2.65081 6.49747e-05 4
15.1789 -7.01365 -2.64834 3.08396e-05 4
23.1978 -10.7189 -2.23573 0.000206495 6
24.0874 -11.13 -1.39061 3.8479e-05 6
47.0296 -21.7307 -0.904302 4.2506e-05 8
8.99427 -4.1179 -2.65058 0.000147864 4
10.4382 -4.779 -2.65042 0.000231424 4
12.3964 -5.67552 -2.65016 7.62768e-05 4
15.2143 -6.96567 -2.65026 4.90647e-05 4
22.6426 -10.3666 -2.17872 0.000226791 6
9.00043 -4.08278 -2.64818 0.000691379 4
10.4528 -4.74158 -2.64989 0.000388204 4
12.4162 -5.63223 -2.65016 5.6503e-05 4
15.2175 -6.90298 -2.6466 3.29446e-05 4
22.0862 -10.0187 -2.1218 0.000106975 6
23.1191 -10.4873 -1.33045 4.24678e-05 6
9.00854 -4.0486 -2.6464 0.000115898 4
10.4556 -4.69892 -2.64643 5.22594e-05 4
12.4345 -5.58828 -2.64989 6.07424e-05 4
21.7401 -9.77037 -2.08526 0.000185633 6
22.7958 -10.2448 -1.30978 0.000145531 6
9.03657 -4.02334 -2.65049 0.0001159 4
10.4757 -4.66407 -2.64738 0.000176691 4
12.4441 -5.54047 -2.6478 3.2491e-05 4
15.2891 -6.80716 -2.65073 4.3462e-05 4
21.5923 -9.6135 -2.06785 0.00025769 6
9.05768 -3.99491 -2.65257 0.000167859 4
10.5108 -4.63581 -2.65214 6.47052e-05 4
12.4637 -5.49716 -2.64788 8.33489e-05 4
15.3063 -6.75089 -2.64961 5.18758e-05 4
19.7169 -8.69621 -2.64595 2.86686e-05 4
21.5524 -9.50576 -2.06085 0.000189398 6
9.05301 -3.95516 -2.64715 9.99181e-05 4
10.5119 -4.59253 -2.64836 7.9639e-05 4
12.4859 -5.45496 -2.64853 0.000155401 4
15.3215 -6.69382 -2.64818 8.97344e-05 4
21.5372 -9.40938 -2.05624 0.000122542 6
9.08504 -3.93145 -2.65248 0.000235811 4
10.5218 -4.55317 -2.64683 9.20847e-05 4
12.5134 -5.41504 -2.65034 3.81449e-05 4
15.3519 -6.64338 -2.64941 3.92602e-05 4
21.5368 -9.3198 -2.05308 0.000111816 6
38.7263 -16.7584 -0.736549 8.84923e-05 8
9.08012 -3.89174 -2.64706 0.000263794 4
10.5456 -4.51986 -2.64884 0.000418124 4
12.5187 -5.36553 -2.64748 3.53203e-05 4
21.5448 -9.23411 -2.05076 9.57275e-05 6
9.10983 -3.8669 -2.65178 0.000115912 4
10.5534 -4.47965 -2.64685 0.000477867 4
12.5582 -5.33064 -2.65188 5.36884e-05 4
15.3909 -6.53305 -2.6482 2.94472e-05 4
21.546 -9.14572 -2.04782 7.38042e-05 6
9.10743 -3.82841 -2.64717 0.000135899 4
10.5777 -4.44646 -2.64904 0.000535124 4
12.5709 -5.28431 -2.65064 5.93415e-05 4
19.8897 -8.36088 -2.64915 3.12056e-05 4
9.12856 -3.79985 -2.64944 0.000171876 4
10.6051 -4.41447 -2.65203 0.0004754 4
12.5868 -5.23938 -2.65013 9.32535e-05 4
9.13203 -3.76395 -2.64662 0.000215848 4
10.621 -4.37767 -2.65217 0.000428119 4
12.613 -5.19871 -2.65181 6.35837e-05 4
15.467 -6.37503 -2.64965 3.64623e-05 4
19.9393 -8.21838 -2.64804 3.71129e-05 4
9.14426 -3.7317 -2.64637 0.000171883 4
10.6237 -4.33543 -2.64903 0.000166771 4
9.16103 -3.7013 -2.64747 0.000191873 4
10.6342 -4.29652 -2.64792 0.000184199 4
12.6337 -5.10434 -2.6486 6.64133e-05 4
9.18126 -3.67224 -2.64959 0.000271825 4
10.6582 -4.263 -2.65017 4.97847e-05 4
12.6643 -5.06535 -2.65129 3.81534e-05 4
15.5372 -6.21444 -2.65039 0.000122723 4
9.19233 -3.6395 -2.64911 0.000155903 4
10.6644 -4.22234 -2.64803 6.72108e-05 4
12.6585 -5.01185 -2.6464 5.79382e-05 4
15.5388 -6.15223 -2.64698 4.34804e-05 4
9.2209 -3.61363 -2.65369 0.000539673 4
10.6802 -4.18554 -2.64831 0.00011451 4
12.6925 -4.97413 -2.64986 8.47899e-05 4
56.1406 -22.0013 -1.0525 2.96868e-05 10
56.1526 -22.006 1.05273 2.96876e-05 10
9.21822 -3.57552 -2.64931 0.000163904 4
10.7003 -4.15036 -2.64967 0.00012447 4
12.697 -4.92484 -2.6472 7.48998e-05 4
56.2671 -21.8246 -1.05344 2.95825e-05 10
56.2677 -21.8248 1.05345 2.95833e-05 10
9.2454 -3.54898 -2.65355 4.39751e-05 4
10.7067 -4.10992 -2.6477 9.45994e-05 4
12.7352 -4.88857 -2.65158 0.00010458 4
9.24241 -3.51086 -2.64915 0.000319825 4
10.731 -4.07632 -2.65016 8.7133e-05 4
12.7488 -4.8428 -2.65088 8.76235e-05 4
15.6384 -5.94048 -2.64957 6.03199e-05 4
22.0834 -8.38869 -2.06674 0.000169445 6
9.24531 -3.47508 -2.64649 0.000231878 4
10.7316 -4.03375 -2.64683 0.000126968 4
12.7532 -4.79361 -2.6483 0.000139919 4
15.637 -5.87755 -2.64583 3.50709e-05 4
22.1702 -8.33321 -2.07213 0.000187724 6
9.27405 -3.44899 -2.65126 0.000163917 4
10.7447 -3.9959 -2.64659 6.97096e-05 4
12.7619 -4.74612 -2.64666 3.5334e-05 4
15.6647 -5.82565 -2.64706 6.24284e-05 4
22.2804 -8.28603 -2.07972 0.000203068 6
9.27652 -3.4131 -2.64854 0.000103949 4
10.7757 -3.96469 -2.65081 9.70977e-05 4
12.793 -4.70689 -2.64967 6.21895e-05 4
22.4279 -8.25187 -2.09079 0.000171978 6
9.28652 -3.38002 -2.64801 0.000167921 4
10.7956 -3.9293 -2.65233 0.000119508 4
12.7968 -4.65767 -2.64709 3.95762e-05 4
10.7916 -3.88521 -2.64798 0.000199184 4
12.8316 -4.61968 -2.65094 5.08851e-05 4
15.7419 -5.66743 -2.64993 4.41954e-05 4
9.3174 -3.31778 -2.65015 0.000103955 4
10.8194 -3.85261 -2.65148 9.21245e-05 4
12.8403 -4.57223 -2.64942 8.33973e-05 4
9.31691 -3.281 -2.64673 0.000239901 4
10.8272 -3.81287 -2.65013 0.000231561 4
12.8467 -4.52405 -2.64747 2.96846e-05 4
29.0116 -10.2166 -2.69097 0.000108831 4
9.34026 -3.25262 -2.65013 0.000487807 4
10.8348 -3.77307 -2.64874 6.22491e-05 4
15.7855 -5.49708 -2.64743 3.57809e-05 4
28.6696 -9.98382 -2.656 0.000104752 4
9.34526 -3.21783 -2.64834 0.000331875 4
10.8451 -3.73427 -2.64806 0.000119521 4
12.8771 -4.43395 -2.64729 9.04722e-05 4
15.8056 -5.4423 -2.6476 3.92902e-05 4
20.3864 -7.01959 -2.64736 3.20775e-05 4
28.3485 -9.76117 -2.62308 0.000115304 4
9.37259 -3.19069 -2.65291 0.000231917 4
10.8709 -3.70075 -2.65118 7.71922e-05 4
12.91 -4.39492 -2.65087 0.000137126 4
28.023 -9.53982 -2.58987 9.73217e-05 4
9.3713 -3.1538 -2.64942 0.000191935 4
10.8824 -3.66234 -2.65087 0.000149408 4
12.9106 -4.3449 -2.64787 7.35126e-05 4
15.8495 -5.33396 -2.64866 5.89393e-05 4
27.6891 -9.31842 -2.55599 0.000113118 4
9.39197 -3.12429 -2.65216 0.000283909 4
10.8881 -3.62198 -2.64914 0.000184273 4
15.8663 -5.27802 -2.64837 4.13993e-05 4
9.39349 -3.08842 -2.64953 0.000127961 4
10.8923 -3.58121 -2.64712 0.00020669 4
12.9437 -4.25568 -2.6485 8.05854e-05 4
15.879 -5.22074 -2.64743 5.12245e-05 4
9.39958 -3.05411 -2.64822 0.000147958 4
10.9133 -3.54593 -2.64918 0.000154398 4
12.9458 -4.20635 -2.64591 7.35185e-05 4
9.40349 -3.01913 -2.64634 0.000283925 4
10.9382 -3.51186 -2.65224 2.98842e-05 4
12.9693 -4.16397 -2.64772 6.92788e-05 4
15.9286 -5.11413 -2.64969 5.4035e-05 4
20.5356 -6.59326 -2.64823 2.89902e-05 4
9.42659 -2.99029 -2.64989 0.000127969 4
10.9333 -3.46823 -2.6481 8.21832e-05 4
12.984 -4.11878 -2.64778 7.63501e-05 4
15.9393 -5.05626 -2.64852 3.29835e-05 4
9.42689 -2.95421 -2.64706 0.000115974 4
10.9409 -3.42866 -2.64702 4.48282e-05 4
12.9981 -4.07335 -2.64773 6.50407e-05 4
15.947 -4.99748 -2.64687 4.14062e-05 4
28.7778 -9.01843 -2.63847 9.01501e-05 4
9.43311 -2.92004 -2.64593 0.00023995 4
10.9665 -3.39469 -2.65033 9.21489e-05 4
13.0029 -4.02507 -2.64584 0.000197955 4
28.4925 -8.81991 -2.60947 9.02504e-05 4
9.45822 -2.89167 -2.65012 0.000171967 4
10.9733 -3.35487 -2.64913 0.000171849 4
13.0271 -3.98278 -2.64791 0.000128674 4
15.9892 -4.88839 -2.64815 5.82533e-05 4
28.2538 -8.63805 -2.58483 0.000103616 4
24.6395 -7.53307 0.449736 0.000395546 5
9.45587 -2.8549 -2.64665 0.000223961 4
10.9852 -3.31663 -2.64921 5.47936e-05 4
13.0313 -3.93439 -2.64596 8.76705e-05 4
16.0174 -4.83595 -2.65001 6.94851e-05 4
27.9957 -8.4524 -2.5585 9.73293e-05 4
24.6551 -7.44381 0.449542 0.000446404 5
9.47899 -2.82581 -2.65035 0.00038794 4
10.997 -3.27835 -2.64928 0.00022167 4
13.0512 -3.89074 -2.64723 7.77743e-05 4
16.0297 -4.77865 -2.64926 7.08912e-05 4
25.4424 -7.58472 0.463413 0.000415371 5
9.49201 -2.79365 -2.65125 0.000299959 4
11.0151 -3.24193 -2.6509 0.000124536 4
13.066 -3.84553 -2.64748 0.000155553 4
16.0504 -4.72389 -2.64995 6.10667e-05 4
20.6849 -6.08789 -2.6475 4.44844e-05 4
9.50873 -2.76254 -2.65321 0.000131985 4
11.022 -3.20218 -2.64984 7.72141e-05 4
13.088 -3.80243 -2.64925 0.000111718 4
20.6866 -6.01001 -2.64502 5.06807e-05 4
24.9458 -7.24743 0.453435 9.22194e-05 5
9.49655 -2.72309 -2.64714 0.000247975 4
11.026 -3.16167 -2.64814 0.000266519 4
13.1094 -3.75905 -2.65089 4.66682e-05 4
16.0658 -4.6068 -2.64712 4.35217e-05 4
20.7167 -5.94043 -2.6462 5.01198e-05 4
25.0884 -7.194 -2.28341 0.000129591 5
25.1129 -7.201 -1.36915 0.000124188 5
25.0853 -7.19309 -0.455511 0.000117292 5
25.025 -7.1758 0.454416 0.000556667 5
9.50315 -2.68912 -2.64635 0.000451963 4
11.0546 -3.12814 -2.65237 4.98177e-05 4
13.1194 -3.71243 -2.65029 6.08117e-05 4
25.0656 -7.09286 0.454702 0.000554419 5
9.52079 -2.65825 -2.64866 0.000275983 4
11.0623 -3.08864 -2.6516 0.000164402 4
13.11 -3.66037 -2.64579 8.48557e-05 4
20.918 -5.84041 -2.66664 8.18538e-05 4
9.52434 -2.62344 -2.64708 0.000307986 4
11.0623 -3.04707 -2.64905 0.000117077 4
13.128 -3.61605 -2.64686 5.2329e-05 4
16.1092 -4.43722 -2.64647 7.44153e-05 4
21.1334 -5.8211 -2.69149 7.58702e-05 4
24.8239 -6.83763 0.449439 8.20068e-05 5
9.55096 -2.59494 -2.65195 0.000183995 4
11.0654 -3.00642 -2.64727 0.000181846 4
13.1555 -3.57427 -2.64987 3.11154e-05 4
16.1328 -4.3832 -2.64782 4.07192e-05 4
21.3619 -5.80389 -2.71799 8.33857e-05 4
24.764 -6.72824 0.447927 0.0001764 5
9.5407 -2.55643 -2.6466 0.000127999 4
11.0693 -2.96601 -2.6457 0.000191814 4
13.1635 -3.52715 -2.64899 4.24311e-05 4
21.4163 -5.73849 -2.72236 4.28687e-05 1
25.552 -6.84664 0.461745 0.000411263 5
9.56179 -2.52634 -2.64999 0.000180002 4
11.0938 -2.93111 -2.6491 0.000159434 4
13.1623 -3.47762 -2.64628 0.000120225 4
16.1742 -4.2734 -2.64964 5.6168e-05 4
21.4478 -5.66675 -2.72382 4.28706e-05 1
9.55945 -2.49005 -2.64692 0.000196005 4
11.1056 -2.8928 -2.64949 0.000109613 4
13.1726 -3.4312 -2.64593 6.22355e-05 4
21.4719 -5.59302 -2.72439 4.28724e-05 1
9.57976 -2.45966 -2.65015 0.000292013 4
13.1921 -3.38716 -2.64746 8.34543e-05 4
16.1839 -4.15532 -2.64642 3.93201e-05 4
21.4838 -5.51611 -2.72345 4.28743e-05 1
9.57868 -2.42378 -2.64749 0.000128008 4
11.1116 -2.81168 -2.64618 0.000137022 4
13.1953 -3.33893 -2.64575 0.000104674 4
16.209 -4.1015 -2.64816 9.33884e-05 4
21.5009 -5.44056 -2.72318 4.28762e-05 1
9.60132 -2.39388 -2.65143 6.80055e-05 4
11.1372 -2.77682 -2.64995 7.22494e-05 4
13.2326 -3.29926 -2.6509 5.23384e-05 4
21.3342 -5.31922 -2.69971 0.000227746 4
9.61095 -2.36068 -2.65179 0.000156015 4
11.1306 -2.73394 -2.64609 6.47767e-05 4
13.242 -3.25255 -2.65049 0.000106094 4
16.2291 -3.98624 -2.64683 3.58129e-05 4
21.1481 -5.19447 -2.67384 0.000258181 4
9.60209 -2.32299 -2.64709 0.000276032 4
11.1536 -2.69833 -2.64929 4.48464e-05 4
13.2338 -3.20159 -2.64659 7.35604e-05 4
20.9604 -5.07086 -2.64786 0.000142976 4
9.61849 -2.29145 -2.6494 0.000280038 4
11.1703 -2.66115 -2.65105 0.000146999 4
16.2639 -3.8746 -2.64803 5.61806e-05 4
20.8036 -4.95613 -2.62585 0.000254655 4
9.62971 -2.25863 -2.6503 4.00061e-05 4
11.1718 -2.62032 -2.6492 0.000316429 4
13.2698 -3.1124 -2.64938 7.21495e-05 4
20.6398 -4.84102 -2.60302 0.000209322 4
9.63292 -2.22394 -2.64903 0.000224038 4
11.1768 -2.58036 -2.64823 0.000279061 4
13.2641 -3.06226 -2.6461 7.3566e-05 4
20.4667 -4.72511 -2.5791 0.000212063 4
9.6288 -2.18761 -2.64578 4.40082e-05 4
11.1779 -2.53955 -2.64638 8.47168e-05 4
13.2913 -3.01972 -2.64942 9.19598e-05 4
16.2973 -3.70266 -2.64702 3.16046e-05 4
20.3162 -4.61574 -2.55809 0.00029421 4
9.6452 -2.15596 -2.6482 0.000120025 4
11.2023 -2.50401 -2.65007 0.00028904 4
13.2989 -2.97266 -2.64884 9.90361e-05 4
20.1491 -4.50385 -2.53505 0.000300828 4
9.6443 -2.12044 -2.6459 0.000172038 4
11.208 -2.46425 -2.64938 0.000161965 4
13.2914 -2.92231 -2.6453 5.80083e-05 4
20.1471 -4.42962 -2.53283 3.99764e-05 4
9.67744 -2.09234 -2.65298 0.000112027 4
11.2122 -2.42416 -2.64835 0.000132067 4
13.3055 -2.87676 -2.64609 0.000111775 4
20.1684 -4.36056 -2.53359 3.71225e-05 4
9.67869 -2.05727 -2.65133 3.60092e-05 4
11.2311 -2.38725 -2.65083 0.000174431 4
13.3167 -2.83055 -2.64633 6.22559e-05 4
21.0699 -4.47854 -2.64485 4.84722e-05 4
9.68524 -2.02335 -2.65118 0.000104028 4
11.2213 -2.34424 -2.64656 7.22658e-05 4
13.3283 -2.78443 -2.64669 7.0747e-05 4
21.0984 -4.4077 -2.64649 4.03013e-05 4
9.68965 -1.989 -2.65047 0.000100029 4
11.25 -2.30929 -2.65141 6.97753e-05 4
13.3512 -2.74062 -2.64933 9.48034e-05 4
16.3595 -3.35812 -2.64511 0.000109583 4
21.1094 -4.33314 -2.64595 4.28395e-05 4
9.69038 -1.95393 -2.64879 8.80271e-05 4
11.2446 -2.26731 -2.64827 5.98086e-05 4
13.342 -2.69021 -2.64561 0.000125936 4
16.3859 -3.30397 -2.6475 0.000146818 4
21.1168 -4.25789 -2.645 4.00228e-05 4
9.69784 -1.92023 -2.64898 0.000372121 4
11.268 -2.23112 -2.65192 0.000246716 4
13.3627 -2.64589 -2.64787 8.20726e-05 4
16.3928 -3.24586 -2.64677 0.00014612 4
21.1282 -4.1835 -2.64458 3.38235e-05 4
33.8072 -6.694 1.80616 4.62697e-05 10
33.7344 -6.67959 4.22248 5.88435e-05 10
33.7901 -6.69062 5.45573 4.42022e-05 10
33.7268 -6.67808 7.93761 5.44691e-05 10
33.79 -6.69061 9.22978 4.02582e-05 10
9.69626 -1.88476 -2.64673 0.000108037 4
11.2621 -2.18914 -2.64873 0.000291579 4
13.3679 -2.59847 -2.6471 7.64143e-05 4
16.3911 -3.18611 -2.64468 0.000145422 4
21.0561 -4.09289 -2.63375 0.000243882 4
33.539 -6.51933 1.7906 4.80289e-05 10
33.4627 -6.50449 4.1856 6.10834e-05 10
33.512 -6.51407 5.40712 4.58878e-05 10
33.443 -6.50066 7.86543 5.65533e-05 10
33.5245 -6.5165 9.15099 4.18032e-05 10
9.70281 -1.85091 -2.64674 0.000124044 4
13.3784 -2.55207 -2.64739 4.52836e-05 4
16.4039 -3.12921 -2.64497 3.86399e-05 4
20.9206 -3.99082 -2.61505 0.000230046 4
33.1991 -6.33307 1.77127 6.49919e-05 10
33.1869 -6.33075 4.14832 6.33784e-05 10
33.177 -6.32885 5.34947 6.21032e-05 10
33.1824 -6.32989 7.79891 5.86892e-05 10
33.1979 -6.33284 9.05575 5.65906e-05 10
9.71927 -1.81891 -2.64948 8.80331e-05 4
11.2656 -2.10829 -2.64601 0.000309036 4
13.387 -2.50531 -2.64735 0.000116042 4
16.5022 -3.08831 -2.65908 0.00022066 4
20.7727 -3.88751 -2.59485 0.000249515 4
32.9748 -6.17108 1.75814 5.16778e-05 10
32.9196 -6.16073 4.11219 6.57293e-05 10
32.9926 -6.1744 5.31624 4.93848e-05 10
32.9289 -6.16248 7.73422 6.08775e-05 10
32.9894 -6.17379 8.99294 4.50094e-05 10
9.71547 -1.78312 -2.64673 0.000140055 4
11.2779 -2.06987 -2.64719 0.000194397 4
13.3957 -2.45857 -2.64735 8.34958e-05 4
16.6151 -3.04945 -2.67553 0.000164577 4
20.642 -3.78852 -2.57686 0.000193529 4
32.7155 -6.00443 1.74319 5.35683e-05 10
32.6655 -5.99524 4.07781 6.81365e-05 10
32.7184 -6.00495 5.26864 5.11968e-05 10
