VERSION 0.7
FIELDS x y z intensity label
SIZE 4 4 4 4 4
TYPE F F F F F
COUNT 1 1 1 1 1
WIDTH 1167
HEIGHT 1
VIEWPOINT 7.56597 49.102 2.72943 0.877096 -0.000222522 0.000840023 -0.480315
POINTS 1167
DATA ascii
-4.71308 12.151 -2.53337 0.000229857 4
-6.20928 16.0085 -2.71954 0.000108329 1
-7.7123 19.8835 -2.6186 0.000413149 10
-7.71148 19.8814 -1.86566 0.000418885 10
-7.71499 19.8904 -1.11808 0.00042275 10
-7.72201 19.9085 -0.37273 0.000424703 10
-7.71566 19.8921 0.372423 0.000424724 10
-7.72058 19.9048 1.11889 0.000422813 10
-7.71462 19.8895 1.86642 0.00041899 10
-7.71875 19.9001 2.62079 0.000413295 10
-7.71332 19.8861 3.37828 0.000405787 10
-7.71804 19.8983 4.1486 0.000396545 10
-7.72012 19.9037 4.92868 0.000385665 10
-7.72223 19.9091 5.72186 0.000373259 10
-3.7094 9.46527 -2.72402 0.000618951 1
-4.18451 10.6776 -2.64766 0.000105227 4
-4.74588 12.1101 -2.52827 0.000218739 4
-6.26058 15.9751 -2.71757 0.000108315 1
-7.76202 19.8064 -2.612 0.000414059 10
-7.76673 19.8184 -1.86227 0.000419805 10
-7.7684 19.8226 -1.11579 0.000423677 10
-7.76433 19.8122 -0.371432 0.000425634 10
-7.76181 19.8058 0.371311 0.000425655 10
-7.77163 19.8309 1.11625 0.000423742 10
-7.76872 19.8235 1.86275 0.000419912 10
-7.76488 19.8137 2.61296 0.000414208 10
-7.76206 19.8064 3.36933 0.000406687 10
-7.76367 19.8106 4.13593 0.000397429 10
-7.77074 19.8286 4.91677 0.000386531 10
-7.77188 19.8315 5.70732 0.000374104 10
-3.73497 9.43345 -2.71859 0.000618907 1
-4.21471 10.6451 -2.64324 0.000175363 4
-4.78837 12.094 -2.52839 0.000185434 4
-6.32004 15.9626 -2.71918 0.000108301 1
-7.81214 19.7312 -2.60567 0.000414934 10
-7.81866 19.7477 -1.85819 0.000420689 10
-7.82091 19.7534 -1.11342 0.000424567 10
-7.81844 19.7471 -0.37072 0.000426528 10
-7.81439 19.7369 0.370528 0.00042655 10
-7.82124 19.7542 1.11346 0.000424633 10
-7.8145 19.7372 1.8572 0.000420798 10
-7.81395 19.7358 2.60627 0.000415084 10
-7.81726 19.7441 3.36335 0.000407552 10
-7.81943 19.7496 4.12888 0.00039828 10
-7.81186 19.7305 4.89918 0.000387363 10
-7.8208 19.7531 5.69257 0.000374916 10
-3.77614 9.44102 -2.72456 0.000618863 1
-4.25266 10.6324 -2.64375 0.000480956 4
-4.83752 12.0947 -2.53204 0.00021711 4
-6.37315 15.934 -2.71808 0.000108287 1
-7.86686 19.6686 -2.60101 0.000415773 10
-7.86796 19.6713 -1.85357 0.000421537 10
-7.86683 19.6685 -1.11018 0.000425421 10
-7.86522 19.6644 -0.369682 0.000427385 10
-7.86174 19.6558 0.369518 0.000427407 10
-7.8648 19.6634 1.10989 0.000425488 10
-7.86696 19.6688 1.85334 0.000421647 10
-7.86971 19.6757 2.60195 0.000415925 10
-7.86219 19.6569 3.35314 0.000408382 10
-7.86807 19.6716 4.11828 0.000399095 10
-7.86134 19.6548 4.88716 0.000388162 10
-7.86383 19.661 5.67391 0.000375696 10
-3.81038 9.43104 -2.7255 0.000618819 1
-4.28257 10.5998 -2.63933 0.000519095 4
-4.878 12.0735 -2.53116 0.000247196 4
-6.4304 15.9158 -2.71879 0.000108274 1
-7.91316 19.5858 -2.59369 0.000416575 10
-7.91269 19.5846 -1.848 0.000422348 10
-7.91275 19.5848 -1.107 0.000426238 10
-7.90876 19.5749 -0.368515 0.000428205 10
-7.91425 19.5885 0.36877 0.000428227 10
-7.91908 19.6004 1.10789 0.000426305 10
-7.90934 19.5763 1.84721 0.00042246 10
-7.91304 19.5855 2.59365 0.00041673 10
-7.91735 19.5962 3.34748 0.000409176 10
-7.91359 19.5868 4.1063 0.000399876 10
-7.91772 19.5971 4.87965 0.000388927 10
-7.91871 19.5995 5.66411 0.000376442 10
-3.84243 9.41559 -2.72489 0.000618776 1
-4.30915 10.5592 -2.63298 0.000805987 4
-4.92568 12.07 -2.53402 0.000175872 4
-6.48243 15.8847 -2.71732 0.00010826 1
-7.96241 19.5113 -2.5875 0.000417341 10
-7.96763 19.5241 -1.8449 0.000423122 10
-7.95816 19.5009 -1.10382 0.000427017 10
-7.95816 19.5009 -0.367642 0.000428987 10
-7.96093 19.5077 0.36777 0.00042901 10
-7.96753 19.5238 1.10512 0.000427086 10
-7.95928 19.5036 1.84296 0.000423235 10
-7.96212 19.5106 2.5874 0.000417498 10
-7.95778 19.5 3.33577 0.000409934 10
-7.96508 19.5178 4.09764 0.000400621 10
-7.96888 19.5271 4.86914 0.000389658 10
-7.96131 19.5086 5.64583 0.000377156 10
-3.87541 9.40245 -2.72499 0.000618732 1
-4.33734 10.5232 -2.62774 0.000654811 4
-4.96625 12.049 -2.53324 0.000136247 4
-6.53802 15.8624 -2.7174 0.000108246 1
-8.01259 19.44 -2.58174 0.00041807 10
-8.0136 19.4425 -1.83982 0.000423858 10
-8.01188 19.4383 -1.10186 0.000427759 10
-8.01214 19.4389 -0.366999 0.000429732 10
-8.01305 19.4411 0.367041 0.000429755 10
-8.00871 19.4306 1.10142 0.000427829 10
-8.00704 19.4266 1.83831 0.000423973 10
-8.01541 19.4468 2.58264 0.000418229 10
-8.00781 19.4284 3.32829 0.000410655 10
-8.01543 19.4469 4.08859 0.000401332 10
-8.01061 19.4352 4.85316 0.000390354 10
-8.01673 19.4501 5.63696 0.000377837 10
-3.90184 9.37357 -2.72055 0.000618688 1
-4.37255 10.5044 -2.62684 0.000861696 4
-6.59333 15.8395 -2.71739 0.000108232 1
-8.06277 19.3696 -2.5761 0.000418762 10
-8.05935 19.3613 -1.83479 0.000424558 10
-8.05331 19.3468 -1.09826 0.000428463 10
-8.05634 19.3541 -0.365927 0.000430439 10
-8.06411 19.3728 0.36628 0.000430462 10
-8.05464 19.35 1.09844 0.000428534 10
-8.06475 19.3743 1.83602 0.000424675 10
-8.05431 19.3492 2.5734 0.000418924 10
-8.05468 19.3501 3.31968 0.000411342 10
-8.05903 19.3606 4.07634 0.000402007 10
-8.0601 19.3632 4.84217 0.000391017 10
-8.05589 19.353 5.61695 0.000378484 10
-3.94272 9.37938 -2.72621 0.000618644 1
-4.39635 10.4585 -2.61919 0.000732991 4
-5.04237 11.9953 -2.52929 3.3263e-05 4
-6.65398 15.8292 -2.7196 0.000108218 1
-8.10898 19.2905 -2.56934 0.000419417 10
-8.11192 19.2975 -1.83141 0.00042522 10
-8.10549 19.2822 -1.09619 0.00042913 10
-8.11138 19.2962 -0.365365 0.000431107 10
-8.10288 19.276 0.364982 0.000431131 10
-8.10598 19.2834 1.09626 0.000429201 10
-8.10955 19.2919 1.83088 0.000425338 10
-8.10911 19.2908 2.56938 0.000419581 10
-8.10929 19.2912 3.31441 0.000411991 10
-8.11029 19.2936 4.06818 0.000402646 10
-8.11273 19.2994 4.83328 0.000391644 10
-8.11242 19.2987 5.60937 0.000379097 10
-3.97458 9.36353 -2.72562 0.0006186 1
-4.42231 10.4183 -2.61298 0.000788399 4
-5.09045 11.9923 -2.53239 0.000193223 4
-6.70456 15.7949 -2.71772 0.000108204 1
-8.15129 19.2032 -2.56149 0.000420036 10
-8.15037 19.2011 -1.82495 0.000425844 10
-8.15471 19.2113 -1.09377 0.000429758 10
-8.15984 19.2234 1.82707 0.000425964 10
-8.15283 19.2069 2.56197 0.000420201 10
-8.1502 19.2007 3.30372 0.000412604 10
-3.99804 9.32813 -2.71937 0.000618556 1
-4.45717 10.3994 -2.61211 0.000700688 4
-5.13088 11.9712 -2.5317 0.000164698 4
-6.76269 15.7785 -2.71894 0.00010819 1
-8.20292 19.1388 -2.5567 0.000420616 10
-8.20024 19.1326 -1.82115 0.00042643 10
-8.20417 19.1418 -1.09144 0.000430348 10
-8.19815 19.1277 1.82069 0.000426552 10
-8.19734 19.1258 2.55496 0.000420784 10
-8.19803 19.1275 3.29602 0.00041318 10
-4.03991 9.33567 -2.72566 0.000618512 1
-4.47409 10.339 -2.60086 0.00105914 4
-5.17321 11.9546 -2.53198 0.000196351 4
-6.81357 15.7452 -2.71728 0.000108176 1
-8.25013 19.0649 -2.55066 0.000421159 10
-8.24645 19.0564 -1.81663 0.000426978 10
-8.24322 19.049 -1.08778 0.0004309 10
-8.2514 19.0679 1.81772 0.000427101 10
-8.25372 19.0732 2.55177 0.000421329 10
-8.25455 19.0751 3.29195 0.000413719 10
-4.05958 9.29201 -2.71703 0.000897036 4
-4.50368 10.3085 -2.59713 0.000851262 4
-5.21608 11.9391 -2.53255 0.000183664 4
-6.87212 15.7297 -2.71872 0.000108162 1
-8.30022 18.9985 -2.54563 0.000421664 10
-8.2975 18.9922 -1.81326 0.000427488 10
-8.29359 18.9833 -1.08568 0.000431413 10
-8.29704 18.9912 1.81316 0.000427613 10
-8.29693 18.9909 2.54462 0.000421837 10
-8.29877 18.9951 3.28313 0.000414221 10
-4.08649 9.26533 -2.71338 0.000367503 4
-4.53818 10.2894 -2.59629 0.00079372 4
-5.25273 11.9095 -2.53014 0.000163065 4
-6.92227 15.6949 -2.71687 0.000108148 1
-8.3486 18.9288 -2.54019 0.000422131 10
-8.33692 18.9023 -1.80745 0.000427959 10
-8.34362 18.9175 -1.08357 0.000431887 10
-8.341 18.9116 1.80833 0.000428086 10
-8.33995 18.9092 2.53755 0.000422306 10
-8.34495 18.9205 3.27525 0.000414686 10
-4.11646 9.24573 -2.71184 0.000390292 4
-4.56645 10.2564 -2.59197 0.000967386 4
-5.29551 11.8939 -2.53074 0.000202623 4
-6.9773 15.6713 -2.71698 0.000108134 1
-8.38386 18.8305 -2.5309 0.00042256 10
-8.38954 18.8432 -1.80458 0.000428392 10
-8.3877 18.8391 -1.08075 0.000432322 10
-8.38857 18.841 1.80437 0.00042852 10
-8.38914 18.8423 2.53249 0.000422738 10
-8.38842 18.8407 3.26648 0.000415113 10
-4.13254 9.19532 -2.70127 0.000675522 4
-4.59324 10.2204 -2.58691 0.000909648 4
-5.73486 12.7606 -2.7194 0.000218182 1
-7.03792 15.6601 -2.71929 0.00010812 1
-8.4308 18.7594 -2.52529 0.000422951 10
-8.43526 18.7693 -1.80031 0.000428785 10
-8.44064 18.7813 -1.07912 0.000432718 10
-8.4375 18.7743 1.80079 0.000428915 10
-8.43921 18.7781 2.52781 0.00042313 10
-8.43836 18.7762 3.26038 0.000415502 10
-4.16279 9.17683 -2.70008 0.00162517 4
-4.61326 10.1699 -2.57817 0.000634935 4
-5.78175 12.7458 -2.72052 0.00021816 1
-7.08986 15.6295 -2.71826 0.000108106 1
-8.48372 18.7023 -2.52157 0.000423303 10
-8.48136 18.6971 -1.79621 0.00042914 10
-8.47959 18.6932 -1.07575 0.000433075 10
-8.48342 18.7016 1.79665 0.000429272 10
-8.4779 18.6894 2.51984 0.000423485 10
-8.47757 18.6887 3.2503 0.000415854 10
-4.18352 9.13761 -2.69283 0.00143251 4
-4.64125 10.1374 -2.57403 0.000903367 4
-5.83131 12.7367 -2.7229 0.000218137 1
-7.14273 15.6011 -2.71763 0.000108092 1
-8.53258 18.6368 -2.51674 0.000423617 10
-8.52896 18.6289 -1.79251 0.000429456 10
-8.53397 18.6398 -1.07439 0.000433392 10
-8.53092 18.6332 1.79292 0.000429589 10
-8.53454 18.6411 2.51732 0.000423801 10
-8.531 18.6333 3.24583 0.000416168 10
-4.20856 9.10816 -2.68846 0.00142238 4
-4.66791 10.1023 -2.56924 0.000830264 4
-5.87202 12.7082 -2.72118 0.000218115 1
-7.20078 15.5839 -2.719 0.000108078 1
-8.57633 18.5609 -2.51051 0.000423892 10
-8.57831 18.5652 -1.78925 0.000429733 10
-8.57301 18.5537 -1.07114 0.00043367 10
-8.57171 18.5509 1.78787 0.000429867 10
-8.57176 18.551 2.50918 0.000424078 10
-8.57609 18.5604 3.23832 0.000416444 10
-4.23511 9.08222 -2.68515 0.00147423 4
-4.69596 10.0705 -2.56531 0.000956708 4
-5.91823 12.6917 -2.72205 0.000218092 1
-7.25888 15.5667 -2.72041 0.000108064 1
-8.61387 18.4725 -2.50262 0.000424128 10
-8.6148 18.4745 -1.7834 0.000429969 10
-8.6233 18.4927 -1.06935 0.000433907 10
-8.62203 18.49 1.7849 0.000430106 10
-8.61804 18.4814 2.50382 0.000424316 10
-8.61706 18.4794 3.22941 0.000416681 10
-4.25205 9.03606 -2.67588 0.00121297 4
-4.72563 10.0425 -2.56235 0.000990543 4
-5.96652 12.6795 -2.72389 0.00021807 1
-7.30619 15.5264 -2.71781 0.00010805 1
-8.66828 18.421 -2.49973 0.000424325 10
-8.6594 18.4022 -1.77932 0.000430167 10
-8.66662 18.4175 -1.06675 0.000434105 10
-8.66472 18.4135 1.78042 0.000430305 10
-8.66077 18.4051 2.49756 0.000424515 10
-8.66168 18.407 3.22203 0.00041688 10
-4.27642 9.00612 -2.67141 0.00129535 4
-4.74474 9.99241 -2.55379 0.000651501 4
-5.99936 12.6346 -2.71873 0.000218047 1
-7.35998 15.5001 -2.71768 0.000108036 1
-8.70884 18.3408 -2.49294 0.000424482 10
-8.70892 18.341 -1.77633 0.000430325 10
-8.71131 18.346 -1.06436 0.000434264 10
-8.70438 18.3314 1.77541 0.000430464 10
-8.70747 18.3379 2.49255 0.000424675 10
-8.70737 18.3377 3.2152 0.000417041 10
-4.30064 8.97613 -2.66696 0.00159089 4
-4.77283 9.96168 -2.55018 0.00101834 4
-6.05467 12.6371 -2.72379 0.000218025 1
-7.42196 15.4908 -2.72058 0.000108022 1
-8.75331 18.2696 -2.4874 0.000424601 10
-8.75425 18.2716 -1.77256 0.000430443 10
-8.75194 18.2667 -1.06153 0.000434381 10
-8.76014 18.2838 1.77375 0.000430584 10
-8.75277 18.2685 2.48725 0.000424796 10
-8.75755 18.2784 3.21015 0.000417163 10
-4.32445 8.94556 -2.66234 0.00105737 4
-4.79956 9.92838 -2.54593 0.000536836 4
-6.09937 12.6172 -2.72407 0.000218002 1
-7.47589 15.4646 -2.72054 0.000108008 1
-8.80517 18.2144 -2.48406 0.00042468 10
-8.79383 18.1909 -1.76771 0.000430521 10
-8.79798 18.1995 -1.0594 0.000434459 10
-8.80132 18.2064 -0.352979 0.000436452 10
-8.80072 18.2052 0.352955 0.000436481 10
-8.80019 18.2041 1.05966 0.000434545 10
-8.79654 18.1965 1.76825 0.000430664 10
-8.80035 18.2044 2.4827 0.000424878 10
-8.80573 18.2155 3.20448 0.000417247 10
-8.80306 18.21 3.93157 0.000407849 10
-8.80449 18.213 4.67034 0.000396783 10
-8.80398 18.2119 5.42015 0.00038416 10
-4.33944 8.89717 -2.65243 0.00121532 4
-4.8226 9.8878 -2.53982 0.00110194 4
-6.14394 12.597 -2.72432 0.00021798 1
-7.53213 15.4432 -2.72138 0.000107993 1
-8.84923 18.1436 -2.47861 0.000424719 10
-8.84385 18.1326 -1.76503 0.000430559 10
-8.84733 18.1397 -1.05771 0.000434496 10
-8.84827 18.1417 -0.352321 0.000436489 10
-8.84631 18.1376 0.352242 0.000436519 10
-8.84865 18.1424 1.05787 0.000434583 10
-8.84606 18.1371 1.76547 0.000430703 10
-8.84414 18.1332 2.47718 0.00042492 10
-8.84952 18.1442 3.19735 0.000417291 10
-8.84068 18.1261 3.92009 0.000407897 10
-8.83872 18.1221 4.65491 0.000396834 10
-8.84069 18.1261 5.40377 0.000384215 10
-4.36216 8.86508 -2.64739 0.00134285 4
-4.85471 9.86607 -2.53858 0.00101884 4
-6.17702 12.5534 -2.71953 0.000217957 1
-7.5809 15.4064 -2.71955 0.000107979 1
-8.88547 18.0577 -2.47109 0.000424719 10
-8.88966 18.0662 -1.76157 0.000430557 10
-8.89431 18.0756 -1.05578 0.000434492 10
-8.88569 18.0581 -0.351298 0.000436485 10
-8.89045 18.0678 0.351487 0.000436515 10
-8.89338 18.0737 1.05566 0.000434581 10
-8.89122 18.0693 1.76188 0.000430703 10
-8.89368 18.0743 2.47337 0.000424921 10
-8.89391 18.0748 3.19057 0.000417297 10
-8.89165 18.0702 3.9147 0.000407906 10
-8.89003 18.0669 4.64869 0.000396848 10
-8.89364 18.0743 5.39753 0.000384234 10
-4.39453 8.85272 -2.64826 0.0014393 4
-4.88276 9.83627 -2.53528 0.000429988 4
-6.23223 12.5548 -2.72453 0.000217934 1
-7.63848 15.3876 -2.72092 0.000107965 1
-8.93188 17.9932 -2.46651 0.000424679 10
-8.93563 18.0007 -1.75822 0.000430514 10
-8.92729 17.9839 -1.05223 0.000434448 10
-8.92747 17.9843 -0.350466 0.000436441 10
-8.92943 17.9882 0.350543 0.000436471 10
-8.9358 18.0011 1.05324 0.000434538 10
-8.93458 17.9986 1.75801 0.000430662 10
-8.92823 17.9858 2.4655 0.000424884 10
-8.93473 17.9989 3.18266 0.000417263 10
-8.93676 18.003 3.90687 0.000407878 10
-8.93749 18.0045 4.64062 0.000396824 10
-8.93423 17.9979 5.38401 0.000384217 10
-4.4142 8.81496 -2.64156 0.00143812 4
-4.92064 9.82629 -2.53712 0.000133146 4
-6.26417 12.5092 -2.71939 0.000217912 1
-7.69582 15.3682 -2.72222 0.000107951 1
-8.97482 17.9223 -2.46108 0.0004246 10
-8.97629 17.9252 -1.7539 0.000430432 10
-8.97717 17.927 -1.05073 0.000434364 10
-8.97794 17.9285 -0.349988 0.000436355 10
-8.97176 17.9162 0.349747 0.000436385 10
-8.97922 17.9311 1.05097 0.000434454 10
-8.98236 17.9374 1.75508 0.000430581 10
-8.98281 17.9383 2.46327 0.000424807 10
-8.97225 17.9172 3.17373 0.00041719 10
-8.97883 17.9303 3.89787 0.000407811 10
-8.98345 17.9395 4.63194 0.000396764 10
-8.97359 17.9199 5.37 0.000384163 10
-4.43347 8.77679 -2.63474 0.00140362 4
-4.95422 9.80768 -2.53677 7.21148e-05 4
-6.31724 12.506 -2.72346 0.000217889 1
-7.7449 15.3323 -2.72063 0.000107937 1
-9.02487 17.8662 -2.45768 0.00042448 10
-9.01637 17.8494 -1.74954 0.000430308 10
-9.01793 17.8525 -1.0482 0.000434238 10
-9.02596 17.8684 -0.349427 0.000436229 10
-9.02009 17.8568 0.3492 0.000436259 10
-9.01576 17.8482 1.04795 0.000434329 10
-9.01613 17.8489 1.7495 0.00043046 10
-9.01784 17.8523 2.45577 0.000424689 10
-9.01603 17.8487 3.16715 0.000417079 10
-9.02701 17.8704 3.89169 0.000407705 10
-9.02566 17.8678 4.62152 0.000396666 10
-9.01504 17.8468 5.35749 0.000384074 10
-4.46233 8.75783 -2.63371 0.00110149 4
-4.98255 9.77882 -2.53379 0.000266247 4
-6.36391 12.4899 -2.72477 0.000217866 1
-7.79346 15.2955 -2.71892 0.000107922 1
-9.0646 17.7903 -2.45158 0.000424321 10
-9.05738 17.7761 -1.74545 0.000430145 10
-9.05826 17.7779 -1.04567 0.000434072 10
-9.06876 17.7985 -0.348677 0.000436061 10
-9.05867 17.7786 0.348288 0.000436092 10
-9.06332 17.7878 1.04625 0.000434164 10
-9.06757 17.7961 1.74741 0.000430298 10
-9.0598 17.7809 2.45028 0.000424532 10
-9.06444 17.79 3.16233 0.000416927 10
-9.05892 17.7792 3.87866 0.000407562 10
-9.07025 17.8014 4.61251 0.000396531 10
-9.06114 17.7835 5.34797 0.000383948 10
-4.47498 8.70736 -2.62322 0.00175842 4
-5.01468 9.75751 -2.53278 0.000249586 4
-6.3976 12.4484 -2.72057 0.000217843 1
-7.8489 15.2723 -2.71965 0.000107908 1
-9.1005 17.7077 -2.44456 0.000424121 10
-9.10056 17.7078 -1.74185 0.00042994 10
-9.11188 17.7298 -1.04471 0.000433864 10
-9.11174 17.7295 -0.347948 0.000435852 10
-9.10081 17.7083 0.34753 0.000435884 10
-9.1024 17.7114 1.04362 0.000433958 10
-9.11332 17.7326 1.74429 0.000430095 10
-9.11051 17.7271 2.44724 0.000424335 10
-9.10511 17.7166 3.15492 0.000416737 10
-9.10704 17.7204 3.87276 0.000407379 10
-9.10485 17.7161 4.59862 0.000396358 10
-9.11257 17.7311 5.34176 0.000383786 10
-4.49875 8.67898 -2.61938 0.00142051 4
-6.44664 12.4368 -2.72295 0.000217821 1
-7.90778 15.2557 -2.72158 0.000107894 1
-9.15031 17.6527 -2.44137 0.000423881 10
-9.15137 17.6548 -1.73977 0.000429695 10
-9.15222 17.6564 -1.04226 0.000433616 10
-9.14713 17.6466 -0.346945 0.000435602 10
-9.15009 17.6523 0.347057 0.000435634 10
-9.14736 17.6471 1.04171 0.00043371 10
-9.15628 17.6643 1.7407 0.000429852 10
-9.1567 17.6651 2.44307 0.000424097 10
-9.15233 17.6566 3.14991 0.000416507 10
-9.1563 17.6643 3.86746 0.000407158 10
-9.14853 17.6493 4.58954 0.000396148 10
-9.15135 17.6548 5.32834 0.000383587 10
-4.52527 8.65604 -2.61721 0.00139576 4
-5.08237 9.72168 -2.53263 0.000360451 4
-6.48833 12.411 -2.72224 0.000217798 1
-7.96051 15.227 -2.72141 0.00010788 1
-9.1951 17.5886 -2.43692 0.000423601 10
-9.19996 17.5979 -1.73732 0.000429409 10
-9.19703 17.5923 -1.04036 0.000433326 10
-9.19089 17.5806 -0.346275 0.000435311 10
-9.19978 17.5976 0.346609 0.000435343 10
-9.1941 17.5867 1.04003 0.000433422 10
-9.19676 17.5918 1.73671 0.000429567 10
-9.20072 17.5994 2.43841 0.000423819 10
-9.19307 17.5847 3.14279 0.000416237 10
-9.19474 17.5879 3.85774 0.000406898 10
-9.19301 17.5846 4.58103 0.000395899 10
-9.20015 17.5983 5.32095 0.000383352 10
-4.55114 8.63201 -2.61473 0.00157612 4
-5.12061 9.7121 -2.53478 0.000426959 4
-6.53214 12.3893 -2.72246 0.000217775 1
-8.01229 15.1967 -2.72097 0.000107865 1
-9.23536 17.5164 -2.43137 0.00042328 10
-9.23473 17.5152 -1.73233 0.000429082 10
-9.23829 17.522 -1.03811 0.000432995 10
-9.23217 17.5104 -0.345525 0.000434978 10
-9.23612 17.5179 0.345673 0.000435011 10
-9.23044 17.5071 1.03722 0.000433092 10
-9.24061 17.5264 1.73343 0.000429242 10
-9.23789 17.5212 2.43204 0.000423501 10
-9.24139 17.5279 3.13837 0.000415928 10
-9.23511 17.5159 3.849 0.0004066 10
-9.23238 17.5108 4.57016 0.000395613 10
-9.23806 17.5216 5.30747 0.00038308 10
-4.57034 8.59556 -2.60851 0.00109199 4
-5.15159 9.68873 -2.53335 0.000377023 4
-6.57098 12.3582 -2.72065 0.000217752 1
-8.06577 15.1695 -2.72113 0.000107851 1
-9.27662 17.4468 -2.42619 0.000422919 10
-9.2743 17.4424 -1.72832 0.000428715 10
-9.27314 17.4402 -1.03517 0.000432623 10
-9.28166 17.4563 -0.345094 0.000434604 10
-9.27782 17.449 0.344951 0.000434637 10
-9.27777 17.4489 1.03569 0.000432721 10
-9.2729 17.4398 1.72806 0.000428876 10
-9.27543 17.4445 2.42588 0.000423143 10
-9.28019 17.4535 3.13083 0.000415579 10
-9.28246 17.4578 3.84331 0.000406262 10
-9.28304 17.4589 4.56504 0.000395289 10
-9.28081 17.4547 5.29699 0.000382772 10
-4.5818 8.54502 -2.59801 0.00139971 4
-5.19001 9.67933 -2.53562 0.000360358 4
-6.61938 12.3451 -2.72284 0.000217729 1
-8.11734 15.1388 -2.72068 0.000107837 1
-9.32764 17.396 -2.42364 0.000422518 10
-9.32251 17.3864 -1.72598 0.000428307 10
-9.3185 17.3789 -1.03346 0.00043221 10
-9.32352 17.3883 -0.344392 0.000434189 10
-9.31902 17.3799 0.344226 0.000434222 10
-9.31674 17.3757 1.03326 0.000432309 10
-9.32263 17.3866 1.726 0.00042847 10
-9.32227 17.386 2.42224 0.000422744 10
-9.32072 17.3831 3.12402 0.00041519 10
-9.32898 17.3985 3.83741 0.000405886 10
-9.31728 17.3767 4.55203 0.000394928 10
-9.31886 17.3796 5.28405 0.000382426 10
-4.60912 8.52439 -2.59661 0.00165303 4
-5.22679 9.66674 -2.53709 0.000363099 4
-6.66756 12.3314 -2.72493 0.000217707 1
-8.17172 15.1133 -2.72121 0.000107822 1
-9.35777 17.3068 -2.41575 0.000422076 10
-9.36912 17.3278 -1.7234 0.000427857 10
-9.36708 17.3241 -1.03213 0.000431755 10
-9.37003 17.3295 -0.343873 0.000433732 10
-9.35785 17.307 0.343426 0.000433765 10
-9.36378 17.3179 1.03177 0.000431855 10
-9.36598 17.322 1.72282 0.000428022 10
-9.3601 17.3111 2.41635 0.000422304 10
-9.36057 17.312 3.1171 0.000414762 10
-9.36643 17.3228 3.82792 0.000405471 10
-9.36446 17.3192 4.54551 0.000394528 10
-9.36261 17.3158 5.27455 0.000382044 10
-4.6347 8.50065 -2.59429 0.00162825 4
-5.25287 9.63445 -2.53341 0.000124718 4
-6.69909 12.287 -2.72027 0.000217684 1
-8.22686 15.0891 -2.72202 0.000107808 1
-9.40561 17.2511 -2.41254 0.000421594 10
-9.41071 17.2605 -1.71996 0.000427366 10
-9.40622 17.2522 -1.02981 0.000431259 10
-9.40473 17.2495 -0.342935 0.000433233 10
-9.4001 17.241 0.342766 0.000433267 10
-9.40065 17.242 1.02919 0.00043136 10
-9.40251 17.2454 1.71846 0.000427533 10
-9.40945 17.2582 2.41353 0.000421824 10
-9.40937 17.258 3.11327 0.000414293 10
-9.41175 17.2624 3.82179 0.000405017 10
-9.4067 17.2531 4.53675 0.00039409 10
-9.41423 17.2669 5.26965 0.000381625 10
-4.65617 8.46954 -2.58974 0.001438 4
-5.2941 9.62994 -2.53706 0.000299297 4
-6.74233 12.2643 -2.72043 0.000217661 1
-8.28254 15.0659 -2.72302 0.000107794 1
-9.44908 17.1878 -2.40829 0.000421071 10
-9.45469 17.198 -1.71702 0.000426835 10
-9.44235 17.1756 -1.02719 0.000430722 10
-9.45195 17.1931 -0.342467 0.000432693 10
-9.44256 17.176 0.342126 0.000432727 10
-9.44419 17.1789 1.02739 0.000430824 10
-9.45111 17.1915 1.71636 0.000427003 10
-9.44665 17.1834 2.40767 0.000421303 10
-9.44501 17.1804 3.1052 0.000413785 10
-9.45177 17.1927 3.81365 0.000404524 10
-9.44592 17.1821 4.52672 0.000393615 10
-9.4437 17.178 5.25255 0.00038117 10
-4.67969 8.44239 -2.58642 0.00160103 4
-5.3255 9.60746 -2.53602 0.000410113 4
-6.79587 12.2601 -2.72475 0.000217638 1
-8.33532 15.0373 -2.7231 0.000107779 1
-9.48553 17.1124 -2.40234 0.000420507 10
-9.48472 17.1109 -1.71161 0.000426262 10
-9.49286 17.1256 -1.02618 0.000430143 10
-9.48409 17.1098 -0.341465 0.000432111 10
-9.49012 17.1206 0.341682 0.000432145 10
-9.48915 17.1189 1.02577 0.000430245 10
-9.49768 17.1343 1.71395 0.000426431 10
-9.4983 17.1354 2.40557 0.000420742 10
-9.49025 17.1209 3.10041 0.000413237 10
-9.48554 17.1124 3.80315 0.000403991 10
-9.49394 17.1275 4.52105 0.000393101 10
-9.48638 17.1139 5.24302 0.000380677 10
-4.6936 8.39822 -2.57789 0.00165855 4
-5.35629 9.58395 -2.53474 0.000307558 4
-6.83933 12.2376 -2.72503 0.000217615 1
-8.37614 14.9873 -2.71933 0.000107765 1
-9.52565 17.0442 -2.39742 0.000419903 10
-9.53202 17.0556 -1.70939 0.000425648 10
-9.53513 17.0611 -1.0243 0.000429522 10
-9.53149 17.0546 -0.341026 0.000431487 10
-9.53279 17.0569 0.341072 0.000431522 10
-9.53249 17.0564 1.02402 0.000429626 10
-9.5325 17.0564 1.70948 0.000425819 10
-9.52614 17.045 2.39754 0.000420141 10
-9.53617 17.063 3.09594 0.000412649 10
-9.53829 17.0668 3.80039 0.00040342 10
-9.53695 17.0644 4.51314 0.000392549 10
-9.53106 17.0538 5.23479 0.000380147 10
-4.71226 8.36292 -2.57209 0.0016686 4
-5.38641 9.55934 -2.53319 0.000321385 4
-6.87711 12.2049 -2.72309 0.000217592 1
-8.42973 14.9604 -2.71975 0.000107751 1
-9.56943 16.983 -2.3935 0.000419258 10
-9.56998 16.984 -1.70556 0.000424992 10
-9.58067 17.003 -1.02281 0.00042886 10
-9.57156 16.9868 -0.340336 0.000430822 10
-9.57593 16.9945 1.70662 0.000425166 10
-9.58037 17.0024 2.39624 0.000419498 10
-9.57747 16.9973 3.09006 0.000412021 10
-9.58071 17.003 3.79362 0.00040281 10
-9.58095 17.0034 4.50584 0.00039196 10
-4.73719 8.33896 -2.56979 0.00175109 4
-5.42687 9.55303 -2.53652 0.000371223 4
-6.92507 12.1903 -2.72521 0.000217569 1
-8.48225 14.9315 -2.71987 0.000107736 1
-9.612 16.9202 -2.38936 0.000418573 10
-9.62136 16.9367 -1.70417 0.000424296 10
-9.60938 16.9156 -1.01957 0.000428156 10
-9.61472 16.925 -0.339768 0.000430114 10
-9.61501 16.9255 1.70304 0.000424471 10
-9.6187 16.932 2.39103 0.000418815 10
-9.61765 16.9301 3.08394 0.000411353 10
-9.62188 16.9376 3.78649 0.00040216 10
-9.61188 16.92 4.49259 0.000391332 10
-4.75993 8.31131 -2.56637 0.0015064 4
-5.45456 9.52419 -2.5339 0.000371191 4
-6.96553 12.1625 -2.72441 0.000217546 1
-8.54539 14.9211 -2.7234 0.000107722 1
-9.6552 16.8589 -2.38546 0.000417847 10
-9.65471 16.8581 -1.69964 0.000423558 10
-9.66118 16.8694 -1.01881 0.000427411 10
-9.66009 16.8675 -0.339289 0.000429366 10
-9.659 16.8656 1.7004 0.000423735 10
-9.65178 16.853 2.38461 0.000418091 10
-9.65551 16.8595 3.07719 0.000410645 10
-9.65675 16.8616 3.77702 0.000401471 10
-9.65796 16.8637 4.48658 0.000390665 10
-4.77963 8.27856 -2.56139 0.00136866 4
-5.48365 9.49796 -2.532 0.000321301 4
-7.00083 12.1258 -2.72165 0.000217523 1
-8.58612 14.8716 -2.71982 0.000107708 1
-9.69119 16.7856 -2.37986 0.00041708 10
-9.70363 16.8072 -1.69792 0.00042278 10
-9.6956 16.7933 -1.01625 0.000426625 10
-9.70002 16.8009 -0.338629 0.000428575 10
-9.6976 16.7967 1.69686 0.000422958 10
-9.70358 16.8071 2.3829 0.000417327 10
-9.69272 16.7883 3.07035 0.000409897 10
-9.69668 16.7951 3.76969 0.000400743 10
-9.69517 16.7925 4.47661 0.000389961 10
-4.80736 8.25986 -2.56079 0.00146272 4
-5.52913 9.5 -2.53767 0.00027973 4
-7.04914 12.1116 -2.72398 0.0002175 1
-8.64863 14.8598 -2.72317 0.000107693 1
-9.7323 16.7218 -2.3756 0.000416272 10
-9.74154 16.7376 -1.69432 0.000421959 10
-9.7443 16.7424 -1.01522 0.000425796 10
-9.73278 16.7226 -0.337733 0.000427743 10
-9.73568 16.7276 1.69329 0.000422139 10
-9.73365 16.7241 2.37593 0.000416521 10
-9.74392 16.7417 3.06804 0.000409109 10
-9.7398 16.7346 3.76372 0.000399977 10
-9.73421 16.725 4.46765 0.000389219 10
-4.81603 8.20872 -2.55013 0.0017061 4
-5.56326 9.48235 -2.53813 0.000307399 4
-7.09601 12.0949 -2.72576 0.000217477 1
-8.69499 14.8203 -2.72146 0.000107679 1
-9.77913 16.6681 -2.37282 0.000415424 10
-9.77323 16.6581 -1.6897 0.000421098 10
-9.77701 16.6645 -1.01256 0.000424926 10
-9.77453 16.6603 -0.337162 0.000426868 10
-9.78256 16.674 1.69132 0.00042128 10
-9.77759 16.6655 2.37244 0.000415675 10
-9.77796 16.6661 3.06042 0.00040828 10
-9.77878 16.6675 3.75628 0.00039917 10
-9.78559 16.6791 4.46449 0.000388438 10
-4.84283 8.18878 -2.54917 0.00174079 4
-5.58925 9.45091 -2.53492 0.000321218 4
-7.12772 12.0523 -2.72176 0.000217454 1
-8.74957 14.7947 -2.72236 0.000107664 1
-9.82377 16.6111 -2.36957 0.000414535 10
-9.81374 16.5941 -1.68668 0.000420196 10
-9.82179 16.6078 -1.01119 0.000424015 10
-9.81273 16.5924 -0.336479 0.000425953 10
-9.82414 16.6117 1.68847 0.000420379 10
-9.82064 16.6058 2.36881 0.000414789 10
-9.81524 16.5967 3.05394 0.000407413 10
-9.82401 16.6115 3.75136 0.000398325 10
-9.8212 16.6068 4.45426 0.00038762 10
-4.86988 8.1693 -2.54838 0.0017132 4
-5.62121 9.42967 -2.53447 0.00024643 4
-7.16777 12.024 -2.72101 0.000217431 1
-8.79982 14.7618 -2.72195 0.00010765 1
-9.85727 16.5357 -2.36371 0.000413605 10
-9.85977 16.5399 -1.68466 0.000419252 10
-9.85947 16.5394 -1.00912 0.000423061 10
-9.8585 16.5378 -0.336067 0.000424995 10
-9.85791 16.5368 1.68434 0.000419437 10
-9.86297 16.5453 2.36508 0.000413862 10
-9.86796 16.5537 3.05235 0.000406504 10
-9.85553 16.5328 3.74133 0.000397441 10
-9.86482 16.5484 4.44782 0.000386763 10
-4.89175 8.14124 -2.54494 0.00135819 4
-5.65178 9.40615 -2.53344 0.000299013 4
-7.21375 12.0057 -2.72254 0.000217408 1
-8.85674 14.7401 -2.72363 0.000107635 1
-9.90557 16.4857 -2.36148 0.000412635 10
-9.89734 16.472 -1.68125 0.000418267 10
-9.89924 16.4751 -1.0073 0.000422067 10
-9.89484 16.4678 -0.335344 0.000423995 10
-9.90219 16.48 1.68207 0.000418454 10
-9.90242 16.4804 2.36073 0.000412894 10
-9.90273 16.4809 3.04529 0.000405557 10
-9.89843 16.4738 3.73576 0.000396517 10
-9.90036 16.477 4.43788 0.000385868 10
-4.89965 8.09028 -2.53434 0.00177048 4
-5.68646 9.38945 -2.53427 0.000301756 4
-7.25715 11.983 -2.72311 0.000217385 1
-8.89793 14.6922 -2.7205 0.000107621 1
-9.94032 16.4134 -2.35609 0.000411624 10
-9.93425 16.4034 -1.67778 0.000417241 10
-9.93511 16.4048 -1.00512 0.000421031 10
-9.93977 16.4125 -0.334923 0.000422955 10
-9.93684 16.4077 1.67822 0.00041743 10
-9.94781 16.4258 2.35786 0.000411885 10
-9.9363 16.4068 3.03798 0.000404569 10
-9.93973 16.4124 3.72971 0.000395554 10
-9.94716 16.4247 4.43313 0.000384935 10
-4.92464 8.06786 -2.53269 0.000545384 4
-5.71762 9.36696 -2.53357 0.000429065 4
-7.29645 11.9535 -2.72219 0.000217361 1
-8.94985 14.6622 -2.72071 0.000107606 1
-9.97601 16.3433 -2.35101 0.000410573 10
-9.9885 16.3638 -1.67728 0.000416174 10
-9.97583 16.343 -1.00346 0.000419953 10
-9.9782 16.3469 -0.334294 0.000421872 10
-9.9822 16.3535 1.67622 0.000416364 10
-9.97803 16.3466 2.35149 0.000410836 10
-9.98106 16.3516 3.0342 0.000403541 10
-9.98775 16.3626 3.72627 0.000394553 10
-9.98454 16.3573 4.42432 0.000383964 10
-4.96009 8.06251 -2.53643 0.000616282 4
-5.75869 9.36062 -2.53728 0.000326614 4
-7.34871 11.9452 -2.72611 0.000217338 1
-9.00294 14.6341 -2.7213 0.000107592 1
-10.0277 16.2997 -2.34976 0.000409481 10
-10.0266 16.298 -1.67412 0.000415065 10
-10.0177 16.2836 -1.00195 0.000418834 10
-10.0248 16.2951 -0.333948 0.000420748 10
-10.0208 16.2886 1.67315 0.000415257 10
-10.0221 16.2908 2.34847 0.000409746 10
-10.027 16.2986 3.03084 0.000402473 10
-10.0261 16.2972 3.71934 0.000393512 10
-10.0259 16.2969 4.41742 0.000382955 10
-4.98116 8.03379 -2.53284 0.000616237 4
-5.78912 9.33691 -2.53631 0.000409616 4
-7.38086 11.9041 -2.72261 0.000217315 1
-9.05407 14.6027 -2.72134 0.000107577 1
-10.055 16.2171 -2.3429 0.000408348 10
-10.0664 16.2355 -1.6713 0.000413916 10
-10.0587 16.223 -1.00038 0.000417674 10
-10.0588 16.2231 -0.33319 0.000419582 10
-10.0683 16.2385 1.6716 0.00041411 10
-10.0552 16.2174 2.34294 0.000408616 10
-10.0658 16.2345 3.02543 0.000401366 10
-10.067 16.2365 3.71347 0.000392432 10
-10.0587 16.223 4.40688 0.000381908 10
-5.00959 8.01703 -2.53306 0.000616192 4
-5.82168 9.31664 -2.53631 0.00031272 4
-7.41896 11.8728 -2.72136 0.000217292 1
-9.11113 14.5809 -2.72317 0.000107563 1
-10.0975 16.1594 -2.33964 0.000407175 10
-10.1051 16.1715 -1.66833 0.000412726 10
-10.0998 16.1631 -0.998849 0.000416472 10
-10.0968 16.1582 -0.332578 0.000418374 10
-10.1075 16.1753 1.66872 0.000412921 10
-10.0967 16.1581 2.33944 0.000407445 10
-10.1013 16.1655 3.01912 0.000400218 10
-10.1012 16.1653 3.70523 0.000391314 10
-10.095 16.1554 4.39807 0.000380823 10
-5.04811 8.01627 -2.53837 0.000638309 4
-5.85365 9.29544 -2.53609 0.000392942 4
-7.47452 11.8693 -2.72652 0.000217269 1
-9.16863 14.5595 -2.72515 0.000107548 1
-10.1413 16.1041 -2.33674 0.000405962 10
-10.1468 16.1128 -1.66592 0.000411495 10
-10.1408 16.1033 -0.997335 0.000415229 10
-10.1334 16.0916 -0.331933 0.000417126 10
-10.1448 16.1097 1.6656 0.000411692 10
-10.1454 16.1106 2.33769 0.000406234 10
-10.1352 16.0945 3.01246 0.000399031 10
-10.1351 16.0942 3.69703 0.000390156 10
-10.136 16.0957 4.39141 0.0003797 10
-5.06906 7.98756 -2.53487 0.000638262 4
-5.88564 9.27429 -2.53591 0.000401208 4
-7.50272 11.8224 -2.72174 0.000217246 1
-9.21092 14.5141 -2.72265 0.000107534 1
-10.177 16.0364 -2.33205 0.000404708 10
-10.1773 16.0369 -1.66173 0.000410223 10
-10.1868 16.0518 -0.996342 0.000413945 10
-10.1826 16.0452 -0.331707 0.000415836 10
-10.1754 16.0339 1.66142 0.000410422 10
-10.1818 16.044 2.33316 0.000404983 10
-10.1888 16.055 3.0117 0.000397805 10
-10.1812 16.0431 3.69342 0.00038896 10
-10.1742 16.032 4.38369 0.000378539 10
-5.09327 7.96413 -2.53306 0.000487525 4
-5.91219 9.24464 -2.53343 0.000434374 4
-7.5527 11.8098 -2.7249 0.000217222 1
-9.26952 14.4944 -2.725 0.000107519 1
-10.2221 15.9839 -2.32959 0.000403413 10
-10.2221 15.9838 -1.65992 0.00040891 10
-10.2125 15.9688 -0.993397 0.000412619 10
-10.2224 15.9844 -0.331185 0.000414504 10
-10.2169 15.9757 1.65907 0.00040911 10
-10.2276 15.9924 2.33084 0.000403691 10
-10.2264 15.9906 3.00629 0.000396538 10
-10.2234 15.9859 3.68845 0.000387725 10
-10.2246 15.9878 4.38134 0.00037734 10
-5.1206 7.94562 -2.53284 0.00054067 4
-5.94942 9.2317 -2.53556 0.000351342 4
-7.59721 11.7886 -2.7261 0.000217199 1
-9.31253 14.4502 -2.7228 0.000107505 1
-10.2605 15.9212 -2.32567 0.000402079 10
-10.2643 15.9271 -1.65774 0.000407556 10
-10.2639 15.9264 -0.992983 0.000411253 10
-10.2524 15.9087 -0.330357 0.000413131 10
-10.2647 15.9277 1.6578 0.000407758 10
-10.253 15.9096 2.32397 0.000402359 10
-10.2565 15.915 2.99879 0.000395232 10
-10.2589 15.9187 3.68118 0.000386451 10
-10.2565 15.915 4.37119 0.000376104 10
-5.15794 7.94252 -2.53758 0.000460865 4
-5.98518 9.21637 -2.53707 0.000367908 4
-7.63804 11.7616 -2.726 0.000217176 1
-9.36203 14.4163 -2.72254 0.00010749 1
-10.3019 15.8635 -2.32248 0.000400705 10
-10.3026 15.8646 -1.65497 0.000406162 10
-10.3039 15.8666 -0.991491 0.000409845 10
-10.2938 15.8511 -0.329906 0.000411717 10
-10.3048 15.868 1.65532 0.000406366 10
-10.3043 15.8672 2.32302 0.000400987 10
-10.3012 15.8625 2.99565 0.000393887 10
-10.2977 15.8571 3.67523 0.000385138 10
-10.2929 15.8497 4.36308 0.00037483 10
-5.17547 7.90894 -2.53261 0.000589331 4
-6.01815 9.1967 -2.53742 0.000354046 4
-7.6822 11.7396 -2.72712 0.000217153 1
-9.42114 14.397 -2.7251 0.000107476 1
-10.3428 15.8055 -2.31926 0.00039929 10
-10.3344 15.7927 -1.65122 0.000404727 10
-10.3415 15.8035 -0.989798 0.000408397 10
-10.3327 15.7901 -0.329384 0.000410262 10
-10.3307 15.787 1.65062 0.000404933 10
-10.34 15.8011 2.31862 0.000399574 10
-10.3387 15.7992 2.9905 0.000392502 10
-10.3308 15.7871 3.66733 0.000383787 10
-10.343 15.8057 4.36088 0.000373519 10
-5.44163 8.25267 -2.64874 0.00028415 4
-6.0482 9.17257 -2.53658 0.000373375 4
-7.72288 11.7124 -2.72703 0.000217129 1
-9.4681 14.3591 -2.72416 0.000107461 1
-10.3758 15.7357 -2.31432 0.000397835 10
-10.378 15.739 -1.64938 0.000403251 10
-10.3719 15.7298 -0.987444 0.000406907 10
-10.3778 15.7388 -0.329068 0.000408766 10
-10.3687 15.7249 1.64791 0.000403458 10
-10.3818 15.7448 2.31565 0.000398122 10
-10.3692 15.7257 2.98342 0.000391078 10
-10.384 15.7482 3.6667 0.000382398 10
-10.3719 15.7297 4.34989 0.000372169 10
-5.47129 8.23496 -2.64917 0.000368167 4
-6.08377 9.15682 -2.53808 0.00041206 4
-7.75575 11.6733 -2.72423 0.000217106 1
-9.51119 14.3155 -2.72217 0.000107447 1
-10.4126 15.6722 -2.31031 0.000396341 10
-10.4171 15.679 -1.6469 0.000401735 10
-10.4199 15.6832 -0.986795 0.000405377 10
-10.4162 15.6777 -0.328549 0.000407229 10
-10.4088 15.6666 1.64559 0.000401944 10
-10.4133 15.6733 2.31046 0.00039663 10
-10.4076 15.6648 2.97874 0.000389615 10
-10.4095 15.6675 3.65636 0.00038097 10
-10.4136 15.6738 4.34445 0.000370783 10
-5.5019 8.21865 -2.65008 0.0007923 4
-6.10605 9.12111 -2.53407 0.000259934 4
-7.79818 11.6488 -2.72484 0.000217083 1
-9.56321 14.2854 -2.72277 0.000107432 1
-10.4569 15.6203 -2.30802 0.000394806 10
-10.4564 15.6195 -1.64447 0.000400179 10
-10.4607 15.6259 -0.985483 0.000403806 10
-10.4594 15.6241 -0.328189 0.000405651 10
-10.4575 15.6212 1.64465 0.00040039 10
-10.4465 15.6048 2.30573 0.000395098 10
-10.4521 15.6132 2.97586 0.000388112 10
-10.4491 15.6086 3.6511 0.000379504 10
-10.4477 15.6066 4.3359 0.000369359 10
-5.53469 8.20552 -2.65207 0.000636194 4
-6.15051 9.11851 -2.5393 0.000417517 4
-7.83896 11.6217 -2.72489 0.00021706 1
-9.61314 14.2521 -2.7228 0.000107417 1
-10.4903 15.5526 -2.30341 0.000393233 10
-10.4934 15.5571 -1.64174 0.000398583 10
-10.4988 15.5651 -0.983952 0.000402195 10
-10.4946 15.5589 -0.327587 0.000404032 10
-10.4878 15.5488 1.64087 0.000398795 10
-10.4957 15.5606 2.3046 0.000393526 10
-10.5002 15.5672 2.97405 0.000386571 10
-10.4972 15.5627 3.64891 0.000377999 10
-10.4992 15.5658 4.33471 0.000367898 10
-5.5496 8.16599 -2.64553 0.000144033 4
-6.16977 9.07854 -2.53415 0.000348361 4
-7.8743 11.5867 -2.7231 0.000217036 1
-9.66692 14.2244 -2.72396 0.000107403 1
-10.528 15.4914 -2.29979 0.000391619 10
-10.538 15.5063 -1.64026 0.000396946 10
-10.5265 15.4893 -0.981478 0.000400543 10
-10.5225 15.4833 -0.326767 0.000402373 10
-10.5238 15.4852 1.63803 0.00039716 10
-10.5295 15.4937 2.30012 0.000391915 10
-10.5384 15.5068 2.96952 0.00038499 10
-10.5311 15.496 3.64187 0.000376456 10
-10.5328 15.4986 4.32622 0.0003664 10
-5.57889 8.14777 -2.64592 0.000248038 4
-6.21093 9.07083 -2.53803 0.000345566 4
-7.92533 11.5746 -2.72676 0.000217013 1
-9.72519 14.2033 -2.72639 0.000107388 1
-10.5728 15.4411 -2.29779 0.000389965 10
-10.5635 15.4275 -1.63582 0.00039527 10
-10.5602 15.4228 -0.97959 0.000398851 10
-10.5652 15.43 -0.326419 0.000400673 10
-10.5774 15.4479 1.63797 0.000395485 10
-10.565 15.4298 2.29609 0.000390264 10
-10.5742 15.4432 2.9644 0.000383371 10
-10.5668 15.4324 3.63556 0.000374876 10
-10.5768 15.447 4.3221 0.000364865 10
-5.62113 8.14829 -2.65245 0.000536043 4
-6.23765 9.042 -2.53604 0.000381472 4
-7.95389 11.5298 -2.72272 0.00021699 1
-9.77322 14.1671 -2.72597 0.000107374 1
-10.6045 15.3721 -2.293 0.000388273 10
-10.5995 15.3649 -1.63309 0.000393553 10
-10.6005 15.3663 -0.97835 0.000397119 10
-10.606 15.3743 -0.32602 0.000398933 10
-10.6149 15.3871 1.63545 0.000393771 10
-10.6023 15.3689 2.29253 0.000388574 10
-10.6051 15.373 2.958 0.000381713 10
-10.6039 15.3712 3.62985 0.000373257 10
-10.602 15.3684 4.31044 0.000363293 10
-5.64047 8.11558 -2.64819 0.000376002 4
-6.27545 9.02919 -2.53858 0.000342742 4
-7.99686 11.506 -2.72367 0.000216966 1
-9.82233 14.1325 -2.72589 0.000107359 1
-10.6427 15.3129 -2.2897 0.000386541 10
-10.6453 15.3166 -1.6319 0.000391797 10
-10.6487 15.3215 -0.977859 0.000395346 10
-10.6491 15.322 -0.325698 0.000397152 10
-10.642 15.3118 1.63138 0.000392016 10
-10.6419 15.3116 2.28951 0.000386844 10
-10.6378 15.3058 2.9522 0.000380016 10
-10.6435 15.3139 3.62507 0.000371601 10
-10.6495 15.3226 4.30799 0.000361683 10
-5.67808 8.10914 -2.65254 0.000627956 4
-6.30229 9.00061 -2.53671 0.000422862 4
-8.03554 11.4759 -2.72318 0.000216943 1
-9.87446 14.1022 -2.72668 0.000107344 1
-10.6758 15.2466 -2.28535 0.00038477 10
-10.6813 15.2545 -1.62924 0.000390001 10
-10.6872 15.2629 -0.976492 0.000393534 10
-10.6856 15.2606 -0.325183 0.000395331 10
-10.6902 15.2671 1.63059 0.000390222 10
-10.6856 15.2606 2.28745 0.000385076 10
-10.678 15.2498 2.94857 0.000378281 10
-10.6791 15.2513 3.61906 0.000369907 10
-10.6869 15.2624 4.30153 0.000360038 10
-5.70474 8.08699 -2.6518 0.000819881 4
-6.33671 8.98285 -2.53793 0.000262538 4
-8.07693 11.4498 -2.72364 0.000216919 1
-9.92439 14.0687 -2.72689 0.00010733 1
-10.7266 15.2059 -2.28485 0.00038296 10
-10.7232 15.2011 -1.62753 0.000388166 10
-10.7212 15.1983 -0.974747 0.000391681 10
-10.7274 15.2071 -0.32484 0.000393471 10
-10.7272 15.2067 1.62813 0.000388388 10
-10.7239 15.2021 2.28427 0.000383268 10
-10.7187 15.1947 2.94513 0.000376507 10
-10.7136 15.1874 3.61275 0.000368175 10
-10.727 15.2066 4.29631 0.000358355 10
-5.73537 8.07045 -2.65292 0.000403911 4
-6.36476 8.95608 -2.53663 0.000256988 4
-8.12583 11.4342 -2.72666 0.000216896 1
-9.97132 14.031 -2.72631 0.000107315 1
-10.7657 15.1489 -2.28191 0.000381111 10
-10.7558 15.1349 -1.62445 0.000386291 10
-10.7507 15.1278 -0.972624 0.000389789 10
-10.7598 15.1406 -0.324219 0.00039157 10
-10.759 15.1394 1.62493 0.000386515 10
-10.7641 15.1466 2.28156 0.000381422 10
-10.754 15.1323 2.94031 0.000374696 10
-10.7635 15.1457 3.61173 0.000366406 10
-10.7592 15.1397 4.28801 0.000356637 10
-5.75268 8.03527 -2.64794 0.000367891 4
-6.39784 8.93641 -2.53736 0.000400645 4
-8.15981 11.3975 -2.72469 0.000216873 1
-10.0164 13.9908 -2.72528 0.0001073 1
-10.8013 15.0871 -2.27827 0.000379224 10
-10.7949 15.0782 -1.62239 0.000384377 10
-10.7906 15.0722 -0.971465 0.000387858 10
-10.8025 15.0888 -0.323916 0.00038963 10
-10.7905 15.072 1.62173 0.000384603 10
-10.7913 15.0732 2.27617 0.000379536 10
-10.7928 15.0752 2.93651 0.000372846 10
-10.8021 15.0882 3.60699 0.0003646 10
-10.8003 15.0857 4.28335 0.000354882 10
-5.77706 8.01009 -2.64627 0.000651758 4
-6.43545 8.92297 -2.53991 0.000386796 4
-8.20702 11.3793 -2.72718 0.000216849 1
-10.0709 13.9636 -2.72681 0.000107286 1
-10.8269 15.0119 -2.27261 0.000377298 10
-10.8263 15.0111 -1.61923 0.000382424 10
-10.8303 15.0165 -0.97031 0.000385887 10
-10.8406 15.0309 -0.323482 0.00038765 10
-10.8281 15.0135 0.323108 0.000387696 10
-10.8403 15.0305 0.971211 0.000386024 10
-10.8271 15.0121 1.61934 0.000382651 10
-10.8308 15.0173 2.27342 0.000377612 10
-10.8334 15.0209 2.93329 0.000370958 10
-10.8372 15.0262 3.60118 0.000362756 10
-10.8392 15.029 4.27797 0.00035309 10
-10.833 15.0203 4.96223 0.000342057 10
-5.81586 8.00485 -2.65123 0.000327854 4
-6.46545 8.89894 -2.53948 0.000381237 4
-8.23688 11.3371 -2.72394 0.000216826 1
-10.1044 13.9076 -2.72274 0.000107271 1
-10.8631 14.9518 -2.26924 0.000375333 10
-10.8641 14.9532 -1.61707 0.000380432 10
-10.8619 14.9502 -0.968466 0.000383876 10
-10.8726 14.9648 -0.322876 0.000385631 10
-10.8729 14.9652 0.322884 0.000385677 10
-10.87 14.9613 0.969185 0.000384015 10
-10.8633 14.9521 1.61695 0.000380661 10
-10.8786 14.9731 2.27247 0.00037565 10
-10.877 14.9709 2.93091 0.000369033 10
-10.8661 14.956 3.59343 0.000360876 10
-10.8766 14.9703 4.27206 0.000351263 10
-10.8765 14.9702 4.95819 0.00034029 10
-5.84071 7.98032 -2.64985 0.000579698 4
-6.48673 8.86299 -2.53567 0.00038949 4
-8.27723 11.3094 -2.7242 0.000216802 1
-10.1557 13.8759 -2.72347 0.000107256 1
-10.9055 14.9005 -2.26721 0.00037333 10
-10.9108 14.9077 -1.61625 0.000378401 10
-10.9071 14.9027 -0.967852 0.000381827 10
-10.9035 14.8978 -0.322248 0.000383572 10
-10.9161 14.915 0.322621 0.000383619 10
-10.9018 14.8954 0.96738 0.000381967 10
-10.9093 14.9057 1.61604 0.000378632 10
-10.9082 14.9042 2.26777 0.000373649 10
-10.9033 14.8975 2.92398 0.000367069 10
-10.9082 14.9042 3.59011 0.000358959 10
-10.9139 14.912 4.26626 0.000349399 10
-10.9166 14.9157 4.95272 0.000338488 10
-5.86575 7.95612 -2.64859 0.000395764 4
-6.51743 8.84002 -2.53559 0.000383931 4
-8.32344 11.2896 -2.72643 0.000216779 1
-10.217 13.8581 -2.72695 0.000107242 1
-10.9496 14.8517 -2.2656 0.000371289 10
-10.943 14.8427 -1.61334 0.000376332 10
-10.9362 14.8335 -0.965828 0.000379739 10
-10.9446 14.8449 -0.32193 0.000381475 10
-10.9389 14.8371 0.32176 0.000381522 10
-10.9467 14.8478 0.966761 0.000379879 10
-10.9472 14.8485 1.61397 0.000376565 10
-10.9465 14.8475 2.26495 0.000371611 10
-10.941 14.84 2.92016 0.000365069 10
-10.9534 14.8568 3.58789 0.000357005 10
-10.9444 14.8446 4.25789 0.0003475 10
-10.9524 14.8555 4.94538 0.000336651 10
-5.89536 7.9381 -2.64943 0.000787471 4
-6.55733 8.82945 -2.53911 0.000359041 4
-8.36773 11.2672 -2.72803 0.000216756 1
-10.2639 13.8204 -2.72657 0.000107227 1
-10.9733 14.7756 -2.25981 0.00036921 10
-10.9832 14.7889 -1.61166 0.000374224 10
-10.98 14.7845 -0.965133 0.000377612 10
-10.9894 14.7972 -0.321725 0.000379338 10
-10.9838 14.7898 0.321562 0.000379385 10
-10.9844 14.7905 0.965518 0.000377753 10
-10.9805 14.7853 1.61126 0.000374458 10
-10.9869 14.7939 2.26261 0.000369534 10
-10.9831 14.7887 2.9176 0.000363031 10
-10.9859 14.7925 3.58161 0.000355014 10
-10.9869 14.7938 4.25429 0.000345565 10
-10.982 14.7873 4.93541 0.00033478 10
-5.91728 7.9098 -2.64686 0.000455659 4
-6.58081 8.79675 -2.53629 0.00037834 4
-8.40246 11.2318 -2.72656 0.000216732 1
-10.3006 13.7691 -2.72352 0.000107212 1
-11.0175 14.7274 -2.25831 0.000367093 10
-11.0234 14.7353 -1.60999 0.000372078 10
-11.0259 14.7386 -0.964639 0.000375446 10
-11.021 14.7321 -0.321144 0.000377163 10
-11.0178 14.7278 0.321049 0.00037721 10
-11.0226 14.7342 0.96435 0.000375589 10
-11.016 14.7254 1.60891 0.000372314 10
-11.0216 14.7329 2.25914 0.00036742 10
-11.0195 14.7301 2.9136 0.000360956 10
-11.0209 14.732 3.57624 0.000352987 10
-11.0236 14.7356 4.24859 0.000343595 10
-11.0244 14.7366 4.93131 0.000332874 10
-5.95967 7.90874 -2.65345 0.000199836 4
-6.62022 8.78533 -2.53965 0.000372784 4
-8.44828 11.2112 -2.72871 0.000216709 1
-10.3602 13.7484 -2.72658 0.000107198 1
-11.0487 14.6621 -2.25419 0.000364939 10
-11.0642 14.6827 -1.60846 0.000369894 10
-11.0636 14.6819 -0.963451 0.000373242 10
-11.0572 14.6734 -0.320703 0.000374949 10
-11.0473 14.6603 0.320417 0.000374997 10
-11.0624 14.6803 0.963348 0.000373385 10
-11.0597 14.6768 1.60781 0.000370131 10
-11.0607 14.6781 2.25665 0.000365268 10
-11.0567 14.6728 2.90989 0.000358843 10
-11.0625 14.6805 3.57309 0.000350924 10
-11.0534 14.6684 4.24032 0.00034159 10
-11.05 14.6639 4.91985 0.000330935 10
-5.98475 7.88463 -2.65235 0.000447598 4
-6.64409 8.75326 -2.53707 0.000339618 4
-8.47904 11.1707 -2.72604 0.000216685 1
-10.3961 13.6964 -2.72344 0.000107183 1
-11.0993 14.6228 -2.25409 0.000362747 10
-11.0907 14.6114 -1.60488 0.000367672 10
-11.0843 14.603 -0.960809 0.000371 10
-11.084 14.6026 -0.32 0.000372697 10
-11.0862 14.6055 0.320063 0.000372745 10
-11.0948 14.6169 0.961721 0.000371144 10
-11.096 14.6184 1.60564 0.000367911 10
-11.0977 14.6207 2.25378 0.000363078 10
-11.0919 14.613 2.90569 0.000356695 10
-11.0864 14.6058 3.56432 0.000348825 10
-11.0987 14.622 4.23806 0.00033955 10
-11.098 14.6211 4.91848 0.000328961 10
-6.00986 7.86057 -2.6513 0.000679338 4
-6.67815 8.73466 -2.53842 0.000394805 4
-8.5119 11.1331 -2.72409 0.000216662 1
-10.4512 13.6696 -2.72534 0.000107168 1
-11.1283 14.5553 -2.24966 0.000360518 10
-11.1342 14.5629 -1.60381 0.000365412 10
-11.1327 14.561 -0.960592 0.00036872 10
-11.1372 14.5668 -0.320066 0.000370406 10
-11.1347 14.5636 0.319995 0.000370455 10
-11.121 14.5457 0.959583 0.000368865 10
-11.1225 14.5476 1.60213 0.000365653 10
-11.1248 14.5506 2.24894 0.000360851 10
-11.1297 14.557 2.90227 0.000354509 10
-11.1298 14.5571 3.56189 0.00034669 10
-11.1225 14.5476 4.22774 0.000337474 10
-11.132 14.5601 4.911 0.000326953 10
-6.04146 7.845 -2.65315 0.000851107 4
-6.71086 8.71422 -2.53927 0.000265021 4
-8.55939 11.1146 -2.72685 0.000216638 1
-10.5025 13.6378 -2.72629 0.000107154 1
-11.1631 14.4956 -2.24644 0.000358252 10
-11.1736 14.5092 -1.60219 0.000363115 10
-11.1643 14.4972 -0.958949 0.000366401 10
-11.1572 14.4879 -0.319185 0.000368078 10
-11.1729 14.5084 0.319636 0.000368127 10
-11.1734 14.509 0.95973 0.000366548 10
-11.1688 14.503 1.6015 0.000363357 10
-11.1736 14.5092 2.24855 0.000358587 10
-11.1753 14.5115 2.90095 0.000352287 10
-11.1688 14.503 3.55815 0.00034452 10
-11.1734 14.5089 4.2278 0.000335364 10
-11.1649 14.4979 4.90314 0.000324911 10
-6.05794 7.80985 -2.64839 0.00027569 4
-6.74263 8.69256 -2.5398 0.000248435 4
-8.58941 11.0734 -2.72409 0.000216615 1
-10.5462 13.596 -2.72529 0.000107139 1
-11.2107 14.4528 -2.24586 0.00035595 10
-11.196 14.4337 -1.59815 0.000360781 10
-11.1962 14.434 -0.957349 0.000364046 10
-11.1953 14.4329 -0.318833 0.000365712 10
-11.1959 14.4336 0.318848 0.000365761 10
-11.1952 14.4327 0.957265 0.000364193 10
-11.2014 14.4408 1.59893 0.000361025 10
-11.2036 14.4436 2.24443 0.000356287 10
-11.2029 14.4427 2.89499 0.000350029 10
-11.1977 14.436 3.5513 0.000342314 10
-11.1976 14.4359 4.21789 0.000333219 10
-11.2042 14.4443 4.89821 0.000322836 10
-6.07906 7.78084 -2.64574 0.00115807 4
-6.76265 8.65579 -2.53594 0.000298095 4
-8.63072 11.0468 -2.72494 0.000216591 1
-10.6031 13.5714 -2.72775 0.000107124 1
-11.2434 14.3909 -2.24233 0.00035361 10
-11.2359 14.3813 -1.59668 0.000358409 10
-11.2358 14.3812 -0.956443 0.000361652 10
