VERSION 0.7
FIELDS x y z intensity label
SIZE 4 4 4 4 4
TYPE F F F F F
COUNT 1 1 1 1 1
WIDTH 1198
HEIGHT 1
VIEWPOINT 10.065 53.9608 2.72861 0.730516 0.000439216 0.000659376 -0.682895
POINTS 1198
DATA ascii
10.5038 5.25993 -2.71206 0.000390379 1
12.4577 6.23836 -2.70818 0.000222036 1
14.5947 7.30849 -2.58521 0.00156607 10
14.5895 7.30588 -2.00342 0.00159411 10
14.5989 7.31058 -1.42843 0.00161549 10
14.574 7.29814 -0.854208 0.00162998 10
14.5941 7.30819 -0.284897 0.00163745 10
14.5973 7.30978 0.284958 0.00163781 10
14.5973 7.30977 0.855569 0.00163107 10
14.2118 7.11676 1.39056 0.0013476 10
14.2035 7.11257 1.95041 0.00133044 10
14.2098 7.11572 2.51702 0.00130772 10
14.2087 7.11521 3.08884 0.00127968 10
14.1944 7.10805 3.66497 0.00124658 10
14.2138 7.11773 4.25941 0.00120875 10
8.40602 4.24619 -2.52344 0.000580623 4
10.4835 5.2956 -2.71157 0.00039037 1
12.418 6.27277 -2.70429 0.000222029 1
14.6038 7.37693 -2.59137 0.00155458 10
14.5826 7.36618 -2.00598 0.00158242 10
14.5843 7.36706 -1.42951 0.00160365 10
14.5884 7.36912 -0.85655 0.00161804 10
14.5912 7.37052 -0.285339 0.00162546 10
14.5944 7.37215 0.285402 0.00162582 10
14.5817 7.36577 0.856161 0.00161913 10
14.2232 7.18467 1.39412 0.00133777 10
14.213 7.1795 1.95515 0.00132073 10
14.2206 7.18336 2.52338 0.00129817 10
14.2014 7.17363 3.09266 0.00127032 10
14.221 7.18353 3.67827 0.00123745 10
14.2132 7.17959 4.26672 0.00119989 10
8.3874 4.27359 -2.52231 0.000616618 4
10.4483 5.32368 -2.70725 0.00039036 1
12.4044 6.32037 -2.70613 0.000222023 1
14.5981 7.4381 -2.59494 0.00154307 10
14.6004 7.43925 -2.01199 0.00157072 10
25.5158 13.001 -2.50542 3.52694e-05 10
29.2283 14.8926 -1.71917 0.000135366 10
29.2306 14.8937 -0.572636 0.000136065 10
29.2269 14.8919 0.572563 0.000136079 10
18.3984 9.37444 1.08217 5.20843e-05 10
14.5809 7.42934 1.43171 0.00124254 10
14.5828 7.43033 2.00958 0.00122664 10
14.2172 7.244 3.10159 0.00126096 10
14.2141 7.24246 3.68301 0.00122832 10
14.2111 7.24092 4.27365 0.00119102 10
8.387 4.31033 -2.5267 0.000580599 4
10.447 5.36905 -2.71176 0.00039035 1
12.3995 6.37248 -2.70989 0.000222016 1
14.6066 7.50679 -2.6011 0.00153156 10
14.6045 7.50571 -2.01617 0.00155901 10
25.4798 13.0948 -2.50635 3.52668e-05 10
29.0061 14.9071 -1.70915 0.000138663 10
29.014 14.9112 -0.569409 0.000139378 10
29.0174 14.9129 0.569475 0.000139392 10
18.3641 9.43784 1.08208 5.20907e-05 10
14.6083 7.50764 1.43696 0.00123328 10
14.6043 7.50558 2.01613 0.0012175 10
14.5559 7.48069 3.7783 0.000307682 10
14.5933 7.49996 4.39645 0.0011056 10
8.36179 4.33434 -2.52365 0.000630095 4
10.4246 5.40362 -2.71083 0.000390341 1
12.3531 6.40321 -2.70461 0.000222009 1
14.6006 7.5682 -2.60471 0.00152004 10
14.6183 7.57743 -2.02171 0.0015473 10
25.4253 13.1792 -2.50551 3.52641e-05 10
28.7824 14.9194 -1.69902 0.000142008 10
28.7842 14.9203 -0.565917 0.000142738 10
28.7808 14.9186 0.56585 0.000142752 10
18.3456 9.50943 1.08294 5.20971e-05 10
14.6126 7.57446 1.43998 0.00122403 10
14.5991 7.56745 2.01905 0.00120836 10
14.5254 7.52925 3.77719 0.000307691 10
14.5864 7.56087 4.40228 0.00109726 10
8.36017 4.37059 -2.52775 0.000405052 4
10.399 5.43647 -2.70909 0.000390331 1
12.3428 6.45264 -2.70727 0.000222002 1
14.6089 7.63733 -2.61093 0.00150851 10
14.6151 7.64059 -2.02494 0.00153557 10
25.3685 13.2623 -2.50445 3.52614e-05 10
28.5674 14.9347 -1.6894 0.000145401 10
28.5834 14.943 -0.562991 0.000146147 10
28.5779 14.9402 0.562884 0.000146162 10
18.2955 9.56466 1.08195 5.21037e-05 10
14.6081 7.63692 1.44215 0.00121476 10
14.6143 7.64014 2.02482 0.0011992 10
14.498 7.57934 3.77691 0.000307699 10
14.6086 7.63718 4.417 0.00108892 10
8.34639 4.40055 -2.52821 0.000139515 4
10.3806 5.47306 -2.70924 0.000390321 1
12.3116 6.49118 -2.70539 0.000221995 1
14.61 7.70299 -2.61593 0.00149697 10
14.6157 7.70598 -2.02874 0.00152384 10
25.3419 13.3612 -2.50641 3.52586e-05 10
28.3583 14.9516 -1.68011 0.000148842 10
28.3635 14.9543 -0.559684 0.000149605 10
28.3665 14.956 0.559744 0.000149619 10
18.2639 9.62948 1.08206 5.21103e-05 10
14.5974 7.69633 1.44374 0.00120549 10
14.6035 7.69953 2.02704 0.00119005 10
14.6762 7.73787 2.62777 0.000737488 10
14.672 7.73569 3.22407 0.000721564 10
14.4739 7.63123 3.77757 0.000307707 10
14.6132 7.70467 4.4265 0.00108057 10
8.32365 4.42576 -2.52599 0.000373532 4
10.3734 5.51562 -2.71237 0.00039031 1
12.296 6.5379 -2.70696 0.000221989 1
14.63 7.77889 -2.62435 0.00148543 10
14.63 7.77893 -2.03448 0.0015121 10
25.2906 13.4472 -2.50597 3.52558e-05 10
28.137 14.9607 -1.67009 0.000152331 10
28.1447 14.9648 -0.556395 0.000153111 10
28.1435 14.9641 0.55637 0.000153126 10
18.2422 9.69953 1.08277 5.2117e-05 10
14.6213 7.77428 1.44878 0.00119621 10
14.61 7.76828 2.0317 0.00118089 10
14.4503 7.68337 3.77839 0.000307716 10
14.6161 7.77149 4.43555 0.00107221 10
8.3062 4.45374 -2.52539 0.000441028 4
10.346 5.54746 -2.71026 0.0003903 1
12.2691 6.57862 -2.70607 0.000221982 1
14.6264 7.84262 -2.6286 0.00147389 10
14.6252 7.84198 -2.03761 0.00150036 10
25.2362 13.5315 -2.50525 3.5253e-05 10
27.9288 14.9753 -1.66082 0.000155869 10
27.9471 14.9851 -0.55352 0.000156665 10
27.9291 14.9755 0.553163 0.000156681 10
18.1922 9.75458 1.08182 5.21237e-05 10
14.6146 7.83627 1.45082 0.00118693 10
14.6124 7.83508 2.03582 0.00016773 10
14.4261 7.73519 3.77909 0.000307724 10
14.6084 7.83295 4.44149 0.00106386 10
8.27692 4.47531 -2.52123 0.000409517 4
10.3186 5.57925 -2.70817 0.00039029 1
12.2515 6.62435 -2.70727 0.000221974 1
14.6413 7.91652 -2.63623 0.00146234 10
14.6378 7.91461 -2.04319 0.00148861 10
25.1834 13.6166 -2.50471 3.52502e-05 10
27.736 14.9968 -1.65246 0.000159455 10
27.7166 14.9863 -0.549987 0.000160269 10
27.7307 14.9939 0.550266 0.000160284 10
18.1599 9.81904 1.08193 5.21305e-05 10
14.6138 7.90166 1.45347 0.00117765 10
14.5749 7.88062 2.03442 0.000167739 10
14.3871 7.77906 3.77596 0.000307733 10
14.6165 7.90311 4.45232 0.0010555 10
8.27581 4.51212 -2.52567 0.000679513 4
10.3059 5.61895 -2.70996 0.00039028 1
12.2163 6.66057 -2.70463 0.000221967 1
14.6327 7.97803 -2.63969 0.00145079 10
14.6275 7.97519 -2.04564 0.00147687 10
20.0773 10.9465 -2.00065 0.000408321 10
27.5204 15.0046 -1.64272 0.00016309 10
27.5189 15.0038 -0.547099 0.00016392 10
27.514 15.0011 0.547001 0.000163936 10
18.1196 9.87913 1.08158 5.21374e-05 10
14.6212 7.97176 1.45697 0.00116837 10
14.5642 7.94065 2.03678 0.000167748 10
14.3666 7.83291 3.77773 0.000307742 10
14.6324 7.97787 4.46563 0.00104714 10
8.25864 4.54022 -2.52525 0.000485998 4
10.2763 5.64943 -2.70734 0.000390269 1
12.2153 6.71541 -2.70957 0.00022196 1
14.6403 8.04855 -2.64609 0.00143924 10
14.63 8.04289 -2.04989 0.00146512 10
19.9142 10.9479 -1.98819 0.000416877 10
19.9102 10.9457 -1.19073 0.000420789 10
19.9105 10.9459 -0.396596 0.000422775 10
19.915 10.9484 0.396685 0.000422812 10
18.0877 9.94381 1.08174 5.21443e-05 10
14.6448 8.05105 1.46211 0.00115908 10
14.5344 7.99034 2.0365 0.000167757 10
14.3211 7.8731 3.77298 0.00030775 10
14.6335 8.04482 4.47449 0.00103878 10
8.2457 4.57066 -2.52616 0.000728981 4
10.2584 5.68631 -2.70784 0.000390259 1
12.1899 6.75697 -2.70915 0.000221953 1
14.6493 8.12021 -2.65283 0.00142769 10
14.6555 8.12365 -2.05742 0.00145337 10
19.7732 10.9605 -1.97792 0.000425534 10
19.7768 10.9624 -1.18504 0.000429523 10
19.7633 10.955 -0.394423 0.000431547 10
19.7795 10.964 0.394746 0.000431585 10
18.0609 10.0113 1.08222 5.21514e-05 10
14.6284 8.10863 1.46328 0.0011498 10
14.4936 8.03391 2.0347 0.000167766 10
14.2921 7.92224 3.7726 0.000307759 10
14.6285 8.10869 4.48159 0.00103042 10
8.22024 4.59413 -2.52326 0.000647968 4
10.2519 5.72957 -2.71139 0.000390248 1
12.1615 6.79681 -2.70809 0.000221945 1
14.6434 8.18392 -2.65693 0.00141613 10
14.6433 8.18388 -2.05972 0.00144162 10
19.6336 10.9729 -1.96778 0.000434292 10
19.6261 10.9687 -1.1783 0.000438359 10
19.614 10.9619 -0.392203 0.000440422 10
19.6226 10.9667 0.392376 0.00044046 10
18.0305 10.0769 1.0825 5.21585e-05 10
14.6549 8.19032 1.46878 0.00114051 10
14.4698 8.08689 2.03531 0.000167775 10
14.7118 8.22215 2.66934 0.000697659 10
14.7195 8.22645 3.27771 0.000682559 10
14.2783 7.97988 3.77629 0.000307768 10
14.6415 8.18283 4.49429 0.00102206 10
8.21184 4.62713 -2.52562 0.000526462 4
10.2238 5.76082 -2.70927 0.000390237 1
12.144 6.84281 -2.70951 0.000221938 1
14.6601 8.26052 -2.66516 0.00140458 10
14.6446 8.25179 -2.06393 0.00142987 10
19.5319 11.0057 -1.96143 0.000671401 10
19.52 10.999 -1.17423 0.000677788 10
19.5169 10.9972 -0.391028 0.000681082 10
19.5259 11.0023 0.391208 0.000681248 10
17.9921 10.138 1.08231 5.21657e-05 10
14.6591 8.25998 1.47209 0.00113123 10
14.445 8.13932 2.0358 0.000167784 10
14.6568 8.25866 2.66456 0.000457507 10
14.6684 8.26523 3.27274 0.000447538 10
14.263 8.03676 3.77963 0.00111838 10
14.6373 8.24771 4.50184 0.0010137 10
8.18171 4.64785 -2.52133 0.000593943 4
10.2172 5.80417 -2.71287 0.000390226 1
12.1011 6.87436 -2.70526 0.00022193 1
14.6709 8.33424 -2.67241 0.00139304 10
14.6613 8.32879 -2.07038 0.00141813 10
19.5306 11.0949 -1.96517 0.000665592 10
19.536 11.098 -1.17751 0.000671927 10
19.527 11.0928 -0.392003 0.000675195 10
19.5193 11.0885 0.391848 0.00067536 10
17.963 10.2044 1.0827 5.21729e-05 10
14.641 8.31727 1.47318 0.00112195 10
14.4237 8.19379 2.03682 0.000167794 10
14.6067 8.29778 2.66072 0.000724329 10
14.6084 8.2987 3.26578 0.000708552 10
14.2624 8.10217 3.78695 0.00110921 10
14.6525 8.3238 4.51542 0.00100534 10
8.18471 4.68743 -2.52728 0.000490441 4
10.1777 5.82883 -2.70777 0.000390215 1
12.0878 6.92273 -2.70767 0.000221923 1
14.6652 8.39885 -2.67669 0.0013815 10
14.6718 8.40259 -2.07598 0.00140639 10
14.8231 8.48927 -1.49448 0.000608127 10
14.8291 8.49271 -0.895589 0.000613536 10
14.8227 8.48901 -0.298157 0.00061628 10
14.8287 8.49248 0.298279 0.000616331 10
14.8301 8.49329 0.89565 0.000613688 10
14.6509 8.39065 1.47711 0.00111267 10
14.3769 8.23372 2.03426 0.000167803 10
14.4947 8.30118 2.64557 0.000738133 10
14.5157 8.31319 3.25152 0.000722069 10
14.266 8.17024 3.79547 0.00110004 10
14.6482 8.38912 4.52309 0.000996989 10
8.17109 4.71758 -2.52814 0.000701899 4
10.1721 5.87287 -2.71172 0.000390204 1
12.0686 6.96782 -2.70881 0.000221915 1
14.6691 8.46919 -2.68278 0.00136996 10
14.6555 8.46134 -2.07784 0.00139465 10
14.7163 8.49645 -1.48669 0.000619647 10
14.7401 8.51021 -0.892003 0.000625154 10
14.7218 8.49965 -0.296724 0.000627947 10
14.7259 8.50199 0.296805 0.000627998 10
14.715 8.49573 0.890485 0.000625307 10
14.6701 8.46977 1.48202 0.00110339 10
14.3652 8.29373 2.03669 0.000167813 10
14.4039 8.31607 2.63427 0.000752081 10
14.3957 8.31139 3.23114 0.000735726 10
14.2861 8.24806 3.80843 0.00109088 10
14.6492 8.4577 4.53247 0.000988639 10
8.15081 4.74388 -2.52698 0.000728877 4
10.1468 5.90556 -2.71044 0.000390193 1
12.0322 7.0029 -2.70611 0.000221907 1
14.6774 8.54245 -2.68974 0.00135842 10
14.6809 8.5445 -2.08567 0.00138292 10
14.6619 8.53342 -1.48419 0.000925791 10
14.6673 8.53657 -0.889393 0.000934159 10
14.676 8.54165 -0.2964 0.000938473 10
14.6631 8.53413 0.296139 0.000938693 10
14.6712 8.53887 0.889633 0.000934813 10
14.6558 8.52986 1.48357 0.00109412 10
14.3194 8.33409 2.03431 0.000167822 10
14.2865 8.31493 2.6181 0.000766172 10
14.307 8.32688 3.21773 0.000749525 10
14.2928 8.31863 3.81796 0.00108173 10
14.669 8.53757 4.5478 0.000980293 10
8.12402 4.76633 -2.52381 0.000616381 4
10.1225 5.93882 -2.70947 0.000390182 1
12.0119 7.04736 -2.70707 0.0002219 1
14.6872 8.61691 -2.69702 0.0013469 10
14.6675 8.60539 -2.08802 0.0013712 10
24.6967 14.4895 -2.5051 3.52202e-05 10
25.7888 15.1302 -1.56697 0.00019799 10
25.7851 15.128 -0.521825 0.000198984 10
25.7811 15.1257 0.521743 0.000199002 10
17.799 10.4426 1.0815 5.22025e-05 10
14.6597 8.60079 1.487 0.00108486 10
14.3142 8.39809 2.03772 0.000167832 10
14.2947 8.38662 2.62494 0.00112553 10
14.2874 8.38239 3.21989 0.00110124 10
14.2879 8.38266 3.82443 0.00107257 10
14.668 8.60567 4.55677 0.000971952 10
8.1022 4.79163 -2.52222 0.000481395 4
10.1131 5.98089 -2.71254 0.00039017 1
11.9982 7.09571 -2.70954 0.000221892 1
14.6861 8.68532 -2.70237 0.00133538 10
14.6903 8.68781 -2.09556 0.00135948 10
14.838 8.77518 -1.50819 0.000608938 10
14.8362 8.77411 -0.903328 0.00061436 10
14.8242 8.76701 -0.300622 0.000617111 10
14.8341 8.77284 0.300821 0.00061716 10
14.8225 8.76598 0.902491 0.000614509 10
14.6649 8.67277 1.49058 0.0010756 10
14.6804 8.68196 2.09415 0.00106176 10
14.6682 8.67474 2.69908 0.00104343 10
14.6699 8.67576 3.31289 0.00102081 10
14.6705 8.67608 3.93491 0.000994119 10
14.6744 8.67841 4.56814 0.000963617 10
8.08888 4.82194 -2.52329 0.000584858 4
10.0884 6.01391 -2.71153 0.000390159 1
11.9642 7.13207 -2.70746 0.000221884 1
14.6521 8.73443 -2.70172 0.000110425 1
14.698 8.76177 -2.10102 0.00134777 10
14.7299 8.7808 -1.50031 0.000620142 10
14.7191 8.77434 -0.898057 0.000625659 10
14.7227 8.77649 -0.299183 0.000628457 10
14.7161 8.77254 0.299048 0.000628508 10
14.7169 8.77303 0.897924 0.00062581 10
14.6755 8.74837 1.49476 0.00106634 10
14.6756 8.74843 2.09782 0.00105262 10
14.6724 8.74651 2.70546 0.00103445 10
14.6836 8.75319 3.32286 0.00101201 10
14.6878 8.75569 3.94774 0.000985538 10
14.6774 8.74948 4.57855 0.000955288 10
8.07129 4.84972 -2.52307 0.00059834 4
10.0694 6.0503 -2.71208 0.000390147 1
11.9475 7.17877 -2.70934 0.000221876 1
14.625 8.78761 -2.70236 0.00011042 1
14.6801 8.82072 -2.10285 0.00133608 10
14.6854 8.8239 -1.4989 0.000894452 10
14.6875 8.82513 -0.898003 0.000902552 10
14.6953 8.82982 -0.29925 0.000906729 10
14.6913 8.82743 0.299169 0.000906943 10
14.6828 8.82231 0.897716 0.000903191 10
14.68 8.82061 1.49834 0.0010571 10
14.6867 8.82468 2.1038 0.00104349 10
14.6808 8.8211 2.71266 0.00102547 10
14.6954 8.82988 3.33248 0.00100322 10
14.6789 8.81997 3.95359 0.000976964 10
14.6863 8.82441 4.59091 0.000946966 10
8.07198 4.88856 -2.52861 0.000706293 4
9.35059 5.66292 -2.52378 0.000213973 4
11.9127 7.2146 -2.70715 0.000221868 1
14.5924 8.83747 -2.70202 0.000110415 1
14.7009 8.90319 -2.11027 0.00132439 10
24.4929 14.8334 -2.50519 3.52075e-05 10
24.7921 15.0146 -1.519 0.000221834 10
24.7851 15.0104 -0.505779 0.00022294 10
24.7942 15.0159 0.505964 0.00022296 10
17.6667 10.6993 1.08243 5.22333e-05 10
14.6847 8.89339 1.50199 0.00104786 10
14.6992 8.90216 2.11002 0.00103436 10
14.6799 8.89048 2.71822 0.00101649 10
14.6955 8.8999 3.33953 0.000994432 10
14.6965 8.90052 3.96668 0.000968398 10
14.6903 8.89678 4.60186 0.000938652 10
8.04641 4.91155 -2.52595 0.000697278 4
9.33732 5.69952 -2.52555 0.000396964 4
11.8882 7.25656 -2.70731 0.00022186 1
14.5687 8.89275 -2.70335 0.00011041 1
14.6926 8.96838 -2.11355 0.00131271 10
14.8108 9.04056 -1.5181 0.00060961 10
14.8027 9.03557 -0.908879 0.000615044 10
14.7983 9.03289 -0.302623 0.0006178 10
14.7978 9.03261 0.302614 0.000617848 10
14.82 9.04616 0.909944 0.00061519 10
14.704 8.97539 1.50716 0.00103863 10
14.6993 8.97246 2.11451 0.00102525 10
14.6829 8.96247 2.72455 0.00100753 10
14.6802 8.96082 3.34314 0.000985655 10
14.6875 8.96527 3.97267 0.000959841 10
14.6942 8.96939 4.61285 0.000930346 10
8.03632 4.94397 -2.52819 0.000701758 4
9.31013 5.72763 -2.52359 0.000335016 4
11.8569 7.29443 -2.70598 0.000221851 1
14.5434 8.94717 -2.70445 0.000110405 1
14.6981 9.04234 -2.11887 0.00130105 10
14.7066 9.04755 -1.51065 0.00087102 10
14.6959 9.04099 -0.904258 0.000878918 10
14.7081 9.04849 -0.301424 0.000628837 10
14.7014 9.04437 0.301287 0.000628887 10
14.704 9.04598 0.904757 0.000626183 10
14.7046 9.04633 1.51044 0.00102942 10
14.709 9.04906 2.12045 0.00101614 10
14.6978 9.04214 2.73316 0.000998578 10
14.7078 9.0483 3.3566 0.000976888 10
14.6954 9.04065 3.98331 0.000951293 10
14.6845 9.03395 4.61966 0.000922049 10
8.00252 4.96177 -2.52299 0.000629767 4
9.2887 5.75924 -2.52322 0.000425092 4
11.8408 7.34158 -2.70812 0.000221843 1
14.5096 8.99631 -2.70398 0.0001104 1
14.7095 9.12029 -2.12509 0.0012894 10
14.7148 9.12356 -1.51475 0.000863226 10
14.7066 9.11851 -0.906871 0.000871057 10
14.7027 9.11605 -0.301963 0.000875097 10
14.7029 9.11617 0.301967 0.000875306 10
14.7106 9.12099 0.907117 0.000871681 10
14.7078 9.11921 1.51403 0.00102021 10
14.7016 9.11541 2.12396 0.00100705 10
14.691 9.10883 2.7378 0.000989634 10
14.6948 9.11116 3.36087 0.00096813 10
14.6938 9.11057 3.99149 0.000942755 10
14.6883 9.10711 4.63083 0.000913762 10
7.98098 4.98707 -2.52167 0.000566775 4
9.25494 5.78313 -2.51952 0.000444784 4
11.8133 7.38179 -2.70772 0.000221835 1
14.4716 9.04288 -2.70277 0.000110394 1
14.7091 9.19125 -2.12965 0.00127776 10
14.9027 9.31226 -1.53744 0.000599627 10
14.8842 9.30068 -0.919815 0.000604982 10
14.8817 9.29911 -0.306304 0.000607698 10
14.8993 9.31011 0.306666 0.000607745 10
14.8811 9.29872 0.919622 0.000605124 10
14.7165 9.1959 1.51823 0.00101101 10
14.7131 9.19374 2.13023 0.000997969 10
14.6991 9.18503 2.74526 0.000980702 10
14.7159 9.19553 3.37302 0.000959384 10
14.7151 9.19499 4.00595 0.000934229 10
14.6942 9.18196 4.64278 0.000905486 10
7.96639 5.01671 -2.52258 0.000503787 4
9.23422 5.8151 -2.51939 0.00035469 4
11.7861 7.42207 -2.70739 0.000221826 1
14.4315 9.08802 -2.70119 0.000110389 1
14.7221 9.27101 -2.13621 0.00126614 10
14.7811 9.30814 -1.52823 0.000610132 10
14.779 9.30683 -0.915316 0.000615577 10
14.7906 9.31416 -0.305098 0.000618337 10
14.7915 9.31472 0.305116 0.000618385 10
14.7815 9.30841 0.915472 0.000615721 10
14.7122 9.26478 1.52111 0.00100183 10
14.7092 9.26286 2.13433 0.000988898 10
14.7164 9.2674 2.75451 0.000971782 10
14.7238 9.27207 3.38222 0.000950649 10
14.7163 9.26736 4.01508 0.000925713 10
14.7033 9.25918 4.65584 0.00089722 10
7.96799 5.05664 -2.52866 0.000584737 4
9.21664 5.84906 -2.52015 0.000377199 4
11.7661 7.46699 -2.70878 0.000221818 1
14.4017 9.13959 -2.70156 0.000110384 1
14.735 9.35114 -2.14281 0.00125454 10
14.7271 9.34607 -1.52601 0.000839904 10
14.7122 9.33664 -0.913192 0.000847535 10
14.7277 9.34649 -0.304471 0.000851473 10
14.7289 9.34723 0.304495 0.000851678 10
14.7335 9.35017 0.914515 0.000848148 10
14.7292 9.34741 1.52622 0.000992655 10
14.715 9.33842 2.1399 0.00097984 10
14.7244 9.34436 2.76209 0.000962874 10
14.7245 9.34447 3.38987 0.000941927 10
14.7217 9.34267 4.02541 0.000917209 10
14.7224 9.34313 4.67219 0.000888967 10
7.94739 5.08257 -2.52773 0.000593717 4
9.19399 5.8798 -2.51955 0.000346224 4
11.7378 7.5066 -2.70827 0.000221809 1
14.3888 9.20204 -2.70516 0.000110378 1
14.7356 9.42382 -2.14767 0.00124296 10
24.1437 15.4405 -2.50732 3.51841e-05 10
24.5395 15.6937 0.508442 0.000307605 10
17.3936 11.1237 1.08203 5.22898e-05 10
14.7374 9.42495 1.53048 0.000983498 10
14.7207 9.41426 2.14549 0.000970796 10
14.7238 9.41627 2.76814 0.00095398 10
14.7124 9.40899 3.39462 0.000933218 10
14.7145 9.41029 4.0324 0.000908719 10
14.731 9.42088 4.68533 0.000880727 10
7.9215 5.10506 -2.52515 0.000625185 4
9.19558 5.92614 -2.52564 0.000382804 4
11.7022 7.54152 -2.70611 0.0002218 1
14.3554 9.25141 -2.70492 0.000110373 1
14.7471 9.50386 -2.15416 0.00123139 10
14.8707 9.58351 -1.54779 0.000600271 10
14.8597 9.57641 -0.926474 0.000605637 10
14.8697 9.58288 -0.308782 0.000608358 10
14.8657 9.58031 0.308699 0.000608404 10
14.872 9.58432 0.927239 0.000605777 10
14.7185 9.48543 1.53195 0.000974354 10
14.7245 9.48928 2.15086 0.000961766 10
14.7258 9.49011 2.77472 0.0009451 10
14.7383 9.49816 3.40821 0.000924523 10
14.7184 9.48533 4.04251 0.000900242 10
14.7225 9.48801 4.69313 0.000872499 10
7.9011 5.13103 -2.52435 0.000553206 4
9.17485 5.95822 -2.52564 0.00039405 4
11.6903 7.59174 -2.70947 0.000221792 1
14.315 9.29626 -2.70341 0.000110368 1
14.7365 9.56997 -2.15747 0.00121984 10
14.7593 9.5848 -1.53966 0.000610494 10
14.7631 9.58724 -0.92253 0.000615947 10
14.7624 9.58678 -0.307246 0.000618712 10
14.7467 9.57664 0.30692 0.000618759 10
14.7569 9.58322 0.922144 0.000616089 10
14.7387 9.57139 1.53751 0.000965227 10
14.7395 9.57196 2.15792 0.000952751 10
14.7359 9.56959 2.7829 0.000936234 10
14.7217 9.56036 3.41207 0.000915842 10
14.7367 9.57013 4.0567 0.000891778 10
14.7419 9.57351 4.70994 0.000864285 10
7.89658 5.16737 -2.52865 0.000544196 4
9.15556 5.99123 -2.52607 0.000323674 4
11.6511 7.62426 -2.70655 0.000221783 1
14.2716 9.33904 -2.70135 0.000110362 1
14.7484 9.65105 -2.16413 0.00120831 10
14.7577 9.65718 -1.54301 0.000808974 10
14.7514 9.65305 -0.923903 0.000816339 10
14.7457 9.64929 -0.307597 0.000820141 10
14.7339 9.64162 0.307353 0.000820341 10
14.7452 9.64897 0.923512 0.000816936 10
14.7414 9.64651 1.5413 0.000956114 10
14.7386 9.64468 2.16271 0.000943751 10
14.7433 9.64775 2.79064 0.000927384 10
14.7299 9.63898 3.42176 0.000907176 10
14.747 9.65019 4.06879 0.00088333 10
14.743 9.64755 4.72101 0.000856086 10
7.85621 5.18022 -2.5215 0.000377779 4
9.12064 6.01395 -2.52221 0.000306776 4
11.6194 7.66156 -2.70538 0.000221774 1
14.2411 9.39025 -2.70177 0.000110356 1
14.7482 9.72467 -2.16909 0.0011968 10
14.9357 9.84829 -1.5652 0.000590876 10
14.927 9.84255 -0.937047 0.000596167 10
14.9257 9.84168 -0.312068 0.00059885 10
14.9393 9.85068 0.312353 0.000598896 10
14.9277 9.843 0.93709 0.000596303 10
14.7388 9.71841 1.54456 0.000947018 10
14.7331 9.71472 2.16686 0.000934768 10
14.7353 9.71616 2.79554 0.00091855 10
14.7553 9.7293 3.43551 0.000898526 10
14.7407 9.71972 4.07639 0.000874898 10
14.7339 9.71518 4.72891 0.000847902 10
7.85002 5.21554 -2.52534 0.000512685 4
9.0905 6.03971 -2.51969 0.000394012 4
11.6136 7.71606 -2.71029 0.000221765 1
14.2191 9.44717 -2.70385 0.000110351 1
14.7693 9.81269 -2.17721 0.00118532 10
14.8339 9.8556 -1.55813 0.000600739 10
14.8314 9.85398 -0.9332 0.000606116 10
14.8317 9.85416 -0.31082 0.00060884 10
14.824 9.84905 0.310658 0.000608886 10
14.8244 9.84929 0.932757 0.000606253 10
14.7506 9.80025 1.54937 0.000937939 10
14.7394 9.79285 2.1728 0.000925802 10
14.7478 9.79838 2.80436 0.000909732 10
14.7484 9.79883 3.44187 0.000889892 10
14.7433 9.79545 4.08654 0.000866481 10
14.7443 9.79607 4.74321 0.000839733 10
7.83365 5.24417 -2.52595 0.00189916 4
9.08647 6.08286 -2.52445 0.000422141 4
11.5889 7.75812 -2.71083 0.000221756 1
14.1951 9.50279 -2.70557 0.000110345 1
14.7645 9.88397 -2.18157 0.00117385 10
14.7605 9.88131 -1.55403 0.00078592 10
14.7632 9.88312 -0.931074 0.000793087 10
14.7666 9.88541 -0.310178 0.000796787 10
14.7558 9.87812 0.309949 0.000796984 10
14.7622 9.88242 0.931009 0.000793673 10
14.753 9.8763 1.55325 0.000928878 10
14.7612 9.88174 2.18108 0.000916853 10
14.7584 9.87988 2.81293 0.000900932 10
14.7571 9.87901 3.45192 0.000881276 10
14.7485 9.87328 4.09751 0.000858081 10
14.748 9.87295 4.75547 0.000831581 10
7.83685 5.28602 -2.53291 0.0016713 4
9.05499 6.10767 -2.52161 0.0003771 4
11.561 7.79803 -2.71066 0.000221747 1
14.1547 9.54749 -2.70421 0.000110339 1
14.76 9.95574 -2.18603 0.00116241 10
23.7483 16.0184 -2.50617 3.51593e-05 10
24.5954 16.5898 0.517847 0.000285541 10
17.1124 11.5424 1.08176 5.23496e-05 10
14.7664 9.96004 1.5583 0.000919837 10
14.7491 9.94837 2.18441 0.000907924 10
14.7639 9.95841 2.8206 0.000892151 10
14.7549 9.9523 3.45951 0.000872678 10
14.7576 9.95413 4.10966 0.0008497 10
14.7454 9.94591 4.76579 0.000823447 10
7.82888 5.3205 -2.53632 0.0018713 4
9.03291 6.13875 -2.52141 0.000419299 4
11.5259 7.833 -2.70882 0.000221738 1
14.1102 9.58925 -2.70207 0.000110334 1
14.7769 10.0424 -2.19371 0.001151 10
14.8847 10.1156 -1.5745 0.000591422 10
14.895 10.1226 -0.94382 0.000596725 10
14.8932 10.1214 -0.314313 0.000599412 10
14.8814 10.1134 0.314063 0.000599456 10
14.881 10.1131 0.942928 0.000596858 10
14.7591 10.0303 1.56122 0.000910814 10
14.772 10.039 2.19298 0.000899014 10
14.7637 10.0334 2.82722 0.00088339 10
14.7726 10.0394 3.47185 0.000864099 10
14.7616 10.032 4.12051 0.000841337 10
14.7622 10.0324 4.78251 0.00081533 10
7.82928 5.36082 -2.5425 0.00160709 4
9.02426 6.17904 -2.525 0.000385517 4
11.4951 7.87083 -2.70801 0.000221729 1
14.092 9.64897 -2.70502 0.000110328 1
14.7692 10.1127 -2.19779 0.00113961 10
14.7765 10.1177 -1.56679 0.000601024 10
14.7935 10.1293 -0.93962 0.000606408 10
14.7789 10.1193 -0.312644 0.000609136 10
14.7837 10.1226 0.312745 0.000609181 10
14.7913 10.1278 0.939479 0.000606543 10
14.7793 10.1196 1.56709 0.000901812 10
14.7695 10.1129 2.19783 0.000890123 10
14.7639 10.1091 2.83401 0.000874647 10
14.7799 10.12 3.48186 0.000855539 10
14.7574 10.1046 4.12914 0.000832991 10
14.7659 10.1104 4.79511 0.000807231 10
7.83868 5.40754 -2.55166 0.00158198 4
8.9978 6.20716 -2.52365 0.000239181 4
11.4636 7.90822 -2.70709 0.000221719 1
14.0487 9.69153 -2.70319 0.000110322 1
14.7864 10.2004 -2.20564 0.00112825 10
14.7731 10.1913 -1.57019 0.000755409 10
14.7903 10.2031 -0.941673 0.000762312 10
14.7923 10.2045 -0.313679 0.000765877 10
14.7852 10.1996 0.313528 0.000766068 10
14.7795 10.1957 0.940985 0.000762882 10
14.7892 10.2024 1.5719 0.00089283 10
14.7734 10.1915 2.2037 0.000881253 10
14.7849 10.1994 2.84486 0.000865924 10
14.764 10.185 3.48645 0.000846998 10
14.781 10.1967 4.14568 0.000824667 10
14.7633 10.1845 4.80577 0.000799152 10
7.82996 5.44197 -2.555 0.00184254 4
8.98327 6.24354 -2.52567 7.0345e-05 4
11.4366 7.94862 -2.70723 0.00022171 1
14.0069 9.73505 -2.70167 0.000110316 1
14.785 10.2758 -2.21076 0.00111691 10
14.9393 10.3831 -1.5917 0.000582504 10
14.9465 10.3881 -0.953926 0.000587735 10
14.9303 10.3768 -0.317372 0.000590386 10
14.9456 10.3875 0.317697 0.00059043 10
14.95 10.3905 0.954144 0.000587865 10
14.7823 10.2739 1.57496 0.00088387 10
14.779 10.2716 2.20987 0.000872404 10
14.7723 10.267 2.84931 0.000857223 10
14.7775 10.2706 3.49809 0.000838479 10
14.7701 10.2655 4.15264 0.000816361 10
14.7839 10.2751 4.82412 0.000791093 10
7.82211 5.4771 -2.55866 0.00162251 4
8.95767 6.27223 -2.52461 0.000118175 4
11.4151 7.99291 -2.70873 0.000221701 1
13.9782 9.78762 -2.7027 0.00011031 1
14.7963 10.3605 -2.21785 0.00110561 10
14.8317 10.3853 -1.58409 0.000591774 10
14.8297 10.3839 -0.948775 0.000597085 10
14.8287 10.3831 -0.315979 0.000599776 10
14.8417 10.3923 0.316257 0.00059982 10
14.8479 10.3966 0.949939 0.000597217 10
14.7882 10.3548 1.57943 0.000874933 10
14.7925 10.3578 2.21728 0.000863578 10
14.7943 10.359 2.86049 0.000848543 10
14.7863 10.3535 3.5087 0.000829981 10
14.791 10.3567 4.16865 0.000808077 10
14.7743 10.3451 4.83276 0.000783054 10
7.82931 5.52297 -2.5673 0.0014951 4
8.93845 6.30538 -2.52538 0.0003517 4
11.3913 8.03566 -2.70973 0.000221691 1
13.9433 9.83593 -2.70259 0.000110304 1
14.7941 10.4361 -2.22297 0.00109433 10
14.8083 10.4461 -1.58547 0.000732714 10
14.7923 10.4348 -0.948706 0.000739421 10
14.795 10.4368 -0.316038 0.000742886 10
14.7891 10.4326 0.315911 0.000743073 10
14.8011 10.441 0.94927 0.00073998 10
14.8003 10.4405 1.58462 0.000866018 10
14.8007 10.4407 2.22395 0.000854774 10
14.7931 10.4354 2.86729 0.000839886 10
14.7949 10.4367 3.51938 0.000821504 10
14.7861 10.4304 4.17752 0.000799814 10
14.7837 10.4288 4.84771 0.000775035 10
7.83545 5.56837 -2.57567 0.00188936 4
8.91161 6.33315 -2.52403 0.00032918 4
11.3626 8.07499 -2.7096 0.000221682 1
13.9148 9.88872 -2.70373 0.000110298 1
14.8034 10.5202 -2.22987 0.00108308 10
14.9931 10.6551 -1.60923 0.000573945 10
14.9817 10.6469 -0.963234 0.000579108 10
14.9769 10.6435 -0.320714 0.000581725 10
14.9957 10.6569 0.321116 0.000581767 10
14.9958 10.657 0.964139 0.000579235 10
14.8114 10.5259 1.58972 0.000857127 10
14.7855 10.5075 2.22717 0.0006921 10
14.7938 10.5134 2.87452 0.000679917 10
14.7874 10.5088 3.52628 0.000664907 10
14.8025 10.5196 4.19249 0.000791574 10
14.7891 10.5101 4.86149 0.000767038 10
7.82553 5.60253 -2.57882 0.0016734 4
8.89659 6.36933 -2.52606 0.000455771 4
11.3392 8.11804 -2.71075 0.000221672 1
13.8913 9.9452 -2.7059 0.000110292 1
14.817 10.6079 -2.23748 0.00107186 10
14.8966 10.6649 -1.60286 0.000582901 10
14.8866 10.6577 -0.959502 0.000588141 10
14.8938 10.6629 -0.31973 0.000590796 10
14.894 10.663 0.319733 0.000590839 10
14.8735 10.6483 0.958657 0.000588269 10
14.7963 10.5931 1.59207 0.000848259 10
14.689 10.5163 2.21816 0.000702882 10
14.6957 10.5211 2.86258 0.000690517 10
14.6913 10.518 3.51212 0.000675284 10
14.7983 10.5945 4.20176 0.000783356 10
14.7997 10.5956 4.8771 0.000759063 10
7.83214 5.64872 -2.58749 0.00142315 4
8.85826 6.38878 -2.52149 0.000379796 4
11.2923 8.14424 -2.70631 0.000221662 1
13.8363 9.97904 -2.70195 0.000110286 1
14.8162 10.6857 -2.24297 0.00106068 10
14.8237 10.6912 -1.59902 0.000710199 10
14.8172 10.6865 -0.957431 0.000716712 10
14.8139 10.6841 -0.318813 0.000720077 10
14.8079 10.6798 0.318683 0.00072026 10
14.8225 10.6903 0.957774 0.000717259 10
14.8137 10.6839 1.59793 0.000839418 10
14.5967 10.5275 2.20976 0.000713745 10
14.5932 10.5249 2.84975 0.000701198 10
14.5952 10.5264 3.49789 0.00068574 10
14.8162 10.6857 4.2174 0.000775162 10
14.7962 10.6713 4.88817 0.000751112 10
7.81994 5.68151 -2.58999 0.00136243 4
8.83306 6.41759 -2.52068 0.000410727 4
11.2728 8.1902 -2.7085 0.000221653 1
13.8085 10.0325 -2.70335 0.00011028 1
14.8255 10.7714 -2.25007 0.00104953 10
14.9901 10.8909 -1.62106 0.000119369 10
24.6712 17.9247 0.532297 0.000254848 10
16.6888 12.1251 1.08109 5.24409e-05 10
14.8185 10.7663 1.60251 0.000830603 10
14.5019 10.5362 2.20095 0.000724688 10
14.4949 10.5312 2.83773 0.000711957 10
14.4938 10.5304 3.48239 0.000696274 10
14.8174 10.7655 4.22843 0.000766992 10
14.8127 10.762 4.90601 0.000743183 10
7.8085 5.71496 -2.59279 0.00168342 4
8.82106 6.45604 -2.52367 0.000275684 4
11.2409 8.22709 -2.7077 0.000221643 1
13.7716 10.0793 -2.70299 0.000110274 1
14.8243 10.8498 -2.25562 0.00103841 10
14.9267 10.9247 -1.61832 0.000574369 10
14.9206 10.9203 -0.969016 0.000579541 10
14.9233 10.9222 -0.3228 0.000582161 10
14.9374 10.9325 0.323105 0.000582203 10
14.9255 10.9238 0.969332 0.000579666 10
14.8331 10.8562 1.60817 0.000821812 10
14.4472 10.5738 2.19825 0.000868447 10
14.4437 10.5712 2.8349 0.000853354 10
14.4409 10.5692 3.47852 0.000834718 10
14.8074 10.8374 4.23635 0.000758847 10
14.811 10.84 4.91796 0.000735279 10
7.82306 5.76765 -2.6043 0.00135308 4
8.79397 6.48347 -2.52238 0.000405072 4
11.2107 8.26521 -2.70735 0.000221633 1
13.7405 10.1304 -2.70381 0.000110268 1
14.844 10.944 -2.26442 0.00102732 10
14.8408 10.9416 -1.61313 0.000687881 10
14.8349 10.9372 -0.965919 0.0006942 10
14.8232 10.9286 -0.321459 0.000697466 10
14.8395 10.9406 0.321811 0.000697645 10
14.8281 10.9322 0.965476 0.000694736 10
14.8295 10.9332 1.6119 0.00081305 10
14.4371 10.644 2.20235 0.000859224 10
14.4444 10.6493 2.84232 0.000844285 10
14.4471 10.6513 3.48895 0.000825837 10
14.8159 10.9232 4.24965 0.000750726 10
14.829 10.9329 4.93657 0.0007274 10
7.81804 5.80619 -2.60936 0.00137851 4
8.76947 6.51278 -2.52186 0.00032067 4
11.1787 8.30206 -2.70663 0.000221623 1
13.7083 10.1807 -2.70445 0.000110261 1
14.8315 11.0148 -2.26836 0.00101627 10
14.8467 11.0262 -1.61795 0.000680488 10
14.8287 11.0127 -0.968013 0.000686743 10
14.8262 11.0109 -0.322355 0.000689976 10
14.835 11.0174 0.322545 0.000690154 10
14.8388 11.0203 0.968677 0.000687274 10
14.8243 11.0095 1.61551 0.000804315 10
14.8392 11.0205 4.26733 0.000742632 10
14.8381 11.0197 4.95238 0.000719545 10
7.812 5.84412 -2.61413 0.00182318 4
8.75562 6.55004 -2.52443 0.000410667 4
11.1465 8.33868 -2.70586 0.000221613 1
13.6688 10.2256 -2.70368 0.000110255 1
14.8507 11.1098 -2.27722 0.00100526 10
14.84 11.1017 -1.62143 0.00011932 10
14.9588 11.1906 -0.979053 0.000571254 10
14.9713 11.1999 -0.326357 0.000573841 10
14.9627 11.1935 0.326169 0.000573881 10
14.9622 11.1931 0.979273 0.000571376 10
14.848 11.1077 1.62231 0.000795607 10
14.912 11.1556 2.28662 0.000494967 10
14.9021 11.1482 2.94763 0.000486307 10
14.9015 11.1477 3.61738 0.000475614 10
14.8434 11.1043 4.27969 0.000734564 10
14.8299 11.0942 4.96253 0.000711716 10
7.8028 5.87983 -2.61791 0.0012254 4
8.71736 6.569 -2.52 0.000343147 4
11.1302 8.38719 -2.70898 0.000221603 1
13.636 10.2755 -2.70428 0.000110249 1
14.856 11.1948 -2.284 0.000994281 10
14.8501 11.1903 -1.62679 0.00100795 10
14.8538 11.1931 -0.974729 0.000579754 10
14.8741 11.2084 -0.325089 0.000582378 10
14.8532 11.1927 0.324634 0.000582419 10
14.8709 11.206 0.97585 0.000579878 10
14.8531 11.1926 1.62712 0.00078693 10
14.83 11.1752 4.28702 0.000726523 10
14.8477 11.1886 4.98154 0.000703914 10
7.80427 5.92376 -2.62532 0.00160477 4
8.71645 6.61614 -2.5264 0.000351572 4
11.1061 8.42995 -2.71025 0.000221593 1
13.5974 10.321 -2.70375 0.000110242 1
14.8585 11.2782 -2.29043 0.000983342 10
14.8676 11.2851 -1.63302 0.000996863 10
14.8534 11.2744 -0.977283 0.000664517 10
14.8634 11.2819 -0.325714 0.000667653 10
14.8517 11.2731 0.325459 0.000667827 10
14.8487 11.2708 0.976972 0.000665037 10
14.8573 11.2773 1.63188 0.000778282 10
14.8557 11.2761 4.30581 0.00071851 10
14.8382 11.2628 4.99151 0.000696139 10
7.81026 5.97139 -2.63433 0.00166177 4
8.68797 6.64245 -2.52485 0.000326247 4
11.0799 8.47123 -2.71107 0.000221582 1
13.5749 10.3788 -2.70646 0.000110236 1
14.8641 11.3645 -2.29739 0.000972441 10
14.8675 11.3671 -1.63736 0.00098582 10
14.8513 11.3547 -0.979743 0.000994904 10
14.8483 11.3524 -0.32625 0.000999601 10
14.8496 11.3534 0.326278 0.000999863 10
14.8555 11.3579 0.980019 0.000995685 10
14.8616 11.3626 1.63671 0.000769664 10
14.856 11.3582 4.31735 0.000710525 10
14.8536 11.3564 5.01 0.000688391 10
7.79318 6.00155 -2.63562 0.000592741 4
8.65537 6.66553 -2.52212 0.000407793 4
11.0389 8.50106 -2.70827 0.000221572 1
13.5331 10.4219 -2.70537 0.00011023 1
14.8795 11.4587 -2.30593 0.000961579 10
14.8722 11.4531 -1.64226 0.000974817 10
14.856 11.4406 -0.982683 0.000983806 10
14.8703 11.4517 -0.32761 0.000988454 10
14.8685 11.4503 0.327571 0.000988713 10
14.8701 11.4515 0.983617 0.000984581 10
14.8714 11.4525 1.64218 0.000761077 10
14.8487 11.435 4.32681 0.000702569 10
14.8503 11.4362 5.0223 0.000680672 10
7.78786 6.04088 -2.64094 0.000426272 4
8.64571 6.70629 -2.52611 0.00041059 4
11.0042 8.5357 -2.70705 0.000221562 1
13.4917 10.4652 -2.70437 0.000110223 1
14.8802 11.5422 -2.31227 0.000950757 10
14.8724 11.5362 -1.64672 0.000963854 10
14.8826 11.5441 -0.987101 0.000972748 10
14.8777 11.5403 -0.328659 0.000977347 10
14.8616 11.5279 0.328303 0.000977605 10
14.8739 11.5373 0.986523 0.000973517 10
14.8757 11.5388 1.64709 0.000752522 10
14.86 11.5266 4.3418 0.000694643 10
14.8557 11.5233 5.03772 0.000672981 10
7.74752 6.05302 -2.63441 0.000604881 4
8.62135 6.73573 -2.52585 0.000337458 4
10.9841 8.58173 -2.70948 0.000221551 1
13.4632 10.5186 -2.70601 0.000110216 1
14.8694 11.6172 -2.31688 0.000939976 10
14.8791 11.6248 -1.65195 0.000952933 10
14.8836 11.6283 -0.989852 0.000961731 10
14.8782 11.6241 -0.329563 0.000966281 10
14.8809 11.6262 0.329624 0.000966537 10
14.8864 11.6305 0.990041 0.000962494 10
14.8642 11.6132 1.65029 0.000743998 10
14.9377 11.6706 2.32753 0.000414685 10
14.9462 11.6773 3.00408 0.000407326 10
14.9511 11.6811 3.68803 0.000444665 10
14.8604 11.6102 4.35373 0.000686746 10
14.8732 11.6202 5.05736 0.000665319 10
7.74629 6.09572 -2.64121 0.000625158 4
8.59424 6.763 -2.52481 0.000345881 4
10.9482 8.6154 -2.70802 0.000221541 1
13.4148 10.5564 -2.70367 0.00011021 1
14.8899 11.7172 -2.32644 0.000929236 10
14.881 11.7102 -1.65668 0.000942052 10
19.8345 15.6082 -1.32274 0.000430027 10
19.8362 15.6096 -0.440592 0.000432185 10
19.8426 15.6145 0.440733 0.000432307 10
16.1904 12.7406 1.07972 5.2549e-05 10
14.8697 11.7013 1.65542 0.000663555 10
14.8785 11.7082 2.32465 0.000463395 10
14.8687 11.7005 2.9967 0.000455265 10
14.8817 11.7108 3.68097 0.000445227 10
14.8868 11.7148 4.37343 0.00067888 10
14.8642 11.6969 5.06814 0.000657687 10
7.7082 6.10944 -2.63548 0.000775332 4
8.57431 6.79591 -2.52591 0.000390858 4
10.9322 8.66477 -2.71153 0.00022153 1
13.3764 10.602 -2.70337 0.000110203 1
14.8997 11.8094 -2.3344 0.000918539 10
14.9 11.8096 -1.66338 0.000931216 10
24.8018 19.6576 0.552405 0.000219612 10
16.16 12.8083 1.08067 5.25592e-05 10
14.7873 11.7203 1.6508 0.000672977 10
14.7735 11.7093 2.31462 0.000664052 10
14.7722 11.7083 2.98546 0.00065228 10
14.7895 11.722 3.66825 0.000637779 10
14.791 11.7232 4.35727 0.000620697 10
14.7787 11.7134 5.05292 0.000601207 10
7.69465 6.14256 -2.63816 0.000543932 4
8.53802 6.81581 -2.52221 0.000351478 4
10.8959 8.69805 -2.71003 0.00022152 1
13.3466 10.6545 -2.70485 0.000110197 1
14.907 11.9001 -2.34204 0.000907884 10
14.8928 11.8887 -1.6672 0.000920422 10
24.856 19.8423 -1.66681 0.000196044 10
24.8639 19.8486 -0.555328 0.000197042 10
24.8054 19.8019 0.554021 0.000216766 10
16.0968 12.8499 1.07943 5.25695e-05 10
14.6764 11.716 1.64297 0.000682459 10
14.6765 11.7161 2.30583 0.000673414 10
14.6804 11.7192 2.97515 0.000661484 10
14.6763 11.7159 3.6503 0.000646788 10
14.6922 11.7286 4.3402 0.000629476 10
14.6894 11.7264 5.03635 0.000609725 10
7.66846 6.1656 -2.63654 0.000726572 4
8.51592 6.84697 -2.52272 0.000300853 4
10.85 8.72362 -2.70618 0.000221509 1
13.2986 10.6923 -2.70266 0.00011019 1
14.8945 11.9755 -2.34663 0.000897273 10
14.9017 11.9813 -1.67287 0.000909673 10
24.8258 19.9604 -1.66945 0.000212739 10
24.8284 19.9626 -0.55609 0.000213871 10
24.8241 19.9591 0.555993 0.000213935 10
16.0582 12.9111 1.07986 5.25799e-05 10
14.5956 11.7351 1.6385 0.000692 10
14.5925 11.7327 2.29904 0.000682836 10
14.5791 11.7219 2.9629 0.000670746 10
14.5879 11.729 3.63848 0.000655854 10
14.5792 11.722 4.31889 0.000638312 10
14.5825 11.7246 5.01371 0.000618296 10
7.64182 6.18822 -2.63479 0.000592602 4
8.49631 6.88018 -2.52401 0.000416117 4
10.8362 8.775 -2.71036 0.000221498 1
13.282 10.7555 -2.7069 0.000110183 1
14.9084 12.0726 -2.35544 0.000886707 10
14.9015 12.067 -1.67756 0.000898969 10
24.7844 20.07 -1.67137 0.000196218 10
24.8308 20.1076 -0.557711 0.000211055 10
24.8296 20.1066 0.557685 0.000211118 10
16.0051 12.9606 1.07932 5.25903e-05 10
14.5322 11.7679 1.63599 0.000751991 10
14.516 11.7548 2.29344 0.000742185 10
14.5198 11.7579 2.95917 0.000729197 10
14.5221 11.7598 3.63229 0.00071316 10
14.5076 11.7481 4.30981 0.000694237 10
14.5195 11.7577 5.00614 0.000672618 10
7.62443 6.21834 -2.63627 0.000413996 4
8.47514 6.91216 -2.52488 0.000449838 4
10.7945 8.80374 -2.70759 0.000221487 1
13.2333 10.7928 -2.70465 0.000110176 1
14.9181 12.1669 -2.36367 0.000876186 10
14.9183 12.1671 -1.68423 0.000888311 10
24.611 20.0723 -1.66439 0.00019926 10
15.9655 13.0212 1.07971 5.26008e-05 10
14.5273 11.8482 1.64008 0.000743121 10
14.5314 11.8515 2.30239 0.000733425 10
14.5155 11.8386 2.96671 0.000720584 10
14.5296 11.85 3.64447 0.000704728 10
14.533 11.8528 4.32961 0.000686018 10
14.5192 11.8416 5.02023 0.000664643 10
7.60014 6.24282 -2.63538 0.000344985 4
8.44991 6.94084 -2.52457 0.000340176 4
10.7622 8.8402 -2.70723 0.000221476 1
13.2051 10.8468 -2.70661 0.000110169 1
14.9335 12.2665 -2.37288 0.000865712 10
14.9233 12.2582 -1.68962 0.0008777 10
24.4546 20.0872 -1.65854 0.000202324 10
31.5828 25.9424 -0.713416 8.85663e-05 10
31.5838 25.9432 0.713436 8.85735e-05 10
15.9091 13.0678 1.07897 5.26113e-05 10
14.5274 11.9329 1.64479 0.000734289 10
14.5393 11.9427 2.31024 0.000724704 10
14.54 11.9433 2.98021 0.000712009 10
14.5367 11.9406 3.6567 0.000696333 10
14.5303 11.9353 4.34119 0.000677836 10
14.5287 11.934 5.03791 0.000656704 10
7.59347 6.28186 -2.64066 0.000409909 4
8.42629 6.97083 -2.52476 0.000314861 4
10.7457 8.8896 -2.71086 0.000221466 1
13.163 10.8894 -2.70575 0.000110162 1
14.9199 12.3428 -2.37756 0.000855285 10
14.9317 12.3525 -1.69543 0.000867136 10
24.2829 20.0885 -1.65164 0.000205411 10
31.3802 25.9599 -0.710881 9.00233e-05 10
31.3634 25.9461 0.710501 9.00306e-05 10
15.8612 13.1215 1.07883 5.2622e-05 10
14.5331 12.0228 1.65018 0.000725497 10
14.5339 12.0235 2.31603 0.000716021 10
14.5284 12.0189 2.98641 0.000703471 10
14.5346 12.024 3.66669 0.000687975 10
14.5287 12.0192 4.35323 0.000669689 10
14.5425 12.0306 5.0572 0.0006488 10
7.57318 6.30973 -2.64125 0.000491062 4
8.40592 7.00355 -2.52597 0.000371071 4
10.7148 8.92721 -2.7109 0.000221454 1
13.1287 10.9384 -2.70652 0.000110156 1
14.9467 12.4531 -2.38874 0.000844904 10
14.9459 12.4525 -1.70198 0.00085662 10
24.1271 20.1019 -1.64581 0.00020852 10
31.1735 25.9727 -0.708247 9.57143e-05 10
31.1691 25.9691 0.708147 9.57457e-05 10
15.8249 13.1848 1.07948 5.26327e-05 10
14.5546 12.1264 1.65741 0.000716743 10
14.5389 12.1133 2.32355 0.000707377 10
14.5378 12.1124 2.99702 0.000694972 10
14.5426 12.1164 3.67936 0.000679653 10
14.5341 12.1093 4.36747 0.00066158 10
14.543 12.1168 5.07206 0.000640932 10
7.54006 6.32686 -2.63738 0.00018262 4
8.36986 7.02314 -2.52248 0.000342945 4
10.6697 8.95293 -2.70738 0.000221443 1
13.0904 10.9842 -2.70653 0.000110149 1
14.9363 12.533 -2.39405 0.000834572 10
14.9345 12.5316 -1.70565 0.000846152 10
23.9763 20.1185 -1.6403 0.000211651 10
31.2024 26.1819 -0.710978 9.43139e-05 10
31.1991 26.1791 0.710901 9.4345e-05 10
15.7845 13.2448 1.07987 5.26434e-05 10
14.5468 12.2062 1.66136 0.00070803 10
14.5474 12.2067 2.33171 0.000698772 10
14.556 12.2139 3.00954 0.000686512 10
14.5456 12.2052 3.69089 0.000671372 10
14.5493 12.2083 4.38484 0.000653508 10
14.5475 12.2068 5.08847 0.0006331 10
7.5277 6.3614 -2.64081 0.000312472 4
8.34152 7.04913 -2.52134 0.000385095 4
10.6525 9.00206 -2.71098 0.000221432 1
13.0445 11.0235 -2.70498 0.000110142 1
14.9532 12.6364 -2.40381 0.000824289 10
14.939 12.6245 -1.71119 0.000835734 10
23.8132 20.1237 -1.63394 0.000214804 10
31.621 26.7218 -0.722636 5.68084e-05 10
31.6261 26.7261 0.722751 5.6813e-05 10
15.7359 13.2978 1.07972 5.26542e-05 10
14.5529 12.2982 1.66696 0.000699357 10
14.5678 12.3107 2.34186 0.000690208 10
14.5573 12.3019 3.01867 0.000678091 10
14.5459 12.2923 3.70183 0.000663128 10
14.5523 12.2977 4.39864 0.000645474 10
14.5573 12.3018 5.10687 0.000625305 10
7.50106 6.3839 -2.63927 0.000584343 4
8.31775 7.07896 -2.52161 0.000342917 4
10.6108 9.03051 -2.70838 0.000221421 1
13.0043 11.0675 -2.70463 0.000110135 1
14.9495 12.723 -2.41035 0.000814055 10
14.9485 12.7222 -1.71735 0.000825366 10
23.6594 20.1358 -1.6282 0.000217977 10
31.7121 26.9891 -0.726867 5.58984e-05 10
31.6978 26.977 0.726539 5.59028e-05 10
15.6846 13.3487 1.07939 5.26651e-05 10
14.5609 12.3923 1.67281 0.000690726 10
14.562 12.3933 2.34787 0.000681685 10
14.5607 12.3921 3.02832 0.00066971 10
14.5556 12.3878 3.71528 0.000654925 10
14.5536 12.3861 4.41207 0.000637478 10
14.5613 12.3926 5.12343 0.000617547 10
7.47114 6.40354 -2.63659 0.000681709 4
8.29739 7.11172 -2.52295 0.000421602 4
10.576 9.0647 -2.70754 0.00022141 1
12.9615 11.1093 -2.70378 0.000110128 1
14.9619 12.8239 -2.41954 0.000803871 10
14.9712 12.8319 -1.72509 0.000815049 10
23.509 20.1496 -1.62268 0.000221173 10
23.5114 20.1517 -0.54051 0.000146828 10
23.5159 20.1556 0.540613 0.000146839 10
15.6372 13.4027 1.07934 5.26761e-05 10
14.5723 12.49 1.67913 0.000682136 10
14.5672 12.4856 2.35571 0.000673203 10
14.5619 12.481 3.03762 0.000661371 10
14.5793 12.4959 3.73242 0.000646761 10
14.5735 12.491 4.43129 0.000629521 10
14.5656 12.4842 5.14025 0.000609828 10
7.14448 6.16695 -2.52889 0.000624397 4
8.2826 7.14935 -2.52603 0.000410342 4
10.5525 9.10868 -2.70966 0.000221398 1
12.9307 11.1615 -2.70547 0.00011012 1
14.9739 12.9251 -2.42877 0.000793739 10
14.9585 12.9118 -1.72881 0.000804784 10
23.3586 20.1626 -1.61715 0.000224389 10
23.4815 20.2687 -0.541444 0.000148091 10
23.4935 20.279 0.541721 0.000148136 10
15.5998 13.4654 1.07999 5.26871e-05 10
14.5735 12.5795 1.68431 0.000673589 10
14.5824 12.5872 2.36527 0.000664763 10
14.5668 12.5737 3.04778 0.000653073 10
14.5677 12.5745 3.74067 0.000638637 10
14.5694 12.576 4.44338 0.000621604 10
14.573 12.5791 5.15832 0.000602147 10
7.11613 6.18595 -2.52648 0.000543521 4
8.24525 7.16748 -2.52225 0.000281044 4
10.521 9.14573 -2.70974 0.000221387 1
12.8814 11.1976 -2.7033 0.000110113 1
14.9733 13.0161 -2.43602 0.000783658 10
14.9792 13.0212 -1.73644 0.00079457 10
23.1998 20.1673 -1.61102 0.000227626 10
23.2152 20.1807 -0.536926 0.000151643 10
23.2201 20.1849 0.537039 0.00015169 10
15.5361 13.5053 1.07884 5.26982e-05 10
14.5737 12.6687 1.68944 0.000665085 10
14.5867 12.68 2.37312 0.000656365 10
14.5893 12.6823 3.06174 0.000644816 10
14.5768 12.6714 3.75435 0.000630555 10
14.5817 12.6756 4.46058 0.000613728 10
14.5767 12.6713 5.17524 0.000594505 10
7.09259 6.20909 -2.5258 0.000498584 4
8.21691 7.19336 -2.52125 0.000376583 4
10.4901 9.18337 -2.71003 0.000221376 1
12.8557 11.2543 -2.70615 0.000110106 1
14.9745 13.1092 -2.44365 0.00077363 10
14.9778 13.1121 -1.74158 0.00078441 10
23.2271 20.3338 -0.538839 0.000149508 10
23.2195 20.3272 0.538663 0.000149555 10
15.499 13.5683 1.07955 5.27093e-05 10
14.5832 12.7666 1.69569 0.000656625 10
14.5845 12.7677 2.38 0.000648012 10
14.5964 12.7781 3.07255 0.000636603 10
14.5791 12.763 3.76638 0.000622515 10
14.592 12.7744 4.47737 0.000605893 10
14.5799 12.7638 5.19219 0.000586904 10
7.06934 6.23246 -2.52526 0.000646788 4
8.19836 7.22783 -2.52328 0.000368137 4
10.4609 9.22252 -2.71079 0.000221364 1
12.8066 11.2905 -2.70408 0.000110099 1
14.9973 13.2219 -2.45489 0.000763654 10
14.9792 13.2059 -1.74708 0.000774303 10
22.9468 20.2303 -1.60321 0.000152325 10
22.941 20.2252 -0.533836 0.000153129 10
22.9393 20.2237 0.533796 0.000153176 10
15.4464 13.6178 1.07919 5.27205e-05 10
14.5871 12.8602 1.70135 0.000648209 10
14.5882 12.8612 2.38792 0.000639701 10
14.5916 12.8642 3.08099 0.000628432 10
14.6017 12.8731 3.78382 0.000614516 10
14.5999 12.8715 4.49353 0.000598097 10
14.5903 12.8631 5.21183 0.000579341 10
7.05857 6.26689 -2.52921 0.000646764 4
8.16977 7.25345 -2.52226 0.000421512 4
10.4285 9.25882 -2.71074 0.000221352 1
12.7633 11.3318 -2.70329 0.000110091 1
15.0047 13.3217 -2.46369 0.000753732 10
14.995 13.3132 -1.75434 0.000764251 10
22.7541 20.2021 -1.59467 0.000156849 10
22.7432 20.1924 -0.530871 0.000157637 10
22.7442 20.1932 0.530893 0.000157649 10
15.407 13.679 1.07977 5.27318e-05 10
14.6107 12.972 1.70938 0.000639837 10
14.6089 12.9704 2.39871 0.000631434 10
14.6019 12.9642 3.0927 0.000620305 10
14.5953 12.9583 3.79386 0.000606561 10
14.6082 12.9698 4.51001 0.000590344 10
14.589 12.9527 5.22749 0.00057182 10
7.01871 6.27545 -2.52276 0.000633267 4
8.1474 7.28461 -2.52319 0.000275376 4
10.3852 9.28543 -2.7079 0.000221341 1
12.7308 11.3827 -2.70481 0.000110084 1
14.996 13.408 -2.46994 0.000743864 10
14.998 13.4098 -1.76016 0.000754252 10
22.6857 20.2833 -1.59483 0.000153826 10
22.6875 20.285 -0.53122 0.000154636 10
22.6793 20.2777 0.531029 0.000154685 10
15.3371 13.713 1.07822 5.27431e-05 10
14.614 13.0664 1.71509 0.000631511 10
14.6012 13.055 2.40491 0.000623213 10
14.5992 13.0532 3.10175 0.000612221 10
14.6031 13.0567 3.8077 0.000598648 10
14.5952 13.0496 4.52003 0.000582633 10
14.6014 13.0552 5.24825 0.000564339 10
7.01213 6.31375 -2.5283 0.000139224 4
8.1281 7.31857 -2.52511 0.00035123 4
10.3591 9.3274 -2.70958 0.000221329 1
12.7022 11.4371 -2.70718 0.000110077 1
15.0139 13.5186 -2.48064 0.00073405 10
15.0018 13.5077 -1.76613 0.00074431 10
22.4674 20.2298 -1.58444 0.000161246 10
22.4495 20.2136 -0.527297 0.000162055 10
22.4571 20.2204 0.527473 0.000162067 10
15.2938 13.7706 1.07854 5.27545e-05 10
14.6079 13.153 1.71975 0.00062323 10
14.6175 13.1616 2.41514 0.000615036 10
14.609 13.154 3.11357 0.000604182 10
14.6237 13.1672 3.82504 0.000590779 10
14.6153 13.1597 4.54045 0.000574964 10
