VERSION 0.7
FIELDS x y z intensity label
SIZE 4 4 4 4 4
TYPE F F F F F
COUNT 1 1 1 1 1
WIDTH 1143
HEIGHT 1
VIEWPOINT 10.0654 53.9641 2.72887 0.730586 0.000258145 0.000652938 -0.68282
POINTS 1143
DATA ascii
-12.9919 -18.2814 -2.75377 4.10101e-05 1
-13.7693 -19.3753 -2.07958 0.000383681 10
-13.7815 -19.3925 -1.24682 0.000387199 10
-13.7672 -19.3723 -0.414837 0.000388925 10
-13.7776 -19.3869 0.41515 0.000388842 10
-13.7691 -19.375 1.2457 0.000386951 10
-15.4816 -21.7847 5.19492 0.000184707 10
-15.4835 -21.7873 6.17081 0.000179345 10
-14.7877 -20.8083 6.84013 0.000102167 10
-5.48575 -7.77655 -2.55 0.000221944 4
-6.37922 -9.04312 -2.55496 0.000360108 4
-8.13396 -11.5306 -2.74287 0.000211521 1
-10.0099 -14.1899 -2.75039 0.000103947 1
-12.9354 -18.3371 -2.75534 4.10135e-05 1
-13.7534 -19.4967 -2.08744 0.000380867 10
-13.7586 -19.5041 -1.2509 0.000384361 10
-13.75 -19.4919 -0.416367 0.000386076 10
-13.7575 -19.5025 0.416593 0.000385993 10
-13.7583 -19.5036 1.25087 0.000384114 10
-15.3702 -21.7886 5.18302 0.000184811 10
-15.386 -21.8111 6.1623 0.000179449 10
-14.7148 -20.8596 6.84006 0.000102163 10
-5.46509 -7.80496 -2.55304 0.000452608 4
-6.34599 -9.06301 -2.5543 0.000322215 4
-8.10758 -11.5788 -2.74759 0.000211532 1
-9.9562 -14.2189 -2.74925 0.000103953 1
-12.8609 -18.3673 -2.75311 4.1017e-05 1
-13.7462 -19.6316 -2.09673 0.000378032 10
-13.7453 -19.6303 -1.25591 0.000381502 10
-13.7386 -19.6207 -0.418092 0.000383206 10
-13.7348 -19.6153 0.417976 0.000383123 10
-13.7411 -19.6243 1.25553 0.000381256 10
-15.2706 -21.8086 5.17507 0.000184897 10
-15.263 -21.7978 6.14345 0.000179535 10
-14.6482 -20.9199 6.843 0.000102159 10
-5.42846 -7.81052 -2.54865 0.000552723 4
-6.31295 -9.08314 -2.55375 0.000330351 4
-8.06327 -11.6015 -2.74628 0.000211542 1
-9.90657 -14.2537 -2.74927 0.00010396 1
-12.7956 -18.4104 -2.75286 4.10204e-05 1
-13.7166 -19.7356 -2.10271 0.000375177 10
-13.7304 -19.7554 -1.26084 0.000378624 10
-13.7183 -19.738 -0.419569 0.000380316 10
-13.7199 -19.7403 0.419617 0.000380233 10
-13.7221 -19.7435 1.26008 0.000378378 10
-15.1643 -21.8185 5.16482 0.000184965 10
-15.1608 -21.8135 6.13291 0.000179604 10
-14.566 -20.9577 6.8387 0.000102155 10
-5.40583 -7.83619 -2.55085 0.000413468 4
-6.28125 -9.10519 -2.55377 0.000305993 4
-8.01859 -11.6236 -2.74487 0.000211553 1
-9.86056 -14.2937 -2.75033 0.000103966 1
-12.7454 -18.4755 -2.75593 4.10239e-05 1
-13.7297 -19.9024 -2.11537 0.00041427 10
-13.7293 -19.9018 -1.26712 0.000418065 10
-13.718 -19.8854 -0.421681 0.00041992 10
-13.7333 -19.9075 0.422149 0.000419815 10
-13.7241 -19.8943 1.26664 0.00041775 10
-15.0586 -21.8286 5.15474 0.000185014 10
-15.0496 -21.8156 6.11871 0.000179654 10
-14.4909 -21.0058 6.83786 0.000102151 10
-5.37651 -7.85219 -2.54994 0.000352548 4
-6.24146 -9.11542 -2.55051 0.000346626 4
-7.98507 -11.6619 -2.74731 0.000211563 1
-9.80597 -14.3213 -2.74903 0.000103973 1
-12.6663 -18.4986 -2.75277 4.10274e-05 1
-13.7278 -20.0489 -2.12583 0.000409227 10
-13.72 -20.0375 -1.2727 0.000412981 10
-13.7255 -20.0455 -0.424058 0.000414815 10
-13.7298 -20.0519 0.424193 0.00041471 10
-13.7315 -20.0543 1.27377 0.000412667 10
-14.947 -21.8295 5.14261 0.000185045 10
-14.9488 -21.8322 6.10868 0.000179687 10
-14.4225 -21.0635 6.84021 0.000102147 10
-5.3507 -7.87332 -2.55072 0.000439612 4
-6.20473 -9.12997 -2.54851 0.00038997 4
-7.93612 -11.6776 -2.74448 0.000211574 1
-9.75027 -14.3471 -2.74744 0.000103979 1
-12.6119 -18.5578 -2.75501 4.10309e-05 1
-13.7301 -20.2032 -2.1371 0.000404186 10
-13.7167 -20.1836 -1.27893 0.000407896 10
-13.7322 -20.2064 -0.426444 0.000409709 10
-13.7327 -20.2071 0.426459 0.000409605 10
-13.7337 -20.2085 1.2805 0.000407585 10
-14.84 -21.8363 5.13197 0.000185058 10
-14.8413 -21.8383 6.09587 0.000179702 10
-14.353 -21.1199 6.8422 0.000102143 10
-5.31497 -7.87976 -2.54678 0.000191521 4
-6.18629 -9.17155 -2.55407 0.000330404 4
-7.89855 -11.7101 -2.74561 0.000211584 1
-9.69723 -14.3767 -2.74662 0.000103986 1
-12.5407 -18.5923 -2.75361 4.10344e-05 1
-13.7284 -20.3532 -2.14788 0.000399145 10
-13.7271 -20.3513 -1.28651 0.000402813 10
-13.7245 -20.3474 -0.428406 0.000404605 10
-13.7275 -20.3518 0.4285 0.000404502 10
-13.7229 -20.345 1.28611 0.000402504 10
-14.7334 -21.8432 5.12147 0.000185052 10
-14.7272 -21.834 6.08028 0.000179699 10
-14.2751 -21.1637 6.84022 0.000102139 10
-5.29258 -7.90595 -2.54926 0.000235056 4
-6.15371 -9.19231 -2.55385 0.000346668 4
-7.85782 -11.7379 -2.74567 0.000211595 1
-9.65876 -14.4281 -2.74997 0.000103993 1
-12.4805 -18.6432 -2.75468 4.1038e-05 1
-13.7324 -20.5132 -2.1597 0.000394107 10
-13.7296 -20.509 -1.29344 0.000397732 10
-13.7281 -20.5067 -0.43075 0.000399503 10
-13.7226 -20.4985 0.430577 0.0003994 10
-13.7271 -20.5053 1.29321 0.000397425 10
-14.6252 -21.8469 5.11033 0.000185028 10
-14.6321 -21.8571 6.07245 0.000179678 10
-14.2121 -21.2298 6.8455 0.000102135 10
-5.27161 -7.93441 -2.55248 0.000583308 4
-6.1141 -9.20245 -2.55073 0.000381892 4
-7.81734 -11.766 -2.74586 0.000211606 1
-9.59731 -14.4451 -2.74682 0.000103999 1
-12.4165 -18.6884 -2.75494 4.10416e-05 1
-13.7303 -20.6658 -2.1707 0.000389071 10
-13.732 -20.6683 -1.30046 0.000392654 10
-13.7275 -20.6615 -0.432992 0.000394404 10
-13.733 -20.6698 0.433165 0.000394302 10
-13.7313 -20.6673 1.3004 0.000392349 10
-14.522 -21.8574 5.10091 0.000184985 10
-14.5158 -21.8481 6.05583 0.000179639 10
-14.1358 -21.276 6.84446 0.000102131 10
-5.24425 -7.95333 -2.55267 0.000552857 4
-6.09044 -9.23663 -2.55429 0.000335863 4
-7.77412 -11.7901 -2.74512 0.000211616 1
-9.55422 -14.4897 -2.74894 0.000104006 1
-12.3458 -18.7234 -2.75372 4.10452e-05 1
-13.7499 -20.8528 -2.18529 0.000407557 10
-13.7369 -20.8331 -1.30781 0.000411298 10
-13.7468 -20.8482 -0.435895 0.000413117 10
-13.7432 -20.8427 0.435781 0.000412993 10
-13.7438 -20.8436 1.30846 0.000410928 10
-14.4239 -21.8751 5.09324 0.000184924 10
-14.423 -21.8737 6.04893 0.000179581 10
-14.0621 -21.3262 6.84478 0.000102127 10
-5.21586 -7.97067 -2.55237 0.00063559 4
-6.04872 -9.24341 -2.55031 0.000354837 4
-7.7287 -11.8107 -2.74362 0.000211627 1
-9.50036 -14.5181 -2.74801 0.000104013 1
-12.2787 -18.7639 -2.75336 4.10488e-05 1
-13.763 -21.032 -2.19902 0.000400242 10
-13.7687 -21.0408 -1.31782 0.000403922 10
-13.772 -21.0458 -0.439019 0.00040571 10
-13.7695 -21.042 0.438941 0.000405587 10
-13.7662 -21.037 1.31758 0.000403555 10
-14.3198 -21.883 5.08342 0.000184844 10
-14.3209 -21.8846 6.0381 0.000179506 10
-13.985 -21.3713 6.84352 0.000102122 10
-5.17981 -7.97621 -2.54834 0.00048324 4
-6.01793 -9.2668 -2.55095 0.000362979 4
-7.68499 -11.8338 -2.74275 0.000211638 1
-9.45075 -14.5529 -2.74834 0.000104019 1
-12.2232 -18.822 -2.75561 4.10524e-05 1
-13.784 -21.2256 -2.21421 0.000392969 10
-13.7891 -21.2334 -1.32686 0.000396587 10
-13.7885 -21.2324 -0.441905 0.000398344 10
-13.7942 -21.2412 0.442088 0.000398223 10
-13.7916 -21.2372 1.3271 0.000396223 10
-12.7697 -19.6636 2.05127 0.00017728 10
-14.2019 -21.8691 4.13001 0.000189287 10
-14.2137 -21.8871 5.07283 0.000184745 10
-14.2102 -21.8818 6.0236 0.000179413 10
-13.9135 -21.4249 6.84509 0.000102118 10
-5.16013 -8.00695 -2.55239 0.000626928 4
-5.97914 -9.27781 -2.54822 0.000214004 4
-7.65029 -11.8709 -2.74514 0.000211649 1
-9.39583 -14.5795 -2.74715 0.000104026 1
-12.1427 -18.8418 -2.75229 4.1056e-05 1
-13.8133 -21.4341 -2.23092 0.000385736 10
-13.8068 -21.4239 -1.33574 0.000389292 10
-13.8187 -21.4424 -0.445269 0.00039102 10
-13.8154 -21.4373 0.445163 0.000390899 10
-13.8068 -21.424 1.33575 0.000388933 10
-12.7639 -19.8058 2.06144 0.000194315 10
-14.0974 -21.8749 4.1218 0.000189165 10
-14.1054 -21.8873 5.06142 0.000184628 10
-14.1124 -21.8981 6.0145 0.000179301 10
-13.8313 -21.4619 6.84147 0.000102114 10
-5.13298 -8.02622 -2.55281 0.000561643 4
-5.95494 -9.31148 -2.55175 0.000387391 4
-7.61183 -11.9023 -2.74623 0.00021166 1
-9.34626 -14.6143 -2.74756 0.000104033 1
-12.0792 -18.8877 -2.75282 4.10597e-05 1
-13.8276 -21.6216 -2.2454 0.000378547 10
-13.8338 -21.6313 -1.34565 0.000382042 10
-13.8364 -21.6354 -0.448272 0.000383739 10
-13.8313 -21.6273 0.448104 0.00038362 10
-13.8339 -21.6314 1.34566 0.000381686 10
-12.7662 -19.962 2.07305 0.000191748 10
-14.0082 -21.9039 4.11803 0.000189023 10
-14.0026 -21.8952 5.05191 0.000184492 10
-14.0025 -21.8951 6.00021 0.000179171 10
-13.848 -21.6535 6.88709 0.000334486 10
-5.10306 -8.04113 -2.55187 0.000570372 4
-5.92178 -9.33123 -2.55148 0.000322388 4
-7.56805 -11.9253 -2.74544 0.000211671 1
-9.29153 -14.6411 -2.74647 0.00010404 1
-12.0131 -18.9296 -2.75279 4.10634e-05 1
-13.859 -21.8383 -2.26287 0.000371401 10
-13.8614 -21.842 -1.35574 0.000374835 10
-13.8579 -21.8365 -0.451433 0.000376502 10
-13.8595 -21.839 0.451485 0.000376384 10
-13.8638 -21.8458 1.35598 0.000374483 10
-12.77 -20.1224 2.08507 0.000189184 10
-13.8985 -21.9005 3.18483 0.000192551 10
-13.9021 -21.9061 4.10929 0.000188863 10
-13.8954 -21.8957 5.0408 0.000184337 10
-13.8933 -21.8923 5.9861 0.000179023 10
-13.8704 -21.8563 6.93615 0.000328096 10
-5.07856 -8.06462 -2.55368 0.000552877 4
-5.89549 -9.36188 -2.55422 0.000316983 4
-7.51978 -11.9412 -2.74303 0.000211682 1
-9.2391 -14.6714 -2.74609 0.000104047 1
-11.9437 -18.9663 -2.75206 4.10671e-05 1
-13.8674 -22.0211 -2.27678 0.000356321 10
-13.8726 -22.0292 -1.36435 0.000359627 10
-13.8712 -22.027 -0.454368 0.000361236 10
-13.8726 -22.0293 0.454415 0.00036113 10
-13.8769 -22.0361 1.36477 0.000359309 10
-12.7655 -20.2712 2.09586 0.000186624 10
-13.792 -21.9014 3.17794 8.24344e-05 10
-13.7903 -21.8986 4.09883 8.08563e-05 10
-13.7941 -21.9047 5.03175 7.89195e-05 10
-13.7885 -21.8957 5.97384 7.66454e-05 10
-13.7994 -21.913 6.93881 7.40584e-05 10
-5.08161 -8.13227 -2.56947 0.000486232 4
-5.85334 -9.3673 -2.55011 0.000373893 4
-7.47929 -11.9694 -2.74349 0.000211693 1
-9.18778 -14.7035 -2.74608 0.000104054 1
-11.8792 -19.0108 -2.75247 4.10708e-05 1
-13.8774 -22.2084 -2.29113 0.000350303 10
-13.8897 -22.2281 -1.37366 0.000353557 10
-13.882 -22.2159 -0.457261 0.00035514 10
-13.89 -22.2287 0.457525 0.000355035 10
-13.8913 -22.2308 1.37382 0.000353242 10
-12.7714 -20.4386 2.10854 0.000184067 10
-13.6937 -21.9145 3.17289 8.23468e-05 10
-13.6889 -21.9068 4.0914 8.0771e-05 10
-13.6868 -21.9034 5.02046 7.88371e-05 10
-13.6913 -21.9106 5.96482 7.65662e-05 10
-13.696 -21.9182 6.92527 7.39829e-05 10
-5.06891 -8.17531 -2.57746 0.000452779 4
-5.81581 -9.37993 -2.548 0.000327848 4
-7.43896 -11.9978 -2.74404 0.000211705 1
-9.14901 -14.7558 -2.74987 0.000104061 1
-11.8237 -19.0696 -2.755 4.10745e-05 1
-13.9038 -22.4245 -2.30839 0.000344313 10
-13.892 -22.4055 -1.38161 0.000347516 10
-13.9045 -22.4256 -0.460576 0.000349074 10
-13.8964 -22.4125 0.460308 0.000348969 10
-13.8963 -22.4124 1.38204 0.000347203 10
-12.7659 -20.5894 2.11948 0.000181515 10
-13.5889 -21.9167 3.16632 8.22508e-05 10
-13.595 -21.9264 4.08617 8.06774e-05 10
-13.588 -21.9152 5.01225 7.87465e-05 10
-13.5967 -21.9292 5.95692 7.64792e-05 10
-13.5956 -21.9275 6.91318 7.39e-05 10
-5.06615 -8.23492 -2.59067 0.000634425 4
-5.79498 -9.4196 -2.55327 0.000371216 4
-7.40045 -12.0293 -2.7453 0.000211716 1
-9.08432 -14.7663 -2.7459 0.000104068 1
-11.7534 -19.1049 -2.75415 4.10783e-05 1
-13.9044 -22.6013 -2.32159 0.000338351 10
-13.9059 -22.6037 -1.39083 0.000341503 10
-13.9209 -22.628 -0.463733 0.000343036 10
-13.9164 -22.6208 0.463584 0.000342932 10
-13.9108 -22.6117 1.39132 0.000341194 10
-12.7812 -20.7755 2.13404 0.000178968 10
-13.4945 -21.9349 3.16213 8.21463e-05 10
-13.4855 -21.9203 4.07624 8.05755e-05 10
-13.4912 -21.9297 5.00477 7.86478e-05 10
-13.4909 -21.9291 5.94408 7.63843e-05 10
-13.494 -21.9342 6.90041 7.38093e-05 10
-5.06846 -8.30348 -2.60665 0.000484687 4
-5.75384 -9.4263 -2.54962 0.000420007 4
-7.3547 -12.0489 -2.74392 0.000211727 1
-9.0396 -14.8092 -2.74799 0.000104075 1
-11.6869 -19.1462 -2.75421 4.1082e-05 1
-13.929 -22.8194 -2.33898 0.00033242 10
-13.926 -22.8145 -1.4008 0.00033552 10
-13.9284 -22.8183 -0.466634 0.000337028 10
-13.9245 -22.812 0.466505 0.000336926 10
-13.9329 -22.8258 1.4015 0.000335214 10
-12.7975 -20.9657 2.14898 0.000186102 10
-13.3931 -21.9414 3.15631 8.20334e-05 10
-13.3893 -21.9352 4.07028 8.04654e-05 10
-13.3912 -21.9382 4.99603 7.85411e-05 10
-13.386 -21.9298 5.93158 7.62815e-05 10
-13.3946 -21.9439 6.8887 7.3711e-05 10
-5.05661 -8.34945 -2.61553 0.000391393 4
-5.72312 -9.44999 -2.55061 0.000303502 4
-6.80544 -11.2371 -2.55362 4.45612e-05 4
-8.98077 -14.829 -2.74583 0.000104082 1
-11.623 -19.1919 -2.75493 4.10858e-05 1
-13.9341 -23.0079 -2.3533 0.000326519 10
-13.9392 -23.0163 -1.4102 0.000329569 10
-13.9488 -23.0322 -0.470009 0.000331052 10
-13.9468 -23.0289 0.46994 0.00033095 10
-13.9444 -23.0249 1.41072 0.000329266 10
-12.8272 -21.1802 2.16636 0.000182407 10
-13.2871 -21.9396 3.14935 8.1912e-05 10
-13.2853 -21.9366 4.06191 8.03469e-05 10
-13.2954 -21.9532 4.98884 7.84262e-05 10
-13.2877 -21.9407 5.92192 7.61709e-05 10
-13.292 -21.9477 6.87529 7.36051e-05 10
-5.06318 -8.42654 -2.63412 0.000322978 4
-5.68942 -9.46879 -2.55031 0.000319776 4
-6.76227 -11.2543 -2.55215 0.000230501 4
-8.93884 -14.8767 -2.74887 0.000104089 1
-11.5497 -19.222 -2.75344 4.10896e-05 1
-13.9508 -23.218 -2.3698 0.00032065 10
-13.9609 -23.2348 -1.42059 0.000323649 10
-13.9589 -23.2316 -0.47308 0.000325107 10
-13.953 -23.2217 0.472878 0.000325006 10
-13.9631 -23.2384 1.42081 0.000323349 10
-12.8405 -21.3702 2.1812 0.000178738 10
-13.1848 -21.9432 3.14325 8.17822e-05 10
-13.1843 -21.9424 4.05444 8.02201e-05 10
-13.1828 -21.9399 4.97531 7.83033e-05 10
-13.1815 -21.9376 5.90865 7.60523e-05 10
-13.184 -21.9419 6.859 7.34916e-05 10
-5.05313 -8.4767 -2.64427 0.000301974 4
-5.66111 -9.49659 -2.55246 0.000390252 4
-6.72434 -11.2802 -2.55267 0.000178264 4
-8.88752 -14.909 -2.74908 0.000104096 1
-11.4808 -19.2591 -2.75301 4.10935e-05 1
-13.9663 -23.4287 -2.38632 0.000314814 10
-13.9701 -23.4351 -1.42985 0.000317763 10
-13.9689 -23.4331 -0.476188 0.000319195 10
-13.966 -23.4282 0.476089 0.000319096 10
-13.9678 -23.4312 1.42961 0.000317465 10
-12.8742 -21.5967 2.19972 0.000175096 10
-13.0892 -21.9573 3.1387 8.1644e-05 10
-13.0933 -21.9642 4.04999 8.00852e-05 10
-13.0824 -21.946 4.96631 7.81722e-05 10
-13.0843 -21.9492 5.89942 7.59259e-05 10
-13.0848 -21.95 6.84721 7.33704e-05 10
-5.05032 -8.53962 -2.65838 0.000456062 4
-5.63049 -9.52063 -2.55362 0.000411951 4
-6.68554 -11.3046 -2.55291 0.000162905 4
-8.8277 -14.9268 -2.74667 0.000104103 1
-11.4137 -19.2995 -2.75307 4.10973e-05 1
-13.9737 -23.6282 -2.40165 0.000309011 10
-13.9855 -23.6481 -1.43986 0.000311909 10
-13.9871 -23.6509 -0.479619 0.000313317 10
-13.9787 -23.6367 1.43916 0.000311615 10
-12.8972 -21.808 2.21664 0.00017148 10
-12.9909 -21.9663 3.13349 8.14973e-05 10
-12.9895 -21.964 4.04157 7.99419e-05 10
-12.9955 -21.9742 4.9624 7.8033e-05 10
-12.9825 -21.9522 5.88801 7.57916e-05 10
-12.9837 -21.9542 6.83436 7.32416e-05 10
-5.02478 -8.56453 -2.66067 0.000889052 4
-5.58861 -9.52555 -2.54969 0.000303556 4
-6.65182 -11.3378 -2.55513 0.000173672 4
-8.78544 -14.9744 -2.74977 0.000104111 1
-11.3405 -19.3293 -2.75166 4.11012e-05 1
-13.999 -23.8607 -2.4203 0.000303242 10
-13.9915 -23.848 -1.44904 0.000306091 10
-13.9953 -23.8544 -0.482752 0.000307474 10
-14.0058 -23.8723 1.45052 0.0003058 10
-12.9168 -22.0161 2.23319 0.000164318 10
-12.9171 -22.0167 3.13422 0.000161939 10
-12.9166 -22.0158 4.04279 0.000158825 10
-12.9256 -22.0311 4.96503 0.000155009 10
-12.9281 -22.0353 5.89818 0.000150533 10
-12.9202 -22.0219 6.84133 0.000145445 10
-5.00062 -8.59192 -2.66373 0.000287183 4
-5.5585 -9.55045 -2.55115 0.00036591 4
-6.6141 -11.3642 -2.55586 0.000229014 4
-8.72149 -14.985 -2.74611 0.000104118 1
-11.2765 -19.3749 -2.75253 4.1105e-05 1
-14.0113 -24.0739 -2.43695 0.000297509 10
-14.0088 -24.0695 -1.45952 0.000300308 10
-14.0148 -24.0798 -0.486321 0.000301667 10
-14.023 -24.0939 1.461 0.00030002 10
-12.9329 -22.2209 2.24937 0.000161294 10
-12.9337 -22.2224 3.15706 0.000158955 10
-12.9295 -22.215 4.07106 0.000155893 10
-12.9289 -22.2141 4.99608 0.000152141 10
-12.9405 -22.2339 5.93921 0.00014774 10
-12.9333 -22.2216 6.88932 0.000142738 10
-4.9644 -8.59858 -2.66041 0.000424889 4
-5.52381 -9.56752 -2.55054 0.000355084 4
-6.5669 -11.3742 -2.55295 0.000190599 4
-8.66636 -15.0106 -2.74523 0.000104125 1
-11.2103 -19.4167 -2.75289 4.11089e-05 1
-14.021 -24.2851 -2.45336 0.000291812 10
-14.0334 -24.3065 -1.47091 0.000294562 10
-14.0333 -24.3064 -0.489904 0.000295896 10
-14.0342 -24.3079 1.471 0.000294277 10
-12.9464 -22.4239 2.26533 0.000158288 10
-12.9431 -22.4181 3.17842 0.000155988 10
-12.9507 -22.4312 4.10237 0.000152978 10
-12.9415 -22.4154 5.03116 0.00014929 10
-12.9551 -22.4388 5.98182 0.000144965 10
-12.9502 -22.4304 6.93998 0.000140048 10
-4.93875 -8.62354 -2.66278 0.00025573 4
-5.49622 -9.59694 -2.55326 0.000368654 4
-6.52736 -11.3974 -2.55303 0.000202907 4
-8.62462 -15.0594 -2.74865 0.000104132 1
-11.1365 -19.4454 -2.75143 4.11128e-05 1
-14.0358 -24.5078 -2.47089 0.000286153 10
-14.0465 -24.5266 -1.48126 0.000288853 10
-14.0404 -24.516 -0.493138 0.000290164 10
-14.0432 -24.5208 1.48091 0.000288571 10
-14.0541 -24.5399 2.47413 0.000285686 10
-14.042 -24.5187 3.46927 0.000281446 10
-14.0461 -24.5259 4.47647 0.000275899 10
-14.0517 -24.5356 6.52767 0.000261142 10
-14.058 -24.5466 7.57951 0.000252096 10
-4.90761 -8.63896 -2.66224 0.000692466 4
-5.46049 -9.6122 -2.55223 0.000290057 4
-6.48793 -11.4208 -2.55319 0.000182934 4
-8.57497 -15.0947 -2.7496 0.00010414 1
-11.0743 -19.4942 -2.75285 4.11168e-05 1
-14.0488 -24.7303 -2.48837 0.000280531 10
-14.0561 -24.7431 -1.49136 0.000283182 10
-14.0559 -24.7429 -0.496712 0.000284468 10
-14.0682 -24.7645 1.49265 0.000282903 10
-14.0586 -24.7476 2.49011 0.000280069 10
-14.0579 -24.7463 3.49452 0.000275904 10
-14.0716 -24.7706 4.51213 0.000270456 10
-14.0711 -24.7697 6.57684 0.000255964 10
-14.0668 -24.762 7.63082 0.000247081 10
-4.88366 -8.6671 -2.66564 0.000857747 4
-5.43083 -9.63816 -2.55408 0.000382242 4
-6.45291 -11.4521 -2.55512 0.000192168 4
-8.5127 -15.1076 -2.74652 0.000104147 1
-11.0024 -19.5261 -2.75191 4.11207e-05 1
-14.0742 -24.9777 -2.5083 0.000274948 10
-14.0786 -24.9854 -1.503 0.000277551 10
-14.0716 -24.9731 -0.500345 0.000278813 10
-14.0798 -24.9877 1.50313 0.000277275 10
-14.0827 -24.9928 2.50981 0.000274492 10
-14.0751 -24.9793 3.52045 0.000270402 10
-14.0804 -24.9888 4.54289 0.000265052 10
-14.0829 -24.9932 6.62309 0.000250823 10
-14.0807 -24.9892 7.68565 0.000242102 10
-4.84929 -8.67679 -2.6634 0.000613824 4
-5.3975 -9.65768 -2.55424 0.000338882 4
-6.41153 -11.4721 -2.55458 0.000153743 4
-8.46347 -15.1436 -2.74768 0.000104155 1
-10.939 -19.573 -2.75312 4.11247e-05 1
-14.0906 -25.2122 -2.52689 0.000269404 10
-14.0946 -25.2193 -1.5141 0.000271959 10
-14.0918 -25.2144 -0.50419 0.000273198 10
-14.0911 -25.2131 1.51372 0.000271686 10
-14.0869 -25.2055 2.52622 0.000268953 10
-14.0994 -25.2279 3.54854 0.000264938 10
-14.0941 -25.2185 4.57569 0.000259686 10
-14.1022 -25.2328 6.67352 0.000245719 10
-14.1046 -25.2372 7.74671 0.000237158 10
-4.81213 -8.68131 -2.65961 0.000574499 4
-5.35122 -9.65386 -2.54827 8.40467e-05 4
-6.36955 -11.491 -2.55382 7.68758e-05 4
-8.41481 -15.1807 -2.74907 0.000104162 1
-10.8717 -19.613 -2.7534 4.11286e-05 1
-14.0995 -25.4362 -2.54439 0.000263902 10
-14.1029 -25.4424 -1.52452 0.000266409 10
-14.1102 -25.4555 -0.508023 0.000267624 10
-14.1127 -25.4599 1.52557 0.000266139 10
-14.1067 -25.4492 2.54569 0.000263456 10
-14.1174 -25.4684 3.57542 0.000259515 10
-14.1081 -25.4516 4.60902 0.000254361 10
-14.117 -25.4677 6.72256 0.000240653 10
-14.123 -25.4785 7.80563 0.000232253 10
-4.78171 -8.6979 -2.65957 0.000275455 4
-5.32681 -9.68942 -2.55274 0.000254863 4
-6.32812 -11.5108 -2.5533 3.38273e-05 4
-8.35599 -15.1995 -2.74717 0.000104169 1
-10.8007 -19.6464 -2.75277 4.11326e-05 1
-14.1181 -25.6807 -2.56391 0.000258441 10
-14.1173 -25.6793 -1.53576 0.0002609 10
-14.1288 -25.7001 -0.511919 0.000262091 10
-14.1178 -25.6801 1.53581 0.000260633 10
-14.1283 -25.6993 2.56577 0.000258 10
-14.1248 -25.6929 3.59998 0.000254133 10
-14.1345 -25.7106 4.64695 0.000249075 10
-14.128 -25.6987 6.77047 0.000235626 10
-14.1294 -25.7013 7.85872 0.000227386 10
-4.75368 -8.71886 -2.66089 0.000519451 4
-5.28719 -9.6974 -2.54996 0.000203358 4
-6.29235 -11.541 -2.55511 9.53367e-05 4
-8.30007 -15.2234 -2.74624 0.000104177 1
-10.735 -19.6893 -2.75352 4.11366e-05 1
-14.1299 -25.9161 -2.58247 0.000253023 10
-14.1398 -25.9342 -1.54804 0.000255434 10
-14.1338 -25.9233 -0.515377 0.000256602 10
-14.1417 -25.9377 1.54825 0.00025517 10
-14.136 -25.9273 2.58358 0.000252587 10
-14.1443 -25.9424 3.62801 0.000248793 10
-14.1498 -25.9526 4.68173 0.000243831 10
-14.1545 -25.9612 6.82656 0.000230639 10
-14.1447 -25.9431 7.91751 0.000222557 10
-4.71946 -8.72846 -2.65877 0.00070837 4
-5.25224 -9.71381 -2.54944 9.21931e-05 4
-6.24368 -11.5475 -2.5517 9.53421e-05 4
-8.25147 -15.2608 -2.74777 0.000104184 1
-10.6686 -19.7311 -2.75414 4.11407e-05 1
-14.1488 -26.1677 -2.60261 0.000247647 10
-14.1533 -26.1759 -1.55951 0.000250011 10
-14.1531 -26.1756 -0.519408 0.000251156 10
-14.1527 -26.1749 0.519394 0.000251069 10
-14.1528 -26.1751 1.55946 0.000249751 10
-14.1569 -26.1825 2.60408 0.000247217 10
-14.1569 -26.1827 3.65468 0.000243496 10
-14.1651 -26.1978 4.71703 0.000238629 10
-14.1705 -26.2078 5.79127 0.000232673 10
-14.1702 -26.2073 6.87823 0.000225693 10
-14.1611 -26.1905 7.97786 0.000217768 10
-4.69196 -8.75046 -2.66047 0.000421104 4
-5.21624 -9.72824 -2.54843 0.000233205 4
-6.19998 -11.5629 -2.55032 0.000230679 4
-8.1942 -15.2821 -2.74644 0.000104192 1
-10.5965 -19.7625 -2.75334 4.11447e-05 1
-14.1752 -26.4366 -2.62441 0.000242316 10
-14.1701 -26.4271 -1.57152 0.000244632 10
-14.175 -26.4362 -0.523595 0.000245754 10
-14.1723 -26.4312 0.523494 0.000245668 10
-14.1811 -26.4477 1.57274 0.000244375 10
-14.1803 -26.4462 2.62536 0.00024189 10
-14.1821 -26.4496 3.68499 0.000238242 10
-14.1754 -26.4369 4.75114 0.000233471 10
-14.1816 -26.4485 5.83348 0.000227631 10
-14.1832 -26.4515 6.92929 0.000220788 10
-14.1825 -26.4503 8.04187 0.000213019 10
-4.66349 -8.77075 -2.66167 0.00047622 4
-5.20317 -9.78573 -2.55872 0.00019204 4
-6.16997 -11.604 -2.55462 0.000170712 4
-8.14605 -15.3205 -2.74821 0.0001042 1
-10.5237 -19.7923 -2.75235 4.11488e-05 1
-14.193 -26.6932 -2.64495 0.000237029 10
-14.1865 -26.6809 -1.58366 0.000239299 10
-14.1862 -26.6803 -0.527445 0.000240398 10
-14.1971 -26.7009 0.527852 0.000240313 10
-14.1933 -26.6936 1.58441 0.000239046 10
-14.1932 -26.6935 2.64498 0.000236609 10
-14.1959 -26.6985 3.71275 0.000233033 10
-14.1996 -26.7055 4.79048 0.000228356 10
-14.1935 -26.6941 5.87669 0.000222632 10
-14.2004 -26.7071 6.98323 0.000215925 10
-14.2054 -26.7164 8.10766 0.000208311 10
-4.63903 -8.79871 -2.66522 0.00034242 4
-5.19852 -9.85987 -2.57334 0.000635077 4
-6.13132 -11.6291 -2.55541 0.000163032 4
-8.09537 -15.3542 -2.74918 0.000104207 1
-10.4578 -19.8349 -2.75319 4.11529e-05 1
-14.2028 -26.9381 -2.66429 0.000231788 10
-14.2105 -26.9526 -1.59683 0.000234012 10
-14.2017 -26.9359 -0.531515 0.000235088 10
-14.2064 -26.9448 0.531691 0.000235004 10
-14.2166 -26.9642 1.59752 0.000233761 10
-14.2053 -26.9428 2.66475 0.000231373 10
-14.2122 -26.9559 3.74162 0.000227868 10
-14.2093 -26.9504 4.82548 0.000223285 10
-14.2142 -26.9596 5.92418 0.000217676 10
-14.2148 -26.9608 7.03655 0.000211105 10
-14.2193 -26.9693 8.1693 0.000203645 10
-4.60595 -8.81037 -2.66387 0.000696675 4
-5.19236 -9.93207 -2.58744 0.000691467 4
-6.08868 -11.6466 -2.55456 0.000163041 4
-8.03866 -15.3765 -2.74813 0.000104215 1
-10.3789 -19.853 -2.75066 4.1157e-05 1
-14.222 -27.2041 -2.68567 0.000226594 10
-14.2203 -27.2009 -1.60859 0.000228771 10
-14.2199 -27.2001 -0.535746 0.000229825 10
-14.2295 -27.2186 0.536109 0.000229742 10
-14.2217 -27.2036 1.60875 0.000228524 10
-14.2263 -27.2123 2.68648 0.000226184 10
-14.2306 -27.2207 3.77146 0.000222749 10
-14.2338 -27.2268 4.86604 0.00021826 10
-14.2355 -27.23 5.97264 0.000212765 10
-14.2301 -27.2197 7.09111 0.000206328 10
-14.2376 -27.2341 8.23439 0.000199022 10
-4.56579 -8.80831 -2.65841 0.000629789 4
-5.18303 -9.99908 -2.60017 0.000641813 4
-6.05026 -11.6721 -2.55553 0.000212274 4
-7.98217 -15.3992 -2.74718 0.000104223 1
-10.3184 -19.9062 -2.75302 4.11611e-05 1
-14.2425 -27.4765 -2.70764 0.000221446 10
-14.2456 -27.4825 -1.62229 0.000223578 10
-14.2481 -27.4874 1.62258 0.000223334 10
-14.2543 -27.4993 2.70989 0.000221041 10
-14.2574 -27.5052 6.02206 0.000207899 10
-14.2565 -27.5035 7.15204 0.000201595 10
-14.2548 -27.5003 8.29978 0.000194441 10
-4.34284 -8.45024 -2.54576 0.000579657 4
-5.17987 -10.0789 -2.61621 0.000654631 4
-6.00055 -11.6758 -2.55172 0.000212286 4
-7.93233 -15.4346 -2.74855 0.00010423 1
-10.2455 -19.9357 -2.75213 4.11652e-05 1
-14.2632 -27.7533 -2.72999 0.000216347 10
-14.2589 -27.7447 -1.63482 0.000218433 10
-14.2695 -27.7654 1.63604 0.000218192 10
-14.2703 -27.767 2.73134 0.000215948 10
-14.2646 -27.756 6.06601 0.000203079 10
-14.2776 -27.7813 7.21126 0.000196908 10
-14.2765 -27.779 8.36881 0.000189904 10
-4.32244 -8.48326 -2.55114 0.000579681 4
-5.17586 -10.1582 -2.63208 0.000671569 4
-5.96359 -11.7042 -2.55337 0.000179992 4
-7.86652 -15.4389 -2.74441 0.000104238 1
-10.1732 -19.9659 -2.75139 4.11693e-05 1
-14.2806 -28.0272 -2.75202 0.000211296 10
-14.2739 -28.0141 -1.64775 0.000213338 10
-14.2889 -28.0435 1.64948 0.0002131 10
-14.283 -28.032 2.75249 0.000210902 10
-14.2916 -28.0488 6.11908 0.000198306 10
-14.2934 -28.0524 7.26864 0.000192266 10
-14.2875 -28.0407 8.43258 0.000185412 10
-4.29488 -8.50242 -2.55238 0.000610215 4
-5.17247 -10.2398 -2.64852 0.000477818 4
-5.92072 -11.721 -2.55252 0.000238465 4
-7.81325 -15.4676 -2.74464 0.000104246 1
-10.1062 -20.0068 -2.75215 4.11735e-05 1
-14.2932 -28.2958 -1.66138 0.000208292 10
-14.2996 -28.3084 1.66212 0.000208057 10
-14.3035 -28.3162 2.77547 0.000205906 10
-14.3093 -28.3277 6.16898 0.00019358 10
-14.3155 -28.3399 7.33013 0.000187671 10
-14.3095 -28.3279 8.50389 0.000180965 10
-4.2653 -8.5176 -2.55245 0.000584087 4
-5.16715 -10.3186 -2.66422 0.00040613 4
-5.88153 -11.7451 -2.55328 0.000195399 4
-7.7608 -15.498 -2.7452 0.000104254 1
-10.0333 -20.0361 -2.75134 4.11777e-05 1
-14.3141 -28.5845 -1.67538 0.000203296 10
-14.3264 -28.6091 1.67683 0.000203065 10
-14.3298 -28.616 2.79994 0.00020096 10
-14.3195 -28.5953 3.92668 0.000197873 10
-14.3272 -28.6107 5.0679 0.000193838 10
-14.3229 -28.6021 6.21782 0.000188902 10
-14.3364 -28.6291 7.39195 0.000183122 10
-14.3341 -28.6245 8.57785 0.000176564 10
-4.22306 -8.5073 -2.54493 0.000584111 4
-5.12889 -10.3321 -2.66308 0.000200456 4
-5.83428 -11.7531 -2.55056 0.000224645 4
-7.71258 -15.5369 -2.74732 0.000104262 1
-9.95965 -20.0636 -2.75032 4.11819e-05 1
-14.3327 -28.8731 -1.68936 0.000198352 10
-14.332 -28.8715 -0.56263 0.000199274 10
-14.3359 -28.8796 0.562787 0.000199198 10
-14.338 -28.8837 1.68997 0.000198124 10
-14.3454 -28.8986 2.82267 0.000196065 10
-14.338 -28.8838 3.9594 0.000193046 10
-14.3458 -28.8995 5.11016 0.0001891 10
-14.3535 -28.9149 6.27488 0.000184273 10
-14.3545 -28.917 7.4533 0.000178621 10
-14.3572 -28.9224 8.65203 0.000172209 10
-4.2173 -8.57068 -2.55947 0.000612244 4
-5.09836 -10.3612 -2.66599 0.000310478 4
-5.793 -11.7729 -2.55047 0.000266205 4
-7.65266 -15.5522 -2.74529 0.000104269 1
-9.89472 -20.1087 -2.75176 4.11861e-05 1
-14.3615 -29.1865 -1.70475 0.000193461 10
-14.3518 -29.1667 -0.567402 0.000194361 10
-14.3551 -29.1735 0.567534 0.000194286 10
-14.3555 -29.1742 1.70403 0.000193236 10
-14.3645 -29.1926 2.84647 0.000191223 10
-14.3686 -29.2008 3.99597 0.00018827 10
-14.3663 -29.1961 5.15371 0.000184412 10
-14.3675 -29.1986 6.32554 0.000179694 10
-14.3688 -29.2012 7.51358 0.000174169 10
-14.3742 -29.2123 8.7237 0.000167901 10
-4.21629 -8.64467 -2.57716 0.000613118 4
-5.05239 -10.3589 -2.66084 0.000149134 4
-5.75957 -11.8089 -2.55388 0.000204667 4
-7.59535 -15.5728 -2.74422 0.000104277 1
-9.8194 -20.1328 -2.75034 4.11903e-05 1
-14.3796 -29.4825 -1.71909 0.000188621 10
-14.377 -29.4773 -0.572464 0.000189501 10
-14.3813 -29.4861 0.572635 0.000189427 10
-14.3876 -29.4989 1.72005 0.0001884 10
-14.379 -29.4813 2.86971 0.000186432 10
-14.3863 -29.4962 4.02949 0.000183546 10
-14.3857 -29.4951 5.1976 0.000179775 10
-14.392 -29.508 6.38163 0.000175164 10
-14.385 -29.4936 7.57586 0.000169765 10
-14.3905 -29.5049 8.79602 0.000163641 10
-4.21953 -8.7285 -2.59774 0.000469508 4
-5.01904 -10.3824 -2.66235 0.000220045 4
-5.71817 -11.8286 -2.55382 0.000140043 4
-7.02379 -14.5294 -2.55602 0.000109815 4
-9.75467 -20.1785 -2.75192 4.11946e-05 1
-14.3997 -29.7871 -1.73392 0.000183836 10
-14.4026 -29.7931 -0.577619 0.000184695 10
-14.4038 -29.7957 0.577669 0.000184621 10
-14.4087 -29.8058 1.735 0.000183617 10
-14.4067 -29.8018 2.89599 0.000181694 10
-14.4103 -29.8092 4.06535 0.000178874 10
-14.4028 -29.7937 5.24131 0.000175191 10
-14.4083 -29.8049 6.43494 0.000170686 10
-14.4091 -29.8067 7.6433 0.000165412 10
-14.4155 -29.8199 8.87488 0.00015943 10
-4.21127 -8.78959 -2.61153 0.000612872 4
-4.98386 -10.4021 -2.66293 0.000603932 4
-5.67353 -11.8416 -2.55232 0.000189301 4
-6.97557 -14.5591 -2.55695 0.000106773 4
-9.67771 -20.1989 -2.75009 4.11988e-05 1
-14.4164 -30.0894 -1.74857 0.000179104 10
-14.4176 -30.0918 1.74871 0.000178889 10
-14.4256 -30.1086 2.9209 0.00017701 10
-14.4297 -30.1171 6.49141 0.000166258 10
-14.4375 -30.1334 7.71411 0.000161108 10
-4.21798 -8.88305 -2.63491 0.000507831 4
-4.94332 -10.4106 -2.66067 0.000124705 4
-5.63023 -11.8572 -2.55145 0.000189312 4
-6.92291 -14.5796 -2.55629 0.000109832 4
-9.61436 -20.2478 -2.75215 4.12031e-05 1
-14.4395 -30.4096 -1.76424 0.000174428 10
-14.4444 -30.4198 1.76483 0.000174216 10
-14.4427 -30.4163 2.94584 0.000172381 10
-14.457 -30.4463 6.55145 0.000161883 10
-14.457 -30.4465 7.7813 0.000156856 10
-4.20892 -8.9444 -2.64873 0.000575138 4
-4.91491 -10.4447 -2.66499 0.000325226 4
-5.59497 -11.8899 -2.55426 0.000167774 4
-6.87126 -14.6022 -2.55602 0.000106026 4
-9.53927 -20.272 -2.7509 4.12074e-05 1
-14.4596 -30.7283 -1.77979 0.000169807 10
-14.4609 -30.731 1.77995 0.000169598 10
-14.4623 -30.734 2.97171 0.000167807 10
-14.4795 -30.7705 6.6103 0.000157561 10
-14.4741 -30.7591 7.84823 0.000152655 10
-4.21122 -9.031 -2.67001 0.000517235 4
-4.87883 -10.4627 -2.66521 0.000379042 4
-5.54447 -11.8902 -2.55014 0.000186256 4
-6.82334 -14.6327 -2.55718 0.000108323 4
-9.47258 -20.314 -2.7521 4.12117e-05 1
-14.4857 -31.0647 -1.79633 0.000165242 10
-14.4883 -31.0703 1.79666 0.000165036 10
-14.4914 -31.0768 2.99994 0.000163288 10
-14.5013 -31.0981 6.66976 0.000153292 10
-14.5003 -31.0959 7.92121 0.000148506 10
-4.2103 -9.11191 -2.68957 0.000528014 4
-4.83476 -10.4634 -2.66107 0.000530686 4
-5.5124 -11.9299 -2.55453 0.000166255 4
-6.76683 -14.6447 -2.55514 0.000102228 4
-9.39845 -20.3401 -2.75117 4.1216e-05 1
-14.5084 -31.3991 -1.81273 0.000160734 10
-14.5085 -31.3993 1.81275 0.000160531 10
-14.5089 -31.4001 3.02624 0.000158826 10
-14.5156 -31.4146 6.72673 0.000149076 10
-14.525 -31.435 7.99462 0.000144409 10
-4.20869 -9.19258 -2.70903 0.000473485 4
-4.80538 -10.4959 -2.66505 0.0001981 4
-5.46333 -11.9329 -2.55108 0.000141633 4
-6.72064 -14.6791 -2.55703 9.53693e-05 4
-9.32936 -20.3771 -2.75175 4.12204e-05 1
-14.5352 -31.7475 -1.82991 0.000156283 10
-14.5373 -31.7521 1.83017 0.000156084 10
-14.5336 -31.7442 3.05449 0.000154421 10
-14.5443 -31.7675 6.7914 0.000144915 10
-14.5475 -31.7745 8.06801 0.000140366 10
-4.21131 -9.28377 -2.73155 0.000469915 4
-4.76356 -10.5012 -2.66217 0.000381545 4
-5.42712 -11.964 -2.55365 0.000123167 4
-6.66106 -14.6842 -2.55385 0.000101481 4
-9.25283 -20.3977 -2.75016 4.12248e-05 1
-14.5546 -32.0855 -1.84645 0.00015189 10
-14.5612 -32.1 1.84728 0.000151695 10
-14.5609 -32.0992 3.08375 0.000150073 10
-14.5675 -32.114 6.85454 0.00014081 10
-14.5673 -32.1134 8.1411 0.000136377 10
-4.19368 -9.33135 -2.74123 0.000606463 1
-4.72497 -10.5135 -2.66109 0.00018589 4
-5.38311 -11.978 -2.5526 0.000161667 4
-6.61893 -14.7278 -2.5574 9.30948e-05 4
-9.1838 -20.4349 -2.75083 4.12291e-05 1
-14.5783 -32.4382 -1.86381 0.000147556 10
-14.5753 -32.4316 -0.620637 0.000148255 10
-14.5792 -32.4403 0.620803 0.000148191 10
-14.5763 -32.4337 1.86355 0.000147364 10
-14.5817 -32.4458 3.11213 0.000145784 10
-14.5862 -32.4557 4.369 0.00014347 10
-14.5934 -32.4717 5.63853 0.00014045 10
-14.5882 -32.4603 6.91756 0.000136759 10
-14.5939 -32.473 8.21929 0.000132442 10
-14.5895 -32.4632 9.53656 0.000127548 10
-4.15134 -9.32406 -2.73481 0.00060649 1
-4.6889 -10.5314 -2.66147 0.000403598 4
-5.3569 -12.0318 -2.56008 0.000212018 4
-6.56009 -14.7342 -2.55452 0.000103023 4
-9.1163 -20.4755 -2.752 4.12335e-05 1
-14.6008 -32.794 -1.88131 0.000143281 10
-14.5994 -32.7908 -0.626532 0.000143961 10
-14.6082 -32.8107 0.626911 0.000143898 10
-14.6033 -32.7994 1.88162 0.000143092 10
-14.6048 -32.8029 3.14148 0.000141553 10
-14.6146 -32.8248 4.4118 0.0001393 10
-14.6171 -32.8305 5.69194 0.000136359 10
-14.6128 -32.8209 6.98349 0.000132765 10
-14.614 -32.8235 8.29506 0.000128561 10
-14.6138 -32.823 9.62723 0.000123797 10
-4.1233 -9.34877 -2.73782 0.000606516 1
-4.45894 -10.1098 -2.55096 0.000287748 4
-5.35076 -12.1318 -2.57736 0.000380464 4
-6.50505 -14.7489 -2.55312 8.08983e-05 4
-9.04019 -20.4968 -2.75061 4.12379e-05 1
-14.6242 -33.1575 -1.89922 0.000139066 10
-14.625 -33.1593 -0.632593 0.000139728 10
-14.6354 -33.1828 0.633042 0.000139665 10
-14.637 -33.1865 1.90088 0.00013888 10
-14.6367 -33.1859 3.17324 0.000137382 10
-14.636 -33.1843 4.45322 0.000135188 10
-14.6392 -33.1914 5.74562 0.000132325 10
-14.623 -33.1547 7.04361 5.23112e-05 10
-14.6448 -33.2042 8.3783 0.000124737 10
-14.6407 -33.1948 9.72122 0.000120101 10
-4.08998 -9.36158 -2.73738 0.000606542 1
-4.42239 -10.1224 -2.55025 0.000358346 4
-5.34091 -12.2248 -2.59315 0.000415887 4
-6.46381 -14.7951 -2.55719 9.69329e-05 4
-8.96794 -20.5268 -2.75041 4.12424e-05 1
-14.6484 -33.5288 -1.91755 0.000134912 10
-14.6553 -33.5446 -0.638964 0.000135554 10
-14.6539 -33.5415 0.638905 0.000135493 10
-14.66 -33.5554 1.91907 0.000134729 10
-14.6656 -33.5683 4.49786 0.000131136 10
-14.661 -33.5577 5.80013 0.00012835 10
-14.4879 -33.1616 7.03429 5.21108e-05 10
-14.6743 -33.5881 9.82132 0.000116458 10
-4.05394 -9.3681 -2.73513 0.000606569 1
-4.38465 -10.1323 -2.54887 0.000420807 4
-5.337 -12.3331 -2.61215 0.000379721 4
-6.40059 -14.7909 -2.55258 9.77038e-05 4
-8.90194 -20.5712 -2.75218 4.12468e-05 1
-14.6842 -33.9333 1.93774 0.000130638 10
-14.3497 -33.1601 7.02331 5.19042e-05 10
-4.02621 -9.39386 -2.73853 0.000606595 1
-4.35249 -10.1551 -2.55076 0.000339378 4
-5.33475 -12.4469 -2.63229 0.000364778 4
-6.35505 -14.8274 -2.55505 0.000104582 4
-8.82303 -20.5857 -2.74998 4.12513e-05 1
-14.7056 -34.3107 1.95635 0.000126609 10
-14.7179 -34.3395 5.91735 0.000120577 10
-14.2162 -33.1689 7.01461 5.16913e-05 10
-3.99002 -9.3999 -2.73621 0.000606622 1
-4.32874 -10.1979 -2.55769 0.000670693 4
-5.3213 -12.5362 -2.64723 0.000303373 4
-6.30612 -14.8563 -2.55621 0.000107644 4
-8.74791 -20.6088 -2.74897 4.12557e-05 1
-14.7355 -34.7146 1.97643 0.000122642 10
-14.7475 -34.7429 5.97795 0.000116779 10
-14.0815 -33.1738 7.00522 5.14722e-05 10
-3.96066 -9.42204 -2.73861 0.000606649 1
-4.32735 -10.2944 -2.57808 0.000691708 4
-5.31173 -12.6361 -2.6644 0.000110696 4
-6.25291 -14.8751 -2.55567 7.48222e-05 4
-8.67927 -20.6472 -2.75003 4.12602e-05 1
-14.7617 -35.1166 1.99638 0.000118737 10
-14.7739 -35.1457 6.03835 0.000113042 10
-13.9397 -33.1613 6.99226 5.1247e-05 10
-3.92503 -9.42927 -2.73672 0.000606676 1
-4.326 -10.3925 -2.59887 0.00062147 4
-5.26965 -12.6595 -2.66544 0.000163287 4
-6.19782 -14.8893 -2.55438 9.54441e-05 4
-8.60311 -20.6677 -2.74874 4.12647e-05 1
-14.7862 -35.5216 2.01645 0.000114894 10
-14.803 -35.5619 6.10094 0.000109365 10
-13.8121 -33.1815 6.98631 5.10155e-05 10
-3.89218 -9.44314 -2.73678 0.000606703 1
-4.32301 -10.4884 -2.61906 0.000649591 4
-5.22095 -12.667 -2.66316 0.000125933 4
-6.14682 -14.9133 -2.5548 9.69789e-05 4
-8.53977 -20.719 -2.7516 4.12692e-05 1
-14.8216 -35.9598 6.16029 0.000105749 10
-3.85684 -9.4509 -2.73511 0.000641521 4
-4.32364 -10.5948 -2.64183 0.000470402 4
-5.17883 -12.6903 -2.66425 0.000130093 4
-6.09861 -14.9442 -2.55644 0.000107678 4
-8.46806 -20.7503 -2.75181 4.12738e-05 1
-14.8385 -36.3607 -2.05815 0.00010756 10
-14.8411 -36.3671 -0.685615 0.00010808 10
-14.8442 -36.3746 0.685754 0.000108026 10
-14.8575 -36.4073 4.82816 0.000104466 10
-14.854 -36.3986 6.22655 0.000102195 10
-14.858 -36.4085 10.5367 9.25161e-05 10
-3.81234 -9.43587 -2.72689 0.000444737 4
-4.3272 -10.7102 -2.66683 0.000589753 4
-5.14012 -12.7222 -2.66717 0.000159166 4
-6.04019 -14.95 -2.5538 7.56099e-05 4
-8.38571 -20.7553 -2.74858 4.12783e-05 1
-14.8775 -36.823 -2.08137 0.000103905 10
-14.8732 -36.8126 -0.69303 0.000104409 10
-14.8759 -36.8191 0.693152 0.000104356 10
-14.883 -36.8367 4.87819 0.000100904 10
-14.8881 -36.8494 6.29472 9.87029e-05 10
-14.8906 -36.8556 10.651 8.9323e-05 10
-3.77214 -9.43103 -2.72168 0.000438107 4
-4.33052 -10.8271 -2.69215 0.000447558 4
-5.08891 -12.7232 -2.66362 0.000222847 4
-5.9854 -14.9646 -2.55271 0.00011457 4
-8.31261 -20.783 -2.74838 4.12829e-05 1
-14.902 -37.2578 -2.10299 0.000100315 10
-14.9021 -37.258 -0.700431 0.000100802 10
-14.9109 -37.2799 0.700843 0.000100751 10
-14.9112 -37.2806 4.93005 9.74053e-05 10
-14.9126 -37.2843 6.36008 9.52727e-05 10
-14.9173 -37.2959 10.7631 8.61875e-05 10
-3.72162 -9.39973 -2.70888 0.000575183 4
-4.32517 -10.9241 -2.71252 0.000427131 4
-5.04506 -12.7424 -2.66394 0.000167492 4
-5.93193 -14.9823 -2.55219 8.32607e-05 4
-8.23938 -20.8103 -2.74817 4.12875e-05 1
-14.9333 -37.7173 -2.12597 9.67899e-05 10
-14.9329 -37.7161 -0.70806 9.7261e-05 10
-14.9411 -37.7368 0.708448 9.72107e-05 10
-14.9396 -37.733 4.98296 9.397e-05 10
-14.9522 -37.7649 6.43313 9.19049e-05 10
-14.9545 -37.7708 10.885 8.311e-05 10
-3.67966 -9.38939 -2.70218 0.00065493 4
-4.32305 -11.0311 -2.73532 0.00041453 4
-5.00408 -12.7689 -2.66582 0.000261636 4
-5.88087 -15.0062 -2.55275 8.7851e-05 4
-8.16627 -20.8379 -2.74803 4.12921e-05 1
-3.63904 -9.38199 -2.69638 0.000685529 4
-4.29224 -11.0661 -2.74025 0.000376308 1
-4.95442 -12.7733 -2.6631 0.000166129 4
-5.83167 -15.0349 -2.55415 0.000104666 4
-8.09699 -20.8753 -2.74922 4.12967e-05 1
-3.59988 -9.378 -2.6916 0.00054301 4
-4.25063 -11.0733 -2.73834 0.000376328 1
-4.9155 -12.8053 -2.66619 0.000296283 4
-5.78209 -15.0629 -2.55545 9.24496e-05 4
-8.02543 -20.907 -2.74968 4.13013e-05 1
-3.54981 -9.34494 -2.67854 0.000577876 4
-4.21336 -11.0917 -2.73926 0.000376349 1
-4.86582 -12.8094 -2.66348 0.00028661 4
-5.72928 -15.0824 -2.55537 9.47495e-05 4
-7.95546 -20.9429 -2.75074 4.13059e-05 1
-3.51037 -9.3392 -2.67337 0.000682211 4
-4.17189 -11.0991 -2.73747 0.000376369 1
-4.61874 -12.2879 -2.55169 0.000223508 4
-5.67288 -15.0925 -2.5537 0.000101635 4
-7.33478 -19.5139 -2.55967 4.5863e-05 4
-3.46182 -9.30855 -2.66112 0.000504972 4
-4.13612 -11.1217 -2.73946 0.00037639 1
-4.57059 -12.2899 -2.54878 0.000208107 4
-5.61935 -15.11 -2.55332 0.000116164 4
-7.26518 -19.5355 -2.55916 3.05787e-05 4
-3.43188 -9.32756 -2.66311 0.000145866 4
-4.09787 -11.1377 -2.73986 0.00037641 1
-4.53527 -12.3265 -2.55306 0.000212746 4
-5.56612 -15.1283 -2.55311 0.000105473 4
-7.19264 -19.549 -2.55763 4.15917e-05 4
-3.39983 -9.34094 -2.66353 0.000122218 4
-4.06057 -11.1563 -2.74094 0.00037643 1
-4.48614 -12.3256 -2.54961 0.000209676 4
-5.56305 -15.2844 -2.57617 0.000157376 4
-7.12624 -19.5792 -2.55831 4.00671e-05 4
-12.2342 -33.6131 6.95305 2.9867e-05 10
-3.36074 -9.33483 -2.65842 0.00077671 4
-4.0182 -11.161 -2.73862 0.000376451 1
-4.47757 -12.4369 -2.56939 0.000325263 4
-5.56134 -15.4472 -2.60033 0.000177438 4
-7.05977 -19.6093 -2.559 4.03775e-05 4
-12.1318 -33.6974 6.96168 3.0282e-05 10
-3.32943 -9.35014 -2.65946 0.000670288 4
-3.97753 -11.1702 -2.73746 0.000211703 4
-4.47339 -12.5627 -2.59215 0.00032641 4
-5.55263 -15.5936 -2.62169 0.00017331 4
-6.98621 -19.6196 -2.55715 4.28295e-05 4
-12.0256 -33.7717 6.96831 3.0693e-05 10
-3.30256 -9.37814 -2.66413 0.000717636 4
-3.92659 -11.1502 -2.72917 0.000276259 4
-4.47488 -12.7071 -2.61869 0.000366955 4
-5.55041 -15.7612 -2.6466 0.000198093 4
-6.922 -19.6561 -2.55874 4.95654e-05 4
-11.9142 -33.8322 6.97218 3.11002e-05 10
-3.26712 -9.38188 -2.66193 0.000879342 4
-3.87152 -11.1175 -2.71785 0.000261686 4
-4.48111 -12.868 -2.64861 0.000272463 4
-5.53855 -15.9045 -2.6674 0.00014222 4
-6.85303 -19.6792 -2.55862 3.42713e-05 4
-11.807 -33.905 6.97863 3.15034e-05 10
-3.23111 -9.38382 -2.65927 0.000863609 4
-3.82403 -11.1058 -2.71171 0.000244896 4
-4.48145 -13.0151 -2.67565 0.000328595 4
-5.47731 -15.9073 -2.66463 4.51314e-05 4
-6.77834 -19.6857 -2.55638 3.91717e-05 4
-11.6987 -33.9755 6.98471 3.19025e-05 10
-3.19738 -9.39225 -2.65848 0.000749285 4
-3.76942 -11.0726 -2.70038 0.000214802 4
-4.48087 -13.1625 -2.70271 0.000297874 4
-5.43064 -15.9524 -2.669 9.02705e-05 4
-6.71059 -19.7122 -2.55676 4.52974e-05 4
-11.5933 -34.055 6.99269 5.68303e-05 10
-3.16678 -9.4099 -2.66033 3.54941e-05 4
-3.71437 -11.037 -2.68852 0.000261976 4
-4.48629 -13.3307 -2.73404 0.000232145 4
-6.64719 -19.7517 -2.55886 3.52014e-05 4
-11.4909 -34.1444 7.00277 5.69912e-05 10
-3.13736 -9.43124 -2.66325 6.31036e-05 4
-3.66815 -11.0269 -2.68291 0.00022751 4
-4.45444 -13.3905 -2.74309 0.000212569 1
-5.31735 -15.9845 -2.66811 0.000113542 4
-6.57399 -19.7621 -2.55722 3.643e-05 4
-11.3853 -34.2253 7.01117 5.71456e-05 10
-3.10297 -9.43775 -2.66201 0.000216929 4
-3.61399 -10.992 -2.67135 0.000254964 4
-4.40141 -13.387 -2.7392 0.000212583 1
-5.25587 -15.9858 -2.66524 4.85671e-05 4
-6.50568 -19.7871 -2.5575 3.73527e-05 4
-11.2833 -34.3182 7.02209 5.72933e-05 10
-3.07097 -9.45148 -2.66285 0.000149885 4
-3.56336 -10.9669 -2.66221 0.000215643 4
-4.35759 -13.4113 -2.74104 0.000212598 1
-5.20202 -16.0102 -2.66626 7.11466e-05 4
-17.6808 -54.416 -0.998715 3.62947e-05 10
-17.6825 -54.4211 0.998809 3.62677e-05 10
-11.1854 -34.425 7.03591 5.74343e-05 10
-3.03686 -9.45872 -2.66188 0.000315563 4
-3.52834 -10.9895 -2.66468 0.000110256 4
-4.3116 -13.4291 -2.74159 0.000212612 1
-6.36645 -19.8291 -2.55712 3.9505e-05 4
-11.0872 -34.5325 7.04992 7.87255e-05 10
-3.0012 -9.46098 -2.65955 0.00014201 4
-3.48667 -10.9914 -2.66217 0.000482702 4
-4.26486 -13.4445 -2.74169 0.000212627 1
-5.09091 -16.0486 -2.66667 7.80012e-05 4
-6.29937 -19.8581 -2.55801 4.16535e-05 4
-10.9924 -34.6526 7.06656 7.84812e-05 10
-2.96533 -9.46239 -2.65702 0.000252475 4
-3.44336 -10.9878 -2.65838 0.000436171 4
-4.21367 -13.4458 -2.73894 0.000212641 1
-4.82073 -15.383 -2.55326 4.13211e-05 4
-6.23097 -19.883 -2.5584 3.49195e-05 4
-10.8969 -34.7721 7.08314 7.82296e-05 10
-2.93541 -9.48278 -2.65986 0.000122298 4
-3.40863 -11.0115 -2.66122 0.000551371 4
-4.1661 -13.4585 -2.73854 0.000212656 1
-4.76837 -15.4041 -2.55399 7.49965e-05 4
-6.16212 -19.9066 -2.55865 4.13569e-05 4
-10.8041 -34.9024 7.10195 7.79705e-05 10
-2.90187 -9.4916 -2.65947 0.000280116 4
-3.37026 -11.0236 -2.66129 0.000382306 4
-4.11508 -13.4598 -2.73587 0.000133011 4
-4.70881 -15.4018 -2.55087 0.000108678 4
-6.08547 -19.9047 -2.55566 3.73787e-05 4
-10.7169 -35.0534 7.12501 9.48625e-05 10
-2.86997 -9.50579 -2.66063 8.68007e-05 4
-3.33432 -11.0438 -2.66333 0.000487713 4
-4.05369 -13.4265 -2.7262 0.000129961 4
-4.68763 -15.5262 -2.56874 0.000158179 4
-6.01499 -19.9226 -2.55525 4.50436e-05 4
-10.6266 -35.197 7.14662 9.40661e-05 10
-2.83989 -9.52621 -2.66355 0.000110479 4
-3.29542 -11.0543 -2.66307 0.000149508 4
-3.99207 -13.3911 -2.71617 0.000111446 4
-4.68663 -15.721 -2.59825 0.000169349 4
-5.9494 -19.9568 -2.55696 3.52423e-05 4
-10.5418 -35.3619 7.17259 9.3265e-05 10
-2.80281 -9.52313 -2.65994 0.000228861 4
-3.25794 -11.0695 -2.66399 0.000218148 4
-3.92932 -13.3507 -2.70517 0.000128662 4
-4.69094 -15.9384 -2.63147 0.00019636 4
-11.8009 -40.0961 -2.19047 7.27479e-05 10
-11.8064 -40.1148 -0.729904 7.31444e-05 10
-11.807 -40.1167 0.729938 7.31452e-05 10
-11.806 -40.1133 5.13418 7.07962e-05 10
-11.8016 -40.0983 6.62029 6.92636e-05 10
-10.4565 -35.5281 7.19886 9.24591e-05 10
-11.7985 -40.0878 11.1971 4.24454e-05 10
-2.77003 -9.5345 -2.6604 7.89212e-05 4
-3.21918 -11.0805 -2.66391 0.000323564 4
-3.86076 -13.2888 -2.68989 9.68686e-05 4
-4.69611 -16.1641 -2.666 0.000144816 4
-5.8908 -20.2763 -2.59255 6.83019e-05 4
-10.3753 -35.7122 7.22877 0.000102275 10
-2.73936 -9.55327 -2.66295 0.000268345 4
-3.181 -11.0935 -2.66434 9.31525e-05 4
-3.79871 -13.2477 -2.67886 0.000154918 4
-4.69912 -16.3878 -2.70017 0.00015397 4
-5.88441 -20.5214 -2.62125 7.96113e-05 4
-10.306 -35.9412 7.26781 0.000100894 10
-2.70645 -9.56437 -2.66339 0.000157858 4
-3.14021 -11.0973 -2.66261 0.000181413 4
-3.74131 -13.2215 -2.67092 0.000106237 4
-4.70058 -16.6115 -2.73431 0.00011891 4
-5.88936 -20.8126 -2.6558 6.52916e-05 4
-11.3658 -40.1658 -2.18765 4.33041e-05 10
-11.3736 -40.1936 -0.729129 4.35339e-05 10
-11.3718 -40.187 0.729009 4.35282e-05 10
-11.3724 -40.1893 5.12838 4.21115e-05 10
-11.3752 -40.1992 6.61692 4.11964e-05 10
-10.2246 -36.133 7.29934 9.95139e-05 10
-11.3774 -40.2068 11.1964 3.72656e-05 10
-2.67043 -9.5644 -2.66079 0.000177599 4
-3.10212 -11.1105 -2.66317 9.31632e-05 4
-3.68644 -13.2033 -2.66463 0.000117898 4
-4.65402 -16.6688 -2.74106 0.000104728 1
-5.84375 -20.9299 -2.66816 3.56653e-05 4
-11.2806 -40.4024 -2.19838 8.42239e-05 10
-11.2756 -40.3846 -0.731877 8.4644e-05 10
-11.2794 -40.3984 0.732126 8.46054e-05 10
-11.2827 -40.4103 5.15152 8.17719e-05 10
-11.2895 -40.4344 6.64912 7.99612e-05 10
-11.2889 -40.4324 11.2482 7.22456e-05 10
-2.6341 -9.56305 -2.65784 0.000153927 4
-3.05848 -11.1038 -2.65897 0.000232922 4
-3.64135 -13.2199 -2.66538 0.000289911 4
-4.59536 -16.6833 -2.74079 0.000104738 1
-5.77689 -20.9729 -2.67105 3.07685e-05 4
-2.59911 -9.56631 -2.65621 0.000323656 4
-3.02395 -11.13 -2.66271 0.000129953 4
-3.59426 -13.2291 -2.66469 0.000266348 4
-4.54115 -16.7142 -2.74324 0.000104747 1
-5.70004 -20.9796 -2.66936 2.99552e-05 4
-2.57173 -9.59781 -2.66245 0.000248675 4
-2.98131 -11.1264 -2.65934 0.00010544 4
-3.54676 -13.2367 -2.66371 0.000278853 4
-4.48413 -16.735 -2.74406 0.000104756 1
-5.63012 -21.0119 -2.67094 4.79342e-05 4
-14.4728 -54.0131 6.86592 3.02048e-05 10
-2.53502 -9.59468 -2.65911 0.000240793 4
-2.94146 -11.133 -2.65845 5.64014e-05 4
-3.49754 -13.2377 -2.66144 0.000263611 4
-4.42546 -16.7497 -2.74392 0.000104766 1
-9.9461 -37.6445 2.04056 0.000109804 10
-2.50168 -9.60411 -2.65928 0.000284228 4
-2.90655 -11.1584 -2.66209 9.80952e-05 4
-3.4543 -13.2613 -2.66374 0.000137365 4
-4.36283 -16.7491 -2.74132 0.000104775 1
-9.90485 -38.0253 2.05932 0.000106431 10
-2.46683 -9.60766 -2.65787 0.000284243 4
-2.86415 -11.1551 -2.65889 0.000156961 4
-3.40981 -13.2803 -2.66516 3.60782e-05 4
-4.28898 -16.7045 -2.73154 6.98148e-05 4
-5.40726 -21.0599 -2.6697 2.99698e-05 4
-9.93164 -38.6812 2.09295 0.000104866 10
-2.43646 -9.62878 -2.66134 0.000761966 4
-2.82892 -11.1798 -2.66241 0.000171687 4
-3.35839 -13.2722 -2.66117 5.13458e-05 4
-4.20527 -16.619 -2.71516 5.7522e-05 4
-5.10867 -20.1893 -2.55706 3.68275e-05 4
-2.40155 -9.63208 -2.65992 0.000825176 4
-3.31244 -13.2855 -2.66149 6.52277e-05 4
