VERSION 0.7
FIELDS x y z intensity label
SIZE 4 4 4 4 4
TYPE F F F F F
COUNT 1 1 1 1 1
WIDTH 1168
HEIGHT 1
VIEWPOINT 8.06871 48.9803 2.72847 0.731282 0.000611246 0.000597599 -0.682075
POINTS 1168
DATA ascii
-16.4931 12.7014 0.363361 0.000425613 10
-16.5091 12.7137 1.09203 0.000423604 10
-16.5025 12.7086 1.82229 0.00041969 10
-16.4887 12.698 2.55533 0.000413911 10
-16.4969 12.7043 3.29785 0.000406327 10
-16.5098 12.7142 4.05051 0.000397017 10
-16.5133 12.7169 4.81186 0.000386077 10
-16.5032 12.7092 5.58133 0.000373621 10
-8.12496 6.212 -2.74048 0.00060362 1
-9.02212 6.89793 -2.62196 0.000898401 4
-10.4502 7.98979 -2.557 0.000206453 4
-13.7993 10.5504 -2.75121 0.000103436 1
-16.5034 12.6178 -2.55077 0.000414899 10
-16.4937 12.6104 -1.81645 0.000420525 10
-16.5032 12.6176 -1.08872 0.000424281 10
-16.4903 12.6078 -0.362328 0.000426128 10
-16.5043 12.6185 0.362637 0.000426046 10
-16.5116 12.6241 1.08928 0.000424037 10
-16.5164 12.6277 1.81894 0.000420121 10
-16.506 12.6198 2.55117 0.000414338 10
-16.5187 12.6295 3.29337 0.00040675 10
-16.5157 12.6272 4.04112 0.000397435 10
-16.5067 12.6204 4.7971 0.000386489 10
-16.5028 12.6174 5.56626 0.000374025 10
-8.15068 6.18671 -2.74185 0.00112523 4
-9.01569 6.84329 -2.61313 0.000816516 4
-10.4851 7.95862 -2.55872 0.000203382 4
-13.8345 10.501 -2.75089 0.000103428 1
-16.4956 12.5209 -2.54279 0.000415288 10
-16.5063 12.529 -1.81301 0.000420917 10
-16.5034 12.5268 -1.08584 0.000424675 10
-16.502 12.5257 1.08575 0.000424431 10
-16.4997 12.524 1.81228 0.000420513 10
-16.5103 12.532 2.54505 0.000414728 10
-16.5069 12.5294 3.28228 0.000407136 10
-8.1505 6.14184 -2.73456 0.00142932 4
-9.03156 6.80577 -2.61083 0.000720559 4
-11.2957 8.51194 -2.74927 0.000210689 1
-13.8863 10.464 -2.75391 0.00010342 1
-16.5024 12.4355 -2.53713 0.000415639 10
-16.5001 12.4337 -1.80755 0.00042127 10
-16.5225 12.4506 -1.08423 0.00042503 10
-16.5227 12.4508 1.08425 0.000424787 10
-16.5252 12.4527 1.8103 0.000420867 10
-16.5289 12.4554 2.5412 0.00041508 10
-16.5119 12.4426 3.27462 0.000407486 10
-8.14307 6.0918 -2.72492 0.00119162 4
-9.04171 6.76406 -2.60692 0.000867191 4
-11.3216 8.46966 -2.74836 0.000210676 1
-13.9206 10.414 -2.7535 0.000103412 1
-16.5108 12.3517 -2.53178 0.000415951 10
-16.5067 12.3486 -1.80354 0.000421585 10
-16.5216 12.3597 -1.08134 0.000425346 10
-16.5297 12.3658 1.80605 0.000421183 10
-16.5233 12.361 2.53369 0.000415394 10
-16.5263 12.3632 3.26889 0.000407798 10
-8.14949 6.05235 -2.71998 0.0014004 4
-9.05042 6.72144 -2.60265 0.000750594 4
-11.3554 8.43328 -2.7494 0.000210663 1
-13.9478 10.3586 -2.7517 0.000103404 1
-16.5146 12.2648 -2.52578 0.000416226 10
-16.5215 12.27 -1.80047 0.000421861 10
-16.5126 12.2633 -1.07794 0.000425624 10
-16.5257 12.2731 1.80092 0.00042146 10
-16.5335 12.2789 2.52867 0.000415671 10
-16.5212 12.2698 3.2594 0.000408072 10
-8.1597 6.01585 -2.71636 0.00135013 4
-9.04826 6.67095 -2.59532 0.000756042 4
-11.3739 8.38554 -2.74677 0.000210651 1
-13.9849 10.3106 -2.75191 0.000103396 1
-16.5253 12.1835 -2.5209 0.000416463 10
-16.5315 12.188 -1.7969 0.000422099 10
-16.5439 12.1972 1.79825 0.000421699 10
-16.5477 12.2001 2.52432 0.000415908 10
-16.5483 12.2005 3.25633 0.000408309 10
-8.16072 5.97274 -2.70975 0.0014309 4
-9.04594 6.62062 -2.58801 0.000807439 4
-11.3989 8.34274 -2.74576 0.000210638 1
-14.0143 10.2569 -2.75062 0.000103388 1
-16.5413 12.1064 -2.51687 0.000416661 10
-16.5277 12.0965 -1.7919 0.000422298 10
-16.5359 12.1025 1.79279 0.000421899 10
-16.5376 12.1037 2.51631 0.000416108 10
-16.5405 12.1058 3.24644 0.000408508 10
-8.18145 5.94417 -2.70973 0.00140025 4
-9.05367 6.57788 -2.58364 0.000892545 4
-11.4305 8.30474 -2.74637 0.000210625 1
-14.068 10.221 -2.75414 0.00010338 1
-16.5314 12.0108 -2.50897 0.000416821 10
-16.5396 12.0168 -1.78863 0.000422458 10
-16.544 12.0199 1.7891 0.000422059 10
-16.5563 12.0288 2.51274 0.000416269 10
-16.5373 12.015 3.23757 0.00040867 10
-8.17617 5.89684 -2.70114 0.00121461 4
-9.05374 6.52976 -2.57713 0.00109862 4
-11.4576 8.26348 -2.74594 0.000210613 1
-14.0921 10.1635 -2.7519 0.000103373 1
-16.5409 11.9297 -2.50408 0.000416942 10
-16.5386 11.928 -1.784 0.000422578 10
-16.5499 11.9362 1.78522 0.000422181 10
-16.5451 11.9327 2.50471 0.000416392 10
-16.5624 11.9452 3.23431 0.000408794 10
-8.17093 5.84981 -2.69265 0.00155487 4
-9.06151 6.4874 -2.57288 0.000777795 4
-11.4969 8.23097 -2.74846 0.0002106 1
-14.122 10.1104 -2.75084 0.000103365 1
-16.5592 11.8553 -2.50057 0.000417025 10
-16.5549 11.8521 -1.78129 0.00042266 10
-16.5673 11.861 1.78262 0.000422263 10
-16.5511 11.8494 2.49935 0.000416476 10
-16.5656 11.8598 3.22682 0.00040888 10
-8.18324 5.81553 -2.69 0.00147178 4
-9.0684 6.44458 -2.56844 0.000904754 4
-11.5235 8.18932 -2.74796 0.000210588 1
-14.1617 10.0642 -2.75172 0.000103357 1
-16.5472 11.7595 -2.49254 0.000417068 10
-16.5577 11.767 -1.77716 0.000422702 10
-16.5553 11.7652 1.7769 0.000422307 10
-16.5657 11.7726 2.49533 0.000416521 10
-16.5587 11.7677 3.21746 0.000408927 10
-8.20095 5.78513 -2.68916 0.0013033 4
-9.08625 6.40964 -2.56714 0.000992598 4
-11.5579 8.15322 -2.74937 0.000210576 1
-14.1929 10.012 -2.75096 0.000103349 1
-16.5739 11.6916 -2.4904 0.000417073 10
-16.5663 11.6862 -1.77369 0.000422704 10
-16.5618 11.6831 1.77321 0.000422311 10
-16.5822 11.6975 2.49165 0.000416527 10
-16.5783 11.6947 3.21332 0.000408937 10
-8.20282 5.74368 -2.68319 0.00131226 4
-9.0968 6.36965 -2.56382 0.000691373 4
-11.5915 8.11644 -2.75059 0.000210564 1
-14.244 9.97379 -2.75411 0.000103342 1
-16.5754 11.6062 -2.48453 0.000417039 10
-16.5678 11.6009 -1.76951 0.000422667 10
-16.5683 11.6013 1.76956 0.000422275 10
-16.5886 11.6155 2.4865 0.000416494 10
-16.5773 11.6075 3.20525 0.000408907 10
-8.20158 5.70024 -2.67626 0.000383575 4
-9.10343 6.32705 -2.55945 0.000895947 4
-11.6214 8.07711 -2.751 0.000210551 1
-14.2666 9.91556 -2.75177 0.000103334 1
-16.568 11.5151 -2.47738 0.000416965 10
-16.5836 11.5259 -1.76689 0.000422591 10
-16.5761 11.5207 1.76609 0.000422199 10
-16.5938 11.533 2.48124 0.000416422 10
-16.5807 11.5239 3.19811 0.00040884 10
-8.1945 5.65301 -2.66749 0.00058998 4
-9.09924 6.27715 -2.5521 0.00040463 4
-11.6446 8.03306 -2.74982 0.000210539 1
-14.304 9.86765 -2.75231 0.000103327 1
-16.5768 11.4356 -2.47271 0.000416852 10
-16.5747 11.4341 -1.76167 0.000422475 10
-16.5856 11.4417 1.76284 0.000422084 10
-16.5847 11.441 2.47389 0.000416311 10
-16.5973 11.4497 3.19359 0.000408734 10
-8.1953 5.61144 -2.66136 0.000917903 4
-9.1284 6.25035 -2.55414 0.000337176 4
-11.6614 7.98476 -2.7472 0.000210527 1
-14.3437 9.82135 -2.75335 0.000103319 1
-16.5978 11.3648 -2.46991 0.0004167 10
-16.5927 11.3612 -1.75936 0.000422318 10
-16.5817 11.3537 1.7582 0.000421929 10
-16.5983 11.3651 2.46997 0.000416161 10
-16.6038 11.3688 3.18717 0.00040859 10
-8.2009 5.57332 -2.65684 0.000793561 4
-9.14859 6.21738 -2.5537 0.000342554 4
-11.6998 7.95121 -2.7497 0.000210515 1
-14.3677 9.76427 -2.75139 0.000103312 1
-16.5921 11.276 -2.46319 0.000416509 10
-16.5898 11.2744 -1.75487 0.000422122 10
-16.5849 11.2711 -1.0509 0.000425871 10
-16.6009 11.282 -0.350353 0.000427715 10
-16.5866 11.2723 0.350051 0.000427637 10
-16.598 11.28 1.05173 0.000425636 10
-16.5869 11.2725 1.75456 0.000421734 10
-16.588 11.2732 2.46259 0.000415971 10
-16.5908 11.2751 3.1771 0.000408406 10
-16.5943 11.2775 3.89999 0.000399118 10
-16.6134 11.2905 4.63741 0.000388201 10
-16.6086 11.2872 5.3807 0.000375768 10
-8.2202 5.5446 -2.65681 0.00141157 4
-9.16155 6.17955 -2.55129 0.000356025 4
-11.7146 7.90158 -2.74666 0.000210503 1
-14.4009 9.71356 -2.75124 0.000103304 1
-16.6047 11.2 -2.45924 0.000416278 10
-16.6001 11.1969 -1.75181 0.000421886 10
-16.5879 11.1887 -1.0486 0.000425631 10
-16.6106 11.204 -0.349731 0.000427475 10
-16.5984 11.1958 0.349473 0.000427396 10
-16.5915 11.1911 1.04883 0.000425398 10
-16.6137 11.2061 1.75325 0.0004215 10
-16.6155 11.2073 2.46084 0.000415742 10
-16.6107 11.2041 3.17342 0.000408184 10
-16.6068 11.2014 3.89371 0.000398905 10
-16.615 11.2069 4.62689 0.000387998 10
-16.6124 11.2052 5.3692 0.000375577 10
-8.21075 5.49662 -2.64754 0.0012556 4
-9.18371 6.14796 -2.55146 0.000307462 4
-11.745 7.86263 -2.74735 0.000210492 1
-14.4474 9.67166 -2.75364 0.000103297 1
-16.6036 11.1152 -2.45332 0.000416007 10
-16.6007 11.1132 -1.74778 0.00042161 10
-16.6115 11.1205 -1.04764 0.000425352 10
-16.5999 11.1127 -0.348686 0.000427193 10
-16.6159 11.1234 0.349022 0.000427115 10
-16.6094 11.119 1.0475 0.000425119 10
-16.6174 11.1244 1.74953 0.000421225 10
-16.6031 11.1148 2.45324 0.000415473 10
-16.6063 11.117 3.16515 0.000407923 10
-16.6075 11.1178 3.88476 0.000398653 10
-16.6222 11.1276 4.61806 0.000387758 10
-16.6166 11.1238 5.35798 0.000375349 10
-8.21699 5.45936 -2.64339 0.00131918 4
-9.21722 6.12391 -2.55482 0.000345204 4
-11.7679 7.8186 -2.7463 0.00021048 1
-14.475 9.61718 -2.7525 0.00010329 1
-16.604 11.0317 -2.44767 0.000415697 10
-16.6173 11.0405 -1.74545 0.000421294 10
-16.6113 11.0365 -1.04519 0.000425031 10
-16.6237 11.0448 -0.348373 0.000426871 10
-16.6097 11.0355 0.34808 0.000426793 10
-16.6031 11.0311 1.04468 0.000424799 10
-16.6075 11.034 1.74442 0.00042091 10
-16.6098 11.0355 2.44852 0.000415165 10
-16.6199 11.0423 3.16037 0.000407624 10
-16.6129 11.0376 3.87698 0.000398364 10
-16.6157 11.0395 4.60553 0.000387481 10
-16.6183 11.0412 5.34607 0.000375086 10
-8.22056 5.42046 -2.63844 0.00127189 4
-9.22782 6.08463 -2.55186 0.000275072 4
-11.8157 7.79104 -2.7511 0.000210468 1
-14.5028 9.56283 -2.75142 0.000103282 1
-16.6083 10.9512 -2.44266 0.000415347 10
-16.6114 10.9532 -1.74081 0.000420938 10
-16.6083 10.9512 -1.04259 0.000424671 10
-16.6059 10.9496 -0.347198 0.000426508 10
-16.6188 10.9581 0.347468 0.000426431 10
-16.619 10.9582 1.04326 0.000424439 10
-16.6184 10.9578 1.74154 0.000420555 10
-16.6122 10.9537 2.44323 0.000414817 10
-16.6139 10.9549 3.15193 0.000407285 10
-16.6249 10.9621 3.87083 0.000398036 10
-16.6355 10.9691 4.60036 0.000387167 10
-16.6212 10.9597 5.33466 0.000374786 10
-8.2382 5.39093 -2.63804 0.00134737 4
-9.25461 6.05605 -2.5534 0.000342477 4
-11.8392 7.74737 -2.75025 0.000210457 1
-14.5353 9.51162 -2.75127 0.000103275 1
-16.6284 10.8813 -2.44001 0.000414958 10
-16.6298 10.8823 -1.73875 0.000420541 10
-16.6169 10.8738 -1.04074 0.000424269 10
-16.6223 10.8773 -0.346744 0.000426104 10
-16.6311 10.8831 0.346929 0.000426027 10
-16.6195 10.8755 1.04091 0.000424039 10
-16.6207 10.8763 1.73779 0.000420159 10
-16.6297 10.8822 2.44019 0.000414429 10
-16.6184 10.8748 3.14556 0.000406907 10
-16.6268 10.8802 3.86239 0.000397671 10
-16.6314 10.8833 4.58871 0.000386815 10
-16.6308 10.8829 5.32551 0.000374451 10
-8.24445 5.35401 -2.63404 0.00129941 4
-9.27619 6.02403 -2.55354 0.000293923 4
-11.8621 7.70334 -2.7493 0.000210445 1
-14.5809 9.46898 -2.75364 0.000103268 1
-16.6198 10.793 -2.4332 0.000414528 10
-16.6382 10.805 -1.73567 0.000420104 10
-16.6395 10.8058 -1.03979 0.000423827 10
-16.628 10.7983 -0.346074 0.00042566 10
-16.6396 10.8059 0.346316 0.000425583 10
-16.642 10.8074 1.03994 0.000423597 10
-16.644 10.8087 1.73627 0.000419724 10
-16.6268 10.7976 2.43423 0.000414001 10
-16.6405 10.8065 3.1426 0.00040649 10
-16.627 10.7977 3.85368 0.000397267 10
-16.6368 10.8041 4.57976 0.000386427 10
-16.6471 10.8108 5.31863 0.000374079 10
-8.24356 5.31262 -2.62782 0.00153497 4
-9.30634 5.99753 -2.55606 0.000364017 4
-11.8839 7.65868 -2.74815 0.000210434 1
-14.6188 9.42117 -2.75456 0.000103261 1
-16.6405 10.7241 -2.43074 0.000414059 10
-16.6386 10.7229 -1.7318 0.000419627 10
-16.6234 10.713 -1.03644 0.000423344 10
-16.6311 10.718 -0.345359 0.000425174 10
-16.6314 10.7182 0.345365 0.000425098 10
-16.6357 10.721 1.0372 0.000423115 10
-16.6367 10.7216 1.7316 0.000419248 10
-16.6423 10.7252 2.431 0.000413534 10
-16.6388 10.723 3.13518 0.000406035 10
-16.6455 10.7273 3.84925 0.000396825 10
-16.6524 10.7318 4.57372 0.000386001 10
-16.6464 10.7279 5.3064 0.000373672 10
-8.2497 5.2759 -2.62389 0.00163605 4
-9.32432 5.96315 -2.55527 0.000409838 4
-11.9135 7.61902 -2.74883 0.000210422 1
-14.6564 9.37317 -2.75547 0.000103254 1
-16.6279 10.634 -2.42345 0.00041355 10
-16.633 10.6372 -1.72733 0.000419109 10
-16.6451 10.645 -1.03547 0.000422821 10
-16.6447 10.6448 -0.344868 0.000424648 10
-16.6363 10.6394 0.344694 0.000424572 10
-16.6431 10.6437 1.03534 0.000422593 10
-16.6481 10.6469 1.72891 0.000418731 10
-16.6546 10.6511 2.42735 0.000413027 10
-16.6424 10.6432 3.12883 0.000405539 10
-16.6439 10.6442 3.84028 0.000396345 10
-16.6396 10.6415 4.55998 0.000385537 10
-16.6517 10.6492 5.29622 0.000373228 10
-8.24545 5.23272 -2.61671 0.00158859 4
-9.34831 5.93262 -2.55615 0.000390947 4
-11.9413 7.57821 -2.74913 0.000210411 1
-14.6819 9.31745 -2.75413 0.000103247 1
-16.6501 10.5665 -2.42131 0.000413001 10
-16.6318 10.5549 -1.72338 0.00041855 10
-16.6533 10.5685 -1.03367 0.000422256 10
-16.6461 10.5639 -0.34413 0.000424081 10
-16.635 10.5569 0.343901 0.000424005 10
-16.6511 10.5671 1.03354 0.000422029 10
-16.6554 10.5698 1.72582 0.000418175 10
-16.6521 10.5678 2.4216 0.00041248 10
-16.6562 10.5703 3.12448 0.000405005 10
-16.6406 10.5605 3.83099 0.000395826 10
-16.6588 10.572 4.55509 0.000385037 10
-16.665 10.5759 5.28867 0.000372748 10
-8.26172 5.20269 -2.6161 0.00163306 4
-9.36362 5.89659 -2.55469 0.000345097 4
-11.9737 7.54024 -2.7505 0.0002104 1
-14.7047 9.26002 -2.75231 0.00010324 1
-16.6412 10.4795 -2.41468 0.000412412 10
-16.6456 10.4823 -1.72101 0.000417952 10
-16.6545 10.4879 -1.03147 0.000421651 10
-16.6402 10.4789 -0.343251 0.000423473 10
-16.6426 10.4804 0.343299 0.000423397 10
-16.661 10.492 1.03188 0.000421425 10
-16.6552 10.4884 1.722 0.000417577 10
-16.6452 10.482 2.41525 0.000411893 10
-16.6499 10.485 3.11641 0.000404432 10
-16.6655 10.4949 3.82827 0.000395269 10
-16.6678 10.4963 4.54751 0.000384499 10
-16.649 10.4844 5.27194 0.000372231 10
-8.25159 5.15617 -2.60717 0.00145653 4
-9.39367 5.86982 -2.55728 0.000409785 4
-11.9931 7.49415 -2.74894 0.000210388 1
-14.7491 9.21624 -2.75459 0.000103233 1
-16.6462 10.4017 -2.41011 0.000411783 10
-16.6628 10.4121 -1.71901 0.000417313 10
-16.6427 10.3995 -1.02849 0.000421005 10
-16.6595 10.41 -0.342896 0.000422824 10
-16.651 10.4047 0.342722 0.000422748 10
-16.6702 10.4167 1.03019 0.00042078 10
-16.6472 10.4023 1.71741 0.00041694 10
-16.651 10.4047 2.41082 0.000411267 10
-16.6682 10.4154 3.11301 0.000403819 10
-16.6642 10.4129 3.81958 0.000394673 10
-16.6629 10.4121 4.53622 0.000383923 10
-16.6683 10.4155 5.26651 0.000371679 10
-8.257 5.11956 -2.60322 0.00166458 4
-9.39937 5.82786 -2.55328 0.000266888 4
-12.032 7.46015 -2.75185 0.000210377 1
-14.787 9.16835 -2.75568 0.000103226 1
-16.6664 10.3336 -2.4078 0.000411115 10
-16.6586 10.3288 -1.71485 0.000416633 10
-16.6581 10.3285 -1.02721 0.000420319 10
-16.6529 10.3252 -0.342017 0.000422134 10
-16.6526 10.3251 0.34201 0.000422059 10
-16.6711 10.3365 1.028 0.000420094 10
-16.673 10.3377 1.71633 0.000416262 10
-16.6775 10.3405 2.40941 0.0004106 10
-16.6546 10.3263 3.10372 0.000403167 10
-16.6568 10.3276 3.80959 0.000394039 10
-16.6721 10.3371 4.52886 0.00038331 10
-16.6723 10.3373 5.25635 0.000371089 10
-8.25436 5.07812 -2.59678 0.00101414 4
-9.43815 5.80639 -2.5583 0.000342356 4
-12.0577 7.41798 -2.75181 0.000210366 1
-14.8174 9.11571 -2.75539 0.000103219 1
-16.6564 10.2471 -2.40118 0.000410406 10
-16.6701 10.2555 -1.71234 0.000415913 10
-16.6658 10.2528 -1.02546 0.000419591 10
-16.6553 10.2464 -0.341329 0.000421402 10
-16.6774 10.26 0.341781 0.000421328 10
-16.6653 10.2525 1.02543 0.000419368 10
-16.663 10.2511 1.71161 0.000415543 10
-16.6828 10.2633 2.40498 0.000409893 10
-16.6705 10.2558 3.1 0.000402476 10
-16.6711 10.2561 3.80466 0.000393367 10
-16.6679 10.2542 4.51798 0.00038266 10
-16.6736 10.2577 5.24543 0.000370464 10
-8.26029 5.04211 -2.5931 0.0016251 4
-9.45753 5.77291 -2.55807 0.0002453 4
-12.0822 7.37503 -2.7515 0.000210355 1
-14.8309 9.05283 -2.75202 0.000103212 1
-16.6803 10.1817 -2.39949 0.000409657 10
-16.6767 10.1795 -1.70935 0.000415153 10
-16.6831 10.1834 -1.02434 0.000418823 10
-16.6743 10.1781 -0.340989 0.00042063 10
-16.682 10.1828 0.341147 0.000420556 10
-16.6624 10.1708 1.02307 0.0004186 10
-16.6824 10.183 1.70994 0.000414784 10
-16.6861 10.1852 2.40032 0.000409146 10
-16.6778 10.1802 3.09473 0.000401745 10
-16.688 10.1864 3.80037 0.000392656 10
-16.6897 10.1875 4.51423 0.000381972 10
-16.688 10.1864 5.23874 0.000369803 10
-8.27539 5.01175 -2.59233 0.00167042 4
-9.46975 5.73509 -2.55595 0.000210248 4
-12.107 7.33226 -2.7513 0.000210344 1
-14.8677 9.00422 -2.753 0.000103205 1
-16.6817 10.1028 -2.3946 0.000408868 10
-16.6717 10.0968 -1.70522 0.000414351 10
-16.6699 10.0957 -1.02136 0.000418014 10
-16.6655 10.093 -0.340087 0.000419817 10
-16.6769 10.0999 0.340318 0.000419743 10
-16.6921 10.1091 1.02272 0.000417792 10
-16.6689 10.0951 1.70494 0.000413985 10
-16.6876 10.1064 2.39545 0.00040836 10
-16.6951 10.1109 3.09137 0.000400975 10
-16.696 10.1114 3.79414 0.000391907 10
-16.678 10.1006 4.5015 0.000381247 10
-16.6916 10.1088 5.22877 0.000369105 10
-8.28146 4.976 -2.58877 0.00152412 4
-9.48345 5.69823 -2.55426 0.000377353 4
-12.1327 7.29006 -2.75134 0.000210333 1
-14.9149 8.9618 -2.75593 0.000103199 1
-16.6663 10.0141 -2.38736 0.000408039 10
-16.6777 10.0209 -1.70224 0.00041351 10
-16.6859 10.0259 -1.02018 0.000417163 10
-16.6816 10.0233 -0.339698 0.000418963 10
-16.6862 10.0261 0.339792 0.000418889 10
-16.6808 10.0229 1.01988 0.000416943 10
-16.6934 10.0304 1.70385 0.000413145 10
-16.688 10.0271 2.39046 0.000407533 10
-16.6757 10.0198 3.08128 0.000400166 10
-16.7001 10.0345 3.7871 0.000391119 10
-16.6892 10.0279 4.49505 0.000380485 10
-16.6841 10.0248 5.21543 0.000368371 10
-8.28264 4.93744 -2.58374 0.00158118 4
-9.50641 5.66696 -2.5551 0.000115896 4
-12.1538 7.24514 -2.75038 0.000210323 1
-14.9261 8.89775 -2.75224 0.000103192 1
-16.6788 9.94253 -2.38416 0.00040717 10
-16.6953 9.95239 -1.70049 0.000412627 10
-16.6844 9.94589 -1.01797 0.000416272 10
-16.6873 9.9476 -0.339105 0.000418067 10
-16.6881 9.94813 0.339122 0.000417994 10
-16.7017 9.95619 1.01902 0.000416053 10
-16.6791 9.94276 1.69884 0.000412264 10
-16.7022 9.95653 2.38751 0.000406666 10
-16.6956 9.95258 3.07852 0.000399318 10
-16.6866 9.94718 3.77612 0.000390293 10
-16.6966 9.95317 4.48765 0.000379685 10
-16.6882 9.94815 5.20581 0.0003676 10
-8.28424 4.89929 -2.57889 0.00154165 4
-9.51795 5.6289 -2.55291 0.000393492 4
-12.1724 7.19875 -2.74888 0.000210312 1
-14.9569 8.8455 -2.75221 0.000103185 1
-16.6834 9.86656 -2.37989 0.000406262 10
-16.6992 9.8759 -1.69736 0.000411705 10
-16.689 9.86983 -1.01614 0.000415341 10
-16.6937 9.87263 -0.338533 0.000417131 10
-16.6851 9.86753 1.69593 0.000411343 10
-16.7077 9.88091 2.38335 0.00040576 10
-16.7099 9.88222 3.07478 0.00039843 10
-16.6906 9.8708 3.76922 0.000389429 10
-16.7068 9.88038 4.4811 0.000378847 10
-8.29513 4.86673 -2.57697 0.00140388 4
-9.55539 5.60612 -2.55768 0.000344965 4
-12.1906 7.15217 -2.74733 0.000210301 1
-14.9872 8.79296 -2.75212 0.000103179 1
-16.6829 9.7878 -2.37492 0.000405313 10
-16.6996 9.7976 -1.69392 0.000410742 10
-16.6993 9.79744 -1.01468 0.000414368 10
-16.7018 9.79892 -0.338002 0.000416154 10
-16.6961 9.79556 1.69356 0.000410382 10
-16.7018 9.79889 2.37761 0.000404814 10
-16.7076 9.80229 3.06804 0.000397503 10
-16.7088 9.80299 3.76557 0.000388526 10
-16.6981 9.79675 4.46958 0.000377972 10
-8.30482 4.83352 -2.57473 0.00158363 4
-9.57237 5.57125 -2.55701 0.000309917 4
-12.2372 7.12223 -2.75222 0.000210291 1
-15.0316 8.74858 -2.75464 0.000103172 1
-16.6873 9.71222 -2.3707 0.000404324 10
-16.7029 9.72132 -1.6908 0.000409738 10
-16.6913 9.71459 -1.01213 0.000413354 10
-16.7159 9.72887 -0.337597 0.000415136 10
-16.7185 9.7304 1.69238 0.00040938 10
-16.716 9.72895 2.37479 0.000403827 10
-16.7059 9.72306 3.06147 0.000396537 10
-16.7042 9.72207 3.75687 0.000387584 10
-16.711 9.72605 4.46391 0.00037706 10
-8.2856 4.7837 -2.56357 0.0016665 4
-9.58827 5.53579 -2.55608 0.000315294 4
-12.2397 7.06659 -2.74721 0.00021028 1
-15.0605 8.69518 -2.75436 0.000103165 1
-16.693 9.6377 -2.36672 0.000403295 10
-16.7056 9.64499 -1.68765 0.000408694 10
-16.7021 9.64295 -1.01073 0.0004123 10
-16.7062 9.64531 -0.336719 0.000414077 10
-16.7017 9.64274 1.68726 0.000408338 10
-16.7005 9.64203 2.36778 0.000402801 10
-16.7192 9.65286 3.05772 0.000395532 10
-16.7179 9.65212 3.75236 0.000386605 10
-16.7235 9.65532 4.45821 0.00037611 10
-8.29546 4.75085 -2.56148 0.00166327 4
-9.59374 5.49439 -2.55241 0.000382649 4
-12.2761 7.03059 -2.74986 0.00021027 1
-15.0949 8.64495 -2.75513 0.000103159 1
-16.7087 9.56914 -2.36419 0.000402227 10
-16.7054 9.56727 -1.68425 0.00040761 10
-16.7227 9.57716 -1.00995 0.000411205 10
-16.7265 9.57936 -0.336453 0.000412976 10
-16.7276 9.57997 1.68648 0.000407255 10
-16.7081 9.56881 2.36411 0.000401735 10
-16.7261 9.57912 3.05284 0.000394487 10
-16.7294 9.58101 3.7474 0.000385586 10
-16.7134 9.57183 4.44657 0.000375123 10
-8.29891 4.71444 -2.55745 0.00136035 4
-9.61537 5.46229 -2.55307 0.000342215 4
-12.3114 6.99384 -2.75228 0.000210259 1
-15.1295 8.59475 -2.75594 0.000103152 1
-16.7172 9.49668 -2.36069 0.000401118 10
-16.7082 9.49156 -1.68118 0.000406485 10
-16.708 9.4915 -1.00706 0.00041007 10
-16.7107 9.49302 -0.335467 0.000411836 10
-16.7127 9.49416 1.68164 0.000406132 10
-16.7249 9.50105 2.36178 0.000400629 10
-16.7351 9.50689 3.04842 0.000393404 10
-16.7279 9.5028 3.73962 0.00038453 10
-16.7329 9.50562 4.44292 0.000374099 10
-8.31301 4.68414 -2.55674 0.00176924 4
-9.64659 5.43557 -2.55631 0.000299089 4
-12.3123 6.9376 -2.74704 0.000210249 1
-15.1427 8.53247 -2.7529 0.000103146 1
-16.7144 9.41807 -2.35564 0.00039997 10
-16.7117 9.41654 -1.67821 0.00040532 10
-16.7156 9.41878 -1.00553 0.000408894 10
-16.7258 9.4245 -0.335107 0.000410654 10
-16.722 9.42237 1.67925 0.000404969 10
-16.7179 9.42005 2.35614 0.000399483 10
-16.7248 9.42394 3.04053 0.000392281 10
-16.7287 9.42615 3.73242 0.000383436 10
-16.7344 9.42937 4.43456 0.000373038 10
-8.32877 4.65479 -2.55657 0.000481084 4
-9.66633 5.40233 -2.55653 0.000304466 4
-12.3529 6.90379 -2.75071 0.000210239 1
-15.1724 8.47956 -2.7529 0.00010314 1
-16.7364 9.35367 -2.35413 0.000398782 10
-16.7226 9.34595 -1.67602 0.000404115 10
-16.7176 9.34315 -1.00368 0.000407677 10
-16.7183 9.34354 -0.334301 0.000409432 10
-16.7285 9.34927 1.67662 0.000403766 10
-16.7271 9.34849 2.35283 0.000398298 10
-16.7365 9.35369 3.03669 0.00039112 10
-16.7296 9.34985 3.72531 0.000382303 10
-16.7347 9.35273 4.42596 0.000371939 10
-8.34115 4.62357 -2.5554 0.000559079 4
-9.66985 5.36008 -2.55249 0.000366423 4
-12.3743 6.85919 -2.75013 0.000210229 1
-15.2233 8.43842 -2.75678 0.000103133 1
-16.7322 9.27482 -2.34897 0.000397555 10
-16.7425 9.28051 -1.67476 0.000402869 10
-16.7342 9.2759 -1.00272 0.000406419 10
-16.7335 9.27552 -0.333956 0.000408168 10
-16.7379 9.27795 1.6743 0.000402522 10
-16.7312 9.27426 2.34883 0.000397073 10
-16.7452 9.28202 3.03238 0.000389919 10
-16.7284 9.27271 3.71782 0.000381132 10
-16.7434 9.281 4.41965 0.000370803 10
-8.35925 4.59554 -2.55602 0.000554726 4
-9.68955 5.32687 -2.55277 0.000336772 4
-12.4003 6.8171 -2.7506 0.000210219 1
-15.2306 8.37312 -2.7528 0.000103127 1
-16.7439 9.20502 -2.34608 0.000396287 10
-16.7499 9.20831 -1.67227 0.000401584 10
-16.7392 9.20243 -1.00109 0.000405122 10
-16.7338 9.19947 -0.333318 0.000406865 10
-16.7453 9.2058 1.67181 0.000401238 10
-16.7324 9.19871 2.34447 0.000395808 10
-16.7353 9.20029 3.02475 0.000388679 10
-16.759 9.21333 3.71744 0.000379923 10
-16.7489 9.2078 4.4126 0.00036963 10
-8.35817 4.55702 -2.55081 0.000537373 4
-9.71108 5.29466 -2.55356 0.000347536 4
-12.4321 6.77819 -2.75239 0.000210209 1
-15.274 8.32767 -2.75537 0.000103121 1
-16.7388 9.12632 -2.3409 0.000394981 10
-16.7343 9.12382 -1.66752 0.000400258 10
-16.7486 9.13165 -0.999744 0.000403783 10
-16.7483 9.1315 -0.332972 0.00040552 10
-16.7368 9.1252 1.66778 0.000399915 10
-16.7365 9.12503 2.34057 0.000394504 10
-16.7596 9.13766 3.02337 0.000387401 10
-16.7385 9.12615 3.70581 0.000378676 10
-16.7513 9.13312 4.40481 0.00036842 10
-8.37842 4.53019 -2.55214 0.000580691 4
-9.72605 5.25885 -2.55265 0.000317889 4
-12.4314 6.72166 -2.74704 0.000210199 1
-15.3121 8.27924 -2.75701 0.000103115 1
-16.7364 9.04934 -2.33613 0.000393635 10
-16.7391 9.05081 -1.66485 0.000398893 10
-16.7377 9.05004 -0.9972 0.000402405 10
-16.76 9.06212 -0.332573 0.000404135 10
-16.7569 9.06045 1.66662 0.000398551 10
-16.7524 9.05798 2.33836 0.000393161 10
-16.7593 9.06175 3.01759 0.000386083 10
-16.7474 9.05528 3.70075 0.000377391 10
-16.7481 9.05565 4.39561 0.000367173 10
-8.40215 4.5052 -2.55457 0.000624006 4
-9.75854 5.23249 -2.55637 0.000309795 4
-12.4803 6.69186 -2.75265 0.000210189 1
-15.3326 8.22125 -2.75551 0.000103109 1
-16.759 8.98612 -2.33489 0.000392249 10
-16.7528 8.98279 -1.66308 0.000397487 10
-16.7566 8.98481 -0.996451 0.000400986 10
-16.7667 8.99022 -0.33208 0.00040271 10
-16.7489 8.98068 1.66269 0.000397147 10
-16.7611 8.98725 2.33519 0.000391778 10
-16.7544 8.98361 3.01103 0.000384728 10
-16.7593 8.98628 3.69644 0.000376069 10
-16.7647 8.98917 4.39172 0.000365889 10
-8.42062 4.47732 -2.55542 0.00060232 4
-9.77443 5.19716 -2.55576 0.000352883 4
-12.5003 6.64652 -2.75193 0.000210179 1
-15.3663 8.1704 -2.75643 0.000103102 1
-16.7556 8.90911 -2.33007 0.000390824 10
-16.7709 8.91725 -1.66178 0.000396042 10
-16.7546 8.90857 -0.994477 0.000399527 10
-16.7638 8.91346 -0.331405 0.000401245 10
-16.7662 8.91475 1.66131 0.000395704 10
-16.7613 8.91216 2.33087 0.000390355 10
-16.7677 8.91554 3.00781 0.000383333 10
-16.759 8.91091 3.68948 0.000374708 10
-16.7791 8.92161 4.38731 0.000364568 10
-8.42569 4.44237 -2.55223 0.00055897 4
-9.80185 5.16793 -2.5582 0.00035287 4
-12.5066 6.59397 -2.74823 0.000210169 1
-15.3794 8.10865 -2.75369 0.000103096 1
-16.7706 8.84216 -2.32785 0.00038936 10
-16.7711 8.84242 -1.65873 0.000394557 10
-16.7669 8.84018 -0.993369 0.000398028 10
-16.7619 8.83755 -0.330756 0.000399739 10
-16.7725 8.84312 1.65886 0.000394221 10
-16.7684 8.84096 2.32754 0.000388894 10
-16.7737 8.84376 3.00333 0.0003819 10
-16.7703 8.84198 3.68515 0.00037331 10
-16.7757 8.84485 4.37833 0.00036321 10
-8.44104 4.41287 -2.5522 0.000428963 4
-9.81261 5.12991 -2.55632 0.000301679 4
-12.5258 6.54831 -2.74741 0.00021016 1
-15.4073 8.05474 -2.75363 0.00010309 1
-16.7583 8.76105 -2.32189 0.000387856 10
-16.7768 8.77072 -1.65626 0.000393032 10
-16.7804 8.77257 -0.992349 0.000396489 10
-16.7738 8.76912 -0.330384 0.000398193 10
-16.7625 8.76321 1.65484 0.000392698 10
-16.7836 8.77426 2.32539 0.000387393 10
-16.7681 8.76616 2.99684 0.000380428 10
-16.7877 8.7764 3.68222 0.000371874 10
-16.7842 8.77457 4.37252 0.000361816 10
-8.4588 4.38463 -2.55293 0.000402953 4
-9.82963 5.0952 -2.55611 0.000312442 4
-12.5697 6.51553 -2.75205 0.00021015 1
-15.4301 7.99823 -2.75271 0.000103084 1
-16.7831 8.69954 -2.3211 0.000386314 10
-16.766 8.69069 -1.65219 0.000391468 10
-16.7862 8.70113 -0.990888 0.000394911 10
-16.7829 8.69942 -0.329963 0.000396607 10
-16.7901 8.70316 1.65456 0.000391136 10
-16.7926 8.70447 2.32241 0.000385854 10
-16.7801 8.69798 2.99354 0.000378919 10
-16.7742 8.69491 3.67257 0.0003704 10
-16.7926 8.70448 4.36677 0.000360386 10
-8.4813 4.3588 -2.55511 0.000541586 4
-9.85168 5.06308 -2.55723 0.000285496 4
-12.5768 6.46363 -2.74865 0.000210141 1
-15.4832 7.95727 -2.75719 0.000103079 1
-16.7719 8.61957 -2.31537 0.000384733 10
-16.7757 8.62156 -1.65017 0.000389864 10
-16.7775 8.62246 -0.988593 0.000393292 10
-16.7735 8.62043 -0.329186 0.000394981 10
-16.7827 8.62514 1.65085 0.000389534 10
-16.7834 8.6255 2.31696 0.000384276 10
-16.7746 8.62096 2.98716 0.000377371 10
-16.7781 8.62277 3.66682 0.000368889 10
-16.7844 8.62601 4.35677 0.000358918 10
-8.8593 4.51404 -2.66423 0.000191732 4
-9.85108 5.01938 -2.55251 0.000401297 4
-12.6031 6.42159 -2.74946 0.000210131 1
-15.5089 7.90219 -2.75685 0.000103073 1
-16.786 8.55291 -2.31319 0.000383113 10
-16.7935 8.55673 -1.64897 0.000388221 10
-16.7841 8.55194 -0.98722 0.000391634 10
-16.7767 8.54817 -0.328661 0.000393315 10
-16.7796 8.54966 1.64761 0.000387893 10
-16.7827 8.5512 2.31272 0.000382658 10
-16.7989 8.55946 2.98615 0.000375784 10
-16.8029 8.5615 3.66569 0.000367341 10
-16.786 8.55289 4.34941 0.000357415 10
-8.87329 4.48223 -2.66371 0.000759079 4
-9.88417 4.99286 -2.55655 0.000333953 4
-12.6278 6.37876 -2.74998 0.000210122 1
-15.5243 7.8419 -2.7547 0.000103067 1
-16.7868 8.47965 -2.30921 0.000381454 10
-16.7809 8.47665 -1.64482 0.000386539 10
-16.7836 8.47799 -0.985439 0.000389936 10
-16.7814 8.47692 -0.328172 0.00039161 10
-16.806 8.48933 1.64728 0.000386213 10
-16.7949 8.48373 2.31032 0.000381002 10
-16.7837 8.47805 2.97817 0.00037416 10
-16.7966 8.4846 3.65784 0.000365756 10
-16.8016 8.48711 4.34575 0.000355875 10
-8.90791 4.46075 -2.66941 0.000422567 4
-9.90958 4.96235 -2.55863 0.000331248 4
-12.6586 6.33898 -2.75186 0.000210113 1
-15.5609 7.79233 -2.75636 0.000103061 1
-16.783 8.40432 -2.30463 0.000379756 10
-16.7838 8.40471 -1.64222 0.000384817 10
-16.8015 8.41357 -0.984762 0.000388198 10
-16.8028 8.4142 -0.328012 0.000389865 10
-16.8062 8.41591 1.6444 0.000384494 10
-16.809 8.41734 2.30821 0.000379308 10
-16.793 8.4093 2.9746 0.000372498 10
-16.8135 8.41957 3.65509 0.000364133 10
-16.8137 8.41969 4.34126 0.000354299 10
-8.91491 4.4254 -2.66687 0.00029344 4
-9.90364 4.91621 -2.55265 0.000366244 4
-12.6748 6.29184 -2.75059 0.000210103 1
-15.5743 7.73115 -2.75393 0.000103055 1
-16.8067 8.34295 -2.30388 0.00037802 10
-16.8078 8.34349 -1.64171 0.000383057 10
-16.7918 8.33552 -0.982481 0.000386422 10
-16.789 8.33412 -0.327173 0.00038808 10
-16.8105 8.34479 1.64196 0.000382736 10
-16.8102 8.34468 2.30436 0.000377575 10
-16.7956 8.33743 2.96989 0.000370798 10
-16.8026 8.34089 3.64637 0.000362473 10
-16.8127 8.34593 4.33346 0.000352687 10
-8.91767 4.38804 -2.66309 0.000625987 4
-9.93931 4.89075 -2.55742 0.000323145 4
-12.699 6.2487 -2.7511 0.000210094 1
-15.6047 7.67847 -2.75455 0.00010305 1
-16.8094 8.27124 -2.30027 0.000376246 10
-16.7963 8.26482 -1.63775 0.000381258 10
-16.8131 8.27308 -0.982034 0.000384606 10
-16.8093 8.27122 -0.327005 0.000386257 10
-16.8141 8.27355 1.63948 0.000380939 10
-16.8204 8.27664 2.30177 0.000375803 10
-16.81 8.27152 2.9673 0.00036906 10
-16.7991 8.26616 3.63932 0.000360777 10
-16.8054 8.26927 4.32409 0.000351038 10
-8.93983 4.36025 -2.66515 0.000465564 4
-9.9409 4.8485 -2.55346 0.000277357 4
-12.723 6.20544 -2.75158 0.000210085 1
-15.6274 7.62199 -2.75384 0.000103044 1
-16.7975 8.19267 -2.29471 0.000374433 10
-16.7953 8.19161 -1.63485 0.00037942 10
-16.8022 8.195 -0.979721 0.000382752 10
-16.8153 8.20138 -0.326562 0.000384394 10
-16.8258 8.20649 1.63782 0.000379103 10
-16.8215 8.20439 2.29799 0.000373994 10
-16.8106 8.19907 2.96234 0.000367285 10
-16.8163 8.20187 3.63683 0.000359044 10
-16.8058 8.19674 4.31681 0.000349355 10
-8.96593 4.3343 -2.6684 0.000414692 4
-9.97469 4.82195 -2.5578 0.000293503 4
-12.7432 6.1603 -2.75127 0.000210076 1
-15.6525 7.56673 -2.7536 0.000103039 1
-16.8094 8.12598 -2.29245 0.000372583 10
-16.8154 8.12888 -1.63404 0.000377544 10
-16.8121 8.1273 -0.978638 0.000380858 10
-16.8241 8.13307 -0.326179 0.000382492 10
-16.8214 8.13179 1.63462 0.000377229 10
-16.8198 8.131 2.29386 0.000372146 10
-16.8224 8.13227 2.9594 0.000365472 10
-16.8294 8.13565 3.63349 0.000357274 10
-16.8126 8.12753 4.31124 0.000347635 10
-8.98076 4.30286 -2.66833 0.000399031 4
-9.97992 4.78158 -2.55485 0.00028003 4
-12.7691 6.11794 -2.75225 0.000210067 1
-15.6813 7.51321 -2.75402 0.000103033 1
-16.827 8.06216 -2.291 0.000370694 10
-16.8258 8.06159 -1.63231 0.000375629 10
-16.8207 8.05914 -0.977494 0.000378925 10
-16.8164 8.05706 -0.325483 0.000380551 10
-16.8255 8.06144 1.63228 0.000375316 10
-16.8311 8.06413 2.29156 0.000370261 10
-16.8375 8.06719 2.95709 0.000363622 10
-16.8298 8.06349 3.62748 0.000355468 10
-16.8175 8.0576 4.30526 0.00034588 10
-8.98178 4.26487 -2.6642 0.000461611 4
-9.99512 4.74604 -2.55448 0.000242325 4
-12.7709 6.06408 -2.74805 0.000210058 1
-15.7137 7.46142 -2.75513 0.000103027 1
-16.8223 7.98781 -2.28654 0.000368768 10
-16.8168 7.9852 -1.62872 0.000373676 10
-16.8248 7.98903 -0.976108 0.000376955 10
-16.8221 7.98774 -0.325053 0.000378571 10
-16.8159 7.98477 1.62863 0.000373366 10
-16.8243 7.98878 2.28682 0.000368338 10
-16.8368 7.99472 2.95205 0.000361735 10
-16.8263 7.98972 3.62069 0.000353625 10
-16.8292 7.99108 4.30108 0.00034409 10
-9.01694 4.24305 -2.67021 0.000665014 4
-10.0167 4.71349 -2.55577 0.000368861 4
-12.799 6.02276 -2.74956 0.00021005 1
-15.7425 7.40787 -2.75563 0.000103022 1
-16.8191 7.91445 -2.28234 0.000366804 10
-16.8145 7.9123 -1.62581 0.000371685 10
-16.8163 7.91316 -0.974005 0.000374945 10
-16.8158 7.9129 -0.324394 0.000376553 10
-16.8446 7.92646 1.62872 0.000371376 10
-16.8273 7.91834 2.28346 0.000366377 10
-16.845 7.92667 2.94862 0.000359811 10
-16.8431 7.92578 3.61834 0.000351746 10
-16.8354 7.92215 4.29559 0.000342264 10
-9.01152 4.20214 -2.66425 0.000481143 4
-10.0264 4.6754 -2.55408 0.000379617 4
-12.8144 5.97545 -2.74836 0.000210041 1
-15.755 7.34669 -2.75331 0.000103017 1
-16.8296 7.84779 -2.28004 0.000364803 10
-16.8278 7.84692 -1.62443 0.000369656 10
-16.8434 7.8542 -0.973978 0.000372898 10
-16.8413 7.85325 -0.324356 0.000374496 10
-16.8456 7.85522 1.62615 0.00036935 10
-16.8484 7.85654 2.28258 0.000364378 10
-16.8387 7.85204 2.9427 0.00035785 10
-16.8533 7.85881 3.6146 0.000349831 10
-16.8413 7.85323 4.29006 0.000340403 10
-9.03522 4.17486 -2.66693 0.000582831 4
-10.0442 4.64107 -2.55447 0.000347298 4
-12.8346 5.93044 -2.74825 0.000210032 1
-15.7924 7.29711 -2.75538 0.000103011 1
-16.8224 7.77306 -2.27538 0.000362764 10
-16.8314 7.77719 -1.62216 0.000367589 10
-16.8436 7.78285 -0.972416 0.000370812 10
-16.8502 7.7859 -0.324002 0.000372401 10
-16.8427 7.78242 1.62324 0.000367285 10
-16.8374 7.77999 2.27741 0.000362343 10
-16.8495 7.78556 2.93981 0.000355853 10
-16.8443 7.78314 3.60682 0.00034788 10
-16.853 7.7872 4.28611 0.000338507 10
-9.04443 4.14087 -2.66537 0.000383328 4
-10.0633 4.60734 -2.55521 0.000352671 4
-12.8753 5.89479 -2.75254 0.000210024 1
-15.8137 7.24007 -2.75466 0.000103006 1
-16.8392 7.70959 -2.27399 0.000360688 10
-16.8409 7.71038 -1.62047 0.000365484 10
-16.8368 7.70847 -0.97046 0.000368689 10
-16.8508 7.7149 -0.323493 0.000370268 10
-16.8574 7.71794 1.62206 0.000365183 10
-16.8564 7.71745 2.27631 0.00036027 10
-16.8588 7.71854 2.93671 0.000353819 10
-16.8613 7.71971 3.60468 0.000345894 10
-16.8644 7.72111 4.2821 0.000336576 10
-9.07078 4.11469 -2.66888 0.000930913 4
-10.0936 4.57865 -2.55883 0.000363427 4
-12.8777 5.84159 -2.74867 0.000210015 1
-15.841 7.18581 -2.75505 0.000103001 1
-16.8387 7.63838 -2.27031 0.000358575 10
-16.8464 7.64186 -1.61842 0.000363342 10
-16.8477 7.64244 -0.969545 0.000366527 10
-16.8556 7.64605 -0.323072 0.000368097 10
-16.8392 7.6386 1.61773 0.000363043 10
-16.8593 7.64772 2.27309 0.00035816 10
-16.8555 7.646 2.93148 0.000351748 10
-16.8682 7.65174 3.60042 0.000343872 10
-16.851 7.64394 4.2719 0.000334611 10
-9.09107 4.08569 -2.67064 0.000668831 4
-10.0861 4.53288 -2.55291 0.000320344 4
-12.8995 5.79725 -2.74898 0.000210007 1
-15.8672 7.13099 -2.75524 0.000102995 1
-16.8563 7.57551 -2.2691 0.000356425 10
-16.855 7.57496 -1.6167 0.000361163 10
-16.8556 7.57519 -0.968471 0.000364328 10
-16.8414 7.56881 -0.32229 0.000365889 10
-16.8567 7.57571 1.61686 0.000360866 10
-16.8468 7.57126 2.26782 0.000356014 10
-16.8603 7.57733 2.9277 0.000349642 10
-16.8472 7.57142 3.59027 0.000341814 10
-16.8583 7.57644 4.26704 0.000332611 10
-9.08062 4.04295 -2.66341 0.000848727 4
-10.102 4.49768 -2.55293 0.00030149 4
-12.9378 5.76029 -2.75285 0.000209999 1
-15.9037 7.08076 -2.75727 0.00010299 1
-16.8648 7.50869 -2.2667 0.000354239 10
-16.8516 7.50281 -1.61385 0.000358946 10
-16.8606 7.50683 -0.967251 0.000362091 10
-16.855 7.50431 -0.322047 0.000363642 10
-16.866 7.50921 0.322257 0.000363583 10
-16.8667 7.50954 0.9676 0.000361913 10
-16.8711 7.51148 1.61571 0.000358652 10
-16.8594 7.5063 2.26598 0.00035383 10
-16.8724 7.51206 2.92522 0.000347499 10
-16.8539 7.50385 3.58611 0.000339722 10
-16.8683 7.51025 4.2629 0.000330577 10
-16.8689 7.51052 4.94777 0.000320157 10
-9.09335 4.01065 -2.66302 0.000246398 4
-10.1411 4.47276 -2.55886 0.000261104 4
-12.9528 5.71285 -2.75177 0.00020999 1
-15.923 7.02287 -2.75635 0.000102985 1
-16.856 7.43438 -2.26202 0.000352016 10
-16.8489 7.43124 -1.61109 0.000356693 10
-16.8613 7.43671 -0.965794 0.000359818 10
-16.858 7.43526 -0.321607 0.000361359 10
-16.8598 7.43608 0.321642 0.0003613 10
-16.8568 7.43474 0.965538 0.000359642 10
-16.8589 7.43567 1.61205 0.000356401 10
-16.8645 7.43814 2.26316 0.000351611 10
-16.8599 7.4361 2.91854 0.000345321 10
-16.8809 7.44537 3.5863 0.000337594 10
-16.8653 7.43849 4.25556 0.000328509 10
-16.8658 7.43868 4.9392 0.000318156 10
-9.12872 3.98824 -2.66928 0.000391097 4
-10.1454 4.4324 -2.55602 0.000231487 4
-12.9669 5.6651 -2.75056 0.000209982 1
-15.9496 6.96821 -2.75673 0.00010298 1
-16.8572 7.36473 -2.25872 0.000349757 10
-16.8574 7.36483 -1.60944 0.000354403 10
-16.8688 7.36979 -0.964743 0.000357507 10
-16.8697 7.37021 -0.321338 0.000359038 10
-16.8559 7.36417 0.321074 0.00035898 10
-16.8673 7.36916 0.964661 0.000357333 10
-16.8615 7.3666 1.60983 0.000354114 10
-16.8661 7.36862 2.25991 0.000349356 10
-16.867 7.369 2.91529 0.000343107 10
-16.8716 7.37102 3.57882 0.000335431 10
-16.8664 7.36877 4.24933 0.000326406 10
-16.88 7.37468 4.93579 0.000316123 10
-9.12292 3.94784 -2.66354 0.000207276 4
-10.1566 4.39514 -2.55496 0.000349911 4
-12.9929 5.62251 -2.75189 0.000209974 1
-15.9782 6.9144 -2.7575 0.000102975 1
-16.8559 7.2942 -2.25512 0.000347462 10
-16.8566 7.29449 -1.60692 0.000352077 10
-16.8825 7.30572 -0.964065 0.00035516 10
-16.8596 7.29581 -0.320658 0.00035668 10
-16.8625 7.29707 0.320714 0.000356622 10
-16.8808 7.30498 0.963967 0.000354986 10
-16.8768 7.30325 1.60885 0.000351789 10
-16.8637 7.29756 2.25616 0.000347064 10
-16.8881 7.30814 2.91452 0.000340858 10
-16.8802 7.30473 3.57523 0.000333234 10
-16.8829 7.30589 4.24702 0.00032427 10
-16.8837 7.30623 4.92939 0.000314056 10
-9.16002 3.92599 -2.67036 0.000430184 4
-10.1636 4.35612 -2.55289 0.000331059 4
-12.9957 5.56996 -2.74835 0.000209966 1
-15.9846 6.85103 -2.75446 0.00010297 1
-16.8692 7.23017 -2.25351 0.000345131 10
-16.8851 7.23697 -1.60722 0.000349714 10
-16.867 7.22923 -0.961734 0.000352776 10
-16.8676 7.22949 -0.320329 0.000354286 10
-16.872 7.23135 0.320411 0.000354229 10
-16.881 7.2352 0.962528 0.000352604 10
-16.8896 7.23892 1.60765 0.000349429 10
-16.8803 7.23492 2.25499 0.000344736 10
-16.8812 7.23531 2.90896 0.000338574 10
-16.8968 7.242 3.57337 0.000331003 10
-16.8852 7.23702 4.24123 0.000322101 10
-16.8745 7.23242 4.91931 0.000311957 10
-9.15455 3.88587 -2.66479 0.000375423 4
-10.1917 4.32613 -2.55614 0.000390261 4
-13.0347 5.53291 -2.7525 0.000209958 1
-16.0282 6.80357 -2.75786 0.000102965 1
-16.874 7.16259 -2.25079 0.000342764 10
-16.8851 7.16729 -1.60483 0.000347315 10
-16.888 7.16854 -0.961498 0.000350355 10
-16.8887 7.16882 -0.320251 0.000351855 10
-16.8882 7.16862 0.320242 0.000351798 10
-16.8757 7.16331 0.960796 0.000350185 10
-16.8986 7.17301 1.60611 0.000347033 10
-16.8906 7.16964 2.25301 0.000342373 10
-16.8986 7.17304 2.90762 0.000336254 10
-16.8839 7.1668 3.56533 0.000328737 10
-16.9015 7.17424 4.23899 0.000319898 10
-16.8787 7.16458 4.91321 0.000309826 10
-9.17887 3.85844 -2.66794 0.000461446 4
-10.2167 4.2947 -2.55863 0.000226075 4
-13.0321 5.47818 -2.74789 0.00020995 1
-16.0324 6.73939 -2.75451 0.00010296 1
-16.8726 7.09261 -2.2473 0.000340363 10
-16.8732 7.09285 -1.60134 0.00034488 10
-16.8959 7.1024 -0.960532 0.000347899 10
-16.8949 7.10197 -0.319897 0.000349388 10
-16.885 7.0978 0.319709 0.000349331 10
-16.8798 7.09562 0.959614 0.00034773 10
-16.8836 7.09722 1.60232 0.000344601 10
-16.8842 7.09745 2.24883 0.000339975 10
-16.8815 7.09635 2.9004 0.0003339 10
-16.8861 7.09828 3.56054 0.000326437 10
-16.9039 7.10574 4.23335 0.000317662 10
-16.9061 7.10667 4.91393 0.000307662 10
-9.19247 3.82646 -2.66799 0.000336299 4
-10.2164 4.25268 -2.55483 0.000252981 4
-13.0586 5.43575 -2.74946 0.000209943 1
-16.0683 6.68858 -2.75665 0.000102955 1
-16.9 7.03479 -2.24766 0.000337925 10
-16.8754 7.02453 -1.59921 0.00034241 10
-16.8783 7.02575 -0.958128 0.000345406 10
-16.9032 7.03612 -0.319588 0.000346884 10
-16.897 7.03356 0.319471 0.000346828 10
-16.8859 7.0289 0.958558 0.000345239 10
-16.8974 7.03371 1.60129 0.000342133 10
-16.887 7.02939 2.24593 0.000337541 10
-16.9029 7.03598 2.89983 0.000331511 10
-16.8895 7.03042 3.55605 0.000324103 10
-16.9036 7.03629 4.2271 0.000315392 10
-16.8961 7.03317 4.90386 0.000305466 10
-9.19561 3.79016 -2.66505 0.000858529 4
-10.2347 4.21846 -2.55571 0.000341784 4
-13.0946 5.39723 -2.75307 0.000209935 1
-16.0815 6.62832 -2.75493 0.000102951 1
-16.8887 6.96101 -2.2429 0.000335453 10
-16.8811 6.9579 -1.59744 0.000339904 10
-16.894 6.96319 -0.957632 0.000342878 10
-16.8924 6.96254 -0.318922 0.000344345 10
-16.9019 6.96646 0.319101 0.00034429 10
-16.9089 6.96934 0.958478 0.000342712 10
-16.9088 6.96929 1.60006 0.000339629 10
-16.9015 6.96631 2.24461 0.000335073 10
-16.8973 6.96456 2.89468 0.000329088 10
-16.9098 6.96972 3.55519 0.000321735 10
-16.9039 6.96727 4.22106 0.00031309 10
-16.899 6.96525 4.8976 0.000303239 10
-9.20118 3.75493 -2.66284 0.000975355 4
-10.2573 4.18592 -2.55768 0.000220673 4
-13.1044 5.34782 -2.75119 0.000209927 1
-16.0989 6.56985 -2.75397 0.000102946 1
-16.9004 6.89694 -2.24126 0.000332946 10
-16.9119 6.90163 -1.59807 0.000337363 10
-16.8902 6.89275 -0.956048 0.000340314 10
-16.8938 6.89424 -0.318492 0.00034177 10
-16.8918 6.89342 0.318454 0.000341715 10
-16.9127 6.90193 0.957321 0.00034015 10
-16.9072 6.89968 1.59761 0.000337091 10
-16.9097 6.90071 2.24248 0.000332569 10
-16.9054 6.89898 2.89194 0.00032663 10
-16.9132 6.90215 3.55082 0.000319334 10
-16.9161 6.90333 4.21807 0.000310755 10
-16.9034 6.89816 4.89189 0.00030098 10
-9.20755 3.72009 -2.66091 0.00141614 4
-10.2572 4.1442 -2.55405 0.000314853 4
-13.1256 5.30308 -2.75172 0.00020992 1
-16.1315 6.51754 -2.75563 0.000102941 1
-16.8963 6.82654 -2.23753 0.000330405 10
-16.9166 6.83474 -1.59624 0.000334787 10
-16.9027 6.82912 -0.9554 0.000337716 10
-16.9122 6.83296 -0.318387 0.00033916 10
-16.913 6.8333 0.318402 0.000339105 10
-16.9026 6.82911 0.955398 0.000337553 10
-16.8996 6.8279 1.59464 0.000334518 10
-16.9193 6.83586 2.24058 0.000330031 10
-16.8999 6.828 2.88689 0.000324139 10
-16.9158 6.83444 3.54633 0.0003169 10
-16.9215 6.83675 4.21345 0.000308389 10
-16.91 6.8321 4.88687 0.000298689 10
-9.21467 3.68561 -2.65924 0.00129727 4
-10.276 4.11009 -2.55512 0.000325608 4
-13.1302 5.2517 -2.74883 0.000209912 1
-16.164 6.46514 -2.75731 0.000102936 1
-16.9134 6.76487 -2.23665 0.000327829 10
-16.9012 6.76002 -1.59256 0.000332177 10
-16.9133 6.76485 -0.954661 0.000335082 10
-16.9109 6.7639 -0.317917 0.000336514 10
-16.9232 6.7688 0.318147 0.000336461 10
-16.9113 6.76405 0.954548 0.00033492 10
-16.9003 6.75965 1.59247 0.00033191 10
-16.9218 6.76826 2.23777 0.000327459 10
-16.9178 6.76665 2.8859 0.000321614 10
-16.9062 6.762 3.53935 0.000314433 10
-16.9189 6.76709 4.20689 0.00030599 10
-16.9063 6.76202 4.87893 0.000296368 10
-9.21148 3.64708 -2.65463 0.00109132 4
-10.2992 4.07775 -2.55735 0.000287926 4
-13.1547 5.2083 -2.75013 0.000209905 1
-16.1733 6.40345 -2.75506 0.000102932 1
-16.9004 6.69135 -2.23184 0.00032522 10
-16.902 6.69198 -1.59042 0.000329531 10
-16.9016 6.69181 -0.952675 0.000332413 10
-16.9142 6.6968 -0.317537 0.000333834 10
-16.9086 6.6946 0.317432 0.000333781 10
-16.9209 6.69945 0.953763 0.000332253 10
-16.9145 6.69693 1.59159 0.000329267 10
-16.9096 6.69499 2.23305 0.000324853 10
-16.931 6.70347 2.88415 0.000319055 10
-16.9286 6.7025 3.53911 0.000311933 10
-16.9128 6.69626 4.19954 0.000303558 10
-16.9178 6.69823 4.87548 0.000294015 10
-9.22707 3.61605 -2.65547 0.000835803 4
-10.3156 4.04265 -2.5579 0.000382096 4
-13.1825 5.16615 -2.75216 0.000209897 1
-16.2047 6.35054 -2.75662 0.000102927 1
-16.9068 6.62572 -2.22962 0.000322576 10
-16.9241 6.6325 -1.59031 0.000326852 10
-16.9096 6.6268 -0.951817 0.00032971 10
-16.9191 6.63054 -0.317193 0.000331119 10
-16.9254 6.63299 0.31731 0.000331066 10
-16.9099 6.62693 0.951835 0.000329551 10
-16.9329 6.63593 1.59113 0.00032659 10
-16.9208 6.63118 2.23146 0.000322213 10
-16.9321 6.63563 2.88037 0.000316464 10
-16.9174 6.62987 3.53192 0.000309401 10
-16.9169 6.62968 4.19479 0.000301096 10
-16.9205 6.63107 4.86955 0.000291632 10
-9.22858 3.57953 -2.65229 0.0010701 4
-10.3345 4.00848 -2.55909 0.000301363 4
-13.1846 5.11397 -2.74886 0.00020989 1
-16.2153 6.28951 -2.75468 0.000102923 1
-16.9305 6.56689 -2.2297 0.000319899 10
-16.9317 6.56738 -1.58886 0.000324139 10
-16.9326 6.56772 -0.951815 0.000326972 10
-16.9258 6.56507 -0.316886 0.000328369 10
-16.9333 6.56798 0.317026 0.000328317 10
-16.9159 6.56123 0.950875 0.000326815 10
-16.9336 6.56811 1.58904 0.00032388 10
-15.9845 6.19996 2.10511 0.000158906 10
-16.0056 6.20816 2.71905 0.000156099 10
-16.0068 6.20864 3.33726 0.000152649 10
-15.9883 6.20145 3.95913 0.000148592 10
-16.0089 6.20943 4.60094 0.000143967 10
-9.24032 3.54703 -2.65209 0.00126728 4
-10.3268 3.9641 -2.55375 0.000360549 4
-13.2245 5.0764 -2.75346 0.000209883 1
-16.2496 6.23764 -2.75679 0.000102918 1
-16.9265 6.49748 -2.22618 0.000317188 10
-16.9198 6.4949 -1.58561 0.000321392 10
-16.915 6.49308 -0.949548 0.0003242 10
-16.9186 6.49445 -0.316326 0.000325586 10
-16.9406 6.50289 0.316737 0.000325534 10
-16.9294 6.49858 0.950353 0.000324046 10
-16.934 6.50037 1.58694 0.000321135 10
-16.0041 6.14341 2.10486 0.000157554 10
-15.9914 6.13853 2.71299 0.000154771 10
-16.0068 6.14445 3.33277 0.000151351 10
-16.0018 6.14251 3.95713 0.00014733 10
-16.0077 6.14478 4.59441 0.000142745 10
-9.24482 3.51178 -2.64984 0.00147545 4
-10.3464 3.93023 -2.55519 0.000212557 4
-13.2312 5.02605 -2.75119 0.000209876 1
-16.2697 6.18029 -2.75653 0.000102914 1
-16.9392 6.43458 -2.22487 0.000314445 10
-16.9225 6.42825 -1.58375 0.000318611 10
-16.9288 6.43065 -0.949055 0.000321395 10
-16.9349 6.43296 -0.316208 0.000322768 10
-16.9405 6.43509 0.316313 0.000322717 10
-16.9341 6.43266 0.949352 0.000321242 10
-16.9243 6.42893 1.58391 0.000318357 10
-16.0022 6.07865 2.1018 0.000156186 10
-15.9917 6.07467 2.70942 0.000153427 10
-15.9919 6.07474 3.32522 0.000150038 10
-16.0121 6.08241 3.9544 0.000146052 10
-16.0089 6.08122 4.58864 0.000141508 10
-9.24361 3.47445 -2.64601 0.00124667 4
-10.3723 3.89871 -2.55822 0.000298648 4
-13.2369 4.97544 -2.74876 0.000209869 1
-16.28 6.11925 -2.75463 0.000102909 1
-16.9386 6.36682 -2.22187 0.000311668 10
-16.9428 6.36839 -1.58356 0.000315797 10
-16.9418 6.36802 -0.948533 0.000318556 10
-16.9446 6.36906 -0.315972 0.000319917 10
-16.9259 6.36202 0.315623 0.000319867 10
-16.9424 6.36825 0.948568 0.000318404 10
-16.928 6.36283 1.58218 0.000315546 10
-15.9976 6.01312 2.09844 0.000154801 10
-16.0014 6.01453 2.70749 0.000152068 10
-16.0125 6.01869 3.32512 0.000148709 10
