VERSION 0.7
FIELDS x y z intensity label
SIZE 4 4 4 4 4
TYPE F F F F F
COUNT 1 1 1 1 1
WIDTH 1147
HEIGHT 1
VIEWPOINT 5.32593 45.9937 2.72832 0.809046 0.000197894 0.000766935 -0.587745
POINTS 1147
DATA ascii
-25.9006 -23.6504 6.81769 2.993e-05 10
-7.32113 -6.73213 -2.66499 0.00036823 4
-8.51095 -7.82622 -2.66936 9.23403e-05 4
-10.1183 -9.30422 -2.67192 0.000289501 4
-12.4467 -11.4453 -2.67813 5.1329e-05 4
-25.8227 -23.7452 6.81896 2.99288e-05 10
-7.29949 -6.7594 -2.66568 0.000195872 4
-8.47527 -7.84819 -2.66674 0.000160385 4
-10.0872 -9.34082 -2.6723 0.000119372 4
-16.0382 -14.8515 -2.68387 4.91576e-05 4
-25.736 -23.8318 6.81801 2.99275e-05 10
-7.26913 -6.77857 -2.66322 0.000203712 4
-10.0412 -9.36358 -2.66877 5.90021e-05 4
-12.3499 -11.5165 -2.67453 3.57985e-05 4
-15.9886 -14.9096 -2.68428 5.31683e-05 4
-25.6502 -23.9192 6.81736 2.99262e-05 10
-7.24955 -6.80778 -2.66474 0.000223305 4
-8.43305 -7.91916 -2.67079 0.000196848 4
-10.0193 -9.40876 -2.67166 6.72374e-05 4
-12.3192 -11.5685 -2.67662 5.80908e-05 4
-25.5823 -24.0233 6.82154 2.99249e-05 10
-7.23462 -6.84144 -2.66801 7.4437e-05 4
-8.3937 -7.93752 -2.66709 0.000131236 4
-9.99335 -9.45023 -2.67352 6.17509e-05 4
-25.5023 -24.1163 6.82262 2.99235e-05 10
-7.19466 -6.85138 -2.66208 0.000180221 4
-8.3712 -7.97178 -2.66876 0.000111797 4
-9.9421 -9.46773 -2.66863 4.94026e-05 4
-25.4139 -24.2014 6.82154 2.99222e-05 10
-7.17176 -6.87747 -2.66247 0.000497579 4
-8.34735 -8.00482 -2.67005 9.23572e-05 4
-9.91131 -9.50461 -2.66926 0.000172916 4
-12.1953 -11.6948 -2.67615 6.21525e-05 4
-25.3151 -24.2763 6.81772 2.99208e-05 10
-7.16118 -6.91547 -2.66749 0.000239001 4
-8.30634 -8.02134 -2.66587 0.000247914 4
-9.88262 -9.54353 -2.67048 7.82267e-05 4
-25.2326 -24.3668 6.81836 2.99195e-05 10
-7.12987 -6.93349 -2.66483 0.000301698 4
-8.28674 -8.0585 -2.6686 0.000114238 4
-9.84451 -9.57337 -2.6692 8.50919e-05 4
-25.1586 -24.4657 6.82141 2.99181e-05 10
-7.09778 -6.95065 -2.66188 0.000191995 4
-8.2659 -8.09457 -2.67097 0.000109381 4
-9.80856 -9.60525 -2.66853 3.98026e-05 4
-25.0797 -24.5598 6.82321 2.99167e-05 10
-7.07539 -6.97729 -2.66261 0.000336979 4
-8.23547 -8.12127 -2.67028 0.000102092 4
-9.78848 -9.65275 -2.67222 9.19613e-05 4
-12.0207 -11.854 -2.67391 3.8515e-05 4
-40.7173 -40.1527 -0.998171 3.32657e-05 10
-25.0019 -24.6552 6.82542 7.94351e-05 10
-7.04862 -6.99958 -2.66171 0.000168494 4
-8.20522 -8.14813 -2.66968 8.75102e-05 4
-24.9603 -24.7866 6.83763 7.93363e-05 10
-7.03215 -7.03215 -2.66474 0.000168499 4
-8.17584 -8.17584 -2.66939 7.53584e-05 4
-9.70952 -9.70952 -2.6691 4.118e-05 4
-24.9445 -24.9445 6.85713 7.92293e-05 10
-7.01795 -7.06712 -2.6687 0.000156748 4
-8.13468 -8.19167 -2.66527 0.000123981 4
-24.9086 -25.0831 6.87128 9.52762e-05 10
-6.99293 -7.09126 -2.66858 0.000242965 4
-8.11931 -8.23348 -2.66963 0.000155589 4
-9.6503 -9.78599 -2.67154 7.13843e-05 4
-24.9002 -25.2503 6.89323 9.4775e-05 10
-6.94986 -7.09697 -2.66158 0.000211621 4
-8.0929 -8.26419 -2.67042 8.02283e-05 4
-9.60882 -9.8122 -2.66952 6.72687e-05 4
-11.8163 -12.0664 -2.67488 4.05524e-05 4
-24.8729 -25.3993 6.91018 9.42664e-05 10
-6.93619 -7.13264 -2.66586 0.000407578 4
-8.05361 -8.28171 -2.66698 0.000199362 4
-11.7834 -12.1171 -2.67699 7.43499e-05 4
-24.8565 -25.5605 6.93036 9.37503e-05 10
-6.90248 -7.14772 -2.66248 7.05444e-05 4
-8.01816 -8.30304 -2.66482 3.89012e-05 4
-9.54059 -9.87956 -2.66966 2.88318e-05 4
-24.8449 -25.7276 6.95213 9.32269e-05 10
-6.8765 -7.17075 -2.6621 0.000172447 4
-7.99392 -8.33598 -2.66642 8.75306e-05 4
-9.51115 -9.91814 -2.6711 8.23801e-05 4
-11.687 -12.1871 -2.67436 6.35421e-05 4
-24.842 -25.905 6.97659 0.000105838 10
-6.85196 -7.19527 -2.66231 0.00012542 4
-7.96713 -8.36631 -2.66721 3.89039e-05 4
-9.47863 -9.95354 -2.6717 5.62954e-05 4
-11.6563 -12.2403 -2.6771 4.5293e-05 4
-24.8558 -26.1011 7.006 0.000104808 10
-6.83657 -7.22947 -2.66611 0.000137182 4
-7.94258 -8.39905 -2.66879 0.000209115 4
-9.43168 -9.97372 -2.66827 4.25666e-05 4
-24.8697 -26.299 7.03576 0.000103776 10
-6.815 -7.25724 -2.66757 0.00038804 4
-7.91367 -8.4272 -2.66894 3.40432e-05 4
-9.40311 -10.0133 -2.67006 0.000135944 4
-27.2536 -29.0221 -2.08649 7.67954e-05 10
-27.2574 -29.0262 -0.695029 7.71941e-05 10
-27.2678 -29.0372 0.695292 7.71816e-05 10
-27.2593 -29.0282 4.88939 7.47063e-05 10
-27.2633 -29.0325 6.30795 7.30982e-05 10
-24.8765 -26.4908 7.06381 0.000102739 10
-27.2599 -29.0288 10.6702 6.62187e-05 10
-6.78218 -7.27299 -2.66464 0.000262621 4
-7.87492 -8.44482 -2.6658 6.32254e-05 4
-9.36115 -10.0386 -2.66808 0.000107112 4
-11.5247 -12.3587 -2.67644 4.12436e-05 4
-20.163 -21.6222 -2.58657 5.35662e-05 4
-27.0914 -29.052 -2.08183 4.6056e-05 10
-27.1014 -29.0627 -0.693634 4.62917e-05 10
-27.1124 -29.0745 0.693915 4.6281e-05 10
-27.1055 -29.0671 4.87998 4.47865e-05 10
-24.8877 -26.6888 7.09338 0.000111324 10
-6.75757 -7.2975 -2.66496 9.79957e-05 4
-7.85824 -8.48613 -2.67016 0.000111864 4
-9.33011 -10.0756 -2.66924 0.000122223 4
-11.4803 -12.3976 -2.67618 5.00359e-05 4
-20.2215 -21.8372 -2.60383 5.65026e-05 4
-26.984 -29.14 -0.693227 2.87606e-05 10
-26.988 -29.1444 0.69333 2.87562e-05 10
-24.9228 -26.9141 7.13011 0.000109694 10
-6.72334 -7.31157 -2.66151 9.79986e-05 4
-7.82345 -8.50793 -2.66841 0.000201849 4
-9.29563 -10.1089 -2.66945 0.000153815 4
-11.4253 -12.4249 -2.67343 4.19243e-05 4
-20.2954 -22.0711 -2.62325 5.35904e-05 4
-26.9183 -29.2734 -2.08417 6.29373e-05 10
-26.9274 -29.2833 -0.694395 6.32589e-05 10
-26.9278 -29.2838 0.694406 6.32436e-05 10
-26.9414 -29.2985 4.88714 6.11989e-05 10
-26.9333 -29.2897 6.30221 5.98793e-05 10
-24.9675 -27.152 7.16999 0.000108068 10
-26.9481 -29.3058 10.6677 5.42314e-05 10
-6.69849 -7.33578 -2.66179 0.000156803 4
-7.80006 -8.54216 -2.67059 0.000148352 4
-11.3935 -12.4775 -2.67618 3.58405e-05 4
-20.3519 -22.2882 -2.6406 4.15155e-05 4
-26.922 -29.4833 -2.09242 8.85322e-05 10
-26.9214 -29.4827 -0.69689 8.89781e-05 10
-26.9188 -29.4799 0.696823 8.89496e-05 10
-26.9221 -29.4834 4.90228 8.60495e-05 10
-26.9443 -29.5077 6.32884 8.41848e-05 10
-25.008 -27.3872 7.20901 0.000106447 10
-26.9504 -29.5144 10.7093 8.94218e-05 10
-6.68739 -7.37516 -2.6676 0.000239131 4
-7.76242 -8.56076 -2.66792 9.48517e-05 4
-9.22183 -10.1703 -2.66858 7.00471e-05 4
-20.4168 -22.5166 -2.6592 4.30602e-05 4
-25.0602 -27.6375 7.25183 0.000112575 10
-6.65348 -7.38944 -2.66434 0.000427313 4
-7.72382 -8.57817 -2.66493 9.97195e-05 4
-9.18245 -10.1981 -2.66747 8.65326e-05 4
-20.4639 -22.7275 -2.67565 4.35043e-05 4
-6.6258 -7.41055 -2.6636 4.70451e-05 4
-7.69408 -8.60536 -2.66501 0.00010702 4
-9.159 -10.2438 -2.67103 3.84607e-05 4
-11.2475 -12.5797 -2.67268 4.73445e-05 4
-36.6455 -40.9857 6.7506 3.01083e-05 10
-6.59934 -7.43301 -2.66338 0.00014114 4
-7.66116 -8.62897 -2.66403 0.000143509 4
-9.11488 -10.2663 -2.6686 5.2199e-05 4
-14.4961 -16.3274 -2.68087 3.07837e-05 4
-6.56921 -7.4513 -2.6617 0.000333258 4
-7.64209 -8.66825 -2.6679 0.000104595 4
-9.09199 -10.3128 -2.67242 8.92917e-05 4
-11.1763 -12.677 -2.67672 6.42606e-05 4
-36.5314 -41.4368 -0.964233 3.9431e-05 10
-36.5431 -41.45 0.964541 3.94129e-05 10
-25.5247 -28.9521 2.02278 0.000115461 10
-6.54823 -7.47999 -2.66376 0.000227406 4
-7.6054 -8.68757 -2.66566 0.000104599 4
-25.9647 -29.6593 2.06585 0.000111846 10
-6.53041 -7.51238 -2.66717 0.000117628 4
-7.58139 -8.72138 -2.6679 0.000116767 4
-9.00857 -10.3632 -2.6691 4.67107e-05 4
-19.4781 -22.407 -2.5975 4.50835e-05 4
-6.50375 -7.53466 -2.667 0.000286237 4
-7.55186 -8.74892 -2.66824 0.00016056 4
-8.97363 -10.396 -2.66948 7.5565e-05 4
-11.0431 -12.7936 -2.67678 0.00012922 4
-19.5532 -22.6526 -2.61804 5.36539e-05 4
-6.47178 -7.55075 -2.66468 0.000176453 4
-7.50848 -8.76029 -2.6637 4.62236e-05 4
-8.93012 -10.4189 -2.66735 3.84712e-05 4
-10.9893 -12.8214 -2.67456 0.000122462 4
-19.6127 -22.8826 -2.63669 4.20091e-05 4
-6.44238 -7.56977 -2.66344 0.000231357 4
-7.49512 -8.80673 -2.66985 0.000148408 4
-8.89793 -10.455 -2.66861 8.79383e-05 4
-10.9432 -12.8582 -2.67425 0.000142091 4
-19.6952 -23.1417 -2.65862 4.53656e-05 4
-6.41743 -7.594 -2.66407 0.000105879 4
-7.45782 -8.82514 -2.66752 0.000133816 4
-8.8678 -10.4936 -2.67055 3.57266e-05 4
-10.8894 -12.8859 -2.67208 5.27799e-05 4
-19.7724 -23.3975 -2.68005 4.0378e-05 4
-6.40146 -7.62896 -2.66848 0.000172549 4
-7.42858 -8.85303 -2.6681 0.000133821 4
-8.82316 -10.515 -2.66814 7.83275e-05 4
-10.8482 -12.9284 -2.67303 3.11285e-05 4
-19.8518 -23.6585 -2.702 3.87742e-05 4
-6.36521 -7.63976 -2.66447 0.000156868 4
-7.40166 -8.88374 -2.66955 4.13644e-05 4
-8.80061 -10.5628 -2.67245 7.83312e-05 4
-10.8089 -12.9732 -2.67448 4.53421e-05 4
-19.9137 -23.9012 -2.72176 4.08487e-05 4
-6.3361 -7.65903 -2.66346 0.000117655 4
-7.35832 -8.89468 -2.66511 5.10992e-05 4
-8.75126 -10.5785 -2.66867 3.02346e-05 4
-19.9968 -24.172 -2.74464 3.89269e-05 4
-37.9951 -45.9282 -1.04045 2.95104e-05 10
-34.5729 -41.7915 2.84252 3.32701e-05 10
-6.31652 -7.68986 -2.6665 0.000211786 4
-7.32901 -8.92248 -2.66575 0.000119236 4
-8.71899 -10.6147 -2.67011 4.26053e-05 4
-20.0828 -24.4492 -2.76813 4.13178e-05 4
-6.27949 -7.69941 -2.66219 0.000196105 4
-7.30407 -8.95567 -2.66804 0.000182512 4
-8.68783 -10.6523 -2.67194 5.49772e-05 4
-10.6652 -13.0768 -2.67266 6.09185e-05 4
-6.26393 -7.73531 -2.66703 0.000133356 4
-7.27359 -8.98213 -2.66834 0.000192254 4
-10.6282 -13.1247 -2.67486 3.24919e-05 4
-6.23767 -7.7581 -2.66736 0.000278488 4
-7.23901 -9.00351 -2.66717 0.000201996 4
-8.59968 -10.6958 -2.66773 7.14774e-05 4
-10.5854 -13.1656 -2.67564 4.06174e-05 4
-6.20637 -7.77458 -2.66556 0.00023535 4
-7.19717 -9.01573 -2.66333 0.000194703 4
-33.6439 -42.145 -0.941298 2.92022e-05 10
-33.6485 -42.1507 0.941425 2.91874e-05 10
-6.17132 -7.78627 -2.66217 0.000286352 4
-7.18254 -9.06211 -2.66961 9.00539e-05 4
-8.52527 -10.7562 -2.66788 7.83581e-05 4
-10.4951 -13.2415 -2.67611 8.32762e-05 4
-6.14979 -7.81499 -2.66463 0.000196139 4
-7.14809 -9.0836 -2.66857 8.76236e-05 4
-10.4451 -13.2734 -2.67517 3.92709e-05 4
-6.12585 -7.84073 -2.6661 0.000262835 4
-7.11445 -9.10608 -2.66786 0.000163084 4
-8.45898 -10.827 -2.67072 0.000178729 4
-10.397 -13.3076 -2.67473 7.85469e-05 4
-6.08704 -7.84737 -2.66112 7.4538e-05 4
-7.07118 -9.11611 -2.66355 0.000223946 4
-8.41771 -10.852 -2.66963 3.02481e-05 4
-10.3456 -13.3374 -2.67345 3.45358e-05 4
-32.8676 -42.3727 -0.936043 3.0004e-05 10
-32.8689 -42.3743 0.936077 2.99883e-05 10
-6.06842 -7.88 -2.66499 0.000325625 4
-7.05462 -9.1606 -2.66934 9.49374e-05 4
-8.381 -10.8829 -2.67002 6.46241e-05 4
-6.03347 -7.89145 -2.66172 0.000227553 4
-7.01965 -9.18132 -2.66822 7.30319e-05 4
-8.34269 -10.9118 -2.66994 5.91273e-05 4
-6.01136 -7.91968 -2.66415 0.000561056 4
-6.97596 -9.19049 -2.66379 9.49455e-05 4
-8.3037 -10.9397 -2.66966 0.000141638 4
-10.2148 -13.4575 -2.67592 3.99609e-05 4
-32.3945 -42.6781 -0.935244 3.01866e-05 10
-32.3987 -42.6837 0.935366 3.01704e-05 10
-5.99078 -7.95003 -2.6673 0.000137326 4
-6.95861 -9.23438 -2.66946 0.000143642 4
-8.26541 -10.9686 -2.66965 4.2631e-05 4
-10.1588 -13.4811 -2.67356 5.21558e-05 4
-5.95021 -7.95381 -2.66159 0.000298206 4
-8.22769 -10.9982 -2.66985 3.43817e-05 4
-31.7564 -42.4497 2.77833 3.69827e-05 10
-31.7582 -42.4521 4.63836 3.65281e-05 10
-31.7641 -42.46 6.51084 3.58642e-05 10
-31.7758 -42.4756 8.40166 3.50002e-05 10
-31.7764 -42.4764 10.3113 3.3948e-05 10
-31.7815 -42.4833 12.2488 3.27218e-05 10
-31.7759 -42.4758 14.2137 3.13384e-05 10
-5.92299 -7.97531 -2.66185 0.000286445 4
-6.88253 -9.26733 -2.66503 0.00013635 4
-10.0638 -13.551 -2.67341 9.21316e-05 4
-31.9314 -42.9957 -0.934824 4.59599e-05 10
-31.9293 -42.9928 0.934761 4.59345e-05 10
-31.9437 -43.0123 2.80783 3.55846e-05 10
-31.9317 -42.9961 4.68559 3.51452e-05 10
-31.9509 -43.0219 6.57986 3.45037e-05 10
-31.9403 -43.0077 8.48481 3.36691e-05 10
-31.9498 -43.0204 10.4162 3.26527e-05 10
-31.9583 -43.0319 12.3748 3.14686e-05 10
-31.963 -43.0382 14.3645 3.01327e-05 10
-5.89982 -8.00232 -2.66397 0.000180506 4
-6.84595 -9.28562 -2.6634 5.60032e-05 4
-8.14206 -11.0436 -2.66701 6.87706e-05 4
-10.0254 -13.5981 -2.67578 3.86166e-05 4
-12.9517 -17.5672 -2.67984 2.97781e-05 4
-32.1198 -43.5663 2.83666 3.42161e-05 10
-32.121 -43.5678 4.73564 3.37918e-05 10
-32.1358 -43.588 6.64924 3.31724e-05 10
-32.1339 -43.5854 8.57659 3.23665e-05 10
-32.136 -43.5882 10.5265 3.13854e-05 10
-32.1354 -43.5874 12.5022 3.02425e-05 10
-32.146 -43.6017 14.515 2.89533e-05 10
-5.86498 -8.01348 -2.66086 0.000219755 4
-6.82131 -9.32013 -2.66645 0.000182627 4
-8.11874 -11.0928 -2.67204 5.50194e-05 4
-9.96617 -13.617 -2.67266 3.99742e-05 4
-5.85005 -8.0519 -2.66682 0.000494466 4
-6.79202 -9.34841 -2.66774 2.92216e-05 4
-9.92176 -13.6561 -2.67351 3.9977e-05 4
-5.81833 -8.06731 -2.66518 0.000408146 4
-6.74783 -9.3561 -2.6632 0.000107151 4
-8.03601 -11.1422 -2.67035 7.01572e-05 4
-5.78413 -8.07918 -2.66241 0.000184458 4
-6.72294 -9.3905 -2.6663 0.000146121 4
-7.99115 -11.1619 -2.66838 4.95254e-05 4
-32.889 -45.9389 0.986182 2.92339e-05 10
-5.75185 -8.09364 -2.66054 0.000282584 4
-6.69815 -9.42521 -2.6695 5.8451e-05 4
-7.95162 -11.189 -2.6682 0.000133451 4
-9.78526 -13.7692 -2.67544 6.30275e-05 4
-5.73619 -8.13157 -2.66641 0.000306145 4
-6.6569 -9.43675 -2.66617 9.0116e-05 4
-9.73295 -13.7973 -2.67429 2.91437e-05 4
-33.2975 -47.2022 -1.00829 3.44064e-05 10
-5.70968 -8.15427 -2.66731 0.000153078 4
-6.62973 -9.46824 -2.66851 9.25558e-05 4
-5.67752 -8.16889 -2.66559 0.000149159 4
-6.59473 -9.48857 -2.66774 0.000133968 4
-7.84273 -11.2842 -2.67117 7.43044e-05 4
-5.65165 -8.19253 -2.66685 0.000310105 4
-6.55079 -9.4959 -2.66335 6.57693e-05 4
-7.78889 -11.2906 -2.66624 8.80694e-05 4
-5.62236 -8.21125 -2.66654 0.0001845 4
-6.52292 -9.52649 -2.66553 0.00032399 4
-9.53257 -13.922 -2.67239 3.38976e-05 4
-5.58471 -8.21765 -2.66227 0.000286575 4
-6.49187 -9.55249 -2.66645 0.000143731 4
-7.70904 -11.3435 -2.66595 4.40396e-05 4
-5.55214 -8.23138 -2.66042 0.000172737 4
-6.45675 -9.57253 -2.66573 0.000102322 4
-7.68006 -11.3862 -2.66966 0.000116987 4
-9.44041 -13.996 -2.67388 6.30585e-05 4
-5.5254 -8.25374 -2.6614 0.000243412 4
-6.42838 -9.60261 -2.66784 0.000158363 4
-9.38068 -14.0127 -2.6708 4.06858e-05 4
-5.49672 -8.27322 -2.66148 0.00010208 4
-6.39348 -9.62296 -2.66728 0.000160807 4
-7.59362 -11.4293 -2.66728 0.000110118 4
-9.33664 -14.0528 -2.67221 4.40795e-05 4
-5.47118 -8.29748 -2.66312 0.000129568 4
-6.36076 -9.64659 -2.66766 0.000109646 4
-7.55687 -11.4606 -2.66841 3.71669e-05 4
-5.44183 -8.31599 -2.66295 0.00046725 4
-6.33023 -9.6736 -2.669 0.000182752 4
-9.24452 -14.1271 -2.67401 7.25721e-05 4
-5.41302 -8.33531 -2.66307 0.000125652 4
-6.28809 -9.6828 -2.66547 0.000112093 4
-7.47596 -11.512 -2.66815 0.000106007 4
-9.19452 -14.1583 -2.67382 3.73062e-05 4
-5.38307 -8.3529 -2.66267 8.63893e-05 4
-6.25653 -9.70824 -2.66644 0.000148653 4
-7.44149 -11.5469 -2.67022 5.92019e-05 4
-9.14023 -14.1829 -2.67242 7.80095e-05 4
-5.35502 -8.37341 -2.66324 0.000117808 4
-6.22134 -9.72804 -2.6659 0.000221771 4
-7.39617 -11.5651 -2.66843 3.1668e-05 4
-5.32097 -8.3845 -2.66084 0.000644045 4
-6.18281 -9.74255 -2.66395 5.60547e-05 4
-7.3495 -11.581 -2.66616 3.99316e-05 4
-5.2897 -8.3999 -2.65985 0.000812944 4
-6.14819 -9.76316 -2.6637 0.000116989 4
-7.31559 -11.617 -2.66855 4.2688e-05 4
-8.98989 -14.2757 -2.67202 7.12419e-05 4
-5.26794 -8.43046 -2.66369 0.000832615 4
-6.12503 -9.80209 -2.66847 0.000151119 4
-7.27514 -11.6427 -2.6686 9.36437e-05 4
-8.93474 -14.2986 -2.67045 3.46058e-05 4
-5.2431 -8.45626 -2.66604 0.00073446 4
-6.08591 -9.81557 -2.66634 9.01882e-05 4
-7.23567 -11.6699 -2.66905 5.50878e-05 4
-5.20417 -8.45926 -2.66124 0.000813046 4
-6.05504 -9.84232 -2.66785 0.000146258 4
-7.18993 -11.6871 -2.66721 6.06002e-05 4
-8.83496 -14.361 -2.67053 6.1757e-05 4
-5.18193 -8.48937 -2.66501 0.0007738 4
-6.01613 -9.856 -2.66585 0.000175519 4
-7.15312 -11.7187 -2.66871 6.61133e-05 4
-5.14749 -8.49951 -2.66253 0.000322103 4
-5.97873 -9.87205 -2.66453 0.000173089 4
-8.74231 -14.4353 -2.67292 5.29426e-05 4
-5.11576 -8.51406 -2.66148 0.000192484 4
-5.94548 -9.89494 -2.66509 6.8264e-05 4
-7.06846 -11.7639 -2.66771 6.19887e-05 4
-5.09067 -8.53968 -2.66392 0.000560188 4
-5.90864 -9.91184 -2.66407 0.000109716 4
-7.03322 -11.7983 -2.66993 3.58179e-05 4
-5.07447 -8.58047 -2.6711 0.000578399 4
-5.87763 -9.93853 -2.66571 0.000163362 4
-6.98837 -11.8167 -2.66855 0.000151546 4
-8.59307 -14.5301 -2.67367 4.88814e-05 4
-5.05596 -8.61768 -2.67717 0.000578781 4
-5.83836 -9.95124 -2.66364 0.000458413 4
-5.03947 -8.65867 -2.68443 0.000539928 4
-5.80941 -9.98157 -2.66631 0.000460875 4
-6.90912 -11.8711 -2.66987 8.54276e-05 4
-5.02419 -8.70215 -2.69246 0.000618323 4
-5.76718 -9.98905 -2.66292 0.000456021 4
-6.86713 -11.8942 -2.66967 0.000137795 4
-8.43688 -14.6131 -2.67254 5.70417e-05 4
-4.99371 -8.71951 -2.69242 0.000463724 4
-5.73474 -10.0134 -2.66406 0.000487748 4
-6.82251 -11.9128 -2.66847 5.92555e-05 4
-4.97326 -8.75453 -2.69785 0.000673658 4
-5.69844 -10.0311 -2.66345 0.000424363 4
-6.78164 -11.9378 -2.66877 4.5478e-05 4
-4.96318 -8.80821 -2.70904 0.000533446 4
-5.66442 -10.0527 -2.66393 0.000507311 4
-6.7404 -11.9623 -2.66896 6.20193e-05 4
-4.93465 -8.82953 -2.71028 0.000655802 4
-5.63059 -10.0747 -2.66454 0.000226838 4
-8.22714 -14.7207 -2.67095 7.87968e-05 4
-4.91699 -8.87048 -2.71757 0.000588554 4
-5.59826 -10.0995 -2.66591 0.000405795 4
-8.17746 -14.7525 -2.67153 5.57057e-05 4
-4.89806 -8.90954 -2.72428 0.000642405 4
-5.58515 -10.1593 -2.67654 0.000339499 4
-6.61268 -12.0284 -2.66811 5.65172e-05 4
-8.12918 -14.7869 -2.6726 4.21223e-05 4
-4.87973 -8.95006 -2.73144 0.000522615 4
-5.56674 -10.2101 -2.68478 0.000353001 4
-6.5745 -12.0585 -2.66968 7.30635e-05 4
-8.07483 -14.8103 -2.67171 7.33803e-05 4
-4.84965 -8.96924 -2.73212 0.00050663 4
-5.54325 -10.252 -2.69069 0.000333932 4
-6.52278 -12.0636 -2.66576 0.000252292 4
-4.83837 -9.02351 -2.74349 0.000605195 1
-5.52099 -10.2966 -2.69732 0.00036856 4
-6.48311 -12.0909 -2.66678 0.000253687 4
-7.97103 -14.8659 -2.67164 4.75691e-05 4
-4.79861 -9.02486 -2.73879 0.000605223 1
-5.49715 -10.3386 -2.70329 0.000389337 4
-6.43715 -12.1065 -2.66524 0.000296447 4
-10.2395 -19.2577 -2.67801 3.66403e-05 4
-4.76481 -9.03727 -2.73749 0.000605251 1
-5.47055 -10.3758 -2.708 0.000336191 4
-6.39485 -12.1289 -2.66524 0.000286814 4
-7.87018 -14.9271 -2.67271 3.53428e-05 4
-4.73746 -9.06192 -2.73993 0.000605278 1
-5.45392 -10.4324 -2.71778 0.000393287 4
-6.35431 -12.1547 -2.66601 0.000252357 4
-4.70988 -9.08628 -2.74231 0.000605306 1
-5.42737 -10.4705 -2.72275 0.000320256 4
-6.3179 -12.1885 -2.66857 6.20592e-05 4
-7.75419 -14.9593 -2.66872 3.39891e-05 4
-4.67399 -9.09459 -2.73987 0.000605333 1
-5.4077 -10.5222 -2.73129 0.000274025 4
-6.28295 -12.2253 -2.67182 0.000197823 4
-4.64538 -9.11707 -2.74175 0.000605361 1
-5.3828 -10.5643 -2.73732 0.000299646 4
-6.25651 -12.2791 -2.67878 0.000166545 4
-7.65672 -15.0272 -2.67121 4.07937e-05 4
-4.60948 -9.12521 -2.73934 0.000605389 1
-5.34882 -10.5889 -2.73882 0.000375199 1
-6.23621 -12.3456 -2.68853 0.000178612 4
-7.60361 -15.0526 -2.671 3.94372e-05 4
-4.58469 -9.15541 -2.74358 0.000605417 1
-5.31328 -10.6104 -2.73957 0.000375219 1
-6.2059 -12.3929 -2.69409 0.000175301 4
-4.23334 -8.528 -2.55112 0.000596489 4
-5.27691 -10.6303 -2.73993 0.00037524 1
-6.1882 -12.466 -2.70528 0.000192974 4
-7.49275 -15.094 -2.66901 0.000127172 4
-4.19897 -8.53342 -2.54835 0.000670537 4
-5.23784 -10.6447 -2.73892 0.000375261 1
-6.16077 -12.5203 -2.71238 0.000216187 4
-7.44025 -15.1206 -2.66909 0.000121742 4
-4.17011 -8.54998 -2.54893 0.000548647 4
-5.20433 -10.6705 -2.74086 0.000375282 1
-6.13622 -12.5811 -2.72089 0.000187602 4
-7.38786 -15.1474 -2.66925 0.000127874 4
-4.13588 -8.55548 -2.54625 0.000413682 4
-5.16302 -10.6802 -2.73872 0.000375303 1
-6.1078 -12.6346 -2.72783 0.000214695 4
-7.33219 -15.1674 -2.66825 0.000129926 4
-4.11121 -8.58076 -2.54948 0.000465958 4
-5.12604 -10.6989 -2.7389 0.000375324 1
-6.08292 -12.696 -2.73649 0.000178032 4
-7.28676 -15.2086 -2.67102 4.76209e-05 4
-4.12704 -8.69152 -2.5781 0.00051737 4
-5.09648 -10.7332 -2.74311 0.000375345 1
-6.04919 -12.7396 -2.74131 0.000211691 1
-7.25771 -15.2847 -2.67991 9.32574e-05 4
-4.13288 -8.78281 -2.60088 0.000502028 4
-4.70383 -9.99614 -2.55053 0.000322465 4
-6.01014 -12.7722 -2.7438 0.000211705 1
-7.22833 -15.361 -2.68885 0.000107164 4
-4.15424 -8.9088 -2.63388 0.000445353 4
-4.66493 -10.004 -2.54836 0.000341453 4
-5.96822 -12.7989 -2.74504 0.00021172 1
-7.20721 -15.4559 -2.70104 0.000114733 4
-9.2113 -19.7537 -2.67619 4.12911e-05 4
-4.16668 -9.01751 -2.6617 0.00076315 4
-4.63706 -10.0355 -2.55226 0.000246619 4
-5.92533 -12.8236 -2.74588 0.000211735 1
-7.17025 -15.5178 -2.70748 6.03068e-05 4
-4.13937 -9.04117 -2.66441 0.000389461 4
-4.59969 -10.0466 -2.55097 0.000300838 4
-5.88181 -12.847 -2.74648 0.000211749 1
-7.15034 -15.6177 -2.72053 8.92925e-05 4
-4.10744 -9.0548 -2.66418 0.000487834 4
-4.59759 -10.1353 -2.56942 0.000331777 4
-5.83257 -12.8578 -2.74443 0.000211764 1
-7.11142 -15.677 -2.72652 7.45205e-05 4
-8.99622 -19.8321 -2.67389 4.9135e-05 4
-4.07567 -9.06878 -2.66409 0.000389499 4
-4.6299 -10.302 -2.60756 0.000348968 4
-5.78941 -12.882 -2.74527 0.000211779 1
-7.08392 -15.7624 -2.73706 0.000120226 4
-8.93771 -19.8873 -2.67712 5.15709e-05 4
-4.03634 -9.06577 -2.65905 0.000464274 4
-4.64792 -10.4394 -2.63821 0.000305471 4
-5.34032 -11.9946 -2.55215 0.000209038 4
-7.05973 -15.8564 -2.74908 0.000104105 1
-8.86203 -19.9044 -2.67525 5.50875e-05 4
-4.01231 -9.09713 -2.66413 0.000424949 4
-4.65742 -10.5598 -2.66451 0.000600914 4
-5.30128 -12.0196 -2.55353 0.000182921 4
-7.00061 -15.8725 -2.74762 0.000104114 1
-8.81061 -19.9763 -2.68076 3.51154e-05 4
-3.97364 -9.0953 -2.65951 0.000251834 4
-4.61578 -10.5651 -2.66177 0.000254059 4
-5.25817 -12.0355 -2.55299 0.000230589 4
-6.94484 -15.8961 -2.74749 0.000104123 1
-8.77547 -20.0863 -2.69138 3.81119e-05 4
-3.94076 -9.10657 -2.65877 0.0003699 4
-4.58292 -10.5905 -2.66412 0.000244302 4
-5.24583 -12.1224 -2.56752 0.00018175 4
-6.89139 -15.925 -2.74832 0.000104133 1
-8.74607 -20.211 -2.70399 3.24386e-05 4
-3.91856 -9.14268 -2.6653 0.000129865 4
-4.55021 -10.6164 -2.66663 0.000136817 4
-5.29043 -12.3435 -2.61042 0.000198279 4
-6.83241 -15.9412 -2.74697 0.000104142 1
-8.72053 -20.3465 -2.71803 3.99867e-05 4
-3.88581 -9.1544 -2.66475 0.00051555 4
-4.51324 -10.6325 -2.6667 0.000290753 4
-5.33332 -12.5645 -2.65321 0.000174556 4
-6.78151 -15.9762 -2.74891 0.000104151 1
-3.85237 -9.16442 -2.66373 0.000692681 4
-4.47349 -10.642 -2.66515 0.000241902 4
-5.31638 -12.6472 -2.66673 0.000113264 4
-6.25344 -14.8764 -2.55589 0.000108166 4
-8.6524 -20.5832 -2.74152 2.99239e-05 4
-3.81759 -9.17117 -2.66181 0.000310935 4
-4.43061 -10.6438 -2.66172 0.000329885 4
-5.27542 -12.6734 -2.66836 0.000248646 4
-6.20457 -14.9055 -2.55717 0.000108938 4
-8.61159 -20.688 -2.75145 4.11268e-05 1
-3.78084 -9.173 -2.65849 0.000684878 4
-4.40011 -10.6755 -2.66577 0.000197943 4
-5.22089 -12.6668 -2.66312 0.000192023 4
-6.1834 -15.0021 -2.57001 0.00010392 4
-8.54275 -20.7263 -2.75256 4.11319e-05 1
-3.7537 -9.19816 -2.66197 0.000594378 4
-4.35412 -10.6694 -2.66045 0.000530322 4
-5.17859 -12.6897 -2.66413 0.000154735 4
-6.24801 -15.3103 -2.61906 5.58982e-05 4
-8.47363 -20.764 -2.75362 4.1137e-05 1
-3.72054 -9.20866 -2.66123 0.000755803 4
-4.31695 -10.6848 -2.66051 0.000623227 4
-5.13387 -12.7068 -2.66392 0.000151983 4
-6.31127 -15.6209 -2.66842 0.000102208 4
-8.40098 -20.7931 -2.75358 4.11421e-05 1
-3.68605 -9.21579 -2.65956 0.000551135 4
-4.28544 -10.7144 -2.66413 0.000237085 4
-5.08752 -12.7197 -2.6629 0.000174102 4
-6.25707 -15.6438 -2.66857 0.000130157 4
-7.74547 -19.365 -2.56087 3.68533e-05 4
-3.66182 -9.2487 -2.66535 0.000263771 4
-4.24318 -10.717 -2.66109 0.000241988 4
-5.04813 -12.7501 -2.66556 0.00015615 4
-6.20544 -15.6732 -2.66987 0.000105634 4
-7.67451 -19.3836 -2.55976 3.13749e-05 4
-3.62744 -9.25612 -2.66383 0.000354337 4
-4.20739 -10.736 -2.66214 0.000198002 4
-5.00207 -12.7638 -2.66475 0.000203149 4
-6.1519 -15.6978 -2.67039 7.15654e-05 4
-7.66274 -19.553 -2.57858 4.28663e-05 4
-3.52118 -9.07815 -2.60905 0.000183658 4
-4.17069 -10.7527 -2.66265 0.000212681 4
-4.95796 -12.7824 -2.665 0.000352426 4
-6.09552 -15.7152 -2.66972 9.06578e-05 4
-3.40731 -8.87635 -2.54762 0.000640872 4
-4.12942 -10.7575 -2.66026 0.000190691 4
-4.9185 -12.8131 -2.66781 0.000174153 4
-6.03498 -15.7217 -2.66722 7.56688e-05 4
-7.80205 -20.325 -2.67315 4.78847e-05 4
-3.38059 -8.89946 -2.55085 0.000697583 4
-4.04252 -10.642 -2.62819 9.42164e-05 4
-4.86766 -12.8142 -2.66449 0.000189371 4
-5.98345 -15.7515 -2.66873 9.54471e-05 4
-3.34855 -8.90868 -2.55013 0.000579896 4
-3.8874 -10.3423 -2.5508 0.000409728 4
-4.82277 -12.8308 -2.66441 0.000200444 4
-5.93151 -15.7805 -2.67012 7.02284e-05 4
-7.66692 -20.3975 -2.67558 2.92252e-05 4
-3.31716 -8.91958 -2.54992 0.000558124 4
-3.852 -10.3577 -2.55128 0.000390757 4
-4.75534 -12.7867 -2.6518 4.96335e-05 4
-5.87118 -15.7871 -2.66775 9.13736e-05 4
-7.5924 -20.4153 -2.67442 4.87148e-05 4
-3.28737 -8.93481 -2.55098 0.000497104 4
-3.81851 -10.3784 -2.55308 0.000331078 4
-4.53643 -12.3296 -2.55371 0.00021394 4
-5.81769 -15.812 -2.66851 7.22874e-05 4
-7.52355 -20.4484 -2.6753 6.38786e-05 4
-3.25377 -8.93965 -2.5491 0.000614872 4
-3.77308 -10.3664 -2.54688 0.000341954 4
-4.49054 -12.3376 -2.55211 0.000209339 4
-5.75792 -15.8197 -2.66641 7.91144e-05 4
-7.44335 -20.4504 -2.67215 3.49212e-05 4
-3.21805 -8.93848 -2.54555 0.000518961 4
-3.74391 -10.3991 -2.55168 0.00041797 4
-4.45126 -12.3638 -2.5543 0.000226287 4
-5.47058 -15.1951 -2.55789 3.53682e-05 4
-3.1923 -8.96503 -2.54992 0.000562601 4
-3.70042 -10.392 -2.54675 0.00036371 4
-4.40831 -12.38 -2.55443 0.000213988 4
-5.41245 -15.1999 -2.5555 0.000111377 4
-3.15525 -8.95982 -2.54529 0.000558268 4
-3.67212 -10.4276 -2.5523 0.000415307 4
-4.35977 -12.3802 -2.55133 0.000173975 4
-5.35702 -15.2121 -2.55439 0.000100707 4
-3.12906 -8.98544 -2.54945 0.000449255 4
-3.63332 -10.4335 -2.55063 0.000369184 4
-4.32179 -12.4105 -2.55444 0.000240195 4
-5.30425 -15.2317 -2.55456 0.000107583 4
-6.85774 -19.6927 -2.56038 4.45404e-05 4
-3.09587 -8.99105 -2.54796 0.000562689 4
-3.59136 -10.4301 -2.54672 0.000238899 4
-4.27213 -12.4072 -2.55067 0.00018016 4
-5.25525 -15.2624 -2.55661 9.53842e-05 4
-6.78387 -19.7018 -2.55847 3.84439e-05 4
-3.06417 -9.00094 -2.54772 0.000588892 4
-3.55928 -10.4553 -2.54983 0.000328506 4
-4.23198 -12.4314 -2.55259 0.000207893 4
-5.19912 -15.2723 -2.55522 8.08935e-05 4
-6.71376 -19.7215 -2.55797 3.90592e-05 4
-3.03041 -9.00469 -2.54577 0.000558386 4
-3.51847 -10.4549 -2.54673 0.000298661 4
-4.18859 -12.4461 -2.55261 0.000190968 4
-5.14218 -15.2797 -2.55343 0.000100745 4
-6.65305 -19.7691 -2.56111 4.48628e-05 4
-3.00606 -9.03654 -2.55179 0.000619493 4
-3.48478 -10.4756 -2.54879 0.000399144 4
-4.14675 -12.4656 -2.55362 0.000110893 4
-5.09533 -15.3171 -2.5567 0.000111441 4
-6.5823 -19.7871 -2.56045 4.3953e-05 4
-2.97223 -9.04008 -2.54985 0.000562808 4
-3.44805 -10.4873 -2.54869 0.000295983 4
-4.10069 -12.4723 -2.55204 0.000194077 4
-5.04058 -15.331 -2.55607 0.000106871 4
-6.51255 -19.808 -2.5602 4.45692e-05 4
-2.94083 -9.05096 -2.55 0.000445035 4
-3.41332 -10.5051 -2.55011 0.000328588 4
-4.06055 -12.4971 -2.5542 0.000234143 4
-4.98418 -15.3397 -2.5546 0.000104591 4
-6.44572 -19.8379 -2.56114 4.67122e-05 4
-2.91021 -9.06425 -2.55087 0.000488692 4
-3.3723 -10.5035 -2.54684 0.000431809 4
-4.00892 -12.4863 -2.54912 0.000164837 4
-4.93404 -15.3677 -2.55638 0.000106892 4
-6.37574 -19.8581 -2.56086 3.54204e-05 4
-2.87459 -9.06186 -2.54736 0.000541081 4
-3.34275 -10.5377 -2.55229 0.00022814 4
-3.96648 -12.5039 -2.54987 0.000204906 4
-4.87906 -15.3807 -2.5557 9.77392e-05 4
-6.30565 -19.8779 -2.56056 3.97005e-05 4
-2.84718 -9.08535 -2.55115 0.00057602 4
-3.30629 -10.5504 -2.55255 0.000339515 4
-3.92771 -12.5333 -2.55306 0.000189514 4
-4.82707 -15.4032 -2.55662 0.00011684 4
-6.23419 -19.8933 -2.55973 4.12329e-05 4
-2.81217 -9.08464 -2.54818 0.000680788 4
-3.26397 -10.5442 -2.54828 0.000287927 4
-3.88375 -12.5464 -2.55294 0.000172579 4
-4.76699 -15.3997 -2.55325 0.000101577 4
-6.16101 -19.903 -2.55819 4.06274e-05 4
-2.78291 -9.10248 -2.55044 0.000628453 4
-3.23109 -10.5684 -2.55139 0.000383022 4
-3.83583 -12.5464 -2.55021 0.000192626 4
-4.71794 -15.4317 -2.55582 0.000105406 4
-6.09735 -19.9435 -2.56065 4.67429e-05 4
-2.75018 -9.10905 -2.54958 0.000449543 4
-3.18749 -10.5575 -2.54605 0.000309697 4
-3.79426 -12.5672 -2.55172 0.000198805 4
-4.65847 -15.4296 -2.55276 0.000104652 4
-6.02035 -19.9403 -2.55752 3.63604e-05 4
-2.72003 -9.12416 -2.55114 0.000462662 4
-3.15464 -10.582 -2.5493 0.000353186 4
-3.74585 -12.5652 -2.54865 0.000192656 4
-4.60838 -15.4585 -2.55487 0.000113066 4
-5.95318 -19.9695 -2.55859 4.98112e-05 4
-2.68628 -9.1272 -2.54935 0.000501972 4
-3.11406 -10.5807 -2.54634 0.00039668 4
-3.70567 -12.5908 -2.5512 0.000208084 4
-4.55422 -15.4739 -2.55477 0.000120718 4
-5.88164 -19.9841 -2.55781 4.18715e-05 4
-2.65399 -9.13509 -2.54895 0.000663512 4
-3.07847 -10.5962 -2.54747 0.000331494 4
-3.665 -12.615 -2.5535 0.000231223 4
-4.49787 -15.4818 -2.55346 8.71088e-05 4
-5.81489 -20.015 -2.55915 3.6375e-05 4
-2.61972 -9.13603 -2.54664 0.000563143 4
-3.04338 -10.6135 -2.54907 0.00037771 4
-3.61953 -12.6228 -2.5525 0.000169577 4
-4.44725 -15.5094 -2.55544 9.70519e-05 4
-5.7458 -20.038 -2.55951 3.36284e-05 4
-2.58952 -9.15117 -2.54833 0.00050642 4
-3.00388 -10.6155 -2.54701 0.000391322 4
-3.57003 -12.6162 -2.54864 0.000212759 4
-4.38867 -15.5092 -2.55287 0.000103176 4
-5.67038 -20.0387 -2.55705 4.18883e-05 4
-2.55487 -9.15051 -2.54565 0.000510814 4
-2.97034 -10.6385 -2.55004 0.000326123 4
-3.52535 -12.6264 -2.54819 0.000131057 4
-4.33833 -15.5381 -2.55513 0.000116944 4
-5.60522 -20.0756 -2.55925 2.90505e-05 4
-2.52503 -9.16706 -2.54778 0.000580701 4
-2.93059 -10.6394 -2.54778 0.000415834 4
-3.48545 -12.6539 -2.55126 0.000188121 4
-4.28527 -15.5576 -2.55585 0.000103196 4
-5.53327 -20.0884 -2.5584 3.57829e-05 4
-2.49612 -9.18724 -2.55096 0.000480305 4
-2.89759 -10.6649 -2.55144 0.000342474 4
-3.44019 -12.662 -2.55046 0.000175799 4
-4.23069 -15.5715 -2.5557 9.78552e-05 4
-5.86745 -21.5958 -2.74776 4.13261e-05 1
-2.46288 -9.1916 -2.54976 0.000628799 4
-2.85797 -10.6661 -2.54932 0.000326187 4
-3.39387 -12.6661 -2.54889 0.000152679 4
-4.17524 -15.5822 -2.55504 3.7464e-05 4
-5.79655 -21.633 -2.7499 4.13318e-05 1
-2.4278 -9.18886 -2.54664 0.000650668 4
-2.81958 -10.6717 -2.5483 0.000353393 4
-3.35001 -12.6793 -2.54918 0.000202047 4
-4.11922 -15.5906 -2.55405 9.40517e-05 4
-5.71803 -21.6419 -2.74847 4.13375e-05 1
-2.39672 -9.20114 -2.54771 0.00064197 4
-2.7813 -10.6776 -2.54737 0.000399632 4
-3.30452 -12.6863 -2.54824 0.000182011 4
-4.06118 -15.5911 -2.55179 8.87081e-05 4
-5.63988 -21.6518 -2.74722 4.13432e-05 1
-2.36136 -9.19688 -2.54423 0.000497882 4
-2.74377 -10.6863 -2.54714 0.000372471 4
-3.26393 -12.7122 -2.55114 0.000212877 4
-4.30656 -16.7729 -2.74274 0.000104585 1
-5.56969 -21.6925 -2.7499 4.1349e-05 1
-2.33319 -9.22067 -2.54854 0.000567792 4
-2.70993 -10.7095 -2.55042 0.000228391 4
-3.21585 -12.7089 -2.54822 0.000175869 4
-4.25086 -16.7992 -2.74459 0.000104596 1
-5.488 -21.6884 -2.74693 4.13547e-05 1
-2.29631 -9.21001 -2.54336 0.000607135 4
-2.66714 -10.6973 -2.54527 0.000307261 4
-3.17091 -12.7178 -2.54777 0.000199026 4
-4.19415 -16.8218 -2.74588 0.000104607 1
-5.41557 -21.7207 -2.74861 4.13605e-05 1
-2.26617 -9.22617 -2.54563 0.000589697 4
-2.63366 -10.7223 -2.54902 0.000345352 4
-3.12827 -12.736 -2.54922 0.000208299 4
-4.13144 -16.8202 -2.74325 0.000104618 1
-5.34125 -21.7457 -2.7494 4.13662e-05 1
-2.23406 -9.23451 -2.54576 0.000397522 4
-2.5981 -10.7393 -2.55088 0.000391606 4
-3.31415 -13.6991 -2.73965 0.000212634 1
-4.07354 -16.838 -2.74381 0.000104628 1
-5.26547 -21.7648 -2.74948 4.13721e-05 1
-2.19968 -9.2333 -2.54329 0.000554814 4
-2.55616 -10.7296 -2.54646 0.000429707 4
-3.26915 -13.7224 -2.74202 0.000212651 1
-4.01441 -16.8507 -2.74359 0.000104639 1
-5.18419 -21.7609 -2.74668 4.13779e-05 1
-2.16923 -9.24856 -2.5454 0.000598535 4
-2.52289 -10.7564 -2.5507 0.000135992 4
-3.21972 -13.7273 -2.74074 0.000212669 1
-3.95205 -16.8496 -2.74115 0.00010465 1
-5.11181 -21.7943 -2.74863 4.13837e-05 1
-2.13839 -9.26239 -2.54713 0.000563616 4
-2.48239 -10.7524 -2.54769 0.000301923 4
-3.17069 -13.7338 -2.7398 0.000212686 1
-3.89564 -16.8739 -2.74286 0.000104661 1
-5.0374 -21.8194 -2.74956 4.13895e-05 1
-2.10766 -9.27689 -2.54908 0.000681621 4
-2.6277 -11.5659 -2.73824 0.000376822 1
-3.12661 -13.7618 -2.7432 0.000212704 1
-3.83714 -16.8892 -2.74316 0.000104672 1
-4.95804 -21.8229 -2.7478 4.13954e-05 1
-2.07196 -9.2694 -2.54502 0.000554941 4
-2.58527 -11.5658 -2.73608 0.000376848 1
-3.07482 -13.7559 -2.73987 0.000212722 1
-3.78064 -16.9136 -2.74496 0.000104683 1
-4.88397 -21.8496 -2.749 4.14013e-05 1
-2.04158 -9.28565 -2.54751 0.00064237 4
-2.54735 -11.586 -2.73873 0.000376873 1
-3.0301 -13.7817 -2.74288 0.000212739 1
-3.71621 -16.9023 -2.741 0.000104694 1
-4.80433 -21.8513 -2.74709 4.14072e-05 1
-2.00566 -9.27655 -2.54308 0.000611816 4
-2.50474 -11.5849 -2.73638 0.000376899 1
-2.9777 -13.7724 -2.73894 0.000212757 1
-3.65689 -16.9138 -2.74078 0.000104705 1
-4.72965 -21.8755 -2.74803 4.1413e-05 1
-1.9784 -9.30766 -2.5497 0.000616222 4
-2.46728 -11.6077 -2.73971 0.000376925 1
-2.93074 -13.788 -2.74 0.000212774 1
-3.60021 -16.9377 -2.7426 0.000104716 1
-4.65186 -21.8853 -2.74721 4.1419e-05 1
-2.09118 -10.0099 -2.74006 0.000607783 1
-2.42641 -11.6146 -2.73932 0.000376951 1
-2.88292 -13.7997 -2.74031 0.000212792 1
-3.54253 -16.9571 -2.74373 0.000104727 1
-4.57277 -21.8886 -2.74561 4.14249e-05 1
-2.0521 -9.99706 -2.73456 0.000607819 1
-2.38464 -11.6171 -2.73793 0.000376977 1
-2.83165 -13.7947 -2.73733 0.00021281 1
-3.48005 -16.9535 -2.74115 0.000104738 1
-4.50099 -21.9271 -2.74845 4.14308e-05 1
-2.01929 -10.0146 -2.7374 0.000607854 1
-2.34431 -11.6265 -2.73821 0.000377003 1
-2.78459 -13.81 -2.73842 0.000212828 1
-3.42067 -16.9646 -2.74101 0.000104749 1
-4.42079 -21.9247 -2.74619 4.14368e-05 1
-1.9819 -10.0093 -2.73406 0.00060789 1
-2.30219 -11.6269 -2.7364 0.000377029 1
-2.74006 -13.8383 -2.74212 0.000212846 1
-3.36607 -16.9999 -2.7448 0.000104761 1
-4.34735 -21.9557 -2.74816 4.14428e-05 1
-1.94737 -10.0184 -2.73466 0.000607926 1
-2.26374 -11.6459 -2.739 0.000377055 1
-2.69142 -13.8462 -2.7418 0.000212864 1
-3.30571 -17.0064 -2.74396 0.000104772 1
-4.26784 -21.9561 -2.74633 4.14487e-05 1
-1.9117 -10.0215 -2.73366 0.000607961 1
-2.22144 -11.6452 -2.73698 0.000377081 1
-2.63949 -13.8367 -2.73807 0.000212882 1
-3.24619 -17.0171 -2.74385 0.000104783 1
-4.19171 -21.9737 -2.74668 4.14548e-05 1
-1.88085 -10.0502 -2.73971 0.000607997 1
-2.18298 -11.6646 -2.73974 0.000377107 1
-2.59039 -13.8416 -2.73725 0.0002129 1
-3.18325 -17.0095 -2.74082 0.000104794 1
-4.1174 -22.0011 -2.7483 4.14608e-05 1
-1.84427 -10.0486 -2.73749 0.000608033 1
-2.14068 -11.6636 -2.73774 0.000377134 1
-2.54316 -13.8566 -2.73844 0.000212918 1
-3.12542 -17.0291 -2.74219 0.000104805 1
-4.03952 -22.0096 -2.74758 4.14668e-05 1
-1.80975 -10.0582 -2.73836 0.000608069 1
-2.10059 -11.6746 -2.73857 0.00037716 1
-2.49804 -13.8835 -2.74202 0.000212936 1
-3.06467 -17.0327 -2.74103 0.000104817 1
-3.96137 -22.0163 -2.74668 4.14728e-05 1
-1.77196 -10.0493 -2.73423 0.000608105 1
-2.06088 -11.6878 -2.73998 0.000377187 1
-2.44781 -13.8822 -2.74006 0.000212954 1
-3.00725 -17.0549 -2.74291 0.000104828 1
-3.88408 -22.0277 -2.74639 4.14789e-05 1
-1.73647 -10.0531 -2.7336 0.000608141 1
-2.01612 -11.6721 -2.73461 0.000377213 1
-2.40093 -13.8999 -2.74188 0.000212972 1
-2.94786 -17.0663 -2.74306 0.000104839 1
-3.80877 -22.0504 -2.74754 4.1485e-05 1
-1.70056 -10.0543 -2.73231 0.000608178 1
-1.97894 -11.7002 -2.73956 0.00037724 1
-2.35185 -13.9049 -2.74123 0.00021299 1
-2.88482 -17.056 -2.73978 0.000104851 1
-3.72762 -22.039 -2.74449 4.1491e-05 1
-6.58617 -38.9397 3.45517 0.000110049 10
-6.58993 -38.962 4.85187 0.000108279 10
-6.59038 -38.9646 6.25905 0.000105959 10
-6.58698 -38.9446 7.67758 0.000103117 10
-6.59058 -38.9658 9.12374 9.9788e-05 10
-6.58704 -38.9449 10.5835 9.6013e-05 10
-1.66821 -10.0769 -2.73684 0.000608214 1
-1.93689 -11.6998 -2.73788 0.000377266 1
-2.29933 -13.8891 -2.73652 0.000213008 1
-2.82702 -17.0766 -2.74148 0.000104862 1
-3.6516 -22.0575 -2.74519 4.14971e-05 1
-6.25776 -37.8001 2.00798 0.000123221 10
-6.25532 -37.7853 3.35078 0.000121906 10
-6.45471 -38.9897 4.8525 0.000108032 10
-6.25906 -37.8079 6.06969 0.000117417 10
-6.45798 -39.0095 7.68588 0.00010288 10
-6.45431 -38.9873 9.12344 9.95587e-05 10
-6.2573 -37.7973 10.2656 0.000106497 10
-1.63227 -10.078 -2.73557 0.00060825 1
-1.89547 -11.7029 -2.73705 0.000377293 1
-2.2547 -13.9209 -2.74122 0.000213027 1
-2.76949 -17.0993 -2.74356 0.000104873 1
-3.57556 -22.0762 -2.74593 4.15032e-05 1
-6.12804 -37.8357 2.00872 0.000122936 10
-6.12903 -37.8417 3.35386 0.000121624 10
-6.32295 -39.0391 4.85586 0.000107779 10
-6.12683 -37.8282 6.06947 0.000117145 10
-6.32178 -39.0318 7.68588 0.000102639 10
-6.3253 -39.0536 9.13372 9.93245e-05 10
-6.13048 -37.8507 10.2742 0.000106248 10
-1.59758 -10.0867 -2.73643 0.000608287 1
-1.85541 -11.7146 -2.73824 0.000377319 1
-2.20399 -13.9154 -2.7386 0.000213045 1
-2.70604 -17.0853 -2.73977 0.000104885 1
-3.49628 -22.0746 -2.74421 4.15094e-05 1
-6.1593 -38.8883 -0.687259 0.000144716 10
-6.16126 -38.9006 0.687477 0.000144693 10
-5.99813 -37.8707 2.00946 0.000122646 10
-5.99855 -37.8733 3.35479 0.000121336 10
-5.99987 -37.8817 6.07466 0.000116867 10
-6.00233 -37.8972 10.2811 0.000105994 10
-1.56005 -10.0773 -2.73237 0.000608323 1
-1.81194 -11.7044 -2.73437 0.000377346 1
-2.15752 -13.9368 -2.7413 0.000213063 1
-2.64738 -17.101 -2.74079 0.000104896 1
-3.4215 -22.1016 -2.74606 4.15155e-05 1
-5.84354 -37.747 -0.666725 0.000105892 10
-5.84298 -37.7433 0.66666 0.000105876 10
-5.52776 -35.7072 3.16118 0.000147701 10
-5.52742 -35.7049 7.02301 0.00013864 10
-5.52945 -35.7181 9.68463 0.000129341 10
-1.52841 -10.1061 -2.73872 0.00060836 1
-1.77077 -11.7087 -2.7339 0.000377373 1
-2.10719 -13.9331 -2.73912 0.000213082 1
-2.5864 -17.1018 -2.73945 0.000104908 1
-3.34469 -22.1158 -2.74635 4.15216e-05 1
-5.58874 -36.9538 -0.652366 0.000113506 10
-5.5905 -36.9655 0.652571 0.000113488 10
-5.40565 -35.7432 3.16268 0.000147342 10
-1.49117 -10.0982 -2.73513 0.000608397 1
-1.73334 -11.7381 -2.73934 0.0003774 1
-2.05723 -13.9315 -2.73738 0.0002131 1
-2.53058 -17.137 -2.74367 0.000104919 1
-3.2678 -22.1295 -2.74662 4.15278e-05 1
-5.33827 -36.1507 -1.91512 3.1183e-05 10
-5.34299 -36.1826 -0.638419 0.000121781 10
-5.34678 -36.2082 0.638871 0.000121763 10
-5.01955 -33.9923 1.80078 2.9694e-05 10
-5.01783 -33.9807 3.00516 2.94233e-05 10
-5.01437 -33.9572 4.21464 2.90051e-05 10
-1.45493 -10.0965 -2.73329 0.000608433 1
-1.69158 -11.7387 -2.7381 0.000377427 1
-2.01152 -13.959 -2.74138 0.000213119 1
-2.46825 -17.1284 -2.7409 0.000104931 1
-3.18982 -22.1358 -2.74601 4.1534e-05 1
-5.10404 -35.4195 -1.87543 3.40132e-05 10
-5.10427 -35.4212 -0.624665 0.000130789 10
-5.10445 -35.4224 0.624686 0.000130769 10
-4.80024 -33.3113 1.76381 3.23375e-05 10
-4.79908 -33.3033 2.94376 3.20436e-05 10
-4.798 -33.2958 4.13044 3.15901e-05 10
-4.79441 -33.2709 5.32403 3.09822e-05 10
-4.79504 -33.2752 6.53486 3.02272e-05 10
-4.79305 -33.2614 7.75832 2.93337e-05 10
-1.41941 -10.0997 -2.73279 0.00060847 1
-1.65188 -11.7537 -2.74023 0.000377454 1
-1.95949 -13.9425 -2.73677 0.000213137 1
-2.40879 -17.1394 -2.74129 0.000104942 1
-3.11316 -22.1513 -2.74657 4.15402e-05 1
-4.88241 -34.7401 -1.83854 3.70155e-05 10
-4.89362 -34.8199 -0.613757 0.000209337 10
-4.89359 -34.8197 0.613753 0.000209306 10
-4.5916 -32.6709 1.72904 3.51379e-05 10
-4.59056 -32.6635 2.88577 3.48196e-05 10
-4.58976 -32.6578 4.04928 3.43288e-05 10
-4.58701 -32.6383 5.2202 3.36712e-05 10
-4.58646 -32.6343 6.40581 3.28545e-05 10
-4.58427 -32.6187 7.60464 3.1888e-05 10
-4.58373 -32.6149 8.82502 3.07829e-05 10
-1.38675 -10.1236 -2.73793 0.000608507 1
-1.60921 -11.7475 -2.73745 0.000377481 1
-1.91336 -13.9679 -2.74043 0.000213156 1
-2.34973 -17.1534 -2.74221 0.000104954 1
-3.03409 -22.1494 -2.745 4.15464e-05 1
-4.66864 -34.0819 -1.80284 4.0195e-05 10
-4.775 -34.8584 -0.614137 0.000208788 10
-4.77697 -34.8727 0.61439 0.000208757 10
-4.39163 -32.0597 1.69587 3.81e-05 10
-4.38959 -32.0448 2.82973 3.7756e-05 10
-4.38708 -32.0264 3.96907 3.72259e-05 10
-4.38637 -32.0213 5.11903 3.65159e-05 10
-4.38627 -32.0205 6.28229 3.56341e-05 10
-4.38514 -32.0123 7.45964 3.45907e-05 10
-4.38321 -31.9982 8.65395 3.33978e-05 10
-1.35188 -10.1319 -2.73889 0.000608544 1
-1.56879 -11.7575 -2.73849 0.000377508 1
-1.86198 -13.9549 -2.7366 0.000213174 1
-2.28724 -17.1421 -2.7391 0.000104965 1
-2.95682 -22.1603 -2.74506 4.15526e-05 1
-4.46214 -33.4422 -1.76816 4.35568e-05 10
-4.65607 -34.8956 -0.614503 0.00020823 10
-4.65574 -34.8931 0.614459 0.000208198 10
-4.21329 -31.5771 1.66955 0.000221642 10
-4.21351 -31.5787 2.78727 0.000219399 10
-4.21311 -31.5758 3.91138 0.000216082 10
-4.2137 -31.5802 5.04613 0.000211731 10
-4.21618 -31.5987 6.19661 0.000206395 10
-4.19639 -31.4505 7.32526 4.77521e-05 10
-4.21466 -31.5874 8.53883 0.000193025 10
-1.31542 -10.1281 -2.73662 0.000608581 1
-1.52832 -11.7674 -2.73953 0.000377535 1
-1.81481 -13.9733 -2.73894 0.000213193 1
-2.23028 -17.1722 -2.74265 0.000104977 1
-2.87821 -22.161 -2.74388 4.15588e-05 1
-4.26393 -32.8304 -1.73502 4.71064e-05 10
-4.53787 -34.9396 -0.614996 0.000207662 10
-4.53766 -34.938 0.614967 0.00020763 10
-4.10453 -31.6031 1.67016 0.000221054 10
-4.01085 -30.8818 2.7245 4.4128e-05 10
-4.00829 -30.8621 3.82122 4.3513e-05 10
-4.10517 -31.6081 5.04827 0.000211167 10
-4.00718 -30.8535 6.04769 4.16679e-05 10
-4.00695 -30.8518 7.18251 4.04587e-05 10
-4.10679 -31.6205 8.54384 0.000192508 10
-1.27884 -10.1231 -2.73403 0.000608619 1
-1.48558 -11.7596 -2.73649 0.000377562 1
-1.76727 -13.9893 -2.74087 0.000213212 1
-2.17068 -17.1827 -2.7431 0.000104989 1
-2.8036 -22.1927 -2.74658 4.1565e-05 1
-4.07553 -32.2611 -1.70417 5.08488e-05 10
-4.08872 -32.3655 -0.569432 0.000174909 10
-4.08961 -32.3726 0.569556 0.000174883 10
-3.99898 -31.6552 1.67216 0.000220455 10
-3.89116 -30.8017 2.71622 0.000237369 10
-3.89132 -30.803 3.81219 0.000233805 10
-4.0002 -31.6648 5.05508 0.000210594 10
-3.89129 -30.8027 6.03502 0.000223395 10
-3.89101 -30.8005 7.16737 0.000216667 10
-3.99982 -31.6618 8.55119 0.000191982 10
-1.24556 -10.1442 -2.73855 0.000608656 1
-1.44516 -11.7699 -2.7377 0.00037759 1
-1.71615 -13.9769 -2.73723 0.00021323 1
-2.10796 -17.168 -2.73956 0.000105 1
-2.72593 -22.2009 -2.7464 4.15713e-05 1
-3.89319 -31.7075 -1.6742 5.47893e-05 10
-3.91293 -31.8683 -0.56044 0.000183926 10
-3.89094 -31.6892 0.55729 3.64381e-05 10
-3.88972 -31.6792 1.6727 4.28376e-05 10
-3.78702 -30.8428 2.71866 0.000236718 10
-3.78772 -30.8485 3.81617 0.000233164 10
-3.88545 -31.6444 5.04962 4.10541e-05 10
-3.7864 -30.8377 6.03926 0.00022278 10
-3.78638 -30.8375 7.17287 0.000216069 10
-3.88462 -31.6377 8.54096 3.75526e-05 10
-1.21009 -10.1481 -2.73843 0.000608693 1
-1.40472 -11.7803 -2.73897 0.000377617 1
-1.66868 -13.994 -2.73943 0.000213249 1
-2.04906 -17.1839 -2.74095 0.000105012 1
-2.64846 -22.2106 -2.74644 4.15776e-05 1
-3.71474 -31.1527 -2.74482 5.82947e-05 10
-3.73794 -31.3473 -1.65448 0.000192581 10
-3.74045 -31.3683 -0.551416 0.000193516 10
-3.74066 -31.37 0.551445 0.000193488 10
-3.71102 -31.1215 1.64257 4.60745e-05 10
-3.68099 -30.8697 2.71988 0.000236057 10
-3.68175 -30.8761 3.81796 0.000232512 10
-3.70785 -31.0949 4.95984 4.4163e-05 10
-3.68329 -30.889 6.04674 0.000222156 10
-3.68075 -30.8677 7.17685 0.000215462 10
-3.70788 -31.0952 8.39096 4.04116e-05 10
-1.17346 -10.1419 -2.73565 0.00060873 1
-1.36407 -11.7893 -2.73994 0.000377644 1
-1.61854 -13.9886 -2.73725 0.000213268 1
-1.98934 -17.1933 -2.74132 0.000105024 1
-2.56985 -22.2106 -2.74531 4.15838e-05 1
-3.54348 -30.6253 -2.69725 6.26036e-05 10
-3.54689 -30.6548 -1.61727 0.000312593 10
-3.54765 -30.6614 -0.538768 0.000314103 10
-3.54846 -30.6684 0.53889 0.000314057 10
-3.54199 -30.6125 1.61504 4.9474e-05 10
-3.54146 -30.6079 2.69571 4.90281e-05 10
-3.53815 -30.5793 3.77971 4.83437e-05 10
-3.53787 -30.5769 4.87521 4.74286e-05 10
-3.32796 -28.7627 5.6282 5.57557e-05 10
-3.32833 -28.7659 6.68543 5.41637e-05 10
-3.53674 -30.5671 8.24507 4.34157e-05 10
-1.1382 -10.1472 -2.736 0.000608768 1
-1.32231 -11.7886 -2.73869 0.000377672 1
-1.56873 -13.9855 -2.73556 0.000213287 1
-1.92794 -17.1879 -2.73937 0.000105035 1
-2.49099 -22.2077 -2.74386 4.15901e-05 1
-3.37988 -30.1323 -2.65277 6.71241e-05 10
-3.44434 -30.7069 -1.61937 0.00031169 10
-3.44392 -30.7032 -0.539288 0.000313195 10
-3.44322 -30.697 0.539177 0.00031315 10
-3.37625 -30.0999 1.58736 5.30402e-05 10
-3.21893 -28.6974 2.52644 0.000295403 10
-3.21679 -28.6783 3.54334 0.00029105 10
-3.37401 -30.0799 4.79407 5.08546e-05 10
-3.20459 -28.5696 5.58819 5.61067e-05 10
-3.21998 -28.7067 6.66903 0.000270101 10
-3.36995 -30.0438 8.10068 4.65684e-05 10
-1.1039 -10.1616 -2.7388 0.000608805 1
-1.27908 -11.7741 -2.73425 0.000377699 1
-1.52242 -14.0141 -2.74009 0.000213305 1
-1.87007 -17.2143 -2.74251 0.000105047 1
-2.41409 -22.222 -2.74458 4.15964e-05 1
-3.21743 -29.6169 -2.60639 7.18613e-05 10
-3.33864 -30.7327 -1.62011 0.000310774 10
-3.33854 -30.7317 -0.53958 0.000312274 10
-3.33984 -30.7437 0.539791 0.000312229 10
-3.21561 -29.6002 1.56041 5.67769e-05 10
-3.11924 -28.713 2.52684 0.000294549 10
-3.12097 -28.729 3.54823 0.000290207 10
-3.21405 -29.5858 4.7135 5.4445e-05 10
-3.10575 -28.5889 5.5898 5.61011e-05 10
-3.11945 -28.715 6.66838 0.000269315 10
-3.21042 -29.5524 7.96514 4.98731e-05 10
-1.06638 -10.1459 -2.73356 0.000608843 1
-1.2379 -11.7779 -2.73411 0.000377727 1
-1.47111 -13.9966 -2.73566 0.000213324 1
-1.80944 -17.2157 -2.74172 0.000105059 1
-2.33641 -22.2295 -2.74447 4.16027e-05 1
-3.06459 -29.1576 -2.56501 7.68201e-05 10
-3.23256 -30.7557 -1.62072 0.000309844 10
-3.23198 -30.7502 -0.539704 0.00031134 10
-3.2335 -30.7646 0.539956 0.000311295 10
-3.06207 -29.1337 1.53524 6.06881e-05 10
-2.89256 -27.5209 2.42103 0.000334258 10
-2.89288 -27.5239 3.39813 0.000329383 10
-3.05857 -29.1003 4.63443 5.82034e-05 10
-3.00584 -28.5986 5.58963 5.60955e-05 10
-2.89446 -27.5389 6.39288 0.000305912 10
-2.89511 -27.5451 7.42135 0.000295427 10
-1.03164 -10.1563 -2.73536 0.00060888 1
-1.19844 -11.7984 -2.7379 0.000377754 1
-1.42477 -14.0265 -2.74051 0.000213343 1
-1.74938 -17.2223 -2.74178 0.000105071 1
-2.25913 -22.2407 -2.74486 4.16091e-05 1
-2.91453 -28.693 -2.52323 8.20053e-05 10
-3.12774 -30.792 -1.62204 0.0003089 10
-3.12768 -30.7914 -0.540231 0.000310392 10
-3.12918 -30.8062 0.54049 0.000310347 10
-2.91292 -28.6772 1.51064 6.47775e-05 10
-2.80046 -27.5699 2.42447 0.000333267 10
-2.79888 -27.5544 3.40066 0.000328406 10
-2.90931 -28.6416 4.55973 6.21335e-05 10
-2.90668 -28.6157 5.59096 5.60898e-05 10
-2.79947 -27.5603 6.39553 0.000305 10
-2.80098 -27.5751 7.42674 0.000294545 10
-0.996519 -10.1633 -2.7363 0.000608918 1
-1.1553 -11.7826 -2.73328 0.000377782 1
-1.37538 -14.0272 -2.7397 0.000213362 1
-1.68804 -17.216 -2.73982 0.000105083 1
