VERSION 0.7
FIELDS x y z intensity label
SIZE 4 4 4 4 4
TYPE F F F F F
COUNT 1 1 1 1 1
WIDTH 1146
HEIGHT 1
VIEWPOINT 1.55004 44.136 2.72866 0.877455 0.000318121 0.000863167 -0.479659
POINTS 1146
DATA ascii
-33.311 -10.8234 6.80822 0.000118881 10
-9.45636 -3.10909 -2.66726 0.000175484 4
-11.006 -3.61858 -2.67474 6.76807e-05 4
-13.0787 -4.30004 -2.67612 4.90794e-05 4
-20.2315 -6.65178 -2.61494 8.4198e-05 4
-33.4086 -10.9842 1.84308 0.000126596 10
-33.2786 -10.9414 6.80936 3.01511e-05 10
-9.45139 -3.14406 -2.66894 0.000179386 4
-10.991 -3.65623 -2.67419 7.49335e-05 4
-13.0554 -4.34296 -2.67444 7.63472e-05 4
-16.0566 -5.34133 -2.68014 4.02003e-05 4
-20.2981 -6.75229 -2.62658 0.000198444 4
-30.2123 -10.0503 -2.78564 6.90382e-05 10
-33.499 -11.1436 1.8502 0.000125204 10
-33.2293 -11.0539 6.80713 3.01504e-05 10
-9.4365 -3.17573 -2.66785 8.57944e-05 4
-10.9789 -3.69481 -2.67437 0.000174042 4
-13.061 -4.3955 -2.67871 8.72557e-05 4
-16.0439 -5.39937 -2.68114 5.76219e-05 4
-20.3608 -6.85217 -2.63777 0.000212938 4
-30.1184 -10.136 -2.78023 6.87109e-05 10
-33.6125 -11.3118 1.85863 0.000123811 10
-33.1913 -11.1701 6.80729 3.01496e-05 10
-9.43291 -3.21123 -2.66999 0.000171591 4
-10.9586 -3.73062 -2.67258 8.70224e-05 4
-13.0425 -4.44004 -2.67809 7.08967e-05 4
-16.0308 -5.45734 -2.68213 3.2832e-05 4
-20.4248 -6.95318 -2.64919 0.000195324 4
-30.0678 -10.2359 -2.77884 6.83757e-05 10
-33.7205 -11.4794 1.86681 0.000122415 10
-33.1535 -11.2864 6.80758 3.01489e-05 10
-9.41405 -3.24152 -2.66783 0.000187193 4
-10.95 -3.77039 -2.67368 0.000171631 4
-13.0163 -4.48188 -2.6759 6.68079e-05 4
-16.0016 -5.5098 -2.68044 2.88125e-05 4
-20.4869 -7.05422 -2.66042 0.000192318 4
-29.9658 -10.3181 -2.77273 6.80326e-05 10
-33.8372 -11.6511 1.87551 0.000121017 10
-33.1144 -11.4022 6.80768 3.01482e-05 10
-9.39636 -3.27216 -2.66604 0.000233995 4
-13.0107 -4.53081 -2.67799 8.72612e-05 4
-15.9941 -5.56974 -2.68243 3.55141e-05 4
-20.5301 -7.14932 -2.66925 0.00019212 4
-29.8947 -10.4104 -2.76949 6.76816e-05 10
-33.9419 -11.8198 1.88359 0.000119618 10
-33.072 -11.5169 6.80718 3.01474e-05 10
-9.39196 -3.30743 -2.66805 0.000206699 4
-10.9216 -3.84609 -2.67322 0.000178889 4
-12.9818 -4.57161 -2.6753 3.68141e-05 4
-15.9782 -5.62682 -2.68304 4.89169e-05 4
-20.6147 -7.25957 -2.68353 0.000209674 4
-29.8191 -10.501 -2.76587 6.73227e-05 10
-34.053 -11.9919 1.89207 0.000118217 10
-33.0419 -11.6359 6.8093 3.01466e-05 10
-9.37731 -3.33911 -2.66719 0.000148202 4
-10.9165 -3.8872 -2.67529 0.000316688 4
-12.9815 -4.62251 -2.67855 0.000290429 4
-15.9453 -5.67786 -2.68082 3.48459e-05 4
-20.6666 -7.35904 -2.69361 0.000175349 4
-29.7795 -10.604 -2.76561 3.22853e-05 10
-34.1598 -12.1638 -1.90035 0.000116925 10
-34.1499 -12.1602 -0.632752 0.000117496 10
-34.164 -12.1653 0.633014 0.00011746 10
-34.1656 -12.1658 1.90067 0.000116815 10
-34.1744 -12.1689 4.45417 0.000113741 10
-34.1681 -12.1667 5.74456 0.000111348 10
-32.9846 -11.7453 6.80592 3.01458e-05 10
-9.37233 -3.37424 -2.6691 0.000117003 4
-10.8833 -3.91824 -2.67049 9.91178e-05 4
-12.9651 -4.66771 -2.67851 0.00029589 4
-15.9432 -5.73991 -2.68382 4.69093e-05 4
-20.7396 -7.4667 -2.70651 0.000173894 4
-29.7262 -10.7021 -2.76412 3.16748e-05 10
-34.2748 -12.3397 -1.90913 0.000115521 10
-34.2722 -12.3387 -0.635812 0.000116087 10
-34.2696 -12.3378 0.635764 0.000116051 10
-34.2594 -12.3341 1.90828 0.000115413 10
-34.2887 -12.3447 4.47466 0.000112371 10
-34.2761 -12.3401 5.76991 0.000110003 10
-32.9513 -11.8632 6.80753 3.0145e-05 10
-9.36459 -3.40843 -2.67027 0.000140406 4
-10.879 -3.95962 -2.6728 0.00032637 4
-12.9417 -4.7104 -2.67706 0.000227718 4
-15.905 -5.78895 -2.68078 3.75286e-05 4
-20.7863 -7.56559 -2.71603 0.000159357 4
-29.6491 -10.7914 -2.76044 3.10604e-05 10
-34.3845 -12.5149 -1.91766 0.000114118 10
-34.3922 -12.5177 -0.638845 0.000114677 10
-34.3881 -12.5162 0.638768 0.000114641 10
-34.3947 -12.5186 1.91823 0.00011401 10
-34.3769 -12.5122 4.49185 0.000111001 10
-34.4018 -12.5212 5.79839 0.000108659 10
-32.9025 -11.9755 6.80605 3.01441e-05 10
-9.34888 -3.43972 -2.6692 0.000159909 4
-10.8747 -4.0011 -2.67516 0.00013055 4
-12.9302 -4.7574 -2.6781 0.000252268 4
-15.8851 -5.84458 -2.68084 5.36139e-05 4
-20.8607 -7.67522 -2.72923 0.000187632 4
-29.5973 -10.8897 -2.75913 3.04422e-05 10
-34.4801 -12.6862 -1.92546 0.000112713 10
-34.5002 -12.6936 -0.64167 0.000113266 10
-34.5037 -12.6949 0.641735 0.000113231 10
-34.5037 -12.6949 1.92677 0.000112606 10
-34.5172 -12.6999 4.51595 0.00010963 10
-34.4989 -12.6931 5.82219 0.000107314 10
-32.8622 -12.0909 6.8064 3.01433e-05 10
-9.33557 -3.47187 -2.66884 0.00013651 4
-10.8541 -4.03659 -2.67354 0.0001233 4
-12.9042 -4.79904 -2.67617 0.000248183 4
-20.9113 -7.77683 -2.73939 0.000193434 4
-29.5515 -10.9901 -2.75843 2.98201e-05 10
-34.5914 -12.8644 -1.93417 0.000111309 10
-34.6062 -12.8699 -0.644475 0.000111856 10
-34.6044 -12.8693 0.644439 0.00011182 10
-34.6108 -12.8716 1.93525 0.000111203 10
-34.6187 -12.8746 4.53508 0.000108259 10
-34.6334 -12.8801 5.85245 0.000105969 10
-32.8405 -12.2133 6.81069 3.01424e-05 10
-9.32702 -3.50579 -2.66988 0.000366634 4
-10.8202 -4.06706 -2.66869 0.000128138 4
-12.8785 -4.84071 -2.67432 0.000136368 4
-20.978 -7.8851 -2.75172 0.000200216 4
-29.4955 -11.0866 -2.7568 2.91944e-05 10
-34.7321 -13.0549 -1.94457 0.000109905 10
-34.7245 -13.0521 -0.647521 0.000110445 10
-34.7191 -13.0501 0.64742 0.00011041 10
-34.716 -13.0489 1.94367 0.0001098 10
-34.7231 -13.0516 4.55469 0.000106889 10
-34.7467 -13.0604 5.87926 0.000104624 10
-32.7909 -12.3253 6.80929 3.01415e-05 10
-9.31274 -3.53758 -2.66931 0.000195021 4
-10.8166 -4.10883 -2.6713 0.000108799 4
-12.8654 -4.88709 -2.67512 0.000154099 4
-15.8264 -6.01188 -2.68141 3.08308e-05 4
-21.0475 -7.99518 -2.76448 0.00017612 4
-34.8418 -13.2351 -1.95328 0.000108501 10
-34.8359 -13.2329 -0.650457 0.000109036 10
-34.8482 -13.2376 0.650685 0.000109001 10
-34.856 -13.2406 1.95408 0.000108397 10
-34.8446 -13.2362 4.57666 0.000105519 10
-34.8497 -13.2381 5.90447 0.00010328 10
-32.7402 -12.4368 6.80773 3.01407e-05 10
-9.29562 -3.56825 -2.66796 0.000183323 4
-10.7983 -4.14508 -2.67035 0.000147486 4
-12.8562 -4.93505 -2.67679 0.000139102 4
-21.0461 -8.07885 -2.76799 4.02334e-05 1
-34.9456 -13.4144 -1.96172 0.000107098 10
-34.9544 -13.4177 -0.65354 0.000107626 10
-34.9737 -13.4252 0.6539 0.000107592 10
-34.9542 -13.4177 1.9622 0.000106995 10
-34.9789 -13.4271 4.60043 0.00010415 10
-34.968 -13.423 5.93242 0.000101936 10
-32.7092 -12.5559 6.81037 3.01398e-05 10
-9.27634 -3.59806 -2.66601 0.000323747 4
-10.7922 -4.18603 -2.67244 0.000200681 4
-12.8473 -4.98313 -2.67853 5.31874e-05 4
-15.7951 -6.12651 -2.68329 5.49628e-05 4
-21.0246 -8.15492 -2.76889 4.02351e-05 1
-32.644 -12.6618 6.80596 3.01388e-05 10
-9.2694 -3.63264 -2.66765 0.000210634 4
-10.7702 -4.22079 -2.67062 0.000338506 4
-12.823 -5.02527 -2.67711 6.27355e-05 4
-15.7672 -6.1791 -2.6822 3.01635e-05 4
-20.9955 -8.22803 -2.76881 4.02369e-05 1
-32.6049 -12.7777 6.80707 3.01379e-05 10
-9.26764 -3.66932 -2.67081 0.000280851 4
-10.7669 -4.26291 -2.67347 9.43001e-05 4
-12.8082 -5.07112 -2.6777 5.04625e-05 4
-15.7431 -6.23314 -2.68179 3.9549e-05 4
-20.9639 -8.30019 -2.76845 4.02388e-05 1
-32.5752 -12.8974 6.81022 3.0137e-05 10
-9.24074 -3.69603 -2.66676 8.58171e-05 4
-10.7352 -4.29376 -2.6693 3.86881e-05 4
-12.7895 -5.11542 -2.6775 4.22805e-05 4
-20.9417 -8.37609 -2.76937 4.02406e-05 1
-32.5315 -13.0117 6.81053 3.0136e-05 10
-9.22501 -3.72714 -2.66596 0.000159935 4
-10.7342 -4.33688 -2.6728 7.73778e-05 4
-12.7505 -5.15154 -2.67309 0.000118661 4
-32.477 -13.1216 6.80868 3.0135e-05 10
-9.21881 -3.76213 -2.66795 0.000187244 4
-10.7234 -4.37615 -2.67392 0.000142669 4
-12.7341 -5.1967 -2.67344 6.95621e-05 4
-15.6754 -6.39702 -2.68152 9.05028e-05 4
-32.4184 -13.2297 6.80603 3.01341e-05 10
-9.19985 -3.7919 -2.66627 0.00011703 4
-10.6908 -4.40642 -2.66959 5.07815e-05 4
-12.7207 -5.24309 -2.67445 7.9112e-05 4
-20.2455 -8.34461 -2.68871 5.13152e-05 4
-32.3725 -13.343 6.80612 3.01331e-05 10
-9.20738 -3.83266 -2.67232 0.000152142 4
-10.6791 -4.44527 -2.67053 0.00014993 4
-12.7005 -5.28669 -2.67406 4.91054e-05 4
-20.2356 -8.42327 -2.69128 5.21113e-05 4
-52.5494 -21.8742 -0.993548 3.1355e-05 10
-32.3373 -13.4607 6.80857 3.01321e-05 10
-9.18517 -3.86109 -2.66977 0.000113134 4
-10.6661 -4.48361 -2.67118 0.000164443 4
-12.6835 -5.33166 -2.67439 3.81942e-05 4
-20.1977 -8.49032 -2.69016 5.39656e-05 4
-29.0911 -12.2288 -2.76087 4.85382e-05 10
-52.7573 -22.1771 -0.998936 3.08049e-05 10
-32.2973 -13.5765 6.81007 3.0131e-05 10
-9.15679 -3.88683 -2.66544 7.41235e-05 4
-10.6641 -4.52662 -2.67461 0.0001451 4
-12.6769 -5.38102 -2.67694 0.000120042 4
-29.074 -12.3412 -2.76332 4.90592e-05 10
-32.2393 -13.6848 6.80787 3.013e-05 10
-9.15294 -3.92295 -2.66829 0.000214572 4
-10.6502 -4.56469 -2.67512 9.91543e-05 4
-12.6389 -5.41703 -2.67289 3.54681e-05 4
-15.5487 -6.66419 -2.67934 4.62654e-05 4
-20.1308 -8.62807 -2.68921 2.88375e-05 4
-29.0608 -12.4555 -2.76618 4.95743e-05 10
-32.1866 -13.7952 6.80688 3.01289e-05 10
-9.14379 -3.95687 -2.66964 4.29154e-05 4
-10.6331 -4.60133 -2.67483 0.000137852 4
-12.6309 -5.46586 -2.67521 7.91235e-05 4
-29.0371 -12.5655 -2.76808 5.00834e-05 10
-32.1438 -13.9099 6.80805 3.01278e-05 10
-9.11603 -3.9827 -2.66558 6.63251e-05 4
-10.6045 -4.63301 -2.67171 6.52999e-05 4
-12.6096 -5.50899 -2.67477 3.13775e-05 4
-15.5003 -6.77189 -2.67907 3.0846e-05 4
-29.0031 -12.6711 -2.76903 5.05865e-05 10
-32.1128 -14.0297 6.81181 3.01267e-05 10
-9.12012 -4.02245 -2.67086 0.000452581 4
-10.5806 -4.6666 -2.66976 0.000256369 4
-12.5871 -5.55159 -2.6741 9.54997e-05 4
-15.4836 -6.82907 -2.68029 6.03531e-05 4
-29.0078 -12.794 -2.77373 5.10835e-05 10
-32.0589 -14.1397 6.81081 3.01256e-05 10
-9.10939 -4.05576 -2.67185 0.000183377 4
-10.5691 -4.70567 -2.67099 0.000133025 4
-12.588 -5.60453 -2.67842 9.55026e-05 4
-15.4561 -6.88149 -2.67967 3.1519e-05 4
-28.9818 -12.9035 -2.77554 5.15742e-05 10
-32.0133 -14.2533 6.81166 3.01245e-05 10
-9.0721 -4.07716 -2.66507 8.58381e-05 4
-10.5588 -4.74531 -2.67255 7.98171e-05 4
-12.5555 -5.64268 -2.67569 5.73034e-05 4
-28.9832 -13.0256 -2.78001 8.24056e-05 10
-31.9537 -14.3606 6.8096 3.01234e-05 10
-9.08319 -4.12032 -2.67253 0.000159975 4
-10.5435 -4.78272 -2.67288 4.59565e-05 4
-12.5305 -5.68408 -2.67456 9.27798e-05 4
-15.426 -6.99754 -2.68286 6.43843e-05 4
-28.9863 -13.1488 -2.78469 8.25742e-05 10
-31.9099 -14.475 6.81098 3.01223e-05 10
-9.06703 -4.15121 -2.67203 0.000117057 4
-10.5296 -4.82083 -2.67362 0.000183831 4
-12.525 -5.7344 -2.67765 3.0018e-05 4
-15.4009 -7.05108 -2.68276 4.56075e-05 4
-31.8628 -14.5879 6.81177 3.01211e-05 10
-9.04549 -4.1796 -2.66996 8.19419e-05 4
-10.5108 -4.85669 -2.67314 0.000220119 4
-12.5059 -5.77854 -2.67786 0.000103702 4
-15.3545 -7.09476 -2.67897 4.22557e-05 4
-31.7993 -14.6933 6.80911 3.01199e-05 10
-9.01715 -4.20476 -2.66591 0.000241929 4
-10.4952 -4.894 -2.6735 6.0474e-05 4
-12.4624 -5.81132 -2.67288 4.63945e-05 4
-15.3463 -7.15611 -2.68189 7.84782e-05 4
-31.7473 -14.804 6.80901 3.01188e-05 10
-8.99958 -4.23488 -2.66507 8.975e-05 4
-10.4835 -4.93317 -2.67489 6.04756e-05 4
-12.4525 -5.85968 -2.67511 5.73127e-05 4
-31.6859 -14.9102 6.80695 3.01175e-05 10
-8.9922 -4.26981 -2.66729 0.000175602 4
-10.4602 -4.96687 -2.67335 0.000101602 4
-12.4257 -5.90014 -2.67376 0.000100983 4
-15.2972 -7.26365 -2.68211 4.36027e-05 4
-31.6566 -15.0317 6.81189 3.01163e-05 10
-8.98319 -4.30402 -2.66905 0.000238044 4
-10.4331 -4.99871 -2.67087 4.5964e-05 4
-12.4139 -5.94775 -2.67569 4.50345e-05 4
-15.2558 -7.30935 -2.6793 4.42754e-05 4
-31.6048 -15.1425 6.81208 3.01151e-05 10
-8.96114 -4.33198 -2.66698 0.000117074 4
-10.4181 -5.03629 -2.6715 0.000287888 4
-12.388 -5.98857 -2.67458 3.82124e-05 4
-15.227 -7.36102 -2.67874 4.22647e-05 4
-31.5334 -15.2438 6.80811 3.01139e-05 10
-8.9538 -4.36706 -2.66931 0.000218543 4
-10.3959 -5.07043 -2.67034 0.000116126 4
-12.3603 -6.02853 -2.67314 0.000124195 4
-15.2063 -7.4166 -2.67963 3.62285e-05 4
-31.4764 -15.3521 6.80733 3.01126e-05 10
-8.94796 -4.40294 -2.67214 0.000230256 4
-10.3767 -5.10599 -2.66998 4.83874e-05 4
-12.353 -6.07843 -2.67613 3.54854e-05 4
-15.1871 -7.47296 -2.68083 2.88499e-05 4
-48.9077 -24.0656 -0.951439 3.87752e-05 10
-48.9136 -24.0685 0.951554 3.87591e-05 10
-31.4468 -15.4737 6.81256 3.01113e-05 10
-8.92922 -4.4325 -2.67115 0.000179526 4
-10.3517 -5.13861 -2.66812 0.000150005 4
-12.326 -6.11868 -2.67489 0.000124203 4
-49.0885 -24.3678 -0.956607 3.79883e-05 10
-31.3934 -15.5838 6.81275 3.01101e-05 10
-8.90366 -4.45862 -2.66814 0.000249782 4
-10.336 -5.17587 -2.66872 0.000266146 4
-12.2939 -6.15634 -2.67258 0.000106464 4
-15.1361 -7.57958 -2.6811 2.95235e-05 4
-31.3389 -15.6934 6.81277 3.01088e-05 10
-8.89176 -4.49155 -2.66926 0.000148312 4
-10.3405 -5.22335 -2.67458 0.000123399 4
-12.2783 -6.20219 -2.67386 0.000107833 4
-15.102 -7.62858 -2.67977 4.16033e-05 4
-31.2619 -15.7915 6.80796 3.01075e-05 10
-8.8712 -4.5201 -2.6678 0.000241988 4
-10.3151 -5.25582 -2.67275 5.56521e-05 4
-12.2604 -6.24698 -2.67471 0.000111932 4
-15.0887 -7.6881 -2.68216 3.75789e-05 4
-33.3358 -16.9855 -1.96077 0.000125641 10
-33.3354 -16.9852 -0.65305 0.000103222 10
-33.3213 -16.9781 0.652774 0.000103202 10
-33.3159 -16.9753 1.9596 0.000102642 10
-33.3183 -16.9765 4.5914 9.99395e-05 10
-33.3384 -16.9867 5.92619 9.78289e-05 10
-31.2118 -15.9032 6.8091 3.01061e-05 10
-33.3323 -16.9836 10.0239 8.87816e-05 10
-8.85384 -4.55026 -2.66735 0.000187351 4
-10.2988 -5.29286 -2.67329 0.000195998 4
-12.2307 -6.28573 -2.673 0.000106476 4
-33.1548 -17.0392 -1.9536 6.77219e-05 10
-33.1456 -17.0345 -0.650493 6.80597e-05 10
-33.166 -17.045 0.650893 6.80422e-05 10
-33.153 -17.0383 1.9535 6.76696e-05 10
-33.1737 -17.049 4.57965 6.58814e-05 10
-33.1678 -17.0459 5.90641 6.44875e-05 10
-31.1634 -16.0158 6.8107 3.01048e-05 10
-33.1638 -17.0439 9.99105 5.85182e-05 10
-8.83403 -4.57913 -2.66618 4.68389e-05 4
-10.2644 -5.32055 -2.66916 0.000145188 4
-12.223 -6.33579 -2.67613 7.91771e-05 4
-15.0142 -7.78264 -2.67851 0.000128183 4
-31.0976 -16.1194 6.80857 3.01034e-05 10
-8.81968 -4.61082 -2.66668 0.000226394 4
-10.256 -5.36168 -2.67182 6.04971e-05 4
-12.2082 -6.3823 -2.67776 0.000132422 4
-15.0073 -7.84561 -2.68213 0.000122149 4
-31.0392 -16.2269 6.80816 3.01021e-05 10
-8.80237 -4.64096 -2.66633 0.000245917 4
-10.2392 -5.3985 -2.67234 0.000106478 4
-12.1788 -6.42116 -2.67621 9.14702e-05 4
-14.9784 -7.89724 -2.68189 0.000125511 4
-32.9794 -17.388 -1.95389 6.83175e-05 10
-33.0012 -17.3995 -0.651198 6.86578e-05 10
-32.9941 -17.3958 0.651059 6.86396e-05 10
-33.0076 -17.4029 1.95556 6.82631e-05 10
-32.9953 -17.3964 4.57992 6.64578e-05 10
-33.0057 -17.4019 5.90968 6.50509e-05 10
-30.9804 -16.3341 6.80773 3.01007e-05 10
-33.0105 -17.4045 9.99924 5.90267e-05 10
-8.79845 -4.67822 -2.67008 0.000160046 4
-10.2267 -5.43764 -2.67403 9.19613e-05 4
-12.1511 -6.46086 -2.67506 5.73418e-05 4
-14.9389 -7.94314 -2.67976 0.00012149 4
-33.0973 -17.5981 -1.96451 0.00012499 10
-33.1011 -17.6001 -0.654378 0.000125589 10
-33.1101 -17.605 0.654557 0.000125532 10
-33.0992 -17.5991 1.96462 0.000124819 10
-33.1202 -17.6103 4.60577 0.000121466 10
-33.1308 -17.616 5.94306 0.000118867 10
-30.9416 -16.4519 6.81177 3.00993e-05 10
-33.1342 -17.6178 10.0553 0.000107777 10
-8.76538 -4.69996 -2.665 0.000163954 4
-10.1844 -5.46082 -2.66793 9.19643e-05 4
-12.1341 -6.50625 -2.6763 8.87467e-05 4
-31.026 -16.636 6.84309 0.000130013 10
-8.76217 -4.73768 -2.66904 0.000156151 4
-10.1829 -5.50589 -2.67256 0.000118589 4
-14.8995 -8.05611 -2.68271 3.8263e-05 4
-31.1512 -16.8434 6.88363 0.000127809 10
-8.74419 -4.76749 -2.66861 0.00024204 4
-10.1602 -5.53951 -2.67165 4.11446e-05 4
-14.8476 -8.09516 -2.67844 3.08805e-05 4
-26.1937 -14.2812 -2.61013 4.17725e-05 4
-46.7544 -25.4913 -0.929518 2.87039e-05 10
-46.7656 -25.4974 0.92974 2.86914e-05 10
-31.3298 -17.0815 6.93623 0.000134924 10
-8.72281 -4.7954 -2.66718 0.000230335 4
-10.1337 -5.57107 -2.66979 0.000106495 4
-26.3151 -14.4668 -2.62724 4.24049e-05 4
-31.5512 -17.3454 6.99861 0.000131181 10
-8.72214 -4.83476 -2.67212 0.000273287 4
-10.1215 -5.61045 -2.67172 0.000145226 4
-12.0345 -6.67085 -2.67462 9.28576e-05 4
-14.7948 -8.2009 -2.67919 2.88695e-05 4
-26.4143 -14.6417 -2.64224 4.83982e-05 4
-31.7674 -17.609 7.06017 0.000127487 10
-8.69165 -4.8576 -2.66796 0.000257678 4
-10.106 -5.64804 -2.6728 0.00014039 4
-12.0001 -6.70661 -2.67215 9.83238e-05 4
-26.5112 -14.8166 -2.65709 5.4838e-05 4
-46.0736 -25.7497 2.76613 3.50606e-05 10
-46.0664 -25.7456 6.47967 3.40092e-05 10
-46.072 -25.7488 8.35938 3.31948e-05 10
-32.3394 -18.0739 7.20127 0.000126468 10
-46.0952 -25.7618 14.1492 2.97377e-05 10
-8.68208 -4.8921 -2.67025 0.000355293 4
-10.0805 -5.68008 -2.6713 0.000130712 4
-11.9828 -6.75198 -2.67354 6.14549e-05 4
-14.7353 -8.3029 -2.67883 3.82728e-05 4
-26.6079 -14.9928 -2.672 6.02007e-05 4
-46.1051 -25.9789 -0.923732 2.96239e-05 10
-46.103 -25.9777 0.923689 2.96108e-05 10
-8.65708 -4.91791 -2.66782 0.00030845 4
-10.0547 -5.71186 -2.66972 0.000137979 4
-11.9623 -6.79554 -2.67424 9.69663e-05 4
-14.7037 -8.35286 -2.67838 3.08885e-05 4
-26.723 -15.1808 -2.68887 5.30072e-05 4
-8.64951 -4.95362 -2.6708 0.000304555 4
-10.0386 -5.74916 -2.67076 3.14699e-05 4
-11.9351 -6.83529 -2.67347 8.0581e-05 4
-14.6887 -8.41231 -2.68099 4.70067e-05 4
-8.62015 -4.97684 -2.66708 0.000261613 4
-10.0301 -5.79088 -2.67386 0.00017188 4
-14.6537 -8.46034 -2.67997 3.69358e-05 4
-45.3599 -26.1885 2.74497 3.63858e-05 10
-45.346 -26.1805 6.42913 3.5297e-05 10
-45.3557 -26.1861 10.1801 3.34262e-05 10
-45.3851 -26.2031 14.0422 3.08748e-05 10
-8.6092 -5.01067 -2.66909 0.000253811 4
-10.0104 -5.8262 -2.67402 3.87349e-05 4
-11.8824 -6.91573 -2.67242 4.09769e-05 4
-9.9783 -5.85423 -2.67088 4.59994e-05 4
-11.8567 -6.9563 -2.67209 8.19574e-05 4
-14.607 -8.5699 -2.68231 5.57456e-05 4
-25.6427 -15.0445 -2.60105 6.33584e-05 4
-45.306 -26.5809 -0.916877 4.65091e-05 10
-45.3309 -26.5954 0.91738 4.64879e-05 10
-8.56321 -5.06427 -2.66573 0.000370977 4
-9.96526 -5.89343 -2.67288 0.000138003 4
-11.8484 -7.0071 -2.6757 6.01047e-05 4
-14.5648 -8.61358 -2.68005 3.08969e-05 4
-25.7424 -15.224 -2.61654 5.72243e-05 4
-8.56151 -5.10368 -2.67073 0.000285075 4
-9.93972 -5.92526 -2.67156 6.53723e-05 4
-11.8198 -7.04602 -2.67479 0.000154367 4
-14.5291 -8.66106 -2.67903 3.6944e-05 4
-25.8507 -15.4101 -2.633 5.49341e-05 4
-8.53458 -5.12809 -2.6679 0.000246031 4
-9.92457 -5.96328 -2.67307 5.56895e-05 4
-11.7924 -7.08557 -2.67416 0.000128417 4
-25.9637 -15.6006 -2.65004 3.29441e-05 4
-8.51238 -5.15528 -2.66657 0.000191364 4
-9.9032 -5.99759 -2.67294 7.26412e-05 4
-26.0977 -15.8053 -2.66934 5.50794e-05 4
-8.48818 -5.18121 -2.66464 0.000226519 4
-9.86793 -6.02341 -2.66908 9.20156e-05 4
-11.7534 -7.1743 -2.67662 6.01154e-05 4
-14.435 -8.81115 -2.67855 7.86033e-05 4
-26.2032 -15.9945 -2.68582 4.99267e-05 4
-8.49307 -5.22497 -2.67188 0.00080456 4
-9.84532 -6.05688 -2.66866 0.00014045 4
-11.7244 -7.2129 -2.67573 4.91876e-05 4
-14.411 -8.86573 -2.67983 4.03117e-05 4
-26.3349 -16.2013 -2.7051 4.57132e-05 4
-8.47049 -5.25192 -2.67053 0.000691319 4
-9.83755 -6.09954 -2.67231 0.000104131 4
-11.7051 -7.25745 -2.67708 6.28537e-05 4
-14.3784 -8.91497 -2.67953 6.45025e-05 4
-26.4617 -16.407 -2.72399 3.57752e-05 4
-8.4385 -5.27296 -2.66623 0.000882729 4
-9.80821 -6.12885 -2.67014 0.000130774 4
-11.672 -7.29349 -2.67534 6.83223e-05 4
-26.5953 -16.6186 -2.7437 3.88357e-05 4
-8.43746 -5.31335 -2.67174 0.000824167 4
-9.79549 -6.16855 -2.67252 0.000147732 4
-11.6481 -7.33521 -2.67571 3.00632e-05 4
-14.3251 -9.02096 -2.68126 6.31662e-05 4
-26.7235 -16.8287 -2.76297 4.39844e-05 4
-43.4914 -27.388 2.69358 3.98439e-05 10
-43.4929 -27.3889 6.31092 3.86576e-05 10
-43.5016 -27.3944 9.99283 3.66205e-05 10
-43.5121 -27.401 13.7782 3.38423e-05 10
-8.40934 -5.33673 -2.66872 0.000613263 4
-9.77841 -6.20557 -2.67375 2.90631e-05 4
-11.6275 -7.37904 -2.67687 0.000128458 4
-14.2784 -9.06136 -2.67844 3.96492e-05 4
-26.8357 -17.0305 -2.7807 4.11447e-05 4
-8.39398 -5.36817 -2.66978 0.00083594 4
-9.75331 -6.2375 -2.67283 8.47706e-05 4
-11.5923 -7.4136 -2.67472 7.78985e-05 4
-47.9177 -30.6447 -0.992825 3.47785e-05 10
-8.36359 -5.38997 -2.66608 0.000890658 4
-9.72152 -6.26509 -2.67009 6.78191e-05 4
-11.5726 -7.45803 -2.67615 8.20023e-05 4
-14.2313 -9.17143 -2.68154 4.6375e-05 4
-8.35873 -5.42822 -2.67055 0.000195326 4
-9.71067 -6.30618 -2.67314 0.00014291 4
-11.5371 -7.49226 -2.67397 4.10031e-05 4
-14.1862 -9.21261 -2.67909 3.49514e-05 4
-8.33569 -5.45473 -2.66926 0.000483722 4
-9.67436 -6.33072 -2.66921 0.000186518 4
-11.5151 -7.53527 -2.67496 7.10755e-05 4
-8.32811 -5.49138 -2.67295 0.000637942 4
-9.65155 -6.36402 -2.66903 4.84481e-05 4
-11.4965 -7.58055 -2.67677 0.000107985 4
-14.1326 -9.31875 -2.68119 3.22668e-05 4
-42.4357 -27.9812 2.66391 4.18782e-05 10
-42.4606 -27.9976 6.24486 4.06345e-05 10
-42.462 -27.9985 9.88655 3.85e-05 10
-42.4836 -28.0128 13.6354 3.55889e-05 10
-8.33344 -5.53672 -2.68085 0.000639099 4
-9.63616 -6.40224 -2.67094 0.000140505 4
-11.4673 -7.61885 -2.67614 9.97889e-05 4
-14.0973 -9.36622 -2.68068 5.37814e-05 4
-42.5387 -28.2626 -0.891459 3.51079e-05 10
-42.5472 -28.2683 0.891637 3.50903e-05 10
-8.32075 -5.57026 -2.68301 0.000625657 4
-9.60396 -6.42929 -2.66822 0.000201076 4
-11.4211 -7.64574 -2.67157 3.00749e-05 4
-14.0502 -9.40582 -2.67796 3.83216e-05 4
-8.31552 -5.60889 -2.68762 0.00070877 4
-9.57981 -6.46167 -2.66776 0.000104176 4
-11.3937 -7.68517 -2.67143 7.79251e-05 4
-14.0133 -9.4521 -2.67719 3.56347e-05 4
-8.31705 -5.65226 -2.69447 0.000608729 4
-9.56171 -6.49813 -2.66902 0.000203515 4
-11.377 -7.73182 -2.67383 6.01558e-05 4
-8.30023 -5.68329 -2.69544 0.000671836 4
-11.3602 -7.77848 -2.67623 6.6995e-05 4
-13.9597 -9.55842 -2.67963 3.36219e-05 4
-41.8194 -28.6343 -0.884678 3.63754e-05 10
-41.8198 -28.6346 0.884686 3.63568e-05 10
-8.29699 -5.72371 -2.70085 0.000568382 4
-9.52271 -6.56928 -2.67087 9.20741e-05 4
-11.3281 -7.8147 -2.67508 8.47735e-05 4
-13.9139 -9.59853 -2.67725 6.45583e-05 4
-8.2913 -5.7626 -2.70553 0.000602665 4
-9.5093 -6.60913 -2.67356 0.000135694 4
-11.2987 -7.85281 -2.6746 3.5552e-05 4
-13.8815 -9.64789 -2.67748 6.59075e-05 4
-8.28256 -5.79951 -2.70927 0.000566302 4
-9.46707 -6.62892 -2.66818 0.000106621 4
-11.2673 -7.88944 -2.67367 2.87166e-05 4
-8.29035 -5.8482 -2.71848 0.000595473 4
-9.44073 -6.6597 -2.66729 9.93558e-05 4
-11.2495 -7.93566 -2.67601 3.69232e-05 4
-41.0892 -28.9853 2.63527 4.42375e-05 10
-41.0898 -28.9857 4.39933 4.37047e-05 10
-41.1054 -28.9966 6.17651 4.29262e-05 10
-41.0934 -28.9882 7.965 4.19126e-05 10
-41.099 -28.9922 9.77653 4.06774e-05 10
-41.1064 -28.9973 11.6138 3.92373e-05 10
-41.1249 -29.0104 13.4852 3.76112e-05 10
-8.2916 -5.89253 -2.72562 0.000596515 4
-9.43391 -6.70433 -2.67196 0.0004968 4
-11.201 -7.96017 -2.67107 0.000166847 4
-13.789 -9.79931 -2.67928 4.43955e-05 4
-41.3336 -29.3742 -2.6575 5.50935e-05 10
-41.3207 -29.3651 -0.884839 5.53844e-05 10
-41.3398 -29.3786 0.885245 5.53549e-05 10
-41.34 -29.3788 2.65791 4.28884e-05 10
-41.3327 -29.3736 4.43629 4.237e-05 10
-41.3433 -29.3811 6.22763 4.16127e-05 10
-41.3644 -29.3961 8.03736 4.06268e-05 10
-41.3725 -29.4019 9.86593 3.94256e-05 10
-41.3645 -29.3962 11.7157 3.80251e-05 10
-41.3746 -29.4034 13.6007 3.64441e-05 10
-8.28255 -5.92972 -2.72943 0.000666454 4
-9.40134 -6.73069 -2.66937 0.000455622 4
-11.1842 -8.00711 -2.6737 0.000172327 4
-13.7581 -9.84985 -2.67995 4.91074e-05 4
-41.5927 -29.7774 -2.68082 5.33889e-05 10
-41.606 -29.787 2.68168 4.15606e-05 10
-41.6126 -29.7917 4.47747 4.10565e-05 10
-41.6153 -29.7936 6.28423 4.03201e-05 10
-41.6026 -29.7845 8.1038 3.93616e-05 10
-41.6313 -29.8051 9.9524 3.81939e-05 10
-41.6281 -29.8028 11.8197 3.68326e-05 10
-41.6332 -29.8064 13.7198 3.5296e-05 10
-8.27728 -5.96976 -2.73454 0.000575619 4
-9.37359 -6.76045 -2.66818 0.000523504 4
-11.1534 -8.04409 -2.67304 8.34324e-05 4
-41.8402 -30.1761 -2.70355 5.17119e-05 10
-41.8467 -30.1808 -0.900592 3.43383e-05 10
-41.8713 -30.1986 4.51662 3.97643e-05 10
-41.8861 -30.2092 8.17951 3.81171e-05 10
-8.26576 -6.00542 -2.73765 0.000617528 4
-9.359 -6.79971 -2.67077 0.000494442 4
-11.134 -8.08932 -2.67514 5.06093e-05 4
-13.6845 -9.94236 -2.67907 5.2478e-05 4
-42.1093 -30.5942 -2.72782 5.00627e-05 10
-42.1087 -30.5938 -0.908523 3.32436e-05 10
-42.1265 -30.6067 0.908906 3.32252e-05 10
-42.1453 -30.6203 4.55767 3.84936e-05 10
-8.26562 -6.04952 -2.74458 0.000618276 4
-9.32565 -6.82534 -2.66803 0.000450835 4
-13.659 -9.99685 -2.68088 5.24816e-05 4
-42.3756 -31.0142 -2.75207 4.84414e-05 10
-42.3901 -31.0249 -0.916925 3.21674e-05 10
-42.4064 -31.0368 0.917277 3.21495e-05 10
-41.5881 -30.4379 2.70092 4.05652e-05 10
-42.3952 -31.0286 4.59638 3.72445e-05 10
-41.6044 -30.4498 6.3304 3.935e-05 10
-41.6181 -30.4598 11.9068 3.59357e-05 10
-8.23452 -6.07101 -2.74127 0.000601841 1
-9.31709 -6.86915 -2.67243 0.000460551 4
-11.0613 -8.15507 -2.67128 8.61818e-05 4
-13.6093 -10.0337 -2.678 3.76817e-05 4
-42.6642 -31.4547 -2.77792 4.68481e-05 10
-41.8872 -30.8819 8.24244 3.71516e-05 10
-8.23021 -6.11229 -2.74692 0.000601864 1
-9.27919 -6.89133 -2.66844 0.000254526 4
-11.0423 -8.20075 -2.6736 7.79783e-05 4
-42.9408 -31.8906 -2.80317 4.52833e-05 10
-42.1666 -31.3156 8.31886 3.5914e-05 10
-8.20548 -6.13848 -2.7458 0.000601887 1
-9.27294 -6.93705 -2.67359 0.000427602 4
-11.02 -8.24404 -2.67515 9.16637e-05 4
-42.4426 -31.7512 4.63732 3.62152e-05 10
-8.17211 -6.15812 -2.74181 0.000601911 1
-9.27865 -6.99196 -2.68226 0.000188033 4
-10.9904 -8.28186 -2.67496 9.44052e-05 4
-13.4962 -10.1701 -2.67654 4.57659e-05 4
-43.546 -32.8142 4.77036 3.24662e-05 10
-43.56 -32.8248 8.63877 3.10916e-05 10
-43.5635 -32.8275 12.5933 2.90441e-05 10
-8.16597 -6.19831 -2.747 0.000601934 1
-9.25918 -7.0281 -2.6837 8.43183e-05 4
-10.9616 -8.32033 -2.67501 8.34643e-05 4
-43.8157 -33.2579 -0.960173 4.09791e-05 10
-43.8348 -33.2724 0.960589 4.09547e-05 10
-43.8478 -33.2822 2.88497 3.17235e-05 10
-43.8484 -33.2827 4.81619 3.13266e-05 10
-43.8514 -33.285 6.75967 3.07477e-05 10
-43.8666 -33.2965 8.72256 2.99951e-05 10
-43.8549 -33.2877 10.7021 2.9079e-05 10
-43.0333 -32.6641 14.4762 2.89259e-05 10
-7.56849 -5.78655 -2.55279 0.000259737 4
-9.25329 -7.07467 -2.68914 0.000230231 4
-10.9217 -8.35026 -2.67236 7.79956e-05 4
-13.4453 -10.2797 -2.68062 3.8368e-05 4
-44.1296 -33.7396 0.969625 3.07964e-05 10
-44.1559 -33.7597 4.86287 3.02091e-05 10
-44.1611 -33.7637 8.8045 2.892e-05 10
-7.54564 -5.81093 -2.55191 0.000376633 4
-9.24885 -7.12257 -2.69506 0.000311717 4
-10.907 -8.39953 -2.67593 0.000150526 4
-13.3895 -10.3113 -2.67666 4.24098e-05 4
-44.4513 -34.2321 0.979314 2.96823e-05 10
-44.4554 -34.2353 4.90899 2.91138e-05 10
-7.52792 -5.83925 -2.55279 0.000355002 4
-9.24248 -7.1692 -2.70048 0.000285911 4
-10.8781 -8.43793 -2.67605 0.000106743 4
-7.50572 -5.86411 -2.55219 0.000108237 4
-9.23289 -7.21352 -2.70501 0.000526753 4
-10.8302 -8.46151 -2.67152 0.000135489 4
-13.3175 -10.4048 -2.67672 4.10694e-05 4
-7.48602 -5.89092 -2.55247 0.00012123 4
-9.22783 -7.26159 -2.71094 0.000345737 4
-10.7975 -8.49676 -2.67073 7.93821e-05 4
-13.2874 -10.4561 -2.67798 4.91522e-05 4
-7.50024 -5.94462 -2.56437 0.000383675 4
-9.23761 -7.32163 -2.72131 0.00037497 4
-10.7701 -8.53629 -2.67132 3.55871e-05 4
-13.2432 -10.4964 -2.67646 3.23216e-05 4
-7.52119 -6.00409 -2.57869 0.00087571 4
-9.21999 -7.36022 -2.72367 0.000395162 4
-10.7403 -8.57384 -2.67133 6.43343e-05 4
-13.2109 -10.5461 -2.67735 3.09772e-05 4
-7.55198 -6.07194 -2.59649 0.000843568 4
-9.21685 -7.41053 -2.73036 0.000420716 4
-10.7267 -8.62451 -2.67543 7.66581e-05 4
-46.4433 -37.3414 -1.0402 3.01252e-05 10
-7.59605 -6.15116 -2.61901 0.000799666 4
-9.22012 -7.46631 -2.73904 0.000330166 4
-10.6881 -8.65507 -2.67332 0.000265581 4
-46.7937 -37.8927 -1.05101 2.88993e-05 10
-7.62604 -6.21964 -2.63682 0.000775617 4
-9.20167 -7.5047 -2.74132 0.000411787 4
-10.6632 -8.69668 -2.67466 0.000303931 4
-16.9408 -13.8165 -2.68414 3.16777e-05 4
-7.63605 -6.27232 -2.64784 0.000842349 4
-9.19523 -7.55304 -2.74724 0.000372885 1
-10.6304 -8.7319 -2.67406 0.000272458 4
-13.0566 -10.7248 -2.67616 2.89656e-05 4
-7.67877 -6.35243 -2.67032 0.000438077 4
-9.16025 -7.57801 -2.74468 0.000372903 1
-10.5882 -8.75928 -2.67112 0.000293013 4
-13.0233 -10.7738 -2.67703 4.31149e-05 4
-7.64891 -6.37283 -2.66766 0.000332483 4
-9.13824 -7.6137 -2.74603 0.000372922 1
-10.5689 -8.80569 -2.674 0.000247844 4
-12.9921 -10.8246 -2.67836 7.68042e-05 4
-16.8044 -14.0009 -2.68563 3.67468e-05 4
-7.6187 -6.39285 -2.66489 0.000297292 4
-9.1192 -7.65192 -2.74832 0.000372941 1
-10.5362 -8.84094 -2.67352 7.8055e-05 4
-12.9564 -10.8717 -2.67881 2.9646e-05 4
-7.61217 -6.43278 -2.67045 0.000641551 4
-8.46077 -7.1499 -2.55739 0.000331178 4
-10.5184 -8.88873 -2.67685 0.000224024 4
-12.9092 -10.9091 -2.67692 3.36912e-05 4
-7.58718 -6.45719 -2.66957 0.000285581 4
-8.43839 -7.18163 -2.55818 0.00037697 4
-10.5184 -8.95184 -2.68478 0.000252819 4
-7.55611 -6.47637 -2.66658 0.000911551 4
-8.41384 -7.21153 -2.55836 0.000333905 4
-10.5245 -9.02058 -2.69436 0.000228592 4
-7.52529 -6.49565 -2.66368 0.000344292 4
-8.38411 -7.23696 -2.55698 0.00040663 4
-10.5174 -9.07835 -2.70064 0.000245046 4
-12.7949 -11.0442 -2.67704 4.92007e-05 4
-7.50568 -6.52459 -2.66479 0.000359957 4
-8.35182 -7.26012 -2.55485 0.000307008 4
-10.5059 -9.13261 -2.70585 0.000164695 4
-12.7535 -11.0864 -2.67647 4.17902e-05 4
-7.48671 -6.55412 -2.66616 0.000629952 4
-8.39022 -7.34508 -2.57442 0.000554352 4
-10.4968 -9.18923 -2.71176 0.000197862 4
-7.4686 -6.58446 -2.66788 0.000258253 4
-8.43405 -7.43561 -2.59582 0.000608318 4
-10.4857 -9.24437 -2.71721 0.000202639 4
-7.44702 -6.61177 -2.6684 0.000473484 4
-8.47082 -7.52075 -2.6152 0.000231402 4
-10.4848 -9.30885 -2.72539 0.000223505 4
-12.651 -11.2321 -2.6795 6.40488e-05 4
-7.40914 -6.62453 -2.66309 0.000876571 4
-8.51962 -7.61742 -2.63846 0.000477167 4
-10.4814 -9.37142 -2.73298 0.000184585 4
-7.39353 -6.65716 -2.66582 0.000195672 4
-8.55835 -7.70597 -2.65877 0.000456872 4
-10.4726 -9.42957 -2.73926 0.000216328 4
-12.5702 -11.3182 -2.67904 4.31556e-05 4
-7.37455 -6.68683 -2.66738 0.000504856 4
-8.57231 -7.77289 -2.67152 0.000339836 4
-10.4706 -9.49416 -2.74739 0.000225408 4
-7.35696 -6.71783 -2.66948 0.000277879 4
-8.53418 -7.79278 -2.6681 0.000233043 4
-10.4473 -9.53974 -2.75001 0.000210215 1
-12.4815 -11.3971 -2.67703 6.74417e-05 4
-7.31938 -6.73051 -2.66435 0.00073974 4
-8.50349 -7.81936 -2.66702 7.52574e-05 4
-10.4195 -9.58124 -2.75147 0.000210229 1
-12.434 -11.4337 -2.6754 0.00014029 4
-7.30077 -6.76058 -2.66615 0.000532324 4
-8.47801 -7.85072 -2.66761 0.000228212 4
-10.3885 -9.61984 -2.75213 0.000210242 1
-12.3948 -11.4777 -2.67558 0.00011467 4
-6.97036 -6.49997 -2.55376 0.000541762 4
-8.46056 -7.88959 -2.67076 0.000150531 4
-9.63581 -8.98553 -2.56102 9.00319e-05 4
-12.3546 -11.5209 -2.67556 0.000122774 4
-6.93919 -6.51633 -2.55066 0.000476772 4
-8.43559 -7.92155 -2.6716 0.000371492 4
-6.91467 -6.53888 -2.55002 0.000546146 4
-8.40855 -7.95157 -2.67181 0.000298666 4
-9.55534 -9.03604 -2.55634 7.78344e-05 4
-12.2828 -11.6152 -2.6775 9.79678e-05 4
-6.89888 -6.56971 -2.55264 0.000650204 4
-8.37369 -7.97416 -2.66956 8.98477e-05 4
-12.2994 -11.7126 -2.69001 0.000130565 4
-6.87847 -6.59622 -2.55359 0.000684914 4
-8.34084 -7.99858 -2.66797 0.000228274 4
-9.56905 -9.17638 -2.57708 0.000338332 4
-12.2911 -11.7868 -2.69719 6.08005e-05 4
-6.85386 -6.61869 -2.55302 0.000606914 4
-8.31032 -8.02518 -2.66715 0.000420145 4
-9.61787 -9.28786 -2.59894 0.000245608 4
-12.2778 -11.8565 -2.70333 9.79936e-05 4
-15.7301 -15.1904 -2.68499 3.20276e-05 4
-6.83849 -6.65014 -2.55592 0.000537577 4
-8.29102 -8.06266 -2.66997 0.000422597 4
-9.66979 -9.40346 -2.62183 0.000283846 4
-12.2773 -11.9391 -2.71238 8.6298e-05 4
-6.80216 -6.66117 -2.55102 0.000533267 4
-8.26203 -8.09078 -2.66972 0.000400761 4
-9.74436 -9.54238 -2.65106 0.000297939 4
-12.2852 -12.0305 -2.72338 0.000108655 4
-6.78309 -6.68904 -2.55261 0.000537628 4
-8.23361 -8.11944 -2.66968 0.000245328 4
-9.78305 -9.64739 -2.67073 0.000255085 4
-12.2848 -12.1144 -2.73264 0.000119346 4
-6.7563 -6.7093 -2.55132 0.000507302 4
-8.20062 -8.14357 -2.66818 0.00027935 4
-9.76212 -9.6942 -2.67424 0.000111093 4
-12.2638 -12.1784 -2.73741 8.80868e-05 4
-6.73481 -6.73481 -2.55207 0.000620066 4
-8.17198 -8.17198 -2.66813 0.000250215 4
-9.72038 -9.72038 -2.67209 0.000257863 4
-12.2796 -12.2796 -2.7505 0.000114278 4
-6.70919 -6.75619 -2.55128 0.000529033 4
-7.7978 -7.85242 -2.55489 0.000285788 4
-9.68772 -9.75559 -2.67245 0.000145401 4
-12.2556 -12.3415 -2.75476 0.000103252 1
-6.69033 -6.7844 -2.5531 0.000611453 4
-7.77842 -7.88779 -2.55755 0.000299285 4
-9.64146 -9.77703 -2.66909 7.40774e-05 4
-12.2061 -12.3777 -2.75333 0.000103262 1
-6.6726 -6.81383 -2.5554 0.000529084 4
-7.75223 -7.91632 -2.55801 0.000393677 4
-9.6238 -9.8275 -2.67368 0.000171487 4
-12.1569 -12.4142 -2.75199 0.000103271 1
-6.63357 -6.82145 -2.54955 0.000524773 4
-7.71481 -7.93331 -2.55478 0.000364038 4
-9.57574 -9.84695 -2.66986 0.000153664 4
-11.2744 -11.5937 -2.56135 0.000102728 4
-6.61235 -6.84729 -2.55057 0.000637565 4
-7.68567 -7.95874 -2.55432 0.000177984 4
-9.54027 -9.87923 -2.66957 0.000153674 4
-11.2397 -11.639 -2.56268 0.00010878 4
-15.1854 -15.7249 -2.68409 4.46246e-05 4
-6.58832 -6.87024 -2.55053 0.000676633 4
-7.66543 -7.99343 -2.55685 0.000404533 4
-9.51454 -9.92167 -2.67205 0.000150941 4
-11.1919 -11.6708 -2.56105 0.000110301 4
-15.1314 -15.7788 -2.68427 5.61216e-05 4
-6.57587 -6.90534 -2.55503 0.00049015 4
-7.62562 -8.00769 -2.55288 0.000391072 4
-9.47835 -9.95325 -2.67163 8.50818e-05 4
-11.2661 -11.8306 -2.58747 0.000139345 4
-15.0637 -15.8185 -2.68205 5.34557e-05 4
-6.54666 -6.9229 -2.55305 0.00057693 4
-7.60619 -8.04332 -2.55576 0.000323664 4
-9.44251 -9.98518 -2.67133 0.000188017 4
-11.3541 -12.0067 -2.61731 0.000133632 4
-15.0349 -15.899 -2.68678 4.31881e-05 4
-6.52372 -6.94706 -2.55355 0.000494536 4
-7.58087 -8.07281 -2.5567 0.000205 4
-9.40499 -10.0153 -2.67059 0.000157836 4
-11.4513 -12.1944 -2.6495 0.000116433 4
-15.0334 -16.0089 -2.69648 4.65135e-05 4
-6.49516 -6.9652 -2.55187 0.00054662 4
-7.55201 -8.09854 -2.55648 0.000223894 4
-8.97586 -9.62543 -2.55826 0.000207816 4
-11.517 -12.3505 -2.67467 6.89283e-05 4
-15.0373 -16.1256 -2.70727 4.21987e-05 4
-6.46883 -6.9857 -2.55109 0.00051194 4
-7.52704 -8.12846 -2.55762 0.000132186 4
-8.94001 -9.65433 -2.55763 0.000232282 4
-15.0432 -16.2452 -2.71852 4.44437e-05 4
-6.44501 -7.00889 -2.55133 0.00062911 4
-7.49247 -8.14799 -2.55552 0.000172662 4
-8.9082 -9.68759 -2.55819 0.000192564 4
-11.429 -12.429 -2.67432 8.38106e-05 4
-15.0508 -16.3677 -2.73021 4.40686e-05 4
-6.41794 -7.02854 -2.55031 0.000529347 4
-7.47062 -8.18137 -2.55779 0.000223934 4
-8.88116 -9.72611 -2.56016 0.000189521 4
-11.3951 -12.4792 -2.67655 9.53096e-05 4
-15.0582 -16.4908 -2.74197 4.46267e-05 4
-6.39518 -7.0529 -2.55103 0.000594462 4
-7.43116 -8.19543 -2.55407 0.000180777 4
-8.83834 -9.74733 -2.55761 0.000206348 4
-11.3364 -12.5023 -2.67301 5.81375e-05 4
-6.36485 -7.06888 -2.54876 0.000698636 4
-7.41208 -8.23195 -2.55737 5.93632e-05 4
-8.80223 -9.77586 -2.55702 0.00015439 4
-11.2918 -12.5408 -2.67278 0.00010006 4
-15.0372 -16.7005 -2.75931 4.07107e-05 1
-6.35788 -7.1109 -2.5559 0.000659616 4
-7.36573 -8.23812 -2.55128 7.55578e-05 4
-8.77368 -9.81283 -2.55866 0.000148287 4
-11.2535 -12.5863 -2.6741 0.000106831 4
-14.9843 -16.759 -2.76032 4.07159e-05 1
-6.31558 -7.11341 -2.54886 0.000564174 4
-7.34959 -8.27804 -2.55569 0.000105248 4
-8.73475 -9.83818 -2.55731 0.000217096 4
-11.2204 -12.6378 -2.6767 6.28873e-05 4
-13.8948 -15.6501 -2.56967 3.37632e-05 4
-6.30736 -7.15429 -2.5556 0.000533824 4
-7.31235 -8.29424 -2.55279 0.00013764 4
-8.69384 -9.86123 -2.55539 0.000207938 4
-11.1633 -12.6623 -2.67362 8.4534e-05 4
-13.8327 -15.6901 -2.56829 3.4672e-05 4
-6.26964 -7.16175 -2.55044 0.00068142 4
-7.28259 -8.31883 -2.55252 0.000164638 4
-8.66795 -9.90132 -2.55793 0.00021407 4
-13.798 -15.7614 -2.57206 6.08232e-05 4
-6.25762 -7.19857 -2.55575 0.000707498 4
-7.26521 -8.35767 -2.55664 0.000251021 4
-8.62614 -9.92324 -2.55579 0.000186561 4
-10.6045 -12.199 -2.56011 0.000105904 4
-13.9541 -16.0524 -2.61158 6.41563e-05 4
-6.22959 -7.21705 -2.55458 0.000334235 4
-7.22518 -8.37044 -2.55282 0.000205148 4
-8.59411 -9.95637 -2.55659 0.000217161 4
-10.5568 -12.2301 -2.55889 7.03575e-05 4
-14.1102 -16.3468 -2.65146 5.21469e-05 4
-6.19523 -7.2281 -2.55082 0.000525253 4
-7.20813 -8.40986 -2.55715 0.000164669 4
-8.56811 -9.99658 -2.55922 0.000198824 4
-10.5252 -12.28 -2.56161 9.68454e-05 4
-6.16549 -7.24442 -2.54897 0.000638152 4
-7.17011 -8.42485 -2.55408 0.000210573 4
-8.53024 -10.023 -2.55834 0.000171308 4
-10.4883 -12.3237 -2.56309 0.000102151 4
-14.1545 -16.6315 -2.68154 3.4549e-05 4
-6.14264 -7.26883 -2.55 0.000538333 4
-7.1405 -8.44964 -2.55402 0.000226785 4
-8.49414 -10.0515 -2.55802 0.000175909 4
-10.4351 -12.3482 -2.56059 9.76208e-05 4
-6.12026 -7.29384 -2.55126 0.00039943 4
-7.11585 -8.48034 -2.55578 0.0002943 4
-8.46067 -10.083 -2.55853 0.000189691 4
-10.3974 -12.3911 -2.56194 0.000102928 4
-6.09296 -7.31299 -2.55051 0.000551416 4
-7.08322 -8.50155 -2.5547 0.000226814 4
-8.4231 -10.1097 -2.55782 0.000185116 4
-10.3406 -12.4111 -2.5586 8.47724e-05 4
-13.9808 -16.7803 -2.68177 5.92119e-05 4
-6.07079 -7.33832 -2.55193 0.000625262 4
-7.0585 -8.53226 -2.55651 0.000172822 4
-8.37689 -10.1259 -2.5545 0.00013005 4
-10.313 -12.4663 -2.56253 0.000114303 4
-13.925 -16.8324 -2.68231 3.40313e-05 4
-6.04212 -7.35579 -2.55066 0.000651349 4
-7.02183 -8.54852 -2.55402 0.000145828 4
-8.34764 -10.1626 -2.55639 0.000203506 4
-10.2609 -12.4918 -2.56041 8.63031e-05 4
-13.8665 -16.8813 -2.68238 4.07358e-05 4
-6.02194 -7.38363 -2.55301 0.000581904 4
-6.98837 -8.56858 -2.55272 0.000261966 4
-8.30886 -10.1877 -2.55539 0.000203521 4
-10.2212 -12.5325 -2.56141 0.000101454 4
-13.791 -16.9094 -2.67918 3.136e-05 4
-6.00148 -7.41121 -2.55528 0.000577592 4
-6.96573 -8.60196 -2.5554 0.000324102 4
-8.27137 -10.2143 -2.5548 0.000192825 4
-10.1819 -12.5736 -2.56254 8.78344e-05 4
-13.1591 -16.2501 -2.56743 4.13696e-05 4
-5.97421 -7.43042 -2.5547 0.00052985 4
-6.93107 -8.62051 -2.55371 0.000370041 4
-8.24786 -10.2583 -2.55859 0.000191309 4
-10.1219 -12.589 -2.55846 9.16295e-05 4
-13.106 -16.3005 -2.56815 3.6845e-05 4
-5.94293 -7.44458 -2.55242 0.000629775 4
-6.89365 -8.63552 -2.55101 0.000191785 4
-8.20165 -10.274 -2.55536 0.000208161 4
-10.0827 -12.6304 -2.55971 0.000102241 4
-13.0409 -16.336 -2.56655 3.7454e-05 4
-5.9106 -7.45732 -2.5497 0.000447382 4
-6.86761 -8.66477 -2.55255 0.000267436 4
-8.17781 -10.3178 -2.55914 0.000203585 4
-10.0435 -12.6717 -2.56095 0.000100737 4
-12.977 -16.3729 -2.56521 3.89695e-05 4
-5.88878 -7.4833 -2.55154 0.000542969 4
-6.84441 -8.69769 -2.5552 0.000443055 4
-8.14035 -10.3445 -2.5587 0.000169923 4
-9.9937 -12.6997 -2.55955 9.99893e-05 4
-12.9303 -16.4314 -2.56729 4.26003e-05 4
-5.85379 -7.49251 -2.5477 0.000482183 4
-6.80832 -8.71425 -2.55307 0.000289085 4
-8.09086 -10.3558 -2.55449 0.000215865 4
-9.94296 -12.7264 -2.55791 9.84842e-05 4
-12.8626 -16.4634 -2.56525 4.35126e-05 4
-5.89705 -7.60243 -2.57806 0.000129564 4
-6.78073 -8.74166 -2.55415 0.0004242 4
-8.06633 -10.3991 -2.5582 0.000202102 4
-9.90992 -12.7758 -2.56087 9.62212e-05 4
-12.8058 -16.5091 -2.5654 3.65677e-05 4
-6.12052 -7.94765 -2.68787 0.000192052 4
-6.74918 -8.76398 -2.55377 0.000275613 4
-8.01908 -10.413 -2.55472 0.000218962 4
-9.85402 -12.7957 -2.55795 9.39577e-05 4
-12.7567 -16.5649 -2.56713 3.56659e-05 4
-6.21038 -8.12284 -2.73976 0.000604167 1
-6.72311 -8.79346 -2.5555 0.000275631 4
-7.98761 -10.4474 -2.5563 0.000209792 4
-9.8255 -12.8512 -2.56218 0.000105334 4
-12.689 -16.5965 -2.56516 3.92983e-05 4
-6.18082 -8.14293 -2.73925 0.000604202 1
-6.69004 -8.8138 -2.55461 0.000443201 4
-7.94824 -10.4714 -2.55538 0.000205214 4
-9.76769 -12.8685 -2.5588 8.56402e-05 4
-12.6344 -16.6452 -2.56584 3.59781e-05 4
-6.16526 -8.18158 -2.74499 0.000604236 1
-6.86723 -9.11312 -2.63441 8.11775e-05 4
-7.91795 -10.5075 -2.55742 0.000215952 4
-9.71872 -12.8972 -2.55775 8.33751e-05 4
-12.58 -16.6942 -2.56661 4.29377e-05 4
-6.12216 -8.18366 -2.7385 0.00060427 1
-7.11568 -9.51172 -2.74243 0.000374398 1
-7.87861 -10.5316 -2.55657 0.000177677 4
-9.68196 -12.9421 -2.55995 6.67069e-05 4
-12.5189 -16.7344 -2.56606 3.17541e-05 4
-6.10537 -8.22089 -2.74381 0.000604305 1
-7.08046 -9.53384 -2.74167 0.000374423 1
-7.846 -10.5646 -2.55794 0.000238964 4
-9.62828 -12.9645 -2.55771 8.41503e-05 4
-12.4659 -16.7853 -2.56718 4.68817e-05 4
-6.06376 -8.22468 -2.738 0.00060434 1
-7.04654 -9.55769 -2.74144 0.000374448 1
-7.84912 -10.6463 -2.57106 6.87164e-05 4
-9.5853 -13.0012 -2.55833 9.629e-05 4
-12.4011 -16.8205 -2.56592 3.96281e-05 4
-6.04518 -8.25969 -2.74261 0.000604374 1
-7.02025 -9.59196 -2.74422 0.000374474 1
-8.25394 -11.2776 -2.71654 6.09784e-05 4
-9.53968 -13.0343 -2.55828 0.000105399 4
-12.3325 -16.8502 -2.56388 3.93311e-05 4
-6.015 -8.27893 -2.74201 0.000604409 1
-6.98034 -9.60761 -2.74171 0.000374499 1
-8.30107 -11.4254 -2.74516 0.000211124 1
-9.50042 -13.0762 -2.55998 0.000107685 4
-12.2886 -16.9138 -2.567 3.81263e-05 4
-5.97732 -8.28775 -2.73801 0.000604444 1
-6.95413 -9.64214 -2.74462 0.000374525 1
-8.26704 -11.4625 -2.74712 0.000211141 1
-9.44743 -13.0992 -2.55801 6.74999e-05 4
-12.2153 -16.9369 -2.56402 3.66185e-05 4
-5.95211 -8.31382 -2.73973 0.000604479 1
-6.91857 -9.66375 -2.74388 0.000374551 1
-8.21983 -11.4813 -2.74474 0.000211159 1
-12.1653 -16.9922 -2.56596 4.23745e-05 4
-5.93292 -8.34843 -2.7443 0.000604515 1
-6.8848 -9.68786 -2.74389 0.000374576 1
-8.18847 -11.5223 -2.74768 0.000211176 1
-10.0546 -14.1482 -2.74908 0.000103727 1
-12.0978 -17.0233 -2.56426 2.90609e-05 4
-5.88923 -8.34851 -2.73755 0.00060455 1
-6.85356 -9.71554 -2.74493 0.000374602 1
-8.14386 -11.5447 -2.74621 0.000211194 1
-10.0021 -14.1789 -2.74825 0.000103738 1
-12.0419 -17.0704 -2.56501 3.45148e-05 4
-5.86645 -8.37815 -2.74054 0.000604586 1
-6.82052 -9.7407 -2.7453 0.000374628 1
-8.09944 -11.5672 -2.74483 0.000211212 1
-9.95481 -14.2169 -2.74887 0.00010375 1
-5.83581 -8.39662 -2.7399 0.000604621 1
-6.78877 -9.76776 -2.74623 0.000374655 1
-8.0598 -11.5965 -2.7451 0.00021123 1
-9.90297 -14.2485 -2.74827 0.000103761 1
-12.808 -18.4284 -2.75555 4.09117e-05 1
-5.80303 -8.41198 -2.73829 0.000604657 1
-6.74263 -9.774 -2.74135 0.000374681 1
-8.02393 -11.6314 -2.7467 0.000211248 1
-9.85664 -14.288 -2.74924 0.000103772 1
-12.7511 -18.4838 -2.75717 4.09177e-05 1
-5.77507 -8.43427 -2.73896 0.000604693 1
-6.71577 -9.80813 -2.74433 0.000374707 1
-7.98099 -11.6559 -2.74591 0.000211266 1
-9.80646 -14.322 -2.74917 0.000103783 1
-12.6754 -18.5119 -2.75474 4.09237e-05 1
-5.74538 -8.45407 -2.73886 0.000604729 1
-6.68085 -9.83057 -2.74407 0.000374733 1
-7.93162 -11.671 -2.74292 0.000211284 1
-9.7569 -14.3568 -2.74931 0.000103794 1
-12.621 -18.5712 -2.75699 4.09297e-05 1
-5.72717 -8.49087 -2.74429 0.000604765 1
-6.65041 -9.85963 -2.74568 0.00037476 1
-7.89578 -11.706 -2.74464 0.000211302 1
-9.71026 -14.396 -2.75031 0.000103806 1
-12.5576 -18.6175 -2.75734 4.09357e-05 1
-5.69422 -8.50593 -2.74272 0.000604802 1
-6.60113 -9.86065 -2.73953 0.000374786 1
-7.86391 -11.747 -2.7478 0.00021132 1
-9.65903 -14.4285 -2.75005 0.000103817 1
-12.482 -18.6454 -2.75501 4.09418e-05 1
-5.6552 -8.51175 -2.73821 0.000604838 1
-6.56887 -9.88695 -2.74045 0.000374813 1
-7.82309 -11.7747 -2.74788 0.000211338 1
-9.60955 -14.4635 -2.75032 0.000103828 1
-12.419 -18.6921 -2.75549 4.09478e-05 1
-5.62608 -8.5324 -2.73852 0.000604874 1
-6.5344 -9.90994 -2.74049 0.00037484 1
-7.77307 -11.7885 -2.74475 0.000211357 1
-9.5621 -14.5017 -2.75121 0.00010384 1
-12.3548 -18.737 -2.75573 4.09539e-05 1
-5.59474 -8.54966 -2.73778 0.000604911 1
-6.50208 -9.93622 -2.74146 0.000374866 1
-7.73494 -11.8202 -2.74584 0.000211375 1
-9.50886 -14.5311 -2.75047 0.000103851 1
-12.2822 -18.7691 -2.75413 4.09601e-05 1
-5.56605 -8.57096 -2.73836 0.000604948 1
-6.46269 -9.95167 -2.73948 0.000374893 1
-7.69318 -11.8465 -2.74568 0.000211393 1
-9.45518 -14.5597 -2.74962 0.000103863 1
-12.2191 -18.8157 -2.7547 4.09662e-05 1
-5.53307 -8.58564 -2.73686 0.000604985 1
-6.44256 -9.9969 -2.74573 0.00037492 1
-7.64322 -11.86 -2.74261 0.000211412 1
-9.40275 -14.5902 -2.74917 0.000103874 1
-12.1501 -18.8533 -2.75397 4.09723e-05 1
-5.50307 -8.60491 -2.73687 0.000605021 1
-6.40633 -10.0173 -2.74517 0.000374947 1
-7.61294 -11.904 -2.74663 0.00021143 1
-9.35154 -14.6226 -2.74911 0.000103886 1
-12.0865 -18.8991 -2.75448 4.09785e-05 1
-5.48568 -8.64404 -2.7432 0.000605059 1
-6.36794 -10.0343 -2.74371 0.000374974 1
-7.56084 -11.914 -2.74282 0.000211449 1
-9.30443 -14.6614 -2.75028 0.000103897 1
-12.0157 -18.9337 -2.75339 4.09847e-05 1
-5.44612 -8.64828 -2.7385 0.000605096 1
-6.32901 -10.0503 -2.74204 0.000375001 1
-7.51848 -11.9391 -2.74256 0.000211468 1
-9.24966 -14.6882 -2.74923 0.000103909 1
-11.9523 -18.98 -2.75404 4.09909e-05 1
-5.4122 -8.66132 -2.73663 0.000605133 1
-6.29947 -10.0813 -2.74447 0.000375029 1
-7.47759 -11.9666 -2.74286 0.000211486 1
-9.20383 -14.7292 -2.75088 0.00010392 1
-11.8961 -19.0377 -2.75637 4.09971e-05 1
-5.39514 -8.70148 -2.74335 0.00060517 1
-6.255 -10.0883 -2.74042 0.000375056 1
-7.44351 -12.0051 -2.74572 0.000211505 1
-9.14641 -14.7516 -2.74909 0.000103932 1
-11.8207 -19.0649 -2.75431 4.10033e-05 1
-5.35675 -8.70727 -2.73927 0.000605208 1
-6.22075 -10.1117 -2.74086 0.000375083 1
-7.4039 -12.0349 -2.74658 0.000211524 1
-9.09262 -14.7798 -2.74841 0.000103944 1
-11.75 -19.0993 -2.75335 4.10096e-05 1
-5.32106 -8.71729 -2.73656 0.000605245 1
-6.19245 -10.1449 -2.74398 0.000375111 1
-7.35303 -12.0462 -2.7433 0.000211543 1
-9.03488 -14.8015 -2.74656 0.000103956 1
-11.687 -19.1465 -2.75425 4.10159e-05 1
-5.30295 -8.75621 -2.74295 0.000605283 1
-6.14809 -10.1517 -2.74001 0.000375139 1
-7.3101 -12.0704 -2.74298 0.000211562 1
-8.99254 -14.8484 -2.74943 0.000103967 1
-11.6251 -19.1954 -2.75543 4.10222e-05 1
-5.27276 -8.77535 -2.74316 0.000605321 1
-6.11548 -10.1779 -2.74129 0.000375166 1
-7.27475 -12.1072 -2.74556 0.000211581 1
-8.93323 -14.8674 -2.74715 0.000103979 1
-11.55 -19.2225 -2.75352 4.10285e-05 1
-5.23563 -8.78285 -2.73978 0.000605359 1
-6.08059 -10.2003 -2.7416 0.000375194 1
-7.2342 -12.1355 -2.74623 0.0002116 1
-8.88524 -14.9051 -2.74837 0.000103991 1
-11.4799 -19.2577 -2.75281 4.10349e-05 1
-5.20371 -8.79899 -2.73913 0.000605397 1
-6.04108 -10.2149 -2.73984 0.000375222 1
-7.18358 -12.1468 -2.74309 0.000211619 1
-8.82941 -14.9297 -2.74721 0.000104003 1
-11.4194 -19.3091 -2.75444 4.10413e-05 1
-5.17581 -8.82195 -2.74063 0.000605435 1
-6.00641 -10.2377 -2.74031 0.00037525 1
-7.14858 -12.1845 -2.74595 0.000211638 1
-8.78121 -14.9672 -2.74845 0.000104015 1
-11.3537 -19.352 -2.75488 4.10476e-05 1
-5.13752 -8.82713 -2.73666 0.000605473 1
-5.9703 -10.258 -2.74015 0.000375278 1
-7.10644 -12.2101 -2.74612 0.000211657 1
-8.72931 -14.9985 -2.74857 0.000104027 1
-11.2894 -19.3972 -2.75569 4.1054e-05 1
-5.11402 -8.85775 -2.7406 0.000605512 1
-5.94038 -10.289 -2.74289 0.000375306 1
