VERSION 0.7
FIELDS x y z intensity label
SIZE 4 4 4 4 4
TYPE F F F F F
COUNT 1 1 1 1 1
WIDTH 1182
HEIGHT 1
VIEWPOINT 11.0736 5.11392 2.72801 0.999993 -2.86322e-05 0.000932834 -0.00373804
POINTS 1182
DATA ascii
6.08757 -23.3706 2.9653 0.000485561 10
6.0878 -23.3714 3.82519 0.000476483 10
6.16194 -23.6561 4.75171 0.0001135 10
6.13703 -23.5604 5.62086 0.00010495 10
6.08377 -23.356 6.46704 0.000437238 10
2.46619 -9.33417 -2.58691 0.00139981 4
2.80314 -10.6095 -2.53344 0.000321766 4
3.32523 -12.5855 -2.53032 0.000146985 4
4.38894 -16.6115 -2.72129 0.000107872 1
5.65654 -21.4092 -2.71892 4.31118e-05 1
6.17849 -23.3847 -2.1161 0.000161097 10
6.20904 -23.5003 -1.27386 0.000413636 10
6.20589 -23.4884 -0.42406 0.000415575 10
6.20321 -23.4782 0.423877 0.000415573 10
6.17091 -23.356 1.26604 0.000127305 10
6.16401 -23.3299 2.11114 0.000126245 10
6.16711 -23.3416 2.96433 0.000124605 10
6.16376 -23.3289 3.82173 0.000122403 10
6.16084 -23.3178 4.68806 0.000119661 10
6.16249 -23.3241 5.56958 0.000116409 10
6.15901 -23.3109 6.46048 0.000112683 10
2.48209 -9.2633 -2.56965 0.00145605 4
2.84026 -10.6 -2.53353 0.000393923 4
3.37145 -12.5824 -2.53205 0.000181776 4
4.44425 -16.5862 -2.71967 0.000107887 1
5.7262 -21.3705 -2.71653 4.31202e-05 1
6.17588 -23.0487 -2.08764 0.00016968 10
6.17346 -23.0397 -1.25005 0.000113243 10
6.16582 -23.0112 -0.41583 0.000113886 10
6.1653 -23.0092 0.415795 0.000113999 10
6.16339 -23.0021 1.24801 0.000134075 10
6.16178 -22.9961 2.08287 0.000132961 10
6.16242 -22.9985 2.92347 0.000131237 10
6.16424 -23.0053 3.77221 0.000128922 10
6.16295 -23.0004 4.62855 0.000126041 10
6.16142 -22.9947 5.49603 0.000122624 10
6.15509 -22.9711 6.37222 0.000118708 10
2.49463 -9.18178 -2.54944 0.00124519 4
2.87664 -10.5878 -2.533 0.000269113 4
3.41326 -12.5629 -2.5305 0.000169149 4
4.50672 -16.5875 -2.72244 0.000107903 1
5.80159 -21.3534 -2.71691 4.31286e-05 1
6.16839 -22.7035 -2.0583 0.000178562 10
6.16809 -22.7023 -1.23291 0.000119166 10
6.16743 -22.6999 -0.410593 0.000119838 10
6.16317 -22.6842 0.410309 0.000119955 10
6.16682 -22.6977 1.23266 0.000141081 10
6.16513 -22.6914 2.05721 0.000139909 10
6.15949 -22.6707 2.88452 0.000138098 10
6.1586 -22.6674 3.72032 0.000135668 10
6.15829 -22.6663 4.5656 0.000132643 10
6.15875 -22.668 5.42303 0.000129056 10
6.15571 -22.6568 6.29095 0.000124945 10
2.51224 -9.12063 -2.53488 0.0006221 4
2.91001 -10.5647 -2.52989 0.00040232 4
3.46076 -12.5642 -2.53319 0.000200789 4
4.56155 -16.5606 -2.72063 0.000107918 1
5.88034 -21.3484 -2.71888 4.31369e-05 1
6.16806 -22.393 -2.0321 0.000187747 10
6.17451 -22.4164 -1.21855 0.000467407 10
6.17226 -22.4083 -0.405704 0.000469577 10
6.16872 -22.3954 0.405471 0.000469574 10
6.15769 -22.3554 1.21523 0.000148324 10
6.16152 -22.3693 2.02994 0.000147094 10
6.15797 -22.3564 2.84725 0.000145194 10
6.15395 -22.3418 3.67037 0.000142644 10
6.15786 -22.356 4.5074 0.00013947 10
6.1503 -22.3285 5.34692 0.000135707 10
6.15279 -22.3376 6.20824 0.000131395 10
2.54418 -9.11222 -2.53499 0.000573266 4
2.94921 -10.5629 -2.53191 0.000438431 4
3.50246 -12.5444 -2.53165 0.000208717 4
4.61526 -16.53 -2.71823 0.000107934 1
5.95294 -21.321 -2.71802 4.31453e-05 1
6.16289 -22.073 -2.005 0.000197239 10
6.17822 -22.1279 -1.20403 0.000481798 10
6.17715 -22.1241 -0.400947 0.00048403 10
6.18317 -22.1456 0.401338 0.000484027 10
6.15866 -22.0578 1.20022 0.000155811 10
6.15422 -22.0419 2.00217 0.00015452 10
6.15251 -22.0358 2.80914 0.000152527 10
6.15811 -22.0559 3.62691 9.56637e-05 10
6.15494 -22.0445 4.44891 0.000146527 10
6.15286 -22.0371 5.28225 0.000142583 10
6.15018 -22.0275 6.12798 8.81363e-05 10
2.5765 -9.10517 -2.53552 0.000502203 4
2.98734 -10.5571 -2.53299 0.000274739 4
3.55062 -12.5476 -2.53478 0.000205578 4
4.67697 -16.5281 -2.72058 0.000107949 1
6.02857 -21.3045 -2.71858 4.31537e-05 1
6.1614 -21.7739 -1.97977 0.000207045 10
6.18721 -21.8652 -1.1909 0.000496764 10
6.18917 -21.8721 -0.396769 0.00049906 10
6.18565 -21.8596 0.396543 0.000499056 10
6.15897 -21.7653 1.18546 0.000163543 10
6.15198 -21.7406 1.97674 0.00016219 10
6.22069 -21.9835 2.80522 9.90587e-05 10
6.22076 -21.9837 3.6186 9.73203e-05 10
6.14693 -21.7228 4.38828 0.000153816 10
6.15258 -21.7428 5.21682 0.000149685 10
6.21334 -21.9575 6.11451 8.9662e-05 10
2.60964 -9.1009 -2.53685 0.000506687 4
3.02162 -10.5376 -2.53085 0.000407983 4
3.59051 -12.5216 -2.53204 0.000268863 4
4.73146 -16.5006 -2.71875 0.000107965 1
6.09716 -21.2633 -2.71602 4.3162e-05 1
6.15687 -21.4716 -1.95422 0.000217167 10
6.18957 -21.5856 -1.17684 0.000512333 10
6.19273 -21.5966 -0.392162 0.000514696 10
6.19571 -21.607 0.392351 0.000514692 10
6.15225 -21.4555 1.16975 0.000171525 10
6.15323 -21.4589 1.95306 0.000170108 10
6.14756 -21.4391 4.33528 0.000161342 10
6.14927 -21.4451 5.1505 0.000157017 10
2.63484 -9.06919 -2.53056 0.000555622 4
3.05957 -10.5311 -2.53183 0.000352508 4
3.63331 -12.5059 -2.53142 0.00012812 4
4.79266 -16.4964 -2.72081 0.00010798 1
6.16283 -21.2126 -2.71227 0.00022428 10
6.15927 -21.2003 -1.93148 0.000227611 10
6.19866 -21.3359 -1.1644 0.000528539 10
6.19421 -21.3206 -0.387541 0.000530971 10
6.19888 -21.3367 0.387832 0.000530967 10
6.15292 -21.1785 1.15581 0.00017976 10
6.15422 -21.183 1.9299 0.000178276 10
6.14554 -21.1531 4.28176 0.000169106 10
6.14401 -21.1478 5.08423 0.000164583 10
2.66747 -9.06328 -2.5315 0.000528993 4
3.09656 -10.5212 -2.53204 0.00044137 4
3.67435 -12.4844 -2.52964 0.000235703 4
4.84689 -16.4683 -2.71895 0.000107996 1
6.15767 -20.922 -2.67785 0.000234902 10
6.15788 -20.9227 -1.90813 0.00023838 10
6.19469 -21.0478 -1.14985 0.000545414 10
6.20147 -21.0708 -0.383391 0.000547917 10
6.19441 -21.0468 0.382954 0.000547914 10
6.15222 -20.9035 1.14197 0.00018825 10
6.15346 -20.9077 1.90676 0.000186699 10
5.77606 -19.6254 2.51189 0.000218345 10
5.77801 -19.632 3.24128 0.000214592 10
6.14088 -20.8649 4.22774 0.000177113 10
6.13971 -20.861 5.02039 0.000172386 10
6.13953 -20.8603 5.82657 0.000166969 10
2.69875 -9.05277 -2.53117 0.000497915 4
3.13014 -10.4998 -2.5295 0.000330364 4
3.72107 -12.4821 -2.53179 0.000216745 4
4.90835 -16.4648 -2.72117 0.000108011 1
6.15992 -20.663 -2.64744 0.000245852 10
6.15527 -20.6474 -1.88498 0.00024948 10
6.19618 -20.7847 -1.13665 0.000562995 10
6.1986 -20.7928 -0.378724 0.000565573 10
6.19917 -20.7947 0.378759 0.000565569 10
6.15077 -20.6324 1.12832 0.000197002 10
6.14924 -20.6272 1.88313 0.00019538 10
5.82528 -19.5405 2.50362 0.000770283 10
5.82173 -19.5286 3.22754 0.000756372 10
6.14523 -20.6138 4.18117 0.000185366 10
6.14337 -20.6075 4.96454 0.000180429 10
6.13879 -20.5922 5.75762 0.00017477 10
2.73132 -9.04657 -2.53209 0.00052463 4
3.1683 -10.4939 -2.53073 0.0003415 4
3.76858 -12.4821 -2.53445 0.000181959 4
4.95992 -16.4281 -2.71795 0.000108027 1
6.15653 -20.3914 -2.61538 0.000257131 10
6.14825 -20.364 -1.86105 0.000260914 10
6.19171 -20.5079 -1.12269 0.00058132 10
6.19883 -20.5315 -0.374357 0.000583975 10
6.19432 -20.5166 0.374084 0.000583972 10
6.14473 -20.3523 1.11418 0.000206016 10
6.14631 -20.3576 1.86046 0.000204322 10
5.89407 -19.5221 2.50388 0.000767375 10
5.89984 -19.5412 3.23301 0.000753514 10
6.13727 -20.3276 4.12745 0.000193868 10
6.13754 -20.3285 4.90245 0.000188714 10
6.13492 -20.3198 5.68742 0.000182808 10
2.76219 -9.03471 -2.53146 0.000555796 4
3.20798 -10.4928 -2.53315 0.000347085 4
3.80548 -12.4472 -2.53003 0.000278508 4
5.01886 -16.4159 -2.71883 0.000108042 1
6.15196 -20.1222 -2.58358 0.000268746 10
6.14854 -20.111 -1.83987 0.000272688 10
6.1896 -20.2453 -1.10949 0.000600431 10
6.18796 -20.2399 -0.369431 0.000603167 10
6.19274 -20.2555 0.369716 0.000603162 10
6.14607 -20.1029 1.10169 0.000215297 10
6.14179 -20.0889 1.83785 0.000213528 10
5.96792 -19.5202 2.50629 0.000764441 10
5.96737 -19.5184 3.23266 0.000750629 10
5.76658 -18.8616 3.83385 0.000239769 10
6.14169 -20.0886 4.84972 0.000197246 10
6.13983 -20.0825 5.62696 0.000191085 10
2.79717 -9.0362 -2.53459 0.000604753 4
3.24277 -10.4757 -2.53173 0.000361001 4
3.85311 -12.4474 -2.5328 0.000189913 4
5.07739 -16.4024 -2.71951 0.000108057 1
6.15364 -19.8792 -2.55513 0.000280699 10
6.14875 -19.8634 -1.81918 0.000284804 10
6.15128 -19.8716 -1.09018 0.000287646 10
6.14386 -19.8476 -0.36266 0.000289197 10
6.14793 -19.8608 0.3629 0.00028944 10
6.1444 -19.8493 1.08896 0.000224848 10
5.76893 -18.6364 1.70681 0.000263588 10
5.77227 -18.6472 2.39678 0.000260271 10
5.76742 -18.6315 3.08909 0.000255827 10
5.76883 -18.6361 3.79208 0.000250301 10
5.76645 -18.6284 4.50205 0.00024375 10
5.76718 -18.6308 5.2258 0.000782011 10
2.82423 -9.01214 -2.5306 0.00056033 4
3.27795 -10.46 -2.53068 0.000374921 4
3.89123 -12.4169 -2.52935 0.000213676 4
5.13255 -16.378 -2.71842 0.000108073 1
6.14586 -19.6115 -2.52346 0.000292995 10
6.14525 -19.6095 -1.79788 0.000297267 10
6.14891 -19.6212 -1.07761 0.000300225 10
6.14355 -19.6041 -0.3586 0.000301837 10
6.14435 -19.6067 0.358647 0.000302087 10
6.14407 -19.6058 1.07677 0.000234672 10
5.79439 -18.4899 1.69523 0.000196763 10
5.8391 -18.6326 2.3975 0.000861201 10
5.83862 -18.6311 3.09238 0.000845771 10
5.78747 -18.4678 3.76193 0.000171647 10
5.7656 -18.3981 4.45121 0.000254308 10
5.7865 -18.4648 5.18488 0.000176367 10
2.86039 -9.0171 -2.53478 0.000649322 4
3.32119 -10.4697 -2.53583 0.000419394 4
3.93487 -12.4043 -2.52955 0.000196287 4
5.18639 -16.3496 -2.71668 0.000108088 1
6.14199 -19.362 -2.4941 0.000305638 10
6.14292 -19.365 -1.77741 0.000310082 10
6.19441 -19.5273 -1.07364 0.000991185 10
6.19323 -19.5235 -0.35752 0.000995672 10
6.19185 -19.5192 0.35744 0.000995666 10
6.14326 -19.366 1.06477 0.000244773 10
5.79433 -18.266 1.67655 0.000205141 10
5.90922 -18.6282 2.39958 0.000857808 10
5.90619 -18.6187 3.09372 0.000842437 10
5.8532 -18.4516 3.76277 0.000171626 10
5.76794 -18.1829 4.40399 0.000265161 10
5.78165 -18.2261 5.12349 0.00018391 10
2.88758 -8.99376 -2.53103 0.000569313 4
3.35145 -10.4386 -2.5311 0.000441654 4
0.762539 -2.37503 -0.484871 0.0258802 8
0.767805 -2.39143 -0.397809 0.0269722 8
6.14844 -19.1502 -2.46956 0.000318633 10
6.13871 -19.1198 -1.75687 0.000323253 10
6.26715 -19.5199 -1.07443 0.000987201 10
6.26883 -19.5251 -0.357947 0.000991671 10
6.26649 -19.5178 0.357814 0.000991664 10
6.19708 -19.3017 1.06242 4.32077e-05 10
5.79072 -18.036 1.65728 0.000213748 10
5.98226 -18.6326 2.40282 0.000854387 10
5.98112 -18.629 3.09889 0.000839073 10
5.91206 -18.4139 3.75926 0.000171606 10
5.76561 -17.9578 4.35432 0.000276312 10
5.7846 -18.0169 5.07034 0.00019166 10
0.762469 -2.34664 -0.661139 0.0763323 8
0.76466 -2.35338 -0.571282 0.080665 8
0.767643 -2.36256 -0.482869 0.0843784 8
0.767256 -2.36137 -0.393252 0.0878765 8
6.14459 -18.9111 -2.44149 0.000331982 10
6.14414 -18.9097 -1.73953 0.000336782 10
6.34891 -19.5399 -1.07674 0.000983182 10
6.34424 -19.5256 -0.358359 0.000987635 10
6.34541 -19.5292 0.358426 0.000987628 10
6.26842 -19.2922 1.06309 4.31883e-05 10
5.78547 -17.8059 1.63798 0.000222586 10
6.04887 -18.6165 2.40346 0.000850935 10
6.0528 -18.6286 3.10232 0.000835681 10
6.05331 -18.6302 3.8077 0.000816909 10
5.76479 -17.7422 4.30691 0.000287763 10
5.78104 -17.7922 5.01275 0.000199619 10
0.779087 -2.36961 -0.668372 0.0765077 8
0.777096 -2.36355 -0.574405 0.0803884 8
0.771869 -2.34765 -0.480369 0.0845487 8
0.777202 -2.36387 -0.394118 0.0880437 8
6.13914 -18.6723 -2.41341 0.000345691 10
6.13611 -18.6631 -1.7188 0.000350676 10
6.42079 -19.529 -1.07737 0.000979131 10
6.41896 -19.5234 -0.358728 0.000983567 10
6.41986 -19.5261 0.358779 0.00098356 10
6.33133 -19.2568 1.06236 5.58505e-05 10
5.78897 -17.6072 1.62156 0.000231658 10
6.12286 -18.6228 2.40701 0.000847456 10
6.12099 -18.6171 3.10394 0.00083226 10
6.12652 -18.6339 3.81281 0.000813563 10
5.75737 -17.5111 4.25567 0.000299518 10
5.78148 -17.5845 4.95988 0.000207791 10
0.782818 -2.35324 -0.664522 0.0762421 8
0.784899 -2.3595 -0.574082 0.080557 8
0.788968 -2.37173 -0.485856 0.0842554 8
0.781735 -2.34998 -0.392254 0.0882049 8
6.13984 -18.4571 -2.38834 0.000359762 10
6.1335 -18.438 -1.70003 0.000364937 10
6.49515 -19.5252 -1.0784 0.000975046 10
6.49158 -19.5144 -0.358978 0.000979464 10
6.49754 -19.5323 0.359307 0.000979458 10
6.39652 -19.2286 1.06203 5.58255e-05 10
5.78685 -17.3959 1.60395 0.000240967 10
6.19348 -18.6183 2.40921 0.000843948 10
6.19438 -18.621 3.10818 0.000828812 10
6.19237 -18.615 3.81334 0.000810188 10
5.76083 -17.3177 4.21351 0.000311581 10
5.78367 -17.3864 4.90967 0.000216177 10
0.792849 -2.3559 -0.666052 0.0764085 8
0.797482 -2.36967 -0.577232 0.0807201 8
0.79006 -2.34762 -0.481479 0.0848722 8
0.792827 -2.35584 -0.393691 0.0878954 8
6.13306 -18.224 -2.36094 0.000374201 10
6.14022 -18.2453 -1.68423 0.000379569 10
6.13411 -18.2271 -1.00789 0.000253165 10
6.13175 -18.2201 -0.335561 0.000254495 10
6.12962 -18.2138 0.335444 0.00025469 10
6.13518 -18.2303 1.00806 0.000253748 10
5.78572 -17.1919 1.58699 0.000250515 10
6.26545 -18.6174 2.41191 0.000840412 10
6.27244 -18.6382 3.11468 0.000825337 10
6.26695 -18.6219 3.81921 0.000806786 10
5.75361 -17.0965 4.16456 0.000323955 10
5.75663 -17.1055 4.836 0.000294589 10
0.799347 -2.34807 -0.664621 0.0765696 8
0.803277 -2.35961 -0.57546 0.0804333 8
0.802386 -2.35699 -0.483973 0.0845707 8
0.798334 -2.34509 -0.392359 0.0880466 8
6.13372 -18.0177 -2.33697 0.000389009 10
6.12961 -18.0056 -1.66407 0.000394576 10
6.18989 -18.1827 -1.00662 0.000773981 10
6.19258 -18.1906 -0.335413 0.000777443 10
6.18835 -18.1782 0.335183 0.000777437 10
6.19025 -18.1837 1.00668 0.000773965 10
5.77918 -16.9762 1.56893 0.000260304 10
6.33747 -18.6162 2.4146 0.000836849 10
6.34436 -18.6364 3.11807 0.000821834 10
6.33942 -18.6219 3.82374 0.000803359 10
5.75255 -16.898 4.12108 0.000336641 10
5.75253 -16.898 4.78297 0.00030614 10
0.810724 -2.35451 -0.667242 0.0767253 8
0.816345 -2.37084 -0.57889 0.0801441 8
0.813985 -2.36399 -0.48599 0.0847198 8
0.813925 -2.36381 -0.395963 0.0881919 8
0.813925 -2.36381 -0.306963 0.0387721 8
6.13035 -17.8038 -1.64739 0.000409962 10
6.16961 -17.9179 -0.993143 0.00080192 10
6.17068 -17.921 -0.330836 0.000805498 10
6.16891 -17.9158 0.330741 0.000805493 10
6.16881 -17.9155 0.993014 0.000801904 10
5.77959 -16.7852 1.55313 0.000270338 10
5.7555 -16.7152 2.17063 0.000349843 10
6.41234 -18.6228 3.11952 0.000818304 10
6.40889 -18.6128 3.82642 0.000799905 10
5.75621 -16.7173 4.08187 0.000349645 10
5.75492 -16.7135 4.73642 0.000317981 10
0.824355 -2.36722 -0.671656 0.0764462 8
0.816692 -2.34522 -0.573327 0.080735 8
0.81802 -2.34904 -0.4835 0.0844117 8
0.825592 -2.37078 -0.397611 0.0878713 8
0.819562 -2.35346 -0.305989 0.119105 8
6.14003 -17.6318 -1.63344 0.000823857 10
6.13841 -17.6271 -0.978209 0.000831222 10
6.1375 -17.6245 -0.325757 0.000834921 10
6.13786 -17.6255 0.325775 0.000834915 10
6.13893 -17.6286 0.978292 0.000831205 10
5.77542 -16.5848 1.53644 0.000280617 10
5.75143 -16.5159 2.14734 0.000363141 10
6.48327 -18.6174 3.12239 0.000814749 10
6.48154 -18.6125 3.83099 0.000796425 10
5.74879 -16.5083 4.03572 0.000362969 10
5.75084 -16.5142 4.68558 0.000330114 10
0.83091 -2.3595 -0.670282 0.0765928 8
0.830788 -2.35915 -0.577438 0.0808776 8
0.833969 -2.36818 -0.488038 0.084551 8
0.833397 -2.36656 -0.397389 0.0880065 8
0.831583 -2.36141 -0.307398 0.0916761 8
6.13223 -17.4134 -1.61518 0.000291877 10
6.13253 -17.4143 -0.96758 0.000294699 10
6.13013 -17.4074 -0.322138 0.000296226 10
6.12603 -17.3958 0.321923 0.000296442 10
6.12456 -17.3916 0.966322 0.000295345 10
5.77884 -16.4099 1.5221 0.000291145 10
5.77955 -16.4119 2.13643 0.000287528 10
6.56073 -18.6302 3.12836 0.000811167 10
6.55461 -18.6128 3.83575 0.00079292 10
5.75236 -16.3347 3.99817 0.000376616 10
5.74987 -16.3276 4.63833 0.00036522 10
0.840747 -2.36109 -0.671565 0.0763077 8
0.838021 -2.35344 -0.576752 0.0810146 8
0.840097 -2.35927 -0.486802 0.0846845 8
0.840088 -2.35924 -0.39665 0.0881358 8
0.835364 -2.34598 -0.305767 0.0917988 8
6.18534 -17.3705 -1.61319 0.000850608 10
6.18197 -17.361 -0.965813 0.000858195 10
6.1857 -17.3715 -0.32187 0.000862005 10
6.18553 -17.371 0.321861 0.000862 10
6.18154 -17.3598 0.965746 0.000858178 10
5.77617 -16.2214 1.50647 0.000301924 10
5.77607 -16.2211 2.1142 0.000298176 10
6.6367 -18.638 3.13354 0.00080756 10
6.6281 -18.6139 3.84071 0.000789389 10
5.753 -16.1563 3.9594 0.000390589 10
5.74882 -16.1446 4.592 0.000378787 10
0.844925 -2.34687 -0.668355 0.0764452 8
0.845175 -2.34757 -0.576033 0.0802734 8
0.845008 -2.3471 -0.484897 0.0843659 8
0.853718 -2.37129 -0.399175 0.0882593 8
0.846322 -2.35075 -0.306772 0.0914535 8
6.1554 -17.0973 -1.58981 0.000882462 10
6.16029 -17.1109 -0.953088 0.000890314 10
6.15607 -17.0991 -0.317221 0.000894257 10
6.15641 -17.1001 0.317238 0.000894251 10
6.15859 -17.1061 0.952825 0.000890296 10
5.78069 -16.0565 1.49303 0.000312955 10
5.77961 -16.0535 2.09497 0.000309075 10
6.70304 -18.6184 3.13416 0.000803927 10
6.70244 -18.6167 3.84611 0.000785834 10
5.74588 -15.9598 3.91613 0.00040489 10
5.74899 -15.9684 4.54758 0.000392673 10
0.859389 -2.36115 -0.673272 0.0765773 8
0.854959 -2.34898 -0.577109 0.0804026 8
0.859862 -2.36245 -0.488686 0.0844896 8
0.862064 -2.3685 -0.399209 0.0879236 8
0.859702 -2.36201 -0.308632 0.0911057 8
6.12605 -16.8312 -1.56704 0.000325444 10
6.123 -16.8228 -0.938228 0.000924069 10
6.12997 -16.842 -0.312845 0.000928151 10
6.12082 -16.8168 0.312377 0.000928144 10
6.12516 -16.8287 0.938559 0.00092405 10
5.77078 -15.8551 1.47616 0.000324242 10
5.7769 -15.8719 2.07389 0.000320226 10
6.77354 -18.6102 3.13673 0.000800269 10
6.77792 -18.6222 3.8521 0.000782254 10
5.75143 -15.8019 3.88229 0.000419523 10
5.74948 -15.7966 4.50433 0.000406883 10
0.866561 -2.35525 -0.672446 0.0762826 8
0.864534 -2.34974 -0.578032 0.0805262 8
0.864679 -2.35013 -0.486758 0.0846076 8
0.862471 -2.34413 -0.395606 0.0884883 8
0.872519 -2.37144 -0.310259 0.091672 8
6.11995 -16.6335 -1.55062 0.000337159 10
6.12402 -16.6446 -0.929476 0.000340387 10
6.12059 -16.6353 -0.3094 0.000342129 10
6.12396 -16.6444 0.30957 0.000342367 10
6.12004 -16.6338 0.928871 0.000341099 10
5.77819 -15.7047 1.46403 0.000335785 10
5.77343 -15.6917 2.05297 0.000331631 10
6.85315 -18.6263 3.14347 0.000796587 10
6.85238 -18.6242 3.85744 0.000778651 10
5.75078 -15.6302 3.845 0.000434491 10
5.74013 -15.6012 4.4543 0.000421417 10
0.875579 -2.35436 -0.673062 0.0764056 8
0.872441 -2.34592 -0.57784 0.0802129 8
0.87983 -2.36579 -0.490635 0.0842786 8
0.879663 -2.36534 -0.399702 0.0881442 8
0.880281 -2.36701 -0.310079 0.0913156 8
6.16161 -16.5681 -1.54651 0.000946822 10
6.16124 -16.5671 -0.926342 0.000955206 10
6.16113 -16.5668 -0.308524 0.000959415 10
6.15905 -16.5612 0.30842 0.000959409 10
6.16183 -16.5687 0.92643 0.000955186 10
5.77492 -15.5283 1.44946 0.000347589 10
5.77093 -15.5176 2.03281 0.000343293 10
6.92389 -18.6178 3.14608 0.00079288 10
6.92093 -18.6098 3.85944 0.000775023 10
5.74396 -15.445 3.80437 0.000449796 10
5.74557 -15.4494 4.41665 0.00043628 10
0.887336 -2.36072 -0.675762 0.0765232 8
0.883398 -2.35024 -0.57966 0.0807566 8
0.890297 -2.3686 -0.491859 0.0848263 8
0.8821 -2.34679 -0.397085 0.0882457 8
0.884816 -2.35402 -0.30878 0.0914115 8
6.22298 -16.556 -1.5474 0.000942467 10
6.22719 -16.5672 -0.927558 0.000950813 10
6.22648 -16.5653 -0.3089 0.000955005 10
6.22504 -16.5614 0.308827 0.000954998 10
6.21921 -16.5459 0.926369 0.000950794 10
5.74613 -15.2873 1.42883 0.000502399 10
5.74741 -15.2907 2.00571 0.0004962 10
5.7448 -15.2838 2.58607 0.000487916 10
5.74113 -15.274 3.17178 0.000477629 10
5.74209 -15.2766 3.76779 0.000465441 10
5.73856 -15.2672 4.37027 0.000451473 10
0.891768 -2.3476 -0.672892 0.0766355 8
0.890384 -2.34395 -0.578872 0.0808634 8
0.899819 -2.36879 -0.492548 0.0844891 8
0.898206 -2.36455 -0.400617 0.0883412 8
0.893452 -2.35203 -0.308927 0.0915013 8
0.908547 -2.39177 -0.223841 0.0377105 8
6.2916 -16.5628 -0.928534 0.000946393 10
6.28856 -16.5548 -0.309111 0.000950566 10
6.29318 -16.5669 0.309337 0.00095056 10
6.29158 -16.5627 0.928531 0.000946374 10
5.78129 -15.2194 1.42435 0.00137939 10
5.77411 -15.2005 1.9965 0.00136145 10
5.78107 -15.2188 2.57847 0.0013378 10
5.77874 -15.2126 3.1632 0.00130869 10
5.77321 -15.1981 3.75338 0.00127441 10
5.77508 -15.203 4.35764 0.00123529 10
0.904413 -2.35608 -0.676223 0.0763274 8
0.90895 -2.3679 -0.585565 0.0805384 8
0.905756 -2.35958 -0.491286 0.0845857 8
0.900911 -2.34695 -0.398167 0.0879864 8
0.9028 -2.35187 -0.309319 0.0915849 8
0.903721 -2.35427 -0.220626 0.0385921 8
9.94295 -25.9023 -1.45406 0.000102019 10
9.9418 -25.8993 -0.484237 0.000102588 10
9.94371 -25.9043 0.484329 0.000102663 10
7.27422 -18.95 1.06378 5.55047e-05 10
5.83619 -15.2038 1.42479 0.001373 10
5.84244 -15.2201 2.00175 0.00135513 10
5.83422 -15.1987 2.57849 0.00133159 10
5.83485 -15.2003 3.16485 0.00130261 10
5.84163 -15.218 3.7633 0.00126848 10
5.83833 -15.2094 4.36528 0.00122953 10
0.909867 -2.34578 -0.674174 0.0764305 8
0.91788 -2.36644 -0.585993 0.0802114 8
0.918619 -2.36834 -0.493776 0.0846765 8
0.911662 -2.35041 -0.39929 0.0880717 8
0.912217 -2.35184 -0.30973 0.0912132 8
0.919097 -2.36957 -0.222359 0.0940699 8
10.0024 -25.7878 -1.44959 0.000273668 10
10.008 -25.8021 -0.48307 0.00027499 10
10.0122 -25.8129 0.483272 0.000274988 10
7.34415 -18.9344 1.06434 5.54802e-05 10
5.8965 -15.2021 1.42655 0.00136656 10
5.89949 -15.2098 2.00309 0.00134877 10
5.89684 -15.203 2.5827 0.00132534 10
5.90394 -15.2213 3.17348 0.00129649 10
5.90359 -15.2204 3.76896 0.00126251 10
5.90294 -15.2187 4.37384 0.00122374 10
0.928558 -2.3694 -0.681892 0.0765282 8
0.922678 -2.3544 -0.583806 0.0803049 8
0.927328 -2.36626 -0.494014 0.084329 8
0.921146 -2.35049 -0.399848 0.0881512 8
0.918789 -2.34448 -0.309182 0.091734 8
0.928094 -2.36822 -0.222535 0.0945891 8
7.41673 -18.9253 1.06528 5.54558e-05 10
5.95945 -15.2067 1.42893 0.00136009 10
5.96155 -15.2121 2.00612 0.00134238 10
5.96458 -15.2198 2.58909 0.00131905 10
5.96538 -15.2219 3.17793 0.00129033 10
5.95737 -15.2014 3.7694 0.00125651 10
5.96174 -15.2126 4.37803 0.00121791 10
0.932748 -2.35585 -0.678925 0.0762107 8
0.92996 -2.34881 -0.583221 0.0803927 8
0.938592 -2.37061 -0.495604 0.08441 8
0.936899 -2.36634 -0.403098 0.0882247 8
0.93073 -2.35076 -0.310436 0.0913538 8
0.934685 -2.36074 -0.222138 0.0937464 8
10.2108 -25.7896 -1.45365 0.000270782 10
10.2115 -25.7913 -0.484191 0.000272091 10
10.2116 -25.7916 0.484196 0.000272089 10
7.48323 -18.9005 1.06534 5.54315e-05 10
6.02657 -15.2214 1.43228 0.00135357 10
6.01789 -15.1995 2.00721 0.00133595 10
6.02519 -15.2179 2.59232 0.00131273 10
6.02408 -15.2151 3.18089 0.00128414 10
6.01927 -15.2029 3.77497 0.00125047 10
6.01898 -15.2022 4.38108 0.00121205 10
0.943506 -2.35893 -0.680759 0.0767073 8
0.94526 -2.36332 -0.58764 0.080475 8
0.938419 -2.34621 -0.491185 0.0844853 8
0.93849 -2.34639 -0.400256 0.0878551 8
0.948113 -2.37045 -0.313473 0.0909712 8
0.941061 -2.35282 -0.2217 0.0933538 8
6.11289 -15.2833 -0.862658 0.000673414 10
6.10688 -15.2683 -0.287036 0.000676784 10
6.11253 -15.2824 0.287302 0.000677216 10
6.11457 -15.2875 0.862894 0.000674706 10
6.08008 -15.2013 1.43237 0.00134702 10
6.08027 -15.2018 2.01031 0.00132948 10
6.08597 -15.216 2.5956 0.00130637 10
6.08495 -15.2135 3.18497 0.00127791 10
6.08665 -15.2177 3.78389 0.0012444 10
6.08448 -15.2123 4.39007 0.00120616 10
0.948673 -2.34805 -0.678568 0.0763824 8
0.952233 -2.35686 -0.586857 0.0805515 8
0.94708 -2.3441 -0.491432 0.0841276 8
0.947771 -2.34582 -0.40072 0.0879185 8
0.954843 -2.36332 -0.312968 0.0910281 8
0.948745 -2.34823 -0.221578 0.0925118 8
6.11333 -15.131 -0.85526 0.000695088 10
6.10874 -15.1197 -0.284641 0.000698558 10
6.10458 -15.1094 0.284447 0.000699 10
6.10737 -15.1163 0.854426 0.000696408 10
6.10172 -15.1023 1.42505 0.000538633 10
6.10113 -15.1008 1.99976 0.000531967 10
6.1007 -15.0998 2.57939 0.000523066 10
6.10771 -15.1171 3.16924 0.000512019 10
6.10486 -15.1101 3.7624 0.000498936 10
6.10209 -15.1032 4.36471 0.000483946 10
0.963402 -2.36074 -0.683205 0.0764601 8
0.956651 -2.3442 -0.584533 0.080207 8
0.961643 -2.35644 -0.494718 0.084193 8
0.961212 -2.35538 -0.402924 0.0875425 8
0.961965 -2.35722 -0.312604 0.0910789 8
0.967271 -2.37023 -0.223971 0.0916714 8
6.1112 -14.975 -0.847644 0.000717198 10
6.1107 -14.9738 -0.282295 0.000720769 10
6.10347 -14.9561 0.281961 0.00072122 10
6.10441 -14.9584 0.846703 0.000718546 10
6.11085 -14.9742 1.41496 0.000555759 10
6.10534 -14.9607 1.98401 0.000548886 10
6.09902 -14.9452 2.55661 0.000539712 10
6.10241 -14.9535 3.13938 0.000528327 10
6.10272 -14.9543 3.72888 0.000514844 10
6.10532 -14.9606 4.32965 0.000499394 10
0.966315 -2.34446 -0.679463 0.0761297 8
0.971467 -2.35696 -0.588555 0.080688 8
0.968872 -2.35066 -0.494213 0.0838293 8
0.968123 -2.34884 -0.402381 0.0875959 8
0.965741 -2.34306 -0.311171 0.0911236 8
0.972745 -2.36006 -0.223329 0.0912756 8
6.12175 -14.8525 -0.841911 0.0018255 10
6.11523 -14.8367 -0.280111 0.00183342 10
6.12389 -14.8577 0.280507 0.00183341 10
6.11561 -14.8376 0.841067 0.00182546 10
6.10839 -14.8201 1.4024 0.000573223 10
6.10736 -14.8176 1.96785 0.000566142 10
6.10413 -14.8097 2.53706 0.000556689 10
6.09899 -14.7973 3.11104 0.000544958 10
6.09887 -14.797 3.69495 0.000531066 10
6.09575 -14.7894 4.28622 0.000515149 10
0.981662 -2.35829 -0.684462 0.0757973 8
0.976488 -2.34586 -0.586632 0.0803358 8
0.979023 -2.35195 -0.495199 0.083885 8
0.978666 -2.3511 -0.40335 0.0876434 8
0.981282 -2.35738 -0.313525 0.0907261 8
0.98158 -2.3581 -0.223467 0.0908774 8
6.18272 -14.853 -0.843161 0.00181633 10
6.17786 -14.8414 -0.280604 0.00182421 10
6.17688 -14.839 0.28056 0.0018242 10
6.17746 -14.8404 0.842443 0.00181629 10
5.73154 -13.7692 1.30484 0.000691501 10
5.73719 -13.7827 1.83307 0.000683046 10
5.73357 -13.774 2.36305 0.000671759 10
5.73059 -13.7669 2.89859 0.000657751 10
5.72755 -13.7596 3.44087 0.000641159 10
6.10024 -14.6549 4.25338 0.000531214 10
0.994137 -2.36496 -0.6874 0.0762615 8
0.992601 -2.3613 -0.591357 0.0799815 8
0.993685 -2.36388 -0.498439 0.0839349 8
0.98972 -2.35445 -0.404516 0.0872571 8
0.993933 -2.36447 -0.314928 0.0907605 8
0.990055 -2.35525 -0.223523 0.0895985 8
6.23576 -14.8343 -0.843327 0.00180711 10
6.24366 -14.8531 -0.281236 0.00181496 10
6.23847 -14.8407 0.281002 0.00181494 10
6.24662 -14.8601 0.844796 0.00180707 10
5.78831 -13.7698 1.30682 0.00169108 10
5.7859 -13.7641 1.83327 0.00166936 10
5.79081 -13.7758 2.36681 0.00164075 10
5.78474 -13.7614 2.90166 0.00160551 10
5.79128 -13.7769 3.45024 0.001564 10
6.09587 -14.5015 4.21501 0.00054759 10
1.00562 -2.36909 -0.689618 0.0759219 8
1.001 -2.35821 -0.591452 0.0800337 8
0.995452 -2.34514 -0.495216 0.083979 8
0.997867 -2.35083 -0.40449 0.0872945 8
0.997941 -2.351 -0.313596 0.0899243 8
0.996316 -2.34717 -0.223085 0.0887626 8
6.30781 -14.8603 -0.84605 0.00179785 10
6.30749 -14.8595 -0.281773 0.00180565 10
6.29748 -14.8359 0.281326 0.00180564 10
6.3046 -14.8527 0.84562 0.00179781 10
5.84796 -13.7769 1.30942 0.00168251 10
5.84664 -13.7738 1.83727 0.00166089 10
5.84202 -13.7629 2.36809 0.00163242 10
5.84131 -13.7613 2.90593 0.00159735 10
5.84059 -13.7596 3.45098 0.00155604 10
6.09452 -14.3578 4.1794 0.000564279 10
1.00511 -2.34509 -0.683649 0.0759761 8
1.01046 -2.35758 -0.592177 0.0800803 8
1.00978 -2.35599 -0.49825 0.0840173 8
1.01179 -2.36069 -0.406792 0.0869021 8
1.00568 -2.34644 -0.313453 0.0890897 8
1.01287 -2.36321 -0.224944 0.0883636 8
6.35794 -14.8342 -0.845825 0.00178854 10
6.36743 -14.8563 -0.282133 0.00179631 10
6.3622 -14.8441 0.281901 0.00179629 10
6.35903 -14.8367 0.84597 0.0017885 10
5.90378 -13.7746 1.31114 0.00167389 10
5.90044 -13.7668 1.83906 0.00165239 10
5.90161 -13.7695 2.37275 0.00162405 10
5.90379 -13.7746 2.91307 0.00158915 10
5.90205 -13.7705 3.45887 0.00154805 10
6.09216 -14.2141 4.14373 0.000581283 10
1.01447 -2.3443 -0.684447 0.0760248 8
1.01548 -2.34665 -0.590317 0.0801213 8
1.02157 -2.3607 -0.499996 0.0836358 8
1.01577 -2.34732 -0.405096 0.0869295 8
1.02506 -2.36877 -0.316913 0.0886853 8
1.0182 -2.35292 -0.224302 0.0875293 8
6.42391 -14.8448 -0.847702 0.00177919 10
6.42563 -14.8488 -0.282413 0.00178691 10
6.42199 -14.8404 0.282253 0.0017869 10
6.42584 -14.8492 0.847956 0.00177915 10
5.95361 -13.758 1.31153 0.00166523 10
5.95545 -13.7622 1.84122 0.00164383 10
5.95928 -13.7711 2.37659 0.00161564 10
5.9619 -13.7772 2.918 0.00158092 10
5.95466 -13.7604 3.46153 0.00154001 10
5.72787 -13.2363 3.8645 0.00070028 10
1.0297 -2.3569 -0.689169 0.0760682 8
1.02873 -2.35468 -0.593236 0.0801566 8
1.02639 -2.34931 -0.498339 0.0832524 8
1.0261 -2.34865 -0.405941 0.0869511 8
1.03013 -2.35788 -0.315935 0.0878524 8
1.02505 -2.34625 -0.224005 0.0866969 8
8.14845 -18.6511 1.06668 5.519e-05 10
6.01834 -13.7754 1.31519 0.00165653 10
6.01522 -13.7683 1.84483 0.00163524 10
6.01716 -13.7727 2.38049 0.00160719 10
6.01056 -13.7576 2.91829 0.00157264 10
6.01312 -13.7635 3.46757 0.00153194 10
5.72262 -13.0986 3.83009 0.000720722 10
1.03994 -2.35785 -0.690505 0.0757159 8
1.03468 -2.34593 -0.59194 0.0797855 8
1.03923 -2.35626 -0.50058 0.0832772 8
1.04414 -2.36738 -0.409807 0.0869668 8
1.03968 -2.35728 -0.316339 0.0874458 8
1.035 -2.34666 -0.224388 0.0862957 8
8.21298 -18.6213 1.06661 5.5166e-05 10
6.07359 -13.7707 1.31676 0.0016478 10
6.07706 -13.7785 1.84903 0.00162661 10
6.07012 -13.7628 2.38242 0.0015987 10
6.07857 -13.782 2.92793 0.00156433 10
6.07167 -13.7663 3.4736 0.00152383 10
5.72818 -12.9875 3.80344 0.00074153 10
1.04342 -2.34356 -0.687382 0.0757503 8
1.05339 -2.36596 -0.597917 0.0798116 8
1.05411 -2.36756 -0.50376 0.0837046 8
1.05022 -2.35884 -0.408961 0.0865604 8
1.05162 -2.36197 -0.31746 0.0866147 8
1.04638 -2.35022 -0.225076 0.0854652 8
8.27144 -18.578 1.06577 5.51422e-05 10
5.72872 -12.8669 1.23224 0.000847127 10
6.11976 -13.7452 1.84742 0.00103855 10
6.12194 -13.7501 2.3839 0.00102073 10
6.1174 -13.7399 2.92352 0.000998786 10
6.11432 -13.733 3.47055 0.000972935 10
5.72398 -12.8563 3.77083 0.000762706 10
1.05998 -2.35857 -0.692866 0.0753927 8
1.0538 -2.34481 -0.593499 0.079832 8
1.05515 -2.34782 -0.50034 0.0833096 8
1.06038 -2.35946 -0.409707 0.0861519 8
1.05979 -2.35814 -0.317439 0.085365 8
1.0586 -2.3555 -0.225935 0.085062 8
8.3393 -18.5558 1.06616 5.51183e-05 10
5.72801 -12.7454 1.22251 0.000870976 10
6.15998 -13.7066 1.84511 0.000457295 10
6.16642 -13.7209 2.38256 0.000449713 10
6.16692 -13.722 2.92428 0.000440307 10
6.16568 -13.7193 3.47251 0.000429171 10
5.75299 -12.801 3.76048 0.000512477 10
1.06953 -2.35776 -0.693722 0.0750333 8
1.07156 -2.36225 -0.598855 0.0794516 8
1.06633 -2.3507 -0.501745 0.0833172 8
1.07099 -2.36098 -0.410617 0.0853294 8
1.06477 -2.34727 -0.316475 0.0849585 8
1.06787 -2.35411 -0.226157 0.0838104 8
8.4075 -18.5342 1.0666 5.50945e-05 10
5.7255 -12.6218 1.21257 0.000895236 10
5.80175 -12.7899 3.76315 0.000512437 10
1.07608 -2.35035 -0.692643 0.0754382 8
1.08264 -2.3647 -0.60043 0.0798562 8
1.07597 -2.35012 -0.502418 0.0829165 8
1.08075 -2.36055 -0.411197 0.0849191 8
1.07613 -2.35046 -0.31741 0.0841336 8
1.08328 -2.36609 -0.22767 0.0834075 8
8.47787 -18.5173 1.06732 5.50707e-05 10
5.73219 -12.5202 1.20472 0.000919908 10
5.84187 -12.7597 3.76026 0.000512396 10
1.09273 -2.36488 -0.698042 0.0750718 8
1.09392 -2.36747 -0.602101 0.0794685 8
1.09258 -2.36457 -0.50632 0.0829145 8
1.08528 -2.34877 -0.409801 0.0836904 8
1.09032 -2.35967 -0.319165 0.0837253 8
1.08915 -2.35714 -0.227173 0.0830028 8
8.54381 -18.4905 1.06749 5.5047e-05 10
5.72157 -12.3826 1.1934 0.000944994 10
5.88546 -12.7373 3.75968 0.000512356 10
1.09432 -2.34677 -0.693821 0.0754622 8
1.09654 -2.35153 -0.599018 0.0794686 8
1.09655 -2.35157 -0.504353 0.0829069 8
1.10097 -2.36105 -0.412612 0.0832805 8
1.09964 -2.35818 -0.319481 0.0824903 8
1.09361 -2.34525 -0.226394 0.081762 8
8.60915 -18.4624 1.0676 5.50233e-05 10
5.7306 -12.2893 1.18632 0.000970495 10
5.93363 -12.7247 3.76205 0.000512316 10
1.10477 -2.34775 -0.695247 0.0750889 8
1.10794 -2.35449 -0.600751 0.0786879 8
1.10511 -2.34848 -0.504514 0.0828935 8
1.10786 -2.35433 -0.41211 0.0824645 8
1.10406 -2.34626 -0.318386 0.0820825 8
1.11352 -2.36634 -0.228804 0.0813578 8
8.6726 -18.4302 1.06748 5.49997e-05 10
5.72435 -12.1649 1.17623 0.000996412 10
5.9739 -12.6952 3.75947 0.000512275 10
1.11311 -2.34421 -0.695345 0.0750894 8
1.1185 -2.35555 -0.602016 0.0790664 8
1.11221 -2.34232 -0.504021 0.0824798 8
1.119 -2.3566 -0.41319 0.082053 8
1.1216 -2.36208 -0.321062 0.0812646 8
1.11882 -2.35623 -0.228202 0.080539 8
8.73828 -18.4028 1.06765 5.49761e-05 10
5.72946 -12.0662 1.16862 0.00102275 10
6.02253 -12.6834 3.76218 0.000512235 10
1.12874 -2.35586 -0.699966 0.0750845 8
1.12798 -2.35427 -0.602691 0.0790519 8
1.12231 -2.34244 -0.504889 0.0816717 8
1.13087 -2.36031 -0.41453 0.0812396 8
1.13281 -2.36435 -0.321906 0.0804491 8
1.12662 -2.35143 -0.228117 0.0797225 8
8.7952 -18.357 1.06677 5.49525e-05 10
5.72316 -11.9452 1.15882 0.00104951 10
6.06207 -12.6525 3.75927 0.000512195 10
1.14035 -2.35893 -0.702055 0.0750744 8
1.13873 -2.35558 -0.60404 0.07865 8
1.13937 -2.3569 -0.508859 0.0804753 8
1.14285 -2.36411 -0.415895 0.0808267 8
1.13887 -2.35588 -0.321292 0.0800404 8
1.14512 -2.3688 -0.230188 0.0789086 8
6.09613 -12.6105 0.244487 0.000791875 10
6.0869 -12.5914 0.732946 0.000788935 10
5.71994 -11.8323 1.1498 0.00107669 10
6.0826 -12.5825 3.74474 0.000530971 10
1.14273 -2.34295 -0.698483 0.0746891 8
1.15271 -2.3634 -0.607073 0.0786263 8
1.15196 -2.36186 -0.510796 0.0804512 8
1.15064 -2.35916 -0.415729 0.0800161 8
1.14406 -2.34567 -0.320443 0.0792278 8
1.15229 -2.36255 -0.229971 0.0785041 8
6.10338 -12.5138 -0.729666 0.00168253 10
6.09666 -12.5 -0.242757 0.00168968 10
6.10683 -12.5209 0.243162 0.00168966 10
6.10082 -12.5085 0.72936 0.00168249 10
5.7251 -11.7382 1.1426 0.00110429 10
6.11125 -12.5299 3.73543 0.000333557 10
1.15334 -2.3439 -0.699963 0.0746702 8
1.15378 -2.34479 -0.603325 0.0785972 8
1.1628 -2.36312 -0.511943 0.0796482 8
1.15583 -2.34896 -0.41464 0.079208 8
1.15841 -2.35421 -0.32216 0.0784178 8
1.1648 -2.36719 -0.230817 0.0772886 8
6.15029 -12.499 -0.730054 0.00167272 10
6.15686 -12.5124 -0.243413 0.00167983 10
6.1526 -12.5037 0.243245 0.00167982 10
6.15183 -12.5022 0.730237 0.00167269 10
5.71985 -11.6243 1.13344 0.00113232 10
6.15671 -12.5121 3.7365 0.000333531 10
1.16776 -2.35243 -0.703722 0.0742801 8
1.16584 -2.34856 -0.605338 0.0781867 8
1.16935 -2.35565 -0.511204 0.0788477 8
1.16832 -2.35356 -0.416168 0.0784025 8
1.17431 -2.36563 -0.324282 0.0780084 8
1.16738 -2.35168 -0.2297 0.0768852 8
6.0866 -12.2614 -0.717409 0.000849752 10
6.08508 -12.2583 -0.238882 0.000853801 10
6.08525 -12.2587 0.238889 0.000854242 10
6.08439 -12.2569 0.717148 0.000851071 10
5.71567 -11.5141 1.12464 0.00116077 10
5.71873 -11.5203 1.57921 0.00114677 10
5.72307 -11.529 2.03863 0.00112811 10
5.71892 -11.5207 2.50013 0.00110497 10
5.72218 -11.5273 2.97113 0.00107757 10
5.72154 -11.526 3.44796 0.00104618 10
1.17396 -2.34434 -0.702523 0.0296019 8
1.17185 -2.34014 -0.604217 0.0304246 8
1.17146 -2.33935 -0.508552 0.0311457 8
1.16943 -2.33529 -0.413658 0.0317591 8
1.16551 -2.32747 -0.319606 0.0322595 8
1.17113 -2.33869 -0.228829 0.0326426 8
6.12961 -12.2406 -0.717438 0.0017446 10
6.12809 -12.2375 -0.238893 0.001752 10
6.1321 -12.2455 0.239049 0.00175198 10
6.13304 -12.2474 0.717839 0.00174457 10
5.75186 -11.4862 1.12387 0.00238446 10
5.75593 -11.4943 1.57839 0.00235447 10
5.75928 -11.501 2.03721 0.00231494 10
5.75802 -11.4985 2.49966 0.00226625 10
5.74856 -11.4796 2.964 0.00220886 10
5.74808 -11.4786 3.43978 0.00214333 10
1.17824 -2.33252 -0.700209 0.0608731 8
1.16643 -2.30915 -0.597263 0.0625337 8
1.17137 -2.31892 -0.504995 0.0639847 8
1.1762 -2.32849 -0.413177 0.0652136 8
1.17105 -2.31828 -0.318904 0.0662097 8
1.17619 -2.32846 -0.228229 0.0669644 8
6.09268 -12.0614 -0.708183 0.000892724 10
6.08565 -12.0475 -0.235597 0.000896963 10
6.08532 -12.0469 0.235584 0.00089742 10
6.09148 -12.0591 0.708043 0.000894089 10
5.81006 -11.502 1.12739 0.00237034 10
5.80129 -11.4846 1.57983 0.00234052 10
5.79876 -11.4796 2.03699 0.00230121 10
5.811 -11.5038 2.50521 0.0022528 10
5.80436 -11.4907 2.97207 0.00219574 10
5.80913 -11.5001 3.45227 0.00213059 10
1.18834 -2.33225 -0.701369 0.0605467 8
1.18034 -2.31656 -0.600242 0.0621985 8
1.18783 -2.33125 -0.508581 0.0636418 8
1.1812 -2.31825 -0.412089 0.0648642 8
1.18102 -2.31788 -0.319414 0.065855 8
1.18759 -2.33077 -0.22886 0.0666057 8
6.098 -11.968 -0.703942 0.00182107 10
6.10233 -11.9765 -0.234623 0.00182877 10
6.10495 -11.9816 0.234724 0.00182875 10
6.10176 -11.9754 0.704375 0.00182103 10
5.84824 -11.4778 1.12702 0.00235618 10
5.85455 -11.4902 1.5834 0.00232653 10
5.85546 -11.492 2.04281 0.00228745 10
5.85012 -11.4815 2.50479 0.00223931 10
5.85797 -11.4969 2.97896 0.00218258 10
5.85959 -11.5001 3.45838 0.0021178 10
1.18698 -2.30962 -0.695807 0.0602192 8
1.19724 -2.32958 -0.604696 0.0618621 8
1.19055 -2.31656 -0.506281 0.0632977 8
1.1961 -2.32735 -0.414448 0.0645135 8
1.19533 -2.32587 -0.321088 0.065499 8
1.18701 -2.30966 -0.227193 0.0662457 8
6.15271 -11.9719 -0.705428 0.00181003 10
6.14531 -11.9575 -0.234669 0.00181769 10
6.15683 -11.9799 0.235109 0.00181767 10
6.14414 -11.9552 0.704446 0.00181 10
5.90999 -11.4996 1.13117 0.00234197 10
5.90951 -11.4987 1.5874 0.00231249 10
5.90769 -11.4951 2.04702 0.00227364 10
5.90525 -11.4904 2.5112 0.00222578 10
5.90365 -11.4873 2.98178 0.00216939 10
5.90946 -11.4986 3.4641 0.00210498 10
1.20787 -2.33021 -0.703274 0.0598906 8
1.20269 -2.32022 -0.603352 0.0615246 8
1.20879 -2.33199 -0.51057 0.0629524 8
1.20083 -2.31664 -0.413284 0.0641617 8
1.20566 -2.32596 -0.32168 0.0651419 8
1.20322 -2.32126 -0.228745 0.0658845 8
6.09037 -11.7495 -0.693575 0.000959588 10
6.08044 -11.7304 -0.230627 0.000964122 10
6.07864 -11.7269 0.230559 0.000964601 10
6.08875 -11.7464 0.693391 0.00096102 10
5.95272 -11.484 1.13167 0.00232772 10
5.95596 -11.4902 1.58909 0.00229842 10
5.96104 -11.5 2.05158 0.00225979 10
5.94911 -11.477 2.5128 0.00221222 10
5.95955 -11.4971 2.98972 0.00215615 10
5.95912 -11.4963 3.46967 0.00209212 10
1.21033 -2.31514 -0.699998 0.0595609 8
1.21231 -2.31894 -0.604117 0.061186 8
1.21939 -2.33247 -0.511605 0.0626061 8
1.21403 -2.32222 -0.415033 0.0638087 8
1.21562 -2.32527 -0.322169 0.0647836 8
1.2167 -2.32733 -0.229761 0.0655222 8
6.12032 -11.7071 -0.692328 0.00189083 10
6.11383 -11.6947 -0.230344 0.00189881 10
6.12255 -11.7114 0.230672 0.00189879 10
6.11461 -11.6962 0.691681 0.00189079 10
6.01034 -11.4967 1.13499 0.00231344 10
6.00936 -11.4949 1.59263 0.00228431 10
6.00367 -11.484 2.05244 0.00224591 10
6.00627 -11.4889 2.51999 0.00219861 10
6.00461 -11.4858 2.9922 0.00214288 10
6.01112 -11.4982 3.47656 0.00207923 10
1.23672 -2.34565 -0.710523 0.0736248 8
1.23729 -2.34672 -0.612475 0.0738253 8
1.24771 -2.36649 -0.52002 0.0736881 8
1.24184 -2.35537 -0.421729 0.0732173 8
1.24139 -2.35451 -0.326818 0.0728038 8
1.23996 -2.35179 -0.232602 0.0716965 8
1.24923 -2.36938 -0.140376 0.00413045 8
6.17111 -11.7045 -0.230961 0.00188703 10
6.16086 -11.6851 0.230577 0.00188702 10
6.16284 -11.6889 0.692518 0.00187906 10
6.05347 -11.4814 1.13556 0.00229911 10
6.05696 -11.488 1.5946 0.00227016 10
6.05852 -11.491 2.05747 0.00223199 10
6.05744 -11.489 2.52462 0.00218497 10
6.05719 -11.4885 2.9984 0.00212957 10
6.06295 -11.4994 3.4833 0.00206631 10
1.24751 -2.34622 -0.71201 0.072862 8
1.25384 -2.35814 -0.616593 0.0734118 8
1.24739 -2.34599 -0.516469 0.0729073 8
1.2515 -2.35373 -0.422216 0.0728074 8
1.25499 -2.36029 -0.328227 0.0720152 8
1.25297 -2.3565 -0.233499 0.0712952 8
1.25631 -2.36277 -0.140243 0.00413186 8
6.08492 -11.4441 -0.226239 0.0010342 10
6.08306 -11.4406 0.226169 0.0010347 10
6.08395 -11.4422 0.67916 0.00103086 10
6.07917 -11.4333 1.13289 0.00120726 10
6.07932 -11.4335 1.58997 0.00119265 10
6.07269 -11.4211 2.04873 0.0011732 10
6.07189 -11.4196 2.51401 0.00114908 10
6.07891 -11.4328 2.98938 0.00112053 10
6.07735 -11.4298 3.46863 0.00108783 10
1.2633 -2.35605 -0.716327 0.0724503 8
1.25715 -2.34458 -0.614192 0.0722815 8
1.26289 -2.35528 -0.51948 0.0724955 8
1.2566 -2.34356 -0.421175 0.0723963 8
1.26314 -2.35574 -0.328206 0.0716086 8
1.26315 -2.35576 -0.23386 0.0701263 8
1.2676 -2.36406 -0.140581 0.0041103 8
6.13283 -11.4377 -0.226534 0.00197287 10
6.12316 -11.4196 0.226177 0.00197286 10
6.12568 -11.4243 0.679363 0.00196456 10
6.07339 -11.3268 1.12443 0.00123529 10
6.07182 -11.3239 1.57766 0.00122035 10
6.08417 -11.3469 2.03923 0.00120046 10
6.07226 -11.3247 2.49778 0.0011758 10
6.07467 -11.3292 2.96782 0.00114661 10
6.06961 -11.3198 3.44163 0.00111317 10
1.27787 -2.36336 -0.719903 0.0716911 8
1.26785 -2.34484 -0.615415 0.0718697 8
1.2775 -2.36269 -0.522096 0.0717185 8
1.27127 -2.35116 -0.423336 0.071613 8
1.26985 -2.34853 -0.327817 0.0708242 8
1.26739 -2.34398 -0.233129 0.069346 8
1.282 -2.37102 -0.141261 0.00408872 8
6.07725 -11.2396 -0.223031 0.00108255 10
6.07579 -11.2369 0.222977 0.00108307 10
6.08274 -11.2498 0.670241 0.00107905 10
6.07174 -11.2294 1.11687 0.0012637 10
6.07259 -11.231 1.56767 0.00124843 10
6.07209 -11.2301 2.02203 0.00122809 10
6.0792 -11.2432 2.48448 0.00120288 10
6.08183 -11.2481 2.95212 0.00117304 10
6.07687 -11.2389 3.42348 0.00113885 10
1.28704 -2.36059 -0.720422 0.0712791 8
1.28076 -2.34909 -0.617699 0.0714567 8
1.28996 -2.36595 -0.523808 0.0709446 8
1.28153 -2.35049 -0.424018 0.0708327 8
1.28708 -2.36067 -0.330137 0.0704174 8
1.28959 -2.36528 -0.235694 0.0689478 8
1.29011 -2.36623 -0.141243 0.00406713 8
6.07885 -11.1494 -0.22166 0.0020646 10
6.08785 -11.1659 0.221988 0.00206459 10
6.07892 -11.1495 0.665527 0.00205593 10
6.0824 -11.1559 1.11166 0.00129249 10
6.08039 -11.1522 1.55962 0.00127688 10
6.08202 -11.1552 2.01235 0.00125609 10
6.07967 -11.1509 2.46875 0.00123032 10
6.07148 -11.1359 2.92821 0.00119983 10
6.06839 -11.1302 3.3968 0.00116489 10
1.29476 -2.35516 -0.72014 0.0705237 8
1.29906 -2.36298 -0.62254 0.0703394 8
1.29264 -2.35131 -0.521562 0.0705336 8
1.29821 -2.36144 -0.426808 0.0696889 8
1.29359 -2.35304 -0.329699 0.0692649 8
1.28832 -2.34344 -0.233965 0.0677954 8
1.29426 -2.35425 -0.140797 0.0671703 8
6.13387 -11.1575 -0.222245 0.00205131 10
6.13946 -11.1676 0.222447 0.0020513 10
6.13556 -11.1606 0.66746 0.00204269 10
6.08369 -11.0662 1.10483 0.00132166 10
6.07007 -11.0414 1.54708 0.00130571 10
6.06862 -11.0388 1.99516 0.00128446 10
6.07027 -11.0418 2.44926 0.00125813 10
6.07913 -11.0579 2.91327 0.00122697 10
6.07738 -11.0547 3.38021 0.00119126 10
1.30378 -2.35208 -0.720584 0.0697711 8
1.30497 -2.35423 -0.621431 0.0699283 8
1.30016 -2.34555 -0.521289 0.0701216 8
1.3076 -2.35898 -0.427186 0.0692819 8
1.2992 -2.34382 -0.329039 0.0684902 8
1.30015 -2.34554 -0.234625 0.0673995 8
1.3029 -2.35049 -0.140843 0.0660236 8
6.07373 -10.9573 -0.218678 0.00115753 10
6.0803 -10.9692 0.218915 0.00115807 10
6.07833 -10.9656 0.657066 0.00115377 10
6.08162 -10.9715 1.09749 0.00135122 10
6.07308 -10.9561 1.53809 0.00133492 10
6.07755 -10.9642 1.9855 0.00131321 10
6.07737 -10.9639 2.43667 0.00128631 10
6.07249 -10.9551 2.89174 0.00125447 10
6.07446 -10.9586 3.35729 0.00121799 10
1.31641 -2.35544 -0.723018 0.0690216 8
1.3089 -2.34201 -0.619408 0.0691687 8
1.31744 -2.35727 -0.524913 0.0689972 8
1.30937 -2.34284 -0.425089 0.0685114 8
1.31042 -2.34472 -0.329807 0.0680869 8
1.31536 -2.35356 -0.235886 0.0666304 8
1.31387 -2.3509 -0.141141 0.0656348 8
6.08731 -10.892 -0.217797 0.00214869 10
6.08781 -10.8929 0.217815 0.00214867 10
6.08619 -10.89 0.653802 0.00213968 10
6.08209 -10.8826 1.09071 0.00138116 10
6.08082 -10.8804 1.53042 0.00136451 10
6.07047 -10.8618 1.97079 0.00134234 10
6.07502 -10.87 2.4205 0.00131486 10
6.07307 -10.8665 2.87394 0.00128233 10
6.06871 -10.8587 3.33315 0.00124507 10
1.32042 -2.34337 -0.720724 0.0682751 8
1.32758 -2.35608 -0.624352 0.0684123 8
1.33227 -2.3644 -0.527532 0.0685874 8
1.32437 -2.35038 -0.427293 0.0677442 8
1.32174 -2.34571 -0.330593 0.0669509 8
1.33368 -2.3669 -0.237688 0.0662348 8
1.32185 -2.3459 -0.141118 0.0648724 8
6.13171 -10.882 -0.218025 0.00213454 10
6.13705 -10.8915 0.218215 0.00213452 10
6.13313 -10.8845 0.654759 0.00212559 10
6.07387 -10.7794 1.08248 0.00141149 10
6.06731 -10.7677 1.51755 0.00139448 10
6.0682 -10.7693 1.95783 0.00137183 10
6.07182 -10.7757 2.40422 0.00134377 10
6.0748 -10.781 2.85693 0.00131055 10
6.06947 -10.7716 3.31289 0.00127249 10
1.33457 -2.34927 -0.723965 0.067866 8
1.34138 -2.36125 -0.62696 0.067659 8
1.33348 -2.34735 -0.524762 0.0678252 8
1.33258 -2.34576 -0.427297 0.0673385 8
1.34143 -2.36135 -0.333454 0.06655 8
1.33768 -2.35475 -0.236935 0.0654705 8
1.34002 -2.35887 -0.142178 0.0641135 8
6.07042 -10.6859 -0.214518 0.00187043 10
6.08313 -10.7082 0.214967 0.00187128 10
6.07212 -10.6889 0.644259 0.00186434 10
6.08088 -10.7043 1.07707 0.0014422 10
6.07904 -10.701 1.51113 0.00142483 10
6.06916 -10.6837 1.9461 0.0014017 10
6.07841 -10.6999 2.39203 0.00137305 10
6.07368 -10.6916 2.83884 0.00133913 10
6.0715 -10.6878 3.29361 0.00130027 10
1.34167 -2.34269 -0.723377 0.0671237 8
1.34149 -2.34238 -0.623187 0.0672504 8
1.34546 -2.34931 -0.526248 0.066717 8
1.35418 -2.36453 -0.431573 0.066576 8
1.34592 -2.35011 -0.332529 0.0654254 8
1.34327 -2.34548 -0.236473 0.0650753 8
1.35233 -2.3613 -0.142608 0.0633581 8
6.07587 -10.6091 -0.213401 0.00191075 10
6.07635 -10.6099 0.213418 0.00191162 10
6.08208 -10.6199 0.641378 0.00190453 10
6.07862 -10.6139 1.0701 0.0014733 10
6.07188 -10.6021 1.50014 0.00145556 10
6.07565 -10.6087 1.9363 0.00143195 10
6.0783 -10.6133 2.37739 0.00140269 10
6.06566 -10.5912 2.81779 0.00136806 10
6.06849 -10.5962 3.2719 0.00132839 10
1.36092 -2.35718 -0.729315 0.0663845 8
1.35934 -2.35444 -0.627656 0.0665015 8
1.36044 -2.35635 -0.528886 0.0659637 8
1.35333 -2.34404 -0.428693 0.0658168 8
1.35178 -2.34135 -0.331956 0.0650272 8
1.36296 -2.36071 -0.238487 0.0639525 8
1.35907 -2.35398 -0.142452 0.0626064 8
6.07428 -10.521 -0.212054 0.00195158 10
6.07553 -10.5231 0.212098 0.00195246 10
6.06774 -10.5096 0.635993 0.00194521 10
6.06631 -10.5072 1.06147 0.00150478 10
6.07507 -10.5223 1.49185 0.00148667 10
6.06925 -10.5122 1.92255 0.00146257 10
6.0763 -10.5245 2.36223 0.0014327 10
6.06557 -10.5059 2.80069 0.00139736 10
6.06804 -10.5102 3.25185 0.00135686 10
1.37373 -2.36031 -0.731761 0.0653203 8
1.37661 -2.36524 -0.631813 0.0654188 8
1.37046 -2.35468 -0.529581 0.0652137 8
1.36381 -2.34326 -0.429419 0.0650612 8
1.36502 -2.34533 -0.333193 0.0642711 8
1.37448 -2.36159 -0.239059 0.063199 8
1.37733 -2.36649 -0.143499 0.0622223 8
6.07498 -10.4379 -0.210805 0.00199291 10
6.073 -10.4345 0.210736 0.0019938 10
6.07717 -10.4416 0.633158 0.0019864 10
6.07623 -10.44 1.05682 0.00197077 10
6.07827 -10.4435 1.48367 0.00151816 10
6.06499 -10.4207 1.90967 0.00149357 10
6.07626 -10.4401 2.34803 0.00146309 10
6.06417 -10.4193 2.78324 0.00142701 10
6.07282 -10.4342 3.23488 0.00138569 10
1.3881 -2.36595 -0.735009 0.0649159 8
1.38065 -2.35326 -0.629894 0.0650139 8
1.38555 -2.36161 -0.532223 0.065153 8
1.37712 -2.34724 -0.431027 0.0643092 8
1.38596 -2.36231 -0.336291 0.0638735 8
1.37916 -2.35072 -0.238444 0.0624492 8
1.37941 -2.35116 -0.14286 0.0614759 8
6.07571 -10.3558 -0.209575 0.00203473 10
6.06747 -10.3418 0.20929 0.00203564 10
6.0764 -10.357 0.629307 0.00202808 10
6.07258 -10.3505 1.04989 0.00201213 10
6.07027 -10.3465 1.4729 0.00155003 10
6.07057 -10.347 1.90004 0.00152493 10
