VERSION 0.7
FIELDS x y z intensity label
SIZE 4 4 4 4 4
TYPE F F F F F
COUNT 1 1 1 1 1
WIDTH 1162
HEIGHT 1
VIEWPOINT 1.58908 10.9171 2.7288 0.880061 -0.000391068 0.000568537 0.474859
POINTS 1162
DATA ascii
0.752664 16.5749 -2.62791 0.00102107 10
0.87325 19.2304 -2.36363 9.73136e-05 10
1.21236 26.698 -2.33818 0.00039346 10
1.21353 26.7239 0.466948 0.000399031 10
0.91341 20.1148 1.05526 4.14795e-05 10
0.682772 15.0357 1.31681 0.00145107 10
0.68305 15.0419 1.84881 0.00143229 10
0.683741 15.0571 2.38726 0.00140758 10
0.683085 15.0426 2.92701 0.00137719 10
0.683618 15.0544 3.47916 0.00134141 10
0.709783 15.6306 4.19252 0.000854345 10
0.425459 10.1512 -2.72239 0.000615807 1
0.494706 11.8033 -2.72741 0.000382854 1
0.586761 13.9997 -2.72366 0.000216863 1
0.697778 16.6485 -2.63918 0.0010035 10
0.806214 19.2357 -2.36392 9.72998e-05 10
1.11679 26.6458 -2.33325 0.000397372 10
1.11707 26.6525 0.465629 0.000402995 10
0.842627 20.1045 1.05456 4.14935e-05 10
0.633655 15.1186 1.32386 0.00103578 10
0.633132 15.1061 1.85642 0.00102273 10
0.632332 15.087 2.39164 0.00100544 10
0.63269 15.0956 2.93685 0.000984079 10
0.632783 15.0978 3.48865 0.000958857 10
0.658967 15.7225 4.21653 0.000839746 10
0.390179 10.1566 -2.72346 0.00061577 1
0.45329 11.7994 -2.72612 0.000382827 1
0.538037 14.0054 -2.72439 0.000216844 1
0.642455 16.7235 -2.6507 0.000986104 10
0.739178 19.2413 -2.36427 9.72859e-05 10
1.0207 26.5694 -2.32624 0.00040129 10
1.02438 26.6653 -1.3985 0.000401441 10
1.0244 26.6658 -0.465796 0.000403324 10
1.02084 26.5731 0.464177 0.000406965 10
0.773165 20.126 1.05554 4.15075e-05 10
0.606391 15.7847 1.382 0.00091981 10
0.606532 15.7884 1.94 0.000908143 10
0.606333 15.7832 2.50166 0.000892687 10
0.607163 15.8048 3.07442 0.000873593 10
0.606979 15.8001 3.65042 0.000851051 10
0.606769 15.7946 4.23527 0.000825282 10
0.355309 10.1746 -2.72794 0.000615734 1
0.412015 11.7984 -2.72555 0.0003828 1
0.48967 14.0222 -2.72729 0.000216825 1
0.587349 16.8193 -2.66554 0.000968867 10
0.672588 19.2602 -2.3663 9.72721e-05 10
0.925618 26.506 -2.32039 0.000405215 10
0.925764 26.5101 0.463018 0.000410943 10
0.702715 20.1229 1.05524 4.15215e-05 10
0.554909 15.8903 1.39107 0.000903908 10
0.554237 15.8711 1.94991 0.000892435 10
0.554075 15.8665 2.51453 0.000877237 10
0.554185 15.8696 3.08662 0.00085846 10
0.553922 15.8621 3.66428 0.000836292 10
0.553875 15.8607 4.25246 0.000810951 10
0.319169 10.1561 -2.72266 0.000615697 1
0.371107 11.8088 -2.72762 0.000382773 1
0.44056 14.0188 -2.72633 0.000216807 1
0.531268 16.9052 -2.67884 0.00095179 10
0.604752 19.2435 -2.36397 9.72582e-05 10
0.831197 26.449 -2.31513 0.000409147 10
0.831321 26.453 0.461966 0.000414927 10
0.632464 20.1253 1.05524 4.15355e-05 10
0.501254 15.9501 1.39614 0.000888151 10
0.501364 15.9536 1.95982 0.000876871 10
0.501445 15.9562 2.52846 0.000861927 10
0.501575 15.9603 3.10391 0.000843464 10
0.50117 15.9475 3.68358 0.000821669 10
0.501787 15.9671 4.28048 0.000796753 10
0.283905 10.1639 -2.72446 0.00061566 1
0.329916 11.8111 -2.72786 0.000382746 1
0.391663 14.0216 -2.72659 0.000216788 1
0.474327 16.981 -2.69058 0.000934879 10
0.537465 19.2413 -2.36346 9.72443e-05 10
0.737306 26.3957 -2.31022 0.000413085 10
0.724962 25.9538 -1.36071 0.000437846 10
0.724855 25.9499 -0.453135 0.000439887 10
0.737038 26.3861 0.46075 0.000418918 10
0.561707 20.1092 1.05429 4.15496e-05 10
0.447785 16.0308 1.40306 0.000872545 10
0.44814 16.0435 1.97066 0.000861456 10
0.448317 16.0498 2.54303 0.000846764 10
0.44826 16.0478 3.12059 0.000828614 10
0.447953 16.0368 3.70383 0.000807186 10
0.448036 16.0398 4.29951 0.000782691 10
0.248696 10.176 -2.72746 0.000615623 1
0.288218 11.7931 -2.72347 0.000382719 1
0.342897 14.0305 -2.72806 0.00021677 1
0.417272 17.0737 -2.70501 0.00091813 10
0.470577 19.2548 -2.36489 9.72304e-05 10
0.643859 26.345 -2.30558 0.00041703 10
0.636026 26.0245 -1.36429 0.000301405 10
0.636114 26.0281 -0.454458 0.000302932 10
0.643596 26.3342 0.459803 0.000422916 10
0.643717 26.3392 1.38079 0.000328149 10
0.393689 16.1087 1.40975 0.000857086 10
0.393949 16.1194 1.9798 0.000846186 10
0.393877 16.1164 2.55335 0.000831744 10
0.393684 16.1085 3.13211 0.000813903 10
0.393786 16.1127 3.72101 0.00079284 10
0.39396 16.1198 4.32058 0.000768762 10
0.21328 10.1817 -2.72879 0.000615586 1
0.247577 11.8191 -2.72925 0.000382692 1
0.293876 14.0293 -2.72762 0.000216751 1
0.359369 17.1559 -2.71783 0.000901547 10
0.403221 19.2493 -2.36404 9.72166e-05 10
0.550172 26.2646 -2.29836 0.00042098 10
0.54783 26.1528 -1.37091 0.000295506 10
0.548114 26.1664 -0.456836 0.000297005 10
0.550642 26.287 0.458942 0.000426918 10
0.550209 26.2664 1.37687 0.000331255 10
0.339553 16.2099 1.41849 0.000841778 10
0.339547 16.2096 1.99073 0.000831065 10
0.339679 16.2159 2.56891 0.000816871 10
0.339574 16.2109 3.15177 0.000799336 10
0.339578 16.2111 3.74345 0.000778634 10
0.339515 16.2081 4.3439 0.00075497 10
0.177423 10.1646 -2.724 0.000615549 1
0.206106 11.8078 -2.72647 0.000382665 1
0.244982 14.035 -2.72854 0.000216732 1
0.300311 17.2048 -2.72539 0.000107199 1
0.336304 19.2669 -2.36604 9.72028e-05 10
0.457749 26.2244 -2.29469 0.000424936 10
0.457498 26.2101 -1.37382 0.000428967 10
0.457554 26.2133 -0.457624 0.000430972 10
0.457606 26.2163 0.457676 0.000430927 10
0.45759 26.2154 1.3741 0.000334367 10
0.284579 16.3035 1.42659 0.000826617 10
0.284294 16.2872 2.00012 0.00081609 10
0.284176 16.2805 2.57896 0.000802141 10
0.284225 16.2833 3.16563 0.00078491 10
0.284216 16.2827 3.75973 0.000764567 10
0.284038 16.2725 4.36088 0.000741312 10
0.142101 10.1764 -2.72703 0.000615512 1
0.164806 11.8024 -2.72507 0.000382638 1
0.195781 14.0207 -2.72561 0.000216714 1
0.240233 17.204 -2.72512 0.000107187 1
0.26901 19.2649 -2.36567 9.71889e-05 10
0.365241 26.1564 -2.28861 0.000428896 10
0.3652 26.1534 -1.37078 0.000432963 10
0.365323 26.1623 -0.456709 0.000434985 10
0.365245 26.1567 0.456611 0.00043494 10
0.365368 26.1655 1.37141 0.000337481 10
0.228833 16.3876 1.43387 0.000811608 10
0.228674 16.3763 2.01095 0.000801265 10
0.228655 16.3749 2.59379 0.00078756 10
0.228718 16.3795 3.18416 0.000770629 10
0.228666 16.3757 3.78099 0.000750641 10
0.228554 16.3677 4.38613 0.000727792 10
0.106443 10.1643 -2.72366 0.000615475 1
0.12369 11.8112 -2.72698 0.000382611 1
0.146737 14.012 -2.7238 0.000216695 1
0.180183 17.2057 -2.72526 0.000107176 1
0.201708 19.2612 -2.3651 9.7175e-05 10
0.273184 26.0864 -2.28239 0.000432862 10
0.273091 26.0775 -1.36674 0.000436964 10
0.273198 26.0877 -0.455388 0.000439004 10
0.27315 26.0832 0.455308 0.000438958 10
0.273394 26.1065 1.36826 0.0003406 10
0.172507 16.4727 1.44125 0.000796748 10
0.172242 16.4474 2.0196 0.000786587 10
0.172384 16.461 2.60731 0.000773123 10
0.1722 16.4434 3.19646 0.00075649 10
0.172464 16.4687 3.8023 0.000736853 10
0.172327 16.4556 4.4095 0.000714406 10
0.0710241 10.1731 -2.72594 0.000615438 1
0.0824542 11.8103 -2.72668 0.000382584 1
0.0979449 14.0291 -2.72704 0.000216677 1
0.120234 17.2216 -2.7277 0.000107164 1
0.12435 17.8112 -2.18699 0.000181322 10
0.181669 26.0212 -2.27662 0.000436831 10
0.181737 26.031 -1.36426 0.000440969 10
0.181811 26.0416 -0.454569 0.000443026 10
0.181706 26.0266 0.454307 0.00044298 10
0.181801 26.0402 1.36474 0.000343722 10
0.115601 16.558 1.44867 0.00078204 10
0.115562 16.5525 2.03244 0.000772059 10
0.115441 16.5352 2.61898 0.000758834 10
0.115566 16.553 3.21766 0.000742496 10
0.115403 16.5297 3.81628 0.000723207 10
0.115545 16.55 4.43467 0.000701159 10
0.0354899 10.1661 -2.72401 0.000615401 1
0.0412495 11.8159 -2.72793 0.000382557 1
0.0490104 14.039 -2.72892 0.000216658 1
0.0600419 17.199 -2.72407 0.000107152 1
0.0621585 17.8053 -2.18623 0.000181296 10
0.0906435 25.9648 -2.27164 0.000440804 10
0.0906789 25.9749 -1.3613 0.000444977 10
0.0906969 25.9801 -0.453487 0.000447052 10
0.0907078 25.9832 0.453541 0.000447006 10
0.0907225 25.9874 1.36195 0.000346847 10
0.0684375 19.6039 1.71513 0.000360137 10
0.090645 25.9652 3.18815 0.000338601 10
0.0907081 25.9833 4.11538 0.000332133 10
0.0682828 19.5596 3.80202 0.000445214 10
0.0682536 19.5512 4.51378 0.000433308 10
0.0684713 19.6136 5.25547 0.000321831 10
7.68523e-07 10.1794 -2.72756 0.000615364 1
8.91855e-07 11.813 -2.72724 0.00038253 1
1.05844e-06 14.0195 -2.72512 0.000216639 1
1.29989e-06 17.2176 -2.727 0.000107141 1
1.34347e-06 17.7949 -2.18493 0.00018127 10
1.95673e-06 25.9176 -2.2675 0.000444781 10
1.95693e-06 25.9203 -1.35843 0.00044899 10
1.95746e-06 25.9274 -0.452564 0.000451083 10
1.95662e-06 25.9162 0.452368 0.000451037 10
1.95757e-06 25.9288 1.35887 0.000349975 10
1.48914e-06 19.7242 1.72565 0.000353182 10
1.95713e-06 25.923 3.18294 0.000341659 10
1.9557e-06 25.904 4.1028 0.000335136 10
1.48421e-06 19.6589 3.82131 0.000436599 10
1.48589e-06 19.6812 4.54376 0.000424913 10
1.48761e-06 19.704 5.27966 0.000315583 10
-0.035551 10.1854 -2.72919 0.000615327 1
-0.0412045 11.8051 -2.72545 0.000382503 1
-0.0489068 14.0118 -2.72364 0.000216621 1
-0.0600427 17.2023 -2.72459 0.000107129 1
-0.0621406 17.8034 -2.18599 0.000804492 10
-0.0902085 25.8448 -2.26114 0.000448761 10
-0.0902068 25.8444 -1.35445 0.000453006 10
-0.0902427 25.8546 -0.451297 0.000455116 10
-0.0902401 25.8539 0.451284 0.00045507 10
-0.0902293 25.8508 1.35479 0.000353105 10
-0.0902732 25.8634 2.26276 0.000349725 10
-0.0902204 25.8483 3.17379 0.000344719 10
-0.0902593 25.8594 4.09575 0.000338142 10
-0.0902278 25.8504 5.02484 0.000330065 10
-0.090235 25.8524 5.96854 0.000320577 10
-0.0902494 25.8565 6.92828 0.000309779 10
-0.0710767 10.1808 -2.72802 0.00061529 1
-0.0824756 11.8136 -2.72745 0.000382475 1
-0.0978918 14.0218 -2.72562 0.000216602 1
-0.120175 17.2135 -2.72642 0.000107117 1
-0.124921 17.8934 -2.19709 0.000788969 10
-0.180145 25.8035 -2.25757 0.000452744 10
-0.180018 25.7853 -1.35138 0.000457024 10
-0.180119 25.7997 -0.450347 0.000459152 10
-0.18014 25.8028 0.4504 0.000459106 10
-0.180035 25.7877 1.35151 0.000356238 10
-0.180127 25.801 2.25735 0.00035283 10
-0.180063 25.7917 3.1669 0.000347782 10
-0.18019 25.81 4.088 0.00034115 10
-0.18016 25.8057 5.01624 0.000333006 10
-0.180169 25.8069 5.95814 0.000323438 10
-0.180164 25.8062 6.91492 0.00031255 10
-0.106519 10.1717 -2.72564 0.000615253 1
-0.123739 11.8161 -2.7281 0.000382448 1
-0.14683 14.0211 -2.72557 0.000216583 1
-0.180304 17.2175 -2.72713 0.000107106 1
-0.188496 17.9998 -2.21021 0.000773617 10
-0.269606 25.7451 -2.25253 0.00045673 10
-0.26957 25.7416 -1.34914 0.000461045 10
-0.269613 25.7457 -0.449418 0.000463191 10
-0.269546 25.7394 0.449307 0.000463144 10
-0.269615 25.746 1.34936 0.000359373 10
-0.269671 25.7513 2.25307 0.000355936 10
-0.269514 25.7363 3.16019 0.000350847 10
-0.269496 25.7346 4.07619 0.00034416 10
-0.269408 25.7262 5.00093 0.000335948 10
-0.269432 25.7285 5.94022 0.000326301 10
-0.269537 25.7385 6.897 0.000315322 10
-0.14225 10.1872 -2.72992 0.000615216 1
-0.164718 11.7963 -2.72365 0.000382421 1
-0.195806 14.0226 -2.72599 0.000216565 1
-0.240146 17.198 -2.72416 0.000107094 1
-0.252787 18.1033 -2.22302 0.000758434 10
-0.358468 25.6716 -2.24619 0.000460717 10
-0.35847 25.6718 -1.34553 0.000465068 10
-0.358472 25.6719 -0.448149 0.000467232 10
-0.358396 25.6665 0.448054 0.000467185 10
-0.358545 25.6772 1.34582 0.000362509 10
-0.358529 25.676 2.24658 0.000359045 10
-0.358448 25.6702 3.15222 0.000353913 10
-0.35868 25.6868 4.06879 0.000347171 10
-0.358494 25.6735 4.9909 0.000338892 10
-0.358687 25.6873 5.93096 0.000329165 10
-0.358755 25.6922 6.88488 0.000318096 10
-0.177675 10.1791 -2.7279 0.000615179 1
-0.206139 11.8098 -2.72693 0.000382394 1
-0.244638 14.0154 -2.72474 0.000216546 1
-0.300547 17.2185 -2.72756 0.000107082 1
-0.317748 18.2039 -2.2355 0.000743421 10
-0.447018 25.6099 -2.24092 0.000464706 10
-0.447032 25.6107 -1.3424 0.000469093 10
-0.447228 25.622 -0.447301 0.000471275 10
-0.447242 25.6227 0.447314 0.000471227 10
-0.447296 25.6258 1.3432 0.000365647 10
-0.44722 25.6215 2.24193 0.000362154 10
-0.447428 25.6334 3.14787 0.000356981 10
-0.447456 25.635 4.0608 0.000350184 10
-0.447216 25.6212 4.98102 0.000341837 10
-0.447468 25.6357 5.91937 0.000332031 10
-0.447099 25.6145 6.86444 0.000320871 10
-0.21344 10.1895 -2.73086 0.000615142 1
-0.247237 11.8029 -2.72552 0.000382367 1
-0.293636 14.018 -2.72542 0.000216527 1
-0.360606 17.2151 -2.72719 0.000107071 1
-0.383041 18.2861 -2.24574 0.000728577 10
-0.535356 25.5575 -2.23648 0.000468698 10
-0.535387 25.559 -1.33978 0.00047312 10
-0.535583 25.5683 -0.446395 0.000475319 10
-0.535429 25.561 0.446266 0.000475271 10
-0.535655 25.5718 1.34046 0.000368786 10
-0.535798 25.5786 2.23833 0.000365265 10
-0.535567 25.5676 3.13999 0.00036005 10
-0.535378 25.5585 4.04896 0.000353198 10
-0.535816 25.5795 4.97323 0.000344784 10
-0.535815 25.5794 5.90677 0.000334898 10
-0.535469 25.5629 6.85106 0.000323647 10
-0.248458 10.1663 -2.72486 0.000615105 1
-0.288267 11.7952 -2.72395 0.00038234 1
-0.34239 14.0098 -2.72404 0.000216509 1
-0.420904 17.2224 -2.72857 0.000107059 1
-0.449962 18.4114 -2.26131 0.000713905 10
-0.623524 25.5131 -2.23277 0.000472689 10
-0.623477 25.5112 -1.33738 0.000477147 10
-0.623624 25.5172 -0.445538 0.000479364 10
-0.623402 25.5081 0.445379 0.000479316 10
-0.623526 25.5132 1.33749 0.000371925 10
-0.623665 25.5189 2.23328 0.000368376 10
-0.623642 25.518 3.13415 0.000363119 10
-0.623326 25.505 4.0408 0.000356213 10
-0.623416 25.5087 4.95987 0.000347731 10
-0.623271 25.5028 5.88954 0.000337766 10
-0.623097 25.4956 6.83358 0.000326425 10
-0.284396 10.1816 -2.72923 0.000615068 1
-0.329912 11.8112 -2.72789 0.000382312 1
-0.392018 14.0346 -2.72912 0.00021649 1
-0.480701 17.2096 -2.72679 0.000107047 1
-0.517014 18.5096 -2.27358 0.000699403 10
-0.710408 25.4333 -2.22599 0.000476682 10
-0.710763 25.446 -1.33409 0.000481175 10
-0.711127 25.4591 -0.444563 0.00048341 10
-0.710494 25.4364 0.444167 0.000483361 10
-0.710646 25.4418 1.33387 0.000375065 10
-0.711208 25.4619 2.2285 0.000371488 10
-0.710856 25.4494 3.12601 0.000366189 10
-0.710922 25.4517 4.03272 0.000359228 10
-0.710893 25.4506 4.94903 0.000350679 10
-0.711197 25.4616 5.88055 0.000340634 10
-0.711101 25.4581 6.82414 0.000329202 10
-0.319745 10.1745 -2.72758 0.000615031 1
-0.370666 11.7948 -2.72439 0.000382285 1
-0.44106 14.0348 -2.72943 0.000216471 1
-0.540413 17.1962 -2.72496 0.000107036 1
-0.58454 18.6004 -2.28497 0.000685069 10
-0.79818 25.3985 -2.22318 0.000480675 10
-0.798231 25.4002 -1.33182 0.000485204 10
-0.797862 25.3884 -0.443376 0.000487456 10
-0.797545 25.3783 0.443199 0.000487407 10
-0.797665 25.3822 1.33088 0.000378206 10
-0.797549 25.3785 2.22142 0.0003746 10
-0.798304 25.4025 3.12057 0.00036926 10
-0.797907 25.3899 4.02334 0.000362244 10
-0.797945 25.3911 4.93796 0.000353627 10
-0.798132 25.397 5.86626 0.000343503 10
-0.798383 25.405 6.81061 0.00033198 10
-0.354928 10.1639 -2.72507 0.000614994 1
-0.412494 11.8124 -2.72876 0.000382258 1
-0.489641 14.0216 -2.72718 0.000216453 1
-0.600606 17.1993 -2.72575 0.000107024 1
-0.653682 18.7192 -2.29982 0.000670908 10
-0.884647 25.3332 -2.21772 0.000484667 10
-0.884158 25.3192 -1.32773 0.000489232 10
-0.884177 25.3197 -0.442227 0.000491502 10
-0.884688 25.3344 0.442482 0.000491453 10
-0.884456 25.3277 1.32818 0.000381346 10
-0.884889 25.3401 2.21832 0.000377712 10
-0.884782 25.337 3.11289 0.00037233 10
-0.884411 25.3264 4.01376 0.000365259 10
-0.884405 25.3263 4.92593 0.000356575 10
-0.885213 25.3494 5.85594 0.000346372 10
-0.884831 25.3385 6.79356 0.000334759 10
-0.390688 10.1699 -2.72703 0.000614957 1
-0.453805 11.8129 -2.72923 0.000382231 1
-0.538363 14.014 -2.72605 0.000216434 1
-0.660808 17.2013 -2.72643 0.000107012 1
-0.723371 18.8299 -2.31372 0.000656914 10
-0.954505 24.8465 -2.17539 0.000512763 10
-0.955024 24.86 -1.30382 0.000517572 10
-0.954566 24.8481 -0.434045 0.000519963 10
-0.971437 25.2872 0.441716 0.000495498 10
-0.954829 24.8549 1.30355 0.000403437 10
-0.954519 24.8468 2.17542 0.000399609 10
-0.954575 24.8483 3.05324 0.00039394 10
-0.970684 25.2676 4.00495 0.000368275 10
-0.954897 24.8567 4.83521 0.00037734 10
-0.954631 24.8498 5.74125 0.000366588 10
-0.954591 24.8487 6.6631 0.00035435 10
-0.42594 10.1627 -2.72547 0.000614919 1
-0.494185 11.791 -2.72455 0.000382204 1
-0.587997 14.0293 -2.72941 0.000216415 1
-0.720481 17.1902 -2.72506 0.000107001 1
-0.793353 18.9289 -2.32622 0.000643093 10
-1.04317 24.8895 -2.17946 0.000306568 10
-1.0429 24.8829 -1.3052 0.000309574 10
-1.04201 24.8617 -0.434344 0.000311136 10
-1.05643 25.2058 0.440355 0.000499543 10
-1.04198 24.861 1.30405 0.000241609 10
-1.04154 24.8504 2.17604 0.000239422 10
-1.04256 24.8749 3.05694 0.000236125 10
-1.05768 25.2357 4.00045 0.000371289 10
-1.03974 24.8076 4.82634 0.000380421 10
-1.04122 24.8428 5.74045 0.000220018 10
-1.04192 24.8596 6.66695 0.000212769 10
-0.461795 10.1695 -2.72772 0.000614882 1
-0.536292 11.81 -2.72937 0.000382176 1
-0.636622 14.0195 -2.72792 0.000216397 1
-0.781565 17.2114 -2.72883 0.000106989 1
-0.864513 19.038 -2.33999 0.00062944 10
-1.13551 25.0059 -2.18999 0.000299694 10
-1.13595 25.0156 -1.31236 0.000302638 10
-1.13522 24.9995 -0.436817 0.000304172 10
-1.14262 25.1624 0.439664 0.000503586 10
-1.13567 25.0095 1.31204 0.000236201 10
-1.13582 25.0128 2.19059 0.000234056 10
-1.13572 25.0104 3.07406 0.000230833 10
-1.14249 25.1595 3.98899 0.000374304 10
-1.12433 24.7596 4.81774 0.000383502 10
-1.13472 24.9883 5.77496 0.000215068 10
-1.13541 25.0037 6.70663 0.000207973 10
-0.497175 10.1655 -2.7271 0.000614845 1
-0.577138 11.8005 -2.72761 0.000382149 1
-0.684851 14.0029 -2.72513 0.000216378 1
-0.841389 17.2035 -2.72803 0.000106977 1
-0.936321 19.1445 -2.35346 0.000615959 10
-1.22833 25.1152 -2.19992 0.000500631 10
-1.22813 25.1111 -1.31759 0.000505337 10
-1.22758 25.0999 -0.438644 0.000507677 10
-1.22733 25.0946 0.438552 0.000507627 10
-1.22859 25.1204 1.31808 0.000251458 10
-1.22833 25.1151 2.19992 0.000249067 10
-1.2284 25.1165 3.0876 0.000245525 10
-1.22868 25.1223 3.98373 0.000377316 10
-1.20764 24.6922 4.80541 0.000386581 10
-1.2278 25.1043 5.80272 0.000228439 10
-1.22867 25.1221 6.73948 0.000220795 10
-0.533346 10.1768 -2.73061 0.000614808 1
-0.617851 11.7893 -2.7255 0.000382122 1
-0.733991 14.0054 -2.7261 0.000216359 1
-0.900618 17.1848 -2.72554 0.000106965 1
-1.16271 22.1859 -2.72782 4.26326e-05 1
-1.31751 25.1395 -2.20244 0.000292055 10
-1.31629 25.1163 -1.31809 0.000294928 10
-1.31735 25.1365 -0.439362 0.000507169 10
-1.31355 25.0639 0.438093 0.000511667 10
-1.31744 25.1383 1.31925 0.000251207 10
-1.31707 25.1311 2.20171 0.000248817 10
-1.31731 25.1358 3.09052 0.000245278 10
-1.3124 25.042 3.97171 0.000380328 10
-1.29074 24.6286 4.79389 0.00038966 10
-1.31648 25.1199 5.80735 0.000228205 10
-1.31684 25.1268 6.74193 0.000220567 10
-0.568458 10.1676 -2.72866 0.000614771 1
-0.658734 11.7823 -2.72442 0.000382095 1
-0.783293 14.0103 -2.72757 0.00021634 1
-0.961627 17.2 -2.72847 0.000106954 1
-1.23931 22.1668 -2.72599 4.26262e-05 1
-1.39756 24.9973 0.43701 0.000515704 10
-1.40238 25.0834 1.31662 0.000253191 10
-1.39815 25.0079 3.96705 0.000383337 10
-1.37464 24.5873 4.78674 0.000392736 10
-0.602927 10.1485 -2.72407 0.000614734 1
-0.699918 11.781 -2.72466 0.000382068 1
-0.832481 14.0123 -2.72852 0.000216322 1
-1.0207 17.1804 -2.72591 0.000106942 1
-1.31633 22.1564 -2.72527 4.262e-05 1
-1.48135 24.9341 0.435994 0.000519739 10
-1.48671 25.0244 1.31378 0.000255173 10
-1.48187 24.9428 3.95751 0.000386345 10
-1.45735 24.5302 4.7766 0.00039581 10
-0.639208 10.1599 -2.72773 0.000614697 1
-0.742043 11.7945 -2.72835 0.00038204 1
-0.88137 14.009 -2.72845 0.000216303 1
-1.08097 17.1815 -2.72666 0.00010693 1
-1.39494 22.1719 -2.72775 4.26137e-05 1
-1.56592 24.8897 0.435309 0.000523771 10
-1.57028 24.9589 1.31063 0.000257155 10
-1.56652 24.8992 3.95144 0.000389351 10
-1.5394 24.468 4.76551 0.000398882 10
-0.675397 10.1686 -2.73068 0.00061466 1
-0.783464 11.7957 -2.72924 0.000382013 1
-0.929452 13.9936 -2.72608 0.000216284 1
-1.14088 17.1769 -2.72654 0.000106919 1
-1.47171 22.1578 -2.72662 4.26073e-05 1
-1.64924 24.8306 0.434374 0.000527799 10
-1.65492 24.9161 1.30868 0.000259134 10
-1.64976 24.8384 3.94269 0.000392354 10
-1.62264 24.4301 4.75919 0.000401951 10
-0.710023 10.1538 -2.72735 0.000614623 1
-0.825072 11.7991 -2.73068 0.000381986 1
-0.978497 13.9932 -2.72664 0.000216266 1
-1.20117 17.1776 -2.72731 0.000106907 1
-1.54875 22.1481 -2.72608 4.2601e-05 1
-1.73339 24.7886 0.433744 0.000531823 10
-1.73866 24.864 1.30625 0.000261112 10
-1.7043 24.3727 3.86968 0.000414797 10
-1.70294 24.3532 4.74533 0.000405017 10
-0.745886 10.1571 -2.7289 0.000614585 1
-0.864688 11.7748 -2.72576 0.000381959 1
-1.02699 13.9849 -2.72572 0.000216247 1
-1.26179 17.1823 -2.72874 0.000106895 1
-1.62608 22.1431 -2.72615 4.25947e-05 1
-1.81635 24.7341 0.432898 0.000535843 10
-1.82171 24.8071 1.30359 0.000263088 10
-1.78436 24.2985 3.85886 0.000417929 10
-1.78592 24.3196 4.73999 0.00040808 10
-0.781937 10.1622 -2.73099 0.000614548 1
-0.90595 11.7739 -2.72625 0.000381931 1
-1.07672 13.9932 -2.72804 0.000216228 1
-1.32135 17.1724 -2.72788 0.000106883 1
-1.7042 22.1481 -2.72748 4.25884e-05 1
-1.89773 24.6632 0.431769 0.000539858 10
-1.90291 24.7305 1.2999 0.000265061 10
-1.86758 24.2714 3.85557 0.000421059 10
-1.86706 24.2646 4.73051 0.00041114 10
-1.90327 24.7352 5.72745 0.000240866 10
-0.815374 10.1342 -2.72422 0.000614511 1
-0.948177 11.7847 -2.72952 0.000381904 1
-1.12543 13.9878 -2.72773 0.000216209 1
-1.38026 17.155 -2.72587 0.000106872 1
-1.78142 22.141 -2.72735 4.25821e-05 1
-1.98628 24.6871 -2.16682 0.000531648 10
-1.98704 24.6966 -1.29848 0.00053663 10
-1.9866 24.6911 -0.432378 0.000539109 10
-1.98019 24.6115 0.430984 0.000543869 10
-1.98544 24.6767 1.29743 0.000267032 10
-1.98738 24.7008 2.16802 0.000264508 10
-1.98649 24.6897 3.04131 0.00026076 10
-1.94873 24.2204 3.84853 0.000424184 10
-1.9475 24.2052 4.72021 0.000414195 10
-1.98611 24.6851 5.71741 0.000242667 10
-1.988 24.7086 6.64204 0.000234574 10
-0.851943 10.1456 -2.72806 0.000614474 1
-0.988415 11.7708 -2.72706 0.000381877 1
-1.17519 13.9951 -2.72994 0.000216191 1
-1.44001 17.1487 -2.72564 0.00010686 1
-1.85939 22.1429 -2.72838 4.25758e-05 1
-2.06306 24.5684 0.430352 0.000547873 10
-2.06939 24.6438 1.29607 0.000269 10
-2.02845 24.1563 3.83944 0.000427304 10
-2.02828 24.1543 4.71164 9.22656e-05 10
-2.06807 24.6281 5.70585 0.000244466 10
-0.886592 10.1338 -2.72572 0.000614437 1
-1.02975 11.7701 -2.72771 0.00038185 1
-1.22213 13.9691 -2.72568 0.000216172 1
-1.50066 17.1526 -2.72708 0.000106848 1
-1.93731 22.1436 -2.72928 4.25695e-05 1
-2.14342 24.4994 0.429272 0.000551873 10
-2.1498 24.5724 1.2927 0.000270966 10
-2.10827 24.0977 3.83127 0.000430421 10
-2.11237 24.1445 4.71114 9.22744e-05 10
-2.15006 24.5753 5.69533 0.000246262 10
-0.922816 10.1401 -2.72825 0.000614399 1
-1.07093 11.7676 -2.728 0.000381822 1
-1.27082 13.964 -2.72554 0.000216153 1
-1.56002 17.1418 -2.72622 0.000106837 1
-2.01457 22.1365 -2.72925 4.25632e-05 1
-2.22457 24.444 0.428435 0.000555866 10
-2.2328 24.5344 1.29111 0.000272929 10
-2.18747 24.0363 3.82271 0.000433532 10
-2.19766 24.1482 4.71334 9.22832e-05 10
-2.23224 24.5283 5.68621 0.000248056 10
-0.95821 10.1368 -2.72826 0.000614362 1
-1.11092 11.7523 -2.72533 0.000381795 1
-1.32201 13.9855 -2.73062 0.000216135 1
-1.62049 17.143 -2.72729 0.000106825 1
-2.0906 22.1163 -2.72764 4.25569e-05 1
-2.30741 24.4099 0.427975 0.000559852 10
-2.31434 24.4832 1.28883 0.000274888 10
-2.2674 23.9866 3.81603 0.000436639 10
-2.28208 24.1419 4.71364 9.2292e-05 10
-2.31527 24.493 5.67986 0.000249847 10
-0.99353 10.1328 -2.7281 0.000614325 1
-1.1539 11.7684 -2.72998 0.000381768 1
-1.37003 13.9727 -2.72905 0.000216116 1
-1.6806 17.1401 -2.72775 0.000106813 1
-2.16855 22.1166 -2.7286 4.25506e-05 1
-2.38684 24.3429 0.426944 0.000563832 10
-2.39602 24.4366 1.28681 0.000276844 10
-2.34778 23.9446 3.81063 0.00043974 10
-2.36658 24.1363 4.71412 9.23009e-05 10
-1.02766 10.1171 -2.72483 0.000614288 1
-1.19506 11.7651 -2.73017 0.000381741 1
-1.41966 13.9763 -2.7307 0.000216097 1
-1.74099 17.1397 -2.72864 0.000106802 1
-2.24438 22.0955 -2.72695 4.25443e-05 1
-2.46633 24.2806 0.426 0.000567805 10
-2.47572 24.373 1.28391 0.000278796 10
-2.42715 23.8949 3.80405 0.000442836 10
-2.44916 24.1115 4.71092 9.23097e-05 10
-1.0657 10.1394 -2.73182 0.000614251 1
-1.23503 11.7505 -2.72776 0.000381714 1
-1.46671 13.9548 -2.72748 0.000216078 1
-1.80096 17.135 -2.72887 0.00010679 1
-2.32322 22.104 -2.72898 4.2538e-05 1
-2.54811 24.2437 0.425505 0.000571769 10
-2.55584 24.3172 1.28143 0.000280745 10
-2.5047 23.8307 3.7952 0.000445925 10
-2.53431 24.1124 4.7128 9.23185e-05 10
-1.09925 10.1188 -2.72727 0.000614214 1
-1.27599 11.7457 -2.72767 0.000381686 1
-1.5161 13.956 -2.72872 0.00021606 1
-1.8595 17.117 -2.72701 0.000106778 1
-2.3988 22.0813 -2.7272 4.25317e-05 1
-2.5839 23.7851 -2.09317 0.000595519 10
-2.58459 23.7915 -1.2542 0.000601058 10
-2.58461 23.7917 -0.41773 0.000603813 10
-2.58449 23.7907 0.41771 0.000603757 10
-2.58555 23.8003 1.25466 0.000468519 10
-2.58367 23.7831 2.09299 0.000464114 10
-2.58479 23.7934 2.93865 0.000457586 10
-2.58353 23.7818 3.78883 0.000449008 10
-2.61692 24.0892 4.71001 9.23274e-05 10
-2.58414 23.7874 5.52407 0.000426085 10
-2.58412 23.7872 6.41127 0.000411984 10
-1.1343 10.1125 -2.72663 0.000614177 1
-1.31754 11.7462 -2.72883 0.000381659 1
-1.56357 13.9396 -2.72657 0.000216041 1
-1.92127 17.1285 -2.7299 0.000106766 1
-2.47792 22.0912 -2.72946 4.25254e-05 1
-2.67583 23.8556 -2.10018 0.000299302 10
-2.6774 23.8696 -1.2588 0.000302227 10
-2.6752 23.85 -0.418913 0.000303753 10
-2.67473 23.8458 0.41884 0.000303863 10
-2.67725 23.8682 1.25872 0.000235907 10
-2.6755 23.8527 2.09993 0.000233795 10
-2.677 23.866 2.94875 0.000230612 10
-2.67653 23.8619 3.80305 0.000226391 10
-2.70113 24.0811 4.71025 9.23362e-05 10
-2.67374 23.837 5.53771 0.000215031 10
-2.67454 23.8441 6.42908 0.000208012 10
-1.17115 10.122 -2.73028 0.000614139 1
-1.35781 11.7352 -2.72737 0.000381632 1
-1.61375 13.9473 -2.72917 0.000216022 1
-1.98161 17.1266 -2.73069 0.000106755 1
-2.55436 22.0768 -2.72877 4.25191e-05 1
-2.78114 24.0368 -2.11698 0.000291466 10
-2.77919 24.0199 -1.26723 0.00029432 10
-2.7798 24.0252 -0.422159 0.000295809 10
-2.7796 24.0234 0.422128 0.000295917 10
-2.77918 24.0199 1.26723 0.000229737 10
-2.77711 24.0019 2.1139 0.000227677 10
-2.7774 24.0045 2.96704 0.000224573 10
-2.77839 24.013 3.82866 0.000220458 10
-2.78659 24.0838 4.71266 9.2345e-05 10
-2.77738 24.0043 5.5788 0.00020938 10
-2.77724 24.003 6.4745 0.000202536 10
-1.20404 10.0974 -2.72474 0.000614102 1
-1.39948 11.7364 -2.72876 0.000381604 1
-1.66203 13.9382 -2.7285 0.000216003 1
-2.03932 17.1022 -2.72792 0.000106743 1
-2.63301 22.0811 -2.73043 4.25128e-05 1
-2.86711 24.0444 -2.11851 0.000579506 10
-2.86637 24.0381 -1.26871 0.00058491 10
-2.86581 24.0334 -0.422476 0.000587598 10
-2.86621 24.0368 0.422536 0.000587543 10
-2.86539 24.0299 1.26828 0.000455932 10
-2.86584 24.0337 2.11757 0.000451635 10
-2.86472 24.0243 2.97071 0.000445267 10
-2.86479 24.0249 3.83212 0.0004369 10
-2.86532 24.0293 4.70391 0.000426621 10
-2.86527 24.0289 5.58681 0.00041454 10
-2.86696 24.043 6.48795 0.000400787 10
-1.24202 10.1154 -2.73078 0.000614065 1
-1.4388 11.7181 -2.72566 0.000381577 1
-1.71185 13.942 -2.73039 0.000215985 1
-2.09916 17.0963 -2.72813 0.000106731 1
-2.7069 22.046 -2.72724 4.25065e-05 1
-2.94267 23.9662 -2.11251 0.000583375 10
-2.94596 23.993 -1.26686 0.000588814 10
-2.94303 23.9691 -0.421525 0.000591519 10
-2.94389 23.9761 0.421647 0.000591464 10
-2.94582 23.9918 1.2668 0.000458976 10
-2.94416 23.9783 2.11359 0.000454651 10
-2.94469 23.9826 2.96681 0.000448244 10
-2.94576 23.9914 3.8284 0.000439823 10
-2.94491 23.9844 4.69711 0.000429479 10
-2.94305 23.9693 5.5753 0.000417322 10
-2.94599 23.9932 6.47725 0.000403482 10
-1.27778 10.1146 -2.73175 0.000614028 1
-1.48263 11.7363 -2.73106 0.00038155 1
-1.75995 13.9314 -2.72952 0.000215966 1
-2.15851 17.0863 -2.72772 0.00010672 1
-2.78492 22.0449 -2.72829 4.25002e-05 1
-3.02299 23.9295 -2.1102 0.000587236 10
-3.02197 23.9214 -1.26363 0.000592708 10
-3.0211 23.9145 -0.420746 0.00059543 10
-3.02219 23.9231 0.420898 0.000595374 10
-3.02243 23.925 1.26382 0.000462011 10
-3.02355 23.9339 2.11058 0.00045766 10
-3.02464 23.9425 2.96313 0.000451213 10
-3.02287 23.9285 3.82003 0.00044274 10
-3.02338 23.9325 4.68899 0.000432331 10
-3.02399 23.9374 5.5703 0.000420098 10
-3.02248 23.9254 6.46174 0.000406171 10
-1.31175 10.1 -2.72901 0.000613991 1
-1.52051 11.7073 -2.72554 0.000381523 1
-1.80799 13.9208 -2.72865 0.000215947 1
-2.21914 17.0865 -2.72896 0.000106708 1
-2.86209 22.0369 -2.72851 4.24939e-05 1
-3.10072 23.8742 -2.10627 0.000591085 10
-3.10014 23.8698 -1.26147 0.000596591 10
-3.10295 23.8914 -0.420529 0.000599331 10
-3.10123 23.8782 0.420296 0.000599274 10
-3.09957 23.8654 1.26124 0.000465039 10
-3.10245 23.8875 2.10744 0.000460661 10
-3.0996 23.8656 2.95494 0.000454173 10
-3.10218 23.8855 3.81486 0.000445648 10
-3.10305 23.8922 4.68318 0.000435175 10
-3.10236 23.8869 5.56103 0.000422866 10
-3.1003 23.871 6.44994 0.000408853 10
-1.34778 10.1011 -2.73057 0.000613954 1
-1.56343 11.7174 -2.72915 0.000381496 1
-1.85789 13.9242 -2.73058 0.000215929 1
-2.27814 17.0739 -2.7282 0.000106696 1
-2.93936 22.0295 -2.72885 4.24876e-05 1
-3.18066 23.8379 -2.10403 0.000594925 10
-3.17975 23.8311 -1.26001 0.000600464 10
-3.17897 23.8252 -0.419557 0.000603221 10
-3.17871 23.8234 0.419523 0.000603164 10
-3.18062 23.8376 1.26035 0.000468058 10
-3.17956 23.8297 2.1033 0.000463653 10
-3.17789 23.8172 2.9503 0.000457126 10
-3.18116 23.8417 3.80962 0.000448548 10
-3.17984 23.8318 4.67348 0.000438011 10
-3.18089 23.8396 5.55259 0.000425627 10
-3.17946 23.8289 6.44153 0.000411528 10
-1.28721 9.39686 -2.54139 0.000560611 4
-1.60321 11.7037 -2.72725 0.000381468 1
-1.90528 13.9089 -2.72886 0.00021591 1
-2.33764 17.0652 -2.72811 0.000106685 1
-3.01593 22.0169 -2.72858 4.24813e-05 1
-3.25827 23.786 -2.10044 0.000598753 10
-3.25637 23.7721 -1.25748 0.000604326 10
-3.25794 23.7836 -0.419021 0.000607099 10
-3.25502 23.7623 0.418645 0.000607043 10
-3.25814 23.7851 1.25816 0.000471068 10
-3.25879 23.7898 2.10077 0.000466636 10
-3.25684 23.7756 2.94653 0.000460071 10
-3.25615 23.7705 3.80004 0.000451441 10
-3.25813 23.7849 4.6665 0.000440839 10
-3.25772 23.782 5.54178 0.00042838 10
-3.25589 23.7686 6.42825 0.000414194 10
-1.32048 9.39569 -2.54231 0.000432571 4
-1.64415 11.6987 -2.72741 0.000381441 1
-1.9549 13.9098 -2.73037 0.000215891 1
-2.39811 17.0634 -2.72914 0.000106673 1
-3.09269 22.0056 -2.72851 4.2475e-05 1
-3.33287 23.7146 -2.09515 0.00060257 10
-3.33476 23.728 -1.25575 0.000608177 10
-3.33417 23.7238 -0.41817 0.000610967 10
-3.33259 23.7126 0.417973 0.00061091 10
-3.33238 23.7111 1.25486 0.00047407 10
-3.33472 23.7277 2.09631 0.000469612 10
-3.33588 23.736 2.94306 0.000463006 10
-3.33383 23.7214 3.79402 0.000454325 10
-3.3341 23.7234 4.65667 0.00044366 10
-3.33493 23.7293 5.53217 0.000431125 10
-3.33579 23.7353 6.42236 0.000416854 10
-1.35098 9.37514 -2.53801 0.000547302 4
-1.68723 11.7086 -2.73107 0.000381414 1
-2.00256 13.8968 -2.72917 0.000215873 1
-2.45578 17.0419 -2.72706 0.000106661 1
-3.17019 21.9996 -2.72911 4.24688e-05 1
-3.40931 23.659 -2.09127 0.000606375 10
-3.41088 23.6699 -1.2533 0.000612015 10
-3.41005 23.6641 -0.417325 0.000614822 10
-3.41301 23.6846 0.417687 0.000614765 10
-3.41301 23.6847 1.25408 0.000477063 10
-3.41296 23.6843 2.09351 0.000472578 10
-3.41157 23.6747 2.93691 0.000465933 10
-3.41189 23.6769 3.78879 0.0004572 10
-3.41229 23.6797 4.6504 0.000446471 10
-3.413 23.6846 5.52451 0.000433862 10
-3.41363 23.689 6.413 0.000419505 10
-1.38255 9.36264 -2.53592 0.000542856 4
-1.7286 11.7061 -2.73187 0.000381387 1
-2.052 13.8961 -2.73043 0.000215854 1
-2.51713 17.046 -2.7291 0.000106649 1
-3.24836 21.9979 -2.73029 4.24624e-05 1
-3.487 23.614 -2.08836 0.000610168 10
-3.48684 23.6129 -1.25092 0.000615841 10
-3.4868 23.6126 -0.416629 0.000618665 10
-3.49016 23.6354 0.417031 0.000618607 10
-3.48919 23.6288 1.25176 0.000480045 10
-3.49008 23.6348 2.0902 0.000475534 10
-3.48741 23.6168 2.93122 0.00046885 10
-3.48921 23.6289 3.78304 0.000460065 10
-3.49068 23.6389 4.64476 0.000449273 10
-3.48835 23.6231 5.51296 0.000436589 10
-3.48812 23.6215 6.39801 0.000422148 10
-1.41655 9.36647 -2.53828 0.000525171 4
-1.76639 11.6797 -2.72714 0.000381359 1
-2.10113 13.8931 -2.73125 0.000215835 1
-2.57619 17.0342 -2.72864 0.000106638 1
-3.3229 21.9716 -2.72846 4.24562e-05 1
-3.56685 23.5847 -2.08686 0.000613949 10
-3.5641 23.5665 -1.24911 0.000619656 10
-3.56469 23.5704 -0.416102 0.000622496 10
-3.56336 23.5617 0.415947 0.000622438 10
-3.50516 23.1768 1.22846 0.000649473 10
-3.56479 23.5711 2.08565 0.000478481 10
-3.56511 23.5732 2.92734 0.000471758 10
-3.56613 23.58 3.77717 0.000462922 10
-3.56447 23.569 4.63344 0.000452067 10
-3.56346 23.5623 5.50164 0.000439309 10
-3.56493 23.572 6.38793 0.000424782 10
-1.44886 9.3591 -2.53764 0.000600159 4
-1.80669 11.6705 -2.72645 0.000381332 1
-2.14849 13.8785 -2.72983 0.000215816 1
-2.63665 17.0318 -2.7297 0.000106626 1
-3.39984 21.9617 -2.72868 4.24499e-05 1
-3.64312 23.5332 -2.08341 0.000617716 10
-3.64049 23.5162 -1.24711 0.000623456 10
-3.64281 23.5312 -0.415631 0.000626313 10
-3.64149 23.5226 0.41548 0.000626255 10
-3.58096 23.1316 1.22672 0.000653442 10
-3.64079 23.5181 2.08208 0.000481418 10
-3.64087 23.5186 2.92212 0.000474656 10
-3.64374 23.5372 3.77233 0.000465769 10
-3.64406 23.5392 4.63006 0.000454851 10
-3.64186 23.525 5.49587 0.000442018 10
-3.64014 23.5139 6.37558 0.000427407 10
-1.48395 9.36928 -2.54179 0.000573647 4
-1.85087 11.6859 -2.73154 0.000381305 1
-2.19621 13.8663 -2.72894 0.000215798 1
-2.69573 17.0202 -2.72934 0.000106614 1
-3.47887 21.9647 -2.73055 4.24436e-05 1
-3.71666 23.4661 -2.07861 0.000621471 10
-3.71715 23.4691 -1.2453 0.000627244 10
-3.71687 23.4674 -0.414731 0.000630117 10
-3.71841 23.4771 0.414903 0.000630059 10
-3.65595 23.0828 1.2248 0.000657398 10
-3.71898 23.4807 2.0799 0.000484345 10
-3.71763 23.4722 2.91795 0.000477544 10
-3.71932 23.4828 3.76568 0.000468606 10
-3.72032 23.4892 4.62275 0.000457625 10
-3.72043 23.4899 5.49066 0.000444719 10
-3.71768 23.4725 6.36784 0.000430024 10
-1.51314 9.34242 -2.53591 0.000555963 4
-1.88811 11.6576 -2.72643 0.000381278 1
-2.24334 13.8508 -2.72741 0.000215779 1
-2.75308 16.9981 -2.72731 0.000106603 1
-3.55263 21.9346 -2.72833 4.24373e-05 1
-3.80698 23.5051 -2.08322 0.000276523 10
-3.80676 23.5037 -1.24783 0.000279232 10
-3.80801 23.5114 -0.415741 0.00028065 10
-3.80741 23.5077 0.415675 0.000280763 10
-3.73046 23.0326 1.22282 0.000661339 10
-3.80655 23.5024 2.08298 0.000216043 10
-3.80494 23.4925 2.9221 0.000213116 10
-3.80541 23.4953 3.76979 0.000209231 10
-3.80666 23.5031 4.62807 0.000204431 10
-3.80248 23.4773 5.49078 0.000198767 10
-3.80181 23.4731 6.37156 0.000192299 10
-1.5468 9.34345 -2.53764 0.000604463 4
-1.92961 11.6558 -2.72758 0.000381251 1
-2.29387 13.8562 -2.73002 0.00021576 1
-2.81429 16.9998 -2.72915 0.000106591 1
-3.63295 21.9448 -2.73116 4.2431e-05 1
-3.9192 23.6739 -2.09939 0.000268336 10
-3.92225 23.6924 -1.25856 0.00027097 10
-3.91938 23.675 -0.418874 0.00027235 10
-3.9198 23.6776 0.418919 0.00027246 10
-3.80324 22.9735 1.22038 0.000665266 10
-3.92037 23.681 2.10002 0.000209651 10
-3.91744 23.6633 2.94504 0.000206806 10
-3.91649 23.6576 3.79799 0.00020303 10
-3.91632 23.6565 4.66095 0.000198365 10
-3.91902 23.6729 5.53971 0.000192861 10
-3.91782 23.6657 6.4275 0.000186575 10
-1.58266 9.35728 -2.54289 0.000551484 4
-1.97343 11.6676 -2.73195 0.000381224 1
-2.34294 13.8523 -2.73086 0.000215742 1
-2.87566 17.002 -2.73109 0.000106579 1
-3.70643 21.9138 -2.72889 4.24247e-05 1
-4.03375 23.849 -2.11615 0.000260305 10
-4.03312 23.8452 -1.26743 0.000262865 10
-4.03492 23.8559 -0.422321 0.000264207 10
-4.03265 23.8425 0.422082 0.000264315 10
-3.87914 22.9349 1.21904 0.000669178 10
-4.0341 23.8511 2.11633 0.000203381 10
-4.03168 23.8367 2.96835 0.000200616 10
-4.03383 23.8494 3.83103 0.000196948 10
-4.03412 23.8512 4.70204 0.000192416 10
-4.03264 23.8424 5.58263 0.000187068 10
-4.03197 23.8385 6.47822 0.00018096 10
-1.6118 9.33132 -2.53735 0.000635272 4
-2.0112 11.6436 -2.72795 0.000381196 1
-2.39257 13.8515 -2.73233 0.000215723 1
-2.93187 16.9737 -2.72818 0.000106568 1
-3.78551 21.9158 -2.73077 4.24185e-05 1
-4.15211 24.0382 -2.13421 0.000252427 10
-4.14892 24.0197 -1.27746 0.000254915 10
-4.15116 24.0326 -0.425703 0.000256219 10
-4.14787 24.0136 0.425365 0.000256325 10
-3.95153 22.8769 1.21668 0.000673074 10
-4.15089 24.031 2.13358 0.000197229 10
-4.14805 24.0146 2.99229 0.000194544 10
-4.15019 24.027 3.86186 0.000190982 10
-4.14752 24.0116 4.73649 0.000186579 10
-4.14969 24.0241 5.62854 0.000181385 10
-4.14815 24.0152 6.53015 0.000175454 10
-1.64812 9.34696 -2.54315 0.000577886 4
-2.05124 11.6332 -2.72716 0.000381169 1
-2.44032 13.8398 -2.73168 0.000215704 1
-2.99457 16.9831 -2.73135 0.000106556 1
-3.863 21.9082 -2.73148 4.24122e-05 1
-4.27181 24.2266 -2.15225 0.000244702 10
-4.26819 24.2061 -1.28816 0.000247119 10
-4.2673 24.2011 -0.428948 0.000248387 10
-4.268 24.2051 0.429018 0.00024849 10
-4.02833 22.8458 1.21577 0.000290842 10
-4.26953 24.2137 2.15111 0.000191198 10
-4.26914 24.2115 3.01866 0.000188591 10
-4.26757 24.2026 3.89245 0.000185132 10
-4.26487 24.1873 4.77406 0.000180857 10
-4.26577 24.1924 5.67142 0.000175814 10
-4.26262 24.1746 6.57748 0.000170055 10
-1.68025 9.33843 -2.54241 0.000485219 4
-2.09481 11.6425 -2.73104 0.000381142 1
-2.48437 13.8076 -2.72702 0.000215686 1
-3.05358 16.9711 -2.73113 0.000106544 1
-3.937 21.8809 -2.72978 4.24059e-05 1
-4.38841 24.3898 -2.1681 0.00023713 10
-4.388 24.3875 -1.29862 0.000239477 10
-4.38862 24.391 -0.432583 0.000240708 10
-4.38857 24.3907 0.432577 0.00024081 10
-4.14591 23.042 1.22697 0.00028196 10
-4.38642 24.3788 2.16711 0.000185284 10
-4.38643 24.3788 3.04141 0.000182754 10
-4.38488 24.3702 3.92184 0.000179397 10
-4.38486 24.3701 4.81314 0.000175248 10
-4.3846 24.3686 5.71628 0.000170353 10
-4.38569 24.3747 6.63605 0.000164764 10
-1.70916 9.31249 -2.53695 0.000511655 4
-2.13487 11.632 -2.73032 0.000381115 1
-2.53747 13.8256 -2.73231 0.000215667 1
-3.11019 16.9461 -2.72883 0.000106533 1
-4.017 21.8869 -2.73226 4.23996e-05 1
-4.51448 24.5975 -2.18795 0.000229707 10
-4.51156 24.5816 -1.30978 0.000231985 10
-4.50847 24.5647 -0.435941 0.000233181 10
-4.50833 24.564 0.435927 0.00023328 10
-4.51129 24.5801 1.3097 0.000181114 10
-4.50977 24.5718 2.18566 0.000179488 10
-4.5109 24.578 3.0682 0.000177034 10
-4.50743 24.559 3.95474 0.000173776 10
-4.50667 24.5549 4.85271 0.00016975 10
-4.50976 24.5718 5.76759 0.000165001 10
-4.50842 24.5645 6.69196 0.000159577 10
-1.74582 9.32871 -2.54302 0.000582193 4
-2.17439 11.6188 -2.72897 0.000381088 1
-2.58328 13.8036 -2.72974 0.000215649 1
-3.16974 16.9374 -2.72919 0.000106521 1
-4.09023 21.856 -2.73017 4.23934e-05 1
-4.63497 24.7668 -2.20443 0.000222435 10
-4.63579 24.7712 -1.32074 0.000224646 10
-4.6362 24.7733 -0.439927 0.000225807 10
-4.63452 24.7644 0.439768 0.000225904 10
-4.63643 24.7746 1.32092 0.000175386 10
-4.63081 24.7446 2.20245 0.00017381 10
-4.63167 24.7492 3.09157 0.000171429 10
-4.63323 24.7575 3.98928 0.000168269 10
-4.63149 24.7482 4.89408 0.000164364 10
-4.63348 24.7588 5.81526 0.000159757 10
-4.63022 24.7414 6.74453 0.000154497 10
-1.77811 9.32118 -2.54264 0.000688005 4
-2.21655 11.6196 -2.73096 0.000381061 1
-2.63045 13.7893 -2.7287 0.00021563 1
-3.23025 16.9336 -2.73038 0.000106509 1
-4.16542 21.8359 -2.72946 4.23871e-05 1
-4.73585 24.8262 -2.21118 0.000529197 10
-4.73556 24.8247 -1.32447 0.000534181 10
-4.73545 24.8241 -0.44112 0.000536661 10
-4.76315 24.9693 0.4437 0.000218678 10
-4.73348 24.8137 1.32388 0.000416394 10
-4.7343 24.8181 2.21045 0.000412432 10
-4.73378 24.8153 3.10188 0.000406563 10
-4.76053 24.9556 4.02385 0.000162874 10
-4.73163 24.8041 4.90836 0.000389378 10
-4.73658 24.83 5.83583 0.000378248 10
-4.73666 24.8304 6.77327 0.000365579 10
-1.80711 9.29678 -2.53769 0.000485103 4
-2.25465 11.5992 -2.728 0.000381034 1
-2.67801 13.7772 -2.72813 0.000215611 1
-3.29034 16.9274 -2.73121 0.000106498 1
-4.24308 21.8288 -2.7304 4.23808e-05 1
-4.8103 24.7469 -2.20559 0.000532158 10
-4.81396 24.7657 -1.32221 0.000537168 10
-4.81282 24.7598 -0.440274 0.000539663 10
-4.88792 25.1462 0.447143 0.000211601 10
-4.81532 24.7727 1.32258 0.000418722 10
-4.81627 24.7776 2.20833 0.00041474 10
-4.81435 24.7677 3.09801 0.00040884 10
-4.88631 25.1379 4.05598 0.000157592 10
-4.81649 24.7787 4.90664 0.000391565 10
-4.81383 24.765 5.82447 0.000380375 10
-4.81416 24.7667 6.76043 0.000367639 10
-1.83941 9.28968 -2.53749 0.000621776 4
-2.29844 11.6079 -2.73194 0.000381006 1
-2.73075 13.7913 -2.7328 0.000215593 1
-3.34883 16.9128 -2.73073 0.000106486 1
-4.31855 21.8103 -2.72995 4.23746e-05 1
-4.89117 24.7022 -2.20312 0.000535105 10
-4.8938 24.7155 -1.32043 0.000540143 10
-4.89317 24.7123 -0.43973 0.00054265 10
-5.01727 25.3391 0.450882 0.000204673 10
-4.89537 24.7234 1.32086 0.00042104 10
-4.89364 24.7147 2.20423 0.000417037 10
-4.89356 24.7143 3.09344 0.000411107 10
-5.01714 25.3384 4.09112 0.000152421 10
-4.89369 24.715 4.89737 0.000393741 10
-4.8939 24.716 5.81692 0.000382493 10
-4.89472 24.7201 6.75234 0.00036969 10
-1.87197 9.28397 -2.5377 0.000573235 4
-2.33833 11.5968 -2.73122 0.000380979 1
-2.77592 13.767 -2.7299 0.000215574 1
-3.40959 16.9097 -2.73213 0.000106474 1
-4.39802 21.8117 -2.73205 4.23683e-05 1
-4.96877 24.6424 -2.19932 0.00053804 10
-4.97364 24.6665 -1.31873 0.000543102 10
-4.97255 24.6611 -0.439125 0.000545622 10
-5.15259 25.554 0.455024 0.000197892 10
-4.9725 24.6609 1.31843 0.000423347 10
-4.97143 24.6556 2.20049 0.000419323 10
-4.97292 24.663 3.08918 0.000413362 10
-5.14743 25.5284 4.12468 0.00014736 10
-4.97251 24.6609 4.89007 0.000395907 10
-4.97478 24.6722 5.81066 0.000384601 10
-4.97227 24.6597 6.74054 0.000371731 10
-1.90729 9.2916 -2.54159 0.000727524 4
-2.21327 10.7822 -2.54117 0.000340962 4
-2.8223 13.7491 -2.72829 0.000215555 1
-3.46753 16.8925 -2.73129 0.000106463 1
-4.47013 21.7768 -2.7296 4.23621e-05 1
-5.28879 25.765 0.459106 0.000191258 10
-5.28505 25.7467 4.16291 0.000142408 10
-1.93724 9.27306 -2.53835 0.000454124 4
-2.24719 10.7567 -2.537 0.000349186 4
-2.87423 13.7582 -2.73206 0.000215537 1
-3.52499 16.8732 -2.73015 0.000106451 1
-4.54843 21.7721 -2.73099 4.23558e-05 1
-5.46605 26.1645 -2.33852 0.000178237 10
-5.46201 26.1452 -1.39979 0.000180038 10
-5.46262 26.1481 -0.466271 0.000180985 10
-5.42218 25.9545 0.462818 0.000184768 10
-5.45983 26.1348 1.39923 8.97382e-05 10
-5.46395 26.1545 2.33762 8.89229e-05 10
-5.46266 26.1483 3.27992 8.76904e-05 10
-5.42172 25.9523 4.19919 0.000137566 10
-5.46174 26.1439 5.19157 8.40322e-05 10
-5.45925 26.132 6.16329 8.16467e-05 10
-5.45547 26.1139 7.14825 7.89236e-05 10
-1.97125 9.27401 -2.54048 0.000581949 4
-2.28789 10.7637 -2.54051 0.000200699 4
-2.9215 13.7446 -2.73137 0.000215518 1
-3.58244 16.8541 -2.72906 0.00010644 1
-4.62605 21.7639 -2.73197 4.23496e-05 1
-5.55807 26.1487 -2.33882 0.000453205 10
-5.5568 26.1427 -1.40069 0.00045753 10
-5.55374 26.1283 -0.46626 0.000459683 10
-5.56549 26.1836 0.467247 0.000178423 10
-5.55856 26.151 1.40113 0.000356643 10
-5.55859 26.1511 2.33904 0.000353206 10
-5.55407 26.1299 3.28003 0.000348114 10
-5.56081 26.1616 4.23616 0.000132831 10
-5.55547 26.1365 5.19392 0.00033321 10
-5.55842 26.1503 6.17216 0.000323561 10
-5.55517 26.1351 7.15931 0.000312581 10
-2.00453 9.27134 -2.54165 0.000559872 4
-2.32409 10.7493 -2.53902 0.000395872 4
-2.96839 13.7294 -2.73038 0.0002155 1
-3.64339 16.8514 -2.73066 0.000106428 1
-4.70082 21.7421 -2.73128 4.23433e-05 1
-5.64002 26.0861 -2.33498 0.000455622 10
-5.64009 26.0865 -1.39872 0.000459969 10
-5.63921 26.0824 -0.465789 0.000462133 10
-5.70741 26.3978 0.471422 0.00017222 10
-5.63809 26.0772 1.39822 0.000358544 10
-5.64011 26.0865 2.33501 0.00035509 10
-5.64055 26.0886 3.27729 0.000349973 10
-5.70395 26.3818 4.27502 0.000128202 10
-5.64058 26.0887 5.18831 0.000334994 10
-5.6396 26.0842 6.16115 0.000325296 10
-5.64219 26.0962 7.15402 0.000314261 10
-2.0346 9.25392 -2.53881 0.00053339 4
-2.3615 10.7407 -2.53892 0.000239156 4
-3.01459 13.7111 -2.72883 0.000215481 1
-3.7045 16.849 -2.73237 0.000106416 1
-4.77696 21.7269 -2.73144 4.23371e-05 1
-5.72057 26.0187 -2.33071 0.000458026 10
-5.72245 26.0272 -1.39661 0.000462394 10
-5.72511 26.0393 -0.465375 0.000464569 10
-5.84943 26.6048 0.475479 0.000166159 10
-5.72142 26.0225 1.39636 0.000360435 10
-5.72332 26.0312 2.33183 0.000356964 10
-5.72403 26.0344 3.27297 0.000351822 10
-5.84926 26.604 4.3143 0.00012368 10
-5.72393 26.034 5.18136 0.000336768 10
-5.72272 26.0285 6.15267 0.000327022 10
-5.72442 26.0362 7.143 0.000315932 10
-2.06593 9.24242 -2.53761 0.00050691 4
-2.40131 10.7429 -2.54139 0.000398565 4
-3.06739 13.7227 -2.73325 0.000215462 1
-3.76082 16.8249 -2.73057 0.000106405 1
-4.8524 21.7084 -2.73123 4.23308e-05 1
-5.80556 25.9726 -2.32838 0.000460417 10
-5.80741 25.9808 -1.3952 0.000464807 10
-5.80342 25.963 -0.46437 0.000466992 10
-5.99711 26.8295 0.479868 0.000160237 10
-5.80654 25.9769 1.39499 0.000362316 10
-5.80977 25.9914 2.33007 0.000358828 10
-5.80895 25.9877 3.26963 0.00035366 10
-5.99817 26.8343 4.35501 0.000119262 10
-5.80742 25.9809 5.1748 0.000338533 10
-5.80985 25.9918 6.14875 0.000328738 10
-5.80934 25.9895 7.13572 0.000317594 10
-2.1026 9.25464 -2.54297 0.000674371 4
-2.43962 10.7381 -2.54225 0.000404034 4
-3.11204 13.6977 -2.73041 0.000215444 1
-3.82202 16.8227 -2.73235 0.000106393 1
-4.93164 21.7067 -2.73317 4.23246e-05 1
-6.15066 27.0723 -2.42887 0.000152008 10
-6.15032 27.0707 -1.45487 0.000153561 10
-6.15016 27.0701 -0.484551 0.00015438 10
-6.15355 27.085 0.484818 0.000154455 10
-6.14812 27.0611 1.45435 0.000119908 10
-6.14645 27.0537 2.42721 0.000118811 10
-6.15154 27.0761 3.40925 0.000117152 10
-6.14956 27.0674 4.39631 0.000114948 10
-6.14874 27.0638 5.39473 0.000112225 10
-5.91786 26.0476 6.16681 0.00012193 10
-5.92075 26.0603 7.16079 0.000117865 10
-2.1338 9.2425 -2.54166 0.000603812 4
-2.47415 10.7167 -2.53923 0.000357284 4
-3.15751 13.6767 -2.72841 0.000215425 1
-3.8765 16.791 -2.72938 0.000106382 1
-5.00821 21.6929 -2.73362 4.23183e-05 1
-6.30312 27.3018 -2.45143 0.000146444 10
-6.30427 27.3068 -1.46873 0.000147945 10
-6.30526 27.3111 -0.489256 0.000148736 10
-6.30303 27.3014 0.489083 0.000148809 10
-6.30614 27.3149 1.46917 0.000115525 10
-6.30453 27.3079 2.45198 0.000114466 10
-6.30121 27.2935 3.43937 0.000112864 10
-6.30227 27.2981 4.43733 0.000110737 10
-6.30045 27.2902 5.44422 0.000108108 10
-6.30135 27.2942 6.4671 0.000105006 10
-6.29975 27.2872 7.50391 0.000101466 10
-2.16617 9.2355 -2.5418 0.000616998 4
-2.51179 10.7091 -2.53948 0.000285807 4
-3.20483 13.6639 -2.72807 0.000215407 1
-3.93608 16.7816 -2.73007 0.00010637 1
-5.07929 21.6557 -2.73114 4.23121e-05 1
-6.46433 27.5608 -2.4767 0.000141016 10
-6.45985 27.5417 -1.48257 0.000142465 10
-6.46139 27.5483 -0.493907 0.00014323 10
-6.46018 27.5431 0.493814 0.000143301 10
-6.46178 27.55 1.48302 0.000111248 10
-6.46169 27.5496 2.47568 0.000110227 10
