VERSION 0.7
FIELDS x y z intensity label
SIZE 4 4 4 4 4
TYPE F F F F F
COUNT 1 1 1 1 1
WIDTH 1169
HEIGHT 1
VIEWPOINT 1.3756 15.9481 2.72792 0.826109 -0.000628195 0.000941579 0.563509
POINTS 1169
DATA ascii
-29.6382 17.9495 -1.81592 0.000134761 10
-29.68 17.9748 -0.605667 0.000116499 10
-29.6873 17.9793 0.605817 0.000116481 10
-29.4952 17.863 1.80716 0.000139672 10
-29.496 17.8634 3.01692 0.000138227 10
-29.5012 17.8666 4.2348 0.00013609 10
-29.4904 17.86 5.46062 0.000133289 10
-29.4867 17.8578 6.70081 0.000129855 10
-29.4861 17.8574 7.9585 0.00012583 10
-29.1943 17.6807 9.14532 4.25868e-05 10
-8.53766 5.12995 -2.66886 0.000576512 4
-9.92923 5.96609 -2.67433 7.72409e-05 4
-11.8189 7.10149 -2.68017 0.000273526 4
-14.5357 8.73392 -2.68585 6.21549e-05 4
-18.9619 11.3935 -2.71619 0.00015766 4
-29.5538 17.7577 -1.80694 0.000137359 10
-29.5714 17.7683 -0.602182 9.11487e-05 10
-29.5678 17.7662 0.602109 9.11027e-05 10
-29.5856 17.7768 1.80888 0.000106939 10
-29.6021 17.7867 3.0214 8.75606e-05 10
-29.5876 17.778 4.23826 0.000104122 10
-29.5972 17.7838 5.46888 0.000101942 10
-29.6012 17.7862 6.71268 8.22553e-05 10
-29.6051 17.7885 7.97379 9.61651e-05 10
-29.262 17.5824 9.14727 4.25895e-05 10
-8.56546 5.10604 -2.67196 9.73788e-05 4
-9.93612 5.92311 -2.67059 5.31e-05 4
-11.8225 7.04761 -2.6754 0.000251734 4
-14.5601 8.67957 -2.68475 3.07405e-05 4
-18.9309 11.2851 -2.70609 0.000200247 4
-29.4821 17.5749 -1.79879 0.000139986 10
-29.6661 17.6846 -0.60285 0.000117543 10
-29.6759 17.6904 0.603048 0.000117524 10
-29.4959 17.5831 1.79963 0.000108985 10
-29.5019 17.5867 4.21717 0.000106119 10
-29.5216 17.5984 5.44352 0.0001039 10
-29.5203 17.5976 7.93435 9.80196e-05 10
-29.3168 17.4763 9.14526 4.25922e-05 10
-8.58431 5.07675 -2.6723 0.000175273 4
-9.95466 5.88717 -2.67004 0.000135156 4
-11.8672 7.01827 -2.67996 0.000273486 4
-14.5766 8.62059 -2.68223 3.07377e-05 4
-18.8776 11.1642 -2.69288 0.000130204 4
-29.4133 17.395 -1.79088 0.00014264 10
-29.5189 17.4574 -0.598617 0.000119959 10
-29.5101 17.4522 0.598438 0.00011994 10
-29.4324 17.4063 1.79204 0.000111052 10
-29.0032 17.1525 2.94798 0.000147564 10
-29.4444 17.4134 4.20023 0.000108136 10
-29.4352 17.4079 5.41634 0.000105878 10
-28.9993 17.1501 6.54887 0.000138683 10
-29.443 17.4126 7.89721 9.98936e-05 10
-29.3772 17.3736 9.14513 4.25948e-05 10
-8.59077 5.04018 -2.66881 0.000151896 4
-9.98256 5.85674 -2.67202 0.000173761 4
-11.8907 6.97624 -2.67975 0.00028299 4
-18.8371 11.0516 -2.68158 0.0001984 4
-29.3484 17.2186 -1.78326 0.000145321 10
-38.6329 22.6658 -0.781832 3.83095e-05 10
-38.656 22.6794 0.782299 3.82889e-05 10
-29.3674 17.2298 1.78442 0.00011314 10
-29.1468 17.1003 2.95649 0.000145888 10
-29.3754 17.2345 4.18179 0.000110173 10
-29.3819 17.2383 5.39544 0.000107876 10
-29.1389 17.0957 6.56689 0.000137101 10
-29.3756 17.2346 7.86293 0.000101787 10
-29.3788 17.2365 9.12686 9.80664e-05 10
-8.61428 5.01363 -2.67067 0.000436192 4
-10.0171 5.83009 -2.6758 6.75699e-05 4
-11.9076 6.93039 -2.67809 8.02656e-05 4
-14.643 8.52241 -2.68343 5.14429e-05 4
-18.7972 10.9402 -2.67046 0.000146941 4
-29.2824 17.0427 -1.77562 0.00014803 10
-29.2776 17.04 -0.591297 0.000148712 10
-29.2898 17.0471 0.591542 0.000148639 10
-29.2944 17.0498 1.77635 0.00011525 10
-29.2871 17.0455 2.96466 0.000144217 10
-29.3056 17.0562 4.16334 0.000112232 10
-29.3128 17.0605 5.37178 0.000109895 10
-29.269 17.035 6.58276 0.000135525 10
-29.3137 17.061 7.83038 0.0001037 10
-29.3109 17.0593 9.08718 9.99146e-05 10
-8.63884 4.98764 -2.67287 0.00024924 4
-11.9304 6.88803 -2.67779 5.98549e-05 4
-14.6829 8.47715 -2.6853 4.60941e-05 4
-18.7693 10.8365 -2.6611 0.000187607 4
-29.2039 16.8609 -1.76729 0.000150766 10
-29.2172 16.8686 -0.588884 0.00015146 10
-29.2113 16.8652 0.588765 0.000151385 10
-29.2176 16.8688 1.76812 0.000117381 10
-29.2263 16.8738 2.95254 0.000116134 10
-29.2436 16.8838 4.14614 0.000114311 10
-29.2376 16.8804 5.34717 0.000111934 10
-29.2465 16.8855 6.56441 0.00010903 10
-29.2513 16.8882 7.79791 0.000105632 10
-29.2439 16.884 9.0481 0.000101781 10
-8.65392 4.95615 -2.67216 0.000295958 4
-10.06 5.76144 -2.67646 0.000364353 4
-11.9515 6.84468 -2.67715 6.25712e-05 4
-18.7171 10.7194 -2.64838 0.000177522 4
-29.1364 16.6866 -1.75966 0.000153528 10
-29.2848 16.7715 -0.589062 0.000188948 10
-29.2887 16.7738 0.58914 0.000188918 10
-29.1432 16.6904 1.76007 0.000119533 10
-29.1593 16.6997 2.93986 0.000118265 10
-29.1683 16.7049 4.12717 0.000116411 10
-29.1652 16.7031 5.32324 0.000113994 10
-29.1602 16.7002 6.53191 0.00011104 10
-29.1835 16.7135 7.76424 0.000107584 10
-29.1713 16.7066 9.00754 0.000103667 10
-8.65756 4.91818 -2.66797 0.000366036 4
-10.0563 5.71276 -2.67014 0.000132704 4
-11.9671 6.79825 -2.6753 4.35247e-05 4
-14.7347 8.3705 -2.68403 5.94441e-05 4
-18.698 10.622 -2.64042 0.000249123 4
-29.0651 16.5113 -1.75187 0.000156318 10
-29.4184 16.712 -0.590574 0.000186741 10
-29.4213 16.7136 0.590631 0.000186712 10
-29.09 16.5254 1.75336 0.000121706 10
-29.0911 16.526 2.92715 0.000120417 10
-29.1063 16.5347 4.11021 0.000118532 10
-29.0878 16.5242 5.29854 0.000116073 10
-29.0942 16.5278 6.50417 0.000113069 10
-29.1153 16.5398 7.73069 0.000109555 10
-29.1191 16.5419 8.97352 0.000105571 10
-8.67572 4.88852 -2.66829 0.000696992 4
-10.0929 5.68703 -2.67457 0.000135109 4
-12.0011 6.76227 -2.67762 6.12024e-05 4
-14.7667 8.3206 -2.68455 7.34638e-05 4
-18.6435 10.5051 -2.62753 0.000168117 4
-29.0105 16.3466 -1.74512 0.000159135 10
-29.5764 16.6654 -0.592572 0.000184543 10
-29.5766 16.6656 0.592578 0.000184513 10
-29.0304 16.3578 1.74632 0.0001239 10
-29.0256 16.3551 2.9148 0.00012259 10
-29.0275 16.3562 4.09099 0.000120673 10
-29.0407 16.3636 5.27952 0.000118173 10
-29.0295 16.3573 6.4769 0.000115119 10
-29.045 16.366 7.6968 0.000111546 10
-29.0306 16.3579 8.92859 0.000107495 10
-8.70289 4.86388 -2.67141 0.000190788 4
-10.1052 5.6476 -2.6726 0.000209889 4
-12.0333 6.72521 -2.67956 6.11982e-05 4
-18.608 10.3997 -2.61739 0.000199354 4
-28.9415 16.1749 -1.73757 0.000161978 10
-39.673 22.1725 -0.793307 4.54818e-05 10
-39.6686 22.17 0.793217 4.54738e-05 10
-28.9509 16.1801 1.73813 0.000126115 10
-28.9532 16.1814 2.90184 0.000124783 10
-28.9642 16.1875 4.07408 0.000122835 10
-28.9666 16.1889 5.25574 0.000120293 10
-28.9674 16.1893 6.45039 0.000117188 10
-28.981 16.1969 7.66482 0.000113555 10
-28.9616 16.1861 8.88995 0.000109436 10
-8.72145 4.83438 -2.67191 0.000163524 4
-10.1274 5.61371 -2.67327 0.000103732 4
-12.0373 6.67237 -2.67523 5.57545e-05 4
-18.5622 10.2892 -2.60588 4.29219e-05 4
-28.8658 16.0006 -1.72966 0.000164849 10
-39.8727 22.1018 -0.795753 3.71268e-05 10
-39.883 22.1075 0.795956 3.71072e-05 10
-28.8758 16.0061 1.73026 0.000128351 10
-28.8821 16.0096 2.88909 0.000126997 10
-28.8948 16.0167 4.05643 0.000125017 10
-28.9046 16.0221 5.23432 0.000122433 10
-28.9127 16.0265 6.42571 0.000119277 10
-28.9005 16.0198 7.62869 0.000115584 10
-28.9003 16.0197 8.85392 0.000111397 10
-8.72556 4.79692 -2.66802 0.000151837 4
-10.1521 5.58116 -2.67463 0.000342539 4
-12.0771 6.63945 -2.67892 8.83853e-05 4
-18.5255 10.1845 -2.59572 0.000217805 4
-28.8186 15.8432 -1.7235 0.000167745 10
-35.2174 19.3609 -0.701492 8.75359e-05 10
-35.2127 19.3584 0.701398 8.74919e-05 10
-28.827 15.8478 1.72401 0.000130607 10
-28.8199 15.8439 2.87731 0.000129231 10
-28.8336 15.8514 4.04005 0.000127219 10
-28.8296 15.8492 5.21069 0.000124593 10
-28.8355 15.8525 6.39623 0.000121385 10
-28.8269 15.8477 7.59461 0.000117631 10
-28.8456 15.858 8.82015 0.000113375 10
-8.74779 4.76945 -2.66971 5.06099e-05 4
-10.1794 5.55 -2.67671 0.000352169 4
-12.1087 6.60191 -2.68081 5.30276e-05 4
-14.8723 8.10864 -2.6829 5.80831e-05 4
-18.4998 10.0864 -2.58716 0.000216287 4
-28.74 15.6696 -1.71552 0.000170668 10
-35.1578 19.1687 -0.698969 0.000105992 10
-35.156 19.1677 0.698932 0.000105974 10
-28.7608 15.6809 1.71677 0.000132884 10
-28.7561 15.6784 2.86547 0.000131486 10
-28.7589 15.6799 4.02188 0.000129441 10
-28.7718 15.6869 5.19032 0.000126773 10
-28.7604 15.6807 6.36739 0.000123513 10
-28.7765 15.6895 7.56687 0.000119698 10
-28.7866 15.695 8.78531 0.000115372 10
-8.75469 4.73364 -2.66676 0.000315324 4
-10.1848 5.50691 -2.67306 0.000125423 4
-12.1122 6.54905 -2.67649 4.89453e-05 4
-18.4777 9.99088 -2.57919 3.08088e-05 4
-35.3495 19.1134 -0.701448 0.000104633 10
-35.33 19.1029 0.701062 0.000104615 10
-28.6927 15.5141 1.70945 0.000135182 10
-28.6951 15.5154 2.85398 0.000133762 10
-28.6943 15.5149 4.00525 0.000131684 10
-28.7115 15.5243 5.16963 0.000128973 10
-28.7173 15.5274 6.34579 0.00012566 10
-28.7146 15.5259 7.53629 0.000121783 10
-28.7088 15.5228 8.74496 0.000117387 10
-8.77645 4.70589 -2.66837 0.000120674 4
-10.2028 5.47071 -2.67276 0.000151947 4
-12.1371 6.50784 -2.67695 5.57396e-05 4
-14.9381 8.00974 -2.68462 4.0718e-05 4
-18.5125 9.92631 -2.57919 3.99877e-05 4
-35.5013 19.0356 -0.703137 0.000103281 10
-35.523 19.0473 0.703567 0.000103263 10
-28.6221 15.3471 1.70205 0.0001375 10
-28.1513 15.0946 2.79463 0.000168527 10
-28.6351 15.354 3.98949 0.000133946 10
-28.6469 15.3603 5.14831 0.000131192 10
-28.1452 15.0913 6.2077 0.000158526 10
-28.1589 15.0987 7.37656 0.000130797 10
-28.6437 15.3586 8.70876 0.000119421 10
-8.78942 4.67342 -2.66734 0.000186841 4
-10.2318 5.44035 -2.67536 0.000144703 4
-12.1588 6.46496 -2.67676 0.000114191 4
-14.9534 7.95086 -2.68236 5.33962e-05 4
-18.5628 9.87 -2.58138 4.1464e-05 4
-40.8518 21.7213 -2.42478 6.31772e-05 10
-28.5742 15.1932 1.69604 0.000139838 10
-28.2992 15.047 2.80409 0.000166473 10
-28.5679 15.1898 3.97271 0.000136229 10
-28.5623 15.1869 5.12356 0.000133431 10
-28.3053 15.0502 6.23138 0.000156586 10
-28.0849 14.933 7.34349 0.000133028 10
-28.5869 15.1999 8.6753 0.000121473 10
-8.81309 4.64662 -2.66958 0.000186833 4
-10.2565 5.40764 -2.67686 8.44056e-05 4
-12.185 6.4244 -2.67756 8.56373e-05 4
-14.9848 7.90058 -2.68303 4.47156e-05 4
-41.0288 21.6321 -2.43079 6.23094e-05 10
-41.155 21.6986 -0.812094 5.3499e-05 10
-41.1827 21.7132 0.812641 5.34713e-05 10
-28.5066 15.0298 1.6889 0.000142197 10
-28.4373 14.9933 2.81257 0.000164428 10
-28.4969 15.0247 3.95552 0.000138531 10
-28.502 15.0274 5.10329 0.000135689 10
-28.4406 14.995 6.24962 0.000154655 10
-28.0233 14.775 7.31384 0.000135278 10
-28.5221 15.038 8.63966 0.000123542 10
-8.82706 4.61468 -2.66892 0.000167363 4
-10.2628 5.36527 -2.6736 0.000125396 4
-12.2171 6.38694 -2.6797 6.52432e-05 4
-15.0137 7.84898 -2.68329 4.13752e-05 4
-19.4189 10.1519 -2.69051 0.000166283 4
-41.0621 21.4667 -2.42831 5.42249e-05 10
-41.0854 21.4789 -0.809236 5.45022e-05 10
-41.0808 21.4765 0.809145 5.44742e-05 10
-28.4501 14.8733 1.68246 0.000144576 10
-28.5437 14.9223 2.81792 0.000104068 10
-28.4427 14.8695 3.94077 0.000140853 10
-28.4379 14.867 5.08248 0.000137967 10
-28.5372 14.9189 6.25935 9.78794e-05 10
-27.977 14.626 7.2884 4.88121e-05 10
-28.4502 14.8734 8.60209 0.00012563 10
-8.85313 4.58903 -2.67194 7.3948e-05 4
-10.2773 5.32724 -2.67251 0.000113333 4
-12.2357 6.34238 -2.67891 3.26195e-05 4
-15.0551 7.80382 -2.6858 3.60335e-05 4
-19.3836 10.0475 -2.68074 7.06722e-05 4
-41.2191 21.366 -2.43317 6.17247e-05 10
-41.2206 21.3667 -0.810425 6.20614e-05 10
-41.2376 21.3756 0.81076 6.20501e-05 10
-28.3644 14.7027 1.67435 0.000146974 10
-28.387 14.7144 3.92591 0.000143195 10
-28.398 14.7201 5.06614 0.000140264 10
-28.0366 14.5328 7.29065 4.88152e-05 10
-28.4076 14.7251 8.57363 0.000127735 10
-8.86224 4.55458 -2.66988 0.000202375 4
-10.3053 5.29621 -2.67498 4.82241e-05 4
-12.2512 6.29629 -2.67749 5.97986e-05 4
-15.0834 7.75184 -2.68601 4.20356e-05 4
-19.334 9.93635 -2.66908 0.000194196 4
-28.2937 14.541 -2.78315 0.000190035 10
-41.4397 21.2971 -2.44178 6.08576e-05 10
-41.4289 21.2916 -0.813055 6.11899e-05 10
-41.437 21.2957 0.813213 6.11788e-05 10
-28.3145 14.5517 1.6684 0.000149393 10
-28.3286 14.5589 3.91078 0.000145556 10
-28.328 14.5586 5.04457 0.00014258 10
-28.0651 14.4235 7.28492 4.88182e-05 10
-28.3345 14.562 8.53618 0.000129859 10
-8.87695 4.52303 -2.66953 0.000163449 4
-10.317 5.25679 -2.67324 0.000142253 4
-15.1158 7.70189 -2.68697 6.00461e-05 4
-19.3126 9.84026 -2.66136 0.00017724 4
-28.2526 14.3954 -2.77415 0.000193138 10
-41.8479 21.3226 -2.46144 5.88885e-05 10
-41.8535 21.3254 -0.819922 3.91103e-05 10
-41.8512 21.3242 0.819876 3.91031e-05 10
-28.2481 14.3931 1.66151 0.000151832 10
-28.3594 14.4499 2.78463 9.49686e-05 10
-28.2526 14.3954 3.89333 0.000147936 10
-28.2525 14.3954 5.02215 0.000144916 10
-28.3499 14.445 6.18477 8.92582e-05 10
-28.1357 14.3358 7.29022 4.88213e-05 10
-28.2818 14.4103 8.50509 0.000132 10
-8.90422 4.49785 -2.673 0.000112853 4
-10.3496 5.22794 -2.67692 9.88489e-05 4
-12.2992 6.2128 -2.67843 4.21254e-05 4
-15.1416 7.64858 -2.68679 5.20357e-05 4
-19.2776 9.73782 -2.65184 0.000176751 4
-28.1881 14.2388 -2.76292 0.000196265 10
-42.0634 21.2478 -2.46973 5.80463e-05 10
-42.068 21.2501 -0.822666 3.85512e-05 10
-42.0586 21.2454 0.822482 3.85441e-05 10
-28.2034 14.2466 1.65595 0.00015429 10
-27.7205 14.0027 2.71708 0.000161044 10
-28.2 14.2449 3.87921 0.000150336 10
-28.2117 14.2508 5.00601 0.00014727 10
-27.7193 14.002 6.03649 0.000151422 10
-27.7369 14.0109 7.17417 0.000146815 10
-28.2126 14.2512 8.46926 0.000134158 10
-8.91468 4.46414 -2.67144 0.000260718 4
-10.3549 5.18535 -2.67361 5.5449e-05 4
-12.3234 6.17109 -2.67898 5.29932e-05 4
-19.2522 9.64077 -2.64369 0.000150416 4
-28.127 14.085 -2.75209 0.000199417 10
-28.1146 14.0787 -1.64784 0.000132983 10
-28.1323 14.0876 -0.549179 0.000133588 10
-28.1271 14.085 0.549078 0.000133528 10
-28.1235 14.0832 1.64836 0.000156767 10
-27.8369 13.9397 2.72371 0.000178323 10
-28.13 14.0864 3.86278 0.000152755 10
-28.1313 14.0871 4.98298 0.000149643 10
-27.8348 13.9387 6.05102 0.000167811 10
-27.8229 13.9327 7.1838 0.000162751 10
-28.1589 14.101 8.43833 0.000136334 10
-8.92152 4.42868 -2.66884 0.00013619 4
-10.3719 5.14863 -2.67333 0.000200088 4
-12.33 6.12068 -2.67577 9.91861e-05 4
-15.1872 7.539 -2.68548 4.93594e-05 4
-19.2225 9.54214 -2.63503 0.000190102 4
-28.0677 13.9329 -2.74151 0.000202594 10
-28.2037 14.0004 -1.65019 0.000146575 10
-28.2145 14.0058 -0.549828 0.000147284 10
-28.2018 13.9995 0.549579 0.00014726 10
-28.0643 13.9312 1.64203 0.000159264 10
-27.95 13.8745 2.73001 0.000176041 10
-28.0658 13.932 3.84728 0.000155193 10
-28.0753 13.9367 4.96443 0.000152035 10
-27.9577 13.8783 6.06717 0.000165654 10
-27.9788 13.8888 7.21149 0.000160655 10
-28.1025 13.9502 8.40678 0.000138528 10
-8.94905 4.40348 -2.67247 0.00015953 4
-10.3891 5.11206 -2.67315 0.000303733 4
-12.368 6.08581 -2.67938 9.10282e-05 4
-15.2237 7.49099 -2.6873 8.13698e-05 4
-19.175 9.43526 -2.62398 0.000219014 4
-27.9943 13.7749 -2.72963 0.000205795 10
-28.0235 13.7893 -1.63682 0.000149978 10
-28.0131 13.7842 -0.544962 0.000150702 10
-28.0207 13.7879 0.545108 0.000150678 10
-28.0055 13.7804 1.63577 0.000161781 10
-28.0091 13.7822 2.73107 0.000160104 10
-28.023 13.789 3.83479 0.00015765 10
-28.0288 13.7919 4.94765 0.000154445 10
-28.0149 13.7851 6.0691 0.000150528 10
-28.0344 13.7946 7.21336 0.000145941 10
-28.042 13.7984 8.37422 0.000140738 10
-8.95558 4.36793 -2.66985 0.000120615 4
-10.4232 5.08372 -2.67734 0.000188016 4
-12.3809 6.03856 -2.67759 9.37397e-05 4
-15.2282 7.42731 -2.6835 4.26825e-05 4
-19.1585 9.34421 -2.61724 0.000214377 4
-27.935 13.6248 -2.7192 0.000209021 10
-28.1571 13.7332 -1.64181 0.000148032 10
-28.1558 13.7325 -0.546801 0.000148747 10
-28.164 13.7365 0.54696 0.000148722 10
-27.9602 13.6371 1.63033 0.000164317 10
-27.9531 13.6336 2.72095 0.000162616 10
-27.9604 13.6372 3.81968 0.000160125 10
-27.9757 13.6446 4.92984 0.000156874 10
-27.9609 13.6375 6.04705 0.000152899 10
-27.9707 13.6422 7.18467 0.000148245 10
-27.9632 13.6386 8.33642 0.000142966 10
-8.9771 4.3397 -2.67173 0.000155626 4
-10.4412 5.04746 -2.67742 0.000137389 4
-12.4019 5.99534 -2.6776 0.000111394 4
-15.2595 7.37675 -2.68446 3.26762e-05 4
-19.1073 9.23681 -2.60583 0.000189966 4
-27.8789 13.4772 -2.70913 0.000212271 10
-27.9678 13.5202 -1.62801 0.000151498 10
-27.9587 13.5157 -0.542053 0.000152228 10
-27.9763 13.5243 0.542395 0.000152203 10
-27.908 13.4912 1.62453 0.000166871 10
-27.8946 13.4848 2.71066 0.000165146 10
-27.9037 13.4892 3.80547 0.00016262 10
-27.9104 13.4924 4.91 0.000159321 10
-27.9147 13.4945 6.02682 0.000155289 10
-27.9149 13.4946 7.15821 0.000150567 10
-27.9092 13.4918 8.30622 0.000145211 10
-8.98897 4.30679 -2.67077 8.16999e-05 4
-10.441 5.00248 -2.67288 0.000127741 4
-12.4254 5.95324 -2.67816 8.82947e-05 4
-19.0806 9.14188 -2.59782 0.000210685 4
-27.8324 13.3351 -2.70008 0.000215545 10
-27.8423 13.3398 -1.61799 0.000143732 10
-27.8348 13.3362 -0.538745 0.000144384 10
-27.8388 13.3381 0.538822 0.000144321 10
-27.8301 13.334 1.61728 0.000169445 10
-27.8284 13.3331 2.69969 0.000167695 10
-27.8458 13.3415 3.79121 0.000165132 10
-27.8386 13.338 4.88916 0.000161787 10
-27.8558 13.3463 6.00402 0.000157696 10
-27.8461 13.3416 7.12859 0.000152906 10
-27.8661 13.3512 8.27946 0.000147472 10
-9.00808 4.27735 -2.67199 0.000143941 4
-10.4682 4.97065 -2.67538 5.54321e-05 4
-12.4371 5.90556 -2.67622 7.06315e-05 4
-15.3192 7.27411 -2.68597 5.46743e-05 4
-19.0635 9.05201 -2.59118 0.000191685 4
-27.776 13.189 -2.69013 0.000218843 10
-27.8982 13.2471 -1.61854 0.000153039 10
-27.9046 13.2501 -0.539199 0.000153775 10
-27.9262 13.2604 0.539616 0.00015375 10
-27.7892 13.1953 1.61221 0.000172037 10
-27.7884 13.1949 2.69132 0.000170262 10
-27.774 13.1881 3.77515 0.000167663 10
-27.7888 13.1951 4.87229 0.00016427 10
-27.798 13.1995 5.9816 0.000160121 10
-27.7983 13.1996 7.10451 0.000155263 10
-27.8051 13.2029 8.24762 0.00014975 10
-9.02374 4.24625 -2.67223 0.000303431 4
-10.4832 4.93302 -2.67481 0.000139778 4
-15.3525 7.22433 -2.68736 3.93358e-05 4
-19.0107 8.94577 -2.57975 3.43044e-05 4
-27.7119 13.0403 -2.6795 0.000222165 10
-27.7281 13.0479 -1.60602 0.000148144 10
-27.7215 13.0448 -0.534778 0.000148815 10
-27.7283 13.0479 0.534907 0.000148751 10
-27.717 13.0426 1.60538 0.000174648 10
-27.7259 13.0468 2.68084 0.000172849 10
-27.7326 13.05 3.76329 0.000170213 10
-27.7371 13.0521 4.85522 0.000166771 10
-27.7487 13.0575 5.96114 0.000162563 10
-27.7336 13.0504 7.07627 0.000157636 10
-27.75 13.0581 8.21768 0.000152045 10
-9.02633 4.20905 -2.66863 0.000225619 4
-10.5015 4.89693 -2.6751 5.54267e-05 4
-12.4796 5.81934 -2.67657 0.000153469 4
-15.373 7.16853 -2.68655 3.06663e-05 4
-19.0618 8.88865 -2.58245 4.81987e-05 4
-27.6687 12.9021 -2.67094 0.00022551 10
-27.8524 12.9878 -1.61058 0.0001546 10
-27.8575 12.9902 -0.536524 0.000155343 10
-27.8594 12.9911 0.536559 0.000155317 10
-27.6539 12.8952 1.5991 0.000177277 10
-27.6686 12.9021 2.67093 0.000175453 10
-27.6817 12.9082 3.75026 0.00017278 10
-27.6882 12.9112 4.83874 0.00016929 10
-27.6713 12.9034 5.93481 0.000165023 10
-27.6826 12.9086 7.05172 0.000160027 10
-27.6901 12.9121 8.18654 0.000154357 10
-9.04978 4.18159 -2.67123 9.33558e-05 4
-10.517 4.85956 -2.67472 7.22922e-05 4
-12.5148 5.78263 -2.67976 4.889e-05 4
-15.4038 7.11757 -2.68758 3.13306e-05 4
-19.0877 8.81975 -2.58177 3.40018e-05 4
-27.59 12.7484 -2.65903 0.000228878 10
-27.6513 12.7767 -1.59637 0.000158327 10
-27.6383 12.7707 -0.531439 0.000159086 10
-27.6494 12.7758 0.531651 0.000159059 10
-27.1426 12.5416 1.56699 0.000189635 10
-27.1462 12.5433 2.61626 0.000187694 10
-27.1543 12.547 3.67285 0.00018485 10
-27.1482 12.5442 4.73667 0.000181137 10
-27.1617 12.5505 5.81607 0.000176596 10
-27.1606 12.55 6.90756 0.000171278 10
-27.162 12.5506 8.01743 0.000165243 10
-9.06307 4.1494 -2.67086 0.000101131 4
-10.5367 4.82406 -2.67541 8.43368e-05 4
-12.5342 5.7386 -2.67961 6.24669e-05 4
-15.4117 7.05601 -2.68463 5.46578e-05 4
-27.5422 12.6098 -2.65017 0.00023227 10
-27.5523 12.6144 -1.5881 0.000234478 10
-27.5561 12.6162 -0.529008 0.000235538 10
-27.5561 12.6162 0.529008 0.000235438 10
-27.1092 12.4116 1.56256 0.000198783 10
-27.1085 12.4112 2.60844 0.000196801 10
-27.0994 12.4071 3.65954 0.000193873 10
-27.1022 12.4084 4.72107 0.000190032 10
-27.119 12.4161 5.79762 0.000185322 10
-27.1099 12.4119 6.88358 0.000179795 10
-27.1256 12.4191 7.99382 0.000173514 10
-9.08758 4.12231 -2.67383 0.000182807 4
-10.5576 4.78916 -2.67648 0.000134932 4
-12.557 5.69613 -2.68023 8.14738e-05 4
-19.154 8.68862 -2.58247 3.99072e-05 4
-27.4763 12.4638 -2.63963 0.000235684 10
-27.504 12.4764 -1.58279 0.000237924 10
-27.5038 12.4763 -0.527164 0.000238999 10
-27.4959 12.4727 0.527014 0.000238897 10
-27.2406 12.3569 1.56763 0.000196087 10
-27.2349 12.3543 2.61644 0.00019413 10
-27.2552 12.3635 3.67473 0.000191239 10
-27.2381 12.3558 4.7372 0.000187447 10
-27.2469 12.3598 5.8157 0.000182797 10
-27.2601 12.3657 6.91072 0.000177341 10
-27.2385 12.3559 8.01434 0.000171139 10
-9.09757 4.08861 -2.67255 7.00084e-05 4
-10.5629 4.74716 -2.67359 0.000122879 4
-12.5711 5.64969 -2.67901 0.00010591 4
-19.1881 8.62346 -2.58299 3.81298e-05 4
-27.433 12.3289 -2.63132 0.000239121 10
-27.4474 12.3354 -1.57705 0.000241391 10
-27.4374 12.3309 -0.525064 0.000242481 10
-27.45 12.3365 0.525306 0.000242379 10
-27.3735 12.3021 1.5728 0.000193407 10
-27.3672 12.2993 2.625 0.000191475 10
-27.3749 12.3028 3.68506 0.000188621 10
-27.3736 12.3022 4.75327 0.000184878 10
-27.3792 12.3047 5.83472 0.000180287 10
-27.3727 12.3018 6.92836 0.000174901 10
-27.3986 12.3134 8.04876 0.000168779 10
-9.11826 4.05971 -2.67445 0.00024113 4
-10.5743 4.70798 -2.6723 0.00013251 4
-12.5841 5.60278 -2.67758 5.70251e-05 4
-15.4969 6.89966 -2.68675 3.66527e-05 4
-19.2187 8.55674 -2.58308 3.93083e-05 4
-27.5105 12.2485 -2.63463 0.000242391 10
-27.5025 12.2449 -1.57775 0.000244756 10
-27.5143 12.2501 -0.525714 0.000245924 10
-27.523 12.254 0.52588 0.000245883 10
-27.5259 12.2553 1.57909 0.000190743 10
-27.5116 12.249 2.63474 0.000188836 10
-27.5104 12.2484 3.69752 0.000186019 10
-27.5189 12.2522 4.77105 0.000182324 10
-27.5167 12.2512 5.85488 0.000177792 10
-27.5231 12.2541 6.95555 0.000172476 10
-27.5235 12.2542 8.07283 0.000166434 10
-9.12973 4.02669 -2.67368 0.000105004 4
-10.6007 4.67546 -2.67483 0.000351739 4
-12.6181 5.56526 -2.68068 2.98686e-05 4
-15.524 6.8469 -2.68729 5.4642e-05 4
-19.235 8.48365 -2.58128 3.9009e-05 4
-27.642 12.1916 -2.64313 0.000239025 10
-27.6514 12.1957 -1.58384 0.000241358 10
-27.6431 12.192 -0.527358 0.000242511 10
-27.6457 12.1932 0.527409 0.00024247 10
-27.6537 12.1968 1.58397 0.000188095 10
-27.6517 12.1959 2.64407 0.000186213 10
-27.6507 12.1954 3.71063 0.000183432 10
-27.653 12.1964 4.78688 0.000179785 10
-27.6678 12.203 5.87794 0.000175313 10
-27.6645 12.2015 6.98047 0.000170065 10
-27.6637 12.2012 8.10142 0.000164102 10
-9.12806 3.98796 -2.66909 0.000225556 4
-10.6073 4.63422 -2.6724 0.000195134 4
-12.6382 5.52148 -2.68083 0.000137116 4
-19.2602 8.41457 -2.58069 3.90053e-05 4
-27.7955 12.1436 -2.65374 0.000235679 10
-27.7835 12.1383 -1.58897 0.000237982 10
-27.7934 12.1426 -0.529414 0.00023912 10
-27.7825 12.1379 0.529207 0.00023908 10
-27.8006 12.1458 1.58995 0.000185463 10
-27.7845 12.1388 2.65269 0.000183606 10
-27.7891 12.1408 3.7235 0.000180862 10
-27.7852 12.1391 4.8024 0.000177262 10
-27.7957 12.1437 5.89607 0.000172848 10
-27.8106 12.1501 7.00659 0.00016767 10
-27.81 12.1499 8.13178 0.000161786 10
-9.1505 3.95977 -2.67159 8.55523e-05 4
-10.6361 4.60266 -2.67559 8.67221e-05 4
-12.6426 5.47094 -2.6777 5.43005e-05 4
-19.2986 8.35126 -2.58193 4.46154e-05 4
-27.9387 12.0902 -2.66337 0.000232354 10
-28.1519 12.1824 -1.6076 0.000152318 10
-28.1456 12.1797 -0.53531 0.000153011 10
-28.1451 12.1795 0.5353 0.000152946 10
-27.9415 12.0914 1.59558 0.000182848 10
-27.9406 12.091 2.66355 0.000181015 10
-27.941 12.0911 3.73816 0.000178307 10
-27.9476 12.094 4.82315 0.000174755 10
-27.9501 12.0951 5.91983 0.000170399 10
-27.9349 12.0885 7.02724 0.00016529 10
-27.9389 12.0902 8.15708 0.000159483 10
-9.15239 3.92272 -2.66813 5.05517e-05 4
-10.6601 4.56893 -2.6776 0.000105989 4
-12.6767 5.43324 -2.68089 3.12211e-05 4
-19.3393 8.28886 -2.58349 3.16119e-05 4
-28.0647 12.0286 -2.67137 0.00022905 10
-28.0848 12.0371 -1.60135 0.000154471 10
-28.1066 12.0465 -0.533765 0.000155172 10
-28.1011 12.0441 0.53366 0.000155108 10
-28.0651 12.0287 1.60023 0.000180249 10
-28.0831 12.0364 2.67311 0.00017844 10
-28.0759 12.0333 3.75057 0.000175768 10
-28.0674 12.0297 4.83655 0.000172264 10
-28.0817 12.0358 5.93876 0.000167966 10
-28.0779 12.0342 7.05259 0.000162925 10
-28.0787 12.0346 8.18561 0.000157196 10
-9.16542 3.89049 -2.66796 0.000447171 4
-10.6663 4.52757 -2.67517 7.70793e-05 4
-12.6805 5.38256 -2.67771 6.92255e-05 4
-15.6061 6.62441 -2.68523 4.53e-05 4
-19.3554 8.21588 -2.58179 3.89942e-05 4
-28.216 11.977 -2.68177 0.000225768 10
-28.399 12.0547 -1.61686 0.000150831 10
-28.3796 12.0464 -0.538148 0.000151518 10
-28.389 12.0504 0.538325 0.000151455 10
-28.2247 11.9807 1.60694 0.000177667 10
-28.2094 11.9742 2.68114 0.000175882 10
-28.218 11.9778 3.76395 0.000173246 10
-28.2188 11.9782 4.85539 0.000169788 10
-28.2278 11.982 5.96078 0.000165549 10
-28.2163 11.9771 7.07682 0.000160575 10
-28.2258 11.9811 8.21623 0.000154924 10
-9.17995 3.8589 -2.66825 0.000178862 4
-10.6733 4.48663 -2.67297 0.000137291 4
-12.7077 5.34183 -2.6795 4.34333e-05 4
-28.3593 11.9212 -2.69141 0.000222507 10
-28.3574 11.9203 -1.61211 0.000148413 10
-28.3687 11.9251 -0.537148 0.000149125 10
-28.3588 11.921 0.536961 0.000149099 10
-28.3598 11.9214 1.61225 0.000175102 10
-28.3529 11.9185 2.69081 0.000173341 10
-28.3657 11.9239 3.77808 0.000170741 10
-28.3598 11.9214 4.87247 0.00016733 10
-28.3623 11.9224 5.98037 0.000163148 10
-28.3635 11.9229 7.10325 0.000158241 10
-28.3749 11.9277 8.24747 0.000152667 10
-9.21488 3.83579 -2.67449 0.0005249 4
-10.6844 4.44749 -2.67186 5.29873e-05 4
-12.7357 5.30135 -2.68147 2.98588e-05 4
-15.651 6.51488 -2.68506 5.59512e-05 4
-19.4067 8.07821 -2.58104 4.34174e-05 4
-28.5049 11.8654 -2.70129 0.000219268 10
-28.6356 11.9198 -1.62555 0.000149364 10
-28.6335 11.919 -0.541371 0.000150046 10
-28.6281 11.9167 0.541269 0.000149984 10
-28.5066 11.8662 1.61823 0.000172554 10
-28.5171 11.8705 2.70244 0.000170817 10
-28.5071 11.8664 3.79138 0.000168252 10
-28.4946 11.8611 4.88848 0.000164887 10
-28.5165 11.8703 6.00409 0.000160762 10
-28.5171 11.8705 7.13131 0.000155923 10
-28.5211 11.8722 8.27787 0.000150425 10
-9.21833 3.79952 -2.67163 0.000237168 4
-10.7033 4.41158 -2.67271 0.000238432 4
-12.7554 5.25739 -2.68174 7.73572e-05 4
-19.4476 8.01571 -2.58274 4.10507e-05 4
-28.6457 11.8069 -2.71071 0.000216051 10
-28.6375 11.8035 -1.62331 0.000144109 10
-28.6509 11.809 -0.540918 0.000144801 10
-28.6471 11.8075 0.540846 0.000144776 10
-28.6602 11.8129 1.6246 0.000170023 10
-28.6559 11.8111 2.71167 0.00016831 10
-28.6616 11.8135 3.80641 0.00016578 10
-28.6502 11.8088 4.90808 0.000162462 10
-28.6504 11.8089 6.02358 0.000158393 10
-28.6528 11.8098 7.15488 0.000153621 10
-28.6428 11.8057 8.30118 0.000148198 10
-9.22242 3.7636 -2.66899 3.11029e-05 4
-10.7308 4.37915 -2.67575 9.63321e-05 4
-12.7713 5.21185 -2.68124 0.000161492 4
-28.7872 11.7478 -2.7202 0.000212855 10
-28.8537 11.775 -1.63323 0.000147917 10
-28.8572 11.7764 -0.544033 0.000148594 10
-28.8665 11.7802 0.544209 0.000148532 10
-28.6035 11.6729 1.61907 0.000179479 10
-28.6197 11.6795 2.70437 0.00017763 10
-28.6114 11.6761 3.79431 0.000174919 10
-28.6101 11.6756 4.8942 0.000171379 10
-28.6093 11.6752 6.00633 0.000167049 10
-28.6307 11.684 7.13913 0.000161979 10
-28.617 11.6784 8.28184 0.000156225 10
-9.23434 3.73092 -2.66866 0.000143846 4
-10.7484 4.34265 -2.67635 0.000134859 4
-12.7745 5.16123 -2.67812 9.3633e-05 4
-15.7156 6.34951 -2.68458 3.79592e-05 4
-28.9424 11.6935 -2.73099 0.000209682 10
-29.1634 11.7828 -1.64842 0.000144532 10
-29.1628 11.7826 -0.549017 0.000145194 10
-29.1466 11.776 0.54871 0.000145134 10
-28.5441 11.5326 1.61342 0.000181916 10
-28.5429 11.5321 2.69329 0.000180043 10
-28.5614 11.5396 3.78231 0.000177298 10
-28.572 11.5438 4.88075 0.000173713 10
-28.5707 11.5433 5.98972 0.000169329 10
-28.5571 11.5378 7.11069 0.000164194 10
-28.5559 11.5373 8.25243 0.000158367 10
-9.25243 3.70071 -2.67013 4.66509e-05 4
-10.7659 4.30604 -2.67693 0.000154118 4
-15.74 6.29554 -2.68498 4.46158e-05 4
-19.5375 7.81446 -2.58368 3.95635e-05 4
-29.084 11.6328 -2.7405 0.000206532 10
-29.0898 11.6351 -1.64196 0.000146489 10
-29.0977 11.6383 -0.547023 0.00014716 10
-29.1178 11.6463 0.547399 0.000147099 10
-28.599 11.4388 1.61425 0.00017123 10
-28.6062 11.4417 2.69548 0.000169507 10
-28.6013 11.4397 3.78228 0.000166962 10
-28.6051 11.4412 4.87957 0.000163626 10
-28.5918 11.4359 5.98575 0.000159534 10
-28.5989 11.4388 7.11113 0.000154734 10
-28.62 11.4472 8.25938 0.00014928 10
-9.27757 3.67325 -2.67367 0.000489817 4
-10.7665 4.26276 -2.67338 0.000390095 4
-12.818 5.07502 -2.67976 0.00012076 4
-15.7702 6.24385 -2.68639 4.26153e-05 4
-19.5551 7.74241 -2.58241 4.60549e-05 4
-29.2296 11.5728 -2.7504 0.000203404 10
-29.3989 11.6399 -1.6571 0.000143164 10
-29.4023 11.6412 -0.551982 0.000143821 10
-29.3992 11.64 0.551922 0.000143762 10
-28.7613 11.3874 3.79816 0.000164442 10
-29.2416 11.5776 7.26083 9.22922e-05 10
-28.758 11.3861 8.28769 0.00014701 10
-9.29381 3.64221 -2.67467 0.00034597 4
-10.7884 4.22791 -2.67512 0.000493618 4
-12.8389 5.03152 -2.68044 3.52765e-05 4
-15.7986 6.1914 -2.68754 5.45973e-05 4
-19.5797 7.67319 -2.5821 4.54605e-05 4
-29.3843 11.5156 -2.76116 0.000200299 10
-29.3829 11.5151 -1.65392 0.000133608 10
-29.3943 11.5195 -0.551073 0.000134253 10
-29.3893 11.5175 0.550978 0.000134229 10
-29.3806 11.5141 3.87461 0.000153678 10
-29.3911 11.5183 7.28794 4.88979e-05 10
-28.895 11.3239 8.31573 0.000144756 10
-9.28528 3.60152 -2.66858 0.000120502 4
-10.7948 4.18702 -2.67307 0.000421364 4
-12.865 4.99001 -2.68223 9.09003e-05 4
-15.8125 6.13325 -2.68624 0.000148468 4
-19.5979 7.60152 -2.58099 3.30593e-05 4
-29.5415 11.4584 -2.77216 0.000197217 10
-29.6111 11.4854 -1.6645 0.000141812 10
-29.6336 11.4941 -0.554804 0.000142464 10
-29.6155 11.4871 0.554465 0.000142406 10
-29.6295 11.4925 1.66554 9.81214e-05 10
-29.6238 11.4903 2.77987 9.71256e-05 10
-29.5442 11.4594 3.8909 0.000151311 10
-29.6436 11.498 5.0359 9.37273e-05 10
-29.6299 11.4927 6.17753 9.13638e-05 10
-29.4176 11.4103 7.28459 4.89003e-05 10
-29.0567 11.2703 8.35087 0.000142519 10
-9.30946 3.57357 -2.67193 0.000202125 4
-10.8168 4.15218 -2.67492 0.000149277 4
-12.8632 4.93772 -2.67824 8.27558e-05 4
-15.8241 6.0743 -2.6846 0.000141136 4
-19.6283 7.53461 -2.58152 4.014e-05 4
-29.7008 11.4011 -2.78335 0.000194158 10
-46.4074 17.8141 -2.60514 4.72223e-05 10
-29.6813 11.3936 3.90369 0.000148961 10
-29.4636 11.31 7.28615 4.89027e-05 10
-9.31048 3.53672 -2.66866 0.000283743 4
-10.8329 4.11504 -2.67534 0.000154086 4
-12.8994 4.90001 -2.68219 0.000120736 4
-15.8607 6.02491 -2.68722 0.000117162 4
-19.6752 7.4739 -2.58423 3.80708e-05 4
-29.8361 11.3337 -2.79231 0.000191123 10
-46.3165 17.594 -2.59657 4.7936e-05 10
-29.8614 11.3433 3.92214 0.000146629 10
-29.4902 11.2023 7.28301 4.89051e-05 10
-9.34442 3.51234 -2.67486 0.000178791 4
-10.8481 4.07753 -2.67555 0.00027927 4
-15.8909 5.97298 -2.68879 0.000150437 4
-19.6935 7.4023 -2.58323 3.86577e-05 4
-46.2362 17.3791 -2.58866 4.86544e-05 10
-46.2943 17.4009 -0.863268 2.89887e-05 10
-46.2725 17.3927 0.862861 2.89826e-05 10
-30.0003 11.2764 3.9352 0.000144315 10
-29.5493 11.1069 7.28799 4.89074e-05 10
-9.35018 3.4773 -2.67302 0.000104939 4
-10.8621 4.03956 -2.67551 4.8148e-05 4
-12.9298 4.80854 -2.68147 8.95259e-05 4
-15.8974 5.91219 -2.68639 0.000139113 4
-19.7126 7.33105 -2.58236 3.06876e-05 4
-46.1499 17.163 -2.58046 4.93777e-05 10
-46.1537 17.1644 -0.859524 3.27877e-05 10
-46.1506 17.1632 0.859465 3.27726e-05 10
-30.1489 11.2123 3.94953 0.000142019 10
-29.652 11.0275 7.30378 0.000138665 10
-9.35291 3.4412 -2.67035 0.000116595 4
-10.8867 4.00554 -2.67813 0.000139624 4
-12.9457 4.7631 -2.68131 0.000105798 4
-15.9073 5.85274 -2.68459 3.39441e-05 4
-19.75 7.2666 -2.58393 2.97999e-05 4
-46.0508 16.9434 -2.57159 5.01056e-05 10
-46.0675 16.9495 -0.856811 3.3271e-05 10
-46.072 16.9512 0.856894 3.32556e-05 10
-30.4191 11.1921 1.69868 9.06259e-05 10
-30.4208 11.1927 2.8359 8.97012e-05 10
-30.3188 11.1551 3.96665 0.000139742 10
-30.4082 11.188 5.13183 8.65458e-05 10
-30.4225 11.1933 6.3011 8.43516e-05 10
-29.8021 10.965 7.33128 0.00013644 10
-30.4252 11.1943 8.6867 7.88565e-05 10
-9.37104 3.41078 -2.67211 0.000349773 4
-10.8941 3.96512 -2.6765 8.18451e-05 4
-12.9529 4.71449 -2.67938 0.00010308 4
-19.7682 7.19504 -2.583 3.12726e-05 4
-45.9814 16.7359 -2.56444 5.08382e-05 10
-45.9808 16.7357 -0.854107 3.37573e-05 10
-30.4316 11.0762 1.69721 0.000160645 10
-30.4406 11.0795 2.83413 0.000158971 10
-30.4677 11.0893 3.98105 0.000137483 10
-30.4282 11.075 5.12866 0.000153311 10
-30.4557 11.085 6.29992 0.00014939 10
-29.9625 10.9055 7.36132 0.000134233 10
-30.4406 11.0795 8.68001 0.000139594 10
-9.3873 3.37964 -2.67337 0.000194312 4
-10.896 3.92279 -2.67359 0.000190162 4
-12.9788 4.67267 -2.68135 7.32379e-05 4
-16.4356 5.91718 -2.76671 0.000101755 1
-19.7985 7.12789 -2.58369 3.77601e-05 4
-38.0368 13.6941 -0.705652 0.000100999 10
-38.0174 13.6871 0.705292 0.000100956 10
-30.3706 10.9341 1.69166 0.000162689 10
-30.374 10.9353 2.82435 0.000160995 10
-30.6372 11.0301 3.99814 0.000135243 10
-30.3899 10.9411 5.11573 0.000155268 10
-30.3934 10.9423 6.27909 0.000151302 10
-30.1308 10.8477 7.39332 0.000132044 10
-30.3997 10.9446 8.65739 0.000141388 10
-9.39385 3.345 -2.67189 0.000307003 4
-10.9061 3.88348 -2.67273 4.81404e-05 4
-12.9857 4.62399 -2.67941 6.64535e-05 4
-16.434 5.85189 -2.76298 0.000101749 1
-19.8171 7.05657 -2.5829 3.56922e-05 4
-37.9599 13.5169 -0.703346 0.000102361 10
-37.967 13.5195 0.703477 0.000102318 10
-30.3324 10.8009 1.68743 0.000164743 10
-30.3266 10.7988 2.81642 0.000163029 10
-30.7932 10.965 4.01349 0.000133021 10
-30.3223 10.7973 5.09797 0.000157235 10
-30.3343 10.8016 6.25905 0.000153222 10
-30.8011 10.9678 7.54836 0.000123123 10
-30.3453 10.8055 8.63112 0.000143191 10
-9.40584 3.31232 -2.672 0.000306993 4
-10.9212 3.84597 -2.67313 0.000151637 4
-13.0102 4.58163 -2.68117 6.64504e-05 4
-16.4734 5.8012 -2.76619 0.000101743 1
-19.8351 6.98506 -2.58205 4.92572e-05 4
-30.9665 10.905 -1.72058 0.00017224 10
-37.9386 13.3603 -0.702083 8.92375e-05 10
-37.8896 13.3431 0.701177 0.000103687 10
-30.9651 10.9045 1.72049 0.000134222 10
-30.9618 10.9034 2.87186 0.000132847 10
-30.9647 10.9044 4.03085 0.000130818 10
-30.9664 10.905 5.19983 0.000128157 10
-30.9661 10.9049 6.38154 0.000124896 10
-30.962 10.9034 7.57842 0.000121073 10
-30.9744 10.9078 8.79916 0.000116731 10
-9.42924 3.28361 -2.67537 0.000170978 4
-10.9565 3.81544 -2.67848 0.000187734 4
-13.0154 4.53244 -2.67895 0.000103061 4
-16.492 5.74311 -2.76592 0.000101737 1
-21.3434 7.43258 -2.775 3.98246e-05 1
-31.1217 10.8377 -1.72709 0.00016937 10
-37.8111 13.1672 0.698868 0.000105062 10
-31.1299 10.8406 1.72754 0.000131985 10
-31.1155 10.8356 2.88259 8.33929e-05 10
-31.1341 10.8421 4.04795 0.000128634 10
-31.1339 10.842 5.22156 0.000126015 10
-31.1339 10.842 6.40828 7.83961e-05 10
-31.1239 10.8385 7.60876 0.000119041 10
-31.1214 10.8376 8.83013 0.000114767 10
-9.42449 3.24511 -2.67079 0.000112686 4
-10.9607 3.77407 -2.67628 6.25755e-05 4
-13.048 4.49279 -2.68242 5.28843e-05 4
-16.5171 5.68729 -2.76679 0.000101731 1
-21.3766 7.36055 -2.77595 3.98215e-05 1
-31.2908 10.7743 -1.73438 0.000166525 10
-37.7478 12.9976 0.696855 0.000106446 10
-31.2758 10.7691 1.73354 0.000129768 10
-31.2831 10.7716 4.06241 0.000126469 10
-31.2934 10.7752 5.24198 0.00012389 10
-31.3895 10.8083 6.45306 7.63085e-05 10
-31.298 10.7768 7.64207 0.000117027 10
-31.2924 10.7748 8.86792 0.00011282 10
-9.4503 3.21715 -2.67491 0.00038079 4
-10.9723 3.73528 -2.67592 5.53532e-05 4
-13.0401 4.4392 -2.67758 3.93224e-05 4
-16.5355 5.62916 -2.76657 0.000101725 1
-21.3914 7.28224 -2.77456 3.98184e-05 1
-31.4489 10.7061 -1.74105 0.000163705 10
-31.8967 10.8585 -0.588136 0.000186357 10
-31.9019 10.8603 0.588232 0.000186283 10
-31.4595 10.7097 1.74164 0.00012757 10
-31.4477 10.7057 4.07891 0.000124322 10
-31.4588 10.7095 5.2634 0.000121785 10
-31.5672 10.7463 6.48185 7.50084e-05 10
-31.4575 10.709 7.67183 0.00011503 10
-31.4718 10.7139 8.90811 0.00011089 10
-9.44966 3.18017 -2.67157 0.000349695 4
-10.9877 3.69779 -2.67652 0.000117922 4
-13.0633 4.39628 -2.67918 8.94885e-05 4
-16.5565 5.57189 -2.76681 0.00010172 1
-21.4274 7.21111 -2.77594 3.98153e-05 1
-31.6041 10.636 -1.74758 0.00016091 10
-31.8336 10.7132 -0.586279 0.000188653 10
-31.8428 10.7163 0.586449 0.000188578 10
-31.6319 10.6453 1.74912 0.000125391 10
-31.7261 10.677 2.92864 9.34015e-05 10
-31.6114 10.6384 4.09529 0.000122196 10
-31.6216 10.6419 5.28439 0.000119699 10
-31.7342 10.6798 6.50846 8.77247e-05 10
-31.6337 10.6459 7.7057 0.000113052 10
-31.6285 10.6442 8.94188 0.000108978 10
-9.45539 3.14539 -2.67007 0.000143759 4
-10.9885 3.6554 -2.67359 4.09102e-05 4
-13.0906 4.35467 -2.68165 8.40612e-05 4
-16.5772 5.51451 -2.76704 0.000101714 1
-21.4499 7.13544 -2.77562 3.98123e-05 1
-31.7936 10.5763 -1.75601 0.000158139 10
-31.8017 10.579 -0.585009 0.000158913 10
-31.7869 10.5741 0.584736 0.000158882 10
-31.8039 10.5798 1.75657 0.000123232 10
-31.7846 10.5733 2.93062 0.000121962 10
-31.7852 10.5735 4.113 0.000120088 10
-31.7985 10.578 5.30775 0.000117631 10
-31.7843 10.5732 6.51112 0.00011462 10
-31.7997 10.5784 7.73709 0.000111091 10
-31.8006 10.5787 8.98004 0.000107084 10
-9.4708 3.11384 -2.67133 0.000237001 4
-11.0061 3.61862 -2.67477 9.14432e-05 4
-13.091 4.30411 -2.67864 7.59229e-05 4
-16.5938 5.45577 -2.76661 0.000101708 1
-21.4917 7.06611 -2.77782 3.98093e-05 1
-31.9704 10.5114 -1.76374 0.000155395 10
-31.9609 10.5082 -0.587258 0.000156156 10
-31.9554 10.5064 0.587157 0.000156125 10
-31.9612 10.5083 1.76322 0.000121093 10
-31.9494 10.5045 2.94242 0.000119843 10
-31.9614 10.5084 4.13103 0.000117999 10
-31.9522 10.5053 5.32724 0.000115582 10
-31.9693 10.511 6.54145 0.000112621 10
-31.9643 10.5093 7.76817 0.000109149 10
-31.9622 10.5087 9.01527 0.000105207 10
-9.48342 3.08135 -2.67184 0.000233109 4
-11.0316 3.58438 -2.67791 0.000149191 4
-13.1217 4.2635 -2.68186 0.000103034 4
-16.5782 5.38659 -2.76086 0.000347141 4
-21.5001 6.9858 -2.77573 3.98063e-05 1
-32.1238 10.4376 -1.77017 0.000152675 10
-32.1315 10.4401 -0.58972 0.000153423 10
-32.1206 10.4366 0.589521 0.000153394 10
-32.1396 10.4428 1.77105 0.000118973 10
-32.1334 10.4408 2.95599 0.000117744 10
-32.1261 10.4384 4.14758 0.00011593 10
-32.1245 10.4379 5.34985 0.000113552 10
-32.1399 10.4429 6.56887 0.000110639 10
-32.1289 10.4393 7.79926 0.000107224 10
-32.1371 10.442 9.05425 0.000103347 10
-9.4917 3.04745 -2.67116 0.000248642 4
-11.0449 3.54613 -2.67812 0.00010828 4
-13.1223 4.21312 -2.67897 5.15147e-05 4
-16.5682 5.31947 -2.75608 0.000438139 4
-21.5294 6.91235 -2.77639 3.98033e-05 1
-32.2999 10.3704 -1.77787 0.000149981 10
-37.3552 11.9934 0.68482 0.000114886 10
-32.3103 10.3737 1.77845 0.000116874 10
-32.3082 10.373 2.96871 0.000115664 10
-32.3077 10.3729 4.16633 0.00011388 10
-32.3001 10.3704 5.37305 0.000111542 10
-32.3078 10.3729 6.59574 0.000108677 10
-32.3075 10.3728 7.83377 0.000105318 10
-32.3299 10.38 9.09831 0.000101505 10
-9.51267 3.0176 -2.67408 0.000112662 4
-11.0393 3.50188 -2.67379 0.000161212 4
-13.14 4.16827 -2.6796 5.28681e-05 4
-16.5319 5.24423 -2.74698 0.000432882 4
-21.541 6.83321 -2.77479 3.98004e-05 1
-32.4889 10.3061 -1.78628 0.000147313 10
-37.298 11.8316 0.683009 0.000116316 10
-32.4763 10.3021 1.78559 0.000114794 10
-32.3121 10.25 2.96577 0.000142813 10
-32.4919 10.307 4.18542 0.00011185 10
-32.4837 10.3044 5.39757 0.000109551 10
-32.3102 10.2494 6.5889 0.000134107 10
-32.4873 10.3056 7.8686 0.00010343 10
-32.5049 10.3112 9.13739 9.96812e-05 10
-9.52203 2.98403 -2.67377 0.000334093 4
-11.0649 3.46752 -2.67703 0.000113085 4
-13.1653 4.12576 -2.68179 6.09991e-05 4
-16.5089 5.17356 -2.74013 0.000315804 4
-21.5764 6.76164 -2.77629 3.97975e-05 1
-32.6676 10.2374 -1.79413 0.00014467 10
-37.2407 11.6705 0.681211 0.000117751 10
-32.6456 10.2305 1.79293 0.000112734 10
-32.2502 10.1066 2.95683 0.000144504 10
-32.6584 10.2345 4.20224 0.00010984 10
-32.6631 10.236 5.42141 0.000107579 10
-32.2495 10.1064 6.56928 0.000135702 10
-32.6596 10.2349 7.90163 0.000101561 10
-32.536 10.1962 9.13607 4.27328e-05 10
-9.52549 2.94863 -2.67184 0.000236966 4
-11.0585 3.42316 -2.67257 0.000153983 4
-13.1678 4.07611 -2.67938 3.11761e-05 4
-16.4946 5.10592 -2.73479 0.000199654 4
-21.6028 6.68718 -2.77666 3.97947e-05 1
-32.8334 10.1636 -1.80128 0.000142053 10
-37.1732 11.507 0.679237 0.000119193 10
-32.8445 10.1671 1.80189 0.000110694 10
-32.2982 9.99797 2.95802 0.000115615 10
-32.8539 10.17 4.2228 0.000107849 10
-32.8489 10.1684 5.44632 0.000105626 10
-32.284 9.99355 6.56915 0.000108637 10
-32.8488 10.1684 7.93877 9.97102e-05 10
-32.5862 10.0871 9.14021 4.27343e-05 10
-9.52346 2.91161 -2.6684 0.000205883 4
-11.0832 3.38847 -2.67567 0.000127513 4
-13.1775 4.02877 -2.67848 5.82833e-05 4
-16.4541 5.03053 -2.72515 0.000393319 4
-21.6216 6.61039 -2.7761 3.97919e-05 1
-33.0198 10.0952 -1.80956 0.000139462 10
-37.1125 11.3464 0.6774 0.00012064 10
-33.0315 10.0987 1.8102 0.000108675 10
-33.0242 10.0965 4.24013 0.000105878 10
-33.0154 10.0938 5.46806 0.000103693 10
-33.0307 10.0985 7.97417 9.7878e-05 10
-32.6096 9.96975 9.13695 4.27358e-05 10
-9.53411 2.87852 -2.66855 0.000652591 4
-11.0958 3.35001 -2.67586 6.01455e-05 4
-13.2001 3.98536 -2.68024 0.000153157 4
-16.4255 4.95916 -2.71753 0.000479021 4
-21.6538 6.53769 -2.77729 3.97891e-05 1
-33.203 10.0246 -1.81767 0.000136897 10
-33.4326 10.0939 -0.609586 0.000112959 10
-33.4243 10.0914 0.609434 0.000112915 10
-25.2057 7.61006 1.37987 0.000314156 10
-25.1949 7.60681 2.30255 0.000311053 10
-25.2046 7.60973 3.23271 0.0003065 10
-25.2066 7.61035 4.17033 0.000300547 10
-25.2131 7.61228 5.11942 0.000293258 10
-25.2203 7.61447 6.08215 0.000284713 10
-25.2273 7.61657 7.06099 0.000275004 10
-9.55414 2.84821 -2.67136 6.60341e-05 4
-11.0949 3.30753 -2.67286 0.000139533 4
-13.22 3.94106 -2.68147 4.33701e-05 4
-16.4114 4.89245 -2.71235 0.0004636 4
-21.6653 6.45871 -2.77586 3.97864e-05 1
-33.378 9.95042 -1.82534 0.000134358 10
-33.3792 9.95079 -0.607976 8.91852e-05 10
-33.3901 9.95403 0.608173 8.91672e-05 10
-25.1514 7.49795 1.37545 0.000317539 10
-25.1602 7.50059 2.29696 0.000314405 10
-25.1697 7.50341 3.22485 0.000309807 10
-25.1823 7.50717 4.16194 0.000303793 10
-25.1622 7.50118 5.10375 0.00029643 10
-25.1853 7.50807 6.06736 0.000287799 10
-25.1888 7.50912 7.04285 0.000277992 10
-9.56997 2.8166 -2.67302 0.000248592 4
-11.1044 3.26821 -2.67238 8.66039e-05 4
-13.2171 3.89001 -2.67811 4.47237e-05 4
-16.3778 4.82025 -2.704 0.000391007 4
-21.7027 6.38747 -2.77778 3.97837e-05 1
-33.573 9.88109 -1.83411 0.000131845 10
-33.6263 9.89678 -0.611844 0.000112005 10
-33.6438 9.90192 0.612161 0.000111961 10
-25.2526 7.43224 1.37956 0.000245587 10
-25.2397 7.42845 2.30184 0.000243205 10
-25.2432 7.42949 3.23093 0.000239689 10
-25.2521 7.43209 4.16916 0.000235076 10
-25.2545 7.43282 5.11718 0.000229418 10
-25.2378 7.4279 6.07372 0.000222776 10
-25.2385 7.42812 7.04946 0.000215222 10
-9.56421 2.77866 -2.66869 0.000128177 4
-11.1326 3.23431 -2.67643 8.41956e-05 4
-16.3734 4.75691 -2.70052 0.00035074 4
-21.7272 6.31234 -2.77807 3.9781e-05 1
-25.5024 7.40915 -2.32343 0.00039237 10
-25.5213 7.41463 -1.39282 0.000396001 10
-25.4973 7.40766 -0.46346 0.000397754 10
-25.5235 7.41527 0.463936 0.00039761 10
-25.3778 7.37294 1.38499 0.000241282 10
-25.3697 7.37057 2.31133 0.00023894 10
-25.383 7.37444 3.24551 0.000235481 10
-25.3789 7.37325 4.18583 0.000230945 10
-25.3887 7.3761 5.13912 0.00022538 10
-25.3994 7.37921 6.10638 0.000218848 10
-25.3751 7.37216 7.08039 0.000211418 10
-9.57873 2.74666 -2.67004 0.00014371 4
-11.1304 3.19158 -2.6732 7.45708e-05 4
-13.2678 3.80449 -2.68293 2.98135e-05 4
-16.3302 4.68262 -2.69069 0.000442405 4
-21.7452 6.23533 -2.77757 3.97784e-05 1
-25.4672 7.30262 -2.31788 0.000396513 10
-25.4719 7.30395 -1.38872 0.000400181 10
-25.4686 7.30301 -0.462471 0.000401952 10
-25.479 7.30599 0.46266 0.000401807 10
-25.4739 7.30452 1.38883 0.000311687 10
-25.4898 7.30908 2.31994 0.000197008 10
-25.4655 7.30212 3.25278 0.000194121 10
-25.4763 7.30522 4.19766 0.00029817 10
-25.4755 7.30498 5.15149 0.000290928 10
-25.4974 7.31128 6.12377 0.000180304 10
-25.4979 7.31141 7.10747 0.000174147 10
-9.59727 2.71575 -2.67255 0.000287412 4
-11.1391 3.15206 -2.67265 0.000211678 4
-13.2709 3.7553 -2.6809 0.000107054 4
-16.3286 4.62054 -2.68775 0.000460126 4
-21.7643 6.15868 -2.77725 3.97758e-05 1
-25.4282 7.19545 -2.31203 0.000400668 10
-25.4379 7.1982 -1.38549 0.000404373 10
-25.4129 7.19112 -0.461001 0.000406161 10
-25.4258 7.19477 0.461235 0.000406015 10
-25.4186 7.19274 1.38444 0.000314953 10
-25.5106 7.21876 2.31952 0.000149595 10
-25.5375 7.22639 3.25873 0.000147428 10
-25.4513 7.202 4.18938 0.000301303 10
-25.4293 7.19576 5.13704 0.000293991 10
-25.5204 7.22155 6.1232 0.000137005 10
-25.5219 7.22197 7.1071 0.00013235 10
-9.60874 2.68281 -2.67312 0.000132051 4
-11.1624 3.11659 -2.6756 0.000137106 4
-13.2695 3.7049 -2.67797 0.000116535 4
-16.2879 4.54767 -2.67842 0.000467704 4
-21.7724 6.07897 -2.77556 3.97732e-05 1
-25.3821 7.08683 -2.30558 0.000404833 10
-25.5218 7.12581 -1.3887 0.000303163 10
-25.5233 7.12625 -0.462551 0.000304557 10
-25.5318 7.12861 0.462704 0.000304498 10
-25.3818 7.08673 1.38108 0.000318227 10
-25.3974 7.0911 4.17641 0.000304444 10
-25.3865 7.08804 5.12336 0.00029706 10
-9.61617 2.64873 -2.6726 0.000209722 4
-11.1877 3.08161 -2.67908 0.000146723 4
-13.3061 3.66512 -2.68278 0.000157181 4
-16.261 4.47902 -2.6714 0.000373989 4
-21.7914 6.00236 -2.7753 3.97706e-05 1
-25.3463 6.98153 -2.3001 0.000409009 10
-25.6488 7.06486 -1.39426 0.000297687 10
-25.6614 7.06831 -0.464602 0.000299056 10
-25.6748 7.07201 0.464845 0.000298998 10
-25.3382 6.97931 1.37738 0.000321508 10
-25.3526 6.98328 4.16501 0.000307593 10
-25.3639 6.98638 5.11385 0.000300137 10
-11.1712 3.03514 -2.67257 7.45617e-05 4
-13.3223 3.61959 -2.68347 5.28434e-05 4
-16.2309 4.40985 -2.66392 0.000465433 4
-21.836 5.93272 -2.77832 3.97681e-05 1
-25.2819 6.86895 -2.29207 0.000413193 10
-25.8006 7.00987 -1.40117 0.000292265 10
-25.8197 7.01507 -0.467023 0.00029361 10
-25.8012 7.01004 0.466688 0.000293553 10
-25.3151 6.87797 1.37481 0.000324798 10
-25.3199 6.87926 4.15566 0.000310749 10
-25.301 6.87413 5.0963 0.000303222 10
-9.62558 2.57917 -2.67015 0.000166992 4
-11.1826 2.99638 -2.67279 0.000161145 4
-13.3301 3.5718 -2.68252 0.000105683 4
-16.2054 4.34222 -2.65722 0.000209853 4
-21.8327 5.85007 -2.77529 3.97657e-05 1
-25.2566 6.76749 -2.28761 0.000417388 10
-26.4495 7.08713 -1.43506 0.000243197 10
-26.4405 7.08472 -0.477802 0.000244283 10
-26.4617 7.09041 0.478185 0.000244195 10
-25.2575 6.76774 1.37038 0.000328094 10
-25.342 6.79037 2.29535 0.000205462 10
-25.3378 6.78924 3.22083 0.000202459 10
-25.2702 6.77113 4.14359 0.000313912 10
-25.2801 6.77378 5.08729 0.000306313 10
-25.3428 6.79059 6.05724 0.000188084 10
-25.3713 6.79823 7.03804 0.000181677 10
-9.63251 2.54502 -2.66959 0.000104853 4
