VERSION 0.7
FIELDS x y z intensity label
SIZE 4 4 4 4 4
TYPE F F F F F
COUNT 1 1 1 1 1
WIDTH 1166
HEIGHT 1
VIEWPOINT 5.18542 11.0317 2.72801 0.766717 -0.000870829 0.000687201 0.641984
POINTS 1166
DATA ascii
15.3982 -12.1172 3.80871 0.000570842 10
13.5592 -10.67 3.9834 0.000818143 10
13.5464 -10.66 4.61885 0.000792783 10
7.79811 -6.09255 -2.65161 0.00163315 4
8.7596 -6.84375 -2.56635 0.000896889 4
10.225 -7.98863 -2.52222 0.000214026 4
13.4378 -10.4987 -2.7009 0.000110382 1
15.0201 -11.735 -2.34036 0.000100998 10
15.392 -12.0255 -1.70889 0.000781464 10
15.3834 -12.0188 -1.0231 0.000521055 10
15.3736 -12.0111 -0.340537 0.00052362 10
15.3896 -12.0237 0.340892 0.000523843 10
15.3655 -12.0048 1.0219 0.000521723 10
13.6618 -10.6738 1.5168 0.000672698 10
13.6651 -10.6763 2.12924 0.000663853 10
15.3773 -12.0141 3.09073 0.000592156 10
15.3777 -12.0144 3.79325 0.000579125 10
13.6287 -10.6479 3.99288 0.000808972 10
13.6446 -10.6603 4.6396 0.000783882 10
7.83785 -6.07966 -2.65789 0.00108532 4
8.8074 -6.83172 -2.57336 0.000941625 4
10.2307 -7.93572 -2.51677 0.000167376 4
13.4963 -10.4688 -2.7053 0.000110396 1
15.0722 -11.6912 -2.34211 0.000101015 10
15.3587 -11.9134 -1.70057 0.000792697 10
15.4026 -11.9474 -1.02159 0.000580806 10
15.4044 -11.9489 -0.340294 0.000583409 10
15.4191 -11.9603 0.340619 0.000583402 10
15.4103 -11.9535 1.0221 0.000580787 10
13.7256 -10.6467 1.51975 0.000866474 10
13.7142 -10.6379 2.1311 0.000855079 10
15.3469 -11.9042 3.07624 0.000600674 10
15.3541 -11.9098 3.77715 0.000587464 10
13.7058 -10.6313 4.00457 0.000799834 10
13.7271 -10.6478 4.65499 0.000775015 10
7.88487 -6.07217 -2.66663 0.00188786 4
8.85471 -6.81905 -2.58021 0.00105701 4
10.2604 -7.90156 -2.51728 0.000210851 4
13.5136 -10.4069 -2.70147 0.000110411 1
13.9469 -10.7406 -2.16142 0.000188458 10
15.3548 -11.8248 -1.69555 0.000804004 10
15.5119 -11.9458 -1.02607 0.000574089 10
15.5108 -11.9449 -0.341721 0.000576663 10
15.4947 -11.9325 0.341367 0.000576656 10
15.5098 -11.9441 1.02593 0.00057407 10
13.8145 -10.6386 1.52547 0.000657583 10
13.8195 -10.6425 2.14167 0.000648928 10
15.3313 -11.8067 3.06484 0.000609247 10
15.3388 -11.8124 3.76321 0.000595856 10
13.7865 -10.6171 4.01731 0.000790732 10
13.7945 -10.6232 4.66524 0.000766182 10
7.93524 -6.06695 -2.67649 0.00144821 4
8.90835 -6.81095 -2.58889 0.000841345 4
10.3064 -7.87981 -2.5218 0.00022858 4
13.5541 -10.3629 -2.70233 0.000110426 1
13.9827 -10.6906 -2.16116 0.00018849 10
15.3201 -11.7131 -1.6872 0.000815382 10
15.3301 -11.7208 -1.01133 0.000543657 10
15.3366 -11.7257 -0.336979 0.000546325 10
15.3262 -11.7178 0.336751 0.000546554 10
15.3195 -11.7127 1.01064 0.000544344 10
13.9077 -10.6332 1.53165 0.00065007 10
13.8936 -10.6225 2.14739 0.000641509 10
15.3156 -11.7097 3.05351 0.000617874 10
15.3264 -11.7179 3.75012 0.000604303 10
13.8832 -10.6145 4.03466 0.000781666 10
13.8692 -10.6038 4.67795 0.000757385 10
7.9842 -6.06034 -2.68585 0.00132744 4
8.9608 -6.80162 -2.59722 0.000932665 4
10.3269 -7.83854 -2.52011 0.000193186 4
13.5832 -10.3102 -2.70093 0.00011044 1
14.0283 -10.648 -2.16245 0.000188522 10
15.3201 -11.6286 -1.68271 0.000826833 10
15.3952 -11.6856 -1.01293 0.000589726 10
15.3848 -11.6777 -0.33714 0.000592363 10
15.3853 -11.6781 0.337152 0.000592357 10
15.3809 -11.6747 1.01199 0.000589706 10
13.9827 -10.6135 1.53582 0.000642586 10
13.9954 -10.6231 2.15738 0.000634119 10
15.2898 -11.6056 3.04028 0.000399982 10
15.3047 -11.6169 3.73486 0.000391202 10
13.971 -10.6046 4.04939 0.000772637 10
13.958 -10.5947 4.6954 0.000748622 10
8.01982 -6.04337 -2.69072 0.00133337 4
8.99359 -6.77716 -2.59985 0.00014842 4
10.3489 -7.79843 -2.51882 0.000217357 4
13.6262 -10.2681 -2.70233 0.000110455 1
14.0619 -10.5964 -2.16192 0.000188554 10
15.2854 -11.5184 -1.67449 0.000838355 10
15.4792 -11.6644 -1.01577 0.000582773 10
15.4705 -11.6579 -0.338126 0.000585381 10
15.4811 -11.6658 0.338356 0.000585374 10
15.4862 -11.6697 1.01623 0.000582753 10
14.0762 -10.6072 1.54201 0.000635133 10
14.0451 -10.5837 2.15933 0.000816506 10
15.3608 -11.5752 3.04634 0.000399993 10
15.3632 -11.577 3.73925 0.000391209 10
14.0383 -10.5786 4.05817 0.000763643 10
14.0324 -10.5742 4.708 0.000739896 10
8.06294 -6.03185 -2.69811 0.000962513 4
9.05842 -6.77656 -2.61174 0.000661747 4
10.3779 -7.76365 -2.51927 0.00022382 4
13.6713 -10.2274 -2.70418 0.000110469 1
14.122 -10.5646 -2.16548 0.00110355 10
15.2873 -11.4364 -1.6703 0.000849946 10
15.2677 -11.4217 -0.999266 0.000606108 10
15.2854 -11.435 -0.333206 0.000608813 10
15.2861 -11.4354 0.333219 0.000608806 10
15.2662 -11.4206 0.999175 0.000606087 10
14.1534 -10.5881 1.54642 0.000627711 10
14.1203 -10.5634 2.16522 0.000806961 10
15.3458 -11.4801 3.72524 0.000396633 10
14.118 -10.5616 4.07053 0.000754688 10
14.1271 -10.5685 4.72738 0.000731206 10
8.09878 -6.01469 -2.70306 0.00117798 4
9.10163 -6.75947 -2.61738 0.00111723 4
10.3967 -7.72126 -2.51727 0.000230285 4
13.6977 -10.1728 -2.70235 0.000110484 1
14.2069 -10.551 -2.17283 0.00109056 10
15.2606 -11.3335 -1.66306 0.000861609 10
15.3557 -11.4042 -1.00242 0.000598879 10
15.367 -11.4125 -0.334112 0.000601553 10
15.3739 -11.4177 0.334263 0.000601546 10
15.3726 -11.4167 1.00352 0.000598858 10
14.2405 -10.5759 1.55189 0.00062032 10
14.2048 -10.5494 2.17252 0.000797456 10
15.325 -11.3813 3.71052 0.000402089 10
14.198 -10.5444 4.08296 0.000745771 10
14.2122 -10.5549 4.74347 0.000722553 10
8.14473 -6.00482 -2.71138 0.000626126 1
9.14263 -6.74053 -2.62239 0.000989615 4
10.4289 -7.68885 -2.51856 0.000227087 4
13.7266 -10.1201 -2.70108 0.000110498 1
14.2806 -10.5286 -2.17847 0.00107762 10
15.2437 -11.2386 -1.65693 0.00087334 10
15.2512 -11.2441 -0.993026 0.000582278 10
15.2319 -11.23 -0.330323 0.000585121 10
15.2297 -11.2283 0.330275 0.000585361 10
15.2268 -11.2262 0.991442 0.000582998 10
14.3152 -10.5541 1.55601 0.000612961 10
14.2826 -10.5301 2.17878 0.000787993 10
15.3158 -11.2917 3.69872 0.000407578 10
14.2912 -10.5363 4.09914 0.000736893 10
14.2989 -10.5421 4.7601 0.000713938 10
8.1637 -5.97492 -2.71074 0.000626171 1
9.18563 -6.72286 -2.62797 0.00104002 4
10.4599 -7.65549 -2.51958 0.00020456 4
13.7674 -10.0762 -2.70216 0.000110512 1
14.3875 -10.53 -2.18915 0.00106473 10
15.228 -11.1452 -1.65099 0.000885141 10
15.2438 -11.1567 -0.990001 0.00061577 10
15.2501 -11.1614 -0.32987 0.000618513 10
15.2457 -11.1581 0.329773 0.000618506 10
15.2428 -11.156 0.989937 0.000615749 10
14.4095 -10.5461 1.56224 0.000605634 10
14.3873 -10.5299 2.18913 0.000778571 10
14.3798 -10.5245 4.11402 0.000728054 10
14.3831 -10.5268 4.77586 0.000705362 10
8.18098 -5.94383 -2.70957 0.000626216 1
9.23374 -6.7087 -2.63502 0.000391096 4
10.4826 -7.61605 -2.51863 0.000230355 4
13.7909 -10.0197 -2.6999 0.000110527 1
14.4628 -10.5079 -2.19503 0.0010519 10
15.2191 -11.0573 -1.64583 0.000897008 10
15.3303 -11.1381 -0.993091 0.000608284 10
15.3443 -11.1483 -0.331063 0.000610995 10
15.3299 -11.1378 0.330752 0.000610988 10
15.3392 -11.1446 0.99367 0.000608263 10
14.4757 -10.5172 1.56543 0.000598341 10
15.2796 -11.1013 2.31899 0.000435598 10
15.268 -11.0929 2.98908 0.000428022 10
15.2703 -11.0945 3.66895 0.000418651 10
14.4616 -10.507 4.12689 0.000719255 10
14.4629 -10.5079 4.79016 0.000696824 10
8.21388 -5.92404 -2.7136 0.000626261 1
9.24659 -6.66885 -2.63203 0.000419066 4
10.5208 -7.58784 -2.52142 0.000159493 4
13.8426 -9.98357 -2.70318 0.000110541 1
14.5363 -10.4839 -2.20061 0.00103914 10
15.1925 -10.9572 -1.6388 0.000908942 10
15.1964 -10.96 -0.981933 0.000606001 10
15.1787 -10.9472 -0.326664 0.000608951 10
15.1852 -10.9519 0.326803 0.000609199 10
15.1886 -10.9544 0.981428 0.000606741 10
14.5614 -10.502 1.57072 0.000591081 10
14.5398 -10.4864 4.13873 0.000710497 10
14.5515 -10.4948 4.80733 0.000688327 10
8.22539 -5.8888 -2.71059 0.000626306 1
9.27265 -6.63857 -2.63283 0.000304801 4
10.5326 -7.5406 -2.51793 0.00018851 4
13.8815 -9.93819 -2.70399 0.000110555 1
14.6303 -10.4743 -2.20929 0.00102643 10
15.1829 -10.8699 -1.63366 0.000920942 10
15.2136 -10.8919 -0.980584 0.000625718 10
15.2154 -10.8931 -0.326633 0.0006285 10
15.2021 -10.8836 0.326347 0.000628493 10
15.2063 -10.8866 0.980111 0.000625696 10
14.6539 -10.4912 1.57675 0.000583855 10
14.7573 -10.5652 2.22847 0.000764827 10
14.7491 -10.5593 2.87298 0.000751618 10
14.7403 -10.553 3.52382 0.000735277 10
14.6319 -10.4754 4.15451 0.000701781 10
14.6263 -10.4714 4.81994 0.000679869 10
8.25866 -5.86913 -2.71479 0.00062635 1
9.29135 -6.60302 -2.63159 0.000248942 4
10.5547 -7.50084 -2.51694 0.000206254 4
13.9072 -9.88336 -2.70226 0.000110569 1
14.7236 -10.4635 -2.21784 0.00101378 10
15.1693 -10.7803 -1.62814 0.000933009 10
15.3054 -10.877 -0.984045 0.000617964 10
15.3093 -10.8798 -0.327832 0.000620714 10
15.2915 -10.8671 0.32745 0.000620707 10
15.3022 -10.8747 0.983837 0.000617943 10
14.7329 -10.4702 1.5813 0.000784868 10
14.7253 -10.4647 2.21811 0.000774797 10
14.7318 -10.4694 2.86249 0.000761422 10
14.7262 -10.4654 3.51171 0.000744878 10
14.7297 -10.4679 4.17189 0.000693106 10
14.7291 -10.4674 4.84175 0.000671452 10
8.27616 -5.83819 -2.71383 0.000626395 1
9.32467 -6.57783 -2.6345 9.14555e-05 4
10.5851 -7.46697 -2.51796 0.000209498 4
13.9306 -9.82694 -2.70012 0.000110583 1
14.7961 -10.4375 -2.22327 0.0010012 10
15.1542 -10.6901 -1.6225 0.000945139 10
15.1308 -10.6736 -0.970419 0.000953969 10
15.1402 -10.6802 -0.323411 0.0009586 10
15.1519 -10.6885 0.32366 0.000958984 10
15.1431 -10.6823 0.971205 0.000955118 10
14.8117 -10.4485 1.58583 0.000791063 10
14.8124 -10.449 2.22571 0.000780583 10
14.809 -10.4466 2.87038 0.000766779 10
14.8004 -10.4406 3.52069 0.000749791 10
14.8124 -10.449 4.18494 0.000729789 10
14.8117 -10.4485 4.85688 0.000706976 10
8.28575 -5.80174 -2.71031 0.000626439 1
9.35032 -6.54717 -2.63528 0.000530994 4
10.601 -7.42291 -2.51556 0.000224024 4
13.9654 -9.77867 -2.70023 0.000110597 1
14.9004 -10.4334 -2.23346 0.000988674 10
15.1387 -10.6002 -1.61687 0.000957334 10
15.1174 -10.5853 -0.967183 0.000966271 10
15.1237 -10.5897 -0.322266 0.000970957 10
15.1236 -10.5897 0.322264 0.000971345 10
15.1243 -10.5902 0.967625 0.000967431 10
14.9036 -10.4356 1.59177 0.000781175 10
14.8949 -10.4295 2.23264 0.000770819 10
14.897 -10.431 2.88036 0.00075718 10
14.8916 -10.4272 3.53369 0.000740394 10
14.8887 -10.4252 4.19621 0.00072063 10
14.8897 -10.4259 4.87051 0.00069809 10
8.31497 -5.77906 -2.71326 0.000626483 1
9.37202 -6.51372 -2.63497 5.0817e-05 4
10.6267 -7.38576 -2.51553 0.000196645 4
14.0107 -9.73771 -2.70241 0.000110611 1
14.9952 -10.4219 -2.2422 0.000976214 10
15.1105 -10.5021 -1.60993 0.000969593 10
15.1199 -10.5086 -0.964991 0.000978637 10
15.1134 -10.5041 -0.321263 0.000983379 10
15.1121 -10.5032 0.321237 0.00098377 10
15.1078 -10.5002 0.964217 0.000979806 10
14.9874 -10.4165 1.59682 0.000771336 10
14.9788 -10.4105 2.23974 0.000761104 10
14.9821 -10.4128 2.88977 0.000747628 10
14.9846 -10.4146 3.54711 0.000731044 10
14.9885 -10.4173 4.21405 0.000711519 10
14.9763 -10.4088 4.88692 0.000689249 10
8.33708 -5.75137 -2.71391 0.000626527 1
9.39149 -6.47875 -2.63407 0.000228695 4
10.6611 -7.35463 -2.51759 0.000206336 4
14.0429 -9.68754 -2.70207 0.000110625 1
15.0818 -10.4043 -2.24971 0.000963818 10
15.1043 -10.4198 -1.60539 0.000981913 10
15.1006 -10.4172 -0.961433 0.000991065 10
15.0981 -10.4155 -0.320163 0.000995863 10
15.1039 -10.4195 0.320286 0.000996257 10
15.1004 -10.4171 0.961418 0.000992245 10
15.0699 -10.3961 1.60174 0.000761547 10
15.0784 -10.4019 2.2492 0.000751439 10
15.0607 -10.3897 2.89791 0.000738126 10
15.0834 -10.4054 3.56189 0.000721742 10
15.0622 -10.3907 4.22456 0.000702454 10
15.0799 -10.403 4.90886 0.000680455 10
8.3482 -5.71614 -2.71101 0.00062657 1
9.40421 -6.43919 -2.63131 0.000414227 4
10.6801 -7.31282 -2.51602 0.000246661 4
14.0763 -9.63823 -2.70201 0.000110639 1
15.1701 -10.3872 -2.25745 0.000951485 10
15.1539 -10.3761 -1.6068 0.000964268 10
15.1727 -10.389 -0.963709 0.00097286 10
15.1533 -10.3757 -0.320564 0.000977173 10
15.172 -10.3885 0.32096 0.000977162 10
15.1704 -10.3874 0.96356 0.000972826 10
15.1505 -10.3738 1.60644 0.000751808 10
15.1595 -10.3799 2.25588 0.000741824 10
15.157 -10.3782 2.90946 0.000728673 10
15.152 -10.3748 3.56951 0.00071249 10
15.1564 -10.3778 4.24079 0.000693436 10
15.158 -10.3789 4.92245 0.000671706 10
8.38279 -5.69694 -2.71577 0.000626614 1
9.44131 -6.41631 -2.63541 0.000195694 4
10.7157 -7.28239 -2.51841 0.000199928 4
14.1006 -9.58278 -2.70024 0.000110653 1
15.2478 -10.3624 -2.26361 0.000939219 10
15.2563 -10.3682 -1.61381 0.000951846 10
15.2472 -10.362 -0.966136 0.000960331 10
15.251 -10.3646 -0.321863 0.000964591 10
15.2508 -10.3644 0.32186 0.000964579 10
15.2434 -10.3594 0.965895 0.000960298 10
15.2513 -10.3648 1.61328 0.000742122 10
15.2509 -10.3645 2.26408 0.00073226 10
15.2421 -10.3585 2.91884 0.000719271 10
15.2419 -10.3584 3.58216 0.000703286 10
15.2537 -10.3664 4.25787 0.000684467 10
15.253 -10.3659 4.94152 0.000663004 10
8.38616 -5.65654 -2.71045 0.000626658 1
9.45113 -6.37487 -2.63193 0.000320252 4
10.7419 -7.24552 -2.51861 0.000180598 4
14.1448 -9.54081 -2.70231 0.000110667 1
15.3557 -10.3576 -2.27426 0.000927019 10
15.3491 -10.3531 -1.6198 0.00093949 10
15.3545 -10.3568 -0.970639 0.000947871 10
15.3507 -10.3542 -0.323203 0.000952078 10
15.3534 -10.356 0.32326 0.000952067 10
15.3462 -10.3511 0.970112 0.000947837 10
15.3346 -10.3433 1.61827 0.000732489 10
15.349 -10.353 2.27326 0.000722748 10
15.3319 -10.3415 2.9291 0.00070992 10
15.352 -10.355 3.5995 0.000694133 10
15.3559 -10.3577 4.27628 0.000675547 10
15.3462 -10.3511 4.95996 0.00065435 10
8.4002 -5.62345 -2.70863 0.000626701 1
9.46678 -6.33746 -2.63011 0.000439747 4
10.7576 -7.20159 -2.51637 0.000180615 4
14.1644 -9.48227 -2.69972 0.000110681 1
15.4422 -10.3377 -2.28171 0.000914886 10
15.4326 -10.3312 -1.62479 0.000927202 10
15.4277 -10.328 -0.972983 0.000935478 10
15.436 -10.3335 -0.324239 0.000939633 10
15.4449 -10.3394 0.324424 0.000939622 10
15.4363 -10.3337 0.973523 0.000935445 10
15.425 -10.3262 1.62399 0.000722908 10
15.4269 -10.3274 2.27945 0.000713288 10
15.4319 -10.3307 2.94129 0.000700619 10
15.444 -10.3388 3.61259 0.000685029 10
15.429 -10.3288 4.28657 0.000666675 10
15.4245 -10.3258 4.97361 0.000645743 10
8.43215 -5.60231 -2.71261 0.00021247 4
9.09076 -6.03989 -2.51977 0.00038078 4
10.7861 -7.16629 -2.51718 0.000217727 4
14.1934 -9.43005 -2.69894 0.000110695 1
15.525 -10.3148 -2.28861 0.000902821 10
15.516 -10.3088 -1.62978 0.000914981 10
15.5184 -10.3104 -0.976423 0.000923154 10
15.5279 -10.3167 -0.325409 0.000927257 10
15.5401 -10.3248 0.325665 0.000927245 10
15.5176 -10.3099 0.976372 0.000923122 10
15.5401 -10.3248 1.63231 0.00071338 10
15.5388 -10.324 2.29064 0.000703882 10
15.5198 -10.3114 2.95118 0.000691372 10
15.5355 -10.3218 3.62554 0.000675977 10
15.5231 -10.3135 4.30268 0.000657854 10
15.5268 -10.316 4.99495 0.000637186 10
8.40232 -5.54031 -2.69677 0.000264043 4
9.10578 -6.00416 -2.51811 0.000338498 4
10.8127 -7.12966 -2.51756 0.000182263 4
14.237 -9.38758 -2.701 0.000110708 1
15.6311 -10.3068 -2.29893 0.000890823 10
15.6233 -10.3016 -1.63725 0.00090283 10
15.6271 -10.3042 -0.980997 0.0009109 10
15.6219 -10.3008 -0.326625 0.00091495 10
32.2916 -21.2924 0.675154 7.44593e-05 10
17.2638 -11.3834 1.08374 5.18007e-05 10
15.6128 -10.2948 1.63616 0.000703906 10
15.6215 -10.3005 2.29752 0.000694527 10
15.6172 -10.2977 2.96285 0.000682176 10
15.6154 -10.2965 3.63579 0.000666976 10
15.6276 -10.3045 4.32163 0.000649083 10
15.6154 -10.2965 5.01187 0.000628677 10
8.40649 -5.50106 -2.69193 0.000238956 4
9.14206 -5.9824 -2.52235 0.000299031 4
10.8411 -7.0942 -2.51838 0.000211317 4
14.2665 -9.33572 -2.70039 0.000110722 1
15.7197 -10.2867 -2.30666 0.000878895 10
15.7191 -10.2863 -1.64353 0.00089075 10
32.399 -21.2013 -2.0292 0.000105835 10
32.5709 -21.3138 -0.679435 0.0001107 10
32.5851 -21.3231 0.679731 0.000110751 10
17.3038 -11.3233 1.08376 5.17799e-05 10
15.7054 -10.2773 1.64209 0.000694487 10
15.7252 -10.2903 2.30748 0.000685227 10
15.7256 -10.2905 2.97657 0.000673033 10
15.7238 -10.2894 3.65263 0.000658027 10
15.7119 -10.2816 4.33499 0.000640362 10
15.7207 -10.2874 5.0341 0.000620217 10
8.39034 -5.44875 -2.68065 0.000260887 4
9.16357 -5.95089 -2.52254 0.00037805 4
10.8665 -7.05679 -2.51855 0.000261348 4
14.3012 -9.28729 -2.7008 0.000110736 1
15.8149 -10.2703 -2.31535 0.000867037 10
15.7975 -10.259 -1.64797 0.000878739 10
32.5615 -21.1457 -2.03474 0.000111645 10
32.5568 -21.1426 -0.677597 0.00011229 10
32.5389 -21.131 0.677224 0.000112342 10
17.3655 -11.2773 1.08515 5.17592e-05 10
15.8016 -10.2617 1.6484 0.000685122 10
15.8196 -10.2734 2.31605 0.000675982 10
15.8126 -10.2688 2.98624 0.000663944 10
15.8122 -10.2686 3.66483 0.000649131 10
15.8147 -10.2702 4.35345 0.000631693 10
15.8174 -10.272 5.05355 0.000611807 10
8.38468 -5.40356 -2.6728 0.000286818 4
9.1749 -5.91282 -2.51996 0.000375259 4
10.8984 -7.02356 -2.52025 0.000187156 4
14.3427 -9.24323 -2.70253 0.000110749 1
15.8977 -10.2454 -2.32224 0.000855249 10
15.9115 -10.2543 -1.65612 0.0008668 10
32.5624 -20.9851 -2.03021 0.000104818 10
32.5802 -20.9965 -0.676556 0.000105373 10
32.5638 -20.986 0.676215 0.000105372 10
17.4095 -11.2196 1.08545 5.17386e-05 10
15.9024 -10.2484 1.65517 0.000675814 10
15.9131 -10.2553 2.32448 0.000666792 10
15.8957 -10.2441 2.99516 0.00065491 10
15.9027 -10.2486 3.67748 0.000640288 10
15.9053 -10.2503 4.36852 0.000623076 10
15.9093 -10.2528 5.07143 0.000603448 10
8.36371 -5.34881 -2.66015 0.000272909 4
9.21352 -5.89229 -2.5249 0.00127794 4
10.91 -6.97721 -2.51727 0.000200083 4
14.3676 -9.18845 -2.70116 0.000110763 1
15.9949 -10.2292 -2.33121 0.000843533 10
15.9996 -10.2322 -1.66155 0.000854933 10
27.13 -17.3503 -1.68772 0.000205567 10
27.1314 -17.3512 -0.562144 0.000206691 10
27.1206 -17.3443 0.561921 0.000206781 10
17.4365 -11.1511 1.0847 5.17181e-05 10
15.9999 -10.2323 1.66158 0.000666561 10
15.989 -10.2254 2.33034 0.000657657 10
15.9896 -10.2257 3.0061 0.000645929 10
15.9988 -10.2317 3.69142 0.000631499 10
16.0079 -10.2375 4.38685 0.000614512 10
16.0124 -10.2404 5.09289 0.00059514 10
8.36873 -5.31096 -2.65583 0.000243522 4
9.25361 -5.87252 -2.53025 0.00127129 4
10.9394 -6.94236 -2.51846 0.000130712 4
14.4021 -9.13983 -2.70163 0.000110776 1
16.1022 -10.2187 -2.34162 0.000831889 10
16.1065 -10.2215 -1.66894 0.000843139 10
21.7313 -13.7911 -1.34887 0.000403607 10
21.7212 -13.7847 -0.449049 0.000405693 10
21.7225 -13.7855 0.449075 0.000405859 10
17.4865 -11.0973 1.08539 5.16976e-05 10
16.0916 -10.212 1.66739 0.000657366 10
16.0873 -10.2093 2.33947 0.000648578 10
16.1066 -10.2216 3.02138 0.000637005 10
16.0951 -10.2143 3.7054 0.000622763 10
16.1085 -10.2228 4.40461 0.000606 10
16.0853 -10.2081 5.10471 0.000586884 10
8.35693 -5.26264 -2.64624 0.000300544 4
9.29796 -5.85524 -2.53678 0.00107073 4
10.9625 -6.90347 -2.51822 5.97135e-05 4
14.4241 -9.08337 -2.69981 0.00011079 1
16.2017 -10.2028 -2.35091 0.000820317 10
16.2053 -10.205 -1.67548 0.000831419 10
21.6995 -13.6649 -1.34393 0.000408649 10
21.7182 -13.6767 -0.447998 0.000410759 10
21.7066 -13.6694 0.447758 0.000410926 10
17.5087 -11.0258 1.08437 5.16772e-05 10
16.1867 -10.1933 1.67356 0.000648228 10
16.1929 -10.1972 2.34963 0.000639556 10
16.2014 -10.2026 3.03246 0.000628136 10
16.1937 -10.1977 3.71987 0.000614084 10
16.1955 -10.1988 4.41864 0.000597542 10
16.1953 -10.1987 5.12827 0.000578679 10
8.35344 -5.21981 -2.63935 0.000249701 4
9.35553 -5.84598 -2.5469 0.000954824 4
10.9798 -6.86091 -2.51666 0.000163017 4
14.4497 -9.0292 -2.69868 0.000110803 1
16.304 -10.1879 -2.36058 0.000808819 10
16.2968 -10.1834 -1.68125 0.000819772 10
21.6917 -13.5545 -1.34051 0.000413715 10
21.6822 -13.5486 -0.446277 0.000415849 10
21.6863 -13.5511 0.44636 0.000416017 10
17.5675 -10.9774 1.08564 5.16569e-05 10
16.2999 -10.1853 1.68158 0.000639147 10
16.296 -10.1829 2.35942 0.000630591 10
16.3003 -10.1856 3.0443 0.000619323 10
16.2852 -10.1761 3.73271 0.000605458 10
16.2817 -10.174 4.43246 0.000589137 10
16.2885 -10.1782 5.1465 0.000570527 10
8.35222 -5.1786 -2.63324 0.000142544 4
9.40972 -5.83428 -2.55609 0.00102268 4
11.0029 -6.82207 -2.51649 0.000140434 4
14.4872 -8.98242 -2.6998 0.000110816 1
16.3815 -10.1569 -2.36664 0.000797394 10
16.3813 -10.1568 -1.68631 0.0008082 10
21.8205 -13.5293 -1.34554 0.000369137 10
21.8155 -13.5262 -0.448046 0.000370887 10
21.81 -13.5228 0.447932 0.000370882 10
17.6111 -10.9193 1.08597 5.16367e-05 10
16.3181 -10.1176 1.67979 0.000710608 10
16.3188 -10.1181 2.35759 0.000701376 10
16.3051 -10.1096 3.03859 0.000689122 10
16.3021 -10.1078 3.72849 0.000673971 10
16.308 -10.1114 4.42998 0.000656078 10
16.3176 -10.1173 5.14451 0.000635624 10
8.38038 -5.15565 -2.63643 7.7386e-05 4
9.47177 -5.82707 -2.56741 0.00112601 4
11.032 -6.78691 -2.5177 0.00023085 4
14.5297 -8.93874 -2.7019 0.00011083 1
16.4928 -10.1464 -2.37759 0.000786044 10
16.4815 -10.1395 -1.69297 0.000796705 10
21.9513 -13.5045 -1.35069 0.000363574 10
21.9326 -13.493 -0.44948 0.000365299 10
21.9326 -13.493 0.44948 0.000365294 10
17.6462 -10.856 1.08579 5.16165e-05 10
16.2924 -10.0232 1.67354 0.000718791 10
16.2932 -10.0237 2.34882 0.000709457 10
16.3075 -10.0324 3.03249 0.000697068 10
16.3063 -10.0317 3.7214 0.00068175 10
16.298 -10.0266 4.41772 0.00066366 10
16.2806 -10.0159 5.12179 0.000642981 10
8.3933 -5.12329 -2.63485 0.000725032 4
9.5123 -5.80634 -2.57289 0.00130031 4
11.0517 -6.74598 -2.51682 0.000192124 4
14.5549 -8.88432 -2.70079 0.000110843 1
16.582 -10.1217 -2.38534 0.000774769 10
16.5791 -10.1199 -1.69935 0.000785284 10
22.0667 -13.4696 -1.35489 0.000358051 10
22.0817 -13.4787 -0.45157 0.000359752 10
22.0814 -13.4785 0.451563 0.000359747 10
17.6672 -10.7841 1.08476 5.15965e-05 10
16.2912 -9.9442 1.66984 0.000727005 10
16.2721 -9.93253 2.34076 0.000717568 10
16.2761 -9.93496 3.02018 0.000705044 10
16.2678 -9.92989 3.70468 0.000689559 10
16.2806 -9.93772 4.40357 0.000671271 10
16.2747 -9.93409 5.10899 0.000650366 10
8.42188 -5.10047 -2.63822 0.000659904 4
9.56567 -5.79318 -2.58184 0.00112233 4
11.0639 -6.70052 -2.51425 0.0001986 4
14.5793 -8.82955 -2.6996 0.000110856 1
16.6855 -10.1051 -2.39514 0.00076357 10
16.6827 -10.1034 -1.70635 0.000773941 10
22.2105 -13.4512 -1.36083 0.000352569 10
22.2081 -13.4497 -0.453192 0.000354245 10
22.2108 -13.4514 0.453247 0.00035424 10
17.7226 -10.7332 1.08586 5.15765e-05 10
16.2712 -9.8542 1.66426 0.00073525 10
16.2794 -9.85914 2.33685 0.000725711 10
16.2531 -9.84321 3.00952 0.00071305 10
16.2607 -9.84784 3.69522 0.000697397 10
16.259 -9.84681 4.38841 0.000678911 10
16.2617 -9.84843 5.09409 0.000657779 10
8.43172 -5.06629 -2.63574 0.000786234 4
9.63569 -5.78971 -2.59526 0.00107124 4
11.0901 -6.66358 -2.5149 0.000203463 4
14.6028 -8.77424 -2.69825 0.000110869 1
16.7943 -10.091 -2.40569 0.000752447 10
16.8031 -10.0963 -1.71504 0.000762675 10
32.637 -19.6103 -1.99545 0.00012274 10
32.6404 -19.6123 -0.664677 8.15376e-05 10
32.6293 -19.6057 0.664451 8.15738e-05 10
17.7665 -10.6752 1.08626 5.15566e-05 10
16.3353 -9.81522 1.6673 0.000641403 10
16.3235 -9.80813 2.33825 0.000632831 10
16.332 -9.81327 3.01777 0.00062154 10
16.331 -9.81266 3.70339 0.000607647 10
16.3269 -9.81017 4.39746 0.000591293 10
16.3179 -9.80478 5.10095 0.000572644 10
8.43879 -5.03053 -2.63245 0.000733323 4
9.69481 -5.77927 -2.60574 0.00123361 4
11.1328 -6.63647 -2.51932 0.000206712 4
14.6425 -8.72871 -2.69995 0.000110882 1
16.901 -10.075 -2.41592 0.000741401 10
16.9007 -10.0748 -1.7214 0.000751486 10
32.6241 -19.4478 -1.99049 0.000124361 10
17.8004 -10.6112 1.08606 5.15368e-05 10
16.4161 -9.78598 1.67205 0.000632042 10
16.4248 -9.79112 2.34785 0.000623588 10
16.4167 -9.78632 3.02709 0.000612455 10
16.4219 -9.78942 3.71623 0.000598755 10
16.4144 -9.78493 4.4118 0.000582628 10
16.4372 -9.79856 5.12753 0.000564239 10
8.4521 -4.99856 -2.63114 0.000664108 4
9.75021 -5.76626 -2.6152 0.00112927 4
11.149 -6.59352 -2.51777 0.000205116 4
14.6726 -8.67738 -2.6999 0.000110895 1
16.9897 -10.0477 -2.42357 0.000730434 10
16.9993 -10.0534 -1.72787 0.000740377 10
32.5787 -19.267 -1.98361 0.00012599 10
32.6703 -19.3212 -0.662525 7.13724e-05 10
32.6793 -19.3265 0.662706 7.13714e-05 10
17.8377 -10.5492 1.08608 5.15171e-05 10
16.9978 -10.0525 1.72771 0.000577244 10
16.7595 -9.91155 3.78478 0.00016795 10
16.9976 -10.0524 4.5591 0.000531853 10
16.9889 -10.0472 5.28865 0.000514966 10
8.47306 -4.97112 -2.63225 0.000749716 4
9.80312 -5.75146 -2.62399 0.00111373 4
11.1753 -6.55649 -2.51851 0.0001696 4
14.7018 -8.62552 -2.69972 0.000110908 1
17.1017 -10.0335 -2.43454 0.000719544 10
17.1114 -10.0392 -1.73569 0.000729346 10
17.2419 -10.1158 -1.04765 0.0005571 10
17.2343 -10.1113 -0.348778 0.000559824 10
17.2232 -10.1048 0.348554 0.000560035 10
17.2177 -10.1016 1.04618 0.000557729 10
17.1092 -10.0379 1.73546 0.000568644 10
16.7909 -9.85117 3.78408 0.000167933 10
17.0954 -10.0298 4.57591 0.000523896 10
17.0956 -10.03 5.31095 0.000507248 10
8.49148 -4.94216 -2.63259 0.000729391 4
9.84496 -5.72991 -2.62982 0.00115054 4
11.1967 -6.51665 -2.51821 0.000248769 4
14.7264 -8.57094 -2.69871 0.000110921 1
17.2053 -10.0137 -2.4443 0.000708732 10
17.2077 -10.0151 -1.7419 0.000718394 10
17.2204 -10.0225 -1.04421 0.00056325 10
17.2137 -10.0186 -0.347652 0.000566003 10
17.2166 -10.0203 0.347709 0.000566215 10
17.2249 -10.0251 1.04448 0.000563884 10
17.2139 -10.0187 1.74252 0.000560105 10
16.8203 -9.78968 3.78299 0.000167916 10
17.211 -10.0171 4.59747 0.000515996 10
17.21 -10.0165 5.33558 0.000499587 10
8.50309 -4.90926 -2.63086 0.000268955 4
9.9176 -5.72593 -2.64387 0.00116944 4
11.2153 -6.47515 -2.51728 0.000190633 4
14.7607 -8.5221 -2.69953 0.000110934 1
17.3253 -10.0028 -2.45637 0.000697999 10
17.3227 -10.0012 -1.74999 0.000707523 10
17.5038 -10.1058 -1.05925 0.000543007 10
17.5139 -10.1116 -0.352999 0.000545667 10
17.4943 -10.1003 0.352604 0.000545872 10
17.4988 -10.1029 1.05895 0.000543618 10
17.3253 -10.0028 1.75026 0.000551629 10
16.8594 -9.73378 3.78411 0.0001679 10
17.3134 -9.99593 4.61548 0.000508155 10
17.3237 -10.0019 5.35998 0.000491982 10
8.52189 -4.88053 -2.6314 9.37326e-05 4
9.968 -5.70873 -2.65198 0.00114493 4
11.2478 -6.44166 -2.51951 0.000288726 4
14.7907 -8.4707 -2.69959 0.000110947 1
17.419 -9.97595 -2.4647 0.000687347 10
17.4314 -9.98304 -1.75744 0.000696732 10
17.4837 -10.013 -1.05591 0.00054893 10
17.5004 -10.0226 -0.35202 0.000551618 10
17.496 -10.0201 0.351931 0.000551823 10
17.4798 -10.0108 1.05567 0.000549546 10
17.4342 -9.98464 1.75772 0.000543215 10
17.5031 -10.0241 2.4766 0.000337298 10
17.5191 -10.0333 3.19758 0.000331215 10
16.9384 -9.70074 3.79423 0.000555234 10
17.4304 -9.98248 4.63734 0.000500372 10
17.4299 -9.98221 5.38202 0.000484435 10
8.53537 -4.84877 -2.63032 0.000252687 4
10.0167 -5.6903 -2.65964 0.00135154 4
11.3078 -6.42373 -2.52792 0.000781579 4
14.8182 -8.41788 -2.69923 0.00011096 1
17.5245 -9.95532 -2.4747 0.000676774 10
17.5242 -9.95516 -1.76329 0.000686023 10
17.534 -9.96071 -1.05684 0.000457241 10
17.5358 -9.96175 -0.352031 0.000459302 10
17.5431 -9.96589 0.352177 0.000459296 10
17.5268 -9.9566 1.05641 0.000457224 10
17.5379 -9.96291 1.76466 0.000534865 10
17.5474 -9.9683 2.47793 0.000405288 10
17.5419 -9.96516 3.19537 0.000398137 10
17.0371 -9.67842 3.80874 0.000546721 10
17.5196 -9.95252 4.6518 0.000492648 10
17.5406 -9.96443 5.40541 0.000476944 10
8.56327 -4.82515 -2.63371 0.000163034 4
10.0842 -5.68217 -2.67228 0.00131738 4
11.3708 -6.40714 -2.537 0.000703983 4
14.8534 -8.36947 -2.70031 0.000110972 1
17.6336 -9.93603 -2.48519 0.000666282 10
17.6438 -9.94177 -1.77182 0.000675395 10
17.7552 -10.0046 -1.06806 0.0005352 10
17.7563 -10.0051 -0.355753 0.000537825 10
17.773 -10.0146 0.356088 0.000538025 10
17.7582 -10.0063 1.06824 0.000535798 10
17.6515 -9.94612 1.77259 0.000526579 10
17.5414 -9.88407 2.4722 0.000638356 10
17.5636 -9.89659 3.19302 0.000627093 10
17.1547 -9.66617 3.82746 0.000538272 10
17.6413 -9.94038 4.67488 0.000484983 10
17.6292 -9.93356 5.42202 0.000469512 10
8.58504 -4.79802 -2.63523 0.000175273 4
10.1444 -5.66952 -2.68297 0.00115684 4
11.438 -6.39249 -2.54699 0.000796135 4
14.8745 -8.31308 -2.69885 0.000110985 1
17.7497 -9.91999 -2.49666 0.000655872 10
17.7497 -9.91997 -1.77897 0.000664849 10
17.7393 -9.91418 -1.06502 0.000540924 10
17.751 -9.92067 -0.35495 0.000445136 10
17.7483 -9.91917 0.354896 0.00044513 10
17.7587 -9.92501 1.06618 0.000443118 10
17.7378 -9.91331 1.77777 0.000518357 10
17.5327 -9.7987 2.46614 0.000645171 10
17.5283 -9.79624 3.18037 0.000633794 10
17.2427 -9.6366 3.83956 0.000529889 10
17.7376 -9.91324 4.69121 0.000477379 10
17.7596 -9.92553 5.45144 0.000462137 10
8.59307 -4.76321 -2.63258 0.000317956 4
10.1884 -5.64752 -2.68937 0.000998235 4
11.4976 -6.37324 -2.5553 0.000737211 4
14.8951 -8.2565 -2.69735 0.000110998 1
17.849 -9.89384 -2.50575 0.000645543 10
17.8556 -9.89754 -1.78611 0.000654386 10
18.0505 -10.0055 -1.0816 0.000522024 10
18.0291 -9.99368 -0.359812 0.000524588 10
18.0306 -9.99452 0.359842 0.000524783 10
18.0445 -10.0022 1.08124 0.000522605 10
17.8628 -9.90151 1.78682 0.000510199 10
17.5219 -9.71252 2.45983 0.000652007 10
17.5128 -9.70748 3.17138 0.000640515 10
17.371 -9.62891 3.86063 0.000521571 10
17.8694 -9.90517 4.71688 0.000469834 10
17.8604 -9.90018 5.47173 0.00045482 10
8.62489 -4.74158 -2.63724 0.000126375 4
10.2569 -5.63879 -2.70224 0.00101658 4
11.5482 -6.34871 -2.56161 0.000851655 4
14.9209 -8.20281 -2.69681 0.00011101 1
17.9648 -9.87626 -2.51716 0.000635296 10
17.9666 -9.87724 -1.79375 0.000644007 10
18.0269 -9.91038 -1.0781 0.000527538 10
18.0207 -9.90696 -0.358952 0.000530128 10
18.0057 -9.89872 0.358653 0.000530324 10
18.0119 -9.90215 1.07721 0.000528124 10
17.9795 -9.88429 1.79503 0.000502106 10
17.5179 -9.63057 2.45454 0.000658861 10
17.5121 -9.62734 3.16515 0.000647254 10
17.4832 -9.61146 3.87808 0.000513319 10
17.9707 -9.87946 4.73448 0.000462349 10
17.9802 -9.88473 5.49784 0.000447563 10
8.63046 -4.70548 -2.63391 0.000476995 4
10.2981 -5.61473 -2.70793 0.000391599 1
11.6183 -6.33449 -2.57222 0.000627249 4
14.9558 -8.15414 -2.69796 0.000111023 1
18.0718 -9.85305 -2.52731 0.000625132 10
18.0973 -9.86697 -1.80335 0.00063371 10
18.0736 -9.85403 -1.07883 0.00042239 10
18.0809 -9.85802 -0.359464 0.000424301 10
18.0951 -9.86576 0.359746 0.000424296 10
18.077 -9.85589 1.07903 0.000422373 10
18.0852 -9.86037 1.80214 0.000494079 10
17.57 -9.57948 2.45714 0.000526268 10
17.5721 -9.58063 3.16994 0.000516792 10
17.5708 -9.5799 3.89007 0.000505133 10
18.0836 -9.85952 4.75514 0.000454925 10
18.0732 -9.85382 5.5157 0.000440364 10
8.65265 -4.67847 -2.63568 0.000236474 4
10.3084 -5.57373 -2.70549 0.000391628 1
11.6848 -6.31796 -2.58205 0.000734879 4
14.9859 -8.10287 -2.69828 0.000111035 1
18.2034 -9.84252 -2.54089 0.000615051 10
18.1974 -9.83931 -1.80989 0.000623498 10
18.2863 -9.88737 -1.08946 0.000514682 10
18.2922 -9.89057 -0.362977 0.000517213 10
18.2792 -9.88351 0.362717 0.000517403 10
18.2507 -9.86815 1.08734 3.96559e-05 10
18.1956 -9.83834 1.80971 0.000486116 10
18.1875 -9.83397 2.53868 0.000479517 10
18.2069 -9.84443 3.27823 0.000470829 10
18.2033 -9.84249 4.02248 0.00046014 10
18.1962 -9.83865 4.77568 0.000447562 10
18.1955 -9.83827 5.54252 0.000433225 10
8.6576 -4.64217 -2.63223 0.000293572 4
10.3394 -5.54391 -2.70852 0.000391656 1
11.7541 -6.30249 -2.59248 0.000537317 4
15.0238 -8.05568 -2.70002 0.000111048 1
18.304 -9.81454 -2.55015 0.000605053 10
18.306 -9.81559 -1.81727 0.000613369 10
18.3101 -9.81779 -1.08883 0.000408838 10
18.3048 -9.81495 -0.362544 0.000410692 10
18.3263 -9.82651 0.362971 0.000410686 10
18.3038 -9.81439 1.08846 0.000482591 10
18.3184 -9.82226 1.81851 0.000478219 10
18.325 -9.82577 2.55306 0.000471722 10
18.3121 -9.81884 3.29097 0.000463168 10
18.304 -9.81451 4.03712 0.000452644 10
18.3168 -9.82141 4.79832 0.00044026 10
18.3231 -9.82476 5.57091 0.000426145 10
8.68657 -4.61873 -2.63612 0.000199804 4
10.3673 -5.51238 -2.71078 0.000391685 1
11.799 -6.27365 -2.59754 0.0007368 4
13.9997 -7.44379 -2.51129 9.57689e-05 4
18.4391 -9.80425 -2.56418 0.000595139 10
18.4168 -9.79238 -1.82487 0.000603326 10
18.5587 -9.86784 -1.10156 0.000502323 10
18.5611 -9.86912 -0.366936 0.000504797 10
18.5687 -9.87317 0.367086 0.000504983 10
18.4321 -9.80055 1.09405 0.000474693 10
18.4286 -9.79868 1.82604 0.000470389 10
18.4213 -9.79477 2.5617 0.000463993 10
18.4209 -9.79455 3.30436 0.000455571 10
18.4297 -9.79927 4.0573 0.000445211 10
18.4345 -9.80181 4.82015 0.00043302 10
18.4381 -9.80373 5.59544 0.000419124 10
8.69802 -4.58595 -2.63473 0.000216128 4
10.3646 -5.46464 -2.70507 0.000391713 1
11.8838 -6.26562 -2.61138 0.000679979 4
14.0183 -7.39101 -2.50998 0.000107143 4
18.5539 -9.78239 -2.57539 0.000585309 10
18.5522 -9.78147 -1.83489 0.000593368 10
18.5543 -9.78255 -1.09926 0.000507462 10
18.5454 -9.77788 -0.365949 0.00050996 10
18.5342 -9.77196 0.365727 0.000397303 10
18.5394 -9.77472 1.09838 0.000466861 10
18.5482 -9.77935 1.83449 0.000462625 10
18.5412 -9.77565 2.57361 0.000456329 10
18.5459 -9.77816 3.32065 0.000448039 10
18.5364 -9.77312 4.07323 0.000437841 10
18.5534 -9.78207 4.84227 0.000425842 10
18.5536 -9.78222 5.62009 0.000412164 10
8.70813 -4.5525 -2.63296 0.000154969 4
10.383 -5.42811 -2.70492 0.000391742 1
11.9292 -6.23645 -2.61656 0.000698241 4
14.0497 -7.34501 -2.511 9.90371e-05 4
18.673 -9.762 -2.58716 0.000575563 10
18.6643 -9.75745 -1.84259 0.000583495 10
18.8383 -9.8484 -1.11405 0.000490431 10
18.8449 -9.85188 -0.371178 0.000492851 10
18.8283 -9.84321 0.370851 0.000493031 10
18.6663 -9.75848 1.10387 0.000459097 10
18.6543 -9.75223 1.84161 0.000454927 10
18.6701 -9.76048 2.58676 0.000448731 10
18.6733 -9.76214 3.33733 0.000440572 10
18.6508 -9.75039 4.09087 0.000430535 10
18.6629 -9.75674 4.86195 0.000418726 10
18.6539 -9.75203 5.64013 0.000405265 10
8.73174 -4.52611 -2.6353 0.000411917 4
10.41 -5.39603 -2.70702 0.00039177 1
11.9938 -6.21701 -2.62595 0.000114809 4
14.0699 -7.29312 -2.51003 0.000110414 4
18.7893 -9.73944 -2.59855 0.000565903 10
18.7715 -9.73023 -1.84982 0.000573709 10
18.8306 -9.76087 -1.11157 0.000495386 10
18.803 -9.74657 -0.369681 0.000497829 10
18.8023 -9.7462 0.369666 0.00049801 10
18.7774 -9.7333 1.10843 0.0004514 10
18.7914 -9.74052 1.85177 0.000447297 10
18.7913 -9.74049 2.59883 0.000441199 10
18.7705 -9.72971 3.34862 0.00043317 10
18.7757 -9.73242 4.1108 0.000423293 10
18.7836 -9.73648 4.88449 0.000411672 10
18.7764 -9.73276 5.66685 0.000398426 10
8.73398 -4.48866 -2.63123 0.000142752 4
10.4377 -5.36424 -2.70934 0.000391798 1
12.0142 -6.17444 -2.62567 0.000119179 4
14.0981 -7.24543 -2.51054 0.000121793 4
18.8914 -9.70887 -2.60797 0.000556329 10
18.9041 -9.7154 -1.85953 0.00056401 10
19.1014 -9.81679 -1.12553 0.000478979 10
19.1014 -9.8168 -0.374871 0.000481347 10
19.0996 -9.81584 0.374834 0.000481522 10
18.9039 -9.71529 1.11389 0.000443773 10
18.9047 -9.71571 1.85959 0.000439735 10
18.8893 -9.70779 2.60768 0.000433734 10
18.8896 -9.70794 3.3638 0.000425834 10
18.9038 -9.71525 4.1314 0.000416116 10
18.9023 -9.71445 4.90651 0.000404681 10
18.9064 -9.7166 5.69583 0.000391648 10
8.76597 -4.46649 -2.63616 0.000179471 4
10.445 -5.32202 -2.70641 0.000391826 1
12.0427 -6.13607 -2.62722 0.000225297 4
14.1307 -7.19996 -2.51186 8.12043e-05 4
19.0281 -9.69528 -2.62215 0.000546839 10
19.0339 -9.69828 -1.86896 0.000554396 10
19.0945 -9.72915 -1.12311 0.000483759 10
19.0909 -9.72733 -0.373997 0.000486148 10
19.0756 -9.71953 0.373697 0.000486325 10
19.0345 -9.69856 1.11958 0.000436212 10
19.0103 -9.68625 1.86664 0.000432239 10
19.0311 -9.69686 4.1518 0.000409002 10
19.0194 -9.69088 4.92811 0.000397753 10
19.025 -9.69371 5.72131 0.000384931 10
8.77184 -4.43098 -2.63326 0.000591473 4
10.4542 -5.28078 -2.70398 0.000391854 1
12.0736 -6.09882 -2.6293 0.000268925 4
14.155 -7.15019 -2.51172 0.000131565 4
19.1549 -9.67583 -2.63496 0.000537436 10
19.1449 -9.67079 -1.87653 0.00054487 10
19.1538 -9.6753 -1.12461 0.000363201 10
19.1335 -9.66504 -0.374168 0.000364857 10
19.1388 -9.6677 0.374271 0.000364852 10
19.144 -9.67034 1.12403 0.00042872 10
19.1398 -9.66822 1.87603 0.000424812 10
19.145 -9.67081 4.16924 0.000401953 10
19.1454 -9.67102 4.95196 0.000390887 10
19.1482 -9.67245 5.74818 0.000378276 10
8.78255 -4.39798 -2.63185 6.11905e-05 4
10.4873 -5.25163 -2.70778 0.000391882 1
12.0963 -6.05739 -2.62962 6.10585e-05 4
14.1636 -7.09263 -2.50885 0.000103964 4
19.2694 -9.6494 -2.64606 0.000528119 10
19.2718 -9.65062 -1.88566 0.000535431 10
19.3589 -9.6942 -1.13465 0.000472554 10
19.3495 -9.68954 -0.377729 0.000474892 10
19.3462 -9.68787 0.377663 0.000475064 10
19.2566 -9.64298 1.12866 0.000421296 10
19.2595 -9.64445 1.88445 0.000417452 10
19.2813 -9.65534 4.19156 0.000394969 10
19.2778 -9.65363 4.97749 0.000384086 10
19.2584 -9.64391 5.77114 0.000237274 10
8.79976 -4.36824 -2.63242 0.000199901 4
10.4644 -5.19458 -2.69719 0.000108769 4
12.1012 -6.00708 -2.62611 7.99644e-05 4
14.2099 -7.05386 -2.51267 0.000116972 4
19.3897 -9.62511 -2.65794 0.000518889 10
19.3812 -9.62092 -1.89306 0.000526079 10
19.3931 -9.62683 -1.13468 0.000350681 10
19.382 -9.62132 -0.377705 0.000352284 10
19.395 -9.62775 0.377957 0.000352279 10
19.3944 -9.62746 1.13476 0.000413941 10
19.4062 -9.63332 1.8955 0.000410161 10
19.4904 -9.67511 2.67175 0.000343657 10
19.5067 -9.68322 3.44928 0.000337497 10
19.3825 -9.62154 4.20623 0.00038805 10
19.3845 -9.62253 4.99631 0.000377347 10
19.4987 -9.67923 5.83296 0.000229742 10
8.8256 -4.34274 -2.6356 0.000199913 4
10.4492 -5.14164 -2.68862 0.000116929 4
12.127 -5.96721 -2.62716 0.000164304 4
14.2112 -6.99275 -2.50856 8.04266e-05 4
19.5112 -9.60069 -2.66999 0.000509745 10
19.5179 -9.60398 -1.90312 0.000516816 10
19.61 -9.64931 -1.1454 0.000461748 10
19.6228 -9.6556 -0.381737 0.000464037 10
19.6073 -9.648 0.381436 0.000464204 10
19.5208 -9.60544 1.14019 0.000406656 10
19.5213 -9.60568 1.90346 0.000402939 10
19.5291 -9.60949 4.23074 0.000381197 10
19.5257 -9.60783 5.02404 0.000370673 10
19.6199 -9.65417 5.8591 0.000225667 10
8.83713 -4.31016 -2.63453 0.000208085 4
10.4278 -5.08599 -2.67853 0.000103334 4
12.1476 -5.92479 -2.62714 0.000325728 4
14.2479 -6.94916 -2.51075 9.09973e-05 4
19.6361 -9.57718 -2.6825 0.000500688 10
19.6582 -9.58796 -1.91353 0.00050764 10
19.6479 -9.5829 -1.14565 0.000338396 10
19.6413 -9.57968 -0.381444 0.000339945 10
19.6526 -9.58523 0.381665 0.00033994 10
19.6579 -9.58778 1.14623 0.00039944 10
19.6354 -9.57682 1.91131 0.000395785 10
19.6548 -9.58628 4.2507 0.000374409 10
19.6507 -9.58431 5.04757 0.000364062 10
8.85077 -4.27863 -2.63413 0.00012649 4
10.3836 -5.01961 -2.66265 8.53484e-05 4
12.1638 -5.8802 -2.62618 0.000152698 4
14.2627 -6.89483 -2.50909 0.000100758 4
19.7265 -9.53617 -2.69028 4.49105e-05 1
19.7635 -9.55403 -1.92052 0.000498554 10
19.896 -9.61811 -1.15815 0.000451319 10
19.8885 -9.61446 -0.385591 0.000453559 10
19.8801 -9.61041 0.385428 0.000453722 10
19.7701 -9.55725 1.15082 0.000392293 10
19.7777 -9.5609 1.9219 0.0003887 10
19.7608 -9.55275 4.26639 0.000367687 10
19.7725 -9.55839 5.07024 0.000357516 10
8.86059 -4.24528 -2.63263 0.000297882 4
10.3508 -4.95927 -2.64979 7.90459e-05 4
11.679 -5.59563 -2.51728 0.000242794 4
14.3031 -6.85289 -2.51198 0.000119459 4
19.7605 -9.46764 -2.69039 4.49169e-05 1
19.8961 -9.53263 -1.93017 0.000489555 10
19.9002 -9.53458 -1.15645 0.000326346 10
19.9093 -9.53892 -0.385346 0.000327843 10
19.8927 -9.53099 0.385025 0.000327838 10
19.894 -9.53161 1.15609 0.000385216 10
19.8944 -9.53182 1.93 0.000381685 10
20.0186 -9.59133 2.72554 0.000236852 10
20.0183 -9.59118 3.51572 0.0002325 10
19.9047 -9.53673 4.29024 0.00036103 10
19.9147 -9.54154 5.09815 0.000351034 10
20.0197 -9.59184 5.94819 0.000213677 10
8.87791 -4.21555 -2.63339 0.000155071 4
10.324 -4.9022 -2.63854 9.91667e-05 4
11.6911 -5.55135 -2.5157 0.000218532 4
14.3189 -6.79914 -2.51058 0.000107281 4
19.7767 -9.39066 -2.68812 4.49233e-05 1
20.0209 -9.50663 -1.93904 0.000480647 10
20.1559 -9.57072 -1.16936 0.000441245 10
20.1495 -9.56771 -0.389348 0.000443439 10
20.1438 -9.56498 0.389236 0.000443598 10
20.0426 -9.51695 1.16279 0.00037821 10
20.0255 -9.50883 1.93949 0.000374739 10
20.0377 -9.51461 2.7236 0.000235934 10
20.0222 -9.50724 3.51055 0.000231599 10
20.0388 -9.51513 4.31196 0.000354441 10
20.0242 -9.50818 5.11764 0.000344617 10
20.0307 -9.51127 5.94154 0.00021285 10
8.90332 -4.18959 -2.63657 0.000183647 4
10.3148 -4.85378 -2.63184 8.16024e-05 4
11.7139 -5.51217 -2.51646 0.000210456 4
14.3436 -6.74958 -2.51076 9.75378e-05 4
19.8215 -9.32729 -2.68977 4.49296e-05 1
20.1717 -9.4921 -1.95043 0.000471827 10
20.172 -9.49223 -1.16837 0.000314534 10
20.1756 -9.49394 -0.38921 0.000315979 10
20.1541 -9.4838 0.388793 0.000315975 10
20.1702 -9.49136 1.16826 0.000371273 10
20.1605 -9.48682 1.94934 0.000367862 10
20.1691 -9.49085 2.73693 0.000362794 10
20.1651 -9.48897 3.52977 0.000356122 10
20.1681 -9.49038 4.33263 0.000347917 10
20.175 -9.49363 5.14768 0.000338264 10
20.1669 -9.48985 5.9721 0.000327264 10
8.91527 -4.15726 -2.63579 0.000204064 4
10.3195 -4.81206 -2.62874 0.000191269 4
11.7361 -5.47262 -2.51709 0.000225044 4
14.371 -6.70129 -2.51144 0.000112993 4
19.8328 -9.24821 -2.68691 4.49359e-05 1
20.3067 -9.46918 -1.96027 0.000463096 10
20.4269 -9.52521 -1.1812 0.000431508 10
20.4248 -9.52426 -0.393373 0.000433658 10
20.4219 -9.52291 0.393317 0.000433813 10
20.302 -9.467 1.17398 0.000364406 10
20.3081 -9.46981 1.9604 0.000361055 10
20.3091 -9.47028 2.75143 0.000356076 10
20.3004 -9.46625 3.54766 0.000349521 10
20.2958 -9.4641 4.35294 0.000341459 10
20.2932 -9.46289 5.16939 0.000331976 10
20.3008 -9.46641 6.00191 0.00032117 10
8.91042 -4.11719 -2.63009 0.000257136 4
10.3314 -4.77379 -2.62752 0.000469277 4
11.7656 -5.43646 -2.51934 0.00064293 4
14.3834 -6.64608 -2.50955 0.00010081 4
19.8892 -9.19012 -2.69019 4.49422e-05 1
20.4331 -9.44144 -1.96928 0.000454455 10
20.4301 -9.44005 -1.17947 0.000302959 10
20.427 -9.43859 -0.392777 0.000304354 10
20.4415 -9.44531 0.393056 0.00030435 10
20.431 -9.44044 1.17952 0.00035761 10
20.4404 -9.44478 1.96998 0.000354318 10
20.4201 -9.43541 2.76199 0.000349426 10
20.446 -9.44737 3.56731 0.000342988 10
20.4461 -9.44745 4.37809 0.000335068 10
20.4337 -9.44169 5.19675 0.000325753 10
20.4338 -9.44173 6.03145 0.000315138 10
8.94668 -4.09611 -2.63656 7.75533e-05 4
10.3651 -4.74553 -2.63186 0.000512669 4
11.8322 -5.41722 -2.52954 0.00104159 4
14.4084 -6.59668 -2.50987 0.000104072 4
19.897 -9.10956 -2.68692 4.49485e-05 1
20.5556 -9.41109 -1.97791 0.000445904 10
20.6784 -9.4673 -1.19189 0.000422091 10
20.6829 -9.46937 -0.39706 0.000424197 10
20.6787 -9.46744 0.396979 0.000424348 10
20.5642 -9.41502 1.18531 0.000350884 10
20.5782 -9.42144 1.98008 0.000347651 10
20.5721 -9.41866 2.77809 0.000342846 10
20.5683 -9.4169 3.58289 0.000336522 10
20.5596 -9.4129 4.39531 0.000328744 10
20.5756 -9.42024 5.22444 0.000319595 10
20.5746 -9.4198 6.06328 0.00030917 10
8.94682 -4.05846 -2.63241 4.08198e-05 4
10.3666 -4.70251 -2.62805 0.000540762 4
11.9102 -5.40271 -2.54217 0.00101197 4
14.4224 -6.54231 -2.50832 8.2128e-05 4
19.93 -9.04066 -2.6871 4.49547e-05 1
20.7186 -9.39838 -1.99042 0.000437443 10
20.7099 -9.39442 -1.19181 0.000291623 10
20.7045 -9.39196 -0.396842 0.000292969 10
20.6945 -9.38746 0.396652 0.000292965 10
20.7142 -9.39639 1.19206 0.000344229 10
20.7092 -9.3941 1.98951 0.000341054 10
20.6951 -9.38771 2.79025 0.000336336 10
20.7164 -9.39736 3.60295 0.000330125 10
20.7001 -9.38999 4.41832 0.000322487 10
20.7081 -9.3936 5.24972 0.000313502 10
20.7066 -9.39295 6.09248 0.000303265 10
8.95913 -4.02639 -2.63188 9.3891e-05 4
10.3806 -4.66524 -2.62746 0.000423455 4
11.9705 -5.37977 -2.55102 0.00104327 4
14.4624 -6.49968 -2.51132 8.05099e-05 4
19.9748 -8.97701 -2.68889 4.49609e-05 1
20.8505 -9.37059 -1.99994 0.000429071 10
20.9398 -9.41071 -1.20314 0.000625225 10
20.9601 -9.41983 -0.401109 0.000628349 10
20.9432 -9.41224 0.400785 0.000628573 10
20.8525 -9.37148 1.19812 0.000337645 10
20.8474 -9.36921 1.99964 0.000334527 10
20.8455 -9.36833 2.8061 0.000329894 10
20.8413 -9.36646 3.61897 0.000323796 10
20.8558 -9.37296 4.44454 0.000316296 10
20.8531 -9.37175 5.27816 0.000307475 10
20.8415 -9.36656 6.12252 0.000297424 10
8.97979 -3.99806 -2.63383 0.000155133 4
10.3988 -4.62987 -2.62796 0.000372461 4
12.0493 -5.36469 -2.5638 0.000807028 4
14.4848 -6.44903 -2.51127 0.000102477 4
19.9874 -8.89895 -2.68639 4.49671e-05 1
20.9796 -9.34074 -2.00918 0.00042079 10
20.9745 -9.33847 -1.20326 0.000424703 10
20.9906 -9.34563 -0.401067 0.000426667 10
20.9766 -9.33937 0.400798 0.000426661 10
20.9906 -9.34562 1.20418 0.000331132 10
20.9801 -9.34096 2.00923 0.00032807 10
20.9812 -9.34143 2.81996 0.000323522 10
20.9788 -9.34038 3.63717 0.000317535 10
20.9851 -9.34319 4.46513 0.000310173 10
20.9799 -9.34085 5.30197 0.000301512 10
20.9766 -9.33941 6.1526 0.000291646 10
8.98403 -3.96243 -2.63101 0.00028987 4
10.435 -4.60237 -2.63301 0.000474537 4
12.1123 -5.34216 -2.57322 0.000826049 4
14.4937 -6.39248 -2.50894 0.000102488 4
20.0188 -8.82933 -2.68645 4.49732e-05 1
21.1374 -9.3227 -2.02116 0.0004126 10
21.1183 -9.31428 -1.20963 0.000416442 10
21.1289 -9.31895 -0.403084 0.000418369 10
21.1191 -9.31465 0.402898 0.000418363 10
21.1205 -9.31525 1.20976 0.00032469 10
21.1203 -9.31518 2.01953 0.000321685 10
21.123 -9.31636 2.83464 0.00031722 10
21.138 -9.32295 3.65909 0.000311344 10
21.1369 -9.32249 4.49047 0.000304117 10
21.1383 -9.32309 5.33374 0.000295617 10
21.1149 -9.31278 6.18357 0.000285932 10
9.01398 -3.93811 -2.63574 0.000151067 4
10.4282 -4.55597 -2.62728 0.000153086 4
12.2041 -5.33186 -2.58876 0.00087075 4
14.522 -6.34451 -2.50999 8.54149e-05 4
20.0489 -8.75914 -2.68637 4.49793e-05 1
21.2663 -9.29103 -2.03038 0.0004045 10
21.2555 -9.28631 -1.21563 0.00040827 10
21.2624 -9.2893 -0.40501 0.000410162 10
21.2715 -9.29327 0.405183 0.000410156 10
21.2819 -9.29786 1.21714 0.000318319 10
21.2578 -9.28729 2.02956 0.00031537 10
21.2629 -9.28954 2.84904 0.000310988 10
21.2556 -9.28635 3.67382 0.00030522 10
21.26 -9.28825 4.5097 0.000298128 10
21.2797 -9.29688 5.3612 0.000289785 10
21.2583 -9.28754 6.21605 0.000280282 10
9.00555 -3.89705 -2.62928 0.000281736 4
10.467 -4.52949 -2.63306 6.63418e-05 4
12.2624 -5.30641 -2.59717 0.000882024 4
14.5429 -6.29329 -2.50979 0.000102508 4
20.0814 -8.69 -2.68665 4.49854e-05 1
21.3999 -9.26056 -2.04003 0.000396491 10
21.4225 -9.27034 -1.22332 0.00040019 10
21.4108 -9.26529 -0.407219 0.000402047 10
21.4123 -9.26593 0.407247 0.00040204 10
21.4195 -9.26907 1.22315 0.000312019 10
21.4035 -9.26214 2.04038 0.000309125 10
21.3381 -9.23383 2.85478 0.000465036 10
21.3365 -9.23312 3.68221 0.000456581 10
21.4263 -9.27199 4.53809 0.000292206 10
21.4251 -9.27146 5.38964 0.00028402 10
21.319 -9.22554 6.22432 0.000419752 10
9.03528 -3.87253 -2.63399 7.35004e-05 4
10.4822 -4.49266 -2.63291 0.000132692 4
12.3512 -5.29372 -2.61205 0.000976422 4
14.5584 -6.23973 -2.50868 0.000122859 4
20.1193 -8.62313 -2.68767 4.49914e-05 1
21.5592 -9.24028 -2.05213 0.000388572 10
31.5736 -13.5325 -1.80028 0.000190809 10
21.5667 -9.24348 1.2297 0.00030579 10
21.5626 -9.24173 2.05245 0.000302951 10
21.3188 -9.13726 2.84792 0.000469135 10
21.3211 -9.13822 3.67402 0.000460608 10
