VERSION 0.7
FIELDS x y z intensity label
SIZE 4 4 4 4 4
TYPE F F F F F
COUNT 1 1 1 1 1
WIDTH 1182
HEIGHT 1
VIEWPOINT 5.17617 40.9965 2.72839 0.765766 -0.000525024 0.000721545 0.643119
POINTS 1182
DATA ascii
25.6734 -3.1523 5.97168 0.00015506 10
25.68 -3.15311 6.9326 0.000149887 10
9.76275 -1.16414 -2.63445 0.000314176 4
11.3248 -1.3504 -2.63306 9.94341e-05 4
16.9002 -2.01522 -2.69569 0.000111214 1
21.756 -2.59425 -2.69023 4.49265e-05 1
26.2754 -3.13316 -2.31509 0.000111356 10
26.2605 -3.13137 -1.386 0.000112453 10
26.2488 -3.12998 -0.461421 0.000113018 10
26.2642 -3.13182 0.461691 0.000113045 10
26.2575 -3.13101 1.38584 0.000112533 10
25.2566 -3.01167 2.22532 6.18089e-05 10
25.9755 -3.09738 3.21198 0.000161256 10
25.993 -3.09948 4.14606 0.000158222 10
25.9947 -3.09967 5.08864 0.000154483 10
25.9705 -3.09679 6.03824 0.00015008 10
25.992 -3.09936 7.01388 0.00014506 10
9.7707 -1.13051 -2.63552 3.26418e-05 4
11.3172 -1.30945 -2.63022 0.000158075 4
13.4218 -1.55296 -2.62634 5.23581e-05 4
16.9321 -1.95911 -2.69967 0.000111215 1
21.7637 -2.51814 -2.69007 4.49269e-05 1
26.2374 -3.03578 -2.31079 0.000127566 10
26.2574 -3.03809 -1.38527 0.000128823 10
26.2468 -3.03687 -0.461197 0.000129471 10
26.2454 -3.03671 0.461172 0.000129501 10
26.2359 -3.0356 1.38414 0.000128915 10
25.2211 -2.91819 2.22128 6.14142e-05 10
26.3109 -3.04429 4.19505 0.00035721 10
26.2937 -3.04229 5.14507 0.000348746 10
26.3018 -3.04322 6.11275 0.000338779 10
26.2163 -3.03334 7.07151 0.000113264 10
9.77468 -1.09641 -2.63554 0.000191771 4
11.3157 -1.26926 -2.62881 0.000175923 4
13.4151 -1.50474 -2.62398 9.30815e-05 4
16.9255 -1.8985 -2.69755 0.000111216 1
21.7729 -2.44222 -2.69014 4.49272e-05 1
26.2113 -2.94008 -2.30757 0.000126735 10
26.2187 -2.94091 -1.38268 0.000127983 10
26.2093 -2.93985 -0.460354 0.000128626 10
26.2285 -2.942 0.46069 0.000128657 10
26.2062 -2.9395 1.38202 0.000128075 10
25.2191 -2.82878 2.22022 6.10127e-05 10
26.638 -2.98794 4.24551 0.000345388 10
26.6346 -2.98755 5.20971 0.000337182 10
26.6344 -2.98753 6.1876 0.00032752 10
26.1962 -2.93838 7.06326 0.00011253 10
9.76315 -1.06062 -2.63142 0.00015505 4
11.3376 -1.23166 -2.6329 0.000219268 4
13.4394 -1.45999 -2.62773 7.12659e-05 4
16.9363 -1.83987 -2.69823 0.000111216 1
21.7823 -2.36632 -2.69027 4.49276e-05 1
26.1899 -2.84514 -2.3048 0.000125889 10
26.1887 -2.84501 -1.38057 0.000127128 10
26.1866 -2.84478 -0.459778 0.000127767 10
26.2114 -2.84747 0.460213 0.000127797 10
26.1835 -2.84445 1.3803 0.000127219 10
25.1791 -2.73533 2.21585 6.06044e-05 10
26.9485 -2.92755 4.29334 0.000333758 10
26.9538 -2.92812 5.27011 0.000325807 10
26.9624 -2.92906 6.26138 0.000316444 10
26.2006 -2.84629 7.06172 0.000111783 10
9.76366 -1.0262 -2.63058 0.00030602 4
11.346 -1.19251 -2.63385 0.000178474 4
13.4316 -1.41172 -2.62521 7.27206e-05 4
16.9291 -1.77933 -2.69608 0.000111217 1
21.7773 -2.28888 -2.68864 4.49279e-05 1
26.178 -2.75142 -2.30289 0.000125028 10
26.1812 -2.75175 -1.37965 0.000126259 10
26.18 -2.75164 -0.459492 0.000126893 10
26.1916 -2.75285 0.459693 0.000126924 10
26.1749 -2.75109 1.37932 0.00012635 10
25.158 -2.64422 2.21317 6.01895e-05 10
27.2993 -2.86927 4.3476 0.000322321 10
27.2957 -2.8689 5.33497 0.00031462 10
27.2782 -2.86705 6.33235 0.000305554 10
26.1671 -2.75028 7.05008 0.000111023 10
9.78971 -0.994403 -2.63664 0.000285619 4
11.3306 -1.15092 -2.62933 0.000135131 4
13.4555 -1.36676 -2.62895 9.45371e-05 4
16.9463 -1.72135 -2.69785 0.000111217 1
21.7829 -2.21263 -2.68836 4.49282e-05 1
26.1621 -2.65746 -2.30067 0.000124154 10
26.1516 -2.65639 -1.3776 0.000125376 10
26.1662 -2.65786 -0.459082 0.000126006 10
26.1479 -2.65601 0.458761 0.000126036 10
26.1524 -2.65646 1.37764 0.000125467 10
25.1512 -2.55476 2.21176 5.97678e-05 10
27.6527 -2.80886 4.40229 0.000311079 10
27.651 -2.80868 5.40246 0.000303625 10
27.6525 -2.80884 6.41694 0.000294849 10
26.1559 -2.65683 7.04453 0.000110251 10
11.3296 -1.11088 -2.62819 6.62908e-05 4
13.4432 -1.31812 -2.62563 8.58109e-05 4
16.9379 -1.66078 -2.69556 0.000111218 1
21.8016 -2.13767 -2.68974 4.49284e-05 1
26.1458 -2.56362 -2.29843 0.000123266 10
26.1411 -2.56315 -1.37656 0.000124479 10
26.1231 -2.5614 -0.458168 0.000125104 10
26.1381 -2.56286 0.458429 0.000125134 10
26.1207 -2.56116 1.37549 0.000124569 10
25.118 -2.46284 2.20808 5.93395e-05 10
27.9841 -2.74387 4.4535 0.000300032 10
27.9969 -2.74512 5.46814 0.000292822 10
27.9944 -2.74488 6.49402 0.000284333 10
26.1111 -2.56022 7.02999 0.000109466 10
9.79634 -0.926027 -2.63662 0.000285621 4
11.3437 -1.07229 -2.63057 0.000183575 4
13.4394 -1.2704 -2.624 6.8358e-05 4
16.9627 -1.60345 -2.69861 0.000111218 1
21.8022 -2.06091 -2.6889 4.49287e-05 1
26.1231 -2.46936 -2.29567 0.000122364 10
26.1096 -2.46808 -1.37444 0.000123568 10
26.1085 -2.46798 -0.457757 0.000124188 10
26.1242 -2.46946 0.458032 0.000124218 10
26.1004 -2.46721 1.37396 0.000123657 10
25.1058 -2.3732 2.20627 5.89045e-05 10
28.3691 -2.68167 4.51325 0.000289182 10
28.3672 -2.68149 5.53861 0.000282212 10
28.3539 -2.68023 6.57519 0.000274006 10
26.1017 -2.46734 7.02511 0.000108669 10
9.77338 -0.889448 -2.62959 0.000359067 4
11.358 -1.03366 -2.63305 6.62911e-05 4
13.4667 -1.22557 -2.62848 0.000109082 4
16.9545 -1.54298 -2.69643 0.000111219 1
21.8155 -1.98536 -2.68967 4.49289e-05 1
26.1099 -2.37618 -2.29376 0.000121448 10
26.1044 -2.37568 -1.37373 0.000122643 10
26.1086 -2.37607 -0.457611 0.000123259 10
26.0958 -2.3749 0.457386 0.000123288 10
26.0948 -2.37481 1.37322 0.000122732 10
25.0916 -2.28351 2.2043 5.8463e-05 10
28.7312 -2.61474 4.56938 0.000278531 10
28.7362 -2.6152 5.60884 0.000271797 10
28.7421 -2.61573 6.66305 0.000263869 10
26.0808 -2.37353 7.0172 0.00010786 10
9.79612 -0.857052 -2.63489 3.67228e-05 4
11.3613 -0.993991 -2.63299 0.000127483 4
13.4741 -1.17884 -2.62911 3.63608e-05 4
16.9787 -1.48544 -2.69943 0.000111219 1
21.8193 -1.90895 -2.68931 4.4929e-05 1
26.0883 -2.28244 -2.29115 0.000120519 10
26.067 -2.28057 -1.37133 0.000121704 10
26.0591 -2.27988 -0.4566 0.000122315 10
26.0867 -2.2823 0.457085 0.000122344 10
26.0766 -2.28142 1.37184 0.000121792 10
25.0707 -2.19341 2.20178 5.8015e-05 10
29.137 -2.54916 4.63247 0.00026808 10
29.1333 -2.54884 5.68457 0.000261578 10
29.1226 -2.5479 6.74916 0.000253923 10
26.071 -2.28092 7.01239 0.000107038 10
9.78582 -0.82174 -2.63133 0.000159132 4
11.3501 -0.953097 -2.6296 8.41389e-05 4
16.9703 -1.42504 -2.6973 0.000111219 1
21.8335 -1.83341 -2.69025 4.49291e-05 1
26.0628 -2.18856 -2.28822 0.000119576 10
26.0478 -2.1873 -1.36991 0.000120752 10
26.0621 -2.1885 -0.456517 0.000121357 10
26.0521 -2.18766 0.456341 0.000121387 10
26.0376 -2.18644 1.36938 0.000120839 10
25.058 -2.10418 2.2 5.75605e-05 10
29.525 -2.47929 4.69276 0.000257829 10
29.5198 -2.47885 5.75826 0.000251555 10
29.4993 -2.47713 6.83443 0.00024417 10
26.0264 -2.1855 6.9983 0.000106205 10
9.78934 -0.787633 -2.63152 0.00013465 4
11.3437 -0.912698 -2.62737 7.39404e-05 4
13.4607 -1.08303 -2.62496 5.09053e-05 4
16.9633 -1.36484 -2.69541 0.000111219 1
21.8254 -1.75603 -2.68848 4.49293e-05 1
26.0234 -2.0938 -2.28411 0.000118619 10
26.0255 -2.09396 -1.36834 0.000119785 10
26.0241 -2.09385 -0.45572 0.000120386 10
26.0399 -2.09512 0.455996 0.000120415 10
26.021 -2.0936 1.36811 0.000119872 10
25.0368 -2.01442 2.19752 3.66039e-05 10
29.9157 -2.40697 4.7535 0.00024778 10
29.9196 -2.40728 5.83457 0.000241731 10
29.887 -2.40466 6.92225 5.56145e-05 10
26.0185 -2.0934 6.99417 0.000105359 10
9.7921 -0.753462 -2.63154 0.000208096 4
13.4698 -1.03645 -2.62601 0.000127991 4
16.9807 -1.30659 -2.69743 0.00011122 1
21.8475 -1.68107 -2.69046 4.49293e-05 1
26.0261 -2.0026 -2.28372 0.000117649 10
26.0239 -2.00243 -1.36789 0.000118806 10
26.0246 -2.00249 -0.455605 0.000119401 10
26.0162 -2.00184 0.455456 0.00011943 10
26.0101 -2.00137 1.36716 0.000118892 10
25.03 -1.92596 2.19631 3.60133e-05 10
30.338 -2.33439 4.81927 0.000237934 10
30.3498 -2.3353 5.91685 0.000232105 10
29.8974 -2.30048 6.92275 5.56144e-05 10
26.0086 -2.00126 6.98959 0.000104501 10
9.78832 -0.71881 -2.62983 0.00012241 4
11.3714 -0.835068 -2.63237 0.000140232 4
13.4709 -0.989244 -2.62553 8.72663e-05 4
16.9776 -1.24676 -2.69624 0.00011122 1
21.8471 -1.60435 -2.68971 4.49294e-05 1
26.0034 -1.90957 -2.28113 0.000116666 10
25.9865 -1.90834 -1.36556 0.000117812 10
25.9973 -1.90913 -0.455007 0.000118403 10
25.9749 -1.90748 0.454614 0.000118432 10
25.9823 -1.90803 1.36534 0.000117898 10
25.0098 -1.83661 2.19397 3.54185e-05 10
30.7386 -2.2573 4.88162 5.77856e-05 10
30.7257 -2.25636 5.98855 5.63655e-05 10
29.9295 -2.19789 6.92837 5.56144e-05 10
25.9628 -1.90659 6.97545 0.000103631 10
11.3534 -0.793907 -2.62754 3.56954e-05 4
13.4918 -0.943439 -2.62894 7.41764e-05 4
16.992 -1.1882 -2.69784 0.00011122 1
21.8446 -1.52753 -2.68873 4.49294e-05 1
25.987 -1.81719 -2.27912 7.30292e-05 10
25.9867 -1.81717 -1.36523 7.37467e-05 10
25.9742 -1.8163 -0.454489 7.41165e-05 10
25.9804 -1.81673 0.454598 7.41345e-05 10
25.9625 -1.81547 1.36396 7.38006e-05 10
25.0136 -1.74913 2.19375 3.48196e-05 10
30.6995 -2.14672 4.87419 5.71389e-05 10
30.6927 -2.14625 5.98063 5.57351e-05 10
29.9214 -2.09231 6.92478 5.56144e-05 10
25.9781 -1.81657 6.97782 6.48705e-05 10
9.80092 -0.650977 -2.63193 7.34458e-05 4
11.3669 -0.754989 -2.63004 0.00015298 4
13.4774 -0.895171 -2.62552 3.6361e-05 4
16.9955 -1.12884 -2.69776 0.00011122 1
21.8485 -1.45117 -2.68856 4.49294e-05 1
25.9624 -1.72442 -2.27642 7.17733e-05 10
25.9726 -1.7251 -1.36416 7.24784e-05 10
25.9668 -1.72472 -0.454251 7.28419e-05 10
25.9662 -1.72468 0.454241 7.28596e-05 10
25.9505 -1.72363 1.363 7.25315e-05 10
24.9972 -1.66031 2.19179 3.42167e-05 10
30.6941 -2.0387 4.87218 5.64853e-05 10
30.6811 -2.03784 5.97694 5.5098e-05 10
29.9162 -1.98704 6.92192 5.56144e-05 10
25.9549 -1.72392 6.96991 6.37567e-05 10
9.79468 -0.616229 -2.62967 0.000236659 4
11.3767 -0.71576 -2.63171 0.000221821 4
17.0005 -1.06958 -2.69794 0.000500416 4
21.8569 -1.37512 -2.689 4.49294e-05 1
25.9681 -1.63377 -2.27641 7.0509e-05 10
25.9491 -1.63258 -1.36262 7.12016e-05 10
25.9551 -1.63296 -0.453943 7.15587e-05 10
25.9417 -1.63212 0.45371 7.15763e-05 10
25.9444 -1.63228 1.36237 7.12541e-05 10
24.9921 -1.57237 2.19084 3.36099e-05 10
30.6625 -1.92912 4.86606 5.58249e-05 10
30.6536 -1.92856 5.97024 5.44541e-05 10
29.9511 -1.88436 6.92842 5.56144e-05 10
25.9428 -1.63219 6.96511 6.26354e-05 10
9.82235 -0.583555 -2.63653 0.000350907 4
11.3837 -0.676316 -2.63277 0.000135132 4
13.4879 -0.801329 -2.62641 5.52686e-05 4
16.969 -1.00814 -2.69236 0.000520341 4
21.8565 -1.29852 -2.68837 4.49293e-05 1
25.9628 -1.54248 -2.27546 6.92364e-05 10
25.9438 -1.54135 -1.36205 6.99166e-05 10
25.9337 -1.54074 -0.453472 7.02673e-05 10
25.9516 -1.54181 0.453785 7.02846e-05 10
25.9474 -1.54156 1.36225 6.99683e-05 10
24.9752 -1.4838 2.1889 3.29992e-05 10
30.6485 -1.82086 4.8628 5.51578e-05 10
30.6357 -1.8201 5.96548 5.38037e-05 10
29.9469 -1.77917 6.92597 5.56145e-05 10
25.9436 -1.54134 6.96383 6.15067e-05 10
9.79995 -0.547904 -2.62999 0.000306023 4
11.3878 -0.636681 -2.63319 0.000158079 4
13.5062 -0.755114 -2.62943 0.0001149 4
16.9786 -0.949252 -2.69334 0.000466333 4
21.8677 -1.2226 -2.68921 4.49292e-05 1
25.9349 -1.44999 -2.27255 6.79559e-05 10
25.9435 -1.45047 -1.36177 6.86235e-05 10
25.9491 -1.45079 -0.453651 6.89677e-05 10
25.9432 -1.45046 0.453547 6.89848e-05 10
25.9445 -1.45053 1.36182 6.86745e-05 10
24.9639 -1.3957 2.18746 3.23847e-05 10
30.6336 -1.71269 4.85946 5.4484e-05 10
30.6194 -1.7119 5.9611 5.31468e-05 10
29.9357 -1.67367 6.922 5.56146e-05 10
25.9189 -1.4491 6.9558 6.03709e-05 10
9.81354 -0.514307 -2.63314 0.000187694 4
11.3902 -0.596938 -2.63325 6.62912e-05 4
16.9441 -0.888006 -2.68737 0.000445394 4
21.8693 -1.14613 -2.6889 4.4929e-05 1
25.9315 -1.35902 -2.27183 6.66673e-05 10
25.9191 -1.35837 -1.36023 6.73223e-05 10
25.92 -1.35842 -0.453057 6.766e-05 10
25.9355 -1.35923 0.453327 6.76768e-05 10
25.9144 -1.35812 1.35998 6.73726e-05 10
24.9554 -1.30786 2.18631 3.17664e-05 10
30.6258 -1.60504 4.85731 5.38036e-05 10
30.6061 -1.60401 5.9574 5.24834e-05 10
29.9414 -1.56917 6.92201 5.56146e-05 10
25.9238 -1.35861 6.9558 5.92279e-05 10
11.3884 -0.556987 -2.63236 0.000101986 4
13.4832 -0.659439 -2.62399 9.30835e-05 4
16.9367 -0.828345 -2.68571 0.000509918 4
21.8803 -1.07013 -2.68978 4.49289e-05 1
25.9208 -1.26774 -2.27048 6.5371e-05 10
25.9105 -1.26724 -1.35953 6.60131e-05 10
25.9139 -1.2674 -0.452869 6.63444e-05 10
25.9214 -1.26777 0.453 6.6361e-05 10
25.9151 -1.26747 1.35978 6.60628e-05 10
24.9466 -1.2201 2.18516 3.11445e-05 10
30.608 -1.49698 4.85362 5.31167e-05 10
30.5806 -1.49564 5.95136 5.18137e-05 10
29.9731 -1.46593 6.9281 5.56148e-05 10
25.8988 -1.26666 6.94784 5.8078e-05 10
9.8317 -0.446456 -2.63711 8.56862e-05 4
13.4985 -0.612963 -2.62654 2.90885e-05 4
16.9271 -0.768658 -2.68375 0.000507594 4
21.8871 -0.993892 -2.69017 4.49287e-05 1
25.8977 -1.17601 -2.26809 6.4067e-05 10
25.9058 -1.17638 -1.35906 6.46964e-05 10
25.905 -1.17634 -0.452639 6.50211e-05 10
25.9052 -1.17635 0.452642 6.50374e-05 10
25.8897 -1.17565 1.35822 6.47453e-05 10
24.9215 -1.13168 2.18259 3.0519e-05 10
30.5718 -1.38826 4.84708 5.24233e-05 10
30.5801 -1.38864 5.9503 5.11376e-05 10
29.9535 -1.36018 6.92243 5.56149e-05 10
25.8786 -1.17514 6.94129 5.69212e-05 10
9.81995 -0.411579 -2.63356 0.000195854 4
11.3858 -0.477207 -2.63092 0.000188674 4
13.5119 -0.566318 -2.62876 5.96313e-05 4
16.9311 -0.709626 -2.68398 0.000430381 4
21.8687 -0.916573 -2.6875 4.49285e-05 1
25.8834 -1.08484 -2.2665 6.27555e-05 10
25.8909 -1.08515 -1.35808 6.3372e-05 10
25.9054 -1.08576 -0.452578 6.36901e-05 10
25.8824 -1.0848 0.452176 6.37062e-05 10
25.9061 -1.08579 1.35887 6.34202e-05 10
24.9319 -1.04496 2.18317 2.98899e-05 10
30.551 -1.28047 4.84305 5.17235e-05 10
30.5486 -1.28037 5.94325 5.04553e-05 10
29.972 -1.2562 6.92567 5.56151e-05 10
25.896 -1.08537 6.9449 5.57577e-05 10
9.82606 -0.37748 -2.63483 4.89633e-05 4
11.3794 -0.437153 -2.62908 4.07942e-05 4
13.5085 -0.518944 -2.62772 0.000132352 4
16.9089 -0.649577 -2.68009 0.000521589 4
21.8778 -0.840461 -2.68823 4.49282e-05 1
25.9029 -0.995092 -2.26788 6.14367e-05 10
25.8806 -0.994235 -1.35735 6.20403e-05 10
25.8743 -0.993992 -0.451971 6.23517e-05 10
25.874 -0.993981 0.451966 6.23676e-05 10
25.8793 -0.994183 1.35728 6.20878e-05 10
30.5398 -1.17322 4.8406 5.10175e-05 10
30.5457 -1.17345 5.94187 4.9767e-05 10
29.9655 -1.15116 6.92319 5.56153e-05 10
25.8757 -0.994045 6.93848 5.45876e-05 10
9.83044 -0.343287 -2.63566 0.000236656 4
11.3945 -0.397907 -2.63224 0.000155528 4
13.5107 -0.471806 -2.62782 0.000101809 4
16.8942 -0.589958 -2.6774 0.000470286 4
21.8898 -0.764409 -2.68936 4.49279e-05 1
30.522 -1.06585 4.83715 5.03053e-05 10
30.5278 -1.06606 5.93762 4.90725e-05 10
29.986 -1.04714 6.92704 5.56155e-05 10
9.82684 -0.308821 -2.63439 8.56854e-05 4
11.3797 -0.357621 -2.6285 7.13895e-05 4
13.5184 -0.424835 -2.62902 6.10851e-05 4
16.8852 -0.530638 -2.67567 0.000482815 4
21.8798 -0.687599 -2.68782 4.49276e-05 1
27.1696 -0.85384 4.30537 0.000229455 10
27.161 -0.853569 5.28217 0.00022399 10
27.1766 -0.854061 6.27732 0.000217553 10
9.81609 -0.27419 -2.63124 6.52839e-05 4
11.3754 -0.317747 -2.62725 0.000234565 4
13.5042 -0.377209 -2.62597 3.19968e-05 4
16.8766 -0.47141 -2.67404 0.000487821 4
21.8981 -0.611675 -2.6898 4.49273e-05 1
27.1019 -0.75703 4.29419 0.000127648 10
27.1152 -0.757403 5.27272 0.000124611 10
27.1139 -0.757366 6.26218 0.000121033 10
9.83357 -0.240329 -2.63568 0.000114246 4
11.3961 -0.278516 -2.63177 6.11905e-05 4
13.5033 -0.330016 -2.62556 4.0723e-05 4
16.8921 -0.412838 -2.67625 0.00050799 4
21.9057 -0.535369 -2.69049 4.49269e-05 1
27.0594 -0.661322 4.28706 0.000127033 10
27.0743 -0.661686 5.26427 0.000124011 10
27.0537 -0.661184 6.24771 0.000120452 10
9.81589 -0.205615 -2.63074 0.000244813 4
11.4062 -0.238927 -2.6339 0.000170823 4
13.5247 -0.283303 -2.6295 7.99912e-05 4
16.8602 -0.353174 -2.67099 0.000535833 4
21.9035 -0.458817 -2.69001 4.49265e-05 1
9.8235 -0.171471 -2.6326 0.00041618 4
11.3932 -0.198871 -2.63073 0.000112182 4
13.5077 -0.23578 -2.62603 5.38119e-05 4
16.8484 -0.294092 -2.66892 0.000430458 4
21.8843 -0.381995 -2.68746 4.49261e-05 1
27.0772 -0.472639 4.28927 0.000113692 10
27.0964 -0.472973 5.2678 0.000110986 10
27.0895 -0.472853 6.25506 0.000107799 10
9.83129 -0.137281 -2.63454 0.000102005 4
11.389 -0.159032 -2.62961 3.82435e-05 4
13.508 -0.188621 -2.62594 3.78136e-05 4
16.8456 -0.235226 -2.66834 0.000561295 4
21.909 -0.305929 -2.69035 4.49257e-05 1
27.1505 -0.37912 4.30064 0.000219242 10
27.1314 -0.378854 5.27433 0.000214023 10
27.1395 -0.378967 6.26627 0.000207878 10
9.84016 -0.103051 -2.63681 0.00024481 4
11.3856 -0.119235 -2.62872 0.000168271 4
16.8343 -0.176296 -2.66644 0.000482221 4
21.8866 -0.229206 -2.68749 4.49252e-05 1
27.2412 -0.285281 4.31481 0.000295039 10
27.2483 -0.285356 5.29682 0.000288014 10
27.2474 -0.285347 6.2909 0.000279739 10
9.83159 -0.0686391 -2.63443 6.93625e-05 4
11.3903 -0.0795211 -2.62972 0.000163171 4
16.8218 -0.117441 -2.66438 0.000517836 4
21.8963 -0.152869 -2.68859 4.49246e-05 1
25.8981 -0.180807 -2.26585 7.29191e-05 10
25.9172 -0.18094 -1.35829 7.36331e-05 10
25.9084 -0.180879 -0.452244 7.40005e-05 10
25.887 -0.18073 0.45187 7.40169e-05 10
25.8911 -0.180758 1.35693 7.36825e-05 10
29.9853 -0.209342 6.92283 5.56178e-05 10
25.8767 -0.180658 6.93381 6.47698e-05 10
9.82748 -0.0343048 -2.63328 0.000399852 4
11.4064 -0.0398163 -2.63339 0.000145323 4
16.8249 -0.0587307 -2.66482 0.000495921 4
21.9057 -0.0764661 -2.68969 4.49241e-05 1
25.917 -0.0904684 -2.26746 7.41916e-05 10
25.9234 -0.090491 -1.3586 7.49182e-05 10
25.9069 -0.0904333 -0.45221 7.5292e-05 10
25.9045 -0.0904249 0.452168 7.53087e-05 10
25.9146 -0.0904602 1.35814 7.49683e-05 10
24.9479 -0.0870858 2.18268 3.5412e-05 10
30.0031 -0.104732 6.92681 5.56182e-05 10
25.8941 -0.0903886 6.93835 6.58985e-05 10
11.3973 0 -2.63127 0.000119827 4
13.5216 0 -2.62833 9.16227e-05 4
16.8013 0 -2.66107 0.000458473 4
21.8947 0 -2.68833 4.49235e-05 1
25.9372 0 -2.26921 7.54556e-05 10
25.9296 0 -1.35891 7.61946e-05 10
25.9404 0 -0.452792 7.65747e-05 10
25.9459 0 0.452886 7.65916e-05 10
25.935 0 1.3592 7.62453e-05 10
24.9673 0 2.18435 3.60187e-05 10
29.9961 0 6.92515 5.56187e-05 10
25.9308 0 6.94813 6.70196e-05 10
9.81474 0.034258 -2.62987 0.000232565 4
11.3813 0.039726 -2.6276 0.000109628 4
16.8022 0.0586476 -2.66123 0.000467173 4
21.9002 0.0764418 -2.68902 4.49229e-05 1
25.9474 0.0905684 -2.27012 7.67106e-05 10
25.952 0.0905845 -1.3601 7.7462e-05 10
25.9534 0.0905893 -0.453021 7.78485e-05 10
25.9592 0.0906097 0.453122 7.78657e-05 10
25.9605 0.0906142 1.36054 7.75135e-05 10
24.9875 0.0872179 2.18614 3.66213e-05 10
30.003 0.104724 6.92679 5.56191e-05 10
25.9385 0.0905372 6.95023 6.81327e-05 10
9.8334 0.0686494 -2.63492 0.000179522 4
11.402 0.0796004 -2.63243 9.17812e-05 4
13.5136 0.094342 -2.62685 5.52636e-05 4
16.7837 0.117171 -2.65834 0.000510707 4
21.9043 0.15292 -2.68958 4.49223e-05 1
25.9811 0.181381 -2.27311 7.79569e-05 10
25.9749 0.181337 -1.36132 7.87205e-05 10
25.9851 0.181408 -0.453583 7.91133e-05 10
25.9712 0.181312 0.45334 7.91307e-05 10
25.9686 0.181293 1.36099 7.87727e-05 10
25.0053 0.174568 2.18773 3.72198e-05 10
29.9995 0.209434 6.92609 5.56195e-05 10
25.9584 0.181222 6.9557 6.92378e-05 10
9.83404 0.102984 -2.63517 0.000155041 4
11.398 0.119362 -2.63158 9.94289e-05 4
13.5127 0.141507 -2.62674 0.000111981 4
16.7839 0.175764 -2.65845 0.000538889 4
21.9086 0.229431 -2.69018 4.49216e-05 1
25.9895 0.272167 -2.27391 7.91941e-05 10
25.9921 0.272195 -1.36226 7.99699e-05 10
25.9896 0.272168 -0.453674 8.03689e-05 10
25.9782 0.272049 0.453475 8.03866e-05 10
25.9819 0.272088 1.36173 8.00228e-05 10
25.0189 0.262003 2.18899 3.78139e-05 10
29.992 0.314082 6.92458 5.562e-05 10
25.9625 0.271884 6.957 7.03348e-05 10
9.83272 0.137298 -2.63492 0.00022848 4
11.3963 0.159132 -2.63131 0.00013767 4
13.5056 0.188584 -2.62548 3.19941e-05 4
16.7657 0.234107 -2.65569 0.000629314 4
21.8996 0.305793 -2.6892 4.49209e-05 1
26.0067 0.363142 -2.27551 8.0422e-05 10
26.0026 0.363085 -1.36287 8.121e-05 10
26.0031 0.363093 -0.453931 8.16152e-05 10
25.9979 0.36302 0.45384 8.16331e-05 10
26.0069 0.363145 1.3631 8.12636e-05 10
25.0332 0.34955 2.19034 3.84037e-05 10
29.9905 0.41877 6.92453 5.56205e-05 10
25.993 0.362951 6.96548 7.14237e-05 10
9.84094 0.171773 -2.63727 0.000155039 4
11.3821 0.198673 -2.62815 0.000127471 4
13.5012 0.235664 -2.62478 2.90853e-05 4
14.6245 0.25527 -2.31665 0.000310615 6
21.8951 0.382177 -2.68878 4.49202e-05 1
26.0264 0.45429 -2.27736 0.000137583 10
26.0186 0.454153 -1.36378 0.000138933 10
26.0323 0.454393 -0.454465 0.000139629 10
26.0176 0.454136 0.454207 0.000139661 10
26.0259 0.454281 1.36417 0.000139031 10
25.0538 0.437312 2.19225 3.89891e-05 10
29.982 0.523335 6.92295 5.56211e-05 10
26.0103 0.454009 6.9705 0.000122199 10
9.82574 0.205819 -2.63338 0.000163198 4
11.3949 0.238688 -2.6313 0.000107075 4
13.4987 0.282756 -2.62446 7.12583e-05 4
14.163 0.296671 -2.24369 4.93637e-05 6
21.8985 0.458706 -2.68939 4.49195e-05 1
26.061 0.545898 -2.28054 0.000138399 10
26.0553 0.545778 -1.3658 0.000139758 10
26.0553 0.545778 -0.454896 0.000140457 10
26.0432 0.545526 0.454685 0.00014049 10
26.0497 0.545662 1.36551 0.000139856 10
25.0525 0.524773 2.19229 3.957e-05 10
29.9845 0.628083 6.92398 5.56216e-05 10
26.0425 0.545511 6.9796 0.00012292 10
9.81987 0.239992 -2.63201 0.000469191 4
11.3969 0.278535 -2.63198 0.000145315 4
13.5025 0.329993 -2.6254 4.21729e-05 4
14.0303 0.342893 -2.22285 0.000989275 6
21.8948 0.535096 -2.68914 4.49187e-05 1
26.0824 0.63744 -2.2826 0.0001392 10
26.098 0.637821 -1.36815 0.000140567 10
26.1002 0.637874 -0.455717 0.000141271 10
26.0732 0.637215 0.455246 0.000141303 10
26.0944 0.637733 1.36796 0.000140665 10
25.0795 0.61293 2.19483 4.01464e-05 10
29.9989 0.733157 6.92787 5.56222e-05 10
26.0753 0.637264 6.98893 0.000123626 10
9.81371 0.274122 -2.6306 0.000191755 4
11.3989 0.3184 -2.63267 0.000124918 4
13.5131 0.377455 -2.6277 0.000107612 4
13.9166 0.388726 -2.20503 0.00125816 6
21.9037 0.611826 -2.69049 4.49179e-05 1
26.1243 0.729718 -2.28647 0.000139985 10
26.1106 0.729335 -1.36893 0.00014136 10
26.1133 0.729411 -0.455988 0.000142068 10
26.1313 0.729913 0.456302 0.000142101 10
26.1137 0.729422 1.3691 0.000141459 10
25.1065 0.701289 2.19739 6.69619e-05 10
29.9948 0.837829 6.92753 5.56227e-05 10
26.0956 0.728915 6.99501 0.000124319 10
9.82085 0.30863 -2.63279 0.000106076 4
11.4004 0.358268 -2.63328 0.000101973 4
13.5184 0.42483 -2.62901 9.30692e-05 4
13.8055 0.433851 -2.18765 0.00129228 6
21.8799 0.687598 -2.68784 4.49171e-05 1
26.1696 0.822406 -2.29067 0.000140755 10
26.1542 0.821923 -1.37136 0.000142138 10
26.1617 0.82216 -0.45688 0.00014285 10
26.1538 0.82191 0.456741 0.000142883 10
26.1476 0.821715 1.37101 0.000142237 10
25.1148 0.789259 2.19834 6.73397e-05 10
29.9914 0.942509 6.92747 5.56234e-05 10
26.1371 0.821387 7.00688 0.000124998 10
9.83411 0.343413 -2.63665 0.000142794 4
11.3887 0.397701 -2.6309 0.000247283 4
13.4969 0.471319 -2.62513 6.39843e-05 4
13.7599 0.480505 -2.18069 0.00269239 6
21.8812 0.764105 -2.68831 4.49162e-05 1
26.2016 0.914976 -2.29374 0.000141509 10
26.1918 0.914633 -1.37349 0.0001429 10
26.1863 0.914442 -0.457363 0.000143616 10
26.1687 0.913825 0.457054 0.000143649 10
26.1711 0.913909 1.3724 0.000143 10
25.1641 0.878745 2.20291 6.77103e-05 10
29.986 1.04713 6.92704 5.5624e-05 10
26.1729 0.913971 7.01727 0.000125663 10
9.8068 0.376737 -2.62966 0.000220309 4
11.3942 0.437721 -2.63251 0.000193746 4
13.5109 0.519033 -2.62819 9.45212e-05 4
13.7228 0.527173 -2.17507 0.00271195 6
21.8781 0.840466 -2.68827 4.49153e-05 1
26.2177 1.00718 -2.29545 0.000172999 10
26.2305 1.00767 -1.37569 0.0001747 10
26.2298 1.00764 -0.458181 0.000175577 10
26.2087 1.00683 0.457812 0.000175619 10
26.2103 1.00689 1.37464 0.000174825 10
25.1814 0.967366 2.20471 6.80734e-05 10
29.9673 1.15122 6.92359 5.56246e-05 10
26.2158 1.00711 7.0297 0.00015363 10
9.81939 0.411553 -2.63341 0.00017135 4
11.3869 0.477253 -2.63119 0.00017335 4
13.4914 0.565456 -2.62477 3.05372e-05 4
13.6853 0.573583 -2.16945 0.0027315 6
21.8685 0.91656 -2.68748 4.49144e-05 1
26.2772 1.10134 -2.30097 0.000173373 10
26.2739 1.1012 -1.37816 0.00017508 10
26.2753 1.10126 -0.45904 0.000175958 10
26.2709 1.10107 0.458963 0.000176 10
26.2609 1.10065 1.37748 0.000175205 10
25.2055 1.05642 2.20713 6.84291e-05 10
29.9698 1.2561 6.92515 5.56253e-05 10
26.2573 1.1005 7.04181 0.000153955 10
9.81656 0.445766 -2.63305 0.000216225 4
11.37 0.516309 -2.62769 0.000372188 4
13.5036 0.613195 -2.62755 0.00016868 4
13.6758 0.621013 -2.16827 0.00275103 6
21.8667 0.99296 -2.68766 4.49134e-05 1
26.3034 1.19443 -2.30362 0.00017373 10
26.3189 1.19513 -1.38074 0.00017544 10
26.3111 1.19478 -0.459736 0.000176322 10
26.3093 1.1947 0.459704 0.000176363 10
26.3101 1.19473 1.38027 0.000175566 10
25.2429 1.14627 2.21074 6.87773e-05 10
29.9574 1.36035 6.92333 5.5626e-05 10
26.3009 1.19431 7.05456 0.000154265 10
9.81071 0.479823 -2.63191 0.000428367 4
11.3946 0.557289 -2.6338 0.000101968 4
13.4851 0.659529 -2.62437 5.67106e-05 4
13.6349 0.666858 -2.16214 0.00297085 6
21.8693 1.06958 -2.68842 4.49124e-05 1
26.3564 1.28904 -2.30864 0.000174069 10
26.347 1.28858 -1.38244 0.000175783 10
26.3546 1.28895 -0.460572 0.000176666 10
26.3541 1.28893 0.460562 0.000176708 10
26.3396 1.28822 1.38205 0.000175909 10
25.2612 1.23548 2.21271 6.9118e-05 10
29.9668 1.46562 6.92666 5.56267e-05 10
26.3192 1.28722 7.06065 0.000154558 10
9.82392 0.514849 -2.63592 9.38319e-05 4
13.4993 0.707465 -2.62759 8.87e-05 4
13.6259 0.714101 -2.16109 0.00297804 6
21.8799 1.14668 -2.69021 4.49114e-05 1
26.406 1.38388 -2.3134 0.000174389 10
26.379 1.38246 -1.38436 0.000176107 10
26.3876 1.38292 -0.46123 0.000176992 10
26.3772 1.38237 0.461048 0.000177034 10
26.389 1.38299 1.38489 0.000176233 10
25.3141 1.32666 2.21774 8.41314e-05 10
30.0559 1.57516 4.76692 3.07442e-05 10
30.0541 1.57507 5.84994 2.99951e-05 10
29.9591 1.57009 6.92609 5.56275e-05 10
26.3837 1.38271 7.07919 0.000154834 10
9.81156 0.548551 -2.6331 0.00010607 4
11.3882 0.636698 -2.63327 8.92202e-05 4
13.4887 0.754134 -2.62603 0.000116326 4
13.6149 0.761189 -2.15975 0.00253353 6
21.8792 1.22324 -2.69063 4.49104e-05 1
26.4478 1.47866 -2.31749 0.000174199 10
26.4298 1.47765 -1.38729 0.000175916 10
26.4258 1.47743 -0.461985 0.0001768 10
26.4384 1.47814 0.462205 0.000176843 10
26.4411 1.47828 1.38788 0.000176042 10
25.3577 1.41772 2.22198 8.42866e-05 10
30.0377 1.67937 4.76494 2.99025e-05 10
30.0221 1.6785 5.84483 2.91741e-05 10
29.9583 1.67493 6.92722 5.56282e-05 10
26.4266 1.47747 7.09203 0.000154657 10
9.80524 0.582539 -2.63194 0.000436514 4
11.3873 0.676529 -2.6336 6.11789e-05 4
13.5016 0.802143 -2.62907 7.70651e-05 4
13.59 0.807393 -2.15623 0.0026944 6
21.8741 1.29956 -2.69054 4.49093e-05 1
26.4852 1.57351 -2.32124 0.000174489 10
26.4835 1.57341 -1.39039 0.00017621 10
26.4847 1.57348 -0.463107 0.000177096 10
26.4651 1.57231 0.462764 0.000177139 10
26.4602 1.57202 1.38916 0.000176336 10
25.3901 1.50845 2.22526 8.44332e-05 10
30.007 1.78274 4.76102 2.9057e-05 10
29.9519 1.77947 6.92714 5.5629e-05 10
26.4667 1.57241 7.10423 0.000154907 10
9.8203 0.617839 -2.63654 0.000273329 4
11.3841 0.716226 -2.63343 8.15709e-05 4
13.4887 0.848634 -2.62712 3.19888e-05 4
13.5535 0.852709 -2.1509 0.00269498 6
21.8503 1.3747 -2.68818 4.49082e-05 1
26.5151 1.66818 -2.32436 0.000174762 10
26.507 1.66767 -1.39192 0.000176486 10
26.5132 1.66807 -0.463705 0.000177374 10
26.5254 1.66883 0.463918 0.000177416 10
26.5126 1.66802 1.39221 0.000176612 10
25.421 1.59935 2.22845 8.4571e-05 10
29.9283 1.88292 6.92316 5.56298e-05 10
26.5078 1.66772 7.11679 0.000155141 10
9.81033 0.6516 -2.63446 0.000297803 4
11.3672 0.755007 -2.63011 8.6668e-05 4
13.4839 0.895599 -2.62678 8.57869e-05 4
13.5398 0.899313 -2.14923 0.00268376 6
21.84 1.4506 -2.68752 4.49071e-05 1
26.5673 1.7646 -2.32946 0.000175016 10
26.5667 1.76455 -1.39537 0.000176743 10
26.5407 1.76283 -0.464291 0.000177633 10
26.5555 1.76381 0.464549 0.000177676 10
26.5566 1.76388 1.39484 0.00017687 10
25.4577 1.69089 2.23217 8.47001e-05 10
29.9149 1.98694 6.92161 5.56306e-05 10
26.5268 1.7619 7.12349 0.000155359 10
9.80067 0.685328 -2.63249 0.000191734 4
11.3687 0.794973 -2.63107 4.33335e-05 4
13.4699 0.941905 -2.62468 5.23438e-05 4
13.5673 0.948715 -2.15409 0.00301217 6
21.8386 1.5271 -2.68799 4.49059e-05 1
26.6129 1.86095 -2.33401 0.000175252 10
26.6042 1.86034 -1.39767 0.000176982 10
26.6079 1.8606 -0.465577 0.000177874 10
26.6029 1.86026 0.46549 0.000177916 10
26.6049 1.86039 1.39771 0.000177109 10
25.516 1.78425 2.23782 8.48205e-05 10
29.9155 2.09189 6.9234 5.56315e-05 10
26.572 1.85809 7.13734 0.00015556 10
9.8089 0.720319 -2.63536 0.000403861 4
11.3735 0.835218 -2.63286 9.68618e-05 4
13.4808 0.989967 -2.62746 5.96128e-05 4
13.5399 0.994303 -2.15028 0.00015788 6
21.8529 1.60478 -2.69043 4.49047e-05 1
26.6426 1.95651 -2.3372 0.0001524 10
26.6344 1.9559 -1.39961 0.000153905 10
26.6415 1.95643 -0.466281 0.000154679 10
26.6199 1.95484 0.465903 0.000154715 10
26.627 1.95536 1.39922 0.000154013 10
25.5576 1.87683 2.24202 8.51322e-05 10
29.9014 2.19582 6.92188 5.56323e-05 10
26.6079 1.95396 7.14876 0.000135263 10
9.78606 0.752995 -2.62992 0.000199888 4
11.3707 0.874927 -2.63289 9.17626e-05 4
13.4655 1.03612 -2.62517 0.000109046 4
13.521 1.04038 -2.14785 0.000272528 6
21.8516 1.68139 -2.69097 4.49035e-05 1
26.6718 2.05228 -2.34038 0.000152898 10
26.6712 2.05223 -1.40191 0.000154408 10
26.6595 2.05133 -0.466718 0.000155185 10
26.6576 2.05119 0.466685 0.000155221 10
26.6655 2.0518 1.40161 0.000154516 10
25.586 1.96873 2.2451 8.52324e-05 10
29.9156 2.30187 6.92697 5.56332e-05 10
26.6459 2.05029 7.16084 0.000135699 10
9.80108 0.788576 -2.63468 0.000562945 4
11.3593 0.913945 -2.63097 0.00014274 4
13.4733 1.08403 -2.6274 8.14198e-05 4
13.5005 1.08622 -2.14518 0.000293004 6
21.8323 1.75658 -2.68933 4.49023e-05 1
26.7072 2.14881 -2.34413 0.000153379 10
26.692 2.14758 -1.40339 0.000154894 10
26.7165 2.14956 -0.467845 0.000155674 10
26.7086 2.14892 0.467707 0.00015571 10
26.7088 2.14893 1.40427 0.000155003 10
25.6422 2.06312 2.25065 8.5324e-05 10
29.9004 2.40573 6.92537 5.56341e-05 10
26.6894 2.14737 7.1745 0.00013612 10
9.79646 0.822631 -2.63419 0.00016317 4
11.3615 0.954054 -2.63225 0.000221754 4
13.4634 1.13055 -2.62623 4.3617e-05 4
13.5167 1.13503 -2.14838 0.00307817 6
21.8202 1.83229 -2.68861 4.4901e-05 1
26.7497 2.24623 -2.34853 0.000153843 10
26.7407 2.24548 -1.40635 0.000155364 10
26.748 2.24609 -0.468532 0.000156146 10
26.7522 2.24644 0.468604 0.000156183 10
26.7385 2.24529 1.40624 0.000155473 10
25.689 2.15716 2.2554 8.54068e-05 10
26.7284 2.24445 7.18707 0.000136525 10
9.79228 0.856714 -2.63386 0.000301862 4
11.35 0.992992 -2.63035 0.000124894 4
13.4515 1.17685 -2.62469 4.79779e-05 4
13.5099 1.18196 -2.14793 0.00308582 6
21.8167 1.90871 -2.68898 4.48997e-05 1
26.7593 2.34114 -2.35008 0.000121767 10
26.7738 2.34241 -1.40852 0.00012297 10
26.7546 2.34072 -0.468787 0.000123588 10
26.7723 2.34227 0.469096 0.000123616 10
26.7729 2.34233 1.40847 0.000123052 10
25.7128 2.24957 2.25817 8.5481e-05 10
26.7476 2.34011 7.19439 0.000108046 10
9.77693 0.889768 -2.63055 0.000281462 4
11.3517 1.03308 -2.63158 0.000183515 4
13.4519 1.22421 -2.62559 7.41464e-05 4
13.4796 1.22674 -2.14378 0.00309334 6
21.8135 1.98518 -2.68943 4.48983e-05 1
26.7898 2.43806 -2.35349 0.000122539 10
26.8088 2.43979 -1.4108 0.00012375 10
26.8054 2.43948 -0.469824 0.000124372 10
26.7785 2.43703 0.469351 0.0001244 10
26.7878 2.43788 1.40969 0.000123833 10
25.7441 2.34289 2.26162 7.48772e-05 10
26.7852 2.43764 7.20673 0.000108727 10
9.79235 0.925647 -2.63555 8.97405e-05 4
11.3537 1.07324 -2.63289 0.000175866 4
13.4654 1.27285 -2.62908 5.37915e-05 4
13.4688 1.27317 -2.14275 0.00310075 6
21.8037 2.06106 -2.6891 4.4897e-05 1
26.809 2.53419 -2.35594 0.000123297 10
26.8135 2.53462 -1.4115 0.000124516 10
26.8183 2.53507 -0.470201 0.000125142 10
26.83 2.53618 0.470407 0.00012517 10
26.8103 2.53431 1.41133 0.000124599 10
25.7895 2.43782 2.26635 7.50787e-05 10
26.7904 2.53243 7.21046 0.000109396 10
9.76999 0.957954 -2.63041 8.56602e-05 4
11.3307 1.11098 -2.62844 0.000129986 4
13.4382 1.31763 -2.62465 7.12361e-05 4
13.4622 1.31998 -2.14243 0.00310803 6
15.2568 1.49594 -1.88229 0.000291422 6
26.8319 2.63088 -2.35874 0.000124042 10
26.8537 2.63302 -1.41409 0.000125268 10
26.831 2.6308 -0.470583 0.000125899 10
26.8292 2.63062 0.470551 0.000125927 10
26.8373 2.63141 1.41323 0.000125352 10
25.8056 2.53026 2.26852 7.52723e-05 10
26.8379 2.63148 7.22568 0.000110052 10
9.78287 0.993706 -2.6348 0.000101975 4
11.3293 1.15079 -2.62904 0.000140179 4
13.4533 1.36653 -2.62851 0.000132293 4
13.4466 1.36586 -2.14069 0.00311519 6
15.2507 1.54911 -1.88218 0.00147503 6
26.8595 2.72829 -2.36199 8.63366e-05 10
26.8676 2.7291 -1.41532 8.71886e-05 10
26.8563 2.72796 -0.471191 8.76261e-05 10
26.8709 2.72944 0.471446 8.76442e-05 10
26.866 2.72894 1.41523 8.72426e-05 10
25.8448 2.62522 2.27276 6.00835e-05 10
26.8611 2.72845 7.23444 7.65811e-05 10
13.4524 1.4139 -2.62928 6.54184e-05 4
13.4216 1.41067 -2.13748 0.00312222 6
15.2617 1.60406 -1.88422 0.00197514 6
26.889 2.82614 -2.36544 8.73473e-05 10
26.893 2.82657 -1.41717 8.82096e-05 10
26.8814 2.82535 -0.471801 8.86523e-05 10
26.8678 2.82391 0.471562 8.86705e-05 10
26.8634 2.82346 1.41561 8.82642e-05 10
25.8745 2.71952 2.2762 6.04286e-05 10
26.8671 2.82384 7.23866 7.74757e-05 10
9.78254 1.06272 -2.63665 0.000126446 4
11.3179 1.22952 -2.62833 5.60697e-05 4
13.4392 1.45996 -2.62768 7.85006e-05 4
13.4175 1.4576 -2.13762 0.00312913 6
14.6619 1.59279 -1.81084 0.000116971 6
26.9117 2.92354 -2.36832 8.8348e-05 10
26.9034 2.92264 -1.41824 8.92203e-05 10
26.8892 2.9211 -0.472114 8.96681e-05 10
26.8937 2.92159 0.472192 8.96866e-05 10
26.8808 2.92019 1.41705 8.92755e-05 10
25.8894 2.81248 2.27835 6.07671e-05 10
26.8822 2.92034 7.24545 7.83612e-05 10
9.75663 1.09438 -2.63068 0.000615905 4
11.3112 1.26875 -2.62777 8.92004e-05 4
13.4234 1.50568 -2.62562 0.000152637 4
13.4001 1.50306 -2.13568 0.00313591 6
14.408 1.61612 -1.78018 0.000453353 6
26.9104 3.01849 -2.36912 8.93383e-05 10
26.92 3.01956 -1.41966 9.02206e-05 10
26.8951 3.01676 -0.472399 9.06736e-05 10
26.92 3.01956 0.472837 9.06923e-05 10
26.8923 3.01645 1.4182 9.02764e-05 10
25.9073 2.90597 2.28081 6.10989e-05 10
26.8972 3.01701 7.25229 7.92376e-05 10
9.7726 1.13073 -2.63603 0.000195782 4
11.3216 1.30996 -2.63124 0.000203883 4
13.4118 1.5518 -2.62438 5.23317e-05 4
13.3842 1.54861 -2.134 0.00329944 6
26.919 3.11463 -2.37082 9.03184e-05 10
26.9091 3.11348 -1.41965 9.12106e-05 10
26.9147 3.11413 -0.472931 9.16686e-05 10
26.9316 3.11609 0.473229 9.16875e-05 10
26.9246 3.11528 1.42047 9.12669e-05 10
25.9335 3.00061 2.28403 4.31952e-05 10
26.8958 3.11195 7.25479 8.01048e-05 10
11.3095 1.34858 -2.6295 0.000109585 4
13.4315 1.60161 -2.62932 2.90725e-05 4
13.3926 1.59696 -2.1362 0.00330132 6
26.952 3.21383 -2.3747 9.1288e-05 10
26.9212 3.21016 -1.42087 9.21899e-05 10
26.9432 3.21278 -0.473626 9.2653e-05 10
26.9406 3.21248 0.473582 9.26721e-05 10
26.9325 3.2115 1.42147 9.2247e-05 10
25.9313 3.09213 2.28477 4.36604e-05 10
26.9059 3.20833 7.26048 8.09625e-05 10
9.75361 1.19759 -2.6331 0.000252877 4
11.3069 1.38831 -2.63 0.000107035 4
13.4204 1.64782 -2.62826 7.70406e-05 4
13.3809 1.64297 -2.13524 0.00295333 6
26.9289 3.30645 -2.37367 5.38245e-05 10
26.9511 3.30918 -1.42306 5.43544e-05 10
26.9253 3.30601 -0.473513 5.46253e-05 10
26.9326 3.3069 0.473641 5.46345e-05 10
26.9293 3.3065 1.4219 5.43818e-05 10
25.9532 3.18665 2.28766 4.41206e-05 10
26.9292 3.30649 7.26985 4.77182e-05 10
9.74436 1.231 -2.63175 0.000122358 4
11.3127 1.42912 -2.63249 0.000109582 4
13.3983 1.6926 -2.62506 9.88425e-05 4
13.3568 1.68735 -2.13232 0.00296773 6
26.9314 3.40222 -2.37492 5.49733e-05 10
26.9339 3.40253 -1.42276 5.55145e-05 10
26.9426 3.40364 -0.474024 5.57913e-05 10
26.9466 3.40414 0.474093 5.58008e-05 10
26.9514 3.40474 1.42369 5.55426e-05 10
25.9855 3.28273 2.29151 4.45757e-05 10
26.9157 3.40024 7.26936 4.87361e-05 10
9.75438 1.26687 -2.63563 0.000464954 4
11.3058 1.46837 -2.63207 0.000191127 4
13.392 1.73932 -2.62501 8.13979e-05 4
13.3731 1.73687 -2.13589 0.00296905 6
26.9616 3.5017 -2.37865 5.61156e-05 10
26.9486 3.50001 -1.42418 5.66681e-05 10
26.9413 3.49906 -0.474212 5.69508e-05 10
26.944 3.49941 0.47426 5.69604e-05 10
26.9478 3.49991 1.42414 5.66969e-05 10
26.9421 3.49917 7.27976 4.97483e-05 10
9.7539 1.30145 -2.63671 0.000138668 4
11.3012 1.50789 -2.6322 0.000298153 4
13.3932 1.78703 -2.62645 9.30242e-05 4
13.3602 1.78263 -2.1348 0.00299618 6
26.9469 3.59548 -2.37844 5.72512e-05 10
26.9399 3.59454 -1.42437 5.7815e-05 10
26.9411 3.59471 -0.474427 5.81035e-05 10
26.9529 3.59628 0.474634 5.81133e-05 10
26.9449 3.59522 1.42464 5.78445e-05 10
26.9386 3.59437 7.28214 5.07544e-05 10
11.284 1.54572 -2.62946 7.6448e-05 4
13.3971 1.83518 -2.62846 7.55805e-05 4
13.3426 1.82771 -2.133 0.00297131 6
13.7057 1.87745 -1.69857 0.00152936 6
26.9619 3.69332 -2.38089 5.838e-05 10
26.9641 3.69362 -1.42633 5.89551e-05 10
26.949 3.69155 -0.474789 5.92493e-05 10
26.9387 3.69014 0.474607 5.92594e-05 10
26.9372 3.68994 1.4249 5.89852e-05 10
26.9245 3.6882 7.28178 5.17545e-05 10
9.726 1.3669 -2.63169 0.000159056 4
13.3803 1.88048 -2.62644 6.10444e-05 4
13.3229 1.8724 -2.13087 0.00297225 6
13.6773 1.92222 -1.69587 0.00142504 6
26.9572 3.78858 -2.38162 5.9502e-05 10
26.9665 3.78989 -1.42714 6.00882e-05 10
26.9393 3.78607 -0.474849 6.03881e-05 10
26.9527 3.78796 0.475085 6.03984e-05 10
26.9399 3.78616 1.42574 6.0119e-05 10
26.9396 3.78611 7.28938 5.27484e-05 10
9.73317 1.40257 -2.63493 0.000350732 4
11.294 1.62749 -2.63435 0.000244624 4
13.374 1.92722 -2.62649 4.36021e-05 4
13.3187 1.91925 -2.13126 0.00297307 6
13.6673 1.96949 -1.69547 0.0014261 6
25.9979 3.74636 2.29802 2.88282e-05 10
9.71725 1.43492 -2.63196 0.000203911 4
11.2877 1.66682 -2.63423 0.000152887 4
13.3809 1.97591 -2.62918 9.4469e-05 4
13.3122 1.96578 -2.13132 0.00299973 6
13.631 2.01285 -1.69183 0.00225499 6
9.70541 1.4678 -2.63013 0.000207985 4
11.2759 1.70532 -2.63286 0.000150336 4
13.3593 2.0204 -2.62631 5.37734e-05 4
13.3181 2.01417 -2.13337 0.00298731 6
13.6074 2.05793 -1.68978 0.00225565 6
26.9428 4.0747 -0.475635 2.86722e-05 10
26.9465 4.07527 0.475702 2.86743e-05 10
9.71933 1.50463 -2.63531 0.000110108 4
11.2711 1.74486 -2.63314 0.000150333 4
13.3475 2.0663 -2.6254 4.50523e-05 4
13.3001 2.05896 -2.13162 0.00297477 6
13.6182 2.10821 -1.69202 0.00225624 6
26.9417 4.17078 -2.38517 2.94648e-05 10
26.9359 4.16989 -1.42847 2.97524e-05 10
26.924 4.16804 -0.475558 2.98982e-05 10
26.9164 4.16687 0.475424 2.99005e-05 10
26.9275 4.16859 1.42802 2.97594e-05 10
9.70193 1.53663 -2.63203 0.000297695 4
11.2622 1.78376 -2.6325 6.87952e-05 4
13.3466 2.11389 -2.62665 4.21446e-05 4
13.3038 2.10712 -2.13338 0.00296209 6
13.5904 2.15251 -1.68949 0.00224621 6
26.9264 4.26472 -2.38512 3.06693e-05 10
26.9344 4.26598 -1.42917 3.09688e-05 10
26.9337 4.26587 -0.47599 3.11206e-05 10
26.926 4.26465 0.475853 3.11232e-05 10
26.9261 4.26467 1.42873 3.09764e-05 10
9.70061 1.57115 -2.63314 0.000285455 4
11.2382 1.82019 -2.62836 0.000198738 4
13.3537 2.16282 -2.62951 5.52226e-05 4
13.2904 2.15257 -2.13242 0.00296227 6
13.5816 2.19974 -1.68934 0.000591143 6
26.9107 4.35857 -2.38506 3.187e-05 10
26.9215 4.36032 -1.42928 3.21814e-05 10
26.9097 4.35842 -0.475832 3.23394e-05 10
26.9221 4.36042 0.476051 3.23421e-05 10
26.8974 4.35643 1.428 3.21897e-05 10
9.69352 1.60475 -2.63272 0.000106024 4
11.2462 1.86179 -2.63173 0.000127393 4
13.3226 2.20553 -2.62489 5.52212e-05 4
13.293 2.20064 -2.13406 0.00300131 6
13.5742 2.24719 -1.68939 0.000273949 6
26.8981 4.45295 -2.38531 3.3067e-05 10
26.8953 4.45248 -1.42871 3.33902e-05 10
26.9056 4.4542 -0.476032 3.35542e-05 10
26.9183 4.45629 0.476255 3.35572e-05 10
26.8944 4.45234 1.42866 3.33992e-05 10
26.9026 4.4537 7.30665 2.92876e-05 10
9.67971 1.6372 -2.63051 0.000134567 4
11.2324 1.89981 -2.63002 0.000160512 4
13.3378 2.25591 -2.62942 5.95793e-05 4
13.2656 2.2437 -2.1309 0.00294928 6
13.5647 2.29429 -1.68919 0.00030002 6
9.69076 1.67388 -2.63508 0.000110098 4
13.3193 2.30065 -2.62736 8.57338e-05 4
13.2603 2.29046 -2.13133 0.00297508 6
13.5596 2.34215 -1.68957 0.0003083 6
9.66683 1.70452 -2.63018 0.000260969 4
11.2141 1.97735 -2.62892 0.000147767 4
13.3103 2.34697 -2.62718 7.41069e-05 4
13.2505 2.33642 -2.13105 0.00280589 6
13.5245 2.38474 -1.68622 0.000316576 6
9.6694 1.7398 -2.63251 0.000285429 4
11.2094 2.01688 -2.62944 0.000267502 4
13.3118 2.39517 -2.6291 0.000155475 4
13.2516 2.38433 -2.13255 0.00276651 6
13.512 2.43119 -1.68571 0.000316729 6
9.6822 1.77701 -2.63767 0.000154944 4
13.2928 2.43969 -2.62702 0.000108975 4
13.2313 2.42839 -2.13063 0.00280493 6
13.5075 2.47909 -1.68622 0.00031687 6
9.66487 1.80873 -2.63465 0.000142709 4
11.2025 2.09649 -2.63121 3.05703e-05 4
13.2787 2.48504 -2.62593 6.8289e-05 4
13.2465 2.47902 -2.13447 0.00325868 6
13.5019 2.52682 -1.68661 0.000317001 6
9.65898 1.84255 -2.63479 0.000362882 4
11.2001 2.13654 -2.63238 0.000106994 4
13.2642 2.53028 -2.62479 0.000155462 4
13.2194 2.52174 -2.13151 0.000389376 6
13.5037 2.57597 -1.68795 0.00031712 6
9.64553 1.8749 -2.63289 0.000415879 4
11.1871 2.17454 -2.63108 7.64222e-05 4
13.2832 2.58199 -2.63032 8.71725e-05 4
13.2156 2.56884 -2.13231 0.000415203 6
13.4909 2.62235 -1.68747 0.000317227 6
9.65601 1.91194 -2.63755 0.000163086 4
11.1841 2.21452 -2.63219 0.000313324 4
13.2505 2.62366 -2.62563 0.000187416 4
13.2201 2.61766 -2.13452 0.00032426 6
13.4639 2.66592 -1.68526 0.000317324 6
9.64789 1.94535 -2.63717 0.000244625 4
11.1727 2.25282 -2.63134 9.42496e-05 4
13.2425 2.67015 -2.62588 4.93949e-05 4
13.193 2.66018 -2.13163 0.000311165 6
13.4527 2.71254 -1.68503 0.000317409 6
9.63874 1.97855 -2.63654 9.37709e-05 4
11.1534 2.28947 -2.62866 0.000104436 4
13.2317 2.71607 -2.6256 9.15232e-05 4
13.2029 2.71016 -2.13473 0.000323986 6
13.4394 2.75871 -1.68456 0.000317619 6
9.63545 2.01295 -2.63755 3.66922e-05 4
11.1428 2.32786 -2.62806 8.91507e-05 4
13.2199 2.76178 -2.62517 0.00013946 4
13.2009 2.75782 -2.13596 0.000323828 6
13.425 2.80464 -1.68398 0.000318079 6
9.61994 2.04478 -2.63524 0.000387298 4
11.1507 2.37015 -2.63185 0.000124808 4
13.2301 2.81214 -2.62912 6.82751e-05 4
13.1714 2.79966 -2.13274 0.000323656 6
13.4079 2.84994 -1.68307 0.000318529 6
9.60574 2.07683 -2.63332 0.000150839 4
11.1541 2.41159 -2.63462 5.09407e-05 4
13.203 2.85459 -2.6257 0.000181577 4
13.1643 2.84621 -2.13319 0.000323471 6
13.3966 2.89643 -1.6829 0.000318967 6
9.59573 2.10976 -2.63258 0.000179372 4
11.1212 2.44516 -2.62886 9.67848e-05 4
13.211 2.90462 -2.62929 0.000117658 4
13.1693 2.89545 -2.13563 0.000400858 6
13.3766 2.94103 -1.68167 0.000319394 6
9.60594 2.14718 -2.63742 0.00013045 4
11.1331 2.48854 -2.63371 0.000134986 4
13.1887 2.94802 -2.62688 7.11738e-05 4
13.1727 2.94445 -2.13784 0.000361827 6
13.3622 2.98681 -1.68117 0.00031981 6
9.57287 2.1749 -2.63041 0.000171212 4
11.1007 2.52202 -2.62811 3.31089e-05 4
13.1744 2.99314 -2.6261 5.08368e-05 4
13.1531 2.98831 -2.13633 0.000374487 6
13.3713 3.03787 -1.68362 0.000246579 6
9.58353 2.21253 -2.63545 0.00019159 4
11.105 2.56379 -2.63123 0.000106964 4
13.1859 3.04421 -2.63051 6.10022e-05 4
13.1313 3.0316 -2.1345 0.000387113 6
13.3514 3.08241 -1.68247 0.000246269 6
28.9021 6.67257 4.69805 0.000227101 10
28.8997 6.67201 5.76529 0.000221334 10
28.9287 6.67872 6.8544 0.000214599 10
9.55827 2.24187 -2.63063 0.000391323 4
11.1036 2.60433 -2.63304 0.000252123 4
13.1705 3.08911 -2.62956 4.35716e-05 4
13.1421 3.08246 -2.138 0.000412597 6
13.3344 3.12756 -1.6817 0.000245951 6
27.1102 6.35863 4.41035 0.000274884 10
27.1209 6.36115 5.41483 0.00026803 10
27.1241 6.36191 6.43204 0.000260018 10
9.55388 2.27606 -2.6316 0.000379086 4
11.0941 2.64298 -2.63295 0.000206277 4
13.1557 3.13414 -2.62878 2.90468e-05 4
13.1334 3.12882 -2.13834 0.000425139 6
13.3357 3.17701 -1.68324 0.000245625 6
9.55121 2.31068 -2.63307 0.000358696 4
11.0654 2.677 -2.62835 0.000142607 4
13.1458 3.18031 -2.629 3.92119e-05 4
13.1229 3.17476 -2.13842 0.00042477 6
13.33 3.22487 -1.68394 0.000251581 6
9.5447 2.3444 -2.63351 0.000150812 4
11.0793 2.72133 -2.63389 0.000165522 4
13.1392 3.2273 -2.62992 6.24464e-05 4
13.1072 3.21943 -2.13768 0.000424382 6
13.3191 3.27147 -1.68398 0.00159532 6
9.54048 2.37871 -2.63462 0.000175264 4
11.0617 2.75798 -2.63196 0.000188435 4
13.1075 3.26806 -2.62583 5.95399e-05 4
13.1126 3.26933 -2.14041 0.000423977 6
13.3094 3.31842 -1.68422 0.00159932 6
9.53705 2.41324 -2.63599 0.000399429 4
11.0598 2.79856 -2.63383 0.000114586 4
13.0952 3.3136 -2.62568 0.000114719 4
13.1044 3.31591 -2.14094 0.000423554 6
13.3075 3.36732 -1.68546 0.00160491 6
9.51998 2.44431 -2.63361 0.000158952 4
11.0339 2.83302 -2.63 0.00015023 4
13.0873 3.36025 -2.62643 3.0494e-05 4
13.083 3.35914 -2.13936 0.000423114 6
13.3134 3.41829 -1.6877 0.00160352 6
9.50308 2.47537 -2.63131 0.000423863 4
11.0197 2.87042 -2.62899 0.000216427 4
13.0901 3.40971 -2.14245 0.000422656 6
13.3041 3.46544 -1.68804 0.00160208 6
26.4677 6.89431 -1.4334 2.87204e-05 10
26.465 6.89362 -0.477363 2.88588e-05 10
26.4493 6.88952 0.477079 2.88587e-05 10
26.4581 6.89181 1.43288 2.87199e-05 10
9.50267 2.51071 -2.63361 4.8906e-05 4
11.0227 2.91232 -2.63211 0.000119668 4
13.0705 3.45339 -2.14121 0.00042218 6
13.2886 3.51099 -1.68762 0.00160059 6
26.4401 6.98576 -2.39258 2.96398e-05 10
26.4433 6.98662 -1.43339 2.9927e-05 10
26.4215 6.98085 -0.477014 3.00715e-05 10
26.4222 6.98105 0.477027 3.00715e-05 10
26.4347 6.98435 1.43292 2.99271e-05 10
9.49384 2.54387 -2.63361 0.000277127 4
13.0543 3.49788 -2.62701 9.72799e-05 4
13.0661 3.50105 -2.14247 0.000421687 6
13.2744 3.55687 -1.68739 0.00159905 6
26.4165 7.07828 -2.39267 3.08309e-05 10
26.4227 7.07994 -1.4336 3.113e-05 10
26.433 7.0827 -0.477666 3.12804e-05 10
26.4283 7.08145 0.477581 3.12807e-05 10
26.4252 7.08062 1.43374 3.11307e-05 10
9.49688 2.58024 -2.63693 0.000122259 4
11.0098 2.99129 -2.63395 5.85574e-05 4
13.064 3.5494 -2.14414 0.000421177 6
13.2818 3.60858 -1.68991 0.00159745 6
26.398 7.17218 -2.39325 3.20184e-05 10
26.3963 7.17171 -1.43352 3.23292e-05 10
26.3984 7.17228 -0.47749 3.24857e-05 10
26.4012 7.17304 0.47754 3.24862e-05 10
26.3863 7.16899 1.43298 3.23307e-05 10
9.46551 2.60724 -2.63073 0.000134481 4
10.9844 3.02561 -2.63039 0.000134933 4
13.036 3.5907 -2.6283 4.79105e-05 4
13.0401 3.59185 -2.14227 0.000420649 6
13.2689 3.65485 -1.68989 0.0015958 6
26.3825 7.26695 -2.39413 3.32021e-05 10
26.3732 7.26439 -1.43363 3.35246e-05 10
26.3888 7.26869 -0.477773 3.36871e-05 10
26.3969 7.27091 0.477918 3.36878e-05 10
26.3914 7.2694 1.43462 3.35267e-05 10
9.48321 2.64776 -2.6382 0.00023228 4
10.9901 3.0685 -2.63431 0.000160387 4
13.0195 3.63511 -2.62753 4.21016e-05 4
13.0525 3.64432 -2.14638 0.000420104 6
13.2801 3.70788 -1.69296 0.000698999 6
26.3633 7.36075 -2.3947 3.43817e-05 10
26.3639 7.36094 -1.43452 3.47159e-05 10
26.3647 7.36116 -0.477799 3.48844e-05 10
26.3564 7.35885 0.477649 3.48853e-05 10
26.3789 7.3651 1.43533 3.47187e-05 10
