VERSION 0.7
FIELDS x y z intensity label
SIZE 4 4 4 4 4
TYPE F F F F F
COUNT 1 1 1 1 1
WIDTH 1190
HEIGHT 1
VIEWPOINT 5.18111 36.0042 2.72861 0.765752 -0.000375659 0.000707045 0.643135
POINTS 1190
DATA ascii
-1.43298 6.10953 1.68147 0.0127189 10
-1.45219 6.09569 -1.67904 0.0163185 10
-2.56452 10.7648 -2.55479 0.00104284 10
-3.05078 12.8059 -2.55887 0.000591972 10
-3.59403 15.0862 -2.45629 0.00206283 10
-3.59552 15.0924 -1.90498 0.00209884 10
-3.59735 15.1001 -1.35806 0.00212613 10
-3.59372 15.0849 -0.812691 0.00214442 10
-3.59629 15.0957 -0.27087 0.00215353 10
-3.595 15.0903 0.270773 0.00215337 10
-3.59848 15.1049 0.813766 0.00214394 10
-2.76113 11.59 1.04237 0.000363651 10
-1.97626 8.29548 1.04706 0.00111066 10
-1.53018 6.42301 1.04578 0.00249843 10
-1.45128 6.09183 1.21727 0.0133904 10
-1.45484 6.10678 1.44932 0.0130732 10
-1.45367 6.10186 1.68075 0.0127105 10
-1.47056 6.07857 -1.67573 0.0163071 10
-2.6008 10.7504 -2.55353 0.00104276 10
-3.09692 12.8011 -2.56007 0.000591918 10
-3.64913 15.0837 -2.45794 0.00206125 10
-3.64785 15.0784 -1.90481 0.00209723 10
-3.64815 15.0796 -1.35736 0.0021245 10
-3.65059 15.0897 -0.813632 0.00214278 10
-3.64923 15.0841 -0.27089 0.00215188 10
-3.65169 15.0943 0.271072 0.00215172 10
-3.65165 15.0941 0.813869 0.0021423 10
-2.8014 11.5796 1.04231 0.000363722 10
-2.00227 8.2764 1.04553 0.00111081 10
-1.55141 6.41275 1.04498 0.00249869 10
-1.4744 6.09442 1.21881 0.0133811 10
-1.47473 6.09582 1.44793 0.013064 10
-1.4754 6.09857 1.68125 0.0127016 10
-1.49567 6.08929 -1.68012 0.016295 10
-2.64002 10.7482 -2.55519 0.00104268 10
-3.13769 12.7744 -2.5569 0.000591865 10
-3.70266 15.0746 -2.45854 0.00205957 10
-3.70263 15.0744 -1.90593 0.00209553 10
-3.70687 15.0917 -1.3596 0.00212278 10
-3.70477 15.0831 -0.81397 0.00214104 10
-3.70475 15.0831 -0.271101 0.00215014 10
-3.70256 15.0742 0.270941 0.00214998 10
-3.70669 15.0909 0.814391 0.00214056 10
-2.84728 11.5921 1.04432 0.000363793 10
-2.02829 8.25772 1.04406 0.00111096 10
-1.57512 6.41276 1.04587 0.00249895 10
-1.49406 6.08273 1.21751 0.0133712 10
-1.4937 6.08127 1.4457 0.0130544 10
-1.49527 6.08765 1.67967 0.0126922 10
-1.51536 6.07777 -1.67839 0.0162824 10
-2.68221 10.7578 -2.55966 0.00104261 10
-2.69401 10.8051 -2.16459 0.00457012 10
-2.69636 10.8145 -1.76528 0.00466621 10
-2.69647 10.8149 -1.36856 0.00474412 10
-2.69354 10.8032 -0.974092 0.00480312 10
-2.69723 10.818 -0.584304 0.00484265 10
-2.69118 10.7937 -0.194173 0.00486234 10
-2.69152 10.7951 0.194198 0.004862 10
-2.69141 10.7947 0.583044 0.00484162 10
-2.69671 10.8159 0.975238 0.00480141 10
-2.06294 8.274 1.04702 0.00111111 10
-1.60076 6.42031 1.04801 0.0024992 10
-1.51513 6.07684 1.21738 0.0133608 10
-1.515 6.07634 1.44578 0.0130442 10
-1.51479 6.07549 1.67776 0.0126824 10
-1.53578 6.06934 -1.67753 0.0162691 10
-2.71277 10.7208 -2.55309 0.00104253 10
-2.73447 10.8065 -2.16678 0.00456619 10
-2.73291 10.8004 -1.76452 0.0046622 10
-2.73161 10.7952 -1.36726 0.00474005 10
-2.73612 10.8131 -0.975837 0.004799 10
-2.7336 10.8031 -0.58401 0.0048385 10
-2.73524 10.8096 -0.194629 0.00485817 10
-2.73271 10.7996 0.194448 0.00485782 10
-2.73183 10.7961 0.583632 0.00483747 10
-2.73219 10.7975 0.974434 0.00479729 10
-2.09019 8.26035 1.04621 0.00111126 10
-1.61892 6.39793 1.04527 0.00249946 10
-1.53542 6.06792 1.21666 0.0133499 10
-1.53486 6.06572 1.44452 0.0130336 10
-1.54082 6.08927 1.68304 0.012672 10
-1.56183 6.08291 -1.68278 0.0162551 10
-2.75561 10.7324 -2.55814 0.00104245 10
-2.77369 10.8028 -2.16796 0.00456208 10
-2.77104 10.7925 -1.76481 0.004658 10
-2.77344 10.8018 -1.36932 0.00473578 10
-2.77484 10.8073 -0.976185 0.00479468 10
-2.77487 10.8074 -0.584764 0.00483415 10
-2.77449 10.8059 -0.194736 0.0048538 10
-2.77046 10.7902 0.194453 0.00485346 10
-2.76993 10.7882 0.583722 0.00483312 10
-2.77131 10.7936 0.974943 0.00479297 10
-2.11529 8.23851 1.04437 0.00111141 10
-1.64447 6.40477 1.04732 0.00249971 10
-1.55682 6.0634 1.21684 0.0133385 10
-1.55745 6.06586 1.44584 0.0130224 10
-1.55946 6.07369 1.68023 0.0126612 10
-1.58381 6.08033 -1.68358 0.0162406 10
-2.78986 10.7105 -2.55521 0.00104238 10
-2.81034 10.7891 -2.16716 0.00455778 10
-2.8064 10.7739 -1.76336 0.00465362 10
-2.80929 10.785 -1.36842 0.00473132 10
-2.81334 10.8006 -0.976461 0.00479017 10
-2.80772 10.779 -0.583754 0.0048296 10
-2.80801 10.7801 -0.194447 0.00484924 10
-2.80785 10.7795 0.194435 0.00484889 10
-2.81223 10.7963 0.584693 0.00482857 10
-2.80903 10.7841 0.974964 0.00478847 10
-2.14583 8.23797 1.04525 0.00111155 10
-1.66575 6.39492 1.04665 0.00249996 10
-1.58252 6.07538 1.22034 0.0133266 10
-1.58059 6.06797 1.44765 0.0130108 10
-1.57796 6.05787 1.67736 0.0126498 10
-1.60216 6.06394 -1.68058 0.0162254 10
-2.83143 10.7165 -2.559 0.0010423 10
-2.84596 10.7715 -2.16562 0.00455329 10
-2.84789 10.7788 -1.76578 0.00464904 10
-2.85002 10.7869 -1.36991 0.00472667 10
-2.84701 10.7755 -0.975082 0.00478546 10
-2.84565 10.7704 -0.58382 0.00482486 10
-2.85175 10.7934 -0.194865 0.00484447 10
-2.84979 10.786 0.194731 0.00484413 10
-2.85116 10.7912 0.584949 0.00482382 10
-2.84665 10.7741 0.974959 0.00478376 10
-2.17408 8.22856 1.04501 0.0011117 10
-1.68452 6.37567 1.04446 0.00250022 10
-1.60125 6.06049 1.21846 0.0133141 10
-1.60156 6.06166 1.44747 0.0129986 10
-1.60312 6.06755 1.68159 0.012638 10
-1.62383 6.06023 -1.68112 0.0162096 10
-2.86494 10.6921 -2.55555 0.00104222 10
-2.88986 10.7851 -2.17037 0.00454863 10
-2.88927 10.7829 -1.76809 0.00464428 10
-2.88532 10.7682 -1.36881 0.00472183 10
-2.88985 10.7851 -0.976858 0.00478056 10
-2.88317 10.7602 -0.583808 0.00481992 10
-2.88331 10.7607 -0.194454 0.00483952 10
-2.88332 10.7607 0.194455 0.00483917 10
-2.88756 10.7765 0.584697 0.00481888 10
-2.88965 10.7843 0.976788 0.00477886 10
-2.20468 8.22797 1.04591 0.00111185 10
-1.70951 6.38 1.04614 0.00250047 10
-1.62612 6.06877 1.22126 0.0133011 10
-1.62069 6.04851 1.44567 0.0129859 10
-1.62584 6.06771 1.68319 0.0126257 10
-1.64649 6.06011 -1.68267 0.0161931 10
-2.8999 10.6734 -2.55348 0.00104215 10
-2.92217 10.7554 -2.16643 0.00454377 10
-2.92301 10.7585 -1.76574 0.00463932 10
-2.92617 10.7701 -1.37034 0.0047168 10
-2.92585 10.7689 -0.976313 0.00477547 10
-2.92277 10.7576 -0.58422 0.00481478 10
-2.92182 10.7541 -0.194519 0.00483436 10
-2.92556 10.7679 0.194767 0.00483401 10
-2.92907 10.7808 0.585479 0.00481375 10
-2.92536 10.7671 0.976149 0.00477377 10
-2.23477 8.22532 1.04655 0.001112 10
-1.7355 6.38772 1.04839 0.00250072 10
-1.64876 6.06844 1.22235 0.0132877 10
-1.64732 6.06317 1.45054 0.0129728 10
-1.64364 6.0496 1.67975 0.0126129 10
-1.66881 6.05858 -1.68385 0.0161761 10
-2.94418 10.6888 -2.5596 0.00104207 10
-2.96299 10.7571 -2.16883 0.00453873 10
-2.96409 10.7611 -1.76786 0.00463418 10
-2.96686 10.7711 -1.37178 0.00471157 10
-2.96616 10.7686 -0.977214 0.00477018 10
-2.9635 10.7589 -0.58485 0.00480945 10
-2.96175 10.7526 -0.194677 0.00482901 10
-2.96121 10.7506 0.194641 0.00482866 10
-2.96354 10.7591 0.584858 0.00480842 10
-2.96288 10.7567 0.976135 0.00476848 10
-2.26106 8.20874 1.04544 0.00111215 10
-1.75159 6.35912 1.04469 0.00250098 10
-1.66838 6.05701 1.22121 0.0132737 10
-1.66411 6.0415 1.44673 0.0129591 10
-1.67022 6.06368 1.68527 0.0125996 10
-1.68787 6.04529 -1.68178 0.0161584 10
-2.97692 10.6621 -2.55569 0.00104199 10
-3.00171 10.7509 -2.1697 0.00453351 10
-3.00369 10.758 -1.76907 0.00462885 10
-3.00469 10.7616 -1.37189 0.00470616 10
-3.00481 10.762 -0.977568 0.0047647 10
-3.00266 10.7543 -0.585166 0.00480393 10
-2.99997 10.7447 -0.194722 0.00482346 10
-3.00548 10.7644 0.19508 0.00482312 10
-2.99957 10.7433 0.584564 0.0048029 10
-3.00293 10.7553 0.976956 0.004763 10
-2.28887 8.19783 1.04506 0.00111229 10
-1.77958 6.37376 1.04811 0.00250123 10
-1.69218 6.06071 1.22314 0.0132592 10
-1.68782 6.04508 1.44899 0.0129449 10
-1.68907 6.04957 1.68297 0.0125858 10
-1.71224 6.05094 -1.68501 0.0161401 10
-3.0126 10.6463 -2.5544 0.00104192 10
-3.03898 10.7395 -2.16952 0.0045281 10
-3.03958 10.7416 -1.76811 0.00462333 10
-3.04411 10.7577 -1.37274 0.00470055 10
-3.04051 10.7449 -0.976973 0.00475903 10
-3.04019 10.7438 -0.585168 0.00479821 10
-3.04014 10.7436 -0.194894 0.00481772 10
-3.04041 10.7446 0.194912 0.00481738 10
-3.04279 10.753 0.585669 0.00479718 10
-3.04161 10.7488 0.977326 0.00475733 10
-2.31457 8.17953 1.04376 0.00111244 10
-1.80012 6.3615 1.04713 0.00250148 10
-1.71484 6.06013 1.22422 0.0132441 10
-1.71385 6.05663 1.45319 0.0129303 10
-1.71279 6.05288 1.68555 0.0125715 10
-1.73291 6.04337 -1.68457 0.0161211 10
-3.05052 10.6384 -2.55505 0.00104184 10
-3.08299 10.7517 -2.17414 0.00452251 10
-3.07959 10.7398 -1.76957 0.00461763 10
-3.07599 10.7272 -1.37022 0.00469475 10
-3.0778 10.7336 -0.976911 0.00475316 10
-3.07971 10.7402 -0.585554 0.0047923 10
-3.0806 10.7433 -0.195083 0.00481179 10
-3.08136 10.746 0.195131 0.00481144 10
-3.08217 10.7488 0.586022 0.00479127 10
-3.08107 10.745 0.977948 0.00475146 10
-2.34497 8.17789 1.04458 0.00111259 10
-1.81915 6.34414 1.04531 0.00250173 10
-1.73564 6.05292 1.22398 0.0132286 10
-1.73303 6.04379 1.45155 0.0129151 10
-1.73434 6.04838 1.68597 0.0125568 10
-1.7564 6.04558 -1.68689 0.0161016 10
-3.08622 10.6228 -2.55388 0.00104177 10
-3.11605 10.7255 -2.17103 0.00451674 10
-3.11465 10.7207 -1.7682 0.00461174 10
-3.11747 10.7304 -1.372 0.00468877 10
-3.12064 10.7413 -0.978601 0.00474711 10
-3.12029 10.7401 -0.586138 0.00478619 10
-3.11967 10.738 -0.195182 0.00480565 10
-3.11911 10.736 0.195147 0.00480531 10
-3.11758 10.7308 0.58563 0.00478516 10
-3.12151 10.7443 0.978871 0.00474541 10
-2.37682 8.18106 1.04604 0.00111273 10
-1.84047 6.33492 1.04484 0.00250198 10
-1.75871 6.05353 1.22534 0.0132126 10
-1.7531 6.0342 1.45071 0.0128995 10
-1.75281 6.0332 1.68343 0.0125415 10
-1.77446 6.02909 -1.684 0.0160814 10
-3.12774 10.6272 -2.55753 0.00104169 10
-3.15955 10.7352 -2.17522 0.00451079 10
-3.15563 10.7219 -1.77021 0.00460566 10
-3.15305 10.7132 -1.3712 0.0046826 10
-3.15942 10.7348 -0.979006 0.00474086 10
-3.15287 10.7125 -0.58523 0.00477989 10
-3.15523 10.7205 -0.195064 0.00479934 10
-3.15778 10.7292 0.195222 0.00479899 10
-3.15488 10.7194 0.585605 0.00477887 10
-3.15339 10.7143 0.977136 0.00473916 10
-2.4063 8.1759 1.04645 0.00111288 10
-1.86311 6.33031 1.04514 0.00250223 10
-1.7784 6.0425 1.22436 0.0131961 10
-1.77999 6.04789 1.45548 0.0128833 10
-1.77949 6.04618 1.68878 0.0125258 10
-1.80089 6.04096 -1.68907 0.0160606 10
-3.16828 10.6278 -2.56032 0.00104161 10
-3.1952 10.7181 -2.17399 0.00450465 10
-3.19668 10.7231 -1.77223 0.0045994 10
-3.19662 10.7228 -1.37386 0.00467624 10
-3.19448 10.7157 -0.978272 0.00473442 10
-3.19339 10.712 -0.585807 0.00477341 10
-3.19648 10.7224 -0.1953 0.00479282 10
-3.19746 10.7257 0.195359 0.00479248 10
-3.20009 10.7345 0.587036 0.00477238 10
-3.19706 10.7243 0.979062 0.00473273 10
-2.43173 8.15709 1.04512 0.00111302 10
-1.8889 6.3362 1.0472 0.00250248 10
-1.79964 6.03676 1.22446 0.013179 10
-1.79418 6.01845 1.4499 0.0128667 10
-1.79432 6.01893 1.68291 0.0125096 10
-1.82099 6.03141 -1.68816 0.0160392 10
-1.89573 6.27897 -1.51424 0.00181637 10
-1.89617 6.28042 -1.27522 0.00185774 10
-1.89337 6.27114 -1.03753 0.00189232 10
-1.89614 6.28031 -0.805505 0.0019198 10
-1.90109 6.29671 -0.575451 0.00193993 10
-1.89463 6.27531 -0.343537 0.00195253 10
-1.90094 6.29622 -0.114801 0.00195748 10
-1.89813 6.2869 0.114631 0.00195474 10
-1.90403 6.30645 0.345242 0.00194433 10
-1.90503 6.30977 0.576645 0.00192634 10
-1.89922 6.29051 0.806812 0.00190095 10
-1.90272 6.30211 1.04266 0.00186838 10
-1.81837 6.02274 1.2229 0.0131615 10
-1.81597 6.0148 1.45054 0.0128495 10
-1.82033 6.02923 1.68755 0.0124929 10
-1.84112 6.02202 -1.68732 0.0160172 10
-1.85984 6.08328 -1.46861 0.00199181 10
-1.86463 6.09894 -1.23968 0.00203717 10
-1.86467 6.09906 -1.01013 0.0020751 10
-1.86628 6.10433 -0.783764 0.00210525 10
-1.86652 6.10513 -0.558535 0.00212737 10
-1.87058 6.11839 -0.335302 0.00214124 10
-1.86748 6.10826 -0.111492 0.00214674 10
-1.86459 6.09882 0.111319 0.00214382 10
-1.86463 6.09893 0.334236 0.00213251 10
-1.86778 6.10925 0.558911 0.00211291 10
-1.86952 6.11495 0.785127 0.0020852 10
-1.8683 6.11096 1.0121 0.00204962 10
-1.83974 6.01754 1.22314 0.0131434 10
-1.83943 6.0165 1.45249 0.0128319 10
-1.84345 6.02965 1.68946 0.0124758 10
-1.86678 6.03059 -1.69154 0.0159946 10
-1.86089 6.01157 -1.45285 0.0164488 10
-1.86217 6.01571 -1.22408 0.0168457 10
-1.86519 6.02545 -0.999015 0.017182 10
-1.86515 6.02531 -0.77445 0.0174544 10
-1.86711 6.03165 -0.552406 0.0176606 10
-1.86772 6.03362 -0.331012 0.0177987 10
-1.86191 6.01486 -0.109905 0.0178675 10
-1.86311 6.01874 0.109976 0.0178663 10
-1.86246 6.01663 0.33008 0.0177951 10
-1.86044 6.01012 0.550433 0.0176546 10
-1.86426 6.02246 0.774083 0.0174461 10
-1.86699 6.03126 0.999979 0.0171714 10
-1.86127 6.01281 1.22349 0.0131249 10
-1.85963 6.00748 1.45187 0.0128138 10
-1.86777 6.03379 1.69244 0.0124582 10
-1.88923 6.02855 -1.69281 0.0159714 10
-1.88832 6.02564 -1.45784 0.0164249 10
-1.88279 6.00798 -1.22384 0.0168213 10
-1.8851 6.01536 -0.998426 0.0171571 10
-1.88851 6.02624 -0.775411 0.0174291 10
-1.88681 6.02081 -0.552013 0.017635 10
-1.88445 6.0133 -0.330256 0.0177729 10
-1.88709 6.02173 -0.11015 0.0178416 10
-1.88695 6.02129 0.110142 0.0178404 10
-1.88411 6.01219 0.330195 0.0177693 10
-1.88619 6.01884 0.551831 0.017629 10
-1.88847 6.02613 0.775398 0.0174208 10
-1.88153 6.00398 0.996538 0.0171465 10
-1.88546 6.01652 1.22558 0.0131059 10
-1.88272 6.00777 1.45351 0.0127952 10
-1.8891 6.02812 1.69269 0.0124401 10
-1.90501 6.00534 -1.68815 0.0159476 10
-1.90605 6.00864 -1.45533 0.0164004 10
-1.9085 6.01637 -1.22689 0.0167962 10
-1.90459 6.00403 -0.997644 0.0171315 10
-1.90852 6.01642 -0.775001 0.0174031 10
-1.90407 6.0024 -0.55093 0.0176088 10
-1.90637 6.00965 -0.330419 0.0177465 10
-1.9027 5.99806 -0.109838 0.017815 10
-1.9036 6.0009 0.10989 0.0178138 10
-1.90617 6.00901 0.330384 0.0177428 10
-1.90614 6.00892 0.551529 0.0176028 10
-1.90889 6.01758 0.77515 0.0173948 10
-1.90511 6.00566 0.997914 0.0171209 10
-1.90295 5.99887 1.22333 0.0130863 10
-1.90775 6.01399 1.45662 0.0127761 10
-1.90991 6.0208 1.69249 0.0124215 10
-1.9307 6.01342 -1.6923 0.0159231 10
-1.93043 6.01259 -1.45791 0.0163753 10
-1.92727 6.00275 -1.22548 0.0167706 10
-1.93319 6.0212 -1.00161 0.0171053 10
-1.92828 6.00591 -0.774509 0.0173765 10
-1.93266 6.01953 -0.553119 0.0175818 10
-1.93099 6.01432 -0.331045 0.0177193 10
-1.9258 5.99816 -0.109962 0.0177878 10
-1.93232 6.01847 0.110335 0.0177866 10
-1.92715 6.00237 0.330387 0.0177157 10
-1.9308 6.01373 0.552585 0.0175758 10
-1.93255 6.0192 0.776223 0.0173682 10
-1.93181 6.01689 1.0009 0.0170947 10
-1.93113 6.01478 1.22794 0.0130663 10
-1.93025 6.01203 1.45777 0.0127565 10
-1.92875 6.00735 1.6906 0.0124025 10
-1.9514 6.00578 -1.69206 0.0158981 10
-1.95315 6.01116 -1.4592 0.0163496 10
-1.94756 5.99398 -1.22507 0.0167442 10
-1.95043 6.0028 -0.999678 0.0170784 10
-1.95508 6.01711 -0.77683 0.0173493 10
-1.95259 6.00945 -0.552816 0.0175543 10
-1.94729 5.99315 -0.330252 0.0176916 10
-1.94909 5.99869 -0.110096 0.0177599 10
-1.95119 6.00514 0.110214 0.0177587 10
-1.94962 6.00031 0.330646 0.0176879 10
-1.9506 6.00333 0.552252 0.0175483 10
-1.95345 6.01211 0.776184 0.017341 10
-1.95298 6.01067 1.00099 0.0170679 10
-1.95207 6.00785 1.22791 0.0130458 10
-1.9492 5.99901 1.45625 0.0127365 10
-1.95334 6.01177 1.69375 0.012383 10
-1.96978 5.99114 -1.68986 0.0158725 10
-1.96874 5.98795 -1.45523 0.0163233 10
-1.97027 5.9926 -1.22619 0.0167173 10
-1.97612 6.01042 -1.00209 0.017051 10
-1.97039 5.99298 -0.774597 0.0173214 10
-1.96975 5.99104 -0.551751 0.017526 10
-1.97275 6.00016 -0.331015 0.0176631 10
-1.97425 6.00473 -0.110333 0.0177313 10
-1.97119 5.99541 0.110161 0.0177301 10
-1.97728 6.01394 0.331775 0.0176595 10
-1.97467 6.00601 0.553129 0.01752 10
-1.9772 6.01369 0.777273 0.0173131 10
-1.97724 6.01382 1.00266 0.0170404 10
-1.97011 5.99213 1.22609 0.0130248 10
-1.9724 5.99909 1.45794 0.012716 10
-1.97362 6.0028 1.69315 0.012363 10
-1.99335 5.99222 -1.69212 0.0158463 10
-1.98999 5.98213 -1.45549 0.0162963 10
-1.99687 6.00281 -1.22969 0.0166897 10
-1.99025 5.98292 -0.998657 0.0170228 10
-1.99595 6.00005 -0.776407 0.0172928 10
-1.99233 5.98917 -0.552216 0.0174971 10
-1.99917 6.00973 -0.331926 0.017634 10
-1.99027 5.98296 -0.11006 0.0177021 10
-1.99051 5.98368 0.110073 0.0177009 10
-1.99828 6.00704 0.331778 0.0176304 10
-1.99327 5.99199 0.552476 0.0174912 10
-1.99887 6.00882 0.777541 0.0172845 10
-1.99144 5.98648 0.999251 0.0170123 10
-1.99394 5.99401 1.22789 0.0130033 10
-1.99452 5.99574 1.45881 0.012695 10
-1.99162 5.98703 1.69065 0.0123426 10
-2.01882 5.9988 -1.69596 0.0158194 10
-2.02021 6.00293 -1.46226 0.0162688 10
-2.01488 5.98709 -1.22791 0.0166615 10
-2.0194 6.00054 -1.00277 0.0169941 10
-2.0153 5.98835 -0.775799 0.0172636 10
-2.01523 5.98812 -0.552765 0.0174676 10
-2.01297 5.98141 -0.330748 0.0176042 10
-2.0195 6.00083 -0.110517 0.0176722 10
-2.01452 5.98602 0.110245 0.017671 10
-2.01518 5.988 0.331112 0.0176006 10
-2.01594 5.99025 0.552961 0.0174616 10
-2.0168 5.9928 0.776375 0.0172553 10
-2.0204 6.0035 1.00326 0.0169836 10
-2.01309 5.98177 1.22682 0.0129813 10
-2.0155 5.98893 1.45885 0.0126735 10
-2.01293 5.98131 1.69101 0.0123217 10
-2.03396 5.97473 -1.69115 0.015792 10
-2.0408 5.9948 -1.46201 0.0162406 10
-2.03936 5.9906 -1.23008 0.0166326 10
-2.04222 5.99898 -1.00369 0.0169647 10
-2.03775 5.98587 -0.776393 0.0172337 10
-2.03462 5.97667 -0.55236 0.0174374 10
-2.03717 5.98415 -0.33129 0.0175738 10
-2.04302 6.00133 -0.110657 0.0176417 10
-2.0362 5.9813 0.110288 0.0176405 10
-2.03881 5.98896 0.331557 0.0175702 10
-2.03674 5.9829 0.552935 0.0174314 10
-2.0437 6.00332 0.778657 0.0172255 10
-2.04122 5.99605 1.0032 0.0169542 10
-2.03666 5.98265 1.22845 0.0129588 10
-2.0403 5.99336 1.46166 0.0126516 10
-2.04082 5.99488 1.69685 0.0123003 10
-2.05785 5.97644 -1.69366 0.0157641 10
-2.06246 5.98982 -1.46254 0.0162118 10
-2.064 5.9943 -1.23231 0.0166032 10
-2.05804 5.97697 -1.00121 0.0169347 10
-2.05792 5.97662 -0.776121 0.0172032 10
-2.05684 5.97351 -0.552728 0.0174065 10
-2.06533 5.99815 -0.332463 0.0175427 10
-2.06459 5.996 -0.110691 0.0176105 10
-2.06509 5.99746 0.110718 0.0176093 10
-2.06521 5.99781 0.332444 0.0175391 10
-2.05948 5.98116 0.553436 0.0174006 10
-2.06556 5.99883 0.779006 0.017195 10
-2.05812 5.97721 1.00125 0.0169242 10
-2.05881 5.97922 1.22921 0.0129359 10
-2.05725 5.9747 1.45885 0.0126291 10
-2.05907 5.97998 1.69466 0.0122785 10
-2.07785 5.96677 -1.69296 0.0157355 10
-2.08252 5.98018 -1.46195 0.0161824 10
-2.08632 5.99109 -1.23314 0.0165731 10
-2.08048 5.97432 -1.00197 0.016904 10
-2.08739 5.99419 -0.779343 0.0171721 10
-2.08549 5.98872 -0.554805 0.0173751 10
-2.07981 5.9724 -0.331436 0.017511 10
-2.08058 5.97463 -0.11043 0.0175786 10
-2.08464 5.98628 0.110645 0.0175774 10
-2.07872 5.96926 0.331262 0.0175074 10
-2.08403 5.98453 0.554417 0.0173691 10
-2.08305 5.98171 0.777721 0.0171639 10
-2.08414 5.98485 1.00374 0.0168935 10
-2.0822 5.97928 1.23071 0.0129124 10
-2.08262 5.98047 1.46202 0.0126062 10
-2.0793 5.97093 1.69414 0.0122563 10
-2.10275 5.97108 -1.69625 0.0157063 10
-2.10743 5.98436 -1.46476 0.0161525 10
-2.10267 5.97086 -1.23048 0.0165424 10
-2.1088 5.98828 -1.00554 0.0168727 10
-2.10282 5.97128 -0.777315 0.0171403 10
-2.10661 5.98204 -0.554865 0.0173429 10
-2.10741 5.98432 -0.332504 0.0174786 10
-2.10583 5.97984 -0.110662 0.0175461 10
-2.10025 5.96399 0.110368 0.0175449 10
-2.10876 5.98815 0.332716 0.017475 10
-2.10933 5.98976 0.55558 0.017337 10
-2.10073 5.96536 0.776544 0.0171321 10
-2.1067 5.98231 1.00454 0.0168623 10
-2.10172 5.96815 1.22992 0.0128885 10
-2.10857 5.98762 1.46556 0.0125829 10
-2.10923 5.98947 1.70148 0.0122335 10
-2.12414 5.96528 -1.6967 0.0156766 10
-2.1241 5.96517 -1.46187 0.0161219 10
-2.1299 5.98145 -1.23419 0.0165111 10
-2.12805 5.97625 -1.00476 0.0168408 10
-2.12787 5.97576 -0.778861 0.0171079 10
-2.12979 5.98114 -0.555467 0.0173101 10
-2.13083 5.98407 -0.332901 0.0174456 10
-2.12927 5.97969 -0.110796 0.017513 10
-2.12247 5.96059 0.110442 0.0175118 10
-2.13068 5.98365 0.332878 0.017442 10
-2.1301 5.98203 0.555549 0.0173042 10
-2.12302 5.96213 0.777083 0.0170997 10
-2.1285 5.97752 1.00498 0.0168304 10
-2.13065 5.98355 1.23462 0.0128641 10
-2.13086 5.98416 1.46653 0.0125591 10
-2.12829 5.97693 1.70002 0.0122104 10
-2.1467 5.96269 -1.69809 0.0156463 10
-2.15073 5.97388 -1.46584 0.0160907 10
-2.15339 5.98127 -1.2357 0.0164792 10
-2.15292 5.97996 -1.00664 0.0168083 10
-2.15125 5.97534 -0.779779 0.0170749 10
-2.14659 5.96239 -0.554419 0.0172767 10
-2.14897 5.96899 -0.332477 0.0174119 10
-2.15421 5.98355 -0.111006 0.0174792 10
-2.1464 5.96184 0.110603 0.017478 10
-2.14553 5.95943 0.331945 0.0174083 10
-2.15158 5.97624 0.555706 0.0172708 10
-2.14467 5.95704 0.777392 0.0170667 10
-2.15429 5.98378 1.00729 0.0167978 10
-2.15288 5.97986 1.2354 0.0128393 10
-2.14678 5.9629 1.46314 0.0125348 10
-2.15085 5.97423 1.70137 0.0121868 10
-2.16774 5.95583 -1.69828 0.0156154 10
-2.16671 5.95298 -1.46256 0.016059 10
-2.17064 5.96378 -1.23364 0.0164467 10
-2.16706 5.95394 -1.00353 0.0167751 10
-2.16921 5.95987 -0.778743 0.0170413 10
-2.17105 5.96491 -0.555354 0.0172427 10
-2.17478 5.97516 -0.333242 0.0173776 10
-2.16735 5.95475 -0.110611 0.0174447 10
-2.17592 5.97829 0.111048 0.0174435 10
-2.1743 5.97383 0.333168 0.017374 10
-2.16892 5.95905 0.554808 0.0172368 10
-2.17612 5.97883 0.781222 0.0170331 10
-2.17009 5.96227 1.00494 0.0167647 10
-2.1687 5.95846 1.23254 0.0128139 10
-2.16797 5.95645 1.46341 0.01251 10
-2.16847 5.95784 1.69885 0.0121627 10
-2.19062 5.95394 -1.69991 0.0155839 10
-2.1902 5.95281 -1.46438 0.0160266 10
-2.19681 5.97077 -1.23666 0.0164136 10
-2.18935 5.95049 -1.00423 0.0167414 10
-2.19265 5.95946 -0.779686 0.017007 10
-2.19301 5.96043 -0.555646 0.017208 10
-2.19724 5.97193 -0.333487 0.0173426 10
-2.18845 5.94805 -0.110628 0.0174097 10
-2.19865 5.97576 0.111143 0.0174085 10
-2.19111 5.95527 0.332557 0.0173391 10
-2.19426 5.96384 0.555964 0.0172021 10
-2.19019 5.95278 0.778812 0.0169988 10
-2.19244 5.95887 1.00565 0.016731 10
-2.19158 5.95655 1.23372 0.0127881 10
-2.19156 5.95648 1.46529 0.0124848 10
-2.19565 5.96761 1.70381 0.0121382 10
-2.21574 5.95796 -1.70326 0.0155518 10
-2.21964 5.96843 -1.47012 0.0159937 10
-2.2129 5.95032 -1.23402 0.0163799 10
-2.21369 5.95243 -1.00586 0.016707 10
-2.21821 5.9646 -0.781366 0.0169721 10
-2.21771 5.96324 -0.556627 0.0171727 10
-2.21134 5.94612 -0.332475 0.0173071 10
-2.21466 5.95504 -0.110901 0.017374 10
-2.21272 5.94981 0.110804 0.0173728 10
-2.21306 5.95073 0.332733 0.0173035 10
-2.21537 5.95695 0.556039 0.0171668 10
-2.21462 5.95493 0.780099 0.0169639 10
-2.21488 5.95564 1.0064 0.0166966 10
-2.21509 5.95621 1.23524 0.0127619 10
-2.21583 5.95818 1.4676 0.0124592 10
-2.2135 5.95194 1.70153 0.0121132 10
-2.23992 5.95921 -1.70584 0.0155192 10
-2.24204 5.96485 -1.47116 0.0159602 10
-2.23843 5.95526 -1.23666 0.0163456 10
-2.23818 5.95459 -1.00754 0.0166721 10
-2.23867 5.9559 -0.781245 0.0169366 10
-2.24297 5.96733 -0.557736 0.0171368 10
-2.24166 5.96386 -0.333902 0.0172709 10
-2.23735 5.95237 -0.110996 0.0173376 10
-2.2337 5.94268 0.110815 0.0173364 10
-2.23288 5.94048 0.332593 0.0172673 10
-2.23376 5.94283 0.555445 0.0171309 10
-2.23358 5.94236 0.779469 0.0169284 10
-2.23835 5.95505 1.00761 0.0166617 10
-2.23408 5.94369 1.23425 0.0127351 10
-2.23633 5.94966 1.46741 0.0124331 10
-2.24258 5.9663 1.70787 0.0120878 10
-2.26467 5.96178 -1.70883 0.0154861 10
-2.25976 5.94886 -1.46915 0.0159261 10
-2.25692 5.94139 -1.23541 0.0163107 10
-2.26197 5.95467 -1.00888 0.0166365 10
-2.25567 5.93809 -0.779938 0.0169004 10
-2.26265 5.95647 -0.557455 0.0171002 10
-2.25568 5.93812 -0.3329 0.017234 10
-2.26338 5.95839 -0.111255 0.0173006 10
-2.25995 5.94935 0.111086 0.0172994 10
-2.25636 5.93991 0.333001 0.0172305 10
-2.26007 5.94967 0.556819 0.0170943 10
-2.26064 5.95118 0.781657 0.0168923 10
-2.26419 5.96052 1.00987 0.0166261 10
-2.25986 5.94912 1.23701 0.0127079 10
-2.26471 5.9619 1.47237 0.0124065 10
-2.25959 5.9484 1.70499 0.0120619 10
-2.28075 5.94156 -1.7053 0.0154523 10
-2.27707 5.93198 -1.46694 0.0158914 10
-2.28713 5.95818 -1.24055 0.0162752 10
-2.277 5.9318 -1.00635 0.0166003 10
-2.28532 5.95346 -0.782999 0.0168637 10
-2.28661 5.95684 -0.558234 0.017063 10
-2.28284 5.94701 -0.333844 0.0171966 10
-2.28183 5.94439 -0.111142 0.017263 10
-2.28298 5.94738 0.111197 0.0172619 10
-2.28223 5.94541 0.333754 0.017193 10
-2.28111 5.9425 0.556889 0.0170572 10
-2.28273 5.94673 0.782114 0.0168555 10
-2.28159 5.94374 1.00837 0.0165899 10
-2.27777 5.93381 1.23548 0.0126803 10
-2.27972 5.93888 1.46865 0.0123795 10
-2.27904 5.93712 1.70403 0.0120357 10
-2.30969 5.95473 -1.71139 0.0154181 10
-2.30541 5.94371 -1.47182 0.0158562 10
-2.30988 5.95522 -1.2416 0.0162392 10
-2.30123 5.93293 -1.00789 0.0165635 10
-2.30103 5.9324 -0.781281 0.0168263 10
-2.30922 5.95352 -0.558675 0.0170253 10
-2.30488 5.94233 -0.33403 0.0171585 10
-2.30343 5.93861 -0.111183 0.0172248 10
-2.30592 5.94501 0.111303 0.0172236 10
-2.30981 5.95504 0.334745 0.017155 10
-2.30311 5.93777 0.557196 0.0170194 10
-2.30764 5.94945 0.783526 0.0168182 10
-2.30144 5.93346 1.00798 0.0165532 10
-2.3024 5.93595 1.23759 0.0126522 10
-2.31003 5.9556 1.47477 0.012352 10
-2.30311 5.93777 1.70651 0.012009 10
-2.32667 5.93696 -1.7086 0.0153832 10
-2.33146 5.94919 -1.47518 0.0158204 10
-2.32828 5.94108 -1.24034 0.0162025 10
-2.32522 5.93325 -1.00932 0.0165261 10
-2.33116 5.94841 -0.784457 0.0167884 10
-2.33003 5.94554 -0.558685 0.0169869 10
-2.32519 5.93318 -0.33397 0.0171198 10
-2.32787 5.94004 -0.111361 0.017186 10
-2.32222 5.92562 0.111091 0.0171848 10
-2.32791 5.94013 0.334361 0.0171163 10
-2.33105 5.94815 0.55893 0.016981 10
-2.32841 5.9414 0.783532 0.0167803 10
-2.33247 5.95176 1.01247 0.0165158 10
-2.32354 5.92898 1.23782 0.0126236 10
-2.33102 5.94807 1.47491 0.0123241 10
-2.32904 5.94302 1.71034 0.0119818 10
-2.34488 5.92249 -1.70678 0.0153478 10
-2.3492 5.93341 -1.4733 0.015784 10
-2.3489 5.93264 -1.24029 0.0161653 10
-2.35117 5.93837 -1.01158 0.0164882 10
-2.35064 5.93704 -0.784034 0.0167498 10
-2.34772 5.92967 -0.557961 0.0169479 10
-2.34717 5.92827 -0.334153 0.0170805 10
-2.34582 5.92487 -0.11123 0.0171465 10
-2.34544 5.92391 0.111212 0.0171453 10
-2.34719 5.92832 0.334156 0.017077 10
-2.3526 5.94198 0.559119 0.016942 10
-2.34846 5.93153 0.783307 0.0167417 10
-2.34608 5.92552 1.00939 0.0164779 10
-2.35044 5.93652 1.2411 0.0125946 10
-2.3478 5.92987 1.47242 0.0122958 10
-2.35463 5.94711 1.71388 0.0119542 10
-2.36695 5.91781 -1.7078 0.0153119 10
-2.37323 5.93349 -1.47536 0.0157471 10
-2.36914 5.92327 -1.24005 0.0161274 10
-2.37042 5.92648 -1.01096 0.0164496 10
-2.36784 5.92001 -0.782873 0.0167107 10
-2.37192 5.93022 -0.558788 0.0169083 10
-2.37148 5.92914 -0.334666 0.0170406 10
-2.37515 5.93831 -0.111637 0.0171065 10
-2.3702 5.92593 0.111404 0.0171053 10
-2.37251 5.9317 0.334811 0.0170371 10
-2.36842 5.92147 0.557963 0.0169024 10
-2.36875 5.92231 0.783176 0.0167026 10
-2.3774 5.94393 1.01394 0.0164393 10
-2.37769 5.94466 1.24453 0.0125651 10
-2.37546 5.93907 1.47675 0.012267 10
-2.37213 5.93074 1.71154 0.0119262 10
-2.39627 5.93099 -1.71401 0.0152754 10
-4.1478 10.2662 -2.55627 0.00103964 10
-4.93627 12.2177 -2.56139 0.000589767 10
-6.05696 14.9915 -2.5609 0.000292326 10
-7.63457 18.8962 -2.50238 0.00100624 10
-7.63496 18.8972 -1.78313 0.00101995 10
-9.80349 24.2645 -1.37152 0.000109149 10
-9.8027 24.2626 -0.456764 0.000109563 10
-9.80943 24.2792 0.457078 0.000109457 10
-7.39369 18.3001 1.03439 4.47983e-05 10
-4.45912 11.0367 1.04142 0.000366595 10
-3.18093 7.87308 1.04261 0.00111685 10
-2.46733 6.10686 1.04319 0.00250903 10
-2.39809 5.93548 1.24435 0.0125352 10
-2.39678 5.93224 1.47712 0.0122378 10
-2.39073 5.91727 1.71005 0.0118978 10
-2.42016 5.93041 -1.71628 0.0152384 10
-4.18385 10.2522 -2.55642 0.00103957 10
-4.98016 12.2035 -2.56205 0.000589718 10
-6.11189 14.9767 -2.562 0.000292296 10
-7.70662 18.8845 -2.50437 0.00100344 10
-7.70949 18.8915 -1.78513 0.00101711 10
-9.76319 23.924 -1.35419 0.000529319 10
-9.76203 23.9211 -0.450976 0.000531795 10
-9.76763 23.9349 0.451234 0.000531751 10
-7.45437 18.2664 1.03395 4.48126e-05 10
-4.49418 11.0127 1.04062 0.000366661 10
-3.21385 7.8753 1.04439 0.00111699 10
-2.49734 6.11955 1.04684 0.00250927 10
-2.417 5.92268 1.24343 0.0125049 10
-2.41497 5.9177 1.47559 0.0122081 10
-2.41472 5.91709 1.71242 0.0118689 10
-2.44239 5.92568 -1.71736 0.0152008 10
-4.21865 10.2352 -2.55584 0.00103949 10
-5.01915 12.1774 -2.56022 0.000589669 10
-6.16263 14.9517 -2.56138 0.000292265 10
-7.77836 18.8717 -2.50627 0.00100059 10
-7.78263 18.8821 -1.78679 0.00101423 10
-9.85157 23.9017 -1.35487 0.000527745 10
-9.85806 23.9175 -0.451552 0.000530214 10
-9.85828 23.918 0.451562 0.000530169 10
-7.5113 18.2238 1.03301 4.48269e-05 10
-4.52843 10.9868 1.03967 0.000366726 10
-3.2427 7.86738 1.04483 0.00111713 10
-2.52079 6.11589 1.04772 0.0025095 10
-2.43519 5.90822 1.24217 0.012474 10
-2.43604 5.91028 1.47585 0.012178 10
-2.43958 5.91887 1.71539 0.0118397 10
-2.46632 5.92495 -1.71964 0.0151627 10
-4.26142 10.2374 -2.56008 0.00103942 10
-5.06105 12.1584 -2.55993 0.000589621 10
-6.21544 14.9316 -2.56165 0.000292235 10
-7.84398 18.8439 -2.5062 0.000997712 10
-7.84957 18.8574 -1.78703 0.00101131 10
-9.94939 23.9019 -1.35684 0.000526149 10
-9.9481 23.8988 -0.451852 0.000528611 10
-9.94208 23.8843 0.451578 0.000528566 10
-7.5784 18.2059 1.03349 4.48412e-05 10
-4.57513 10.991 1.04157 0.000366791 10
-3.26231 7.8372 1.04233 0.00111727 10
-2.53162 6.08182 1.04339 0.00250974 10
-2.46637 5.92507 1.24751 0.0124428 10
-2.46633 5.92499 1.48167 0.0121475 10
-2.45938 5.90828 1.7148 0.01181 10
-2.48413 5.90952 -1.71766 0.0151241 10
-4.29662 10.2213 -2.55978 0.00103935 10
-5.10664 12.1482 -2.56152 0.000589572 10
-6.27211 14.9208 -2.56352 0.000292204 10
-7.92114 18.8437 -2.50982 0.000994789 10
-7.92196 18.8456 -1.78853 0.00100835 10
-10.0348 23.8719 -1.35711 0.000524531 10
-10.0335 23.8688 -0.451946 0.000526986 10
-10.0362 23.8752 0.452066 0.000526942 10
-7.63565 18.1645 1.03265 4.48554e-05 10
-4.60451 10.9537 1.03955 0.000366856 10
-3.29512 7.83879 1.04406 0.0011174 10
-2.56111 6.09263 1.04677 0.00250997 10
-2.48421 5.90969 1.24609 0.0124111 10
-2.49038 5.92439 1.48368 0.0121166 10
-2.48512 5.91186 1.71834 0.0117799 10
-2.50162 5.89345 -1.71552 0.0150849 10
-4.33392 10.2101 -2.56075 0.00103928 10
-5.14779 12.1274 -2.56092 0.000589524 10
-6.32043 14.89 -2.56201 0.000292174 10
-7.99057 18.8246 -2.51098 0.000991828 10
-7.99339 18.8312 -1.7898 0.00100535 10
-10.1268 23.8573 -1.35828 0.000522892 10
-10.1267 23.857 -0.452388 0.000525339 10
-10.1312 23.8676 0.452588 0.000525295 10
-7.70221 18.1453 1.03308 4.48696e-05 10
-4.64607 10.9454 1.0403 0.000366921 10
-3.32094 7.82364 1.04358 0.00111754 10
-2.58202 6.08287 1.04663 0.00194024 10
-2.50807 5.90863 1.24771 0.012379 10
-2.51018 5.91362 1.48317 0.0120852 10
-2.51031 5.91391 1.72148 0.0117494 10
-2.52651 5.89478 -1.71847 0.0150452 10
-4.36651 10.1878 -2.55898 0.00103921 10
-5.19243 12.1149 -2.56207 0.000589475 10
-6.38039 14.8866 -2.56524 0.000292144 10
-8.06856 18.8254 -2.51482 0.000988828 10
-8.06062 18.8068 -1.79014 0.00100231 10
-10.2152 23.8338 -1.35897 0.000521231 10
-10.2216 23.8488 -0.452906 0.000523671 10
-10.2171 23.8384 0.452708 0.000523627 10
-7.76398 18.1147 1.03288 4.48838e-05 10
-4.68118 10.922 1.03962 0.000366986 10
-3.34298 7.79977 1.04195 0.00111768 10
-2.60179 6.07044 1.04605 0.00194042 10
-2.52571 5.89292 1.24625 0.0123465 10
-2.53286 5.90961 1.48437 0.0120534 10
-2.52754 5.89719 1.71917 0.0117185 10
-2.55355 5.9009 -1.72284 0.015005 10
-4.40594 10.1815 -2.56124 0.00103914 10
-5.23697 12.1019 -2.56319 0.000589427 10
-6.42838 14.8551 -2.56367 0.000292113 10
-8.13348 18.7954 -2.51459 0.000985788 10
-8.13503 18.7989 -1.79208 0.000999234 10
-10.3097 23.8242 -1.36047 0.000519549 10
-10.3082 23.8208 -0.453055 0.000521982 10
-10.3158 23.8384 0.45339 0.000521938 10
-7.82288 18.0776 1.03231 4.78704e-05 10
-4.71714 10.9007 1.03915 0.00036705 10
-3.37333 7.7953 1.04292 0.00111781 10
-2.61607 6.04538 1.0433 0.0019406 10
-2.55053 5.89394 1.24833 0.0123135 10
-2.55309 5.89985 1.48415 0.0120212 10
-2.54816 5.88845 1.7192 0.0116871 10
-2.57959 5.90444 -1.72649 0.0149643 10
-4.43472 10.1507 -2.55736 0.00103907 10
-5.27321 12.0699 -2.56029 0.000589379 10
-6.48312 14.8393 -2.56483 0.000292083 10
-8.21322 18.7993 -2.51895 0.000982712 10
-8.21046 18.793 -1.79424 0.000996117 10
-10.4035 23.8127 -1.36188 0.000517847 10
-10.4034 23.8124 -0.453584 0.000520272 10
-10.4078 23.8225 0.453776 0.000520228 10
-7.88957 18.0585 1.03279 4.78855e-05 10
-4.75706 10.8885 1.03957 0.000367115 10
-3.3991 7.78022 1.04248 0.00111795 10
-2.63673 6.03525 1.04313 0.00194078 10
-2.57894 5.90297 1.25215 0.0122801 10
-2.57693 5.89835 1.48603 0.0119886 10
-2.57688 5.89825 1.72468 0.0116554 10
-2.59595 5.88581 -1.72368 0.0149231 10
-4.46879 10.1321 -2.5566 0.001039 10
-5.31391 12.0483 -2.55962 0.000589331 10
-6.52912 14.8035 -2.56257 0.000292053 10
-8.28651 18.788 -2.52129 0.000979597 10
-8.2788 18.7706 -1.79485 0.000992963 10
-10.5006 23.808 -1.36369 0.000516123 10
-10.4942 23.7936 -0.453921 0.000518541 10
-10.4953 23.7962 0.453969 0.000518497 10
-7.95507 18.0366 1.03311 4.79005e-05 10
-4.79783 10.8781 1.04017 0.000367179 10
-3.42676 7.7695 1.04264 0.00111808 10
-2.6685 6.0503 1.04734 0.00194095 10
-2.60206 5.89966 1.25336 0.0122463 10
-2.60005 5.89511 1.48749 0.0119556 10
-2.59797 5.89039 1.72502 0.0116233 10
-2.62461 5.89498 -1.72904 0.0148813 10
-4.51086 10.1316 -2.56041 0.00103893 10
-5.36155 12.0422 -2.5623 0.000589284 10
-6.57927 14.7773 -2.56199 0.000292023 10
-8.35348 18.7622 -2.52173 0.000976444 10
-8.36088 18.7789 -1.79842 0.000989769 10
-10.5818 23.7672 -1.36346 0.00051438 10
-10.5893 23.7841 -0.454441 0.000516789 10
-10.5862 23.777 0.454305 0.000516746 10
-8.01055 17.992 1.03215 6.19912e-05 10
-4.83469 10.8589 1.03994 0.000367243 10
-3.45669 7.76386 1.0435 0.00111822 10
-2.68876 6.03905 1.04701 0.00194113 10
-2.62054 5.88583 1.25236 0.0122121 10
-2.61988 5.88435 1.48707 0.0119221 10
-2.62555 5.89709 1.72966 0.0115907 10
-2.64151 5.87764 -1.72665 0.0148391 10
-4.54648 10.1164 -2.56057 0.00103887 10
-5.39944 12.0143 -2.56035 0.000589236 10
-6.63211 14.7571 -2.56249 0.000291994 10
-8.43443 18.7675 -2.52637 0.000973255 10
-8.42968 18.7569 -1.79912 0.000986538 10
-10.6816 23.7677 -1.36562 0.000512616 10
-10.6814 23.7673 -0.45483 0.000515017 10
-10.6839 23.7729 0.454936 0.000514974 10
-8.0741 17.9657 1.03226 6.20105e-05 10
-4.87341 10.8438 1.04012 0.000367307 10
-3.48608 7.75688 1.04419 0.00111835 10
-2.7055 6.02001 1.04534 0.00194131 10
-2.64131 5.87719 1.25248 0.0121774 10
-2.64932 5.89501 1.49209 0.0118883 10
-2.64192 5.87854 1.72691 0.0115578 10
-2.66217 5.86872 -1.72675 0.0147963 10
-4.58023 10.0971 -2.55971 0.0010388 10
-5.44149 11.9957 -2.56042 0.000589188 10
-6.68939 14.7467 -2.56472 0.000291964 10
-8.49839 18.7346 -2.52593 0.000970028 10
-8.5054 18.7501 -1.8013 0.00098327 10
-10.7769 23.7576 -1.3672 0.000510831 10
-10.776 23.7556 -0.455324 0.000513225 10
-10.7782 23.7604 0.455414 0.000513181 10
-8.13526 17.9341 1.03207 6.20298e-05 10
-4.9062 10.8157 1.03905 0.000367371 10
-3.51563 7.75016 1.04493 0.00111849 10
-2.72836 6.01463 1.04605 0.00194149 10
-2.66168 5.86764 1.25242 0.0121424 10
-2.66416 5.87311 1.4889 0.011854 10
-2.67167 5.88967 1.73291 0.0115245 10
-2.6945 5.88529 -1.73438 0.014753 10
-4.61922 10.0893 -2.56181 0.00103873 10
-5.47907 11.9673 -2.55842 0.000589141 10
-6.74461 14.7315 -2.56616 0.000291934 10
-8.57048 18.7196 -2.52792 0.000966765 10
-8.57985 18.74 -1.80321 0.000979965 10
-10.8667 23.7349 -1.36806 0.000509027 10
-10.8613 23.7231 -0.455424 0.000511412 10
-10.8702 23.7426 0.455798 0.000511369 10
-8.20163 17.9139 1.03255 6.2049e-05 10
-4.94441 10.7995 1.03916 0.000367435 10
-3.53647 7.72433 1.0431 0.00111862 10
-2.74476 5.99509 1.04431 0.00194166 10
-2.69164 5.87906 1.25685 0.0121069 10
-2.69105 5.87777 1.49245 0.0118194 10
-2.69244 5.88081 1.73306 0.0114908 10
-2.71735 5.88088 -1.73586 0.0147093 10
-4.64848 10.0602 -2.55854 0.00103866 10
-5.53195 11.9722 -2.56359 0.000589094 10
-6.78967 14.6942 -2.56377 0.000291904 10
-8.64429 18.708 -2.53041 0.000963466 10
-8.65107 18.7226 -1.80443 0.000976622 10
-10.958 23.7152 -1.36912 0.000507202 10
-10.9611 23.7219 -0.456133 0.00050958 10
-10.9561 23.7112 0.455926 0.000509537 10
-8.26153 17.8796 1.03222 6.20682e-05 10
-4.9862 10.7911 1.04001 0.000367498 10
-3.56718 7.72007 1.04421 0.00111875 10
-2.77179 5.99869 1.04662 0.00194184 10
-2.71428 5.87424 1.25784 0.012071 10
-2.71759 5.8814 1.49577 0.0117844 10
-2.71514 5.8761 1.73445 0.0114567 10
-2.73273 5.86036 -1.73261 0.014665 10
-4.68397 10.0448 -2.55876 0.00103859 10
-5.56983 11.9445 -2.5618 0.000589047 10
-6.8388 14.6659 -2.56298 0.000291875 10
-8.71804 18.6959 -2.53288 0.000960131 10
-8.72723 18.7156 -1.80668 0.000973244 10
-11.0513 23.6996 -1.37045 0.000505359 10
-11.0545 23.7064 -0.456575 0.000507728 10
-11.0486 23.6939 0.456333 0.000507685 10
-8.32548 17.8541 1.03242 6.20874e-05 10
-5.0253 10.7768 1.04032 0.000367562 10
-3.58516 7.6884 1.04161 0.00111889 10
-2.78363 5.96953 1.04322 0.00194202 10
-2.73134 5.85738 1.25626 0.0120347 10
-2.73726 5.87007 1.49531 0.0117489 10
-2.73706 5.86964 1.73535 0.0114222 10
-2.75794 5.86091 -1.73561 0.0146203 10
-4.71826 10.0268 -2.55836 0.00103852 10
-5.60438 11.9099 -2.55856 0.000589 10
-6.89372 14.6499 -2.56437 0.000291845 10
-8.79536 18.6911 -2.53637 0.000956759 10
-8.79249 18.685 -1.80667 0.00096983 10
-8.8404 18.7868 -1.08814 0.000263169 10
-8.84748 18.8018 -0.362708 0.000264171 10
-8.842 18.7902 0.362483 0.000263977 10
-8.39092 17.8316 1.03281 6.21064e-05 10
-5.06506 10.7638 1.04076 0.000367625 10
-3.61266 7.67729 1.0418 0.00111902 10
-2.80293 5.95653 1.04265 0.00194219 10
-2.76494 5.87579 1.26227 0.0119981 10
-2.7533 5.85105 1.49291 0.0117131 10
-2.75743 5.85984 1.73529 0.0113874 10
-2.78239 5.85969 -1.73811 0.0145751 10
-4.75875 10.0219 -2.56133 0.00103845 10
-5.64651 11.8915 -2.55883 0.000588953 10
-6.94037 14.6164 -2.56273 0.000291816 10
-8.79632 18.525 -2.51799 0.0002701 10
-8.79529 18.5228 -1.79395 0.000273606 10
-8.78965 18.511 -1.07393 0.000275897 10
-8.79898 18.5306 -0.358066 0.000276948 10
-8.79923 18.5311 0.358075 0.000276748 10
-8.44906 17.7937 1.03232 6.21255e-05 10
-5.09445 10.7289 1.0391 0.000367688 10
-3.64613 7.67873 1.04372 0.00111915 10
-2.83589 5.97238 1.04715 0.00194237 10
-2.78624 5.86781 1.26264 0.011961 10
-2.78149 5.85781 1.4971 0.0116769 10
-2.7868 5.86899 1.74087 0.0113521 10
-2.80276 5.84981 -1.73807 0.0145294 10
-4.79464 10.0072 -2.56183 0.00103839 10
-5.6947 11.8858 -2.56185 0.000588906 10
-7.00077 14.6117 -2.56619 0.000291787 10
-8.86614 18.5051 -2.51947 0.000973639 10
-8.86682 18.5065 -1.79535 0.000986921 10
-8.85881 18.4898 -1.07449 0.000995826 10
-8.86638 18.5056 -0.358178 0.00100026 10
-8.86042 18.4931 0.357936 0.00100018 10
-8.51491 17.772 1.03278 6.21445e-05 10
-5.13948 10.7269 1.04064 0.000367751 10
-3.67129 7.66258 1.04326 0.00111928 10
-2.84488 5.93772 1.04281 0.00194254 10
-2.81159 5.86824 1.26484 0.0119235 10
-2.81114 5.8673 1.50202 0.0116403 10
-2.80741 5.85953 1.74096 0.0113165 10
-2.83082 5.85584 -1.74279 0.0144832 10
-4.82517 9.98136 -2.55951 0.00103832 10
-5.73603 11.8655 -2.56179 0.000588859 10
-7.04839 14.5803 -2.56497 0.000291757 10
-8.93684 18.4867 -2.5212 0.000970083 10
-8.93483 18.4826 -1.79605 0.000983319 10
-8.9302 18.473 -1.07532 0.000992193 10
-8.93095 18.4746 -0.358178 0.000996613 10
-8.9332 18.4792 0.358268 0.000996532 10
-8.57345 17.735 1.03236 6.21635e-05 10
-5.17411 10.7032 1.04008 0.000367814 10
-3.6992 7.65216 1.04359 0.00111942 10
-2.87513 5.9475 1.04629 0.00194272 10
-2.82288 5.8394 1.26074 0.0118857 10
-2.82739 5.84874 1.49979 0.0116033 10
-2.83059 5.85537 1.74265 0.0112806 10
-2.8453 5.83373 -1.73915 0.0144366 10
-4.86173 9.96802 -2.56043 0.00103825 10
-5.78052 11.8518 -2.56317 0.000588813 10
-7.10246 14.5622 -2.56614 0.000291728 10
-9.01094 18.4752 -2.5239 0.000966492 10
-9.01048 18.4742 -1.79828 0.000979682 10
-9.01146 18.4762 -1.07733 0.000988524 10
-9.00515 18.4633 -0.358567 0.000992928 10
-9.01143 18.4762 0.358817 0.000992847 10
-8.63257 17.6994 1.03203 6.21824e-05 10
-5.21371 10.6897 1.04054 0.000367876 10
-3.71821 7.62347 1.04144 0.00111955 10
-2.8965 5.93872 1.04651 0.00194289 10
-2.84908 5.84149 1.26333 0.0118474 10
-2.84947 5.84228 1.50067 0.011566 10
-2.84718 5.83759 1.74031 0.0112442 10
-2.87745 5.84775 -1.74632 0.0143895 10
-4.90005 9.95822 -2.56229 0.00103818 10
-5.81517 11.818 -2.56023 0.000588766 10
-7.14365 14.5178 -2.56269 0.000291699 10
-9.0848 18.4627 -2.52652 0.000962866 10
-9.07951 18.452 -1.79919 0.000976009 10
-9.0804 18.4538 -1.07787 0.000984819 10
-9.07843 18.4498 -0.358919 0.000989208 10
-9.08931 18.4719 0.359348 0.000989128 10
-8.6915 17.6635 1.0317 6.22012e-05 10
-5.24038 10.6499 1.03843 0.000367939 10
-3.75122 7.62348 1.04323 0.00111968 10
-2.91363 5.92128 1.04523 0.00194306 10
-2.86981 5.83222 1.26348 0.0118088 10
-2.87409 5.84093 1.50289 0.0115282 10
-2.87595 5.8447 1.74541 0.0112075 10
-2.89221 5.82633 -1.74293 0.0143419 10
-4.93511 9.94171 -2.56246 0.00103812 10
-5.86191 11.8087 -2.56264 0.00058872 10
-7.20658 14.5176 -2.56707 0.00029167 10
-9.15137 18.4353 -2.52712 0.000959207 10
-9.15593 18.4445 -1.80157 0.000972301 10
-9.15349 18.4396 -1.07889 0.000981081 10
-9.1558 18.4443 -0.35943 0.000985453 10
-9.15327 18.4392 0.35933 0.000985373 10
-8.75185 17.6305 1.03155 6.222e-05 10
-5.28679 10.6502 1.04025 0.000368001 10
-3.77024 7.59511 1.04114 0.00111981 10
-2.93452 5.91156 1.04531 0.00194324 10
-2.89213 5.82616 1.26435 0.0117698 10
-2.90415 5.85038 1.50793 0.0114901 10
-2.89235 5.8266 1.74301 0.0111705 10
-2.91571 5.82253 -1.74483 0.0142939 10
-4.96397 9.91281 -2.55946 0.00103805 10
-5.90141 11.7848 -2.56191 0.000588674 10
-7.24668 14.4713 -2.56334 0.000291641 10
-9.22536 18.4226 -2.52978 0.000955513 10
-9.22522 18.4223 -1.80254 0.000968559 10
-9.2352 18.4423 -1.08093 0.000977306 10
-9.22905 18.43 -0.359778 0.000981663 10
-9.2249 18.4217 0.359616 0.000981583 10
-8.82108 17.6153 1.03246 6.22388e-05 10
-5.32434 10.6325 1.04033 0.000368063 10
-3.80778 7.60396 1.04417 0.00111994 10
-2.9579 5.90678 1.04629 0.00194341 10
-2.92003 5.83116 1.26764 0.0117304 10
-2.92351 5.83811 1.50738 0.0114517 10
-2.91957 5.83024 1.74714 0.011133 10
-2.93955 5.81931 -1.74692 0.0142454 10
-5.00466 9.90754 -2.5626 0.00103798 10
-5.94308 11.7653 -2.56215 0.000588628 10
-7.30672 14.4649 -2.56671 0.000291612 10
-9.30332 18.4175 -2.53351 0.000951785 10
-9.30092 18.4127 -1.80476 0.000964784 10
-9.31101 18.4327 -1.08227 0.000973498 10
-9.30604 18.4228 -0.36027 0.000977839 10
-9.31073 18.4321 0.360451 0.000977759 10
-8.87941 17.5783 1.0321 6.22575e-05 10
-5.35505 10.6012 1.0391 0.000368125 10
-3.82805 7.57826 1.04247 0.00112007 10
-2.97793 5.89529 1.04609 0.00194358 10
-2.9491 5.83823 1.2714 0.0116907 10
-2.95101 5.84201 1.51104 0.0114128 10
-2.9412 5.8226 1.74791 0.0110953 10
-2.97185 5.83258 -1.75401 0.0141965 10
-5.02906 9.87009 -2.55743 0.00103792 10
-5.97928 11.735 -2.56009 0.000588582 10
-7.34787 14.421 -2.56347 0.000291584 10
-9.46138 18.569 -2.55889 0.000924879 10
-9.46341 18.573 -1.8237 0.000937535 10
-11.9944 23.5403 -1.38461 0.000485886 10
-11.9903 23.5322 -0.461003 0.000488169 10
-11.99 23.5317 0.460992 0.000488128 10
-8.94246 17.5506 1.0323 6.22762e-05 10
-5.39303 10.5844 1.03929 0.000368186 10
-3.85625 7.56833 1.04295 0.0011202 10
-2.99775 5.88343 1.04583 0.00194375 10
-2.96884 5.82668 1.27114 0.0116505 10
-2.97108 5.83107 1.51088 0.0113736 10
-2.96813 5.8253 1.75182 0.0110571 10
-2.9912 5.82025 -1.75343 0.0141471 10
-5.07255 9.87012 -2.56201 0.00103785 10
-6.02259 11.7187 -2.5611 0.000588537 10
-7.40884 14.4161 -2.56717 0.000291555 10
-9.5453 18.5731 -2.56404 0.000921172 10
-9.53987 18.5626 -1.82593 0.00093378 10
-9.54084 18.5645 -1.09389 0.000622369 10
-9.53669 18.5564 -0.364175 0.00062515 10
-9.53467 18.5525 0.364098 0.000625098 10
-9.00002 17.5121 1.03188 6.22948e-05 10
-5.43535 10.5761 1.04033 0.000368248 10
-3.88393 7.55731 1.04329 0.00112033 10
-3.0181 5.8726 1.04577 0.00194392 10
-2.98585 5.80983 1.26973 0.01161 10
-2.99045 5.81879 1.5104 0.0113341 10
-2.98732 5.81271 1.75116 0.0110187 10
-3.00958 5.80608 -1.75232 0.0140973 10
-5.0982 9.83544 -2.55761 0.00103778 10
-6.06482 11.7002 -2.56168 0.000588491 10
-7.4507 14.3739 -2.56427 0.000291527 10
-9.60792 18.5356 -2.56346 0.000917433 10
-9.61563 18.5504 -1.82803 0.000929993 10
-9.62054 18.5599 -1.09559 0.000619846 10
-9.61054 18.5406 -0.364522 0.000622616 10
-9.61024 18.54 0.36451 0.000622565 10
-9.05096 17.4611 1.03073 6.23134e-05 10
-5.46918 10.5511 1.03975 0.000368309 10
-3.9137 7.5503 1.0442 0.00112046 10
-3.03175 5.84885 1.04342 0.00194409 10
-3.01926 5.82474 1.27528 0.0115692 10
-3.01462 5.81579 1.51234 0.0112942 10
-3.01205 5.81084 1.75375 0.0109799 10
-3.04337 5.82142 -1.76014 0.014047 10
-5.14299 9.83763 -2.56284 0.00103772 10
-6.10646 11.6806 -2.56202 0.000588445 10
-7.49668 14.3398 -2.56285 0.000291498 10
-9.69414 18.5432 -2.56918 0.000913663 10
-9.68632 18.5282 -1.82916 0.000926173 10
-12.2783 23.4862 -1.38891 0.000479697 10
-12.2803 23.4901 -0.462671 0.000481953 10
-12.2715 23.4731 0.462337 0.000481911 10
-9.11871 17.4425 1.0315 6.23319e-05 10
-5.51023 10.5401 1.04055 0.000368371 10
-3.93452 7.52605 1.04274 0.00112059 10
-3.04919 5.83256 1.04241 0.00194426 10
-3.0337 5.80292 1.27282 0.011528 10
-3.03497 5.80537 1.51238 0.0112539 10
-3.04003 5.81505 1.75822 0.0109407 10
-3.06336 5.81018 -1.75997 0.0139963 10
-5.17054 9.80682 -2.5595 0.00103765 10
-6.1472 11.6592 -2.56203 0.0005884 10
-7.5492 14.3183 -2.5637 0.00029147 10
-9.76724 18.5252 -2.5714 0.000116469 10
-9.75992 18.5114 -1.83085 0.000922323 10
-9.82054 18.6263 -1.10353 0.00019522 10
-9.82115 18.6275 -0.367568 0.000195986 10
-9.81941 18.6242 0.367503 0.000195863 10
-9.17349 17.3991 1.03082 6.23504e-05 10
-5.53974 10.5071 1.03919 0.000368432 10
-3.9619 7.51442 1.04304 0.00112071 10
-3.07469 5.83167 1.04416 0.00194443 10
-3.06378 5.81097 1.27692 0.0114864 10
-3.06718 5.81744 1.5183 0.0112133 10
-3.06677 5.81666 1.76193 0.0109012 10
-3.08456 5.80121 -1.7605 0.0139452 10
-5.20581 9.7907 -2.56002 0.00103758 10
-6.19 11.6417 -2.56291 0.000588355 10
-7.59867 14.291 -2.56354 0.000291441 10
-9.82341 18.4752 -2.56919 0.000116454 10
-9.83648 18.4997 -1.83308 0.000918442 10
-9.84671 18.519 -1.0992 0.00061215 10
-9.8392 18.5048 -0.365824 0.000614888 10
-9.84335 18.5127 0.365978 0.000614837 10
-9.24036 17.3786 1.03151 6.23688e-05 10
-5.57469 10.4845 1.03887 0.000368493 10
-3.99119 7.50633 1.04385 0.00112084 10
-3.09954 5.82939 1.04569 0.0019446 10
-3.09114 5.81359 1.27986 0.0114445 10
-3.08259 5.79752 1.5159 0.0111724 10
-3.08466 5.80139 1.76056 0.0108614 10
-3.10792 5.79625 -1.76228 0.0138937 10
-5.24047 9.77344 -2.56027 0.00103752 10
-6.23057 11.62 -2.5629 0.00058831 10
-7.64748 14.2625 -2.5632 0.000291413 10
-9.89411 18.4524 -2.57082 0.000116439 10
