VERSION 0.7
FIELDS x y z intensity label
SIZE 4 4 4 4 4
TYPE F F F F F
COUNT 1 1 1 1 1
WIDTH 1156
HEIGHT 1
VIEWPOINT 12.7705 36.0064 2.72857 0.622233 -0.000678206 0.000448313 0.782832
POINTS 1156
DATA ascii
-4.43489 -4.49725 0.775523 0.00604021 10
-4.43833 -4.50074 1.00115 0.00594349 10
-4.07092 -4.12816 1.12697 0.0127199 10
-4.08944 -4.14694 1.34461 0.00948182 10
-4.07992 -4.13729 1.55694 0.00922007 10
-4.34297 -4.4349 -1.66322 0.0142437 10
-4.43357 -4.52741 -1.46295 0.0056061 10
-4.43597 -4.52986 -1.2324 0.00573987 10
-4.45194 -4.54617 -1.0078 0.00585289 10
-4.43933 -4.53329 -0.779062 0.00594413 10
-4.4405 -4.53449 -0.555258 0.00601278 10
-4.44643 -4.54054 -0.333056 0.0060582 10
-4.45055 -4.54475 -0.111032 0.00608 10
-4.43894 -4.53289 0.110742 0.00607797 10
-4.44346 -4.53751 0.332834 0.00605213 10
-4.44965 -4.54383 0.556402 0.00600272 10
-4.45385 -4.54812 0.78161 0.00593018 10
-4.45099 -4.5452 1.00758 0.00583517 10
-4.04792 -4.1336 1.12459 0.0128073 10
-4.07429 -4.16052 1.34439 0.00954699 10
-4.06394 -4.14996 1.55636 0.00928348 10
-4.32154 -4.44393 -1.66094 0.0143412 10
-4.45998 -4.5863 -1.47693 0.00550312 10
-4.46028 -4.5866 -1.24359 0.00563447 10
-4.44493 -4.57082 -1.00981 0.00574545 10
-4.46071 -4.58705 -0.78562 0.00583504 10
-4.44361 -4.56946 -0.557637 0.00590244 10
-4.46105 -4.58739 -0.335349 0.00594704 10
-4.45052 -4.57657 -0.111429 0.00596844 10
-4.44679 -4.57273 0.111335 0.00596643 10
-4.44978 -4.5758 0.334502 0.00594104 10
-4.46095 -4.5873 0.559814 0.0058925 10
-4.45162 -4.5777 0.784018 0.00582125 10
-4.46587 -4.59235 1.01457 0.00572794 10
-4.02497 -4.13897 1.12222 0.0128945 10
-4.04131 -4.15577 1.33829 0.00961208 10
-4.04346 -4.15798 1.55407 0.00934682 10
-4.30206 -4.45492 -1.65943 0.0044871 10
-7.71185 -7.98585 -2.56302 0.00103461 10
-7.74818 -8.02347 -2.16811 0.00392152 10
-7.74373 -8.01887 -1.7656 0.00400399 10
-7.74956 -8.0249 -1.36978 0.00407085 10
-7.75006 -8.02542 -0.976081 0.00412149 10
-7.73852 -8.01347 -0.583825 0.00415542 10
-7.74456 -8.01972 -0.194602 0.00417233 10
-7.73663 -8.01151 0.194402 0.00417204 10
-7.74356 -8.01869 0.584205 0.00415456 10
-7.74085 -8.01589 0.97492 0.00412006 10
-5.89066 -6.09996 1.04121 0.000870808 10
-4.57338 -4.73587 1.04275 0.00183098 10
-3.99158 -4.1334 1.11693 0.0129817 10
-4.02883 -4.17197 1.33897 0.0096771 10
-4.00385 -4.1461 1.5444 0.0123261 10
-4.28454 -4.46788 -1.65867 0.0044873 10
-7.67158 -7.99985 -2.5589 0.00103467 10
-7.70316 -8.03278 -2.16334 0.00394937 10
-7.69023 -8.01929 -1.75977 0.0040324 10
-7.69362 -8.02283 -1.36483 0.00409972 10
-7.69404 -8.02327 -0.972546 0.00415071 10
-7.6994 -8.02886 -0.582984 0.00418488 10
-7.70726 -8.03706 -0.194368 0.0042019 10
-7.69554 -8.02484 0.194073 0.0042016 10
-7.70355 -8.03318 0.583298 0.00418401 10
-7.69376 -8.02298 0.972511 0.00414927 10
-5.87486 -6.12625 1.04219 0.00112652 10
-4.55423 -4.74911 1.04215 0.00183084 10
-3.9709 -4.14082 1.11518 0.0130687 10
-3.97425 -4.14431 1.32563 0.0127608 10
-3.98767 -4.1583 1.54374 0.0124088 10
-4.25977 -4.4732 -1.65512 0.00448751 10
-7.64541 -8.02847 -2.5595 0.00103472 10
-7.66496 -8.049 -2.16049 0.00397719 10
-7.66286 -8.04679 -1.75992 0.00406078 10
-7.66028 -8.04408 -1.36389 0.00412857 10
-7.64996 -8.03325 -0.970513 0.0041799 10
-7.65577 -8.03935 -0.581802 0.0042143 10
-7.65425 -8.03775 -0.193738 0.00423143 10
-7.66579 -8.04988 0.19403 0.00423114 10
-7.64648 -8.0296 0.581096 0.00421342 10
-7.65103 -8.03438 0.970649 0.00417845 10
-5.83884 -6.13139 1.03959 0.00112641 10
-4.53699 -4.76431 1.04201 0.0018307 10
-3.9475 -4.14528 1.11267 0.0131556 10
-3.97885 -4.1782 1.33202 0.00980686 10
-3.97233 -4.17136 1.54343 0.00953632 10
-4.21784 -4.46024 -1.64486 0.0097297 10
-4.22217 -4.46482 -1.41869 0.0100055 10
-4.22625 -4.46914 -1.19563 0.0102466 10
-4.21768 -4.46007 -0.972241 0.0104507 10
-4.21311 -4.45524 -0.752895 0.0106162 10
-4.21748 -4.45986 -0.537023 0.0107414 10
-4.22224 -4.46489 -0.322052 0.0108253 10
-4.21027 -4.45224 -0.10696 0.0108671 10
-4.20969 -4.45162 0.106945 0.0108664 10
-4.22136 -4.46396 0.321985 0.0108232 10
-4.2185 -4.46094 0.537153 0.0107379 10
-4.22335 -4.46607 0.754726 0.0106113 10
-4.22 -4.46253 0.972776 0.0104445 10
-3.93293 -4.15896 1.11264 0.0132424 10
-3.94324 -4.16986 1.32497 0.0098716 10
-3.94836 -4.17527 1.53977 0.00959931 10
-4.19605 -4.46834 -1.64244 0.00979371 10
-4.19273 -4.46481 -1.41403 0.0100713 10
-4.2015 -4.47414 -1.19303 0.0103139 10
-4.2026 -4.47532 -0.972361 0.0105194 10
-4.1877 -4.45945 -0.751132 0.0106859 10
-4.20457 -4.47742 -0.537366 0.0108119 10
-4.19029 -4.4622 -0.320802 0.0108963 10
-4.19773 -4.47013 -0.107037 0.0109384 10
-4.19676 -4.4691 0.107012 0.0109377 10
-4.19071 -4.46265 0.320833 0.0108942 10
-4.19863 -4.47108 0.536606 0.0108084 10
-4.19962 -4.47214 0.75327 0.010681 10
-4.19733 -4.4697 0.97114 0.0105131 10
-3.91326 -4.1672 1.11119 0.013329 10
-3.92864 -4.18358 1.32496 0.00993623 10
-3.92698 -4.18181 1.53712 0.00966221 10
-4.17092 -4.47276 -1.6387 0.0098576 10
-4.17129 -4.47316 -1.41205 0.010137 10
-4.17654 -4.47879 -1.19038 0.0103811 10
-4.17809 -4.48045 -0.970302 0.0105879 10
-4.17244 -4.4744 -0.751192 0.0107555 10
-4.17244 -4.47439 -0.535252 0.0108823 10
-4.16478 -4.46618 -0.32004 0.0109673 10
-4.16262 -4.46386 -0.106538 0.0110096 10
-4.17322 -4.47523 0.106809 0.0110089 10
-4.17302 -4.47501 0.320673 0.0109651 10
-4.16962 -4.47136 0.53489 0.0108788 10
-4.17622 -4.47845 0.751872 0.0107506 10
-4.16422 -4.46557 0.96708 0.0105816 10
-3.88578 -4.16699 1.10751 0.0134155 10
-3.89736 -4.1794 1.31932 0.0100008 10
-3.90595 -4.18862 1.5346 0.00972499 10
-4.15489 -4.48687 -1.63855 0.00565855 10
-4.15949 -4.49184 -1.41336 0.00581714 10
-4.16322 -4.49587 -1.19105 0.00595548 10
-4.16046 -4.49288 -0.969843 0.00607234 10
-4.14839 -4.47986 -0.749673 0.00616665 10
-4.15691 -4.48905 -0.535267 0.00623758 10
-4.15049 -4.48212 -0.320142 0.00628449 10
-4.15981 -4.49219 -0.106867 0.00630694 10
-4.16192 -4.49446 0.106921 0.00630474 10
-4.16557 -4.4984 0.321305 0.0062779 10
-4.14996 -4.48154 0.534371 0.00622667 10
-4.15663 -4.48875 0.751162 0.00615151 10
-4.1601 -4.4925 0.96976 0.00605311 10
-3.86403 -4.17277 1.10545 0.0135019 10
-3.87969 -4.18968 1.31828 0.0100652 10
-3.8847 -4.19509 1.532 0.00978766 10
-4.1555 -4.51907 -1.645 0.00554804 10
-4.15862 -4.52246 -1.41842 0.00570359 10
-4.1549 -4.51841 -1.19317 0.00583927 10
-4.17276 -4.53784 -0.976398 0.00595388 10
-4.16583 -4.53031 -0.755678 0.00604638 10
-4.16271 -4.52691 -0.538045 0.00611594 10
-4.168 -4.53266 -0.322711 0.00616194 10
-4.17501 -4.54029 -0.107664 0.00618395 10
-4.15751 -4.52126 0.107213 0.00618177 10
-4.15697 -4.52066 0.321857 0.00615544 10
-4.17272 -4.53779 0.539338 0.00610518 10
-4.16189 -4.52602 0.754963 0.00603144 10
-4.17342 -4.53855 0.976551 0.00593491 10
-3.85111 -4.18805 1.10593 0.013588 10
-3.85873 -4.19634 1.31613 0.0101295 10
-3.86007 -4.19779 1.52805 0.00985022 10
-4.1767 -4.57407 -1.65971 0.00448874 10
-4.16626 -4.56264 -1.42645 0.00559131 10
-4.16655 -4.56295 -1.20109 0.00572436 10
-4.18345 -4.58147 -0.982637 0.00583675 10
-4.17073 -4.56754 -0.759454 0.00592746 10
-4.16798 -4.56452 -0.540783 0.00599567 10
-4.17453 -4.57169 -0.324451 0.00604076 10
-4.17895 -4.57653 -0.108177 0.00606233 10
-4.18617 -4.58444 0.108364 0.00606019 10
-4.17843 -4.57596 0.324754 0.00603434 10
-4.18463 -4.58275 0.542943 0.00598504 10
-4.1807 -4.57845 0.761268 0.00591271 10
-4.17283 -4.56983 0.98014 0.00581803 10
-3.82342 -4.18718 1.10217 0.0136741 10
-3.82984 -4.19421 1.31126 0.0101936 10
-3.84129 -4.20675 1.52642 0.00991266 10
-4.14673 -4.5732 -1.65413 0.00448895 10
-4.18767 -4.61836 -1.43929 0.0054803 10
-4.17483 -4.6042 -1.2081 0.00561076 10
-4.18729 -4.61794 -0.987318 0.00572095 10
-4.17863 -4.60839 -0.763817 0.00580988 10
-4.18396 -4.61427 -0.544943 0.00587675 10
-4.17652 -4.60606 -0.325853 0.00592095 10
-4.17845 -4.60818 -0.108579 0.0059421 10
-4.18699 -4.61761 0.108801 0.00593998 10
-4.19284 -4.62406 0.327126 0.00591463 10
-4.19616 -4.62772 0.546531 0.00586626 10
-4.17791 -4.6076 0.763686 0.00579533 10
-4.18642 -4.61697 0.987112 0.00570247 10
-3.79813 -4.18876 1.09909 0.0137599 10
-3.81307 -4.20523 1.31054 0.0102577 10
-3.80808 -4.19973 1.51904 0.00997498 10
-4.14414 -4.60253 -1.65949 0.00448916 10
-7.41992 -8.24066 -2.56007 0.00103519 10
-7.55347 -8.38898 -2.19426 0.00215156 10
-7.54699 -8.38179 -1.78639 0.00219617 10
-7.55459 -8.39022 -1.38626 0.0022322 10
-7.55535 -8.39106 -0.98786 0.0022593 10
-7.54931 -8.38436 -0.591279 0.00227722 10
-7.54447 -8.37899 -0.196807 0.00228579 10
-7.55407 -8.38964 0.197057 0.00228493 10
-7.56295 -8.39951 0.592347 0.00227464 10
-7.54962 -8.38471 0.987111 0.00225502 10
-5.6781 -6.30617 1.04192 0.00112549 10
-4.4185 -4.90724 1.04587 0.00182957 10
-3.78258 -4.20098 1.09883 0.0138456 10
-3.80088 -4.2213 1.31141 0.0103216 10
-3.80107 -4.22152 1.52212 0.0100372 10
-4.1223 -4.61054 -1.65718 0.00448937 10
-7.40437 -8.28133 -2.56466 0.00103525 10
-8.80068 -9.84303 -2.56654 0.000586743 10
-10.742 -12.0143 -2.55256 0.00164774 10
-10.7416 -12.0139 -1.97876 0.00167668 10
-10.7444 -12.0169 -1.4103 0.00169861 10
-10.7428 -12.0152 -0.844682 0.00171331 10
-10.7419 -12.0142 -0.281308 0.00172064 10
-10.7452 -12.0178 0.281394 0.00172052 10
-10.7434 -12.0159 0.844728 0.00171295 10
-7.89613 -8.83134 1.03644 0.000370667 10
-5.64446 -6.31299 1.03979 0.00112538 10
-4.39217 -4.91238 1.04369 0.00182943 10
-3.76125 -4.20673 1.09689 0.0139311 10
-3.77218 -4.21896 1.30658 0.0103854 10
-3.77185 -4.21859 1.5163 0.0100992 10
-4.112 -4.63145 -1.65953 0.00448958 10
-7.37223 -8.30354 -2.56356 0.00103531 10
-8.74896 -9.85419 -2.56147 0.000586784 10
-10.6695 -12.0173 -2.54528 0.00165898 10
-10.6739 -12.0223 -1.974 0.00168811 10
-10.6787 -12.0277 -1.40718 0.00171019 10
-10.669 -12.0168 -0.842172 0.00172498 10
-10.6806 -12.0298 -0.280799 0.00173236 10
-10.6781 -12.027 0.280735 0.00173224 10
-10.6743 -12.0228 0.842591 0.00172462 10
-7.8655 -8.85912 1.03647 0.000370611 10
-5.63755 -6.34973 1.04259 0.00112526 10
-4.37124 -4.92344 1.04279 0.00182929 10
-3.72811 -4.19907 1.09149 0.0140163 10
-3.75816 -4.23292 1.30683 0.010449 10
-3.75747 -4.23214 1.51645 0.0101611 10
-4.07861 -4.62628 -1.65257 0.0044898 10
-7.334 -8.31879 -2.56035 0.00103537 10
-8.73118 -9.90358 -2.56637 0.000586826 10
-10.605 -12.029 -2.5399 0.00167021 10
-10.6195 -12.0455 -1.97171 0.00169952 10
-10.6054 -12.0295 -1.40305 0.00172174 10
-10.6089 -12.0334 -0.840734 0.00173663 10
-10.6188 -12.0446 -0.280279 0.00174406 10
-10.6029 -12.0267 0.27986 0.00174393 10
-10.6082 -12.0326 0.840681 0.00173626 10
-7.84173 -8.8947 1.03743 0.000370556 10
-5.61069 -6.36408 1.04173 0.00112514 10
-4.35754 -4.94266 1.04363 0.00182914 10
-3.71613 -4.21512 1.09229 0.0141014 10
-3.73106 -4.23206 1.30254 0.0105125 10
-3.72623 -4.22658 1.50979 0.0102229 10
-3.96633 -4.5307 -1.61347 0.0104271 10
-3.96684 -4.53128 -1.39036 0.0107222 10
-3.95321 -4.51571 -1.1666 0.0109802 10
-3.96469 -4.52883 -0.953326 0.0111987 10
-3.95959 -4.523 -0.738097 0.0113757 10
-3.96585 -4.53016 -0.526754 0.0115097 10
-3.96665 -4.53107 -0.315602 0.0115995 10
-3.94981 -4.51183 -0.104669 0.0116442 10
-3.9682 -4.53283 0.105156 0.0116435 10
-3.95563 -4.51848 0.314725 0.0115973 10
-3.96704 -4.53151 0.526911 0.0115061 10
-3.95842 -4.52166 0.737878 0.0113706 10
-3.96928 -4.53407 0.954428 0.0111922 10
-3.69836 -4.2246 1.09139 0.0141863 10
-3.69847 -4.22473 1.2963 0.0105758 10
-3.71318 -4.24153 1.51049 0.0102845 10
-3.93094 -4.52203 -1.60548 0.0104896 10
-3.93639 -4.5283 -1.38522 0.0107865 10
-3.93557 -4.52735 -1.16605 0.011046 10
-3.93124 -4.52237 -0.949071 0.0112658 10
-3.94248 -4.53531 -0.737854 0.0114439 10
-3.93447 -4.52609 -0.524681 0.0115787 10
-3.9443 -4.5374 -0.315081 0.011669 10
-3.93364 -4.52513 -0.104658 0.0117139 10
-3.93116 -4.52228 0.104592 0.0117132 10
-3.94073 -4.5333 0.314797 0.0116667 10
-3.93018 -4.52115 0.524108 0.011575 10
-3.93385 -4.52537 0.736238 0.0114387 10
-3.92708 -4.51759 0.948069 0.0112593 10
-3.67738 -4.23034 1.08955 0.014271 10
-3.68859 -4.24324 1.29802 0.010639 10
-3.68943 -4.2442 1.50685 0.010346 10
-3.90589 -4.52502 -1.60169 0.010552 10
-3.91929 -4.54054 -1.38477 0.0108507 10
-3.91139 -4.53139 -1.16357 0.0111117 10
-3.92113 -4.54267 -0.950454 0.0113327 10
-3.91489 -4.53545 -0.735649 0.0115118 10
-3.90454 -4.52346 -0.522792 0.0116474 10
-3.90841 -4.52794 -0.313475 0.0117382 10
-3.90375 -4.52254 -0.104282 0.0117835 10
-3.91234 -4.53249 0.104512 0.0117827 10
-3.90591 -4.52504 0.313274 0.011736 10
-3.91044 -4.53028 0.523581 0.0116437 10
-3.91878 -4.53995 0.73638 0.0115067 10
-3.91206 -4.53216 0.948254 0.0113261 10
-3.65444 -4.23371 1.08713 0.0143554 10
-3.65674 -4.23638 1.29201 0.010702 10
-3.65615 -4.23569 1.49928 0.0104073 10
-3.89459 -4.5439 -1.60356 0.0106143 10
-3.88923 -4.53765 -1.37974 0.0109146 10
-3.88376 -4.53126 -1.16004 0.0111771 10
-3.8848 -4.53247 -0.945476 0.0113995 10
-3.88646 -4.5344 -0.733275 0.0115796 10
-3.89671 -4.54637 -0.523866 0.00611557 10
-3.89574 -4.54523 -0.313729 0.00616133 10
-3.89975 -4.54991 -0.104599 0.00618315 10
-3.89492 -4.54428 0.10447 0.00618084 10
-3.89879 -4.5488 0.313975 0.00615441 10
-3.88594 -4.53381 0.522418 0.00610411 10
-3.89958 -4.54972 0.735752 0.00603039 10
-3.89087 -4.53955 0.946954 0.00593391 10
-3.61726 -4.22033 1.08044 0.0144396 10
-3.64986 -4.25837 1.29482 0.0107648 10
-3.64008 -4.24696 1.49876 0.0104684 10
-3.89276 -4.57398 -1.60937 0.00543095 10
-3.89453 -4.57606 -1.38728 0.00558284 10
-3.90787 -4.59174 -1.17203 0.00571529 10
-3.90798 -4.59186 -0.955014 0.00582715 10
-3.90769 -4.59152 -0.740301 0.00591739 10
-3.89969 -4.58212 -0.526413 0.00598521 10
-3.90205 -4.58489 -0.315524 0.00603 10
-3.91003 -4.59427 -0.105304 0.00605135 10
-3.89394 -4.57536 0.104871 0.00604907 10
-3.89902 -4.58133 0.31528 0.00602318 10
-3.9103 -4.59458 0.527844 0.00597391 10
-3.90936 -4.59348 0.740618 0.00590171 10
-3.89576 -4.5775 0.952026 0.00580724 10
-3.60628 -4.23737 1.08157 0.0145236 10
-3.62448 -4.25875 1.29108 0.0108275 10
-3.62781 -4.26267 1.49983 0.0105294 10
-3.90642 -4.62263 -1.62168 0.00531398 10
-3.90315 -4.61876 -1.39609 0.00546265 10
-3.91329 -4.63075 -1.17849 0.0055923 10
-3.91867 -4.63712 -0.961575 0.00570178 10
-3.91736 -4.63556 -0.745193 0.0057901 10
-3.91234 -4.62963 -0.530299 0.00585648 10
-3.90255 -4.61804 -0.316867 0.00590031 10
-3.90982 -4.62664 -0.105733 0.0059212 10
-3.90345 -4.61911 0.105561 0.00591895 10
-3.92061 -4.63942 0.318333 0.00589359 10
-3.90978 -4.6266 0.529952 0.00584535 10
-3.90496 -4.62089 0.742835 0.00577466 10
-3.92275 -4.64195 0.962577 0.00568216 10
-3.58808 -4.24592 1.08056 0.0146073 10
-3.59971 -4.25968 1.28755 0.0108899 10
-3.60883 -4.27048 1.49814 0.0105902 10
-3.92803 -4.68124 -1.63742 0.00519851 10
-3.92359 -4.67595 -1.40922 0.00534399 10
-3.92696 -4.67997 -1.18752 0.00547087 10
-3.92489 -4.6775 -0.967102 0.00557801 10
-3.91896 -4.67044 -0.748596 0.00566444 10
-3.92574 -4.67851 -0.534325 0.00572939 10
-3.92654 -4.67946 -0.320139 0.00577227 10
-3.92776 -4.68093 -0.106659 0.0057927 10
-3.92483 -4.67743 0.10658 0.00579049 10
-3.91771 -4.66894 0.319419 0.00576565 10
-3.93229 -4.68632 0.535217 0.00571842 10
-3.92636 -4.67925 0.750008 0.00564922 10
-3.92601 -4.67884 0.967379 0.00555868 10
-3.56756 -4.25165 1.07884 0.0146908 10
-3.58775 -4.27571 1.2886 0.0109522 10
-3.57988 -4.26634 1.49229 0.0106508 10
-6.10835 -7.33147 -2.55695 0.00166514 10
-7.09486 -8.51551 -2.5589 0.00103585 10
-8.43529 -10.1243 -2.56152 0.00058716 10
-10.1193 -12.1456 -2.50386 0.00175912 10
-10.1263 -12.1539 -1.9424 0.00178993 10
-10.1154 -12.1409 -1.38255 0.00181327 10
-10.1249 -12.1522 -0.828954 0.00182892 10
-10.1312 -12.1598 -0.276265 0.00183672 10
-10.1292 -12.1575 0.276212 0.0018366 10
-10.1243 -12.1516 0.828909 0.00182854 10
-7.59427 -9.11492 1.03797 0.000370103 10
-5.43245 -6.52023 1.04204 0.00112419 10
-4.22829 -5.07495 1.04622 0.00182796 10
-3.53423 -4.24191 1.07323 0.0147741 10
-3.55878 -4.27138 1.28354 0.0110143 10
-3.56128 -4.27437 1.49075 0.0107112 10
-6.09172 -7.36363 -2.56073 0.00166522 10
-7.07546 -8.55276 -2.56266 0.00103592 10
-8.39758 -10.1509 -2.56081 0.000587203 10
-10.0703 -12.1729 -2.50223 0.00177011 10
-10.0562 -12.1559 -1.93709 0.0018011 10
-10.0625 -12.1635 -1.38112 0.00182459 10
-10.0588 -12.159 -0.827016 0.00184033 10
-10.0641 -12.1654 -0.275593 0.00184818 10
-10.0696 -12.172 0.275743 0.00184805 10
-10.0619 -12.1627 0.827266 0.00183995 10
-7.55801 -9.13606 1.03736 0.000370046 10
-5.41515 -6.54579 1.0431 0.00112407 10
-4.20444 -5.08229 1.0447 0.00182782 10
-3.5117 -4.24492 1.07088 0.014857 10
-3.54138 -4.2808 1.28265 0.0110762 10
-3.54146 -4.28089 1.4887 0.0107714 10
-6.0594 -7.37683 -2.55795 0.00166531 10
-7.04123 -8.57213 -2.56108 0.00103598 10
-8.37853 -10.2002 -2.56585 0.000587245 10
-9.99783 -12.1716 -2.49476 0.00178107 10
-10.0004 -12.1747 -1.93451 0.00181224 10
-10.0101 -12.1865 -1.37975 0.00183587 10
-9.99462 -12.1676 -0.825225 0.00185171 10
-9.99358 -12.1664 -0.274823 0.0018596 10
-10.0058 -12.1813 0.275159 0.00185947 10
-9.99728 -12.1709 0.825445 0.00185132 10
-7.52388 -9.15972 1.03706 0.000369988 10
-5.37628 -6.54519 1.04001 0.00112395 10
-4.18761 -5.09808 1.04494 0.00182767 10
-3.4971 -4.25744 1.07095 0.0149397 10
-3.50975 -4.27283 1.27659 0.0111379 10
-3.52409 -4.2903 1.48768 0.0108314 10
-6.02869 -7.39191 -2.55587 0.00166539 10
-7.01827 -8.60525 -2.56364 0.00103604 10
-8.33815 -10.2236 -2.5644 0.000587288 10
-9.94527 -12.1941 -2.49225 0.00179199 10
-9.93477 -12.1812 -1.93003 0.00182335 10
-9.94373 -12.1922 -1.37646 0.00184712 10
-9.93789 -12.185 -0.824048 0.00186305 10
-9.93792 -12.1851 -0.27446 0.00187099 10
-9.93774 -12.1849 0.274455 0.00187086 10
-9.95198 -12.2023 0.825217 0.00186266 10
-7.49609 -9.19111 1.03765 0.00036993 10
-5.35692 -6.56823 1.04069 0.00112383 10
-4.16961 -5.11245 1.04489 0.00182751 10
-3.47412 -4.2597 1.06847 0.0150221 10
-3.48955 -4.27861 1.27466 0.0111994 10
-3.50196 -4.29382 1.48466 0.0108913 10
-3.71232 -4.58434 -1.58062 0.0111055 10
-3.70777 -4.57871 -1.36021 0.0114194 10
-3.70941 -4.58074 -1.14574 0.0116938 10
-3.71262 -4.5847 -0.934374 0.0119262 10
-3.71632 -4.58927 -0.725079 0.0121145 10
-3.71654 -4.58955 -0.516677 0.0122571 10
-3.70967 -4.58106 -0.30893 0.0123526 10
-3.70746 -4.57833 -0.102831 0.0124002 10
-3.70956 -4.58092 0.10289 0.0123994 10
-3.70682 -4.57754 0.308692 0.0123503 10
-3.71522 -4.58791 0.516493 0.0122532 10
-3.71054 -4.58213 0.72395 0.0121092 10
-3.70948 -4.58083 0.933585 0.0119194 10
-3.45651 -4.26844 1.06762 0.0151043 10
-3.47126 -4.28665 1.27344 0.0112607 10
-3.46801 -4.28264 1.47659 0.0109509 10
-3.68985 -4.58925 -1.57786 0.011166 10
-3.68886 -4.58801 -1.35914 0.0114816 10
-3.68348 -4.58133 -1.14266 0.0117575 10
-3.69362 -4.59393 -0.933623 0.0119911 10
-3.68615 -4.58465 -0.722311 0.0121804 10
-3.69146 -4.59126 -0.515415 0.0123237 10
-3.68819 -4.58718 -0.308472 0.0124197 10
-3.68026 -4.57732 -0.10252 0.0124676 10
-3.69314 -4.59334 0.102878 0.0124668 10
-3.69045 -4.58999 0.308661 0.0124174 10
-3.68384 -4.58177 0.51435 0.0123199 10
-3.68856 -4.58765 0.722783 0.0121751 10
-3.68706 -4.58577 0.931964 0.0119843 10
-3.43875 -4.27694 1.06674 0.0151861 10
-3.45412 -4.29606 1.27265 0.0113218 10
-3.45407 -4.296 1.47703 0.0110103 10
-3.65775 -4.58198 -1.57096 0.0112262 10
-3.66888 -4.59593 -1.35768 0.0115435 10
-3.66641 -4.59284 -1.14233 0.0118209 10
-3.66365 -4.58937 -0.930092 0.0120557 10
-3.65624 -4.58009 -0.719577 0.0122461 10
-3.65644 -4.58034 -0.512754 0.0123901 10
-3.6613 -4.58643 -0.30756 0.0124866 10
-3.67053 -4.59799 -0.102695 0.0125347 10
-3.65718 -4.58128 0.102322 0.0125339 10
-3.66697 -4.59353 0.308037 0.0124843 10
-3.65948 -4.58415 0.51318 0.0123862 10
-3.67086 -4.5984 0.722454 0.0122407 10
-3.6622 -4.58756 0.929724 0.0120489 10
-3.41772 -4.2813 1.06485 0.0152677 10
-3.4333 -4.30082 1.2705 0.0113826 10
-3.43109 -4.29806 1.47362 0.0110695 10
-3.64742 -4.60189 -1.57341 0.0112863 10
-3.64068 -4.59339 -1.35317 0.0116052 10
-3.64427 -4.59793 -1.14043 0.011884 10
-3.63963 -4.59207 -0.928058 0.0121201 10
-3.63819 -4.59025 -0.719174 0.0123115 10
-3.65095 -4.60635 -0.514236 0.0124563 10
-3.63703 -4.58879 -0.306865 0.0125533 10
-3.63735 -4.5892 -0.102214 0.0126016 10
-3.64847 -4.60323 0.102527 0.0126008 10
-3.64258 -4.59579 0.307334 0.0125509 10
-3.65015 -4.60535 0.514124 0.0124524 10
-3.63521 -4.58649 0.718585 0.0123061 10
-3.64392 -4.59748 0.92915 0.0121133 10
-3.38706 -4.27341 1.05994 0.0153489 10
-3.40576 -4.297 1.26585 0.0114432 10
-3.41336 -4.30659 1.47245 0.0111285 10
-3.63169 -4.61505 -1.57357 0.00530894 10
-3.63055 -4.61361 -1.35538 0.00545698 10
-3.6225 -4.60337 -1.13864 0.00558606 10
-3.6368 -4.62155 -0.931444 0.00569503 10
-3.62546 -4.60714 -0.719832 0.00578291 10
-3.62105 -4.60153 -0.512284 0.0058489 10
-3.63644 -4.62109 -0.308174 0.00589241 10
-3.63113 -4.61435 -0.102492 0.00591306 10
-3.63929 -4.62472 0.102722 0.00591066 10
-3.62981 -4.61266 0.307613 0.00588523 10
-3.6289 -4.61151 0.513394 0.00583699 10
-3.64018 -4.62585 0.722756 0.00576638 10
-3.63954 -4.62502 0.932144 0.00567404 10
-3.37682 -4.29118 1.06142 0.0154299 10
-3.39736 -4.31728 1.26833 0.0115036 10
-3.38442 -4.30083 1.46643 0.0111873 10
-3.63755 -4.65585 -1.58314 0.0051833 10
-3.63709 -4.65526 -1.36388 0.0053279 10
-3.64546 -4.66598 -1.15097 0.00545397 10
-3.63321 -4.65029 -0.934676 0.00556039 10
-3.63947 -4.6583 -0.725838 0.00564621 10
-3.6381 -4.65656 -0.516993 0.00571066 10
-3.64532 -4.66579 -0.310305 0.00575315 10
-3.63755 -4.65585 -0.103131 0.0057733 10
-3.63785 -4.65623 0.103139 0.00577094 10
-3.64254 -4.66224 0.310069 0.00574607 10
-3.64819 -4.66947 0.518426 0.00569894 10
-3.63703 -4.65519 0.725352 0.00562995 10
-3.64358 -4.66357 0.937343 0.00553973 10
-3.3564 -4.296 1.0597 0.0155105 10
-3.37647 -4.32168 1.26615 0.0115637 10
-3.37176 -4.31565 1.46746 0.0112458 10
-3.65388 -4.71056 -1.5974 0.00505945 10
-3.65877 -4.71686 -1.37817 0.00520065 10
-3.65363 -4.71023 -1.15873 0.00532375 10
-3.6445 -4.69847 -0.941795 0.00542767 10
-3.64296 -4.69648 -0.7298 0.00551146 10
-3.65683 -4.71435 -0.521989 0.00557439 10
-3.64681 -4.70145 -0.311828 0.00561586 10
-3.65202 -4.70815 -0.104006 0.00563553 10
-3.65349 -4.71005 0.104048 0.0056332 10
-3.66296 -4.72226 0.313208 0.0056089 10
-3.65673 -4.71423 0.521976 0.00556285 10
-3.65275 -4.7091 0.731761 0.00549546 10
-3.65328 -4.70978 0.944063 0.00540734 10
-3.33817 -4.30354 1.05868 0.0155908 10
-3.35498 -4.32522 1.26375 0.0116237 10
-3.35182 -4.32114 1.46534 0.0113041 10
-3.66274 -4.75617 -1.60852 0.00493741 10
-3.66754 -4.76239 -1.38773 0.00507526 10
-3.66867 -4.76386 -1.16877 0.00519544 10
-3.65603 -4.74745 -0.949049 0.00529688 10
-3.65418 -4.74505 -0.735362 0.00537868 10
-3.66346 -4.75709 -0.525303 0.0054401 10
-3.6594 -4.75182 -0.31432 0.00548058 10
-3.66891 -4.76418 -0.10496 0.00549977 10
-3.67343 -4.77004 0.10509 0.00549748 10
-3.67428 -4.77115 0.315599 0.00547373 10
-3.67141 -4.76742 0.526443 0.00542875 10
-3.67341 -4.77002 0.73923 0.00536293 10
-3.66492 -4.75899 0.951357 0.00527688 10
-3.31042 -4.29867 1.05464 0.0156707 10
-3.32505 -4.31766 1.25814 0.0116833 10
-3.32743 -4.32075 1.46126 0.0113621 10
-5.80953 -7.59854 -2.56292 0.00166617 10
-6.73148 -8.8044 -2.55868 0.00103661 10
-8.01748 -10.4864 -2.56586 0.000587679 10
-9.40543 -12.3018 -2.45264 0.00188876 10
-9.42192 -12.3234 -1.9047 0.00192174 10
-9.41275 -12.3114 -1.35585 0.00194673 10
-9.41518 -12.3145 -0.812394 0.00196348 10
-9.40777 -12.3049 -0.270365 0.00197183 10
-9.4191 -12.3197 0.270691 0.0019717 10
-9.40591 -12.3024 0.811594 0.00196308 10
-7.20725 -9.42668 1.03816 0.000369401 10
-5.16295 -6.75285 1.04372 0.00112272 10
-4.01151 -5.24684 1.04608 0.00182614 10
-3.29206 -4.30584 1.05357 0.0157503 10
-3.30703 -4.32541 1.25703 0.0117427 10
-3.30614 -4.32425 1.45853 0.0114199 10
-5.7802 -7.61514 -2.5617 0.00166626 10
-6.70007 -8.82702 -2.55844 0.00103667 10
-7.97939 -10.5125 -2.5654 0.000587724 10
-9.36164 -12.3335 -2.45243 0.00189931 10
-9.35418 -12.3237 -1.89969 0.00193247 10
-9.35914 -12.3302 -1.35432 0.00195759 10
-9.3514 -12.32 -0.810597 0.00197444 10
-9.35661 -12.3269 -0.27013 0.00198283 10
-9.35489 -12.3246 0.27008 0.0019827 10
-9.348 -12.3155 0.810302 0.00197403 10
-7.18195 -9.46187 1.03927 0.000369341 10
-5.13523 -6.76542 1.04288 0.00112259 10
-3.99399 -5.26188 1.04629 0.00182598 10
-3.26643 -4.30336 1.05017 0.0158296 10
-3.29715 -4.34384 1.25903 0.0118019 10
-3.2949 -4.34087 1.46025 0.0114775 10
-5.75157 -7.6326 -2.5608 0.00166634 10
-6.66706 -8.84749 -2.55762 0.00103674 10
-7.93442 -10.5293 -2.56274 0.000587768 10
-9.30367 -12.3464 -2.44852 0.00190983 10
-9.30552 -12.3488 -1.89855 0.00194316 10
-9.30101 -12.3428 -1.35213 0.00196842 10
-9.28995 -12.3282 -0.808996 0.00198535 10
-9.30064 -12.3424 -0.269756 0.00199379 10
-9.29484 -12.3347 0.269588 0.00199365 10
-9.29251 -12.3316 0.809218 0.00198494 10
-7.14874 -9.48669 1.03925 0.000369281 10
-5.10988 -6.78103 1.04254 0.00112247 10
-3.97133 -5.27014 1.04517 0.00182583 10
-3.25257 -4.3163 1.05055 0.0159085 10
-3.27258 -4.34286 1.25543 0.0118608 10
-3.26541 -4.33335 1.45388 0.0115348 10
-5.71277 -7.63642 -2.55538 0.00166643 10
-6.6501 -8.88937 -2.563 0.0010368 10
-7.89544 -10.554 -2.56203 0.000587812 10
-9.23497 -12.3446 -2.44177 0.0019203 10
-9.23497 -12.3446 -1.89293 0.0019538 10
-9.23587 -12.3458 -1.34892 0.00197919 10
-9.23272 -12.3416 -0.807758 0.00199622 10
-9.2374 -12.3479 -0.269171 0.0020047 10
-9.23513 -12.3449 0.269104 0.00200457 10
-9.24027 -12.3517 0.808419 0.00199581 10
-7.11147 -9.50609 1.03864 0.000369221 10
-5.09101 -6.80529 1.04353 0.00112234 10
-3.94454 -5.27278 1.04295 0.00182567 10
-3.23614 -4.32583 1.05011 0.0159871 10
-3.24118 -4.33258 1.24918 0.0119194 10
-3.25262 -4.34787 1.45493 0.0115918 10
-5.69661 -7.6705 -2.56011 0.00166652 10
-6.60453 -8.89301 -2.55738 0.00103687 10
-7.85234 -10.5732 -2.56001 0.000587857 10
-9.18443 -12.3668 -2.4398 0.00193072 10
-9.1798 -12.3606 -1.89046 0.0019644 10
-9.1871 -12.3704 -1.34809 0.00198993 10
-9.18421 -12.3665 -0.807286 0.00200704 10
-9.17963 -12.3604 -0.268743 0.00201557 10
-9.17721 -12.3571 0.268672 0.00201543 10
-9.18278 -12.3646 0.80716 0.00200663 10
-7.07934 -9.53234 1.03881 0.000369161 10
-5.05428 -6.80559 1.04086 0.00112222 10
-3.93371 -5.29674 1.04497 0.00182552 10
-3.21272 -4.32593 1.04741 0.0160653 10
-3.22721 -4.34544 1.24963 0.0119777 10
-3.22642 -4.34438 1.44998 0.0116486 10
-5.66159 -7.6792 -2.55641 0.00166661 10
-6.58714 -8.93458 -2.56271 0.00103693 10
-7.82253 -10.6102 -2.56235 0.000587902 10
-9.13085 -12.3848 -2.43704 0.0019411 10
-9.12378 -12.3752 -1.88781 0.00197496 10
-9.13394 -12.389 -1.34663 0.00200061 10
-9.11908 -12.3688 -0.805352 0.00201781 10
-9.13134 -12.3854 -0.268593 0.00202638 10
-9.12763 -12.3804 0.268484 0.00202625 10
-9.12662 -12.379 0.806017 0.0020174 10
-7.05233 -9.56555 1.03974 0.0003691 10
-5.03766 -6.83292 1.04235 0.00112209 10
-3.90825 -5.30102 1.04312 0.00182536 10
-3.19423 -4.33255 1.0463 0.0161432 10
-3.20134 -4.34219 1.24547 0.0120358 10
-3.21573 -4.36171 1.45201 0.0117051 10
-5.64134 -7.70791 -2.55939 0.0016667 10
-6.54776 -8.94637 -2.55952 0.001037 10
-7.78497 -10.6368 -2.56219 0.000587947 10
-8.95717 -12.2384 -2.40207 0.00201596 10
-8.96216 -12.2452 -1.8632 0.00205104 10
-8.95256 -12.2321 -1.32618 0.00207763 10
-8.94945 -12.2279 -0.794135 0.00209545 10
-8.96083 -12.2434 -0.264833 0.00210433 10
-8.9527 -12.2323 0.264592 0.00210419 10
-8.95192 -12.2312 0.794355 0.00209503 10
-7.00963 -9.57745 1.03836 0.00036904 10
-5.00607 -6.83992 1.04074 0.00112196 10
-3.88822 -5.31258 1.04272 0.0018252 10
-3.17219 -4.33424 1.04403 0.00343944 10
-3.18433 -4.35083 1.24476 0.0120936 10
-3.18711 -4.35463 1.44594 0.0117613 10
-5.62015 -7.73546 -2.56201 0.00166679 10
-6.52295 -8.97807 -2.56206 0.00103706 10
-7.74441 -10.6593 -2.56107 0.000587992 10
-8.89786 -12.2468 -2.39761 0.00202657 10
-8.89693 -12.2456 -1.85851 0.00206183 10
-8.89202 -12.2388 -1.32353 0.00208854 10
-8.90433 -12.2558 -0.793923 0.00210646 10
-8.89425 -12.2419 -0.264127 0.00211539 10
-8.89553 -12.2436 0.264164 0.00211524 10
-8.89966 -12.2493 0.793506 0.00210603 10
-6.97853 -9.60511 1.03872 0.000368979 10
-4.99092 -6.8694 1.04257 0.00112183 10
-3.87699 -5.33622 1.04469 0.00182504 10
-3.16784 -4.36015 1.0476 0.0034392 10
-3.17198 -4.36585 1.24588 0.0121511 10
-3.17108 -4.36462 1.44558 0.0118173 10
-5.58495 -7.74372 -2.55827 0.00166688 10
-6.4789 -8.98321 -2.55706 0.00103713 10
-7.71154 -10.6923 -2.56253 0.000588037 10
-8.84138 -12.2589 -2.39391 0.00203712 10
-8.84025 -12.2573 -1.8556 0.00207256 10
-8.84221 -12.26 -1.32248 0.00209941 10
-8.83942 -12.2562 -0.791945 0.00211741 10
-8.84069 -12.2579 -0.263805 0.00212639 10
-8.83962 -12.2564 0.263773 0.00212624 10
-8.84704 -12.2667 0.792628 0.00211698 10
-6.94014 -9.62273 1.03799 0.000368918 10
-4.95958 -6.87662 1.04103 0.00112171 10
-3.86056 -5.35279 1.04529 0.00182488 10
-3.13979 -4.35342 1.04335 0.00343896 10
-3.1526 -4.37118 1.24425 0.0122083 10
-3.15286 -4.37155 1.44422 0.011873 10
-5.5654 -7.77367 -2.56173 0.00166697 10
-6.45376 -9.01451 -2.55954 0.0010372 10
-7.68086 -10.7285 -2.56477 0.000588082 10
-8.79026 -12.2781 -2.39166 0.00204763 10
-8.79155 -12.2799 -1.85436 0.00208324 10
-8.78429 -12.2698 -1.32021 0.00211022 10
-8.78613 -12.2723 -0.791004 0.00212831 10
-8.7893 -12.2768 -0.263549 0.00213733 10
-8.78235 -12.2671 0.26334 0.00213719 10
-8.78048 -12.2644 0.790495 0.00212788 10
-6.91693 -9.66146 1.03956 0.000368857 10
-4.94713 -6.91008 1.04348 0.00112158 10
-3.83309 -5.354 1.04291 0.00182472 10
-3.13039 -4.37249 1.04529 0.00343872 10
-3.12454 -4.36431 1.23918 0.0122652 10
-3.13049 -4.37262 1.44095 0.0119284 10
-5.52708 -7.77735 -2.55658 0.00166706 10
-6.42905 -9.04655 -2.56225 0.00103726 10
-7.63965 -10.75 -2.56352 0.000588128 10
-8.73058 -12.2851 -2.38707 0.00205808 10
-8.73238 -12.2877 -1.85092 0.00209387 10
-8.72919 -12.2832 -1.31837 0.00212098 10
-8.72449 -12.2766 -0.789308 0.00213916 10
-8.73253 -12.2879 -0.263131 0.00214822 10
-8.7287 -12.2825 0.263016 0.00214808 10
-8.72559 -12.2781 0.789408 0.00213873 10
-6.87818 -9.67853 1.03881 0.000368795 10
-4.91523 -6.91639 1.04183 0.00112145 10
-3.82151 -5.37738 1.04486 0.00182457 10
-3.12158 -4.39249 1.04746 0.00343847 10
-3.11585 -4.38442 1.2418 0.0123218 10
-3.11482 -4.38298 1.44078 0.0119834 10
-5.50349 -7.8017 -2.55825 0.00166715 10
-6.39871 -9.07075 -2.56276 0.00103733 10
-7.59808 -10.771 -2.56217 0.000588174 10
-8.66961 -12.29 -2.38212 0.00206848 10
-8.67748 -12.3011 -1.84837 0.00210444 10
-8.6773 -12.3009 -1.31701 0.00213169 10
-8.67635 -12.2995 -0.788832 0.00214995 10
-8.67273 -12.2944 -0.262621 0.00215906 10
-8.68028 -12.3051 0.262849 0.00215892 10
-8.67919 -12.3035 0.78909 0.00214952 10
-6.83854 -9.69424 1.03793 0.000368734 10
-4.88877 -6.93027 1.04135 0.00112132 10
-3.80065 -5.38776 1.04429 0.00182441 10
-3.10284 -4.39856 1.04632 0.00343823 10
-3.08106 -4.36768 1.234 0.0123781 10
-3.09162 -4.38264 1.43711 0.0120382 10
-5.47587 -7.82035 -2.55808 0.00166724 10
-6.35778 -9.07985 -2.55905 0.00103739 10
-7.55399 -10.7882 -2.55999 0.000588219 10
-8.62616 -12.3194 -2.38198 0.00207883 10
-8.61903 -12.3093 -1.84506 0.00211496 10
-8.62889 -12.3233 -1.31618 0.00214234 10
-8.61762 -12.3072 -0.787393 0.00216069 10
-8.62513 -12.318 -0.26248 0.00216984 10
-8.61513 -12.3037 0.262175 0.0021697 10
-8.61332 -12.3011 0.787 0.00216026 10
-6.80418 -9.71738 1.03785 0.000368672 10
-4.8765 -6.96436 1.0439 0.00112119 10
-3.77577 -5.39235 1.04262 0.00182424 10
-3.09343 -4.41788 1.04834 0.00343799 10
-3.07539 -4.39211 1.23786 0.0124341 10
-3.06477 -4.37695 1.43172 0.0120927 10
-5.45295 -7.84577 -2.56015 0.00166733 10
-6.33318 -9.11224 -2.56193 0.00103746 10
-7.5183 -10.8174 -2.56067 0.000588265 10
-8.56653 -12.3256 -2.37738 0.00208912 10
-8.57129 -12.3325 -1.84405 0.00212542 10
-8.57292 -12.3348 -1.3142 0.00215293 10
-8.56113 -12.3179 -0.786156 0.00217137 10
-8.56592 -12.3247 -0.261986 0.00218057 10
-8.57248 -12.3342 0.262186 0.00218042 10
-8.56884 -12.3289 0.786864 0.00217094 10
-6.77225 -9.74399 1.03817 0.00036861 10
-4.84121 -6.96559 1.04155 0.00112106 10
-3.76274 -5.41388 1.04424 0.00182408 10
-3.07086 -4.41839 1.04591 0.00343774 10
-3.04881 -4.38667 1.23332 0.0124898 10
-3.04238 -4.37741 1.42839 0.0121469 10
-5.42644 -7.86608 -2.56058 0.00166742 10
-6.2953 -9.12556 -2.55948 0.00103753 10
-7.48707 -10.8531 -2.56292 0.000588311 10
-8.50812 -12.3332 -2.37311 0.00209935 10
-8.50771 -12.3326 -1.83962 0.00213583 10
-8.51861 -12.3484 -1.31248 0.00216347 10
-8.50995 -12.3359 -0.785406 0.00218199 10
-8.5084 -12.3336 -0.261542 0.00219123 10
-8.51736 -12.3466 0.261817 0.00219108 10
-8.51461 -12.3426 0.785836 0.00218156 10
-6.73965 -9.76968 1.03839 0.000368548 10
-4.81503 -6.97978 1.04115 0.00112093 10
-3.75235 -5.43933 1.04661 0.00182392 10
-3.05586 -4.42972 1.04606 0.0034375 10
-3.02838 -4.38988 1.23125 0.0125451 10
-3.0235 -4.38281 1.4267 0.0122008 10
-5.38658 -7.8669 -2.55472 0.00166751 10
-6.26655 -9.15207 -2.56077 0.00103759 10
-7.45365 -10.8858 -2.56447 0.000588358 10
-8.47924 -12.3836 -2.37709 0.000820914 10
-8.4811 -12.3863 -1.8432 0.000834791 10
-8.47933 -12.3837 -1.31308 0.000845205 10
-8.48317 -12.3893 -0.78692 0.000852056 10
-8.47275 -12.3741 -0.261772 0.000855274 10
-8.47782 -12.3815 0.261928 0.000854828 10
-8.48318 -12.3894 0.786921 0.000850722 10
-6.70371 -9.79052 1.03811 0.000368486 10
-4.78982 -6.99536 1.04097 0.0011208 10
-3.7331 -5.45206 1.04655 0.00182376 10
-3.03581 -4.43369 1.04449 0.00343725 10
-3.00084 -4.38262 1.22626 0.0165034 10
-3.01785 -4.40745 1.43129 0.0122543 10
-5.37409 -7.90773 -2.56187 0.0016676 10
-6.23876 -9.18005 -2.56248 0.00103766 10
-7.41356 -10.9087 -2.56376 0.000588404 10
-8.51268 -12.526 -2.39871 0.000795348 10
-8.50281 -12.5115 -1.8574 0.000808807 10
-8.50078 -12.5085 -1.32315 0.000818907 10
-8.51168 -12.5245 -0.793615 0.000825549 10
-8.50523 -12.5151 -0.264123 0.000828667 10
-8.51869 -12.5349 0.264541 0.00082823 10
-8.5178 -12.5336 0.794186 0.000824243 10
-6.68194 -9.83218 1.04005 0.000368424 10
-4.7802 -7.03385 1.04421 0.00112067 10
-3.69903 -5.44296 1.04232 0.0018236 10
-3.02586 -4.45242 1.04641 0.00343701 10
-2.97915 -4.38369 1.22365 0.0165751 10
-2.98641 -4.39436 1.42364 0.0123075 10
-5.34151 -7.91911 -2.5595 0.00166769 10
-6.20737 -9.2028 -2.56277 0.00103773 10
-7.37636 -10.9359 -2.56409 0.00058845 10
-8.53272 -12.6503 -2.41679 0.000770291 10
-8.53932 -12.6601 -1.87502 0.000783339 10
-8.53695 -12.6565 -1.33565 0.000793131 10
-8.53851 -12.6589 -0.800232 0.000799569 10
-8.54127 -12.6629 -0.266613 0.000802589 10
-8.55332 -12.6808 0.266989 0.000802161 10
-8.54553 -12.6693 0.800891 0.000798291 10
-6.63557 -9.83764 1.03817 0.000368361 10
-4.75201 -7.04515 1.04342 0.00112054 10
-3.68421 -5.46206 1.04351 0.00182344 10
-3.00801 -4.45956 1.04561 0.00343676 10
-2.95288 -4.37782 1.21912 0.0166463 10
-2.97502 -4.41065 1.42555 0.0123604 10
-5.30803 -7.92905 -2.5567 0.00166779 10
-6.1679 -9.2135 -2.55974 0.0010378 10
-7.33757 -10.9607 -2.56389 0.000588497 10
-8.69463 -12.9879 -2.47547 0.000319613 10
-8.58448 -12.8233 0.269358 0.000776619 10
-8.58455 -12.8234 0.808738 0.000772862 10
-6.60941 -9.87302 1.03946 0.000368298 10
-4.72173 -7.05323 1.04217 0.00112041 10
-3.66565 -5.47567 1.04366 0.00182327 10
-2.99285 -4.47066 1.04576 0.00343651 10
-2.94445 -4.39836 1.22197 0.016717 10
-2.95777 -4.41826 1.42466 0.012413 10
-5.28171 -7.94961 -2.55737 0.00166788 10
-6.13456 -9.23325 -2.55926 0.00103786 10
-7.30057 -10.9882 -2.56435 0.000588544 10
-8.71423 -13.116 -2.49407 0.000699471 10
-8.6193 -12.9731 0.27187 0.000751597 10
-8.62131 -12.9761 0.816463 0.000747952 10
-6.5674 -9.88473 1.03828 0.000368235 10
-4.70156 -7.07642 1.04317 0.00112027 10
-3.65317 -5.49846 1.04556 0.00182311 10
-2.97662 -4.48017 1.04554 0.00343626 10
-2.91877 -4.3931 1.21767 0.0167873 10
-2.92581 -4.4037 1.41666 0.0124653 10
-5.251 -7.96356 -2.55595 0.00166797 10
-6.10877 -9.26443 -2.56198 0.00103793 10
-7.25802 -11.0074 -2.56288 0.00058859 10
-8.75345 -13.2753 -2.51854 0.000676601 10
-8.65475 -13.1256 0.274431 0.000727093 10
-8.64398 -13.1093 0.822938 0.000723558 10
-6.54828 -9.93098 1.04073 0.000368172 10
-4.67586 -7.09132 1.04295 0.00112014 10
-3.63088 -5.50652 1.04468 0.00182294 10
-2.95575 -4.48263 1.0437 0.00343601 10
-2.90373 -4.40373 1.2178 0.0168571 10
-2.91152 -4.41556 1.4172 0.0125172 10
-5.23027 -7.99269 -2.55942 0.00166807 10
-6.07314 -9.28073 -2.56061 0.001038 10
-7.2223 -11.0368 -2.56385 0.000588637 10
-8.76921 -13.4008 -2.53652 0.000300609 10
-8.69203 -13.2828 0.277082 0.000703103 10
-8.69177 -13.2824 0.831898 0.000699676 10
-6.50973 -9.9479 1.04011 0.000368109 10
-4.64807 -7.10299 1.04227 0.00112001 10
-3.61282 -5.52096 1.04502 0.00182278 10
-2.95337 -4.51322 1.04842 0.00343576 10
-2.87928 -4.4 1.21399 0.0169265 10
-2.8972 -4.42738 1.41774 0.0125687 10
-5.19509 -7.99974 -2.55586 0.00166816 10
-6.03628 -9.29505 -2.55873 0.00103807 10
-7.18364 -11.0618 -2.56382 0.000588684 10
-8.70889 -13.4105 -2.5326 0.000652515 10
-8.72537 -13.4359 0.279638 0.000679624 10
-8.7262 -13.4372 0.839677 0.000676303 10
-6.47839 -9.97583 1.04066 0.000368046 10
-4.6315 -7.13188 1.04413 0.00111987 10
-3.5962 -5.53766 1.0458 0.00182261 10
-2.93891 -4.52551 1.04889 0.00343551 10
-2.86588 -4.41307 1.21482 0.0169954 10
-2.87216 -4.42274 1.41303 0.0126199 10
-5.16771 -8.01871 -2.55614 0.00166825 10
-6.00679 -9.32071 -2.56001 0.00103814 10
-7.14041 -11.0797 -2.56218 0.000588732 10
-8.7504 -13.578 -2.55844 0.000630434 10
-8.75425 -13.5839 0.282082 0.000656648 10
-8.76449 -13.5998 0.847925 0.000653432 10
-6.43315 -9.9823 1.03899 0.000367982 10
-4.59903 -7.1363 1.04242 0.00111974 10
-3.57887 -5.55332 1.04639 0.00182245 10
-2.91728 -4.52673 1.0468 0.00343526 10
-2.84209 -4.41006 1.21126 0.0170639 10
-2.86304 -4.44257 1.41617 0.0126708 10
-5.13898 -8.0356 -2.55579 0.00166835 10
-5.97603 -9.34446 -2.56078 0.00103821 10
-7.09595 -11.0956 -2.56011 0.000588779 10
-8.72472 -13.6425 -2.56484 0.000291704 10
-8.7917 -13.7472 0.284833 0.000634178 10
-8.79473 -13.7519 0.855489 0.000631064 10
-6.41029 -10.0235 1.04094 0.000367918 10
-4.57113 -7.14768 1.04175 0.00111961 10
-3.54903 -5.54947 1.04332 0.00182228 10
-2.89638 -4.52894 1.04497 0.00343501 10
-2.8224 -4.41326 1.20942 0.0171318 10
-2.83702 -4.43612 1.41095 0.0127213 10
-5.1086 -8.04987 -2.55464 0.00166844 10
-5.94168 -9.36259 -2.56005 0.00103828 10
-7.06157 -11.1272 -2.5617 0.000588827 10
-8.67566 -13.6706 -2.56443 0.000291734 10
-8.83408 -13.9203 0.287778 0.000612205 10
-8.83053 -13.9147 0.863691 0.00060919 10
-6.36986 -10.0373 1.04006 0.000367855 10
-4.54902 -7.16811 1.04241 0.00111947 10
-3.53417 -5.56895 1.04466 0.00182212 10
-2.88499 -4.54602 1.04658 0.00343476 10
-2.80632 -4.42205 1.20914 0.0171993 10
-2.81993 -4.44349 1.41015 0.0127714 10
-5.0902 -8.08309 -2.55953 0.00166854 10
-5.90592 -9.37844 -2.55873 0.00103835 10
-7.0224 -11.1514 -2.5616 0.000588874 10
-8.63367 -13.71 -2.56615 0.000291764 10
-8.87866 -14.0991 0.290832 0.000590726 10
-8.88473 -14.1087 0.873803 0.000587808 10
-6.32513 -10.0441 1.03847 0.00036779 10
-4.53041 -7.19417 1.04389 0.00111934 10
-3.50974 -5.57336 1.04318 0.00182195 10
-2.86551 -4.55035 1.04527 0.0034345 10
-2.78176 -4.41736 1.20519 0.0172662 10
-2.80087 -4.44771 1.40838 0.0128212 10
-5.06614 -8.10752 -2.56165 0.00166863 10
-5.87696 -9.4051 -2.5604 0.00103842 10
-6.98583 -11.1797 -2.56248 0.000588922 10
-8.58352 -13.7365 -2.56548 0.000291794 10
-8.91806 -14.2719 0.293753 0.000569736 10
-8.92378 -14.281 0.882541 0.000566914 10
-6.2964 -10.0764 1.03952 0.000367726 10
-4.49974 -7.20109 1.04261 0.0011192 10
-3.49806 -5.59807 1.04551 0.00182178 10
-2.85439 -4.56798 1.04702 0.00343425 10
-2.76097 -4.41847 1.20286 0.0173327 10
-2.77643 -4.44321 1.40388 0.0128706 10
-5.03073 -8.11374 -2.55805 0.00166872 10
-5.84241 -9.42284 -2.55966 0.00103848 10
-6.9428 -11.1976 -2.56102 0.00058897 10
-8.53563 -13.7666 -2.56551 0.000291824 10
-8.95132 -14.437 0.296506 0.000549231 10
-8.95401 -14.4413 0.890511 0.000546503 10
-6.26985 -10.1122 1.04096 0.000367662 10
-4.47745 -7.22138 1.04328 0.00111907 10
-3.47083 -5.59787 1.04321 0.00182162 10
-2.84156 -4.58297 1.04818 0.003434 10
-2.75188 -4.43833 1.20565 0.0173987 10
-2.76126 -4.45346 1.40406 0.0129196 10
-5.00022 -8.12774 -2.55695 0.00166882 10
-5.80179 -9.43067 -2.55627 0.00103855 10
-6.90114 -11.2176 -2.56008 0.000589018 10
-8.48206 -13.7874 -2.56386 0.000291854 10
-8.99637 -14.6234 0.299688 0.000529208 10
-8.99801 -14.626 0.899958 0.000526571 10
-6.22866 -10.1245 1.03998 0.000367597 10
-4.45125 -7.2354 1.04305 0.00111893 10
-3.46132 -5.6263 1.04625 0.00182145 10
-2.81738 -4.57959 1.04515 0.00343374 10
-2.7265 -4.43186 1.20129 0.0174641 10
-2.74088 -4.45523 1.40159 0.0129682 10
-4.97551 -8.15119 -2.55885 0.00166891 10
-5.77974 -9.46873 -2.5611 0.00103862 10
-6.87197 -11.2581 -2.56382 0.000589066 10
-8.43039 -13.8112 -2.5628 0.000291884 10
-9.04944 -14.8254 0.303178 0.000509661 10
-9.03689 -14.8048 0.909011 0.000507114 10
-6.19365 -10.1468 1.04005 0.000367533 10
-4.42983 -7.25723 1.04396 0.0011188 10
-3.44167 -5.63836 1.04625 0.00182128 10
-2.80748 -4.59939 1.04743 0.00343349 10
-2.70712 -4.43497 1.19957 0.0175291 10
-2.72649 -4.46671 1.4022 0.0130165 10
-4.94059 -8.15788 -2.55552 0.00166901 10
-5.7428 -9.48248 -2.55938 0.00103869 10
-6.82336 -11.2667 -2.56034 0.000589114 10
-8.3801 -13.8372 -2.56218 0.000291914 10
-9.09472 -15.0172 0.306449 0.000490588 10
-9.08729 -15.0049 0.919343 0.000488129 10
-6.15169 -10.1576 1.03895 0.000367468 10
-4.39978 -7.2649 1.04285 0.00111866 10
-3.41127 -5.63267 1.04298 0.00182111 10
-2.78971 -4.60636 1.04679 0.00343323 10
-2.6857 -4.43461 1.19693 0.0175935 10
-2.70718 -4.47009 1.40029 0.0130644 10
-4.90958 -8.17091 -2.55421 0.00166911 10
-5.71257 -9.50732 -2.56069 0.00103876 10
-6.7912 -11.3025 -2.56306 0.000589163 10
-8.33441 -13.8708 -2.563 0.000291945 10
-9.12712 -15.1901 0.309325 0.000471979 10
-9.1288 -15.1929 0.928902 0.000469606 10
-6.12386 -10.1918 1.04025 0.000367403 10
-4.37241 -7.27692 1.04238 0.00111852 10
-3.39193 -5.64513 1.04309 0.00182094 10
-2.77004 -4.61013 1.04544 0.00343297 10
-2.67774 -4.45651 1.20031 0.0176574 10
-2.69015 -4.47717 1.39955 0.0131119 10
-4.89282 -8.20778 -2.56038 0.0016692 10
-5.67458 -9.51919 -2.55853 0.00103884 10
-6.74648 -11.3173 -2.56108 0.000589211 10
-8.28958 -13.9059 -2.56412 0.000291975 10
-9.18025 -15.4 0.312946 0.000453837 10
-9.17707 -15.3947 0.939277 0.000451548 10
-6.09033 -10.2166 1.04061 0.000367338 10
-4.34576 -7.29008 1.04209 0.00111839 10
-3.37972 -5.66953 1.04541 0.00182077 10
-2.7614 -4.6323 1.04828 0.00343271 10
-2.65696 -4.4571 1.19796 0.0177208 10
-2.6639 -4.46874 1.39401 0.013159 10
-4.85506 -8.20946 -2.55561 0.0016693 10
-5.63869 -9.5345 -2.55734 0.00103891 10
-6.7133 -11.3516 -2.56351 0.00058926 10
-8.23872 -13.9309 -2.56342 0.000292006 10
-9.22342 -15.5959 0.316271 0.000436151 10
-9.22902 -15.6054 0.950163 0.000433944 10
-6.05613 -10.2404 1.04086 0.000367272 10
-4.33188 -7.32481 1.04488 0.00111825 10
-3.35427 -5.67176 1.04366 0.0018206 10
-2.74677 -4.64454 1.04887 0.00343246 10
-2.63929 -4.4628 1.19701 0.0177836 10
-2.6432 -4.4694 1.39132 0.0132056 10
-4.83192 -8.23581 -2.55854 0.00166939 10
-5.61002 -9.56204 -2.55946 0.00103898 10
-6.6699 -11.3686 -2.56208 0.000589309 10
-8.19443 -13.9671 -2.56479 0.000292036 10
-9.27017 -15.8006 0.319764 0.000418919 10
-9.27222 -15.8041 0.960285 0.000416792 10
-6.02003 -10.2609 1.04081 0.000367207 10
-4.30367 -7.33542 1.04425 0.00111811 10
-3.34392 -5.69958 1.04662 0.00182043 10
-2.72799 -4.64975 1.04789 0.0034322 10
-2.61226 -4.45248 1.19179 0.0178459 10
-2.6294 -4.4817 1.39229 0.0132519 10
-4.80116 -8.24921 -2.55749 0.00166949 10
-5.58039 -9.58807 -2.5612 0.00103905 10
-6.62238 -11.3784 -2.55906 0.000589357 10
-8.14669 -13.9974 -2.56512 0.000292067 10
-9.32226 -16.0172 0.323487 0.000402136 10
-9.32838 -16.0278 0.97189 0.000400087 10
-5.98741 -10.2874 1.04137 0.000367141 10
-4.27379 -7.34311 1.04321 0.00111797 10
-3.32548 -5.71375 1.04708 0.00182026 10
-2.70912 -4.65473 1.04688 0.00343194 10
-2.60451 -4.475 1.19538 0.0179076 10
-2.6083 -4.48151 1.38939 0.0132978 10
-4.77217 -8.26565 -2.5574 0.00166959 10
-5.54617 -9.60624 -2.56087 0.00103912 10
-6.58239 -11.401 -2.55897 0.000589406 10
-8.09422 -14.0196 -2.564 0.000292098 10
-9.36641 -16.2231 0.326982 0.000385796 10
-9.37022 -16.2297 0.982145 0.000383824 10
-5.94118 -10.2904 1.03957 0.000367075 10
-4.2434 -7.34978 1.04205 0.00111784 10
-3.30315 -5.72122 1.04633 0.00182009 10
-2.69703 -4.67139 1.0485 0.00343168 10
-2.57524 -4.46044 1.18908 0.0179688 10
-2.60026 -4.50378 1.39347 0.0133433 10
-4.73697 -8.27121 -2.55399 0.00166969 10
-5.50594 -9.61391 -2.55777 0.00103919 10
-6.55194 -11.4403 -2.56265 0.000589456 10
-8.04477 -14.0469 -2.56385 0.000292128 10
-9.42444 -16.456 0.331011 0.000369897 10
-9.42628 -16.4592 0.994037 0.000367999 10
-5.90541 -10.3114 1.0396 0.000367009 10
-4.22185 -7.37175 1.04307 0.0011177 10
-3.27622 -5.7206 1.04412 0.00181992 10
-2.68059 -4.68057 1.04845 0.00343142 10
-2.55676 -4.46436 1.18774 0.0180294 10
-2.57742 -4.50043 1.38965 0.0133883 10
-4.72017 -8.30901 -2.56056 0.00166978 10
-5.46784 -9.62514 -2.55567 0.00103926 10
-6.51433 -11.4673 -2.56358 0.000589505 10
-7.99304 -14.0703 -2.563 0.000292159 10
-9.47322 -16.6759 0.334767 0.000354429 10
-9.47189 -16.6735 1.00498 0.000352604 10
-5.87714 -10.3456 1.04098 0.000366943 10
-4.19409 -7.38294 1.04257 0.00111756 10
-3.25322 -5.7267 1.04316 0.00181974 10
-2.65591 -4.67525 1.04518 0.00343115 10
-2.55211 -4.49253 1.19285 0.0180895 10
-2.56082 -4.50785 1.38917 0.013433 10
-4.69094 -8.32507 -2.56045 0.00166988 10
-5.44157 -9.65722 -2.55913 0.00103933 10
-6.46127 -11.4669 -2.55843 0.000589554 10
-7.94767 -14.1048 -2.56422 0.00029219 10
-9.60815 -17.0517 -2.40318 0.0011027 10
-9.59941 -17.0362 -1.7108 0.00111762 10
-9.59813 -17.0339 -1.02467 0.00112762 10
-9.59772 -17.0332 -0.341266 0.00113262 10
-9.5218 -16.8985 0.338566 0.000339392 10
-9.5349 -16.9217 1.01792 0.000337638 10
-5.8349 -10.3553 1.03989 0.000366877 10
-4.17922 -7.41692 1.0453 0.00111742 10
-3.23587 -5.74274 1.04402 0.00181957 10
-2.64936 -4.70185 1.04905 0.00343089 10
-2.52793 -4.48634 1.18886 0.018149 10
-2.5402 -4.50813 1.38651 0.0134772 10
-4.65056 -8.3212 -2.55425 0.00166998 10
-5.40746 -9.67551 -2.55895 0.00103941 10
-6.41967 -11.4866 -2.55782 0.000589604 10
-7.89016 -14.1178 -2.56156 0.000292221 10
-9.58001 -17.1414 -2.4111 0.000317036 10
-9.57512 -17.1327 -1.71712 0.000321118 10
-9.57391 -17.1305 -1.02847 0.000323785 10
-9.58772 -17.1552 -0.343038 0.000325009 10
-9.57864 -17.139 0.342713 0.000324778 10
-9.59081 -17.1607 1.03028 0.000323092 10
-5.80632 -10.3892 1.04126 0.000366811 10
-4.14981 -7.42522 1.04443 0.00111728 10
-3.21689 -5.75594 1.04437 0.0018194 10
-2.63266 -4.7106 1.04895 0.00343063 10
-2.51364 -4.49762 1.18952 0.0182079 10
-2.51864 -4.50658 1.38332 0.013521 10
-4.62469 -8.34316 -2.55602 0.00167008 10
-5.37044 -9.68852 -2.55742 0.00103948 10
-6.39252 -11.5324 -2.56303 0.000589653 10
-7.84818 -14.1585 -2.56395 0.000292252 10
-9.56495 -17.2556 -2.42245 0.00107824 10
-9.57024 -17.2652 -1.72704 0.00109285 10
-9.6324 -17.3773 -1.04126 0.000309638 10
