VERSION 0.7
FIELDS x y z intensity label
SIZE 4 4 4 4 4
TYPE F F F F F
COUNT 1 1 1 1 1
WIDTH 1171
HEIGHT 1
VIEWPOINT 12.7667 43.0294 2.72869 0.622823 -0.000645503 0.00038683 0.782362
POINTS 1171
DATA ascii
19.4613 -19.3259 1.43738 0.000185287 10
16.9879 -16.8697 2.09457 4.46329e-05 10
19.4539 -19.3186 5.32921 0.000173203 10
19.4448 -19.3095 6.32662 0.000168197 10
18.2604 -18.1333 6.89551 9.90778e-05 10
7.02658 -6.92915 -2.64424 0.000359178 4
9.67485 -9.5407 -2.6412 3.15026e-05 4
12.1319 -11.9637 -2.69865 0.000425423 4
15.7026 -15.4848 -2.70781 4.37562e-05 1
18.1183 -17.8671 -2.22625 3.27938e-05 10
19.4917 -19.2214 -1.43466 0.000185346 10
19.4817 -19.2116 -0.477587 0.000186266 10
19.4697 -19.1998 1.43304 0.000185422 10
17.0313 -16.7951 2.09268 4.46247e-05 10
19.4657 -19.1958 6.31158 0.000168328 10
18.3249 -18.0708 6.89601 9.90718e-05 10
7.04574 -6.89969 -2.64237 0.000226011 4
8.17021 -8.00086 -2.64005 0.000171164 4
12.1667 -11.9145 -2.69711 0.000548366 4
15.7561 -15.4295 -2.70775 4.37617e-05 1
18.164 -17.7875 -2.22421 3.27998e-05 10
19.4942 -19.0901 1.42993 0.000185539 10
17.1009 -16.7464 2.09404 4.46165e-05 10
19.4913 -19.0873 6.29825 0.000168442 10
18.3776 -17.9966 6.89215 9.90657e-05 10
7.07244 -6.87765 -2.64336 0.000254276 4
8.19692 -7.97116 -2.63967 0.000118312 4
9.73055 -9.46255 -2.6383 9.16574e-05 4
12.1839 -11.8483 -2.69174 0.000431624 4
15.8032 -15.3679 -2.70659 4.37672e-05 1
18.2317 -17.7296 -2.22492 3.28057e-05 10
19.5249 -18.9872 1.42732 0.000185638 10
17.1481 -16.6758 2.09268 4.46084e-05 10
19.5214 -18.9837 6.2865 0.00016854 10
18.4432 -17.9352 6.89325 9.90597e-05 10
7.09667 -6.85317 -2.64346 0.000117054 4
8.22069 -7.93863 -2.63839 0.000100697 4
9.77074 -9.43549 -2.64025 8.73674e-05 4
12.1934 -11.775 -2.68474 0.000523138 4
15.8667 -15.3223 -2.7083 4.37727e-05 1
18.2902 -17.6626 -2.22451 3.28117e-05 10
19.5519 -18.8811 1.42446 0.000185718 10
17.2143 -16.6237 2.09367 4.46002e-05 10
19.5521 -18.8812 6.27513 0.000168621 10
18.5142 -17.879 6.89643 9.90537e-05 10
7.10641 -6.8148 -2.63821 0.000165498 4
8.25356 -7.91488 -2.64005 0.000183783 4
9.78965 -9.38794 -2.63649 4.58354e-05 4
12.2087 -11.7077 -2.67909 0.00052315 4
15.915 -15.2619 -2.70743 4.37782e-05 1
18.3488 -17.5958 -2.22416 3.28176e-05 10
19.5758 -18.7726 1.42142 0.00018578 10
17.2778 -16.5688 2.09434 4.45921e-05 10
19.5644 -18.7616 6.25804 0.000168685 10
18.569 -17.8071 6.89365 9.90478e-05 10
7.12966 -6.78949 -2.63803 0.000113029 4
8.28727 -7.89186 -2.64201 3.77659e-05 4
9.83051 -9.36147 -2.63868 0.000124624 4
12.2297 -11.6462 -2.67477 0.000545525 4
15.9745 -15.2123 -2.7085 4.37837e-05 1
18.4151 -17.5365 -2.22477 3.28235e-05 10
19.5993 -18.6641 1.41839 0.000185824 10
17.3212 -16.4948 2.09261 4.4584e-05 10
19.6053 -18.6699 6.25023 0.000168732 10
18.6297 -17.7409 6.89315 9.90418e-05 10
7.16792 -6.77837 -2.64342 8.88128e-05 4
8.31356 -7.86174 -2.64162 0.000108269 4
9.87117 -9.33471 -2.64083 9.59819e-05 4
12.2454 -11.5799 -2.66935 0.000519243 4
16.018 -15.1475 -2.70691 4.37891e-05 1
18.4694 -17.4657 -2.22395 3.28294e-05 10
19.6199 -18.5536 1.41518 0.00018585 10
17.399 -16.4534 2.09505 4.45759e-05 10
19.6175 -18.5514 6.23345 0.000168763 10
18.6931 -17.6772 6.89371 9.90358e-05 10
7.18474 -6.74692 -2.64092 0.000117077 4
8.33248 -7.82472 -2.63894 6.54688e-05 4
9.89144 -9.28868 -2.63756 9.88542e-05 4
12.2655 -11.518 -2.66494 0.000469805 4
16.0756 -15.096 -2.70771 4.37946e-05 1
18.5353 -17.4058 -2.22455 3.28353e-05 10
19.6464 -18.4492 1.41244 0.000185857 10
17.4436 -16.3806 2.09353 4.45679e-05 10
19.6386 -18.4419 6.21966 0.000168777 10
18.7686 -17.6249 6.89883 9.90299e-05 10
7.20961 -6.72307 -2.64142 0.000508707 4
8.35814 -7.79409 -2.63843 0.0001385 4
9.93345 -9.26309 -2.64013 4.29832e-05 4
12.2724 -11.4442 -2.65776 0.000511189 4
16.1326 -15.0439 -2.70845 4.38e-05 1
18.6046 -17.349 -2.22558 3.28411e-05 10
19.6778 -18.3498 1.41008 0.000185845 10
17.4956 -16.3149 2.09292 4.45598e-05 10
19.6784 -18.3504 6.21193 0.000168774 10
18.8326 -17.5616 6.89977 9.9024e-05 10
7.23841 -6.70285 -2.64338 0.000448169 4
8.39523 -7.77407 -2.64156 0.000115843 4
9.9545 -9.21797 -2.63716 9.88685e-05 4
12.2863 -11.3772 -2.65214 0.000483953 4
16.1661 -14.9699 -2.70528 4.38054e-05 1
18.6567 -17.2763 -2.22459 3.2847e-05 10
19.692 -18.235 1.40653 0.000185815 10
17.5638 -16.2643 2.09428 4.45519e-05 10
19.6914 -18.2344 6.19589 0.000168753 10
18.88 -17.4831 6.89476 9.90181e-05 10
7.26438 -6.67994 -2.64433 0.000238228 4
8.41154 -7.73481 -2.63818 0.000141035 4
9.98674 -9.18328 -2.63719 0.0001347 4
12.3173 -11.3263 -2.65029 0.000525899 4
16.2258 -14.9204 -2.70654 4.38108e-05 1
18.7099 -17.2047 -2.22377 3.28528e-05 10
19.7277 -18.1406 1.40455 0.000185766 10
17.6131 -16.1961 2.0934 4.45439e-05 10
19.7257 -18.1387 6.18673 0.000168716 10
18.9414 -17.4175 6.89494 9.90122e-05 10
7.28866 -6.65546 -2.6447 4.44177e-05 4
8.45357 -7.71917 -2.6429 0.000193934 4
10.0265 -9.15542 -2.63922 7.30872e-05 4
12.333 -11.2615 -2.64518 0.000428217 4
16.274 -14.8602 -2.70592 4.38162e-05 1
18.7683 -17.1378 -2.22358 3.28586e-05 10
19.741 -18.026 1.40101 0.000185698 10
17.672 -16.1368 2.0937 4.45359e-05 10
19.7415 -18.0265 6.17193 0.000168662 10
19.0068 -17.3556 6.89664 9.90063e-05 10
7.30016 -6.61938 -2.64047 0.000205947 4
8.46639 -7.67686 -2.63851 0.00012342 4
10.05 -9.11281 -2.63703 7.59588e-05 4
12.3386 -11.188 -2.638 0.000364449 4
16.3236 -14.8013 -2.70555 4.38215e-05 1
18.8317 -17.0755 -2.22401 3.28644e-05 10
19.764 -17.9209 1.39819 0.000185612 10
17.7291 -16.0757 2.09379 4.4528e-05 10
19.7682 -17.9247 6.16067 0.000168591 10
19.0615 -17.2839 6.89456 9.90005e-05 10
7.33608 -6.60544 -2.64511 0.000226149 4
8.49003 -7.64446 -2.63755 6.8011e-05 4
12.3595 -11.1285 -2.63414 0.000429971 4
16.3818 -14.7502 -2.70665 4.38269e-05 1
18.8889 -17.0077 -2.22375 3.28702e-05 10
19.7993 -17.8274 1.39628 0.000185507 10
17.7983 -16.0257 2.09536 4.45201e-05 10
19.7965 -17.8248 6.15005 0.000168502 10
19.1375 -17.2315 6.90024 9.89947e-05 10
7.35778 -6.57862 -2.64463 9.28872e-05 4
8.52464 -7.62191 -2.64002 7.30531e-05 4
10.1117 -9.04093 -2.6366 0.000107504 4
12.3793 -11.0684 -2.63012 0.000547932 4
16.4354 -14.6949 -2.70701 4.38322e-05 1
18.9581 -16.9505 -2.22492 3.2876e-05 10
19.8212 -17.7222 1.39345 0.000185383 10
17.8551 -15.9643 2.09546 4.45122e-05 10
19.8191 -17.7203 6.13781 0.000168397 10
19.1777 -17.1468 6.89311 9.89889e-05 10
7.37223 -6.54538 -2.6416 0.000145396 4
8.55193 -7.59276 -2.64024 0.000103288 4
12.3959 -11.0056 -2.62547 0.000551491 4
16.4871 -14.638 -2.7071 4.38375e-05 1
19.0012 -16.8701 -2.22305 3.28817e-05 10
19.8353 -17.6106 1.39012 0.00018524 10
17.9154 -15.906 2.09601 0.000355724 10
19.8365 -17.6117 6.12414 0.000168274 10
19.2539 -17.0944 6.89902 9.89831e-05 10
7.40143 -6.52524 -2.64388 0.000395819 4
10.1712 -8.96711 -2.63571 8.02812e-05 4
12.403 -10.9348 -2.61888 0.00039416 4
16.5243 -14.5681 -2.70484 4.38428e-05 1
19.0537 -16.7981 -2.22231 3.28874e-05 10
19.8674 -17.5155 1.38807 0.000185078 10
18.0351 -15.9 2.10351 0.000353633 10
19.8575 -17.5067 6.11171 0.000168134 10
19.3177 -17.0308 6.90052 9.89773e-05 10
7.42617 -6.50112 -2.6446 0.000319095 4
8.59856 -7.52747 -2.63835 3.02342e-05 4
10.2043 -8.93315 -2.63619 8.74554e-05 4
12.4286 -10.8804 -2.61624 0.000250958 4
16.5834 -14.5176 -2.7062 4.38481e-05 1
19.1229 -16.7408 -2.22355 3.28932e-05 10
19.9015 -17.4224 1.38619 0.000184898 10
18.1502 -15.8893 2.11045 0.000351518 10
19.8894 -17.4119 6.1028 0.000167976 10
19.3728 -16.9596 6.89903 9.89715e-05 10
7.43329 -6.46166 -2.63909 0.000359504 4
8.62126 -7.49434 -2.63727 0.000186455 4
10.2382 -8.8999 -2.63691 4.30138e-05 4
12.4379 -10.8121 -2.61023 0.000362527 4
16.6281 -14.4546 -2.70525 4.38534e-05 1
19.1851 -16.6774 -2.22401 3.28989e-05 10
19.9203 -17.3164 1.38328 0.000184698 10
18.2645 -15.8771 2.11729 0.00034938 10
19.9035 -17.3018 6.08854 0.000167802 10
19.4325 -16.8924 6.89923 9.89658e-05 10
7.46832 -6.44649 -2.64352 0.000242374 4
8.65366 -7.46964 -2.63919 0.00012599 4
10.2819 -8.87514 -2.64019 3.15457e-05 4
12.4639 -10.7586 -2.6078 0.000627132 4
16.6847 -14.4018 -2.70626 4.38586e-05 1
19.2432 -16.6103 -2.22401 3.29045e-05 10
19.9449 -17.216 1.38081 0.00018448 10
18.3746 -15.8605 2.12361 0.00034722 10
19.925 -17.1988 6.07674 0.00016761 10
19.4901 -16.8234 6.89882 9.896e-05 10
7.49265 -6.42198 -2.64418 0.000165631 4
8.69108 -7.44916 -2.64266 0.000115918 4
10.2943 -8.82328 -2.63543 6.59638e-05 4
12.4792 -10.696 -2.60317 0.000746517 4
16.7368 -14.3452 -2.70657 4.38639e-05 1
19.2965 -16.5391 -2.22348 3.29102e-05 10
19.9616 -17.1092 1.37783 0.000184242 10
18.5119 -15.8666 2.13307 0.000345037 10
19.9607 -17.1084 6.06937 0.0001674 10
19.5368 -16.7451 6.8946 9.89543e-05 10
7.50168 -6.38444 -2.63949 0.000121199 4
8.69872 -7.40319 -2.63711 9.07234e-05 4
10.328 -8.78981 -2.63619 6.16661e-05 4
12.481 -10.6222 -2.5958 0.00050213 4
16.7784 -14.2795 -2.70522 4.38691e-05 1
19.3616 -16.478 -2.22434 3.29159e-05 10
19.9779 -17.0025 1.37485 0.000183986 10
18.6425 -15.866 2.14173 0.00039721 10
19.9852 -17.0088 6.05873 0.000167174 10
19.6099 -16.6894 6.8998 9.89486e-05 10
7.52946 -6.36289 -2.64143 0.000214129 4
8.74326 -7.38863 -2.64278 9.07287e-05 4
10.3622 -8.75673 -2.6371 7.60123e-05 4
12.4898 -10.5547 -2.58994 0.000572004 4
16.8355 -14.2271 -2.7064 4.38743e-05 1
19.4177 -16.4092 -2.22419 3.29215e-05 10
20.0036 -16.9043 1.37254 0.000183711 10
18.7992 -15.8865 2.15334 0.000392457 10
20.0014 -16.9025 6.0457 0.00016693 10
19.6584 -16.6126 6.8964 9.8943e-05 10
7.54069 -6.32739 -2.6376 0.00011717 4
8.74974 -7.3419 -2.63697 0.00026212 4
10.3916 -8.7196 -2.63682 0.000140561 4
12.5231 -10.5081 -2.58923 0.000546067 4
16.8795 -14.1636 -2.70551 4.38795e-05 1
19.4686 -16.3361 -2.22348 3.29271e-05 10
20.0285 -16.8059 -1.37022 0.00018335 10
20.0361 -16.8123 -0.456543 0.000184248 10
20.0243 -16.8024 0.456273 0.00018427 10
20.0388 -16.8146 1.37092 0.000183416 10
18.9494 -15.9004 2.16417 0.000387704 10
20.0345 -16.8109 5.08366 0.000171574 10
20.0305 -16.8076 6.03672 0.000166668 10
19.7092 -16.538 6.89394 9.89374e-05 10
7.569 -6.30626 -2.63979 0.00021819 4
8.78564 -7.31992 -2.64007 0.000131067 4
10.4203 -8.68187 -2.6364 7.88916e-05 4
12.5238 -10.4344 -2.58182 0.000452155 4
16.9342 -14.1091 -2.70637 4.38847e-05 1
19.5127 -16.2574 -2.22202 3.29327e-05 10
20.0475 -16.7029 -1.36752 0.000183037 10
20.0495 -16.7046 -0.455515 0.000183933 10
20.0582 -16.7118 0.455712 0.000183955 10
20.0491 -16.7043 1.36763 0.000183103 10
19.1034 -15.9163 2.1754 0.000382951 10
20.0583 -16.712 5.07487 0.000171285 10
20.0386 -16.6955 6.02156 0.00016639 10
19.7709 -16.4725 6.89537 9.89317e-05 10
7.60213 -6.28903 -2.64367 0.000339423 4
8.80743 -7.28614 -2.63896 0.000100827 4
10.4447 -8.64057 -2.63491 7.02901e-05 4
12.5564 -10.3876 -2.58106 0.000454847 4
16.9846 -14.0509 -2.70657 4.38898e-05 1
19.5774 -16.1958 -2.22293 3.29383e-05 10
20.0897 -16.6196 -1.36644 0.000182705 10
20.085 -16.6157 -0.455001 0.000183599 10
20.0758 -16.6082 0.454794 0.00018362 10
20.0774 -16.6094 1.3656 0.00018277 10
19.2493 -15.9244 2.18568 0.000378198 10
20.0606 -16.5956 5.06076 0.000170978 10
20.0696 -16.603 6.01342 0.000166094 10
19.8375 -16.411 6.89857 9.89261e-05 10
7.62217 -6.26092 -2.64303 0.000294989 4
8.83057 -7.25352 -2.63829 0.000143686 4
10.4753 -8.60453 -2.63506 3.01264e-05 4
12.5679 -10.3234 -2.576 0.000667055 4
17.026 -13.9853 -2.70537 4.3895e-05 1
19.626 -16.121 -2.22205 3.29438e-05 10
20.0949 -16.5062 -1.36286 0.000182354 10
20.0937 -16.5051 -0.453891 0.000183245 10
20.105 -16.5144 0.454146 0.000183267 10
20.0995 -16.5099 1.36317 0.000182419 10
19.4369 -15.9656 2.20063 0.000408434 10
20.0873 -16.4999 5.05295 0.000170654 10
20.0924 -16.5041 6.00296 0.00016578 10
19.8978 -16.3442 6.89966 9.89205e-05 10
7.6477 -6.23731 -2.64431 0.000101028 4
10.5074 -8.56963 -2.63559 7.02997e-05 4
12.5674 -10.2497 -2.56854 0.000606441 4
17.07 -13.9219 -2.70462 4.39001e-05 1
19.6852 -16.0549 -2.2224 3.29494e-05 10
20.1348 -16.4215 -1.36167 0.000181984 10
20.1198 -16.4093 -0.453183 0.000182873 10
20.1233 -16.4122 0.453263 0.000182895 10
20.1179 -16.4077 1.36053 0.000182048 10
19.6462 -16.023 2.21799 0.000399893 10
20.1228 -16.4118 5.04743 0.000170311 10
20.1275 -16.4156 5.99629 0.000165449 10
19.9528 -16.2731 6.89898 9.89149e-05 10
7.66302 -6.20539 -2.6421 0.000141446 4
8.88338 -7.19362 -2.639 0.000108407 4
10.5401 -8.5352 -2.6363 4.0174e-05 4
12.5908 -10.1958 -2.56604 0.000501809 4
17.1265 -13.8688 -2.70589 4.39052e-05 1
19.8633 -16.085 -2.23614 0.000335518 10
20.1464 -16.3142 -1.3586 0.000181595 10
20.148 -16.3156 -0.452535 0.000182482 10
20.1478 -16.3153 0.452528 0.000182503 10
20.1357 -16.3056 1.35788 0.000181659 10
19.8486 -16.0731 2.23449 0.00039142 10
20.1351 -16.3051 5.0362 0.000169951 10
20.1395 -16.3087 5.98289 0.000165101 10
20.0142 -16.2072 6.90062 9.89094e-05 10
7.67502 -6.17088 -2.6388 0.000480941 4
8.90383 -7.15887 -2.63764 6.80734e-05 4
10.5781 -8.50498 -2.63835 9.03976e-05 4
12.6098 -10.1385 -2.56268 0.000469885 4
17.1664 -13.8021 -2.70456 4.39103e-05 1
20.0674 -16.1346 -2.25277 0.000328316 10
20.1795 -16.2247 -1.357 0.000181187 10
20.1614 -16.2102 -0.451561 0.000182071 10
20.1705 -16.2175 0.451764 0.000182092 10
20.1754 -16.2214 1.35672 0.00018125 10
20.0741 -16.14 2.25353 0.000383014 10
20.1644 -16.2126 4.098 0.000173683 10
20.1547 -16.2048 5.02694 0.000169573 10
20.1571 -16.2067 5.97126 0.000164735 10
20.0905 -16.1532 6.90746 0.000339309 10
7.70912 -6.15412 -2.64312 0.000161668 4
8.92578 -7.12536 -2.63676 0.000229445 4
10.5928 -8.45615 -2.63466 5.45292e-05 4
12.6231 -10.0769 -2.55822 0.000564446 4
17.2122 -13.7404 -2.70421 4.39154e-05 1
20.2044 -16.129 -2.26181 0.000179027 10
20.1848 -16.1133 -1.35357 0.00018076 10
20.2018 -16.1269 -0.451202 0.000181641 10
20.182 -16.1111 0.450759 0.000181662 10
20.1919 -16.119 1.35404 0.000180822 10
20.196 -16.1222 2.26087 0.000179131 10
20.181 -16.1103 3.17063 0.000176606 10
20.1908 -16.1181 4.0919 0.000173276 10
20.1858 -16.1141 5.02064 0.000169177 10
20.1947 -16.1212 5.96568 0.000164352 10
20.1902 -16.1176 6.92233 0.000158855 10
7.73077 -6.12733 -2.64319 0.000501196 4
8.95706 -7.09928 -2.63866 8.06886e-05 4
10.6243 -8.42071 -2.63515 9.328e-05 4
12.6302 -10.0106 -2.55256 0.000673235 4
17.2616 -13.6813 -2.70444 4.39204e-05 1
20.2095 -16.0178 -2.25611 0.000178586 10
20.2263 -16.0311 -1.35259 0.000180314 10
20.2224 -16.0281 -0.45041 0.000181193 10
20.2038 -16.0134 0.449996 0.000181213 10
20.2011 -16.0112 1.3509 0.000180376 10
20.2 -16.0103 2.25505 0.000178689 10
20.2008 -16.011 3.16495 0.000176171 10
20.2003 -16.0105 4.08247 0.00017285 10
20.2073 -16.0161 5.01203 0.000168763 10
20.1999 -16.0102 5.95068 0.000163952 10
20.2087 -16.0173 6.90948 0.00015847 10
7.74219 -6.0925 -2.63981 7.27576e-05 4
8.98852 -7.07327 -2.64064 0.000133648 4
10.6697 -8.39622 -2.63913 4.59255e-05 4
12.6434 -9.94938 -2.5482 0.000588502 4
17.3245 -13.633 -2.70682 4.39255e-05 1
20.2361 -15.9243 -2.25287 0.000178126 10
20.2286 -15.9183 -1.34902 0.000179849 10
20.23 -15.9194 -0.449338 0.000180725 10
20.2365 -15.9246 0.449484 0.000180745 10
20.2313 -15.9204 1.3492 0.00017991 10
20.2407 -15.9279 2.25338 0.000178228 10
20.2291 -15.9188 3.16066 0.000175718 10
20.2283 -15.9181 4.07689 0.000172407 10
20.2351 -15.9235 5.00512 0.000168331 10
20.2261 -15.9164 5.94201 0.000163534 10
20.2379 -15.9256 6.90039 0.000158068 10
7.76046 -6.06313 -2.63881 0.000165733 4
9.01655 -7.0445 -2.64163 0.000161395 4
10.6972 -8.3576 -2.63871 0.000116257 4
12.661 -9.89189 -2.54478 0.000542819 4
17.3619 -13.5646 -2.70526 4.39305e-05 1
20.2491 -15.8203 -2.24815 0.000177647 10
20.2669 -15.8342 -1.34788 0.000179364 10
20.2478 -15.8193 -0.448504 0.000180238 10
20.2624 -15.8307 0.448828 0.000180258 10
20.2626 -15.8309 1.34759 0.000179425 10
20.2444 -15.8167 2.24763 0.000177749 10
20.2468 -15.8186 3.15478 0.000175246 10
20.2467 -15.8185 4.06944 0.000171945 10
20.2614 -15.8299 4.99792 0.000167881 10
20.2564 -15.826 5.93463 0.000163099 10
20.2541 -15.8243 6.88707 0.00015765 10
7.79588 -6.0471 -2.64366 0.000218293 4
9.02913 -7.00371 -2.63814 7.06142e-05 4
10.7199 -8.31523 -2.63713 9.0428e-05 4
12.6891 -9.84269 -2.5435 0.00060843 4
17.4063 -13.5017 -2.70483 4.39355e-05 1
20.2728 -15.7252 -2.24467 0.00017715 10
20.2722 -15.7248 -1.34458 0.000178861 10
20.2694 -15.7226 -0.447766 0.000179732 10
20.2785 -15.7297 0.447967 0.000179752 10
20.2701 -15.7231 1.34443 0.000178922 10
20.2886 -15.7374 2.24642 0.00017725 10
20.2785 -15.7296 3.15114 0.000174755 10
20.2712 -15.7239 4.0633 0.000171465 10
20.265 -15.7191 4.98524 0.000167414 10
20.2618 -15.7166 5.9201 0.000162646 10
20.2788 -15.7299 6.87675 0.000157214 10
7.79829 -6.00549 -2.63735 0.000270858 4
9.06063 -6.97762 -2.64021 0.000186634 4
10.7412 -8.27184 -2.63525 0.000223932 4
12.6985 -9.77919 -2.53853 0.000548764 4
17.4571 -13.4438 -2.7054 4.39405e-05 1
20.2945 -15.6289 -2.24102 0.000176634 10
20.307 -15.6385 -1.34325 0.000178339 10
20.3081 -15.6393 -0.447411 0.000179207 10
20.3035 -15.6358 0.44731 0.000179227 10
20.3111 -15.6416 1.34352 0.000178399 10
20.2894 -15.6249 2.24046 0.000176733 10
20.2987 -15.6321 3.14578 0.000174246 10
20.3045 -15.6366 4.05902 0.000170966 10
20.2968 -15.6306 4.97962 0.000166928 10
20.2847 -15.6213 5.91084 0.000162176 10
20.2829 -15.6199 6.8596 0.000156762 10
7.82857 -5.98539 -2.64051 0.000335556 4
9.07064 -6.93503 -2.63606 9.33219e-05 4
10.7648 -8.2303 -2.63397 0.000114844 4
12.7109 -9.71822 -2.53421 0.000465795 4
17.4983 -13.3785 -2.70453 4.39455e-05 1
20.3227 -15.5379 -2.23813 0.000176099 10
20.3211 -15.5366 -1.34059 0.000177798 10
20.3169 -15.5335 -0.446408 0.000178663 10
20.3351 -15.5474 0.446808 0.000178683 10
20.328 -15.5419 1.34104 0.000177858 10
20.3263 -15.5406 2.23853 0.000176197 10
20.331 -15.5442 3.14235 0.000173719 10
20.3263 -15.5406 4.0525 0.00017045 10
20.3233 -15.5383 4.97278 0.000166425 10
20.3226 -15.5378 5.90603 0.000161689 10
20.3101 -15.5283 6.85043 0.000156293 10
9.11153 -6.91603 -2.64091 0.000110983 4
10.8106 -8.20569 -2.63815 5.3119e-05 4
12.7187 -9.65406 -2.52904 0.000627405 4
17.5465 -13.3186 -2.70479 4.39505e-05 1
20.3426 -15.4409 -2.23438 0.000175545 10
20.3422 -15.4406 -1.33842 0.000177238 10
20.3492 -15.4459 1.33888 0.000177297 10
20.3492 -15.4459 2.2351 0.000175642 10
20.3418 -15.4403 3.13568 0.000173173 10
20.3306 -15.4318 6.83912 0.000155808 10
7.88022 -5.93817 -2.64388 0.000274939 4
9.12383 -6.8753 -2.6375 0.000252249 4
10.8261 -8.15809 -2.63498 5.88655e-05 4
12.7361 -9.59731 -2.5258 0.000612438 4
17.5975 -13.2607 -2.70549 4.39554e-05 1
20.3782 -15.3561 -2.23238 0.000174972 10
20.3776 -15.3556 -1.33721 0.00017666 10
20.355 -15.3386 1.33573 0.000176718 10
20.3756 -15.3541 2.2321 0.000175069 10
20.362 -15.3438 3.13051 0.000172608 10
20.3575 -15.3405 6.83013 0.000155306 10
7.89988 -5.90987 -2.64354 0.000145563 4
9.15438 -6.84835 -2.63941 0.000121086 4
10.8611 -8.12511 -2.63656 8.32786e-05 4
12.7474 -9.53625 -2.52142 0.000551323 4
17.6292 -13.1883 -2.70327 4.39603e-05 1
20.3822 -15.2478 -2.22698 0.000174381 10
20.3937 -15.2564 -1.33476 0.000176062 10
20.3858 -15.2506 1.33425 0.00017612 10
20.3915 -15.2548 2.22799 0.000174477 10
20.3805 -15.2466 3.12516 0.000172025 10
20.3798 -15.2461 6.81972 0.000154787 10
7.9066 -5.87196 -2.63892 0.000230484 4
9.18145 -6.81875 -2.64033 0.00017407 4
12.7909 -9.49933 -2.52345 9.9979e-05 4
17.6719 -13.1243 -2.70278 4.39652e-05 1
20.4184 -15.164 -2.22513 0.000173771 10
20.4164 -15.1625 -1.33278 0.000175446 10
20.418 -15.1638 1.33289 0.000175503 10
20.4117 -15.1591 2.2244 0.000173866 10
20.417 -15.163 3.12262 0.000171424 10
20.3929 -15.1451 6.80636 0.000154251 10
7.93814 -5.85251 -2.64261 0.000190057 4
9.20273 -6.78484 -2.63963 0.000244721 4
10.9059 -8.04056 -2.63377 5.8877e-05 4
12.8042 -9.44008 -2.51957 9.43878e-05 4
17.7246 -13.0677 -2.70384 4.39701e-05 1
20.425 -15.0586 -2.22011 0.000173143 10
20.4304 -15.0626 -1.33025 0.000174811 10
20.4398 -15.0695 1.33087 0.000174868 10
20.4315 -15.0634 2.22082 0.000173237 10
20.4412 -15.0706 3.11826 0.000170804 10
20.4316 -15.0635 6.80169 0.000153699 10
7.95193 -5.81993 -2.64042 0.000319472 4
9.2326 -6.75724 -2.64141 0.000179135 4
10.9482 -8.01288 -2.6372 5.17003e-05 4
12.8369 -9.3952 -2.51954 9.83953e-05 4
17.7702 -13.0058 -2.70386 4.3975e-05 1
20.4483 -14.9659 -2.21695 0.000172496 10
20.4582 -14.9732 -1.32865 0.000174157 10
20.4618 -14.9758 1.32888 0.000174213 10
20.4564 -14.9719 2.21784 0.000172589 10
20.4448 -14.9633 3.11082 0.000170166 10
20.4438 -14.9626 6.78832 0.00015313 10
7.9722 -5.79214 -2.64042 0.000392282 4
9.23962 -6.71298 -2.6367 0.00024727 4
10.9698 -7.97001 -2.63568 0.000100535 4
12.8856 -9.36191 -2.52266 9.76032e-05 4
17.8258 -12.9512 -2.70542 4.39798e-05 1
20.4813 -14.8806 -2.21489 0.000171831 10
20.4878 -14.8853 -1.32719 0.000173484 10
20.4764 -14.8769 1.32645 0.00017354 10
20.4675 -14.8705 2.2134 0.000171923 10
20.4744 -14.8755 3.10739 0.00016951 10
20.4782 -14.8783 6.78244 0.000152544 10
7.99423 -5.76562 -2.64103 0.000489363 4
9.27541 -6.68964 -2.64023 0.000174108 4
11.0075 -7.93883 -2.63806 3.87802e-05 4
12.9113 -9.3119 -2.52131 0.000106412 4
17.8688 -12.8874 -2.70511 4.39847e-05 1
20.4967 -14.7827 -2.21096 0.000171147 10
20.4991 -14.7844 -1.32457 0.000172793 10
20.487 -14.7757 1.32379 0.000172848 10
20.4959 -14.7821 2.21088 0.000171238 10
20.4996 -14.7848 3.10338 0.000168835 10
20.4877 -14.7762 6.76846 0.000151942 10
8.00931 -5.73411 -2.63939 0.000521741 4
9.30422 -6.66117 -2.6418 0.000179164 4
11.017 -7.88738 -2.63372 4.02191e-05 4
12.9351 -9.26061 -2.51963 0.000112822 4
17.8983 -12.8139 -2.70278 4.39895e-05 1
20.5228 -14.6929 -2.20823 0.000170445 10
20.5226 -14.6927 -1.32277 0.000172084 10
20.5157 -14.6878 1.32232 0.000172138 10
20.5055 -14.6805 2.20636 0.000170535 10
20.5164 -14.6883 3.09814 0.000168143 10
20.5206 -14.6913 6.76237 0.000151324 10
8.03684 -5.71149 -2.64187 0.000275038 4
9.3258 -6.6275 -2.64134 8.32776e-05 4
11.0584 -7.8588 -2.63705 0.000153704 4
12.9804 -9.22472 -2.52218 8.16224e-05 4
17.9621 -12.765 -2.70567 4.39943e-05 1
20.5489 -14.6033 -2.20554 0.000169724 10
20.5308 -14.5905 -1.32 0.000171355 10
20.5445 -14.6002 1.32089 0.000171409 10
20.5472 -14.6021 2.20535 0.000169813 10
20.5396 -14.5967 3.09393 0.000167432 10
20.5264 -14.5874 6.74745 0.000150689 10
8.05245 -5.68038 -2.64047 0.00014966 4
9.34015 -6.58875 -2.63888 7.06635e-05 4
11.0844 -7.81921 -2.63674 3.87876e-05 4
17.9838 -12.6862 -2.70226 4.39991e-05 1
20.5752 -14.5142 -2.20291 0.000168985 10
20.5717 -14.5118 -1.31937 0.000170609 10
20.5519 -14.4978 1.3181 0.000170662 10
20.5504 -14.4967 2.20026 0.000169073 10
20.5539 -14.4992 3.08844 0.000166703 10
20.5488 -14.4956 6.73815 0.000150037 10
8.06406 -5.64652 -2.6378 0.000214387 4
9.37277 -6.56289 -2.6416 0.000156477 4
11.1034 -7.77469 -2.63478 0.000166654 4
13.6186 -9.53583 -2.63317 0.000552395 4
18.0366 -12.6294 -2.70355 4.40039e-05 1
20.5759 -14.4074 -2.19759 0.000168228 10
20.5794 -14.4099 -1.31663 0.000169844 10
20.5782 -14.409 1.31656 0.000169896 10
20.5692 -14.4027 2.19687 0.000168315 10
20.5841 -14.4131 3.0854 0.000165956 10
20.5634 -14.3986 6.7264 0.00014937 10
8.09313 -5.62487 -2.64087 0.00017799 4
9.37304 -6.51443 -2.63525 0.000100958 4
11.1271 -7.73351 -2.63397 6.03439e-05 4
13.6253 -9.46986 -2.62808 0.00044237 4
18.08 -12.5659 -2.70346 4.40086e-05 1
20.5971 -14.3153 -2.1945 0.000167452 10
20.597 -14.3153 -1.31455 0.00016906 10
20.5928 -14.3124 1.31429 0.000169112 10
20.6076 -14.3226 2.19562 0.000167538 10
20.5944 -14.3135 3.07943 0.000165191 10
20.6016 -14.3185 6.72251 0.000148686 10
8.1183 -5.60044 -2.64269 0.000190134 4
9.41449 -6.49462 -2.64052 0.000164066 4
11.1695 -7.70533 -2.63764 4.74161e-05 4
13.6458 -9.41363 -2.62567 0.000436562 4
18.136 -12.5112 -2.70529 4.40133e-05 1
20.6335 -14.2341 -2.19307 0.000166659 10
20.6222 -14.2263 -1.31298 0.000168258 10
20.6144 -14.221 1.31249 0.000168309 10
20.6312 -14.2325 2.19283 0.000166744 10
20.6123 -14.2195 3.07467 0.000164408 10
20.6112 -14.2187 6.70939 0.000147986 10
8.1378 -5.57207 -2.64269 0.00013755 4
9.43215 -6.45833 -2.63913 0.000166599 4
11.182 -7.65645 -2.63425 4.45452e-05 4
13.66 -9.35323 -2.62211 0.00036803 4
18.1692 -12.4407 -2.70374 4.40181e-05 1
20.6387 -14.1316 -2.18836 0.000165847 10
20.6607 -14.1467 -1.31228 0.000167438 10
20.6456 -14.1363 1.31132 0.000167489 10
20.6459 -14.1366 2.18913 0.000165931 10
20.6507 -14.1398 3.07302 0.000163607 10
20.6287 -14.1248 6.69902 0.00014727 10
8.15491 -5.54207 -2.64195 0.000137556 4
9.44289 -6.41738 -2.63585 9.08767e-05 4
11.214 -7.62101 -2.6355 3.30517e-05 4
13.6776 -9.29531 -2.61924 0.000149433 4
18.2124 -12.3772 -2.70373 4.40227e-05 1
20.6699 -14.0472 -2.18646 0.000165017 10
20.6805 -14.0544 -1.31041 0.0001666 10
20.6775 -14.0524 1.31022 0.00016665 10
20.6643 -14.0434 2.18587 0.0001651 10
20.6666 -14.045 3.06806 0.000162789 10
20.651 -14.0344 6.69031 0.000146537 10
8.16885 -5.50996 -2.64022 0.000194205 4
9.47322 -6.38977 -2.63808 0.000166616 4
11.2384 -7.58039 -2.63501 0.000150898 4
13.6927 -9.23585 -2.61594 0.000331765 4
18.2554 -12.3134 -2.70371 4.40274e-05 1
20.7026 -13.9641 -2.18475 0.000164169 10
20.6937 -13.9581 -1.30816 0.000165743 10
20.6941 -13.9584 1.30818 0.000165793 10
20.6927 -13.9574 2.18371 0.000164252 10
20.6889 -13.9548 3.06412 0.000161952 10
20.6816 -13.95 6.68442 0.000145789 10
8.182 -5.47737 -2.63827 0.000271089 4
9.48911 -6.3524 -2.63631 0.000254986 4
11.2801 -7.55135 -2.63859 3.73674e-05 4
13.7104 -9.1783 -2.61318 0.000523593 4
18.2986 -12.2499 -2.70377 4.40321e-05 1
20.716 -13.8682 -2.18105 0.000163304 10
20.7069 -13.8621 -1.30593 0.000164869 10
20.7021 -13.8588 1.30562 0.000164918 10
20.706 -13.8615 2.17999 0.000163385 10
20.7152 -13.8677 3.06084 0.000161098 10
20.6933 -13.853 6.67251 0.000145024 10
8.20948 -5.45437 -2.64098 0.000153759 4
9.52544 -6.32869 -2.64025 9.59401e-05 4
11.3066 -7.51207 -2.63864 5.60546e-05 4
13.7183 -9.1144 -2.6086 0.000645332 4
18.3418 -12.1862 -2.70384 4.40367e-05 1
20.7329 -13.7749 -2.17775 0.000162421 10
20.7417 -13.7807 -1.30508 0.000163976 10
20.7276 -13.7714 1.30419 0.000164025 10
20.7341 -13.7757 2.17787 0.000162501 10
20.7329 -13.7749 3.05633 0.000160227 10
20.7262 -13.7705 6.66759 0.000144244 10
8.21722 -5.41826 -2.63736 0.000137579 4
9.54866 -6.29618 -2.64058 8.83703e-05 4
11.3191 -7.46355 -2.63546 8.33684e-05 4
13.7438 -9.06239 -2.60743 0.000548048 4
18.3771 -12.1175 -2.7028 4.40414e-05 1
20.7422 -13.677 -2.1737 0.000161519 10
20.7545 -13.6851 -1.30287 0.000163066 10
20.7541 -13.6848 1.30285 0.000163114 10
20.7416 -13.6766 2.17363 0.000161599 10
20.744 -13.6781 3.0509 0.000159338 10
20.7437 -13.678 6.65781 0.000143448 10
8.23348 -5.38784 -2.63653 8.90259e-05 4
9.56487 -6.25907 -2.639 8.33248e-05 4
11.3489 -7.4265 -2.63634 5.17491e-05 4
13.743 -8.99315 -2.6013 0.000538285 4
18.409 -12.0465 -2.70128 4.4046e-05 1
20.7653 -13.5884 -2.17113 0.000160601 10
20.77 -13.5915 -1.30085 0.000162138 10
20.7675 -13.5899 1.3007 0.000162185 10
20.7584 -13.5839 2.17041 0.000160679 10
20.7578 -13.5835 3.04595 0.000158432 10
20.768 -13.5902 6.65035 0.000142636 10
8.26288 -5.36598 -2.63993 0.00010117 4
9.57127 -6.21565 -2.63477 0.000111105 4
11.3757 -7.38744 -2.63656 3.88142e-05 4
13.7557 -8.93308 -2.5978 0.000588912 4
18.4688 -11.9937 -2.7039 4.40506e-05 1
20.7971 -13.5058 -2.16952 0.000159664 10
20.7975 -13.506 -1.29962 0.000161192 10
20.7797 -13.4945 1.2985 0.000161238 10
20.784 -13.4973 2.16815 0.000159741 10
20.7771 -13.4928 3.04185 0.000157508 10
20.784 -13.4973 6.64034 0.000141808 10
9.61262 -6.19491 -2.64018 0.000189394 4
11.4007 -7.34724 -2.6364 4.02542e-05 4
13.7761 -8.87808 -2.59577 0.000376662 4
18.5095 -11.9286 -2.70376 4.40551e-05 1
20.82 -13.4175 -2.167 0.000158711 10
20.8073 -13.4094 -1.2973 0.000160229 10
20.8204 -13.4178 1.29811 0.000160274 10
20.8019 -13.4059 2.16513 0.000158786 10
20.8198 -13.4174 3.04122 0.000156567 10
20.8103 -13.4113 6.63374 0.000140964 10
8.29556 -5.30523 -2.63847 0.000157839 4
9.63225 -6.16008 -2.63965 0.000207081 4
11.4216 -7.30443 -2.63533 3.01924e-05 4
13.7891 -8.81848 -2.5924 0.000622174 4
18.5355 -11.8539 -2.70148 4.40597e-05 1
20.8276 -13.3198 -2.16294 0.000157739 10
20.8235 -13.3172 -1.2954 0.000159248 10
20.8219 -13.3162 1.2953 0.000159293 10
20.8277 -13.3199 2.16295 0.000157814 10
20.8315 -13.3223 3.03612 0.000155609 10
20.8188 -13.3142 6.62161 0.000140105 10
8.30963 -5.27345 -2.63708 0.000238792 4
9.64732 -6.12237 -2.63791 0.000133851 4
11.4578 -7.27132 -2.6378 3.45077e-05 4
13.8113 -8.76494 -2.59082 0.000563419 4
18.5911 -11.7983 -2.70357 4.40642e-05 1
20.8456 -13.229 -2.16001 0.000156751 10
20.8661 -13.242 -1.29516 0.000158249 10
20.8595 -13.2378 1.29476 0.000158293 10
20.8466 -13.2297 2.16011 0.000156824 10
20.8539 -13.2343 3.03264 0.000154633 10
20.8386 -13.2246 6.61316 0.000139231 10
8.32489 -5.24247 -2.6361 4.85698e-05 4
9.65749 -6.08165 -2.63487 9.34481e-05 4
11.4647 -7.21973 -2.63358 6.3268e-05 4
13.8173 -8.70119 -2.58622 0.000614833 4
18.6209 -11.7262 -2.70194 4.40687e-05 1
20.8731 -13.1445 -2.15809 0.000155745 10
20.8701 -13.1426 -1.29256 0.000157233 10
20.8717 -13.1436 1.29266 0.000157277 10
20.8833 -13.1509 2.15914 0.000155818 10
20.8737 -13.1449 3.02882 0.000153641 10
20.86 -13.1363 6.60538 0.000138341 10
8.36373 -5.22624 -2.6426 0.000214526 4
9.70116 -6.06196 -2.64099 0.000133865 4
11.4998 -7.18587 -2.63586 8.05277e-05 4
13.8437 -8.65053 -2.5855 0.000506133 4
18.6566 -11.6579 -2.70119 4.40732e-05 1
20.9089 -13.0654 -2.15706 0.000154722 10
20.9032 -13.0618 -1.29178 0.0001562 10
20.8891 -13.053 -0.429954 0.00015695 10
20.9066 -13.0639 0.430313 0.000156964 10
20.8927 -13.0552 1.29113 0.000156243 10
20.9018 -13.0609 2.15633 0.000154793 10
20.8811 -13.0479 3.02326 0.000152631 10
20.8981 -13.0586 3.90301 0.000149781 10
20.8999 -13.0597 4.79045 0.000146271 10
20.8905 -13.0538 5.68712 0.000142141 10
20.8939 -13.056 6.60164 0.000137435 10
8.37584 -5.19324 -2.64069 0.000141674 4
9.7167 -6.02461 -2.63948 8.33538e-05 4
11.5309 -7.14949 -2.63726 0.000155313 4
13.8616 -8.59459 -2.58323 0.000627881 4
18.6971 -11.5927 -2.70118 4.40777e-05 1
20.9243 -12.9736 -2.15396 0.000153682 10
20.9286 -12.9763 -1.29054 0.000155149 10
20.9162 -12.9686 -0.429576 0.000155894 10
20.9208 -12.9715 0.429671 0.000155908 10
20.9134 -12.9669 1.28961 0.000155192 10
20.9083 -12.9637 2.15232 0.000153752 10
20.9171 -12.9692 3.02191 0.000151605 10
20.902 -12.9598 3.89526 0.000148774 10
20.9053 -12.9619 4.7813 0.000145289 10
20.9206 -12.9713 5.68295 0.000141188 10
20.8981 -12.9574 6.58864 0.000136514 10
8.39959 -5.16747 -2.64247 0.000105248 4
9.72328 -5.9818 -2.63558 0.000280386 4
11.5548 -7.10859 -2.63704 9.49189e-05 4
13.8617 -8.52775 -2.57767 0.000505882 4
18.7581 -11.5401 -2.70416 4.40822e-05 1
20.9309 -12.8768 -2.15 0.000152625 10
20.9381 -12.8812 -1.28835 0.000154082 10
20.9364 -12.8801 -0.429064 0.000154821 10
20.9393 -12.8819 0.429123 0.000154835 10
20.9238 -12.8724 1.28747 0.000154124 10
20.927 -12.8744 2.14961 0.000152694 10
20.9289 -12.8755 3.0171 0.000150563 10
20.9339 -12.8786 3.8928 0.000147752 10
20.9226 -12.8717 4.77493 0.000144291 10
20.92 -12.8701 5.67056 0.000140219 10
20.9353 -12.8795 6.58614 0.000135579 10
8.41894 -5.13894 -2.6429 0.000291467 4
9.74668 -5.9494 -2.63628 0.000252612 4
13.8806 -8.47274 -2.57567 0.000532766 4
18.7789 -11.4627 -2.70137 4.40866e-05 1
20.9493 -12.7875 -2.1473 0.000151551 10
20.9604 -12.7943 -1.28696 0.000152997 10
20.9627 -12.7957 -0.428687 0.000153731 10
20.9521 -12.7892 0.42847 0.000153745 10
20.9573 -12.7924 1.28677 0.000153038 10
20.9539 -12.7903 2.14776 0.000151619 10
20.9533 -12.79 3.01417 0.000149503 10
20.9445 -12.7846 3.88646 0.000146712 10
20.9554 -12.7912 4.7722 0.000143277 10
20.9452 -12.785 5.66524 0.000139235 10
20.9365 -12.7797 6.57246 0.000134628 10
8.42551 -5.10267 -2.63935 0.000161933 4
9.78023 -5.92312 -2.63975 0.000174311 4
11.593 -7.02097 -2.63449 4.45883e-05 4
13.8985 -8.41723 -2.57353 0.000643376 4
18.8222 -11.3991 -2.70185 4.4091e-05 1
20.9821 -12.7072 -2.1461 0.000150461 10
20.9819 -12.7071 -1.28555 0.000151896 10
20.9859 -12.7095 -0.428252 0.000152624 10
20.9682 -12.6988 0.42789 0.000152638 10
20.9858 -12.7095 1.28579 0.000151936 10
20.9769 -12.7041 2.14557 0.000150528 10
20.9739 -12.7023 3.01074 0.000148427 10
20.9628 -12.6955 3.88159 0.000145657 10
20.9787 -12.7051 4.76737 0.000142247 10
20.9816 -12.7069 5.66307 0.000138235 10
20.9758 -12.7034 6.57083 0.000133662 10
8.43882 -5.07056 -2.63796 7.69213e-05 4
9.78157 -5.87736 -2.63455 3.53691e-05 4
13.922 -8.36519 -2.57246 0.000587044 4
18.8544 -11.3288 -2.70079 4.40954e-05 1
21.0021 -12.6193 -2.14362 0.000149353 10
20.9989 -12.6174 -1.28389 0.000150778 10
21.0084 -12.6231 -0.427808 0.0001515 10
20.9958 -12.6156 0.427552 0.000151514 10
21.0071 -12.6224 1.28439 0.000150817 10
20.996 -12.6157 2.143 0.000149419 10
20.9965 -12.616 3.00764 0.000147335 10
21.003 -12.6199 3.88086 0.000144586 10
20.9927 -12.6137 4.76053 0.000141202 10
21.0002 -12.6182 5.65616 0.00013722 10
20.9953 -12.6152 6.56309 0.000132681 10
8.46095 -5.04374 -2.63936 0.000485839 4
9.82091 -5.85444 -2.63963 0.000113692 4
11.6523 -6.94617 -2.63689 6.61711e-05 4
13.9289 -8.30327 -2.56836 0.000589184 4
18.9064 -11.2705 -2.70259 4.40998e-05 1
21.0171 -12.5287 -2.14068 0.00014823 10
21.0159 -12.528 -1.28224 0.000149643 10
21.0207 -12.5309 -0.427166 0.00015036 10
21.0263 -12.5342 0.427279 0.000150373 10
21.0194 -12.5301 1.28246 0.000149682 10
21.0068 -12.5226 2.13963 0.000148295 10
21.0197 -12.5303 3.00468 0.000146226 10
21.0201 -12.5305 3.87591 0.000143498 10
21.0155 -12.5277 4.75575 0.00014014 10
21.0127 -12.5261 5.64771 0.000136189 10
21.0026 -12.5201 6.55167 0.000131686 10
8.47346 -5.01119 -2.63779 0.000113367 4
9.82996 -5.81342 -2.63659 0.000106117 4
13.9449 -8.24699 -2.56599 0.000561739 4
18.9354 -11.1984 -2.70113 4.41042e-05 1
21.0473 -12.4473 -2.13931 0.00014709 10
21.049 -12.4483 -1.2816 0.000148491 10
21.0397 -12.4429 -0.426667 0.000149202 10
21.0426 -12.4446 0.426725 0.000149215 10
21.026 -12.4347 1.2802 0.00014853 10
21.0382 -12.4419 2.13839 0.000147153 10
21.0339 -12.4394 3.00048 0.000145101 10
21.0246 -12.4339 3.86872 0.000142395 10
21.0206 -12.4315 4.74705 0.000139064 10
21.0401 -12.4431 5.64338 0.000135143 10
21.0398 -12.4429 6.5497 0.000130676 10
8.50073 -4.98735 -2.64084 0.000283429 4
9.846 -5.77662 -2.63547 0.000214772 4
11.6852 -6.85566 -2.63343 5.03534e-05 4
13.9702 -8.1963 -2.56537 0.000559499 4
18.9805 -11.1358 -2.702 4.41085e-05 1
21.0572 -12.3542 -2.13593 0.000145933 10
21.0709 -12.3622 -1.2803 0.000147323 10
21.0515 -12.3509 -0.426029 0.000148029 10
21.0442 -12.3466 0.425881 0.000148041 10
21.065 -12.3588 1.27995 0.000147361 10
21.0524 -12.3514 2.13544 0.000145996 10
21.0624 -12.3572 2.99837 0.00014396 10
21.0642 -12.3583 3.86804 0.000141275 10
21.0513 -12.3507 4.74423 0.000137971 10
21.0508 -12.3504 5.63465 0.000134083 10
21.0552 -12.353 6.54103 0.000129651 10
8.52036 -4.95897 -2.64155 0.00028344 4
9.86318 -5.74051 -2.63469 0.000174352 4
11.7186 -6.8204 -2.63558 0.000129488 4
13.9843 -8.13908 -2.56273 0.000540197 4
19.0157 -11.0674 -2.7015 4.41128e-05 1
21.082 -12.27 -2.13409 0.000144761 10
21.0855 -12.2721 -1.27858 0.000146139 10
21.0735 -12.2651 -0.425604 0.000146838 10
21.0783 -12.2679 0.425701 0.000146851 10
21.0679 -12.2618 1.27751 0.000146176 10
21.0821 -12.2701 2.1341 0.000144822 10
21.0658 -12.2606 2.99275 0.000142803 10
21.0687 -12.2623 3.86099 0.00014014 10
21.07 -12.2631 4.73877 0.000136863 10
21.0797 -12.2687 5.63087 0.000133007 10
21.0692 -12.2626 6.53203 0.000128612 10
8.52022 -4.91915 -2.63616 0.000105282 4
9.90018 -5.71587 -2.63923 0.000176887 4
11.7498 -6.78373 -2.63725 9.64018e-05 4
14.0034 -8.08486 -2.56103 0.000635975 4
19.0447 -10.9955 -2.70015 4.41171e-05 1
21.0941 -12.1787 -2.131 0.000143572 10
21.0975 -12.1807 -1.27672 0.000144938 10
21.1073 -12.1863 -0.425426 0.000145632 10
21.099 -12.1815 0.425259 0.000145644 10
21.0919 -12.1774 1.27639 0.000144975 10
21.0997 -12.1819 2.13155 0.000143632 10
21.0898 -12.1762 2.9901 0.00014163 10
21.082 -12.1717 3.85562 0.00013899 10
21.0999 -12.1821 4.7359 0.00013574 10
21.0956 -12.1796 5.62375 0.000131916 10
21.0796 -12.1703 6.52206 0.000127558 10
8.54577 -4.89421 -2.63877 0.000101237 4
9.9198 -5.68113 -2.63915 0.000159206 4
11.7522 -6.73055 -2.6325 0.000133819 4
13.9999 -8.01784 -2.55527 0.000603891 4
19.1009 -10.9392 -2.70269 4.41214e-05 1
21.1201 -12.0956 -2.12934 0.000142367 10
21.1243 -12.098 -1.27578 0.000143722 10
21.1044 -12.0866 -0.424514 0.000144409 10
21.1046 -12.0867 0.424519 0.000144421 10
21.1273 -12.0997 1.27596 0.000143757 10
21.1268 -12.0995 2.13002 0.000142426 10
21.1211 -12.0962 2.98853 0.000140441 10
21.115 -12.0927 3.85391 0.000137824 10
21.1228 -12.0971 4.73152 0.000134602 10
21.1057 -12.0874 5.61516 0.000130811 10
21.1042 -12.0865 6.51658 0.00012649 10
8.55478 -4.85979 -2.6363 0.000178184 4
9.93428 -5.64346 -2.63775 4.54896e-05 4
11.7774 -6.69051 -2.63291 3.59749e-05 4
14.0119 -7.95989 -2.55237 0.000575853 4
19.1261 -10.8652 -2.70087 4.41257e-05 1
21.1445 -12.0117 -2.12756 0.000141147 10
21.148 -12.0137 -1.27467 0.000142489 10
21.1354 -12.0066 -0.424293 0.00014317 10
21.1315 -12.0044 0.424215 0.000143182 10
21.1368 -12.0074 1.274 0.000142524 10
21.1283 -12.0025 2.12593 0.000141204 10
21.1221 -11.999 2.98273 0.000139237 10
21.1431 -12.0109 3.85135 0.000136642 10
21.131 -12.0041 4.72395 0.000133449 10
21.1371 -12.0075 5.61231 0.000129691 10
21.1302 -12.0036 6.51162 0.000125408 10
8.58788 -4.83902 -2.64127 0.000344232 4
9.94621 -5.6044 -2.63571 0.000209767 4
11.8 -6.64897 -2.63275 0.000156859 4
14.0246 -7.90246 -2.54964 0.000526036 4
19.1742 -10.8041 -2.70232 4.413e-05 1
21.1657 -11.9262 -2.12549 0.00013991 10
21.1647 -11.9257 -1.27316 0.000141241 10
21.1684 -11.9278 -0.424115 0.000141915 10
21.161 -11.9236 0.423967 0.000141927 10
21.1487 -11.9167 1.2722 0.000141275 10
21.1465 -11.9154 2.12356 0.000139967 10
21.1557 -11.9206 2.98158 0.000138017 10
21.1546 -11.92 3.84585 0.000135445 10
21.1394 -11.9114 4.7165 0.000132281 10
21.1487 -11.9167 5.60432 0.000128556 10
21.1506 -11.9178 6.50506 0.000124312 10
8.59525 -4.80372 -2.63837 0.000413095 4
9.97271 -5.57356 -2.63756 0.000136482 4
11.8291 -6.61108 -2.63409 3.88573e-05 4
14.0442 -7.84905 -2.54821 0.000622943 4
19.196 -10.7283 -2.70009 4.41342e-05 1
21.1821 -11.8383 -2.12298 0.000138658 10
21.1803 -11.8373 -1.27161 0.000139976 10
21.1734 -11.8334 -0.423386 0.000140645 10
21.1859 -11.8404 0.423636 0.000140656 10
21.187 -11.841 1.27201 0.00014001 10
21.1829 -11.8387 2.12306 0.000138714 10
21.1605 -11.8262 2.97642 0.000136781 10
21.1829 -11.8387 3.84347 0.000134234 10
21.1675 -11.8301 4.71353 0.000131098 10
21.1768 -11.8353 5.6008 0.000127407 10
21.1772 -11.8355 6.50048 0.000123201 10
8.62364 -4.78016 -2.64194 0.000222756 4
9.98797 -5.53642 -2.63646 7.83541e-05 4
11.8461 -6.5664 -2.63274 5.32518e-05 4
14.0739 -7.80129 -2.54864 0.000629311 4
19.2461 -10.6683 -2.70189 4.41384e-05 1
21.2079 -11.7557 -2.12144 0.000137391 10
21.2085 -11.756 -1.27083 0.000138697 10
21.1955 -11.7488 -0.423005 0.000139358 10
21.2044 -11.7538 0.423183 0.000139369 10
21.1962 -11.7492 1.27009 0.000138729 10
21.1968 -11.7496 2.12033 0.000137445 10
21.1921 -11.747 2.97508 0.000135531 10
21.2018 -11.7523 3.83942 0.000133007 10
21.1915 -11.7466 4.70972 0.0001299 10
21.1938 -11.7479 5.59441 0.000126244 10
21.1998 -11.7512 6.49478 0.000122077 10
8.63494 -4.7471 -2.64031 0.000137709 4
10.008 -5.50193 -2.63666 7.583e-05 4
11.8823 -6.53235 -2.6357 4.60582e-05 4
14.0856 -7.74363 -2.54585 0.000570377 4
19.2789 -10.5987 -2.70128 4.41426e-05 1
21.2229 -11.6674 -2.11886 0.000136108 10
21.2212 -11.6664 -1.26914 0.000137401 10
21.2219 -11.6668 1.26918 0.000137433 10
21.2114 -11.6611 2.1177 0.000136161 10
21.2151 -11.6631 2.97257 0.000134265 10
21.2093 -11.6599 6.48519 0.00012094 10
8.638 -4.70959 -2.63621 0.000226824 4
10.031 -5.46908 -2.63768 0.000146611 4
11.8999 -6.48806 -2.63458 3.45455e-05 4
14.0829 -7.67824 -2.54049 0.000580921 4
19.3131 -10.5299 -2.70091 4.41467e-05 1
21.2464 -11.5839 -2.11715 0.00013481 10
21.2338 -11.5771 -1.26747 0.000136091 10
21.2271 -11.5734 1.26707 0.000136122 10
21.2209 -11.57 2.11461 0.000134862 10
21.222 -11.5706 2.96786 0.000132984 10
21.236 -11.5783 6.48096 0.000119788 10
8.65561 -4.68007 -2.63658 0.000194428 4
10.0374 -5.42723 -2.63438 5.81416e-05 4
14.0977 -7.62263 -2.53836 0.000582738 4
19.3602 -10.468 -2.70237 4.41509e-05 1
21.2593 -11.4949 -2.11443 0.000133497 10
21.2601 -11.4953 -1.26663 0.000134765 10
21.2619 -11.4963 1.26674 0.000134795 10
21.2544 -11.4922 2.11393 0.000133548 10
21.2505 -11.4901 2.96622 0.000131689 10
21.2513 -11.4906 6.47336 0.000118623 10
8.69095 -4.66005 -2.64237 0.000417226 4
10.0701 -5.39953 -2.63798 0.000159265 4
11.9432 -6.40391 -2.6342 4.60658e-05 4
14.1167 -7.56929 -2.53699 0.000544981 4
19.4004 -10.4024 -2.70289 4.4155e-05 1
21.2656 -11.4025 -2.11107 0.000132169 10
21.2638 -11.4016 -1.26448 0.000133424 10
21.2626 -11.4009 1.26441 0.000133454 10
21.2692 -11.4045 2.11144 0.000132219 10
21.2751 -11.4076 2.96408 0.000130378 10
21.2782 -11.4093 6.46936 0.000117445 10
8.70205 -4.62696 -2.64082 0.000178239 4
10.0973 -5.36882 -2.64018 0.000133991 4
11.9753 -6.36736 -2.63635 3.59909e-05 4
14.1245 -7.51014 -2.53368 0.000387938 4
19.4202 -10.3259 -2.70062 4.41592e-05 1
21.2978 -11.3242 -2.11033 0.000130827 10
21.2982 -11.3245 -1.26416 0.000132068 10
21.2896 -11.3199 1.26366 0.000132097 10
21.2947 -11.3226 2.11003 0.000130875 10
21.2997 -11.3253 2.96199 0.000129053 10
21.2861 -11.318 6.45973 0.000116253 10
8.70751 -4.59095 -2.6376 0.000133684 4
10.0986 -5.32438 -2.63564 0.000159279 4
11.9785 -6.31553 -2.63218 6.19077e-05 4
14.1532 -7.46214 -2.53414 0.000287405 4
19.4616 -10.2609 -2.70137 4.41632e-05 1
21.3191 -11.2403 -2.10855 0.000129469 10
21.3067 -11.2337 -1.26233 0.000130697 10
21.3138 -11.2375 1.26276 0.000130726 10
21.3208 -11.2412 2.10871 0.000129516 10
21.3176 -11.2395 2.959 0.000127714 10
21.3032 -11.2319 6.45296 0.000115049 10
8.73211 -4.56504 -2.64021 0.000263328 4
10.1194 -5.2903 -2.63624 0.000118833 4
12.0154 -6.28149 -2.63546 5.03927e-05 4
14.1693 -7.40752 -2.53237 8.8694e-05 4
19.4924 -10.1904 -2.7007 4.41673e-05 1
21.3382 -11.1554 -2.10657 0.000128097 10
21.3305 -11.1513 -1.26143 0.000129312 10
21.3426 -11.1576 1.26214 0.00012934 10
21.3427 -11.1577 2.10702 0.000128143 10
21.3331 -11.1527 2.95573 0.00012636 10
21.333 -11.1526 6.45017 0.000113831 10
8.73586 -4.52824 -2.63655 6.07702e-05 4
10.1312 -5.25153 -2.63453 8.59678e-05 4
12.0334 -6.23751 -2.63462 3.16771e-05 4
14.1738 -7.34701 -2.52858 0.000493687 4
19.5345 -10.1257 -2.70162 4.41714e-05 1
21.3564 -11.0701 -2.10454 0.000126711 10
21.3653 -11.0747 -1.2612 0.000127912 10
21.3508 -11.0672 1.26034 0.000127939 10
21.3391 -11.0611 2.10284 0.000126756 10
21.3417 -11.0625 2.95155 0.000124992 10
21.3559 -11.0698 6.44536 0.0001126 10
8.75563 -4.49978 -2.63776 0.00027145 4
10.1589 -5.22095 -2.63696 0.000118843 4
14.183 -7.28909 -2.52567 0.000584315 4
19.5522 -10.0485 -2.69919 4.41754e-05 1
21.378 -10.9868 -2.10288 0.000125311 10
21.3866 -10.9912 -1.26018 0.000126498 10
21.3706 -10.983 1.25924 0.000126524 10
21.3815 -10.9886 2.10322 0.000125354 10
21.3662 -10.9807 2.94962 0.00012361 10
21.3698 -10.9826 6.43797 0.000111357 10
8.78273 -4.47503 -2.6412 0.000239047 4
10.1763 -5.18507 -2.63677 0.000131492 4
12.065 -6.14743 -2.63208 4.60807e-05 4
14.2047 -7.23766 -2.52502 0.00054124 4
19.6112 -9.99241 -2.70251 4.41794e-05 1
21.3824 -10.8949 -2.09955 0.000123896 10
21.398 -10.9029 -1.2586 0.00012507 10
21.4028 -10.9053 1.25889 0.000125095 10
21.3785 -10.8929 2.09917 0.000123938 10
21.3907 -10.8991 2.94773 0.000122214 10
21.3813 -10.8943 6.42993 0.000110101 10
8.80129 -4.44585 -2.6421 0.000364662 4
10.1822 -5.1434 -2.63363 0.000134026 4
12.0965 -6.11038 -2.63428 5.32836e-05 4
14.2315 -7.18886 -2.52531 0.000269133 4
19.6256 -9.91362 -2.69971 4.41834e-05 1
21.4099 -10.8149 -2.09853 0.000122467 10
21.4146 -10.8173 -1.25735 0.000123627 10
21.4148 -10.8174 1.25736 0.000123652 10
21.4077 -10.8138 2.09832 0.000122508 10
21.3987 -10.8093 2.94362 0.000120804 10
21.4052 -10.8125 6.42571 0.000108833 10
8.79662 -4.40502 -2.63606 0.000198546 4
10.2169 -5.11622 -2.63796 7.83961e-05 4
12.1155 -6.06699 -2.63379 7.4889e-05 4
14.2425 -7.1321 -2.52282 0.000337341 4
19.6757 -9.85288 -2.70186 4.41874e-05 1
21.444 -10.7384 -2.09819 0.000121025 10
21.4199 -10.7263 -1.25545 0.000122171 10
21.4285 -10.7306 1.25596 0.000122194 10
21.4273 -10.73 2.09656 0.000121065 10
21.4207 -10.7267 2.94147 0.000119381 10
21.4152 -10.7239 6.41744 0.000107552 10
8.81344 -4.37503 -2.63651 0.000125615 4
10.2381 -5.08222 -2.63884 0.000139096 4
12.1283 -6.02054 -2.63199 0.000128182 4
14.2461 -7.07185 -2.51908 0.000441986 4
19.6945 -9.77642 -2.69973 4.41913e-05 1
21.4592 -10.6524 -2.09602 0.000119569 10
21.4436 -10.6447 -1.25466 0.0001207 10
21.4533 -10.6495 1.25523 0.000120724 10
21.446 -10.6459 2.09474 0.000119607 10
21.4377 -10.6418 2.93869 0.000117944 10
21.439 -10.6424 6.4134 0.000106259 10
8.83247 -4.34612 -2.63765 0.00023503 4
10.2457 -5.04153 -2.63627 0.000149218 4
12.1699 -5.98834 -2.63647 3.74484e-05 4
14.2703 -7.02187 -2.519 9.63479e-05 4
19.742 -9.71427 -2.70158 4.41953e-05 1
21.4677 -10.5634 -2.09325 0.000118099 10
21.4806 -10.5698 -1.25466 0.000119217 10
21.4574 -10.5583 1.2533 0.000119239 10
21.4618 -10.5605 2.09267 0.000118137 10
21.4705 -10.5648 2.93811 0.000116494 10
21.455 -10.5572 6.40714 0.000104954 10
8.85654 -4.31962 -2.64032 0.000786164 4
10.2627 -5.00546 -2.63612 0.000202339 4
12.191 -5.94594 -2.63652 7.63411e-05 4
14.2851 -6.96731 -2.5173 0.000117231 4
19.7809 -9.64781 -2.70228 4.41992e-05 1
21.4809 -10.4769 -2.09095 0.000116617 10
21.4928 -10.4827 -1.25322 0.00011772 10
21.4911 -10.4819 -0.417368 0.000118278 10
21.4913 -10.482 0.417372 0.000118285 10
21.483 -10.478 1.25265 0.000117741 10
21.4862 -10.4795 2.09147 0.000116652 10
21.4959 -10.4843 2.93656 0.00011503 10
21.4884 -10.4806 3.78666 0.000112892 10
21.4702 -10.4717 4.64332 0.000110261 10
21.4691 -10.4712 5.51464 0.000107165 10
21.4737 -10.4734 6.40177 0.000103637 10
8.87689 -4.29126 -2.6419 0.00076593 4
12.2041 -5.89969 -2.63488 3.16904e-05 4
14.3073 -6.91641 -2.51694 8.51184e-05 4
19.8151 -9.57899 -2.70236 4.42031e-05 1
21.5065 -10.3967 -2.0899 0.000115121 10
21.5076 -10.3972 -1.25196 0.000116209 10
21.5205 -10.4034 -0.417231 0.00011676 10
21.5123 -10.3994 0.417072 0.000116767 10
21.4997 -10.3934 1.2515 0.00011623 10
21.5003 -10.3936 2.08929 0.000115155 10
21.4956 -10.3914 2.93155 0.000113554 10
21.4948 -10.391 3.78138 0.000111444 10
21.5051 -10.396 4.64299 0.000108847 10
21.4872 -10.3873 5.50996 0.000105791 10
21.4948 -10.391 6.3972 0.000102308 10
8.88787 -4.25835 -2.64073 0.000891591 4
10.2943 -4.93222 -2.63534 0.000113825 4
12.2161 -5.85299 -2.63306 0.000167103 4
14.3333 -6.86737 -2.51729 9.79727e-05 4
19.8376 -9.50457 -2.70089 4.4207e-05 1
21.5376 -10.3191 -2.08941 0.000113612 10
21.52 -10.3107 -1.25058 0.000114685 10
21.5269 -10.314 -0.416656 0.000115229 10
21.5305 -10.3157 0.416724 0.000115235 10
21.5259 -10.3135 1.25092 0.000114706 10
21.5204 -10.3108 2.08774 0.000113645 10
