VERSION 0.7
FIELDS x y z intensity label
SIZE 4 4 4 4 4
TYPE F F F F F
COUNT 1 1 1 1 1
WIDTH 1183
HEIGHT 1
VIEWPOINT 5.36993 37.9497 2.72871 0.825839 -0.000489864 0.000557124 0.563905
POINTS 1183
DATA ascii
-8.36103 10.1789 -2.56049 0.000590782 10
-10.2704 12.5034 -2.56278 0.000292969 10
-13.2587 16.1414 -2.56481 0.000117283 10
-13.4379 16.3595 -1.85222 0.000894997 10
-16.9763 20.6672 -1.40168 0.000465208 10
-16.9851 20.678 -0.467091 0.000467416 10
-16.9785 20.67 0.466908 0.000467391 10
-12.5336 15.2586 1.03486 4.44964e-05 10
-7.56743 9.21274 1.04306 0.000365245 10
-5.39115 6.56329 1.04288 0.00111408 10
-4.30611 5.24235 1.07451 0.0109255 10
-4.29972 5.23457 1.31675 0.0107094 10
-4.29957 5.23438 1.56387 0.0104545 10
-4.30794 5.24458 1.81858 0.0101632 10
-4.31371 5.21438 -1.81332 0.0129949 10
-7.05814 8.53184 -2.55639 0.00104103 10
-8.39348 10.146 -2.55956 0.000590736 10
-10.301 12.4518 -2.55956 0.00029294 10
-13.3185 16.0993 -2.56549 0.000117267 10
-13.5005 16.3193 -1.85299 0.000891178 10
-17.0693 20.6333 -1.40341 0.000463121 10
-17.0805 20.6467 -0.467728 0.000465319 10
-17.0813 20.6477 0.467749 0.000465295 10
-12.5924 15.2217 1.03533 4.45099e-05 10
-7.58244 9.1656 1.04072 0.000365306 10
-5.42136 6.55331 1.0443 0.00111421 10
-4.33103 5.23532 1.07616 0.0108851 10
-4.32805 5.23172 1.31983 0.0106698 10
-4.32905 5.23293 1.56794 0.0104158 10
-4.33195 5.23643 1.82099 0.0101255 10
-4.34897 5.21979 -1.82047 0.0129462 10
-7.098 8.51928 -2.56003 0.00104096 10
-8.42491 10.1119 -2.55837 0.00059069 10
-10.3563 12.43 -2.56249 0.000292912 10
-13.3694 16.0465 -2.5645 0.000117252 10
-13.57 16.2872 -1.85472 0.000887329 10
-17.164 20.6008 -1.40527 0.000461017 10
-17.1578 20.5934 -0.467873 0.000463207 10
-17.1652 20.6023 0.468076 0.000463183 10
-12.6464 15.1786 1.0354 4.45233e-05 10
-7.61846 9.14396 1.04127 0.000365368 10
-5.43714 6.52585 1.04294 0.00111434 10
-4.34339 5.2131 1.0747 0.0108444 10
-4.33666 5.20502 1.3169 0.0106298 10
-4.34648 5.21681 1.56764 0.0103768 10
-4.35119 5.22246 1.8214 0.0100875 10
-4.36887 5.20661 -1.82118 0.0128971 10
-7.12858 8.49551 -2.56035 0.0010409 10
-8.45459 10.0758 -2.55669 0.000590644 10
-10.3943 12.3875 -2.56119 0.000292883 10
-13.4283 16.0032 -2.56506 0.000117236 10
-13.652 16.2699 -1.85815 0.000883451 10
-17.2638 20.5742 -1.40755 0.000458899 10
-17.2633 20.5736 -0.468789 0.000461079 10
-17.2498 20.5575 0.468422 0.000461055 10
-12.6954 15.1298 1.03508 4.45367e-05 10
-7.65116 9.1183 1.04139 0.000365429 10
-5.46018 6.50719 1.043 0.00111447 10
-4.36889 5.20665 1.07651 0.0108033 10
-4.3657 5.20284 1.3202 0.0105896 10
-4.37559 5.21463 1.57157 0.0103375 10
-4.36298 5.1996 1.81873 0.0100493 10
-4.38927 5.194 -1.82212 0.0128477 10
-7.14266 8.45219 -2.5548 0.00104083 10
-8.50728 10.067 -2.56198 0.000590598 10
-10.4347 12.3478 -2.56051 0.000292854 10
-13.4923 15.9659 -2.56662 0.00011722 10
-13.7296 16.2467 -1.86098 0.000879546 10
-17.3458 20.526 -1.40839 0.000456766 10
-17.3433 20.523 -0.469013 0.000458936 10
-17.3458 20.526 0.469081 0.000458912 10
-12.7592 15.0985 1.03598 4.45501e-05 10
-7.68317 9.0918 1.04142 0.000365491 10
-5.48166 6.48667 1.04277 0.0011146 10
-4.39389 5.19947 1.07819 0.0107619 10
-4.39523 5.20105 1.32363 0.010549 10
-4.39723 5.20342 1.57281 0.0102978 10
-4.39963 5.20626 1.82642 0.0100107 10
-4.41121 5.18316 -1.82371 0.0127978 10
-7.18332 8.44038 -2.55879 0.00104076 10
-8.53381 10.0272 -2.55941 0.000590552 10
-10.4854 12.3203 -2.56237 0.000292825 10
-13.5457 15.9161 -2.5662 0.000117205 10
-13.7905 16.2038 -1.86156 0.000875611 10
-17.4379 20.4895 -1.41005 0.000454617 10
-17.4451 20.4979 -0.469829 0.000456778 10
-17.4459 20.4988 0.46985 0.000456753 10
-12.7967 15.036 1.03475 4.45635e-05 10
-7.71978 9.07071 1.04208 0.000365552 10
-5.50735 6.47112 1.04335 0.00111473 10
-4.40701 5.17822 1.07697 0.0107202 10
-4.41365 5.18602 1.32372 0.0105081 10
-4.41902 5.19234 1.57411 0.0102579 10
-4.41362 5.18599 1.8247 0.00997185 10
-4.44162 5.18213 -1.82879 0.0127476 10
-7.20102 8.40157 -2.55463 0.0010407 10
-8.56021 9.98737 -2.55686 0.000590507 10
-10.5248 12.2795 -2.5615 0.000292797 10
-13.5984 15.8655 -2.56567 0.000117189 10
-13.8699 16.1823 -1.86464 0.000871649 10
-17.5264 20.4484 -1.41143 0.000452454 10
-17.5396 20.4639 -0.470449 0.000454605 10
-17.5321 20.4551 0.470246 0.000454581 10
-12.8609 15.0051 1.03571 4.7528e-05 10
-7.74308 9.034 1.04096 0.000365613 10
-5.53927 6.46277 1.04512 0.00111486 10
-4.4452 5.1863 1.08187 0.0106782 10
-4.43235 5.17131 1.3239 0.0104669 10
-4.43363 5.1728 1.57287 0.0102176 10
-4.43425 5.17353 1.82576 0.00993269 10
-4.46234 5.16967 -1.82988 0.0126969 10
-7.24552 8.39402 -2.56001 0.00104063 10
-8.60765 9.97206 -2.56061 0.000590461 10
-10.5788 12.2557 -2.56423 0.000292768 10
-13.6559 15.8205 -2.56608 0.000117174 10
-13.9347 16.1435 -1.86576 0.00086766 10
-17.6264 20.4204 -1.41373 0.000450276 10
-17.6211 20.4142 -0.470719 0.000452417 10
-17.6292 20.4236 0.470936 0.000452393 10
-12.8972 14.9415 1.03442 4.75422e-05 10
-7.77139 9.00324 1.04054 0.000365674 10
-5.55461 6.43507 1.04377 0.00111498 10
-4.46994 5.17847 1.08348 0.0106359 10
-4.45559 5.16186 1.32546 0.0104254 10
-4.4681 5.17635 1.57868 0.0101771 10
-4.46734 5.17546 1.83193 0.00989326 10
-4.4901 5.16528 -1.83386 0.012646 10
-7.27321 8.36687 -2.55945 0.00104056 10
-8.6301 9.9278 -2.55697 0.000590416 10
-10.6074 12.2024 -2.56081 0.00029274 10
-13.7128 15.7748 -2.56641 0.000117159 10
-14.0129 16.12 -1.86868 0.000863644 10
-17.7136 20.3771 -1.41501 0.000448084 10
-17.7161 20.3801 -0.471355 0.000450215 10
-17.7247 20.3899 0.471581 0.000450191 10
-12.9556 14.9037 1.03493 4.75564e-05 10
-7.81557 8.99079 1.04224 0.000365735 10
-5.57926 6.41821 1.04419 0.00111511 10
-4.4773 5.15055 1.0809 0.0105932 10
-4.48478 5.15915 1.32877 0.0103835 10
-4.49145 5.16683 1.58055 0.0101362 10
-4.48721 5.16194 1.83268 0.00985353 10
-4.51155 5.1535 -1.83526 0.0125946 10
-7.29659 8.33482 -2.55743 0.0010405 10
-8.67796 9.91276 -2.56088 0.000590371 10
-10.6632 12.1804 -2.564 0.000292711 10
-13.7615 15.7196 -2.56525 0.000117143 10
-14.0814 16.085 -1.87032 0.0008596 10
-17.8127 20.3473 -1.41724 0.000445877 10
-17.8099 20.3441 -0.471957 0.000447999 10
-17.8137 20.3484 0.472057 0.000447975 10
-12.9994 14.8491 1.03428 6.15449e-05 10
-7.84652 8.96301 1.04219 0.000365795 10
-5.59811 6.39467 1.04353 0.00111524 10
-4.51135 5.15328 1.08477 0.0105503 10
-4.51766 5.16049 1.33317 0.0103414 10
-4.51741 5.1602 1.58334 0.0100951 10
-4.50192 5.1425 1.83134 0.00981352 10
-4.54146 5.15128 -1.8401 0.012543 10
-7.32094 8.30398 -2.55579 0.00104043 10
-8.71039 9.88 -2.56026 0.000590325 10
-10.6943 12.1304 -2.5613 0.000292683 10
-13.8157 15.6708 -2.56514 0.000117128 10
-14.1621 16.0637 -1.87358 0.000855531 10
-14.2927 16.2119 -1.13267 0.000307738 10
-14.2814 16.1991 -0.376952 0.000308978 10
-17.9083 20.3129 0.472681 0.000445745 10
-13.0637 14.8179 1.03528 6.15631e-05 10
-7.87395 8.93124 1.04169 0.000365856 10
-5.6206 6.37532 1.04357 0.00111537 10
-4.53875 5.1482 1.08703 0.0105071 10
-4.52804 5.13606 1.33093 0.010299 10
-4.54108 5.15084 1.58532 0.0100537 10
-4.54238 5.15232 1.84047 0.00977324 10
-4.56539 5.14212 -1.84251 0.0124909 10
-7.34907 8.27745 -2.5555 0.00104037 10
-8.75187 9.85747 -2.56232 0.00059028 10
-10.7337 12.0897 -2.5606 0.000292655 10
-13.8851 15.6392 -2.56788 0.000117113 10
-14.204 15.9983 -1.87173 0.000316171 10
-14.2024 15.9965 -1.12108 0.0003189 10
-14.2164 16.0124 -0.37376 0.000320184 10
-14.2125 16.008 0.373657 0.00032001 10
-13.1024 14.7576 1.03426 6.15813e-05 10
-7.89455 8.89184 1.0403 0.000365916 10
-5.64288 6.35572 1.04358 0.00111549 10
-4.55643 5.13203 1.08697 0.0104635 10
-4.54802 5.12256 1.33154 0.0102563 10
-4.56622 5.14305 1.58782 0.010012 10
-4.55411 5.12941 1.83796 0.00973267 10
-4.58149 5.12412 -1.84178 0.0124385 10
-7.38418 8.25876 -2.55767 0.0010403 10
-8.78462 9.82506 -2.56185 0.000590235 10
-10.7761 12.0524 -2.56067 0.000292626 10
-13.9269 15.5763 -2.56552 0.000117097 10
-14.1766 15.8557 -1.86081 0.000868467 10
-14.1833 15.8632 -1.1152 0.000876386 10
-14.1898 15.8705 -0.371602 0.000880344 10
-14.1926 15.8735 0.371673 0.000880299 10
-13.1533 14.7112 1.03421 6.15994e-05 10
-7.93827 8.87847 1.04197 0.000365976 10
-5.66476 6.33569 1.04353 0.00111562 10
-4.57655 5.11859 1.0875 0.0104197 10
-4.5833 5.12615 1.33663 0.0102134 10
-4.58917 5.1327 1.58956 0.00997001 10
-4.58977 5.13338 1.84511 0.00969184 10
-4.61215 5.12231 -1.84691 0.0123858 10
-7.41219 8.23207 -2.55741 0.00104024 10
-8.81898 9.79447 -2.56189 0.00059019 10
-10.8202 12.017 -2.56116 0.000292598 10
-13.9923 15.5401 -2.56757 0.000117082 10
-14.2645 15.8423 -1.86508 0.000864225 10
-14.2663 15.8444 -1.11737 0.000872108 10
-14.2586 15.8357 -0.371951 0.000876047 10
-14.2671 15.8452 0.372173 0.000876002 10
-13.2097 14.6709 1.03462 6.16176e-05 10
-7.96393 8.84484 1.04128 0.000366036 10
-5.6899 6.31927 1.04409 0.00111575 10
-4.60079 5.1097 1.08902 0.0103756 10
-4.60332 5.1125 1.33725 0.0101701 10
-4.59765 5.1062 1.58631 0.00992776 10
-4.61249 5.12269 1.84704 0.00965074 10
-4.62274 5.09817 -1.84401 0.0123327 10
-7.43961 8.20475 -2.55697 0.00104017 10
-8.83917 9.74825 -2.55785 0.000590145 10
-10.8624 11.9796 -2.56125 0.00029257 10
-14.0473 15.492 -2.56772 0.000117067 10
-14.3227 15.7957 -1.86546 0.000859959 10
-14.342 15.817 -1.11896 0.000867804 10
-14.3239 15.7971 -0.372215 0.000871726 10
-14.3277 15.8013 0.372315 0.00087168 10
-13.2542 14.6173 1.03409 6.16356e-05 10
-7.99528 8.81757 1.04135 0.000366096 10
-5.70728 6.29426 1.04324 0.00111587 10
-4.62171 5.09703 1.08975 0.0103312 10
-4.6378 5.11478 1.34207 0.0101266 10
-4.62557 5.10129 1.58979 0.00988523 10
-4.63229 5.1087 1.84782 0.00960938 10
-4.65485 5.09772 -1.84971 0.0122793 10
-7.46757 8.17804 -2.55675 0.00104011 10
-8.87494 9.7193 -2.55837 0.000590101 10
-10.9133 11.9515 -2.56338 0.000292542 10
-14.0973 15.4386 -2.567 0.000117052 10
-14.4112 15.7823 -1.86981 0.000855668 10
-14.404 15.7744 -1.1195 0.000863476 10
-14.4158 15.7874 -0.37317 0.000867379 10
-14.4104 15.7814 0.37303 0.000867334 10
-13.3166 14.5836 1.03499 6.16536e-05 10
-8.02864 8.79249 1.04169 0.000366156 10
-5.74081 6.28699 1.04535 0.001116 10
-4.64469 5.08659 1.09097 0.0102865 10
-4.6454 5.08737 1.33912 0.0100828 10
-4.65587 5.09883 1.59408 0.00984245 10
-4.64875 5.09104 1.84729 0.00956775 10
-4.66775 5.07614 -1.84778 0.0122255 10
-7.49646 8.15234 -2.55688 0.00104004 10
-8.91268 9.69247 -2.55948 0.000590056 10
-10.9576 11.9163 -2.56401 0.000292514 10
-14.1441 15.3816 -2.56572 0.000117037 10
-14.4838 15.7511 -1.87209 0.000851353 10
-14.4755 15.742 -1.12078 0.000859123 10
-14.4899 15.7576 -0.373661 0.000863007 10
-14.4838 15.7511 0.373504 0.000862962 10
-13.3578 14.5265 1.03424 6.16716e-05 10
-8.05207 8.75656 1.04076 0.000366216 10
-5.76056 6.26456 1.04496 0.00111612 10
-4.67817 5.08748 1.09466 0.0102416 10
-4.6845 5.09436 1.34526 0.0100387 10
-4.67259 5.08141 1.59372 0.00979939 10
-4.67933 5.08873 1.85237 0.00952587 10
-4.69151 5.06638 -1.85018 0.0121715 10
-7.52045 8.12135 -2.55538 0.00103998 10
-8.95343 9.66883 -2.56147 0.000590012 10
-10.9908 11.869 -2.56206 0.000292486 10
-14.198 15.3324 -2.56578 0.000117022 10
-14.5522 15.715 -1.87382 0.000847013 10
-14.5661 15.7299 -1.12353 0.000854746 10
-14.5657 15.7296 -0.374198 0.000858611 10
-14.5624 15.7259 0.374112 0.000858567 10
-13.4088 14.4802 1.03427 6.16896e-05 10
-8.08869 8.73499 1.04154 0.000366275 10
-5.76702 6.22782 1.04218 0.00111625 10
-4.69856 5.07398 1.09528 0.0101964 10
-4.70705 5.08315 1.34663 0.00999433 10
-4.70663 5.0827 1.59927 0.00975608 10
-4.70133 5.07698 1.85405 0.00948374 10
-4.72598 5.06799 -1.85678 0.0121171 10
-7.55332 8.09994 -2.55693 0.00103991 10
-8.98628 9.6366 -2.56123 0.000589968 10
-11.0313 11.8296 -2.56186 0.000292459 10
-14.2646 15.2969 -2.56815 0.000117007 10
-14.6404 15.6999 -1.87811 0.00084265 10
-14.6301 15.6888 -1.12424 0.000850345 10
-14.6414 15.701 -0.374733 0.000854191 10
-14.6317 15.6906 0.374484 0.000854147 10
-13.4539 14.4276 1.03386 6.17075e-05 10
-8.10759 8.69433 1.04006 0.000366335 10
-5.80391 6.22393 1.04492 0.00111637 10
-4.71843 5.0599 1.09579 0.0101509 10
-4.73409 5.07669 1.34929 0.00994972 10
-4.72561 5.0676 1.5997 0.0097125 10
-4.72798 5.07013 1.85757 0.00944135 10
-4.75743 5.06615 -1.86218 0.0120624 10
-7.58181 8.07381 -2.55702 0.00103985 10
-9.01101 9.59576 -2.55872 0.000589923 10
-11.0837 11.8029 -2.56445 0.000292431 10
-14.3022 15.2303 -2.56533 0.000116992 10
-14.8368 15.7996 -1.89622 0.000817797 10
-14.9486 15.9186 -1.14444 0.000214277 10
-14.9474 15.9173 -0.381139 0.000215152 10
-14.9462 15.9161 0.381109 0.000215043 10
-13.5093 14.386 1.03425 6.17253e-05 10
-8.13518 8.66309 1.03972 0.000366394 10
-5.82389 6.20182 1.04461 0.0011165 10
-4.75663 5.0653 1.10055 0.0101051 10
-4.75648 5.06514 1.35062 0.00990485 10
-4.75802 5.06678 1.60468 0.00966868 10
-4.74783 5.05593 1.85842 0.00939872 10
-4.77104 5.04523 -1.8606 0.0120074 10
-4.99374 5.28073 -1.67795 0.0045295 10
-4.98903 5.27575 -1.41142 0.00463821 10
-4.99279 5.27973 -1.15092 0.00472998 10
-4.99229 5.2792 -0.892137 0.00480398 10
-4.99795 5.28518 -0.636402 0.00485953 10
-4.98521 5.27171 -0.380248 0.00489613 10
-4.99238 5.27929 -0.126829 0.00491344 10
-4.98787 5.27453 0.126714 0.00491131 10
-4.99892 5.2862 0.381294 0.00488975 10
-4.99148 5.27834 0.635578 0.00484895 10
-5.00766 5.29546 0.894884 0.0047893 10
-4.76846 5.04251 1.09921 0.0100591 10
-4.77561 5.05007 1.35104 0.00985972 10
-4.7741 5.04847 1.60415 0.0096246 10
-4.77415 5.04853 1.86182 0.00935585 10
-4.798 5.03839 -1.86424 0.0119521 10
-4.96896 5.21793 -1.66349 0.00465766 10
-4.96695 5.21582 -1.40002 0.00476939 10
-4.97784 5.22725 -1.14326 0.00486371 10
-4.9643 5.21303 -0.883878 0.00493977 10
-4.97519 5.22446 -0.631178 0.00499687 10
-4.96379 5.21249 -0.377224 0.0050345 10
-4.97748 5.22687 -0.125986 0.0050523 10
-4.96343 5.21212 0.12563 0.00505013 10
-4.97462 5.22387 0.378048 0.00502799 10
-4.97663 5.22597 0.63136 0.00498609 10
-4.96632 5.21515 0.884238 0.00492482 10
-4.8041 5.04481 1.10336 0.0100128 10
-4.80149 5.04206 1.35338 0.00981435 10
-4.79024 5.03025 1.60366 0.00958029 10
-4.79805 5.03846 1.86427 0.00931274 10
-4.82246 5.02881 -1.86692 0.0118965 10
-4.94559 5.15722 -1.64963 0.00478805 10
-4.94146 5.1529 -1.38775 0.00490284 10
-4.93591 5.14712 -1.12949 0.00499976 10
-4.94439 5.15596 -0.877122 0.00507791 10
-4.94888 5.16064 -0.625551 0.00513659 10
-4.9433 5.15482 -0.374297 0.00517527 10
-4.94993 5.16173 -0.124832 0.00519358 10
-4.95005 5.16186 0.124835 0.00519137 10
-4.9576 5.16974 0.37538 0.00516864 10
-4.94048 5.15188 0.624489 0.00512562 10
-4.94151 5.15296 0.876612 0.00506269 10
-4.81532 5.02137 1.1019 0.0099663 10
-4.82071 5.02699 1.35384 0.00976872 10
-4.82953 5.03618 1.61091 0.00953572 10
-4.82878 5.03541 1.86937 0.00926939 10
-4.84567 5.01784 -1.86911 0.0118405 10
-4.91196 5.08648 -1.63248 0.00492065 10
-4.90998 5.08444 -1.37392 0.00503857 10
-4.91524 5.08988 -1.12069 0.00513812 10
-4.91113 5.08563 -0.868069 0.0052184 10
-4.92646 5.1015 -0.620463 0.00527869 10
-4.93239 5.10765 -0.372119 0.00531842 10
-4.92141 5.09627 -0.123663 0.00533725 10
-4.92529 5.10029 0.12376 0.00533499 10
-4.92195 5.09683 0.371331 0.00531167 10
-4.92581 5.10083 0.620381 0.0052675 10
-4.91768 5.09241 0.869227 0.00520289 10
-4.84585 5.01802 1.10487 0.00991953 10
-4.84618 5.01837 1.35607 0.00972286 10
-4.85663 5.02918 1.61409 0.00949093 10
-4.85769 5.03029 1.87375 0.00922582 10
-4.86979 5.00772 -1.87166 0.0117844 10
-4.90456 5.04347 -1.62416 0.00505548 10
-4.88953 5.02802 -1.36328 0.00517657 10
-4.8872 5.02562 -1.11029 0.0052788 10
-4.89803 5.03675 -0.86264 0.00536125 10
-4.90287 5.04173 -0.615271 0.00542317 10
-4.89338 5.03198 -0.367849 0.00546398 10
-4.90367 5.04256 -0.122774 0.00548333 10
-4.89076 5.02929 0.122451 0.00548103 10
-4.90211 5.04096 0.368505 0.00545711 10
-4.89631 5.03499 0.614448 0.00541178 10
-4.89319 5.03179 0.861789 0.00534546 10
-4.86241 5.00012 1.10466 0.00987252 10
-4.86515 5.00295 1.35648 0.00967676 10
-4.88187 5.02014 1.61665 0.0094459 10
-4.86647 5.00431 1.87039 0.00918202 10
-4.88793 4.99139 -1.87192 0.0117278 10
-4.88984 4.99334 -1.6135 0.0120638 10
-4.8885 4.99197 -1.35812 0.0123575 10
-4.90659 5.01045 -1.11072 0.0126063 10
-4.90638 5.01023 -0.861024 0.012808 10
-4.89373 4.99732 -0.611932 0.0129608 10
-4.88676 4.9902 -0.366039 0.0130632 10
-4.89034 4.99385 -0.122003 0.0131144 10
-4.90132 5.00506 0.122277 0.0131138 10
-4.89543 4.99904 0.366688 0.0130614 10
-4.89577 4.99939 0.612186 0.0129578 10
-4.894 4.99758 0.858852 0.0128039 10
-4.90568 5.00952 1.11051 0.00982526 10
-4.90545 5.00928 1.36283 0.00963041 10
-4.8982 5.00188 1.61626 0.00940063 10
-4.89844 5.00212 1.87595 0.00913799 10
-4.92065 4.98985 -1.87778 0.0116711 10
-4.92121 4.99041 -1.6181 0.0120054 10
-4.91625 4.98538 -1.36099 0.0122977 10
-4.93075 5.00008 -1.11223 0.0125454 10
-4.91236 4.98144 -0.859018 0.0127461 10
-4.92348 4.99271 -0.613469 0.0128982 10
-4.91628 4.98541 -0.366945 0.0130001 10
-4.91117 4.98023 -0.122089 0.013051 10
-4.9199 4.98908 0.122305 0.0130504 10
-4.91389 4.98299 0.366767 0.0129983 10
-4.9259 4.99517 0.61377 0.0128953 10
-4.91601 4.98514 0.859656 0.0127421 10
-4.92289 4.99211 1.11045 0.00977777 10
-4.92562 4.99488 1.36358 0.00958384 10
-4.9198 4.98898 1.61763 0.00935515 10
-4.93003 4.99936 1.88135 0.00909375 10
-4.9443 4.97894 -1.88016 0.011614 10
-4.93642 4.971 -1.61738 0.0119467 10
-4.94193 4.97655 -1.36328 0.0122377 10
-4.93608 4.97066 -1.10951 0.0124841 10
-4.94357 4.97821 -0.861432 0.012684 10
-4.95346 4.98816 -0.61503 0.0128353 10
-4.95197 4.98666 -0.368307 0.0129367 10
-4.95517 4.98989 -0.122749 0.0129874 10
-4.94754 4.9822 0.122559 0.0129868 10
-4.93686 4.97145 0.367184 0.012935 10
-4.95666 4.99139 0.615428 0.0128324 10
-4.95598 4.9907 0.863594 0.0126799 10
-4.93808 4.97268 1.10996 0.00973005 10
-4.93838 4.97298 1.3623 0.00953704 10
-4.93738 4.97197 1.6177 0.00930944 10
-4.93759 4.97218 1.8776 0.00904928 10
-4.96668 4.96668 -1.88206 0.0115567 10
-4.96318 4.96319 -1.62046 0.0118878 10
-4.9776 4.97761 -1.36832 0.0121773 10
-4.96929 4.96929 -1.11307 0.0124226 10
-4.96717 4.96717 -0.862518 0.0126215 10
-4.96341 4.96341 -0.614111 0.0127721 10
-4.97671 4.97672 -0.368853 0.012873 10
-4.96612 4.96613 -0.12259 0.0129235 10
-4.97338 4.97339 0.122769 0.0129229 10
-4.97976 4.97977 0.369079 0.0128713 10
-4.96694 4.96694 0.614548 0.0127692 10
-4.96565 4.96565 0.862253 0.0126174 10
-4.97874 4.97874 1.11518 0.0096821 10
-4.96908 4.96908 1.36598 0.00949003 10
-4.96433 4.96434 1.62084 0.00926352 10
-4.96468 4.96468 1.8813 0.00900461 10
-4.994 4.95926 -1.88584 0.0114991 10
-5.00387 4.96906 -1.62807 0.0118286 10
-5.003 4.9682 -1.37053 0.0121167 10
-4.98624 4.95155 -1.11299 0.0123608 10
-5.00323 4.96842 -0.865762 0.0125587 10
-4.99537 4.96062 -0.61592 0.0127086 10
-4.99391 4.95916 -0.368842 0.012809 10
-4.99214 4.95741 -0.122804 0.0128592 10
-4.99889 4.96412 0.12297 0.0128586 10
-5.00036 4.96557 0.369319 0.0128073 10
-5.00405 4.96924 0.616989 0.0127057 10
-4.99463 4.95988 0.864274 0.0125547 10
-5.00716 4.97233 1.11766 0.00963392 10
-4.99349 4.95875 1.36792 0.00944278 10
-4.98837 4.95366 1.62303 0.00921737 10
-5.0022 4.9674 1.88894 0.00895973 10
-5.0183 4.94872 -1.88848 0.0114413 10
-5.01972 4.95012 -1.6276 0.0117692 10
-5.01367 4.94415 -1.36871 0.0120559 10
-5.02037 4.95076 -1.11674 0.0122988 10
-5.01935 4.94975 -0.865557 0.0124957 10
-5.01313 4.94362 -0.615978 0.0126448 10
-5.0268 4.9571 -0.369991 0.0127448 10
-5.01906 4.94947 -0.123041 0.0127947 10
-5.02375 4.95409 0.123155 0.0127941 10
-5.02812 4.9584 0.370089 0.012743 10
-5.01327 4.94376 0.615995 0.0126419 10
-5.02602 4.95633 0.866707 0.0124916 10
-5.01285 4.94334 1.11507 0.00958553 10
-5.02632 4.95662 1.37217 0.00939533 10
-5.02681 4.95711 1.6299 0.00917103 10
-5.03153 4.96176 1.89346 0.00891464 10
-5.03917 4.93472 -1.88984 0.0113831 10
-5.0369 4.9325 -1.62758 0.0117094 10
-5.04693 4.94232 -1.37307 0.0119947 10
-5.05469 4.94991 -1.12052 0.0122364 10
-5.04351 4.93897 -0.866744 0.0124323 10
-5.04976 4.94509 -0.618354 0.0125807 10
-5.04762 4.94299 -0.370251 0.0126802 10
-5.05376 4.94901 -0.123467 0.0127299 10
-5.05232 4.94759 0.123432 0.0127293 10
-5.0553 4.95052 0.370815 0.0126784 10
-5.04152 4.93702 0.617344 0.0125778 10
-5.04297 4.93844 0.866652 0.0124283 10
-5.04664 4.94204 1.11874 0.00953692 10
-5.04097 4.93648 1.37145 0.00934766 10
-5.04941 4.94474 1.63162 0.00912447 10
-5.04389 4.93934 1.89162 0.00886935 10
-5.06742 4.92785 -1.89398 0.0113248 10
-5.07614 4.93634 -1.63468 0.0116494 10
-5.06396 4.92449 -1.37302 0.0119333 10
-5.06169 4.92227 -1.11826 0.0121738 10
-5.08052 4.94059 -0.870136 0.0123687 10
-5.07351 4.93377 -0.619149 0.0125164 10
-5.06168 4.92227 -0.37002 0.0126153 10
-5.07688 4.93705 -0.12361 0.0126648 10
-5.06466 4.92517 0.123312 0.0126642 10
-5.0635 4.92404 0.370153 0.0126136 10
-5.07798 4.93812 0.619694 0.0125135 10
-5.07346 4.93372 0.868926 0.0123647 10
-5.08209 4.94211 1.12277 0.0094881 10
-5.06711 4.92755 1.37388 0.00929979 10
-5.07518 4.9354 1.63437 0.00907771 10
-5.06871 4.92911 1.89446 0.00882387 10
-5.10485 4.9297 -1.90152 0.0112662 10
-5.08755 4.91299 -1.63282 0.0115892 10
-5.09422 4.91944 -1.37656 0.0118716 10
-5.09754 4.92264 -1.12238 0.0121109 10
-5.10609 4.9309 -0.871562 0.0123048 10
-5.10096 4.92594 -0.620397 0.0124517 10
-5.09185 4.91714 -0.370969 0.0125502 10
-5.09848 4.92355 -0.123717 0.0125994 10
-5.10026 4.92527 0.12376 0.0125988 10
-5.10142 4.92639 0.371666 0.0125485 10
-5.09761 4.92271 0.61999 0.0124489 10
-5.10085 4.92584 0.870667 0.0123009 10
-5.09221 4.91749 1.1212 0.00943908 10
-5.10634 4.93114 1.37984 0.00925172 10
-5.10477 4.92963 1.63835 0.00903076 10
-5.0924 4.91768 1.89688 0.0087782 10
-5.11318 4.90337 -1.89824 0.0112073 10
-5.11239 4.90261 -1.63529 0.0115287 10
-5.12183 4.91166 -1.37938 0.0118097 10
-5.1153 4.9054 -1.12251 0.0120477 10
-5.12517 4.91486 -0.871885 0.0122407 10
-5.11901 4.90896 -0.620505 0.0123868 10
-5.12838 4.91794 -0.372377 0.0124848 10
-5.12926 4.91879 -0.124046 0.0125338 10
-5.12901 4.91854 0.12404 0.0125332 10
-5.11209 4.90232 0.371195 0.0124831 10
-5.11982 4.90973 0.620602 0.012384 10
-5.11474 4.90486 0.87011 0.0122367 10
-5.1313 4.92074 1.12602 0.00938985 10
-5.11565 4.90573 1.37772 0.00920344 10
-5.11643 4.90648 1.63658 0.0089836 10
-5.11303 4.90322 1.89818 0.00873233 10
-5.14483 4.89936 -1.90363 0.0111483 10
-5.14804 4.90241 -1.64121 0.011468 10
-5.13755 4.89242 -1.37901 0.0117475 10
-5.13887 4.89368 -1.12393 0.0119843 10
-5.14752 4.90192 -0.872772 0.0121763 10
-5.15654 4.9105 -0.622972 0.0123217 10
-5.13742 4.8923 -0.371791 0.0124192 10
-5.14163 4.89631 -0.123931 0.0124678 10
-5.14204 4.8967 0.123941 0.0124673 10
-5.15887 4.91273 0.373344 0.0124175 10
-5.13973 4.8945 0.620941 0.0123188 10
-5.15582 4.90983 0.874179 0.0121723 10
-5.15086 4.9051 1.12655 0.00934042 10
-5.14369 4.89827 1.38066 0.00915497 10
-5.14159 4.89628 1.63916 0.00893627 10
-5.15626 4.91024 1.90786 0.00868629 10
-5.17162 4.89056 -1.90721 0.0110889 10
-5.17927 4.8978 -1.64571 0.011407 10
-5.17761 4.89623 -1.38517 0.011685 10
-5.16682 4.88602 -1.1263 0.0119206 10
-5.17605 4.89474 -0.874705 0.0121116 10
-5.17155 4.89049 -0.622719 0.0122563 10
-5.16877 4.88786 -0.372823 0.0123533 10
-5.16282 4.88224 -0.124031 0.0124017 10
-5.18251 4.90085 0.124503 0.0124011 10
-5.16757 4.88673 0.372737 0.0123515 10
-5.16799 4.88713 0.622291 0.0122534 10
-5.18344 4.90174 0.875955 0.0121077 10
-5.17873 4.89728 1.1289 0.0092908 10
-5.16583 4.88509 1.38201 0.00910631 10
-5.18261 4.90095 1.64677 0.00888874 10
-5.17331 4.89216 1.90784 0.00864006 10
-5.20353 4.88644 -1.91268 0.0110294 10
-5.19005 4.87378 -1.64371 0.0113458 10
-5.18923 4.87301 -1.38371 0.0116224 10
-5.18878 4.87259 -1.12738 0.0118568 10
-5.18967 4.87343 -0.874128 0.0120467 10
-5.19715 4.88045 -0.623747 0.0121906 10
-5.20198 4.88498 -0.373986 0.0122871 10
-5.20838 4.89099 -0.124714 0.0123353 10
-5.20517 4.88798 0.124637 0.0123347 10
-5.20081 4.88388 0.373902 0.0122854 10
-5.19173 4.87536 0.623096 0.0121878 10
-5.19022 4.87395 0.874221 0.0120428 10
-5.19098 4.87465 1.12785 0.00924099 10
-5.19547 4.87888 1.38538 0.00905747 10
-5.19374 4.87725 1.64488 0.00884103 10
-5.20804 4.89068 1.91434 0.00859366 10
-5.21907 4.86686 -1.91213 0.0109696 10
-5.2212 4.86884 -1.64819 0.0112843 10
-5.21787 4.86574 -1.38681 0.0115595 10
-5.22469 4.8721 -1.13148 0.0117926 10
-5.22153 4.86915 -0.876625 0.0119816 10
-5.22946 4.87655 -0.625578 0.0121247 10
-5.23006 4.87711 -0.374779 0.0122207 10
-5.22195 4.86954 -0.124631 0.0122686 10
-5.22557 4.87292 0.124718 0.012268 10
-5.22785 4.87505 0.37462 0.012219 10
-5.22287 4.8704 0.624788 0.0121219 10
-5.22968 4.87675 0.877993 0.0119777 10
-5.22417 4.87162 1.13136 0.00919099 10
-5.22021 4.86792 1.38743 0.00900843 10
-5.22309 4.87061 1.64879 0.00879315 10
-5.23428 4.88105 1.91771 0.00854707 10
-5.24672 4.85852 -1.91604 0.0109097 10
-5.25577 4.8669 -1.65373 0.0112227 10
-5.25369 4.86497 -1.39181 0.0114964 10
-5.24129 4.85349 -1.1314 0.0117282 10
-5.26025 4.87104 -0.880265 0.0119162 10
-5.25431 4.86555 -0.626515 0.0120586 10
-5.24915 4.86077 -0.374929 0.012154 10
-5.25991 4.87073 -0.125131 0.0122017 10
-5.24924 4.86085 0.124877 0.0122011 10
-5.2424 4.85452 0.374447 0.0121523 10
-5.24199 4.85414 0.625046 0.0120558 10
-5.24155 4.85373 0.877138 0.0119123 10
-5.25843 4.86936 1.1351 0.00914081 10
-5.25021 4.86175 1.39089 0.00895923 10
-5.25883 4.86973 1.65469 0.00874509 10
-5.25532 4.86648 1.91918 0.00850034 10
-5.27744 4.85285 -1.92106 0.0108494 10
-5.26958 4.84563 -1.65274 0.0111608 10
-5.28569 4.86044 -1.39579 0.011433 10
-5.2701 4.84611 -1.13396 0.0116636 10
-5.28117 4.85628 -0.880924 0.0118506 10
-5.28406 4.85894 -0.628036 0.0119922 10
-5.27215 4.84799 -0.37536 0.0120871 10
-5.28686 4.86152 -0.125367 0.0121345 10
-5.27456 4.85021 0.125076 0.012134 10
-5.26731 4.84354 0.375015 0.0120854 10
-5.26817 4.84433 0.626146 0.0119894 10
-5.28567 4.86042 0.881675 0.0118467 10
-5.28351 4.85843 1.13684 0.00909045 10
-5.28468 4.85951 1.39552 0.00890984 10
-5.26863 4.84476 1.65245 0.00869686 10
-5.28129 4.85639 1.92246 0.00845342 10
-5.30781 4.8467 -1.92595 0.010789 10
-5.29474 4.83476 -1.65533 0.0110987 10
-5.30781 4.8467 -1.39715 0.0113694 10
-5.31164 4.85019 -1.13924 0.0115988 10
-5.30916 4.84793 -0.882765 0.0117848 10
-5.30042 4.83995 -0.627968 0.0119256 10
-5.2985 4.83819 -0.376032 0.01202 10
-5.29775 4.83751 -0.125224 0.0120671 10
-5.29841 4.83811 0.12524 0.0120666 10
-5.29229 4.83252 0.375591 0.0120183 10
-5.30006 4.83962 0.627926 0.0119228 10
-5.31284 4.85129 0.883378 0.0117809 10
-5.29291 4.83309 1.13523 0.00903993 10
-5.2975 4.83728 1.39444 0.0088603 10
-5.29826 4.83798 1.65643 0.00864847 10
-5.30038 4.83991 1.92325 0.00840635 10
-5.32242 4.82608 -1.92512 0.0107285 10
-5.32149 4.82524 -1.65842 0.0110364 10
-5.33091 4.83378 -1.39878 0.0113056 10
-5.32188 4.82559 -1.13782 0.0115338 10
-5.3337 4.8363 -0.884033 0.0117187 10
-5.32195 4.82566 -0.62852 0.0118588 10
-5.32248 4.82613 -0.376536 0.0119527 10
-5.33526 4.83772 -0.125711 0.0119995 10
-5.31948 4.82341 0.125339 0.011999 10
-5.33956 4.84162 0.377744 0.011951 10
-5.32591 4.82924 0.628987 0.011856 10
-5.31892 4.82291 0.881584 0.0117149 10
-5.32428 4.82777 1.13833 0.00898923 10
-5.33865 4.84079 1.40081 0.00881059 10
-5.3388 4.84093 1.66381 0.00859991 10
-5.33221 4.83496 1.92866 0.00835912 10
-5.35086 4.81794 -1.92931 0.0106677 10
-5.34771 4.8151 -1.66134 0.0109739 10
-5.36171 4.8277 -1.40243 0.0112417 10
-5.35934 4.82557 -1.14222 0.0114685 10
-5.34367 4.81146 -0.882897 0.0116524 10
-5.34749 4.8149 -0.629548 0.0117917 10
-5.36537 4.831 -0.378375 0.0118851 10
-5.35821 4.82455 -0.125854 0.0119317 10
-5.35505 4.82171 0.12578 0.0119311 10
-5.35638 4.82291 0.377741 0.0118834 10
-5.34632 4.81385 0.629409 0.0117889 10
-5.34655 4.81405 0.883372 0.0116486 10
-5.35415 4.8209 1.14112 0.00893836 10
-5.3637 4.82949 1.40295 0.00876071 10
-5.35166 4.81866 1.66257 0.0085512 10
-5.34871 4.816 1.92854 0.00831173 10
-5.383 4.81296 -1.93483 0.0106067 10
-5.39102 4.82013 -1.66956 0.0109112 10
-5.37145 4.80263 -1.40059 0.0111775 10
-5.37177 4.80292 -1.14129 0.0114031 10
-5.39029 4.81948 -0.887814 0.0115859 10
-5.37709 4.80768 -0.631053 0.0117244 10
-5.38511 4.81484 -0.378579 0.0118173 10
-5.37565 4.80638 -0.125869 0.0118637 10
-5.38986 4.81909 0.126202 0.0118631 10
-5.38787 4.81731 0.378773 0.0118156 10
-5.37998 4.81026 0.631391 0.0117217 10
-5.38689 4.81644 0.887255 0.0115821 10
-5.38362 4.81352 1.14381 0.00888735 10
-5.377 4.80759 1.40203 0.00871067 10
-5.38503 4.81478 1.6677 0.00850234 10
-5.39193 4.82095 1.93804 0.00826421 10
-5.39661 4.79133 -1.9337 0.0105455 10
-5.39644 4.79118 -1.66605 0.0108483 10
-9.84536 8.74112 -2.55917 0.000588816 10
-12.1171 10.7581 -2.56642 0.000291736 10
-15.6398 13.8856 -2.56797 0.000116617 10
-16.8888 14.9946 -1.9759 0.000699878 10
-16.9108 15.0141 -1.18516 0.000237435 10
-16.9277 15.0291 -0.395125 0.000238433 10
-16.9198 15.0221 0.39494 0.000238333 10
-14.7295 13.0775 1.03228 6.21742e-05 10
-8.89519 7.89752 1.04069 0.000367881 10
-6.35432 5.64163 1.04335 0.00111962 10
-5.40016 4.79449 1.14376 0.00883617 10
-5.40016 4.79449 1.4037 0.00866048 10
-5.40883 4.80218 1.66987 0.00845332 10
-5.40433 4.79819 1.93647 0.00821652 10
-5.42562 4.78333 -1.9381 0.0104841 10
-5.44172 4.79753 -1.67485 0.0107852 10
-9.88536 8.71512 -2.56165 0.000588775 10
-12.1411 10.7038 -2.56356 0.000291711 10
-15.6998 13.8413 -2.56988 0.000116603 10
-16.9828 14.9723 -1.98077 0.00069515 10
-16.9729 14.9636 -1.18584 0.000463403 10
-16.9793 14.9693 -0.395109 0.00046552 10
-16.9839 14.9734 0.395216 0.000465495 10
-14.7704 13.0218 1.03196 6.21909e-05 10
-8.9082 7.85364 1.039 0.000367936 10
-6.36555 5.61199 1.04197 0.00111974 10
-5.42509 4.78286 1.1455 0.00878484 10
-5.44472 4.80017 1.41092 0.00861016 10
-5.42364 4.78159 1.66928 0.00840416 10
-5.43625 4.7927 1.9419 0.00816872 10
-5.45101 4.77199 -1.94121 0.0104226 10
-5.45236 4.77318 -1.67298 0.010722 10
-9.92052 8.68476 -2.56289 0.000588734 10
-12.173 10.6566 -2.56242 0.000291685 10
-15.7505 13.7885 -2.57028 0.000116589 10
-17.0574 14.9326 -1.98339 0.000690411 10
-21.5746 18.8871 -1.50273 0.000353968 10
-21.5694 18.8826 -0.500382 0.000355675 10
-21.568 18.8813 0.500349 0.000355654 10
-14.8244 12.9778 1.03256 6.22074e-05 10
-8.93612 7.82298 1.03907 0.000367991 10
-6.40194 5.60448 1.04472 0.00111986 10
-5.45032 4.7714 1.1473 0.00873336 10
-5.47157 4.79 1.41354 0.00855967 10
-5.45974 4.77964 1.67525 0.00835485 10
-5.46734 4.78629 1.94702 0.00812076 10
-5.49038 4.77272 -1.94928 0.0103609 10
-5.49116 4.77339 -1.67976 0.0106586 10
-9.94666 8.6465 -2.56183 0.000588694 10
-12.2289 10.6304 -2.56637 0.00029166 10
-15.7989 13.7338 -2.57035 0.000116575 10
-17.1459 14.9047 -1.98762 0.000685663 10
-17.1785 14.9331 -1.1929 0.000238497 10
-17.1781 14.9327 -0.397298 0.000239503 10
-17.1793 14.9337 0.397325 0.000239405 10
-14.8634 12.9205 1.03213 6.2224e-05 10
-8.96117 7.78983 1.03881 0.000368046 10
-6.41396 5.57557 1.04349 0.00111997 10
-5.47841 4.76231 1.14971 0.00868174 10
-5.49724 4.77868 1.41585 0.00850906 10
-5.49494 4.77668 1.68092 0.00830542 10
-5.48405 4.76722 1.94704 0.00807267 10
-5.52134 4.76589 -1.95436 0.0102991 10
-5.5137 4.7593 -1.68157 0.010595 10
-9.96837 8.60447 -2.55967 0.000588653 10
-12.2517 10.5754 -2.5634 0.000291634 10
-15.8519 13.683 -2.57117 0.000116561 10
-17.2159 14.8604 -1.98971 0.000680905 10
-17.2263 14.8693 -1.1926 0.000453911 10
-17.2173 14.8616 -0.397004 0.000455988 10
-17.2261 14.8692 0.397207 0.000455963 10
-14.9046 12.8653 1.03187 6.22405e-05 10
-8.98628 7.75675 1.03858 0.0003681 10
-6.43083 5.55095 1.04308 0.00112008 10
-5.51417 4.75971 1.15372 0.00862999 10
-5.50344 4.75044 1.41317 0.0084583 10
-5.52443 4.76856 1.68484 0.00825585 10
-5.50459 4.75143 1.94843 0.00802446 10
-5.54082 4.74906 -1.95537 0.010237 10
-5.53677 4.74558 -1.68354 0.0105312 10
-9.99783 8.56918 -2.55954 0.000588612 10
-12.2903 10.5341 -2.56377 0.000291609 10
-15.8951 13.6237 -2.57045 0.000116548 10
-17.3145 14.8403 -1.9951 0.000676139 10
-21.8814 18.7546 -1.51034 0.000346256 10
-21.8902 18.7622 -0.50324 0.000347928 10
-21.8914 18.7632 0.503265 0.000347908 10
-14.9369 12.8025 1.031 6.22569e-05 10
-9.02811 7.73803 1.04028 0.000368154 10
-6.45657 5.53395 1.04412 0.0011202 10
-5.54691 4.75428 1.15709 0.00857809 10
-5.54914 4.75619 1.42063 0.00840742 10
-5.5465 4.75393 1.6865 0.00820615 10
-5.54744 4.75473 1.95771 0.00797612 10
-5.5693 4.73985 -1.95957 0.0101748 10
-5.5756 4.74521 -1.6903 0.0104673 10
-10.0285 8.53494 -2.55975 0.000588572 10
-12.3247 10.4891 -2.56328 0.000291584 10
-15.9398 13.5658 -2.57001 0.000116534 10
-17.4 14.8085 -1.99898 0.000671365 10
-17.41 14.8171 -1.19813 0.000239532 10
-17.4116 14.8185 -0.399089 0.000240546 10
-17.4223 14.8275 0.399333 0.000240449 10
-14.9825 12.7511 1.03107 6.22733e-05 10
-9.05679 7.70794 1.04048 0.000368209 10
-6.4574 5.49568 1.04114 0.00112031 10
-5.56586 4.73692 1.15759 0.00852607 10
-5.57439 4.74418 1.42285 0.00835641 10
-5.57614 4.74567 1.69047 0.00815633 10
-5.55796 4.7302 1.95558 0.00792766 10
-5.59336 4.72675 -1.96222 0.0101125 10
-5.59115 4.72489 -1.69 0.0104032 10
-10.0693 8.50926 -2.56257 0.000588532 10
-12.3802 10.4621 -2.56723 0.000291559 10
-15.9946 13.5164 -2.57122 0.000116521 10
-17.4849 14.7758 -2.00279 0.000666582 10
-17.4787 14.7706 -1.1993 0.000444368 10
-17.4866 14.7773 -0.399623 0.000446403 10
-17.4727 14.7656 0.399304 0.000446379 10
-15.0356 12.7061 1.03167 6.22897e-05 10
-9.07364 7.66782 1.03934 0.000368263 10
-6.48215 5.47784 1.04204 0.00112043 10
-5.60302 4.73492 1.16187 0.00847392 10
-5.59772 4.73044 1.42458 0.00830527 10
-5.59195 4.72556 1.69025 0.00810639 10
-5.60577 4.73724 1.96657 0.00787909 10
-5.61338 4.71019 -1.96346 0.01005 10
-5.61623 4.71258 -1.6926 0.010339 10
-10.099 8.4741 -2.56259 0.000588492 10
-12.3988 10.4039 -2.56353 0.000291534 10
-16.0259 13.4473 -2.56869 0.000116507 10
-17.5717 14.7444 -2.00684 0.000661792 10
-22.2003 18.6283 -1.5188 0.000338511 10
-22.2162 18.6416 -0.506217 0.000340148 10
-22.1973 18.6257 0.505786 0.000340128 10
-15.0814 12.6548 1.03177 6.2306e-05 10
-9.09256 7.62957 1.03845 0.000368317 10
-6.49766 5.45219 1.04147 0.00112054 10
-5.62067 4.7163 1.16211 0.00842165 10
-5.61766 4.71378 1.42546 0.00825401 10
-5.62575 4.72057 1.69547 0.00805633 10
-5.62962 4.72382 1.96915 0.00783039 10
-5.63789 4.69731 -1.96629 0.00998742 10
-5.6374 4.6969 -1.69403 0.0102746 10
-10.1196 8.4313 -2.56031 0.000588452 10
-12.4492 10.3723 -2.56644 0.000291509 10
-16.077 13.3949 -2.56937 0.000116493 10
-17.6471 14.703 -2.00957 0.000656995 10
-17.6743 14.7257 -1.20564 0.000240539 10
-17.6709 14.7229 -0.401476 0.00024156 10
-17.676 14.7271 0.40159 0.000241464 10
-15.114 12.5925 1.03099 6.23222e-05 10
-9.1322 7.60866 1.03993 0.00036837 10
-6.51604 5.42896 1.04137 0.00112065 10
-5.64874 4.70635 1.16451 0.00836926 10
-5.65507 4.71162 1.43077 0.00820264 10
-5.64516 4.70337 1.69636 0.00800616 10
-5.64723 4.7051 1.96955 0.0077816 10
-5.66972 4.6904 -1.97167 0.00992467 10
-5.68278 4.7012 -1.70273 0.0102101 10
-10.1545 8.40054 -2.56172 0.000588413 10
-12.4689 10.3152 -2.56308 0.000291483 10
-16.1373 13.3499 -2.57154 0.00011648 10
-17.7405 14.6762 -2.01437 0.000652192 10
-17.7395 14.6754 -1.20658 0.00043478 10
-17.7259 14.6641 -0.401559 0.000436773 10
-17.7374 14.6737 0.401821 0.000436749 10
-15.1727 12.552 1.032 6.23384e-05 10
-9.15189 7.5711 1.03916 0.000368424 10
-6.54072 5.41096 1.04229 0.00112077 10
-5.68241 4.7009 1.16806 0.00831677 10
-5.6862 4.70404 1.43448 0.00815116 10
-5.67537 4.69508 1.70051 0.00795588 10
-5.66914 4.68992 1.97147 0.0077327 10
-5.70764 4.68831 -1.97915 0.00986179 10
-5.70437 4.68562 -1.70428 0.0101454 10
-10.1867 8.36741 -2.56244 0.000588373 10
-12.5073 10.2736 -2.56357 0.000291459 10
-16.1852 13.2947 -2.57177 0.000116467 10
-17.8095 14.6289 -2.01638 0.000647383 10
-17.9711 14.7616 -1.21882 0.000235876 10
-17.9728 14.763 -0.405982 0.000236881 10
-22.5268 18.5037 0.508852 0.000332322 10
-15.2016 12.4868 1.03099 6.23545e-05 10
-9.17198 7.53395 1.03845 0.000368477 10
-6.56478 5.39237 1.04312 0.00112088 10
-5.70674 4.68757 1.16969 0.00826415 10
-5.70318 4.68464 1.43463 0.00809957 10
-5.69837 4.68069 1.70249 0.0079055 10
-5.70378 4.68513 1.97781 0.00768369 10
-5.7394 4.68094 -1.98449 0.00979879 10
-5.72067 4.66566 -1.70428 0.0100807 10
-10.2175 8.33323 -2.56288 0.000588334 10
-12.5589 10.2428 -2.56681 0.000291434 10
-16.2138 13.2237 -2.56896 0.000116453 10
-17.9165 14.6124 -2.02272 0.000642568 10
-17.9229 14.6176 -1.21209 0.000241512 10
-17.9175 14.6132 -0.40358 0.00024254 10
-17.9281 14.6218 0.403818 0.000242445 10
-15.2424 12.4314 1.03081 6.23706e-05 10
-9.20613 7.50834 1.03934 0.00036853 10
-6.57925 5.36591 1.04244 0.00112099 10
-5.73724 4.67918 1.17259 0.00821144 10
-5.72676 4.67063 1.43645 0.00804789 10
-5.73426 4.67675 1.70833 0.00785502 10
-5.72334 4.66785 1.97894 0.00763459 10
-5.76456 4.66805 -1.98754 0.00973568 10
-5.74777 4.65446 -1.7075 0.0100158 10
-10.2525 8.30231 -2.56436 0.000588294 10
-12.5909 10.1959 -2.56606 0.000291409 10
-16.2631 13.1696 -2.56947 0.00011644 10
-18.0017 14.5775 -2.02658 0.000637748 10
-17.9974 14.574 -1.21368 0.000425155 10
-17.99 14.568 -0.404064 0.000427107 10
-17.9941 14.5714 0.404157 0.000427083 10
-15.2905 12.382 1.03114 6.23867e-05 10
-9.2243 7.4697 1.03844 0.000368584 10
-6.60187 5.3461 1.04306 0.0011211 10
-5.75137 4.65737 1.17215 0.00815864 10
-5.75163 4.65758 1.4386 0.00799611 10
-5.76951 4.67206 1.71396 0.00780446 10
-5.75037 4.65656 1.98265 0.00758541 10
-5.78555 4.65171 -1.98917 0.00967244 10
-5.79027 4.6555 -1.71529 0.00995078 10
-10.2671 8.25492 -2.56078 0.000588255 10
-12.6238 10.1498 -2.56554 0.000291385 10
-16.3217 13.123 -2.57149 0.000116427 10
-18.0885 14.5435 -2.03062 0.000632923 10
-18.216 14.646 -1.22496 0.000236919 10
-18.2269 14.6548 -0.408234 0.000237931 10
-18.2183 14.6479 0.40804 0.00023784 10
-15.3192 12.3169 1.03016 6.24027e-05 10
-9.26603 7.45008 1.04021 0.000368636 10
-6.61619 5.31955 1.04238 0.00112121 10
-5.77697 4.64481 1.17405 0.00810573 10
-5.78411 4.65054 1.44266 0.00794423 10
-5.78723 4.65305 1.71439 0.00775379 10
-5.77688 4.64473 1.98619 0.00753612 10
-5.82504 4.65007 -1.99715 0.00960911 10
-5.81636 4.64314 -1.71821 0.00988565 10
-10.3071 8.22807 -2.56359 0.000588216 10
-12.6568 10.1038 -2.56506 0.00029136 10
-16.3498 13.0519 -2.56871 0.000116413 10
-18.1552 14.4931 -2.03241 0.000628094 10
-18.1733 14.5076 -1.21868 0.000418723 10
-18.1763 14.5099 -0.405962 0.000420647 10
-18.1618 14.4984 0.40564 0.000420623 10
-15.37 12.2697 1.0307 6.24186e-05 10
-9.2923 7.41795 1.04024 0.000368689 10
-6.63155 5.2939 1.04188 0.00112132 10
-5.81528 4.64228 1.17854 0.00805274 10
-5.82226 4.64785 1.44812 0.00789226 10
-5.81288 4.64036 1.71718 0.00770303 10
-5.8116 4.63934 1.99254 0.00748677 10
-5.83743 4.62669 -1.99585 0.00954565 10
-5.83654 4.62599 -1.71939 0.00982043 10
-10.327 8.18509 -2.56142 0.000588177 10
-12.704 10.0691 -2.56747 0.000291336 10
-16.4004 12.9988 -2.56952 0.0001164 10
-18.2499 14.4647 -2.03735 0.000623261 10
-23.0719 18.2866 0.513876 0.00031927 10
-15.4055 12.2103 1.03021 6.24345e-05 10
-9.30008 7.37115 1.03823 0.000368742 10
-6.66268 5.28078 1.04387 0.00112143 10
-5.84741 4.6346 1.18176 0.00799965 10
-5.83399 4.62396 1.44701 0.0078402 10
-5.84804 4.6351 1.72277 0.0076522 10
-5.85042 4.63699 2.00029 0.00743732 10
-5.87959 4.62678 -2.00473 0.00948212 10
-5.87585 4.62384 -1.7262 0.00975511 10
-10.3631 8.15498 -2.5633 0.000588138 10
-12.7308 10.0182 -2.56582 0.000291312 10
-16.4471 12.9426 -2.56974 0.000116387 10
-18.3459 14.4368 -2.04243 0.000618425 10
-23.1809 18.2416 0.514883 0.000316656 10
-15.4625 12.1678 1.03117 6.24503e-05 10
-9.34011 7.34994 1.03982 0.000368794 10
-6.68163 5.25792 1.04396 0.00112154 10
-5.86239 4.61325 1.18153 0.00794649 10
-5.87719 4.62489 1.45371 0.00778808 10
-5.86882 4.61831 1.72414 0.00760129 10
-5.87731 4.62499 2.00395 0.0073878 10
-5.89439 4.6052 -2.00428 0.00941848 10
-5.90717 4.61518 -1.73066 0.00968968 10
-10.3954 8.12174 -2.56424 0.000588099 10
-12.7726 9.97903 -2.56719 0.000291287 10
-16.4911 12.8843 -2.56958 0.000116374 10
-18.431 14.3999 -2.0463 0.000613585 10
-23.3604 18.2511 -1.55362 0.000310045 10
-23.363 18.2532 -0.517509 0.000184614 10
-23.2975 18.202 0.516057 0.000314042 10
-15.495 12.106 1.03052 6.24661e-05 10
-9.34527 7.30132 1.03756 0.000368846 10
-6.69831 5.23329 1.0437 0.00112165 10
-5.90814 4.61594 1.18749 0.00789324 10
-5.90415 4.61283 1.45639 0.00773587 10
-5.90065 4.6101 1.72875 0.0075503 10
-5.88352 4.59671 2.00059 0.00230166 10
-5.93467 4.6034 -2.0125 0.00935476 10
-5.93131 4.60079 -1.73301 0.00962418 10
-10.4234 8.08524 -2.56419 0.000588061 10
-12.8015 9.92985 -2.56602 0.000291263 10
-16.5336 12.8248 -2.56921 0.000116361 10
-18.5243 14.369 -2.05108 0.000608744 10
-23.4096 18.1583 0.517134 0.000311427 10
-15.5338 12.0493 1.03029 6.24818e-05 10
-9.38329 7.27843 1.03895 0.000368898 10
-6.7039 5.20008 1.04174 0.00112176 10
-5.92449 4.59551 1.18755 0.00783993 10
-5.93743 4.60554 1.46062 0.00768359 10
-5.93497 4.60364 1.73409 0.00749925 10
-5.91481 4.588 2.00577 0.00230177 10
-5.94876 4.58116 -2.01185 0.00929096 10
-5.95237 4.58394 -1.73448 0.00955858 10
-10.4541 8.05071 -2.5648 0.000588022 10
-12.8416 9.88937 -2.56713 0.000291239 10
-16.5954 12.7802 -2.57186 0.000116348 10
-18.5963 14.3211 -2.0535 0.000603899 10
-23.535 18.1244 0.518503 0.000308811 10
-15.5828 12.0003 1.03076 6.24975e-05 10
-9.39548 7.23549 1.0375 0.00036895 10
-6.73036 5.18307 1.04303 0.00112187 10
-5.95955 4.58947 1.19136 0.00778654 10
-5.95865 4.58878 1.4619 0.00763124 10
-5.95752 4.58791 1.73598 0.00744812 10
-5.92729 4.56462 2.00458 0.00230187 10
-5.99371 4.58254 -2.02163 0.00922708 10
-5.994 4.58276 -1.74194 0.00949291 10
-10.4747 8.00849 -2.56298 0.000587984 10
-12.8633 9.83472 -2.56458 0.000291215 10
-16.6317 12.7159 -2.57059 0.000116335 10
-18.7053 14.3013 -2.06001 0.000599054 10
-23.6449 18.0779 0.51953 0.000306196 10
-15.6261 11.947 1.03086 6.25132e-05 10
-9.43467 7.21336 1.03904 0.000369002 10
-6.74917 5.16013 1.04315 0.00112198 10
-5.99085 4.58036 1.19441 0.0077331 10
-5.97948 4.57166 1.46308 0.00757883 10
-5.98946 4.57929 1.74062 0.00739694 10
-5.94783 4.54746 2.00615 0.00230197 10
-6.02322 4.57187 -2.02618 0.00916314 10
-6.00955 4.5615 -1.74182 0.00942717 10
-10.506 7.97446 -2.56381 0.000587946 10
-12.9138 9.80211 -2.56782 0.000291191 10
-16.679 12.66 -2.57105 0.000116322 10
-18.7895 14.262 -2.06379 0.000594208 10
-23.7456 18.0239 0.520359 0.000303582 10
-15.6605 11.887 1.03039 6.25287e-05 10
-9.46256 7.18248 1.03934 0.000369053 10
-6.76199 5.13264 1.04236 0.00112209 10
-6.00324 4.55671 1.1937 0.00767959 10
-6.01002 4.56186 1.46665 0.00752637 10
-6.01427 4.56508 1.74319 0.0073457 10
-5.95686 4.52151 2.00386 0.00230207 10
-6.03865 4.55045 -2.02602 0.00909912 10
-6.05 4.559 -1.74892 0.00936135 10
-10.5191 7.92668 -2.56024 0.000587908 10
-12.9492 9.75795 -2.56808 0.000291167 10
-16.7149 12.5955 -2.56979 0.000116309 10
-18.868 14.2181 -2.06695 0.000589361 10
-23.875 17.9911 0.521815 0.000300967 10
-15.6949 11.8269 1.02992 6.25443e-05 10
-9.47112 7.137 1.03754 0.000369104 10
-6.78787 5.11503 1.04359 0.00112219 10
-6.03502 4.54772 1.19686 0.00762602 10
-6.04239 4.55327 1.47066 0.00747385 10
-6.03431 4.54718 1.74439 0.0072944 10
-5.97351 4.50136 2.00417 0.00230217 10
-6.07538 4.54497 -2.03301 0.00903504 10
-6.07403 4.54396 -1.75127 0.00929547 10
-10.55 7.89242 -2.56105 0.00058787 10
-12.9788 9.70938 -2.5672 0.000291144 10
-16.7745 12.5489 -2.57221 0.000116297 10
-18.9629 14.1861 -2.07191 0.000584514 10
-23.983 17.9416 0.522804 0.000298354 10
-15.7423 11.7768 1.03033 6.25597e-05 10
-9.5154 7.11843 1.03966 0.000369155 10
-6.79507 5.08336 1.04196 0.0011223 10
-6.06181 4.53482 1.19903 0.00757241 10
-6.06513 4.5373 1.47233 0.00742127 10
-6.08172 4.54971 1.75349 0.00724306 10
-5.98457 4.47703 2.00262 0.00230227 10
-6.10754 4.53586 -2.03846 0.0089709 10
-6.10625 4.5349 -1.75599 0.00922953 10
-10.5825 7.85927 -2.56227 0.000587833 10
-13.0122 9.6637 -2.56712 0.00029112 10
-16.8192 12.491 -2.57236 0.000116284 10
-19.0681 14.1612 -2.07799 0.000579666 10
-24.1528 17.9375 -1.57669 0.000291961 10
-24.1655 17.9469 -0.525413 0.000293386 10
-24.0896 17.8905 0.523763 0.000295742 10
-15.7822 11.7209 1.03026 6.25751e-05 10
-9.52034 7.07043 1.0375 0.000369206 10
-6.81304 5.05981 1.042 0.00112241 10
-6.0991 4.52959 1.20327 0.00751874 10
-6.09189 4.52424 1.47498 0.00736865 10
-6.09501 4.52655 1.75276 0.00719167 10
-6.00247 4.45782 2.00339 0.00230237 10
-6.13832 4.52556 -2.04345 0.00890672 10
-6.12932 4.51893 -1.75808 0.00916355 10
-10.6237 7.8325 -2.56561 0.000587795 10
-13.0389 9.61312 -2.56576 0.000291096 10
-16.8618 12.4316 -2.57223 0.000116271 10
-19.1446 14.1146 -2.08094 0.00057482 10
-24.1923 17.8361 -1.5752 0.000184286 10
-24.2101 17.8493 -0.525026 0.000185126 10
-24.2001 17.8418 0.524807 0.000185056 10
-15.831 11.6716 1.03078 6.25905e-05 10
-9.55079 7.04146 1.03813 0.000369257 10
-6.81978 5.02798 1.04034 0.00112251 10
-6.12175 4.51334 1.20462 0.00746504 10
-6.12514 4.51584 1.47921 0.00731599 10
-6.13163 4.52063 1.75874 0.00714024 10
-6.02003 4.43835 2.00407 0.00230247 10
-6.16256 4.51031 -2.04626 0.00884249 10
-6.15285 4.5032 -1.76031 0.00909751 10
-10.6455 7.79135 -2.56429 0.000587758 10
-11.1299 8.14585 -2.1845 0.00148906 10
-11.1348 8.14941 -1.69423 0.00151422 10
-11.1452 8.15709 -1.20834 0.00153318 10
-11.152 8.16202 -0.724262 0.00154576 10
-11.1307 8.14646 -0.240765 0.00155182 10
-11.1496 8.16031 0.241174 0.00155131 10
-11.1555 8.16459 0.72449 0.00154425 10
-9.58511 7.01524 1.03919 0.000369307 10
-6.85924 5.0202 1.04368 0.00112262 10
-6.16967 4.51552 1.21094 0.00741129 10
-6.15774 4.50678 1.48327 0.00726329 10
-6.15381 4.50391 1.76058 0.00708877 10
-6.037 4.41842 2.00457 0.00230257 10
-6.18018 4.49017 -2.0469 0.00877822 10
-6.17901 4.48932 -1.7633 0.00903144 10
-10.6681 7.75087 -2.56321 0.00058772 10
-11.1012 8.06552 -2.17333 0.00151768 10
-11.1048 8.06813 -1.68538 0.0015433 10
-11.109 8.07116 -1.20135 0.00156262 10
-11.0983 8.06342 -0.718946 0.00157543 10
-11.1125 8.07367 -0.239758 0.00158161 10
-11.1071 8.06976 0.239642 0.00158109 10
-11.1005 8.06502 0.719088 0.0015739 10
-9.60186 6.97616 1.03836 0.000369358 10
-6.85486 4.98035 1.04036 0.00112273 10
-6.18677 4.49495 1.21121 0.00735751 10
-6.17978 4.48987 1.4848 0.00721056 10
-6.19235 4.49901 1.7671 0.00703728 10
-6.04294 4.39046 2.00144 0.00230267 10
-6.22659 4.49076 -2.05706 0.00871391 10
-6.21347 4.48129 -1.76865 0.00896532 10
-10.684 7.70551 -2.56053 0.000587683 10
-11.074 7.98682 -2.16253 0.0015466 10
-11.0735 7.98649 -1.67639 0.0015727 10
-11.0818 7.99244 -1.19538 0.00159237 10
-11.0802 7.99126 -0.715957 0.00160542 10
-11.0698 7.98377 -0.238235 0.00161171 10
-11.0851 7.99482 0.238564 0.00161119 10
-11.0796 7.99083 0.715918 0.00160387 10
-9.6251 6.94184 1.03825 0.000369408 10
-6.89518 4.97296 1.04384 0.00112283 10
-6.21483 4.48228 1.21363 0.0073037 10
-6.20969 4.47857 1.48822 0.00715779 10
-6.21967 4.48577 1.77042 0.00698575 10
-6.07492 4.38137 2.00696 0.00230277 10
-6.24717 4.47254 -2.05869 0.00864958 10
