VERSION 0.7
FIELDS x y z intensity label
SIZE 4 4 4 4 4
TYPE F F F F F
COUNT 1 1 1 1 1
WIDTH 1142
HEIGHT 1
VIEWPOINT 10.5811 43.8885 2.72843 0.879281 -0.000443676 0.000754483 0.476303
POINTS 1142
DATA ascii
-32.7027 -39.5308 -2.68875 5.42187e-05 10
-32.7021 -39.5301 -0.895508 5.45212e-05 10
-32.6971 -39.5239 0.895368 5.4507e-05 10
-32.4633 -39.2414 2.66907 4.34342e-05 10
-32.707 -39.536 4.48915 4.17404e-05 10
-32.4743 -39.2547 6.2554 4.21634e-05 10
-32.7103 -39.54 8.12772 4.00382e-05 10
-32.4663 -39.245 9.9005 3.99666e-05 10
-32.7071 -39.5361 11.8462 3.74851e-05 10
-32.4691 -39.2484 13.6488 3.69614e-05 10
-6.12554 -7.45735 -2.58587 0.00118495 4
-7.00999 -8.5341 -2.54972 0.000392853 4
-8.34383 -10.1579 -2.55522 0.000168974 4
-11.0098 -13.4035 -2.74727 0.000104028 1
-14.2397 -17.3357 -2.75457 4.1052e-05 1
-19.2315 -23.4128 -2.65079 0.0001133 4
-32.5933 -39.6798 -2.69113 5.39361e-05 10
-32.5989 -39.6866 -0.896469 5.42372e-05 10
-32.5978 -39.6852 0.896438 5.42229e-05 10
-32.5981 -39.6856 2.69153 4.20215e-05 10
-32.6097 -39.6997 4.49479 4.15226e-05 10
-32.6013 -39.6894 6.3065 4.07883e-05 10
-32.6052 -39.6942 8.13597 3.98286e-05 10
-32.6156 -39.7069 9.98823 3.86564e-05 10
-32.6099 -39.6999 11.8611 3.72878e-05 10
-32.6142 -39.7052 13.768 3.57408e-05 10
-6.04455 -7.41135 -2.56259 0.00149307 4
-6.97837 -8.55632 -2.54906 0.000341399 4
-8.30092 -10.1779 -2.55294 0.000165915 4
-10.9735 -13.4549 -2.74993 0.000104039 1
-14.1815 -17.3882 -2.75504 4.10579e-05 1
-19.1611 -23.4938 -2.65238 9.87969e-05 4
-32.4976 -39.8459 -2.69469 5.36514e-05 10
-32.5091 -39.8601 2.69565 4.17997e-05 10
-32.5025 -39.8521 4.49916 4.13031e-05 10
-32.5012 -39.8504 6.31402 4.05724e-05 10
-32.5008 -39.8499 8.14459 3.96173e-05 10
-32.5104 -39.8616 9.99855 3.8451e-05 10
-32.5083 -39.8591 11.8746 3.7089e-05 10
-32.513 -39.8648 13.7839 3.55496e-05 10
-5.9814 -7.38641 -2.54673 0.000391949 4
-6.94621 -8.57785 -2.54824 0.00045523 4
-8.26151 -10.2021 -2.55176 0.000222775 4
-10.925 -13.4912 -2.74955 0.00010405 1
-14.1137 -17.429 -2.75369 4.10638e-05 1
-19.1054 -23.5931 -2.65604 7.21228e-05 4
-32.3937 -40.0029 -2.69764 5.33646e-05 10
-32.3961 -40.0058 2.69784 4.15762e-05 10
-32.4093 -40.0221 4.50557 4.10821e-05 10
-32.4055 -40.0174 6.32253 4.0355e-05 10
-32.4042 -40.0158 8.15533 3.94047e-05 10
-32.4024 -40.0137 10.0082 3.8244e-05 10
-32.4022 -40.0134 11.8869 3.68888e-05 10
-32.4068 -40.019 13.798 3.53571e-05 10
-5.954 -7.40528 -2.54606 0.000570536 4
-6.92783 -8.61648 -2.55251 0.000376674 4
-8.23313 -10.24 -2.55402 0.000172089 4
-10.8774 -13.5288 -2.74945 0.000104061 1
-14.0474 -17.4714 -2.75262 4.10697e-05 1
-19.0372 -23.6775 -2.65804 0.000106872 4
-32.2901 -40.1608 -2.70067 5.30759e-05 10
-32.2959 -40.168 2.70116 4.13512e-05 10
-32.3035 -40.1775 4.51033 4.08596e-05 10
-32.2925 -40.1638 6.32779 4.0136e-05 10
-32.304 -40.178 8.16536 3.91905e-05 10
-32.3047 -40.1789 10.0213 3.80356e-05 10
-32.2983 -40.171 11.9001 3.66872e-05 10
-32.3145 -40.1911 13.8184 3.51633e-05 10
-5.94164 -7.44297 -2.55187 0.000500881 4
-6.89042 -8.63148 -2.54982 0.00036044 4
-8.19657 -10.2677 -2.55378 0.000218202 4
-10.816 -13.549 -2.74587 0.000104072 1
-13.9821 -17.5151 -2.75179 4.10756e-05 1
-18.988 -23.7859 -2.66275 0.000106376 4
-32.1779 -40.3085 -2.70304 5.27852e-05 10
-32.1927 -40.327 2.70428 4.11247e-05 10
-32.1881 -40.3213 4.51383 4.06355e-05 10
-32.1975 -40.3331 6.33673 3.99156e-05 10
-32.1973 -40.3328 8.17393 3.89748e-05 10
-32.2025 -40.3394 10.0332 3.78259e-05 10
-32.2077 -40.3459 11.9185 3.64843e-05 10
-32.2 -40.3362 13.8295 3.49681e-05 10
-5.90904 -7.45535 -2.54903 0.000635939 4
-6.86146 -8.65701 -2.55027 0.000401118 4
-8.1564 -10.2908 -2.55244 0.000144456 4
-10.7682 -13.5861 -2.74575 0.000104083 1
-13.9271 -17.5717 -2.75303 4.10815e-05 1
-18.9251 -23.8776 -2.66561 0.000102643 4
-32.0808 -40.4759 -2.70674 5.24925e-05 10
-32.0885 -40.4856 2.70739 4.08966e-05 10
-32.0808 -40.4759 4.51858 4.04099e-05 10
-32.0995 -40.4995 6.34523 3.96937e-05 10
-32.0972 -40.4966 8.18436 3.87577e-05 10
-32.0934 -40.4919 10.0432 3.76147e-05 10
-32.0933 -40.4916 11.9284 3.628e-05 10
-32.0974 -40.4968 13.8461 3.47716e-05 10
-5.88291 -7.47585 -2.549 0.000514008 4
-6.82447 -8.67235 -2.54775 0.000333385 4
-8.12061 -10.3195 -2.5525 0.000192111 4
-10.7226 -13.626 -2.74623 0.000104094 1
-13.875 -17.632 -2.75487 4.10874e-05 1
-18.8657 -23.9741 -2.66901 0.000101351 4
-31.9801 -40.6394 -2.71019 5.2198e-05 10
-31.975 -40.633 2.70977 4.06671e-05 10
-31.9874 -40.6488 4.52539 4.01829e-05 10
-31.9809 -40.6405 6.3498 3.94704e-05 10
-31.9831 -40.6433 8.1914 3.85393e-05 10
-14.4491 -18.3615 4.54168 0.000158599 10
-31.988 -40.6495 11.942 3.60744e-05 10
-31.9945 -40.6577 13.8628 3.45739e-05 10
-5.86288 -7.50414 -2.55165 0.000675219 4
-6.80274 -8.70711 -2.55097 0.000371357 4
-8.08871 -10.3531 -2.55382 0.000218257 4
-10.6884 -13.6805 -2.74969 0.000104106 1
-13.8077 -17.673 -2.75373 4.10934e-05 1
-18.787 -24.0463 -2.66974 0.000117674 4
-31.8824 -40.8076 -2.71397 5.19016e-05 10
-14.2858 -18.285 1.21607 0.000134444 10
-14.2888 -18.2889 2.03051 0.000133251 10
-31.8784 -40.8024 6.35766 3.92457e-05 10
-31.8824 -40.8076 8.20204 3.83194e-05 10
-14.2299 -18.2134 4.49274 0.000164936 10
-14.2738 -18.2697 5.35257 0.000122637 10
-31.8835 -40.809 13.8764 3.4375e-05 10
-5.8326 -7.51935 -2.54988 0.000653476 4
-6.77389 -8.73285 -2.55157 0.000414756 4
-8.05432 -10.3836 -2.55439 0.000172161 4
-10.6302 -13.7044 -2.74701 0.000104117 1
-13.7345 -17.7064 -2.75146 4.10994e-05 1
-18.7296 -24.1461 -2.67354 9.87792e-05 4
-31.7749 -40.9639 -2.71697 5.16033e-05 10
-14.0422 -18.1031 1.20071 0.000182728 10
-14.0706 -18.1397 2.00849 0.000138491 10
-31.7787 -40.9688 6.36627 3.90196e-05 10
-31.7855 -40.9776 8.21386 3.80982e-05 10
-14.0234 -18.0788 4.44745 0.000171436 10
-14.0671 -18.1352 5.29876 0.00012748 10
-31.7832 -40.9746 13.8949 3.41748e-05 10
-5.80337 -7.53582 -2.54859 0.000588163 4
-6.74756 -8.76189 -2.55316 0.000338876 4
-8.01112 -10.4027 -2.55219 0.000178324 4
-10.5745 -13.7312 -2.74498 0.000104128 1
-13.681 -17.7651 -2.75314 4.11054e-05 1
-18.671 -24.2447 -2.67723 0.000117317 4
-31.658 -41.1087 -2.71923 5.13033e-05 10
-13.8357 -17.9661 1.18841 0.000189808 10
-13.8634 -18.002 1.98787 0.000143862 10
-31.6665 -41.1197 6.3725 3.87921e-05 10
-31.6787 -41.1357 8.22332 3.78757e-05 10
-13.8207 -17.9465 4.403 0.0001781 10
-13.8682 -18.0082 5.24748 0.000132446 10
-31.683 -41.1412 13.9138 3.39735e-05 10
-5.77671 -7.55562 -2.54844 0.000636125 4
-6.70387 -8.76829 -2.54819 0.000379568 4
-7.978 -10.4348 -2.55322 0.000229074 4
-10.5278 -13.7697 -2.7453 0.000104139 1
-13.6191 -17.813 -2.75317 4.11115e-05 1
-18.604 -24.3331 -2.6798 0.000109634 4
-31.5601 -41.2789 -2.72318 5.10016e-05 10
-13.6346 -17.8333 1.17647 0.000197063 10
-13.6584 -17.8645 1.96741 0.000548937 10
-31.56 -41.2787 6.38003 3.85634e-05 10
-14.2812 -18.679 3.72407 7.92164e-05 10
-13.6337 -17.8322 4.36324 0.00018493 10
-13.6509 -17.8546 5.1888 0.000504285 10
-5.75244 -7.57856 -2.54939 0.000557732 4
-6.67859 -8.79872 -2.55024 0.000366037 4
-8.52959 -11.2373 -2.74229 0.000211864 1
-10.4881 -13.8176 -2.74754 0.000104151 1
-13.4373 -17.703 -2.7289 0.000272777 10
-18.5542 -24.4442 -2.68489 0.000102804 4
-31.4629 -41.4508 -2.72726 5.06981e-05 10
-13.4296 -17.6929 1.16411 0.000204497 10
-13.4843 -17.7649 1.95125 0.000155007 10
-31.2259 -41.1386 6.34148 3.94259e-05 10
-14.2182 -18.7318 3.72468 7.92074e-05 10
-13.4238 -17.6852 4.31579 0.000191927 10
-13.4658 -17.7405 5.14196 0.000142751 10
-31.2451 -41.1639 13.8474 3.4537e-05 10
-5.72963 -7.60348 -2.55103 0.000592625 4
-6.64396 -8.81684 -2.54876 0.000322678 4
-8.48982 -11.2664 -2.74213 0.000211882 1
-10.4346 -13.8472 -2.74615 0.000104162 1
-13.25 -17.5833 -2.70331 0.00028295 10
-18.4866 -24.5325 -2.68748 0.000115553 4
-31.3447 -41.5958 -2.72959 5.03931e-05 10
-13.2415 -17.5721 1.15311 0.000212109 10
-13.2884 -17.6343 1.9318 0.000160783 10
-14.1513 -18.7794 3.72431 7.91984e-05 10
-13.2494 -17.5825 4.27942 0.000199094 10
-13.2831 -17.6272 5.09564 0.000148092 10
-5.6907 -7.60691 -2.54551 0.000583945 4
-6.6228 -8.85287 -2.55248 0.000211518 4
-8.45229 -11.2984 -2.74273 0.0002119 1
-10.39 -13.8886 -2.74717 0.000104173 1
-13.0655 -17.465 -2.67809 0.000293364 10
-18.4291 -24.6347 -2.69161 9.63158e-05 4
-31.2368 -41.7551 -2.73287 5.00863e-05 10
-13.0649 -17.4643 1.14303 0.000219902 10
-13.101 -17.5125 1.91343 0.000166696 10
-14.0857 -18.8288 3.72433 7.91893e-05 10
-13.0541 -17.4498 4.23599 0.000206431 10
-13.0918 -17.5001 5.04567 0.000153561 10
-5.67084 -7.63579 -2.54853 0.000444522 4
-6.59191 -8.87601 -2.5525 0.000333571 4
-8.42081 -11.3386 -2.74534 0.000211918 1
-10.3475 -13.9329 -2.74875 0.000104185 1
-12.8784 -17.3407 -2.65213 0.000304022 10
-18.3586 -24.7199 -2.6939 8.65417e-05 4
-31.1461 -41.9383 -2.73772 4.9778e-05 10
-12.8822 -17.346 1.13234 0.000227876 10
-12.9051 -17.3767 1.89366 0.000172747 10
-14.034 -18.8968 3.72807 7.91803e-05 10
-12.8646 -17.3221 4.19408 0.000213941 10
-12.9159 -17.3913 5.00125 0.000159159 10
-5.63746 -7.64646 -2.54551 0.000522998 4
-6.55468 -8.89055 -2.55008 0.000271215 4
-8.37014 -11.353 -2.74172 0.000211937 1
-10.2969 -13.9664 -2.74826 0.000104196 1
-12.6936 -17.2172 -2.62644 0.000314927 10
-18.3065 -24.8304 -2.69896 7.45564e-05 4
-31.031 -42.0895 -2.74051 4.94681e-05 10
-12.6965 -17.2211 1.12129 0.000251662 10
-12.6952 -17.2194 1.87167 0.000249458 10
-12.6892 -17.2112 2.62553 0.000246137 10
-12.6921 -17.2152 3.38755 0.000241734 10
-12.6901 -17.2124 4.15677 0.000236297 10
-12.6837 -17.2038 4.93458 0.00022988 10
-12.6875 -17.2088 5.72883 0.000222551 10
-5.6258 -7.68667 -2.55234 0.000475085 4
-6.5324 -8.92539 -2.55352 0.000314632 4
-8.33837 -11.3929 -2.74432 0.000211955 1
-10.2479 -14.002 -2.74822 0.000104208 1
-12.5212 -17.108 -2.6031 0.000326079 10
-18.2363 -24.9168 -2.70142 0.000116973 4
-30.917 -42.2427 -2.74344 4.91568e-05 10
-33.8765 -46.2864 -1.0012 3.46306e-05 10
-12.5246 -17.1127 1.11138 0.000260558 10
-12.5176 -17.1031 1.85428 0.000258278 10
-12.5238 -17.1116 2.60364 0.000254846 10
-12.514 -17.0981 3.3559 0.000250295 10
-12.5092 -17.0916 4.11702 0.000244675 10
-12.5178 -17.1034 4.89321 0.000238042 10
-12.5161 -17.101 5.67836 0.000230466 10
-5.59617 -7.70247 -2.55108 0.00056665 4
-6.49384 -8.938 -2.55063 0.000393317 4
-8.30293 -11.428 -2.74578 0.000211974 1
-10.1903 -14.0258 -2.74588 0.000104219 1
-12.3409 -16.9858 -2.57794 0.000337482 10
-12.3456 -16.9922 -1.83757 0.000342249 10
-12.3402 -16.9848 -1.10027 0.000345494 10
-12.3398 -16.9843 -0.366448 0.000347183 10
-12.3478 -16.9952 0.366683 0.000347298 10
-12.3442 -16.9903 1.10063 0.000269653 10
-12.3382 -16.9821 1.83648 0.000267298 10
-12.3441 -16.9901 2.5786 0.000263751 10
-12.3376 -16.9813 3.32449 0.000259049 10
-12.3328 -16.9746 4.07845 0.000253241 10
-12.3391 -16.9834 4.84652 0.000246388 10
-12.3381 -16.982 5.62449 0.00023856 10
-5.56572 -7.71706 -2.54947 0.000623352 4
-6.46195 -8.95971 -2.55037 0.000396058 4
-8.25221 -11.442 -2.74219 0.000211992 1
-10.1365 -14.0546 -2.74457 0.000104231 1
-12.1838 -16.8933 -2.55742 0.000349137 10
-12.1854 -16.8954 -1.82249 0.000354059 10
-12.1812 -16.8896 -1.09134 0.000357409 10
-12.176 -16.8825 -0.363332 0.000359152 10
-12.1721 -16.8771 0.363214 0.000359269 10
-11.5896 -16.0694 1.03834 0.00031871 10
-11.5905 -16.0707 1.73353 0.000315956 10
-11.5875 -16.0665 2.43225 0.000311808 10
-11.5816 -16.0582 3.13585 0.00030631 10
-11.5763 -16.051 3.84679 0.000299518 10
-11.5913 -16.0718 4.57481 0.000291501 10
-11.588 -16.0672 5.30808 0.000282343 10
-5.54246 -7.74163 -2.55118 0.000601593 4
-6.42759 -8.97796 -2.54916 0.000360818 4
-8.2172 -11.4777 -2.74386 0.000212011 1
-10.092 -14.0964 -2.74585 0.000104242 1
-12.0187 -16.7875 -2.53504 0.000361046 10
-12.0019 -16.7641 -1.8038 0.000366126 10
-12.0536 -16.8363 -1.08517 0.000940042 10
-12.0493 -16.8303 -0.3613 0.000944116 10
-12.0428 -16.8212 0.361105 0.000943919 10
-11.4968 -16.0586 1.03504 0.000833438 10
-11.4874 -16.0454 1.72647 0.000825801 10
-11.4858 -16.0431 2.42264 0.000814531 10
-11.4946 -16.0554 3.12745 0.000799745 10
-11.42 -15.9513 3.81332 0.000309649 10
-11.4947 -16.0556 4.55875 0.000760263 10
-11.4851 -16.0422 5.28655 0.000735972 10
-5.50991 -7.75319 -2.54863 0.000466481 4
-6.39716 -9.00167 -2.54954 0.000423246 4
-8.16821 -11.4938 -2.74088 0.000212029 1
-10.0452 -14.1349 -2.7465 0.000104254 1
-11.8498 -16.6743 -2.51168 0.000373211 10
-11.849 -16.6732 -1.78956 0.000378453 10
-12.0028 -16.8896 -1.0859 0.000935275 10
-12.0064 -16.8946 -0.361779 0.000939329 10
-12.0133 -16.9043 0.361987 0.000939133 10
-11.4513 -16.1135 1.036 0.000829249 10
-11.444 -16.1033 1.72839 0.000821648 10
-11.4437 -16.1028 2.4256 0.000810432 10
-11.445 -16.1047 3.12925 0.000795716 10
-11.2761 -15.867 3.78375 0.000319997 10
-11.4583 -16.1234 4.56663 0.000756423 10
-11.4468 -16.1072 5.29475 0.000732248 10
-5.48182 -7.77097 -2.54817 0.00041419 4
-6.36188 -9.01854 -2.54801 0.000363583 4
-8.13588 -11.5333 -2.74352 0.000212048 1
-9.99221 -14.1649 -2.74553 0.000104265 1
-11.6931 -16.576 -2.49072 0.000385635 10
-11.6807 -16.5584 -1.77285 0.000391041 10
-11.9665 -16.9636 -1.08797 0.000930483 10
-11.9687 -16.9667 -0.362427 0.000934516 10
-11.9582 -16.9518 0.362109 0.00093432 10
-11.405 -16.1676 1.03691 0.000825037 10
-11.4165 -16.1839 1.73275 0.000817472 10
-11.4085 -16.1726 2.4301 0.00080631 10
-11.4037 -16.1658 3.13337 0.000791665 10
-11.1061 -15.744 3.74513 0.000330561 10
-11.4081 -16.172 4.56909 0.000752562 10
-11.4098 -16.1745 5.30376 0.000728504 10
-5.4632 -7.80226 -2.55216 0.000558101 4
-6.33809 -9.05173 -2.55112 0.00036361 4
-8.10118 -11.5697 -2.74542 0.000212067 1
-9.95041 -14.2107 -2.74766 0.000104277 1
-11.5234 -16.4571 -2.46679 0.000398319 10
-11.5309 -16.4678 -1.75882 0.000403892 10
-11.9291 -17.0365 -1.08997 0.000925665 10
-11.9248 -17.0304 -0.362896 0.000929678 10
-11.9232 -17.0281 0.362846 0.000929483 10
-11.3752 -16.2454 1.03935 0.000820803 10
-11.364 -16.2295 1.73337 0.000813275 10
-11.364 -16.2295 2.43268 0.000802166 10
-11.3634 -16.2286 3.13784 0.000787592 10
-11.0174 -15.7345 3.73371 0.000176806 10
-11.3644 -16.2301 4.57426 0.00074868 10
-11.3775 -16.2487 5.31504 0.000724739 10
-5.42095 -7.79973 -2.54513 0.000645344 4
-6.30211 -9.06755 -2.54937 0.000371777 4
-8.05518 -11.5899 -2.74353 0.000212085 1
-9.89917 -14.243 -2.74722 0.000104289 1
-11.3773 -16.3698 -2.44775 0.000411264 10
-11.3708 -16.3604 -1.74311 0.000417008 10
-11.8744 -17.085 -1.09041 0.000920821 10
-11.8867 -17.1027 -0.363551 0.000924815 10
-11.8785 -17.091 0.363301 0.000924621 10
-11.3288 -16.3 1.0403 0.000816546 10
-11.3291 -16.3004 1.73671 0.000809055 10
-11.3336 -16.307 2.43834 0.000798002 10
-11.3317 -16.3042 3.14478 0.000783499 10
-10.9528 -15.759 3.73042 0.00017679 10
-11.3326 -16.3055 4.58433 0.000744778 10
-11.3256 -16.2954 5.31734 0.000720956 10
-5.4027 -7.83165 -2.54938 0.000545087 4
-6.26977 -9.08855 -2.5491 0.000276817 4
-8.0102 -11.6114 -2.74199 0.000212104 1
-9.84278 -14.2679 -2.74537 0.0001043 1
-11.2094 -16.2489 -2.4238 0.000424474 10
-11.2095 -16.2492 -1.72707 0.000430391 10
-12.0491 -17.4662 -1.11204 0.000575226 10
-12.0621 -17.485 -0.370779 0.000577729 10
-12.0514 -17.4695 0.370451 0.000577607 10
-11.2115 -16.252 1.03474 0.000339031 10
-11.2063 -16.2445 1.72657 0.000336098 10
-11.2607 -16.3233 2.43489 0.00050899 10
-11.2744 -16.3431 3.14468 0.00049974 10
-10.9053 -15.8081 3.73302 0.000176773 10
-11.2043 -16.2415 4.55533 0.000310079 10
-11.2016 -16.2376 5.2857 0.000300338 10
-5.3708 -7.84385 -2.54723 0.00058437 4
-6.23433 -9.105 -2.5476 0.000141133 4
-7.96915 -11.6386 -2.74183 0.000212123 1
-9.79099 -14.2994 -2.74483 0.000104312 1
-11.0603 -16.1532 -2.40375 0.000437947 10
-11.0673 -16.1633 -1.71384 0.000444041 10
-29.9542 -43.7469 -2.77862 4.6293e-05 10
-29.9477 -43.7374 -0.925255 4.65541e-05 10
-29.9599 -43.7553 0.925632 4.65413e-05 10
-11.1234 -16.2453 1.03183 4.82143e-05 10
-11.0529 -16.1424 1.71161 0.000346752 10
-10.5346 -15.3853 2.28948 0.000390251 10
-10.5303 -15.3791 2.9521 0.000383438 10
-10.5199 -15.3639 3.61944 0.000375023 10
-11.0484 -16.1358 4.51482 0.000319946 10
-11.0548 -16.1451 5.24301 0.00030991 10
-5.34014 -7.85778 -2.54568 0.000558238 4
-6.2138 -9.14332 -2.55223 0.000100429 4
-7.92508 -11.6614 -2.74066 0.000212142 1
-9.75269 -14.3506 -2.74812 0.000104324 1
-10.9127 -16.0575 -2.38382 0.000451688 10
-10.914 -16.0595 -1.69878 0.000457963 10
-12.0526 -17.7348 -1.12376 0.000233456 10
-12.0526 -17.7349 -0.374285 0.000234596 10
-12.0557 -17.7394 0.37438 0.000234668 10
-11.056 -16.2684 1.03084 4.81979e-05 10
-10.9078 -16.0504 1.69781 0.000357618 10
-10.4727 -15.4102 2.28772 0.000940643 10
-10.4762 -15.4153 2.952 0.000923743 10
-10.4671 -15.4019 3.61975 0.000902993 10
-10.9102 -16.0539 4.48122 0.00033001 10
-10.9061 -16.0478 5.19902 0.000319673 10
-5.3206 -7.88811 -2.54948 0.000471043 4
-6.17292 -9.15173 -2.54855 7.05767e-05 4
-7.89528 -11.7052 -2.74447 0.000212161 1
-9.69041 -14.3666 -2.74469 0.000104336 1
-10.7754 -15.9752 -2.36601 0.000465699 10
-10.7662 -15.9615 -1.68443 0.000472157 10
-11.9234 -17.6771 -1.11746 0.000565933 10
-11.9213 -17.674 -0.37212 0.000568399 10
-11.9323 -17.6903 0.372463 0.000568278 10
-10.9969 -16.3036 1.03063 4.81815e-05 10
-10.7698 -15.9669 1.68499 0.000368696 10
-10.4403 -15.4784 2.29243 0.000935619 10
-10.4367 -15.4731 2.95607 0.000918804 10
-10.4433 -15.4829 3.63019 0.00089816 10
-10.7654 -15.9603 4.44459 0.000340272 10
-10.7682 -15.9644 5.15979 0.000329628 10
-5.28249 -7.89088 -2.5444 0.000462348 4
-6.14703 -9.18232 -2.55108 0.000187313 4
-7.85382 -11.7319 -2.74427 0.00021218 1
-9.64091 -14.4014 -2.74489 0.000104348 1
-10.6257 -15.8725 -2.34528 0.000479979 10
-10.6338 -15.8846 -1.67238 0.000486624 10
-10.6213 -15.8658 -1.00061 0.00076027 10
-10.6244 -15.8705 -0.333364 0.000763513 10
-10.6274 -15.875 0.333459 0.000763354 10
-10.6392 -15.8926 1.0023 0.000759794 10
-10.6255 -15.8722 1.67108 0.000379988 10
-10.3954 -15.5284 2.29445 0.000930572 10
-10.4026 -15.5392 2.96175 0.000913843 10
-10.4047 -15.5423 3.6356 0.000893304 10
-10.6212 -15.8658 4.4079 0.000350732 10
-10.6111 -15.8507 5.11102 0.000339777 10
-5.26155 -7.91927 -2.54761 0.000536532 4
-6.1152 -9.20411 -2.55119 0.000230765 4
-7.80543 -11.7481 -2.74168 0.000212199 1
-9.59169 -14.4367 -2.74521 0.000104359 1
-10.4934 -15.7938 -2.32823 0.000494532 10
-10.5576 -15.8905 -1.66911 0.000107877 10
-10.5918 -15.9419 -1.00307 0.000756117 10
-10.5927 -15.9432 -0.334114 0.000759343 10
-10.4768 -15.7688 0.330458 0.000335924 10
-10.4874 -15.7848 0.993186 0.000334527 10
-10.4853 -15.7817 1.65768 0.000391494 10
-10.3509 -15.5794 2.29663 0.000925501 10
-10.3528 -15.5821 2.96303 0.000908859 10
-10.36 -15.5931 3.63899 0.000888427 10
-10.4744 -15.7653 4.3698 0.000361392 10
-10.4833 -15.7786 5.07596 0.00035012 10
-5.23637 -7.94137 -2.54883 0.00065871 4
-6.07426 -9.2121 -2.54751 0.000217207 4
-7.7737 -11.7894 -2.74497 0.000212218 1
-9.54437 -14.4748 -2.74611 0.000104371 1
-10.3534 -15.7017 -2.30932 0.000509357 10
-10.39 -15.7573 -1.6513 0.000776754 10
-10.3901 -15.7574 -0.989177 0.000783552 10
-10.3873 -15.7531 -0.329367 0.000786887 10
-10.3842 -15.7485 0.32927 0.000786723 10
-10.3893 -15.7562 0.989102 0.000783062 10
-10.3482 -15.6939 1.64466 0.000403217 10
-10.318 -15.648 2.30142 0.000920409 10
-10.3237 -15.6567 2.97033 0.000903853 10
-10.3226 -15.655 3.64501 0.000883528 10
-10.3422 -15.6848 4.33746 0.000372253 10
-10.3411 -15.6831 5.03359 0.000360658 10
-5.20443 -7.9532 -2.54678 0.000667476 4
-6.49081 -9.919 -2.73671 0.000376136 1
-7.72725 -11.8085 -2.74311 0.000212237 1
-9.4867 -14.4972 -2.74406 0.000104383 1
-10.216 -15.6116 -2.29081 0.000524459 10
-10.2056 -15.5957 -1.63063 0.000351191 10
-10.2021 -15.5904 -0.976449 0.000354434 10
-10.2035 -15.5926 -0.325265 0.000356115 10
-10.2045 -15.5941 0.325297 0.000356217 10
-10.2115 -15.6047 0.977348 0.000354739 10
-10.2101 -15.6027 1.63136 0.000415156 10
-10.207 -15.5979 2.28879 0.000409753 10
-10.2 -15.5872 2.95038 0.000402593 10
-10.2095 -15.6017 3.62428 0.000393751 10
-10.2054 -15.5955 4.3029 0.000383316 10
-10.2008 -15.5885 4.99176 0.000371393 10
-5.17283 -7.96546 -2.54491 0.000602075 4
-6.45992 -9.9474 -2.73831 0.000376164 1
-7.6808 -11.8274 -2.74126 0.000212256 1
-9.44273 -14.5405 -2.746 0.000104395 1
-10.081 -15.5234 -2.27268 0.000539835 10
-10.1455 -15.6227 -1.62974 0.000800822 10
-10.1547 -15.6369 -0.977137 0.000807815 10
-10.1476 -15.6259 -0.325218 0.000811244 10
-10.1504 -15.6302 0.325307 0.000811075 10
-10.1571 -15.6406 0.977368 0.000807309 10
-10.074 -15.5126 1.61825 0.000427313 10
-10.0662 -15.5005 2.26933 0.000421758 10
-10.0726 -15.5105 2.92918 0.000414399 10
-10.0639 -15.4971 3.59178 0.000405309 10
-10.065 -15.4988 4.26649 0.000394582 10
-10.0693 -15.5053 4.95383 0.000382324 10
-5.1464 -7.98564 -2.5456 0.000501761 4
-6.43567 -9.9862 -2.74279 0.000376192 1
-7.64521 -11.863 -2.74332 0.000212275 1
-9.38649 -14.565 -2.74442 0.000104407 1
-9.94066 -15.4249 -2.25317 0.000555492 10
-9.94714 -15.4349 -1.60651 0.000830648 10
-9.95008 -15.4395 -0.962624 0.000837883 10
-9.94462 -15.431 -0.320438 0.00084143 10
-9.94733 -15.4352 0.320525 0.000841254 10
-9.95577 -15.4483 0.963175 0.000837358 10
-9.9389 -15.4222 1.60518 0.000439692 10
-9.93854 -15.4216 2.25269 0.000433983 10
-9.94131 -15.4259 2.90664 0.000426419 10
-9.94266 -15.428 3.56771 0.000417078 10
-9.92791 -15.4051 4.23113 0.000406053 10
-9.93467 -15.4156 4.91406 0.000393456 10
-5.12073 -8.00705 -2.54671 0.000667602 4
-6.38703 -9.98712 -2.7369 0.00037622 1
-7.60598 -11.8931 -2.74412 0.000212295 1
-9.33855 -14.6023 -2.74529 0.000104419 1
-9.81684 -15.3502 -2.23723 0.000571426 10
-9.90409 -15.4866 -1.60828 0.000825922 10
-9.91581 -15.5049 -0.964539 0.000833117 10
-9.91247 -15.4997 -0.321144 0.000836646 10
-9.90778 -15.4924 0.320992 0.000836471 10
-9.90609 -15.4897 0.963593 0.000832595 10
-9.8123 -15.3431 1.59338 0.000452289 10
-9.80044 -15.3245 2.2335 0.000446423 10
-9.80385 -15.3299 2.88207 0.000438652 10
-9.80048 -15.3246 3.53586 0.000429055 10
-9.80908 -15.338 4.20328 0.000417728 10
-9.80592 -15.3331 4.87682 0.000404785 10
-5.09468 -8.02793 -2.54768 0.000506188 4
-6.36433 -10.0286 -2.74216 0.000376248 1
-7.55964 -11.9121 -2.74239 0.000212314 1
-9.28581 -14.6321 -2.74478 0.000104431 1
-9.67899 -15.2516 -2.21794 0.000587642 10
-9.7064 -15.2948 -1.58484 0.000857075 10
-9.71268 -15.3047 -0.949971 0.000864522 10
-9.70734 -15.2963 -0.316226 0.000868174 10
-9.71264 -15.3047 0.316398 0.000867993 10
-9.70877 -15.2986 0.949588 0.000863981 10
-9.67511 -15.2455 1.57973 0.000465108 10
-9.67155 -15.2399 2.21623 0.000459084 10
-9.67763 -15.2495 2.8606 0.000451102 10
-9.68011 -15.2534 3.51163 0.000441245 10
-9.66956 -15.2368 4.16626 0.000429611 10
-9.67762 -15.2495 4.83946 0.000416317 10
-5.06509 -8.04323 -2.54691 0.000637139 4
-6.31971 -10.0355 -2.73801 0.000376277 1
-7.51667 -11.9363 -2.7419 0.000212333 1
-9.23212 -14.6604 -2.74402 0.000104443 1
-9.55552 -15.1739 -2.20177 0.00060414 10
-9.55578 -15.1743 -1.56889 0.000404505 10
-9.55159 -15.1677 -0.939388 0.000408211 10
-9.55493 -15.173 -0.312984 0.00041013 10
-9.55111 -15.1669 0.312859 0.000410242 10
-9.55221 -15.1686 0.939449 0.000408546 10
-9.56027 -15.1814 1.56962 0.00047815 10
-9.55569 -15.1742 2.20181 0.000471964 10
-9.54504 -15.1573 2.83703 0.000463769 10
-9.5562 -15.175 3.48587 0.000453646 10
-9.54841 -15.1626 4.13684 0.0004417 10
-9.55266 -15.1694 4.80342 0.000428049 10
-5.03958 -8.06502 -2.54822 0.000488795 4
-6.288 -10.0629 -2.73947 0.000376305 1
-7.4748 -11.9622 -2.74184 0.000212353 1
-9.18011 -14.6912 -2.74379 0.000104455 1
-9.43192 -15.0942 -2.18542 0.000620921 10
-9.47749 -15.1672 -1.56472 0.00088468 10
-9.47722 -15.1667 -0.937275 0.000892349 10
-9.47775 -15.1676 -0.312189 0.000896109 10
-9.48452 -15.1784 0.312411 0.000895922 10
-9.48769 -15.1835 0.93831 0.00089179 10
-9.42051 -15.076 1.55531 0.000491417 10
-9.4196 -15.0745 2.18256 0.000485066 10
-9.42528 -15.0836 2.81707 0.000476652 10
-9.42256 -15.0792 3.4563 0.000466262 10
-9.42222 -15.0787 4.10495 0.000453998 10
-9.41908 -15.0737 4.76268 0.000439985 10
-5.0161 -8.09014 -2.55061 0.000606668 4
-6.25627 -10.0903 -2.74098 0.000376333 1
-7.42818 -11.9804 -2.74006 0.000212372 1
-9.13083 -14.7265 -2.74441 0.000104468 1
-9.31311 -15.0205 -2.17002 0.000637987 10
-9.30374 -15.0054 -1.54467 0.000427151 10
-9.30381 -15.0055 -0.925299 0.000431052 10
-9.30459 -15.0068 -0.308208 0.000433072 10
-9.30741 -15.0113 0.308302 0.000433188 10
-9.30763 -15.0117 0.92568 0.000431401 10
-9.30368 -15.0053 1.54466 0.000504908 10
-9.29908 -14.9979 2.16675 0.00049839 10
-9.30981 -15.0152 2.7982 0.000489755 10
-9.30057 -15.0003 3.43074 0.000479091 10
-9.29724 -14.9949 4.07328 0.000466505 10
-9.29819 -14.9964 4.72799 0.000452123 10
-4.9864 -8.10528 -2.54988 0.000589247 4
-6.22285 -10.1151 -2.74179 0.000376362 1
-7.38316 -12.0012 -2.73889 0.000212392 1
-9.08149 -14.7618 -2.74505 0.00010448 1
-9.18542 -14.9307 -2.1524 0.000655339 10
-9.24738 -15.0314 -1.54401 0.00091354 10
-9.24345 -15.025 -0.924507 0.000921439 10
-9.24438 -15.0265 -0.30795 0.000925312 10
-9.25182 -15.0386 0.308197 0.000925119 10
-9.25513 -15.044 0.925676 0.000920861 10
-9.18521 -14.9304 1.53363 0.000518624 10
-9.17667 -14.9165 2.15035 0.00032681 10
-9.18001 -14.9219 2.77483 0.000321155 10
-9.17812 -14.9188 3.40476 0.00031417 10
-8.73781 -14.2031 3.84988 0.000544929 10
-9.17376 -14.9117 4.69116 0.000464466 10
-4.95607 -8.11934 -2.54885 0.000615475 4
-6.17889 -10.1226 -2.73797 0.00037639 1
-7.35236 -12.0451 -2.74305 0.000212411 1
-9.02219 -14.7807 -2.7427 0.000104492 1
-9.0685 -14.8566 -2.13714 0.000672977 10
-9.06158 -14.8452 -1.52163 0.000450561 10
-9.06367 -14.8487 -0.911705 0.000454664 10
-9.06653 -14.8534 -0.30375 0.000456787 10
-9.06799 -14.8557 0.303799 0.000456908 10
-9.05994 -14.8426 0.911329 0.000455025 10
-9.06239 -14.8466 1.52177 0.000532567 10
-9.06741 -14.8548 2.13689 0.000335601 10
-9.14836 -14.9874 2.78106 0.000675646 10
-9.13901 -14.9721 3.40962 0.000660623 10
-8.63014 -14.1384 3.82416 0.000559507 10
-9.06422 -14.8496 4.66162 0.000477014 10
-4.9199 -8.12371 -2.54481 0.000515112 4
-6.14021 -10.1387 -2.7365 0.000376419 1
-7.29922 -12.0524 -2.7389 0.000212431 1
-8.95496 -14.7864 -2.73794 0.000678609 10
-8.94884 -14.7763 -2.12108 0.000690903 10
-9.01554 -14.8864 -1.52262 0.000943736 10
-9.01207 -14.8807 -0.911733 0.000951877 10
-9.0155 -14.8864 -0.30378 0.000955869 10
-9.02338 -14.8994 0.304045 0.000955669 10
-9.02065 -14.8949 0.912602 0.00095128 10
-8.95371 -14.7843 1.51217 0.000546736 10
-8.95033 -14.7787 2.12144 0.000344535 10
-8.51195 -14.0549 3.79351 0.00057432 10
-8.93831 -14.7589 4.62334 0.000489767 10
-4.89255 -8.14257 -2.54535 0.000611189 4
-6.11479 -10.1767 -2.74098 0.000376448 1
-7.2633 -12.0882 -2.74124 0.000212451 1
-8.83097 -14.6972 -2.7157 0.000696519 10
-8.84069 -14.7134 -2.10761 0.00070912 10
-8.8339 -14.7021 -1.5006 0.000474742 10
-8.83743 -14.708 -0.899254 0.000479052 10
-8.82738 -14.6912 -0.299167 0.000481282 10
-8.8407 -14.7134 0.299619 0.000481407 10
-8.83471 -14.7034 0.898978 0.000479426 10
-8.82968 -14.6951 1.49988 0.000561136 10
-8.83052 -14.6965 2.10519 0.000553923 10
-8.46404 -14.0865 3.79405 0.00118969 10
-8.82568 -14.6884 4.59157 0.000502729 10
-4.86778 -8.16577 -2.54728 0.000606862 4
-6.07438 -10.1899 -2.7388 0.000376476 1
-7.21547 -12.1041 -2.73911 0.00021247 1
-8.72289 -14.6328 -2.69815 0.000714711 10
-8.71865 -14.6257 -2.09067 0.000727625 10
-8.79584 -14.7552 -1.50287 0.000975359 10
-8.79141 -14.7477 -0.899804 0.000983752 10
-8.79143 -14.7478 -0.299692 0.000987867 10
-8.7934 -14.7511 0.299758 0.00098766 10
-8.79691 -14.7569 0.900367 0.000983134 10
-8.72133 -14.6302 1.49014 0.000575762 10
-8.71402 -14.6179 2.08956 0.000568369 10
-8.43557 -14.1508 3.8034 0.00118245 10
-8.71536 -14.6202 4.5607 0.000515896 10
-4.83865 -8.18172 -2.54697 0.000410422 4
-6.04156 -10.2157 -2.74006 0.000376505 1
-7.18098 -12.1424 -2.7421 0.00021249 1
-8.60623 -14.5523 -2.67776 0.000733192 10
-8.61378 -14.5651 -2.07771 0.000746422 10
-8.61275 -14.5634 -1.48027 0.000499697 10
-8.61072 -14.5599 -0.886506 0.000504222 10
-8.6134 -14.5645 -0.295354 0.000506561 10
-8.60661 -14.553 0.295121 0.000506691 10
-8.60695 -14.5536 0.886119 0.000504609 10
-8.6102 -14.5591 1.47983 0.00059062 10
-8.60088 -14.5433 2.0746 0.000583043 10
-8.67983 -14.6768 2.70066 0.000722101 10
-8.68627 -14.6877 3.3169 0.000706119 10
-8.40401 -14.2104 3.81152 0.00117519 10
-8.60288 -14.5467 4.52838 0.000529273 10
-4.81642 -8.20938 -2.55033 0.000497778 4
-6.00032 -10.2273 -2.73753 0.000376534 1
-7.13417 -12.1599 -2.74041 0.00021251 1
-8.50393 -14.4946 -2.66166 0.00075196 10
-8.50098 -14.4896 -2.06269 0.000765513 10
-8.55909 -14.5886 -1.47979 0.00100851 10
-8.56769 -14.6033 -0.887319 0.00101716 10
-8.56434 -14.5976 -0.295417 0.00102141 10
-8.56748 -14.6029 0.295525 0.00102119 10
-8.5669 -14.6019 0.887237 0.00101652 10
-8.49004 -14.4709 1.46785 0.000605708 10
-8.49518 -14.4797 2.06128 0.000597946 10
-8.36441 -14.2568 3.8161 0.00116791 10
-8.49165 -14.4737 4.4964 0.000542858 10
-4.78508 -8.22159 -2.54892 0.000410475 4
-5.97152 -10.2601 -2.74071 0.000376563 1
-7.08698 -12.1767 -2.7386 0.00021253 1
-8.38437 -14.4058 -2.63996 0.000771017 10
-8.38818 -14.4123 -2.04751 0.000784895 10
-8.39342 -14.4213 -1.45984 0.000525435 10
-8.38074 -14.3995 -0.873158 0.00053018 10
-8.38113 -14.4002 -0.29083 0.000532632 10
-8.39449 -14.4232 0.291293 0.000532766 10
-8.38915 -14.414 0.874034 0.00053058 10
-8.39081 -14.4169 1.45939 0.000621028 10
-8.37919 -14.3969 2.04532 0.000613077 10
-8.32324 -14.3008 3.82007 0.0011606 10
-8.37906 -14.3967 4.46337 0.000556652 10
-4.75033 -8.22781 -2.54569 0.000497842 4
-5.92627 -10.2646 -2.73637 0.000376592 1
-7.04843 -12.2082 -2.74015 0.00021255 1
-8.27655 -14.3354 -2.62175 0.000790363 10
-8.28677 -14.3531 -2.03497 0.000804572 10
-8.33647 -14.4392 -1.45869 0.00104328 10
-8.33712 -14.4403 -0.87386 0.00105222 10
-8.33949 -14.4444 -0.291133 0.0010566 10
-8.34398 -14.4522 0.291289 0.00105637 10
-8.33499 -14.4366 0.873637 0.00105155 10
-8.28108 -14.3432 1.449 0.000636579 10
-8.27719 -14.3365 2.03262 0.000628437 10
-8.27288 -14.329 2.62059 0.000617655 10
-8.27198 -14.3275 3.21582 0.000604338 10
-8.26926 -14.3228 3.81822 0.00058862 10
-8.28107 -14.3432 4.43781 0.000570657 10
-4.72101 -8.24334 -2.54538 0.000641996 4
-5.89954 -10.3012 -2.74062 0.000376621 1
-7.01424 -12.2475 -2.74346 0.00021257 1
-8.17552 -14.2752 -2.60552 0.000809997 10
-8.16862 -14.2632 -2.01817 0.000824542 10
-8.18101 -14.2848 -1.44021 0.000551957 10
-8.17891 -14.2812 -0.862497 0.000556929 10
-8.17064 -14.2667 -0.286975 0.000559497 10
-8.17188 -14.2689 0.287018 0.000559636 10
-8.17651 -14.277 0.862243 0.000557343 10
-8.17002 -14.2656 1.43827 0.000652362 10
-8.17656 -14.2771 2.02014 0.000644026 10
-8.16391 -14.255 2.60182 0.000632987 10
-8.17571 -14.2756 3.19774 0.000619354 10
-8.16347 -14.2542 3.79232 0.000603263 10
-8.16287 -14.2532 4.4011 0.000584872 10
-4.69196 -8.25935 -2.54525 0.000563421 4
-5.8534 -10.3039 -2.73588 0.00037665 1
-6.96643 -12.2631 -2.74149 0.00021259 1
-8.06806 -14.2024 -2.58706 0.000829925 10
-8.0739 -14.2126 -2.00702 0.00084481 10
-8.12182 -14.297 -1.43856 0.00107981 10
-8.11564 -14.2861 -0.861078 0.00108903 10
-8.12108 -14.2957 -0.286985 0.00109355 10
-8.12493 -14.3025 0.287121 0.00109332 10
-8.12507 -14.3027 0.862079 0.00108834 10
-8.06868 -14.2034 1.42915 0.000668381 10
-8.05951 -14.1873 2.00344 0.000659849 10
-8.0586 -14.1857 2.58402 0.000648549 10
-8.05801 -14.1847 3.17106 0.000634595 10
-8.06985 -14.2055 3.77184 0.000618125 10
-8.06384 -14.1949 4.3744 0.0005993 10
-4.67157 -8.2907 -2.54987 0.00064208 4
-5.82628 -10.34 -2.74005 0.000376679 1
-6.91556 -12.2731 -2.73831 0.00021261 1
-7.97361 -14.1509 -2.57259 0.000850143 10
-7.97172 -14.1475 -1.99388 0.000865372 10
-7.96949 -14.1436 -1.42032 0.000579271 10
-7.96452 -14.1347 -0.850274 0.000584476 10
-7.97105 -14.1463 -0.283427 0.000587163 10
-7.96297 -14.132 0.283139 0.000587306 10
-7.96516 -14.1359 0.850343 0.000584903 10
-7.96899 -14.1427 1.42023 0.000684631 10
-7.96556 -14.1366 1.99234 0.0006759 10
-7.96568 -14.1368 2.57004 0.000664337 10
-7.95835 -14.1238 3.15122 0.000650057 10
-7.96041 -14.1274 3.74372 0.000633202 10
-7.95521 -14.1182 4.34218 0.000613938 10
-4.63139 -8.2869 -2.54372 0.000100468 4
-5.78046 -10.3429 -2.73547 0.000376709 1
-6.87727 -12.3054 -2.74015 0.00021263 1
-7.86113 -14.0658 -2.55213 0.000870656 10
-7.86448 -14.0718 -1.97933 0.000886234 10
-7.89642 -14.129 -1.41608 0.0011182 10
-7.90451 -14.1435 -0.849133 0.00112773 10
-7.89437 -14.1253 -0.282452 0.0011324 10
-7.90435 -14.1432 0.282809 0.00113216 10
-7.89358 -14.1239 0.847959 0.00112702 10
-7.86097 -14.0656 1.40972 0.000701119 10
-7.86648 -14.0754 1.97984 0.000692185 10
-7.86622 -14.0749 2.55378 0.000680354 10
-7.86524 -14.0732 3.13378 0.000665745 10
-7.85884 -14.0617 3.71901 0.0006485 10
-7.86109 -14.0658 4.31758 0.000628791 10
-4.94814 -8.92668 -2.73479 0.000607485 1
-5.74499 -10.3642 -2.73578 0.000376738 1
-6.84226 -12.3438 -2.74335 0.00021265 1
-7.75765 -13.9952 -2.53438 0.000891458 10
-7.76242 -14.0038 -1.96594 0.00090739 10
-7.76102 -14.0012 -1.40055 0.000607379 10
-7.76492 -14.0083 -0.839385 0.000612822 10
-7.76436 -14.0073 -0.279548 0.000615632 10
-7.7651 -14.0086 0.279574 0.000615779 10
-7.75767 -13.9952 0.838601 0.000613264 10
-7.76573 -14.0097 1.4014 0.000717838 10
-7.76657 -14.0113 1.96699 0.0007087 10
-7.38728 -13.327 2.41338 0.000789766 10
-7.38791 -13.3281 2.96212 0.00077295 10
-7.38936 -13.3307 3.51884 0.000753099 10
-7.75442 -13.9893 4.28578 0.000643854 10
-4.91584 -8.94187 -2.73417 0.000607525 1
-5.70806 -10.3829 -2.73544 0.000376767 1
-6.79095 -12.3527 -2.74004 0.00021267 1
-7.66586 -13.9441 -2.52028 0.000912555 10
-7.65936 -13.9323 -1.95214 0.000928846 10
-7.67976 -13.9694 -1.39468 0.00115861 10
-7.67517 -13.9611 -0.834946 0.00116846 10
-7.68445 -13.978 -0.278426 0.00117328 10
-7.67732 -13.965 0.278167 0.00117304 10
-7.68436 -13.9778 0.835946 0.00116772 10
-7.65673 -13.9275 1.3905 0.000734794 10
-7.65933 -13.9323 1.95213 0.000725448 10
-7.29538 -13.2702 2.39848 0.0008083 10
-7.28834 -13.2574 2.94073 0.00148123 10
-7.28902 -13.2587 3.49308 0.00144255 10
-7.6609 -13.9351 4.26096 0.000659132 10
-4.8891 -8.96724 -2.73669 0.000607565 1
-5.68014 -10.4181 -2.73947 0.000376797 1
-6.75339 -12.3866 -2.74232 0.00021269 1
-7.56078 -13.8674 -2.50163 0.000933948 10
-7.57112 -13.8864 -1.94199 0.000950602 10
-7.64852 -14.0284 -1.39789 0.00115093 10
-7.64824 -14.0279 -0.837339 0.00116072 10
-7.65381 -14.0381 -0.279089 0.00116551 10
-7.64891 -14.0291 0.278911 0.00116526 10
-7.65354 -14.0376 0.837919 0.00115998 10
-7.56707 -13.879 1.383 0.000751987 10
-7.56668 -13.8783 1.94085 0.00074243 10
-7.25646 -13.3093 2.40094 0.00150414 10
-7.25205 -13.3012 2.94481 0.00147146 10
-7.25339 -13.3036 3.49823 0.00143302 10
-7.56146 -13.8687 4.23255 0.000674623 10
-4.85917 -8.98684 -2.73748 0.000607606 1
-5.63857 -10.4283 -2.73696 0.000376826 1
-6.71211 -12.4138 -2.74314 0.00021271 1
-7.46965 -13.8148 -2.48742 0.000955635 10
-7.46744 -13.8107 -1.92775 0.000972657 10
-7.47346 -13.8219 -1.3747 0.000985634 10
-7.47224 -13.8196 -0.823346 0.000994436 10
-7.4642 -13.8047 -0.273931 0.000998977 10
-7.46305 -13.8026 0.273888 0.000999211 10
-7.47246 -13.82 0.823371 0.000995137 10
-7.47106 -13.8174 1.37426 0.000769415 10
-7.4603 -13.7975 1.92591 0.000759646 10
-7.22675 -13.3656 2.40653 0.00149415 10
-7.22665 -13.3654 2.95342 0.00146167 10
-7.21997 -13.3531 3.50458 0.00142348 10
-7.45879 -13.7947 4.20201 0.000690329 10
-4.82838 -9.00488 -2.73782 0.000607646 1
-5.59917 -10.4424 -2.73551 0.000376856 1
-6.66463 -12.4295 -2.74145 0.000212731 1
-7.38003 -13.7637 -2.47356 0.000977616 10
-7.37426 -13.7529 -1.91608 0.000995011 10
-7.375 -13.7543 -1.36542 0.00100827 10
-7.3781 -13.7601 -0.818261 0.00101727 10
-7.37311 -13.7508 -0.272348 0.0010219 10
-7.37512 -13.7545 0.272422 0.00102214 10
-7.36892 -13.743 0.817243 0.00101798 10
-7.36698 -13.7394 1.36393 0.00078708 10
-7.37592 -13.756 1.91651 0.000777095 10
-7.19288 -13.4147 2.41083 0.00148414 10
-7.19588 -13.4203 2.95997 0.00145187 10
-7.18994 -13.4092 3.5127 0.00141392 10
-7.36485 -13.7354 4.17607 0.000706249 10
-4.7985 -9.02466 -2.73872 0.000607686 1
-5.56819 -10.4722 -2.73822 0.000376886 1
-6.61679 -12.4444 -2.73962 0.000212751 1
-7.27365 -13.6797 -2.45389 0.000999892 10
-7.28495 -13.701 -1.90529 0.00101766 10
-7.27988 -13.6915 -1.35665 0.00103121 10
-7.2802 -13.6921 -0.812699 0.0010404 10
-7.28254 -13.6965 -0.270767 0.00104514 10
-7.27865 -13.6891 0.270622 0.00104538 10
-7.28116 -13.6939 0.812806 0.00104112 10
-7.2787 -13.6892 1.35643 0.000804981 10
-7.27327 -13.679 1.90223 0.000794778 10
-7.16131 -13.4685 2.41599 0.00147411 10
-7.15937 -13.4648 2.96427 0.00144205 10
-7.1539 -13.4545 3.51801 0.00140434 10
-7.27751 -13.687 4.15361 0.000722383 10
-4.76902 -9.04525 -2.73991 0.000607727 1
-5.52824 -10.4852 -2.73656 0.000376915 1
-6.57547 -12.4715 -2.74052 0.000212771 1
-7.19147 -13.6398 -2.44222 0.00102247 10
-7.18209 -13.622 -1.89081 0.00104062 10
-7.18021 -13.6185 -1.34692 0.00105446 10
-7.18655 -13.6305 -0.807551 0.00106384 10
-7.19105 -13.639 -0.269134 0.00106868 10
-7.18189 -13.6217 0.26879 0.00106893 10
-7.18108 -13.6201 0.806936 0.00106458 10
-7.18868 -13.6346 1.34851 0.000823122 10
-7.18402 -13.6257 1.89132 0.000812698 10
-7.12868 -13.5207 2.42089 0.00146406 10
-7.12638 -13.5164 2.97013 0.00143221 10
-7.13045 -13.5241 3.52968 0.00139475 10
-7.17514 -13.6089 4.12227 0.000738734 10
-4.72794 -9.04371 -2.73442 0.000607768 1
-5.49216 -10.5055 -2.73683 0.000376945 1
-6.53649 -12.5031 -2.74245 0.000212792 1
-7.08923 -13.5604 -2.42355 0.00104534 10
-7.09366 -13.5689 -1.87999 0.00106388 10
-7.09291 -13.5675 -1.33942 0.00107801 10
-7.08703 -13.5562 -0.801681 0.00108759 10
-7.08965 -13.5612 -0.267108 0.00109253 10
-7.09706 -13.5754 0.267388 0.00109278 10
-7.08725 -13.5567 0.801706 0.00108834 10
-7.09226 -13.5662 1.3393 0.000841498 10
-7.09131 -13.5644 1.87937 0.000830849 10
-7.09071 -13.5633 2.42406 0.000521398 10
-7.08707 -13.5563 2.97345 0.000510284 10
-7.08584 -13.554 3.53099 0.000497164 10
-7.08929 -13.5606 4.10012 0.000755298 10
-4.69756 -9.06251 -2.73513 0.000607808 1
-5.45247 -10.5189 -2.73534 0.000376975 1
-6.48889 -12.5183 -2.74079 0.000212812 1
-7.00071 -13.5057 -2.4094 0.0010685 10
-6.99685 -13.4983 -1.86681 0.00108744 10
-7.05595 -13.6123 -1.34141 0.00191173 10
-7.06202 -13.624 -0.804227 0.00192787 10
-7.05879 -13.6178 -0.267735 0.00193578 10
-7.05681 -13.614 0.26766 0.00193537 10
-7.05666 -13.6137 0.803616 0.00192664 10
-6.66186 -12.852 1.26649 0.000973632 10
-6.663 -12.8542 1.77774 0.00096141 10
-6.66134 -12.851 2.2926 0.000945227 10
-6.66467 -12.8575 2.81504 0.000925241 10
-6.66652 -12.861 3.34439 0.000901645 10
-6.65618 -12.8411 3.87553 0.00087467 10
-4.66426 -9.07567 -2.73417 0.000607849 1
-5.42248 -10.551 -2.73875 0.000377005 1
-6.44572 -12.542 -2.74103 0.000212833 1
-6.91278 -13.4508 -2.39528 0.00109197 10
-6.90932 -13.4441 -1.85597 0.00111129 10
-7.01978 -13.659 -1.34359 0.00189838 10
-7.02551 -13.6702 -0.805498 0.00191442 10
-7.02804 -13.6751 -0.268378 0.00192228 10
-7.02409 -13.6674 0.268227 0.00192187 10
-7.02982 -13.6785 0.805992 0.0019132 10
-6.5732 -12.7901 1.25811 0.000994817 10
-6.57855 -12.8005 1.76711 0.000982339 10
-6.57372 -12.7911 2.27779 0.000965817 10
-6.5825 -12.8081 2.7992 0.000945411 10
-6.57217 -12.7881 3.31943 0.000921321 10
-6.58189 -12.807 3.85828 0.000893781 10
-4.63526 -9.09722 -2.73577 0.00060789 1
-5.38557 -10.5698 -2.73873 0.000377035 1
-6.40101 -12.5627 -2.74065 0.000212853 1
-6.82761 -13.3999 -2.38196 0.00111573 10
-6.82877 -13.4022 -1.84688 0.00113546 10
-6.98406 -13.707 -1.3459 0.00188502 10
-6.99217 -13.7229 -0.807163 0.00190095 10
-6.99046 -13.7195 -0.26877 0.00190875 10
-6.99179 -13.7221 0.268821 0.00190835 10
-6.98954 -13.7177 0.806859 0.00189974 10
-6.51953 -12.7953 1.25638 0.000729241 10
-6.51126 -12.7791 1.76101 0.000720097 10
-6.51614 -12.7886 2.2733 0.00169776 10
-6.52417 -12.8044 2.79338 0.00166115 10
-6.51891 -12.7941 3.31507 0.0016181 10
-6.48689 -12.7312 3.82862 0.000913133 10
-4.59878 -9.10404 -2.73298 0.000607931 1
-5.34753 -10.5863 -2.73816 0.000377065 1
-6.35989 -12.5904 -2.74185 0.000212874 1
-6.73494 -13.3329 -2.36585 0.00113979 10
-6.73154 -13.3262 -1.83316 0.00115992 10
-6.95981 -13.7781 -1.35049 0.00187165 10
-6.95351 -13.7656 -0.808242 0.00188747 10
-6.95733 -13.7732 -0.269343 0.00189521 10
-6.95954 -13.7775 0.269428 0.00189481 10
-6.96239 -13.7832 0.809274 0.00188626 10
-6.42754 -12.7244 1.24721 0.000744831 10
-6.4321 -12.7334 1.75161 0.000735498 10
-6.48837 -12.8448 2.27924 0.00168581 10
-6.48312 -12.8344 2.79497 0.00164945 10
-6.48737 -12.8428 3.3218 0.00160669 10
-6.41452 -12.6986 3.81204 0.000932727 10
-4.56864 -9.12337 -2.73398 0.000607972 1
-5.31068 -10.6052 -2.73823 0.000377095 1
-6.31417 -12.6091 -2.74109 0.000212895 1
-6.65158 -13.2829 -2.35284 0.00116414 10
-6.6476 -13.2749 -1.82291 0.00118469 10
-6.92347 -13.8259 -1.35279 0.00185825 10
-6.92199 -13.8229 -0.810181 0.00187396 10
-6.92775 -13.8344 -0.270066 0.00188166 10
-6.91896 -13.8168 0.269723 0.00188125 10
-6.9256 -13.8301 0.810604 0.00187276 10
-6.34183 -12.6643 1.23914 0.000760612 10
-6.34126 -12.6632 1.7389 0.000751089 10
-6.46189 -12.9041 2.28574 0.00167385 10
-6.45257 -12.8855 2.80118 0.00163774 10
-6.45223 -12.8848 3.32682 0.00159527 10
-6.31953 -12.6198 3.78175 0.000952561 10
-4.53957 -9.14491 -2.73567 0.000608013 1
-5.26743 -10.6112 -2.73501 0.000377125 1
-6.26402 -12.6188 -2.73843 0.000212915 1
-6.56168 -13.2184 -2.33735 0.00118879 10
-6.56508 -13.2253 -1.81293 0.00120976 10
-10.1318 -20.4103 -1.99358 0.000660272 10
-10.1398 -20.4265 -1.19515 0.000440081 10
-10.1435 -20.434 -0.398204 0.000442018 10
-10.1354 -20.4176 0.397886 0.000441916 10
-8.78287 -17.693 1.03521 6.14959e-05 10
-6.26945 -12.6297 1.23361 0.000776584 10
-6.26655 -12.6239 1.73049 0.000766869 10
-6.42733 -12.9478 2.28949 0.00166188 10
-6.42638 -12.9459 2.80941 0.00162601 10
-6.41961 -12.9322 3.33326 0.00158383 10
-6.24221 -12.5748 3.76172 0.000972635 10
-4.50728 -9.15999 -2.73546 0.000608055 1
-5.24135 -10.6518 -2.74076 0.000377155 1
-6.2268 -12.6545 -2.74145 0.000212936 1
-6.47818 -13.1654 -2.32396 0.00121375 10
-6.47502 -13.159 -1.80073 0.00123512 10
-10.0868 -20.499 -1.99879 0.000655124 10
-10.1588 -20.6454 -1.20588 0.000383923 10
-10.1599 -20.6476 -0.401673 0.000385795 10
-10.1621 -20.652 0.40176 0.000385886 10
-8.7278 -17.7372 1.03601 6.1473e-05 10
-6.18229 -12.5641 1.22508 0.000792746 10
-6.18023 -12.5599 1.71875 0.000782835 10
-6.39887 -13.0042 2.29551 0.00164989 10
-6.39249 -12.9912 2.8144 0.00161427 10
-6.3946 -12.9955 3.3438 0.00157238 10
-6.15798 -12.5147 3.73727 0.000992951 10
-4.47729 -9.1798 -2.73669 0.000608096 1
-5.20319 -10.6681 -2.74026 0.000377185 1
-6.1813 -12.6735 -2.74088 0.000212957 1
-6.39652 -13.1148 -2.31108 0.001239 10
-6.39737 -13.1166 -1.79186 0.0012608 10
-10.0354 -20.5756 -2.00283 0.000388848 10
-10.0367 -20.5782 -1.19989 0.000392559 10
-10.0282 -20.5609 -0.399305 0.000394471 10
-10.0367 -20.5783 0.399641 0.000394563 10
-8.65756 -17.7506 1.03502 6.145e-05 10
-6.0871 -12.4804 1.21484 0.0010575 10
-6.09917 -12.5051 1.70833 0.000798993 10
-6.36296 -13.046 2.29895 0.00163789 10
-6.35677 -13.0333 2.81868 0.00160252 10
-6.36271 -13.0455 3.35092 0.00156092 10
-6.11571 -12.5391 3.73816 0.000522962 10
-4.44934 -9.20389 -2.73923 0.000608137 1
-5.16544 -10.6852 -2.74001 0.000377215 1
-6.13627 -12.6935 -2.74054 0.000212977 1
-6.31134 -13.0556 -2.29675 0.00126454 10
-6.31619 -13.0657 -1.78188 0.00128677 10
-9.90221 -20.4837 -1.99051 0.000397518 10
-9.89787 -20.4747 -1.19184 0.000401307 10
-9.90032 -20.4798 -0.397055 0.000403259 10
-9.89784 -20.4747 0.396955 0.000403352 10
-8.59867 -17.7872 1.0354 6.14271e-05 10
-6.0027 -12.4172 1.20664 0.00107911 10
-6.02317 -12.4595 1.69922 0.000815336 10
-6.32319 -13.0801 2.30106 0.00162588 10
-6.32462 -13.0831 2.82466 0.00159076 10
-6.32337 -13.0805 3.35423 0.00154945 10
-6.07487 -12.5665 3.73998 0.000522925 10
-4.41741 -9.21984 -2.73937 0.000608179 1
-5.12097 -10.6883 -2.73619 0.000377246 1
-6.09159 -12.7141 -2.74039 0.000212998 1
-6.23632 -13.0162 -2.28597 0.00129039 10
-6.23442 -13.0123 -1.77162 0.00131305 10
-9.77807 -20.4084 -1.97986 0.000406302 10
-9.77275 -20.3973 -1.18534 0.00041017 10
-9.77979 -20.412 -0.395077 0.000412162 10
-9.7737 -20.3993 0.39483 0.000412256 10
-8.54293 -17.8305 1.03617 6.1404e-05 10
-5.93197 -12.381 1.20111 0.00110097 10
-5.95226 -12.4233 1.69144 0.00083187 10
-6.30184 -13.153 2.30999 0.00161386 10
-6.2991 -13.1472 2.83374 0.00157898 10
-6.29818 -13.1453 3.36519 0.00153797 10
-6.02658 -12.5785 3.73726 0.000522889 10
-4.37572 -9.21524 -2.73344 0.00060822 1
-5.08884 -10.7171 -2.73899 0.000377276 1
-6.04402 -12.7287 -2.73897 0.000213019 1
-6.15656 -12.9657 -2.27331 0.00131653 10
-6.15446 -12.9613 -1.76174 0.00133963 10
-9.69877 -20.4256 -1.97823 0.000668156 10
-9.70592 -20.4406 -1.18588 0.000674203 10
-9.70699 -20.4429 -0.395016 0.000677163 10
-9.70565 -20.44 0.394961 0.000677006 10
-8.47332 -17.8448 1.03528 6.1381e-05 10
-5.85378 -12.328 1.19398 0.00112308 10
-5.86843 -12.3589 1.67986 0.000848591 10
-6.26594 -13.196 2.3137 0.00160183 10
-6.26323 -13.1903 2.8383 0.0015672 10
-6.26265 -13.1891 3.37078 0.00152648 10
-5.98557 -12.6056 3.73909 0.000522852 10
-4.34165 -9.22647 -2.73226 0.000608262 1
-5.04521 -10.7216 -2.73564 0.000377307 1
-6.00092 -12.7526 -2.73959 0.00021304 1
-6.06565 -12.8902 -2.25635 0.00134297 10
-6.07395 -12.9078 -1.75158 0.00136652 10
-9.65098 -20.5094 -1.98307 0.000662747 10
-9.65476 -20.5174 -1.18837 0.000668746 10
-9.64542 -20.4975 -0.395419 0.000671684 10
-9.65002 -20.5073 0.395608 0.000671528 10
-8.41878 -17.8908 1.03624 6.13579e-05 10
-5.77468 -12.2718 1.18657 0.00114544 10
-5.79541 -12.3159 1.67126 0.000865501 10
-5.77575 -12.2741 2.1485 0.00111229 10
-6.22541 -13.2297 2.84208 0.00155542 10
-6.22972 -13.2388 3.37791 0.00151499 10
-6.23714 -13.2546 3.92513 0.0014689 10
-4.31472 -9.25295 -2.73563 0.000608304 1
-5.00789 -10.7395 -2.73571 0.000377337 1
-5.95424 -12.7689 -2.73861 0.000213061 1
-5.9878 -12.8409 -2.24404 0.0013697 10
-5.9886 -12.8426 -1.73989 0.0013937 10
-5.98734 -12.8399 -1.23947 0.00093265 10
-5.9909 -12.8475 -0.742916 0.000940833 10
-5.99493 -12.8562 -0.247604 0.000945044 10
-5.99463 -12.8555 0.247591 0.000945241 10
-5.98807 -12.8415 0.742565 0.000941422 10
-5.70057 -12.2249 1.18011 0.00116805 10
-5.7145 -12.2548 1.66025 0.000882599 10
-5.70457 -12.2335 2.1379 0.00113427 10
-6.19818 -13.292 2.85081 0.00154362 10
-6.20361 -13.3037 3.38891 0.00150349 10
-6.19624 -13.2879 3.92855 0.00145773 10
-4.28815 -9.2804 -2.7393 0.000608345 1
-4.97767 -10.7727 -2.73973 0.000377368 1
-5.90864 -12.7875 -2.73815 0.000213082 1
-5.91958 -12.8111 -2.23522 0.00139674 10
-5.90899 -12.7882 -1.72971 0.00142119 10
-5.94222 -12.8601 -1.23942 0.00150113 10
-5.94424 -12.8645 -0.742694 0.00151365 10
-5.93569 -12.846 -0.247008 0.00151978 10
-5.93696 -12.8488 0.24706 0.00151945 10
-5.93708 -12.849 0.741799 0.00151267 10
-5.62453 -12.1726 1.17315 0.00119091 10
-5.64135 -12.209 1.65137 0.000899885 10
