VERSION 0.7
FIELDS x y z intensity label
SIZE 4 4 4 4 4
TYPE F F F F F
COUNT 1 1 1 1 1
WIDTH 1198
HEIGHT 1
VIEWPOINT 12.5541 43.8573 2.72835 0.878334 -0.000803948 0.000606498 0.478046
POINTS 1198
DATA ascii
8.39149 7.71637 -2.63189 7.66369e-05 4
10.2287 9.40576 -2.70108 0.000901284 4
11.6556 10.7179 -2.50791 0.000104331 4
16.0937 14.7989 -2.6845 4.51061e-05 1
17.3446 15.9492 -2.06149 0.000369434 10
17.3421 15.9469 -1.2347 0.000373003 10
17.3427 15.9474 -0.411247 0.000374852 10
17.341 15.9458 0.411206 0.00037496 10
17.3412 15.9461 1.23464 0.000373328 10
17.352 15.9559 2.06236 0.000369972 10
20.1683 18.5457 5.32581 5.5412e-05 10
20.1653 18.5429 6.3246 5.38113e-05 10
19.0104 17.481 6.92005 9.76225e-05 10
7.20948 6.67605 -2.63281 0.000118519 4
8.34633 7.72878 -2.62617 0.000158378 4
10.2015 9.44668 -2.70259 0.000802847 4
11.625 10.7648 -2.50939 0.000121442 4
16.0573 14.8692 -2.68708 4.51031e-05 1
17.3489 16.0653 -2.06866 0.000367341 10
17.3562 16.072 -1.23969 0.000370893 10
17.3634 16.0787 -0.413067 0.000372733 10
17.3613 16.0767 0.413016 0.000372841 10
17.3542 16.0702 1.23955 0.000371217 10
17.3458 16.0624 2.06828 0.000367878 10
20.1109 18.6229 5.32779 5.64405e-05 10
20.1113 18.6233 6.32802 5.481e-05 10
18.9466 17.5447 6.91906 9.76256e-05 10
7.19405 6.70856 -2.63571 0.000257466 4
8.33138 7.76914 -2.62999 6.89687e-05 4
10.1657 9.47963 -2.70184 0.000223657 1
11.5743 10.7933 -2.50658 0.000126326 4
16 14.9202 -2.68618 4.51001e-05 1
17.3587 16.1872 -2.07654 0.000365223 10
17.3539 16.1828 -1.24356 0.000368757 10
17.3466 16.176 -0.414009 0.000370588 10
17.3595 16.188 0.414315 0.000370697 10
17.3567 16.1854 1.24376 0.000369081 10
17.3436 16.1731 2.07474 0.000365759 10
20.0729 18.7183 5.335 5.74623e-05 10
20.0642 18.7101 6.33371 5.58021e-05 10
18.8983 17.6229 6.92383 9.76289e-05 10
7.16785 6.73106 -2.63471 0.000171639 4
8.2983 7.79262 -2.62811 9.19553e-05 4
10.139 9.52111 -2.70357 0.000223648 1
11.5438 10.8404 -2.50815 0.000109206 4
15.9453 14.9737 -2.68577 4.5097e-05 1
17.3641 16.3059 -2.08398 0.000362546 10
17.3676 16.3092 -1.24861 0.000366057 10
17.3456 16.2886 -0.415338 0.000367876 10
17.3559 16.2983 0.415586 0.000367984 10
17.3636 16.3055 1.24832 0.000366379 10
17.3517 16.2943 2.0825 0.000363079 10
20.0147 18.7951 5.33695 5.84774e-05 10
20.0212 18.8012 6.34083 5.67876e-05 10
18.8307 17.6832 6.92164 9.76321e-05 10
7.14032 6.75227 -2.63324 8.58171e-05 4
8.27695 7.82712 -2.62999 0.000171133 4
10.1043 9.55521 -2.70321 0.000223639 1
11.5132 10.8875 -2.50974 8.8012e-05 4
15.8959 15.032 -2.68627 4.5094e-05 1
17.3626 16.419 -2.09067 0.000360397 10
17.3499 16.407 -1.25145 0.00036389 10
17.3536 16.4105 -0.416899 0.0003657 10
17.3575 16.4141 0.416991 0.000365807 10
17.3493 16.4064 1.2514 0.000364211 10
17.3558 16.4125 2.08985 0.000360928 10
19.9694 18.8841 5.3424 5.94855e-05 10
19.9629 18.878 6.34319 5.77664e-05 10
18.7762 17.7558 6.92438 9.76354e-05 10
7.12177 6.78197 -2.63511 0.000212494 4
8.25646 7.86252 -2.63218 0.000112382 4
10.0748 9.59409 -2.70425 0.000223629 1
11.4633 10.9163 -2.50715 0.000101861 4
15.8488 15.0926 -2.68718 4.50908e-05 1
17.3601 16.5318 -2.09731 0.000358224 10
17.3696 16.5409 -1.25703 0.000361699 10
17.3502 16.5223 -0.418199 0.000363499 10
17.367 16.5383 0.418604 0.000363606 10
17.3525 16.5245 1.25578 0.000362019 10
17.3533 16.5254 2.09649 0.000358754 10
19.9033 18.9537 5.34239 6.04864e-05 10
19.8989 18.9494 6.34382 5.87383e-05 10
18.7032 17.8108 6.92032 9.76387e-05 10
7.08447 6.79376 -2.63007 0.000404543 4
8.22402 7.88655 -2.6306 7.66217e-05 4
10.0264 9.61497 -2.70025 0.00022362 1
11.4357 10.9664 -2.50947 9.61514e-05 4
15.7855 15.1377 -2.6854 4.50877e-05 1
17.3589 16.6466 -2.10417 0.000356027 10
17.3536 16.6415 -1.26006 0.000359484 10
17.371 16.6582 -0.4201 0.000361275 10
17.3622 16.6497 0.419886 0.000361382 10
17.3533 16.6412 1.26004 0.000359803 10
17.3631 16.6506 2.10468 0.000356556 10
19.863 19.0479 6.35353 5.97032e-05 10
18.638 17.8732 6.91925 9.76421e-05 10
7.07303 6.83035 -2.63466 0.000143016 4
8.19287 7.91176 -2.62946 4.85254e-05 4
10.003 9.65979 -2.70302 0.000223611 1
11.3909 11.0001 -2.50805 0.000133627 4
15.7417 15.2016 -2.68696 4.50844e-05 1
17.3678 16.7719 -2.11234 0.000353808 10
17.371 16.775 -1.26557 0.000357246 10
17.372 16.7759 -0.421539 0.000359028 10
17.3531 16.7577 0.421081 0.000359134 10
17.3584 16.7628 1.26466 0.000357565 10
17.3531 16.7577 2.11054 0.000354335 10
19.8113 19.1315 6.35832 6.0661e-05 10
18.5755 17.9381 6.91924 9.76454e-05 10
7.0423 6.84834 -2.6321 0.000236991 4
8.16504 7.94015 -2.6294 0.000191541 4
9.96675 9.69224 -2.70235 0.000223601 1
11.3436 11.0312 -2.5061 7.90315e-05 4
15.687 15.255 -2.6867 4.50812e-05 1
17.3663 16.888 -2.11931 0.00032702 10
17.3609 16.8827 -1.26912 0.000330196 10
17.3485 16.8707 -0.422394 0.00033184 10
17.3495 16.8716 0.422418 0.000331935 10
17.3607 16.8826 1.26911 0.000330479 10
19.7565 19.2123 6.36222 6.16116e-05 10
18.5201 18.0101 6.922 9.76488e-05 10
7.01445 6.86906 -2.63064 0.000143008 4
8.14388 7.97508 -2.63154 4.08606e-05 4
9.93846 9.73246 -2.70387 0.000223592 1
11.3201 11.0855 -2.50944 8.31008e-05 4
15.631 15.307 -2.68624 4.5078e-05 1
17.3492 16.9896 -2.12445 0.000325498 10
17.348 16.9884 -1.27251 0.000328661 10
17.3414 16.9819 -0.423662 0.000330299 10
17.339 16.9797 0.423605 0.000330394 10
17.3568 16.997 1.27315 0.000328944 10
19.6846 19.2766 6.3607 6.25549e-05 10
18.451 18.0686 6.91969 9.76523e-05 10
7.00489 6.90776 -2.63608 0.000159347 4
8.11501 8.00248 -2.63122 9.95943e-05 4
9.90067 9.76339 -2.70285 0.000223582 1
11.2725 11.1162 -2.50747 3.58455e-05 4
15.5752 15.3592 -2.68584 4.50747e-05 1
17.3485 17.1079 -2.13166 0.000323952 10
17.3414 17.1009 -1.27639 0.000327102 10
17.3403 17.0998 -0.425091 0.000328734 10
17.3368 17.0964 0.425005 0.000328828 10
17.3423 17.1018 1.27646 0.000327384 10
19.6453 19.3729 6.36981 6.34907e-05 10
18.3874 18.1324 6.91953 9.76558e-05 10
6.96561 6.91714 -2.63036 0.000212456 4
8.0828 8.02656 -2.62984 0.000321755 4
9.85434 9.78578 -2.69951 0.000223573 1
11.2425 11.1643 -2.50945 0.000109975 4
15.5294 15.4213 -2.68721 4.50714e-05 1
17.3432 17.2226 -2.13839 0.00028649 10
17.3409 17.2203 -1.28077 0.000289273 10
17.3429 17.2223 -0.426627 0.000290712 10
17.3245 17.204 0.426173 0.000290791 10
17.3295 17.2089 1.27993 0.000289509 10
19.5901 19.4538 6.37388 6.4419e-05 10
18.3207 18.1932 6.91828 9.76593e-05 10
6.94854 6.94853 -2.63306 0.000236963 4
8.05994 8.05994 -2.63155 8.17126e-05 4
9.83406 9.83406 -2.70334 0.000223563 1
11.1946 11.1945 -2.50746 9.36769e-05 4
15.4737 15.4737 -2.68691 4.5068e-05 1
17.3232 17.3232 -2.14336 0.000285765 10
17.328 17.328 -1.28428 0.000288543 10
17.3252 17.3252 -0.427677 0.000289979 10
17.3105 17.3105 0.427313 0.000290057 10
17.3106 17.3106 1.28299 0.000288778 10
19.5408 19.5408 6.38 6.53397e-05 10
18.268 18.268 6.92244 9.76629e-05 10
6.92913 6.97767 -2.63492 0.000224699 4
8.03349 8.08977 -2.63211 0.000130225 4
9.79403 9.86264 -2.70178 0.000223553 1
11.1528 11.2309 -2.50687 8.95991e-05 4
15.4257 15.5338 -2.68798 4.50647e-05 1
17.3043 17.4255 -2.14853 0.000285014 10
17.3 17.4212 -1.28671 0.000287786 10
17.2939 17.415 -0.428401 0.00028922 10
17.3086 17.4298 0.428765 0.000289299 10
17.3032 17.4244 1.28694 0.000288022 10
19.4759 19.6124 6.38114 6.62527e-05 10
18.1994 18.3269 6.92063 9.76664e-05 10
6.89007 6.98695 -2.62933 0.000114389 4
7.99666 8.10911 -2.62931 7.91533e-05 4
9.76367 9.90096 -2.70292 0.000223543 1
11.1238 11.2802 -2.50919 0.000124617 4
15.3663 15.5824 -2.68708 4.50612e-05 1
17.2809 17.5239 -2.15321 0.000284239 10
17.2776 17.5205 -1.28957 0.000287006 10
17.2892 17.5323 -0.429797 0.000288436 10
17.2744 17.5173 0.429429 0.000288515 10
17.2931 17.5363 1.29074 0.000287241 10
19.4322 19.7054 6.3893 6.71579e-05 10
18.1356 18.3906 6.92073 9.767e-05 10
6.87087 7.0163 -2.63133 0.000204259 4
7.97843 8.14731 -2.63265 0.000109789 4
9.71898 9.92469 -2.70012 0.000223533 1
11.0764 11.3108 -2.50739 9.44758e-05 4
15.3127 15.6368 -2.68723 4.50578e-05 1
17.2633 17.6287 -2.15867 0.000240167 10
17.2659 17.6314 -1.29329 0.000242501 10
17.2726 17.6382 -0.430913 0.000243705 10
17.2775 17.6432 0.431036 0.000243767 10
17.2689 17.6344 1.29351 0.000242685 10
19.3758 19.7859 6.39345 6.8055e-05 10
18.0761 18.4587 6.92257 9.76736e-05 10
6.85783 7.05206 -2.63574 0.000159317 4
7.94003 8.16491 -2.62936 0.000109785 4
9.69138 9.96587 -2.70211 0.000223523 1
11.0323 11.3448 -2.50637 0.000121346 4
15.2518 15.6838 -2.68615 4.50543e-05 1
17.2384 17.7267 -2.16328 0.000240154 10
17.2466 17.735 -1.29647 0.000242489 10
17.2474 17.7359 -0.431827 0.000243695 10
17.2456 17.7341 0.431782 0.000243756 10
17.2329 17.721 1.29544 0.000242674 10
19.3267 19.8741 6.4001 6.89442e-05 10
18.0027 18.5126 6.9192 9.76774e-05 10
6.82714 7.06971 -2.63342 0.000212416 4
7.90381 8.18463 -2.62681 7.65913e-05 4
9.65975 10.003 -2.70301 0.000223513 1
10.9962 11.3869 -2.50717 9.77224e-05 4
15.2112 15.7516 -2.68866 4.50508e-05 1
17.2224 17.8343 -2.16907 0.000240118 10
17.211 17.8225 -1.29846 0.000242454 10
17.2121 17.8236 -0.432498 0.00024366 10
17.216 17.8277 0.432596 0.000243722 10
17.2178 17.8295 1.29898 0.000242639 10
19.2702 19.9549 6.40441 6.98252e-05 10
17.9417 18.5792 6.92062 9.76811e-05 10
6.79181 7.08243 -2.62931 0.000285935 4
7.87876 8.21589 -2.628 0.000122541 4
9.62199 10.0337 -2.70222 0.000223502 1
10.9662 11.4355 -2.50943 0.000107488 4
15.1494 15.7977 -2.68747 4.50473e-05 1
17.1836 17.9189 -2.17205 0.000240059 10
17.1949 17.9306 -1.30196 0.000242396 10
17.1951 17.9308 -0.43364 0.000243602 10
17.1826 17.9178 0.433324 0.000243663 10
17.1946 17.9304 1.30194 0.000242581 10
19.2153 20.0376 6.40938 7.06979e-05 10
17.882 18.6471 6.92264 9.76848e-05 10
6.7739 7.1133 -2.63197 0.000249164 4
7.84655 8.23968 -2.62684 0.000145512 4
9.59002 10.0705 -2.7031 0.000223492 1
10.9213 11.4684 -2.50828 0.000113996 4
15.0828 15.8384 -2.68544 4.50437e-05 1
17.1639 18.0239 -2.1775 0.000239977 10
17.1722 18.0326 -1.30501 0.000242314 10
17.1742 18.0347 -0.434699 0.00024352 10
17.1633 18.0233 0.434424 0.000243582 10
17.1688 18.029 1.30475 0.000242499 10
19.1632 20.1233 6.41537 7.15623e-05 10
17.8144 18.7069 6.92172 9.76886e-05 10
6.75956 7.14803 -2.63608 0.000159296 4
7.82669 8.27649 -2.62984 5.87133e-05 4
9.55744 10.1067 -2.70385 0.000223481 1
10.8919 11.5179 -2.51076 8.63064e-05 4
15.0311 15.895 -2.68611 4.50401e-05 1
17.1466 18.132 -2.18332 0.000195712 10
17.1464 18.1318 -1.30785 0.000197614 10
17.128 18.1123 -0.435127 0.000198593 10
17.131 18.1155 0.435202 0.000198639 10
17.1258 18.11 1.30627 0.000197751 10
19.0971 20.1946 6.41681 7.24183e-05 10
17.747 18.7669 6.92094 9.76924e-05 10
6.73343 7.17037 -2.63563 3.26751e-05 4
7.80237 8.30868 -2.6314 0.00017358 4
9.51267 10.13 -2.70117 0.000223471 1
10.8517 11.5559 -2.51077 0.00010747 4
14.9803 15.9524 -2.68697 4.50365e-05 1
17.1118 18.2222 -2.18697 0.00019622 10
17.1069 18.217 -1.30968 0.000198128 10
17.098 18.2075 -0.435977 0.00019911 10
17.0916 18.2007 0.435813 0.000199156 10
17.0952 18.2046 1.30878 0.000198266 10
19.0555 20.2921 6.42661 7.32657e-05 10
17.6717 18.8184 6.91714 9.76963e-05 10
6.70924 7.19478 -2.63598 0.00019196 4
7.76698 8.32906 -2.62926 7.14714e-05 4
9.4719 10.1574 -2.69964 0.00022346 1
10.8105 11.5929 -2.5106 0.000135143 4
14.9329 16.0136 -2.68846 4.50329e-05 1
17.0614 18.2961 -2.18868 0.000196707 10
17.0616 18.2963 -1.31109 0.00019862 10
17.0719 18.3073 -0.436937 0.000199606 10
17.0653 18.3003 0.43677 0.000199652 10
17.0656 18.3006 1.3114 0.000198759 10
18.9886 20.3628 6.42797 7.41046e-05 10
17.6219 18.8972 6.92345 9.77002e-05 10
6.67748 7.21102 -2.63338 0.000526851 4
7.73131 8.34906 -2.62703 0.00014549 4
9.44187 10.1963 -2.70121 0.000223449 1
10.7631 11.6231 -2.50899 0.0001042 4
14.8632 16.0508 -2.68599 4.50292e-05 1
17.0354 18.3965 -2.19357 0.000197174 10
17.036 18.3972 -1.31405 0.000199093 10
17.0241 18.3844 -0.437355 0.000200081 10
17.0291 18.3897 0.437482 0.000200127 10
17.0219 18.382 1.31296 0.000199232 10
18.9484 20.4625 6.43851 7.49347e-05 10
17.5459 18.9479 6.91954 9.7704e-05 10
6.65409 7.23627 -2.6341 0.000457405 4
7.70363 8.37764 -2.62755 0.000114856 4
9.40508 10.2279 -2.70088 0.000223438 1
10.718 11.6557 -2.50794 0.00010745 4
14.8048 16.1001 -2.68557 4.50254e-05 1
17.0077 18.4957 -2.1983 0.00019762 10
17.0062 18.4941 -1.31672 0.000199544 10
17.0002 18.4876 -0.438396 0.000200535 10
16.9949 18.4818 0.438259 0.000200581 10
16.9927 18.4795 1.31568 0.000199684 10
18.8943 20.5474 6.44444 7.5756e-05 10
17.4732 19.002 6.91697 9.7708e-05 10
6.6184 7.24807 -2.62997 0.000102096 4
7.6835 8.41451 -2.63068 0.000171 4
9.37778 10.27 -2.70332 0.000223427 1
10.69 11.7071 -2.51094 0.000111513 4
14.7667 16.1715 -2.68888 4.50217e-05 1
16.965 18.579 -2.20115 0.000198046 10
16.957 18.5703 -1.31793 0.000199975 10
16.9689 18.5833 -0.439258 0.000200968 10
16.9619 18.5756 0.439077 0.000201015 10
16.9597 18.5732 1.31813 0.000200115 10
18.8314 20.623 6.4475 7.65683e-05 10
17.4207 19.0781 6.9225 9.7712e-05 10
6.60897 7.28868 -2.63632 0.000302193 4
7.65481 8.44209 -2.63094 5.61471e-05 4
9.33019 10.2898 -2.69994 0.000223416 1
10.6332 11.7267 -2.50719 0.000107437 4
14.6933 16.2044 -2.6858 4.50179e-05 1
16.9289 18.67 -2.20492 0.000158208 10
16.9193 18.6594 -1.32005 0.000159746 10
16.9139 18.6534 -0.439518 0.000160535 10
16.931 18.6722 0.439961 0.000160568 10
16.917 18.6568 1.31986 0.000159845 10
18.7788 20.7101 6.45422 7.73717e-05 10
17.3426 19.1263 6.91798 9.7716e-05 10
6.56667 7.29302 -2.62958 0.000277681 4
7.62584 8.46935 -2.63112 0.00012505 4
9.30825 10.3379 -2.70402 0.000223405 1
10.5911 11.7626 -2.50693 0.000101733 4
14.6406 16.2601 -2.68654 4.50141e-05 1
16.8826 18.75 -2.20739 0.000159046 10
16.8872 18.7551 -1.32264 0.000160592 10
16.8889 18.757 -0.440566 0.000161386 10
16.8889 18.7571 0.440568 0.000161419 10
16.8726 18.7389 1.3215 0.000160692 10
18.7219 20.7928 6.45957 7.81661e-05 10
17.2857 19.1977 6.92194 9.772e-05 10
6.54792 7.32345 -2.63229 0.000338923 4
7.59734 8.49716 -2.6315 9.95253e-05 4
9.26726 10.3649 -2.7026 0.000223394 1
10.5507 11.8003 -2.5071 8.30091e-05 4
14.5898 16.3178 -2.68765 4.50103e-05 1
16.8351 18.829 -2.20977 0.000159866 10
16.8474 18.8428 -1.32467 0.00016142 10
16.843 18.8379 -0.441082 0.000162218 10
16.8302 18.8235 0.440746 0.000162252 10
16.8354 18.8294 1.32373 0.000161521 10
16.1315 18.0421 2.11742 9.66657e-05 10
18.661 20.8712 6.46365 7.89512e-05 10
17.2074 19.2454 6.91744 9.77241e-05 10
6.52275 7.34674 -2.63247 0.000122498 4
7.57234 8.52893 -2.63314 6.37956e-05 4
9.22567 10.3911 -2.70104 0.000223383 1
10.5151 11.8435 -2.50846 0.000122878 4
14.525 16.3599 -2.68621 4.50064e-05 1
16.7971 18.919 -2.21343 0.000160668 10
16.7883 18.9092 -1.32521 0.000162231 10
16.7896 18.9106 -0.441411 0.000163034 10
16.7891 18.91 0.441397 0.000163068 10
16.7946 18.9162 1.3257 0.000162333 10
16.097 18.1305 2.12118 9.68405e-05 10
18.6179 20.9699 6.47404 7.97271e-05 10
17.1486 19.3149 6.92087 9.77282e-05 10
6.49803 7.37056 -2.63286 0.000236821 4
7.54012 8.55258 -2.6323 0.000109724 4
9.20121 10.4367 -2.70452 0.000223371 1
10.4851 11.893 -2.51118 0.000114733 4
14.4786 16.4228 -2.68822 4.50025e-05 1
16.7494 18.9984 -2.21587 0.000161453 10
16.7455 18.994 -1.32705 0.000163024 10
16.7538 19.0035 -0.442211 0.000163831 10
16.7423 18.9905 0.441907 0.000163865 10
16.7453 18.9938 1.32703 0.000163126 10
16.0602 18.2167 2.12469 9.70056e-05 10
18.5591 21.0511 5.4551 8.28998e-05 10
18.5639 21.0566 6.48077 8.04937e-05 10
17.0697 19.3618 6.91629 9.77323e-05 10
6.46873 7.38917 -2.63142 7.75765e-05 4
7.49473 8.56116 -2.62688 0.000155648 4
9.15125 10.4534 -2.70055 0.00022336 1
10.4288 11.9127 -2.50764 0.000103335 4
14.4246 16.4771 -2.68885 4.49986e-05 1
16.7211 19.1003 -2.22093 0.000162221 10
16.7163 19.0949 -1.33001 0.0001638 10
16.6996 19.0758 -0.442534 0.000164611 10
16.7046 19.0815 0.442667 0.000164645 10
16.7036 19.0804 1.329 0.000163903 10
16.0228 18.3026 2.12818 7.82833e-05 10
18.4985 21.1307 5.45894 8.36801e-05 10
18.5093 21.143 6.48743 8.12508e-05 10
17.0022 19.4215 6.91635 9.77365e-05 10
6.441 7.40952 -2.63065 0.000134733 4
7.47379 8.59761 -2.63004 7.6545e-05 4
9.12382 10.4958 -2.70325 0.000223348 1
10.3861 11.9478 -2.50739 7.81062e-05 4
14.3688 16.5295 -2.6892 4.49946e-05 1
16.667 19.1731 -2.22262 0.000162971 10
16.6762 19.1838 -1.33214 0.000164557 10
16.6605 19.1657 -0.443269 0.000165373 10
16.6725 19.1795 0.443588 0.000165407 10
16.6678 19.1741 1.33147 0.000164661 10
15.974 18.3759 2.13021 7.86509e-05 10
18.4396 21.2123 5.46337 8.44508e-05 10
18.4468 21.2206 6.49145 8.19986e-05 10
16.9414 19.4888 6.91923 9.77407e-05 10
6.4148 7.43162 -2.63053 9.79842e-05 4
7.44786 8.62843 -2.6315 0.00010971 4
9.08254 10.5222 -2.70189 0.000223337 1
10.356 11.9976 -2.51022 8.78638e-05 4
14.2996 16.5663 -2.68705 4.49906e-05 1
16.6257 19.261 -2.22607 0.000163703 10
16.6268 19.2623 -1.33355 0.000165297 10
16.6251 19.2604 -0.444113 0.000166116 10
16.6129 19.2463 0.443787 0.000166151 10
16.6293 19.2652 1.33375 0.000165402 10
15.9469 18.4747 2.13519 7.901e-05 10
18.3861 21.3005 5.46951 8.52115e-05 10
18.3807 21.2942 6.49431 8.27367e-05 10
16.864 19.5371 6.91543 9.77449e-05 10
6.38619 7.45089 -2.62944 9.79806e-05 4
7.40442 8.63888 -2.62679 0.00011991 4
9.01246 10.515 -2.69194 0.000342506 4
10.3094 12.0282 -2.50908 9.51795e-05 4
14.2466 16.6217 -2.68796 4.49866e-05 1
16.5729 19.3359 -2.22802 0.000130633 10
16.5712 19.3339 -1.3345 0.000131902 10
16.5818 19.3463 -0.444757 0.000132552 10
16.5647 19.3264 0.444298 0.000132576 10
16.5793 19.3433 1.33515 0.000131973 10
15.8984 18.549 2.13734 7.93606e-05 10
18.3381 21.3954 5.47742 8.59623e-05 10
18.331 21.3871 6.50308 8.34651e-05 10
16.7971 19.5975 6.91601 9.77492e-05 10
6.3606 7.47368 -2.62963 0.000257189 4
7.37913 8.67045 -2.62854 0.00017348 4
8.88531 10.4402 -2.66483 0.000375717 4
10.2775 12.0761 -2.51158 0.000105748 4
14.1967 16.681 -2.68952 4.49825e-05 1
16.5303 19.423 -2.2314 0.000131641 10
16.5175 19.408 -1.33562 0.00013292 10
16.5181 19.4087 -0.444862 0.000133575 10
16.5216 19.4128 0.444956 0.0001336 10
16.5261 19.4181 1.33632 0.000132993 10
15.854 18.6284 2.14011 7.97028e-05 10
18.2791 21.4779 5.48216 8.67032e-05 10
18.2773 21.4758 6.5106 8.41839e-05 10
16.7347 19.6632 6.91854 9.77536e-05 10
6.3422 7.50498 -2.63284 0.000179618 4
7.35346 8.70164 -2.63019 0.000308678 4
8.74877 10.3528 -2.6347 0.000410471 4
10.2274 12.1025 -2.50963 0.000108181 4
14.1372 16.7291 -2.6893 4.49785e-05 1
16.4744 19.4948 -2.23303 0.000132635 10
16.483 19.505 -1.33833 0.000133924 10
16.4704 19.4901 -0.445409 0.000134584 10
16.4784 19.4996 0.445625 0.000134609 10
16.4682 19.4874 1.33713 0.000133997 10
15.8123 18.7114 2.14328 8.00364e-05 10
18.2236 21.5647 5.48806 8.74339e-05 10
18.2139 21.5532 6.51475 8.48928e-05 10
16.6648 19.7201 6.91805 9.77579e-05 10
6.32082 7.53286 -2.63486 0.000122462 4
7.32573 8.73046 -2.63116 9.94868e-05 4
8.68034 10.3448 -2.62495 0.00014262 4
10.1825 12.135 -2.50899 9.27205e-05 4
14.0716 16.7699 -2.68795 4.49743e-05 1
16.4313 19.5821 -2.23644 0.000133613 10
16.4226 19.5717 -1.33897 0.000134913 10
16.4313 19.5821 -0.446196 0.000135578 10
16.4323 19.5833 0.446223 0.000135603 10
16.4327 19.5837 1.33979 0.000134987 10
15.7784 18.804 2.14758 6.42713e-05 10
18.171 21.6553 5.49494 8.81546e-05 10
18.17 21.6542 6.52607 8.55919e-05 10
16.5937 19.7756 6.91715 9.77622e-05 10
6.29152 7.55131 -2.63362 0.000326553 4
7.30014 8.7619 -2.63294 0.000132643 4
8.64847 10.3802 -2.62626 8.58587e-05 4
10.135 12.1644 -2.50773 0.000103287 4
14.0077 16.8125 -2.68693 4.49702e-05 1
16.3745 19.6533 -2.23803 0.000134577 10
16.3774 19.6568 -1.34087 0.000135886 10
16.3814 19.6616 -0.446703 0.000136557 10
16.3743 19.653 0.446508 0.000136582 10
16.3662 19.6434 1.33995 0.000135961 10
15.7339 18.8844 2.15047 6.47388e-05 10
18.1158 21.7432 5.50117 8.88649e-05 10
18.1021 21.7268 6.52889 8.62809e-05 10
16.5321 19.8425 6.92033 9.77666e-05 10
6.26665 7.57507 -2.63426 0.000195924 4
7.25806 8.77348 -2.62879 0.000209159 4
8.616 10.4149 -2.62742 6.25716e-05 4
10.1055 12.2155 -2.51098 0.000115478 4
13.9566 16.8706 -2.6884 4.4966e-05 1
16.334 19.7444 -2.2419 0.000135526 10
16.3334 19.7437 -1.3429 0.000136844 10
16.3211 19.7288 -0.446932 0.00013752 10
16.3337 19.7441 0.447278 0.000137545 10
16.3328 19.7429 1.34285 0.00013692 10
15.6819 18.9562 2.1524 6.51992e-05 10
18.0552 21.825 5.50587 8.95649e-05 10
18.0484 21.8167 6.53692 8.696e-05 10
16.4491 19.8835 6.91458 9.7771e-05 10
6.23534 7.59102 -2.63222 0.000314283 4
7.23956 8.81358 -2.63322 7.6518e-05 4
8.57441 10.4387 -2.62583 0.000129501 4
10.0495 12.2344 -2.50764 0.00011547 4
13.9041 16.9271 -2.68966 4.49618e-05 1
16.2728 19.8109 -2.24298 0.00013646 10
16.2828 19.823 -1.34442 0.000137788 10
16.2754 19.814 -0.447574 0.000138468 10
16.2768 19.8157 0.447612 0.000138494 10
16.2658 19.8023 1.34302 0.000137864 10
15.6233 19.0201 2.15345 6.56524e-05 10
17.9932 21.9052 5.51024 9.02547e-05 10
17.9939 21.9061 6.54484 8.7629e-05 10
16.3886 19.9518 6.91839 9.77755e-05 10
6.20381 7.60661 -2.63011 0.000134688 4
7.19234 8.81868 -2.62722 0.000293306 4
8.53194 10.4612 -2.62399 0.000263354 4
10.0136 12.2779 -2.50937 0.000103266 4
13.8358 16.9643 -2.68788 4.49576e-05 1
16.2318 19.9021 -2.24688 0.000137378 10
16.221 19.8889 -1.34504 0.000138715 10
16.2224 19.8906 -0.448022 0.000139401 10
16.2315 19.9018 0.448274 0.000139427 10
16.2283 19.8978 1.34565 0.000138793 10
15.579 19.1018 2.15653 6.60983e-05 10
17.9414 21.9983 5.51785 9.0934e-05 10
17.9485 22.007 6.55622 8.82878e-05 10
16.3237 20.0148 6.92044 9.778e-05 10
6.19312 7.64787 -2.63688 0.000142845 4
7.17366 8.85874 -2.63168 0.000147921 4
8.49778 10.4939 -2.62474 0.000276433 4
9.98088 12.3254 -2.51194 0.00011708 4
13.7783 17.0148 -2.68823 4.49533e-05 1
16.1718 19.9705 -2.24821 0.000110793 10
16.1759 19.9755 -1.34707 0.000111868 10
16.1856 19.9875 -0.448929 0.000112418 10
16.1773 19.9773 0.448698 0.000112435 10
16.1803 19.9811 1.34745 0.00011192 10
15.5341 19.183 2.15956 6.6537e-05 10
17.8881 22.09 5.52516 9.16028e-05 10
17.892 22.0948 6.56374 8.89365e-05 10
16.241 20.0559 6.91501 9.77845e-05 10
6.15596 7.65646 -2.63242 0.000261192 4
7.14746 8.88965 -2.63344 0.000140264 4
8.47416 10.5397 -2.62879 0.000231318 4
9.92878 12.3489 -2.50966 0.000111381 4
13.7224 17.0672 -2.68894 4.49491e-05 1
16.133 20.0655 -2.25255 0.000111893 10
16.1299 20.0615 -1.34907 0.00011298 10
16.1214 20.0509 -0.449087 0.000113535 10
16.1243 20.0545 0.449167 0.000113552 10
16.1251 20.0556 1.34867 0.000113032 10
15.4793 19.2524 2.16128 6.69684e-05 10
17.827 22.1723 5.53015 9.2261e-05 10
17.8352 22.1825 6.57127 8.95748e-05 10
16.1793 20.123 6.91863 9.77891e-05 10
6.13197 7.68139 -2.63361 8.97811e-05 4
7.1142 8.9118 -2.63263 0.000163208 4
8.43095 10.5613 -2.62681 0.000305497 4
9.89279 12.3925 -2.51148 0.000104057 4
13.6628 17.115 -2.68894 4.49447e-05 1
16.0689 20.1292 -2.2534 0.000112981 10
16.0742 20.1357 -1.35028 0.000114078 10
16.0605 20.1186 -0.449345 0.000114639 10
16.0702 20.1308 0.449616 0.000114657 10
16.0678 20.1278 1.34975 0.000114132 10
15.44 19.3414 2.16521 6.73924e-05 10
17.5877 22.0317 5.47975 0.000245112 10
17.5989 22.0458 6.51253 0.000237939 10
16.1001 20.1682 6.9148 9.77937e-05 10
6.10367 7.70092 -2.63299 0.000216282 4
7.07941 8.93198 -2.63127 0.000214201 4
8.40143 10.6 -2.62912 0.00030548 4
9.8429 12.4186 -2.50981 0.000120307 4
13.6005 17.1596 -2.68846 4.49404e-05 1
16.022 20.2147 -2.25669 0.000114056 10
16.0139 20.2046 -1.35114 0.000115164 10
16.0078 20.1969 -0.449841 0.00011573 10
16.0111 20.201 0.449934 0.000115749 10
16.0095 20.1989 1.35076 0.000115218 10
15.3894 19.4166 2.16759 6.78089e-05 10
17.3317 21.8672 4.41936 0.000258804 10
17.3365 21.8732 5.42523 0.000252531 10
17.3298 21.8647 6.44113 0.00024516 10
16.036 20.2324 6.91758 9.77983e-05 10
6.07015 7.71379 -2.63013 0.000220354 4
7.03878 8.9447 -2.62776 0.000124945 4
8.34919 10.6099 -2.62435 0.000247279 4
9.79538 12.4477 -2.50876 0.000104855 4
13.5411 17.2076 -2.68857 4.4936e-05 1
15.956 20.2764 -2.25735 0.000115118 10
15.9606 20.2823 -1.3526 0.000116237 10
15.9569 20.2776 -0.450397 0.000116809 10
15.9498 20.2685 0.450194 0.000116827 10
15.9564 20.277 1.35225 0.000116292 10
15.3401 19.4938 2.17023 5.56491e-05 10
17.0805 21.7054 4.37459 0.000266496 10
17.0821 21.7075 5.36931 0.000260053 10
17.0918 21.7198 6.38082 0.000252481 10
15.9591 20.2804 6.91489 9.78029e-05 10
6.04664 7.73934 -2.63163 0.00017138 4
7.00877 8.97082 -2.62823 0.000265176 4
8.32224 10.652 -2.62755 0.000317081 4
9.75729 12.4888 -2.51015 0.000101596 4
13.4731 17.2448 -2.68701 4.49316e-05 1
15.9148 20.3701 -2.26158 0.000116167 10
15.9031 20.355 -1.35374 0.000117296 10
15.9105 20.3645 -0.45109 0.000117873 10
15.8986 20.3493 0.450753 0.000117892 10
15.9075 20.3607 1.35412 0.000117352 10
15.2781 19.5551 2.17109 5.61529e-05 10
16.8418 21.5565 4.33271 0.00027429 10
16.8368 21.5501 5.31582 0.000267675 10
16.8352 21.5481 6.31306 0.000259901 10
15.8942 20.3436 6.9175 9.78076e-05 10
6.02843 7.7718 -2.63549 0.000248899 4
6.9805 8.9992 -2.62939 0.000107085 4
8.28941 10.6866 -2.62894 0.000276339 4
9.71999 12.5309 -2.51179 9.10236e-05 4
13.4207 17.3019 -2.68859 4.49272e-05 1
15.8461 20.4287 -2.26193 0.000117203 10
15.8555 20.4408 -1.35575 0.000118342 10
15.841 20.4221 -0.451138 0.000118925 10
15.8407 20.4217 0.45113 0.000118944 10
15.8495 20.433 1.35524 0.000118399 10
15.2299 19.6342 2.17397 5.66504e-05 10
16.6007 21.4015 4.28988 0.000282186 10
16.5886 21.3859 5.26099 0.000275397 10
16.5949 21.394 6.25091 0.000267418 10
15.8466 20.4293 6.92779 0.00010404 10
6.00035 7.79162 -2.63509 0.000252969 4
6.95937 9.03693 -2.6333 0.000181016 4
8.2485 10.7109 -2.62781 0.000247236 4
9.67641 12.5651 -2.51185 8.20778e-05 4
13.3623 17.3513 -2.68901 4.49227e-05 1
15.7983 20.5145 -2.26531 0.000118225 10
15.7889 20.5023 -1.35617 0.000119375 10
15.7997 20.5164 -0.452 0.000119963 10
15.7912 20.5053 0.451756 0.000119982 10
15.7962 20.5117 1.35679 0.000119433 10
15.1743 19.7043 2.17585 5.71416e-05 10
16.3474 21.2275 4.24353 0.000290183 10
16.3485 21.2289 5.2083 0.000283218 10
16.3554 21.2379 6.18859 0.000275032 10
15.7761 20.4857 6.92818 0.000104946 10
5.96853 7.80651 -2.63307 0.000110159 4
6.92717 9.06036 -2.63307 0.000198853 4
8.20652 10.7337 -2.62636 0.000263218 4
9.62521 12.5892 -2.50995 0.000110512 4
13.3092 17.4077 -2.69053 4.49182e-05 1
15.7499 20.5999 -2.26867 0.000119234 10
15.7489 20.5987 -1.3589 0.000120394 10
15.7425 20.5903 -0.452415 0.000120988 10
15.733 20.5779 0.452143 0.000121007 10
15.7417 20.5892 1.35828 0.000120453 10
15.1294 19.7885 2.1793 5.76263e-05 10
16.1275 21.0938 4.20553 0.000298278 10
16.1158 21.0786 5.1576 0.000291136 10
16.1303 21.0975 6.13124 0.000282741 10
15.7374 20.5837 6.94269 0.000105839 10
5.93942 7.8249 -2.63226 0.000163192 4
6.88483 9.07043 -2.629 8.66754e-05 4
8.16297 10.7543 -2.62442 0.000292286 4
9.57388 12.6131 -2.50803 0.000102379 4
13.2346 17.4359 -2.68774 4.49137e-05 1
15.6903 20.6711 -2.27046 0.00012023 10
15.6934 20.6754 -1.36034 0.0001214 10
15.6788 20.656 -0.452653 0.000121998 10
15.6756 20.6519 0.452563 0.000122018 10
15.6801 20.6577 1.35918 0.000121459 10
15.0736 19.8587 2.18123 5.81047e-05 10
15.8872 20.9306 4.1619 0.000306473 10
15.8974 20.944 5.11106 0.000299152 10
15.8946 20.9404 6.06942 0.000290546 10
15.6749 20.6509 6.94689 0.000106721 10
5.91625 7.85113 -2.63412 0.000485476 4
6.865 9.11015 -2.63355 0.000104515 4
8.13919 10.8011 -2.62888 0.000231197 4
9.54619 12.6682 -2.51234 0.000125121 4
13.1804 17.4909 -2.68911 4.49091e-05 1
15.6264 20.7369 -2.27168 0.000121212 10
15.6213 20.7301 -1.36035 0.000122392 10
15.624 20.7337 -0.453159 0.000122995 10
15.6329 20.7456 0.453418 0.000123016 10
15.6258 20.7361 1.36074 0.000122452 10
15.0179 19.9295 2.18323 5.85765e-05 10
15.6743 20.8004 4.12512 0.000314764 10
15.6797 20.8077 5.06439 0.000307262 10
15.6661 20.7896 6.00983 0.000298442 10
15.6236 20.7332 6.95616 0.00010759 10
5.88407 7.8654 -2.632 0.000134622 4
6.81727 9.11283 -2.62743 0.000107059 4
8.10228 10.8305 -2.62915 9.7417e-05 4
9.48702 12.6816 -2.50841 7.14921e-05 4
13.1245 17.5439 -2.69019 4.49045e-05 1
15.5735 20.8176 -2.27455 0.000140973 10
15.5835 20.8309 -1.36338 0.000142349 10
15.5683 20.8105 -0.453647 0.000143054 10
15.5802 20.8265 0.453995 0.000143081 10
15.5688 20.8112 1.36209 0.000142428 10
14.9743 20.0165 2.18702 5.90418e-05 10
15.5641 20.805 3.19024 0.000119196 10
15.57 20.8129 4.11678 0.000116953 10
15.5719 20.8154 5.05301 0.00011419 10
15.5736 20.8177 6.00219 0.000110937 10
15.5643 20.8052 6.96207 0.00010723 10
5.86112 7.89199 -2.63404 0.000167251 4
6.79135 9.14456 -2.62972 9.94071e-05 4
9.44675 12.7201 -2.50949 7.96102e-05 4
13.0509 17.573 -2.68765 4.48999e-05 1
15.5262 20.9061 -2.27828 0.000141765 10
15.5239 20.9029 -1.36454 0.000143149 10
15.5199 20.8976 -0.45436 0.000143859 10
15.5284 20.909 0.454609 0.000143886 10
15.5213 20.8994 1.36431 0.000143229 10
14.9133 20.0807 2.18834 5.95005e-05 10
15.5235 20.9025 3.19687 0.000119865 10
15.5227 20.9013 4.12353 0.000117609 10
15.5179 20.8948 5.05911 0.00011483 10
15.5067 20.8797 6.00444 0.000111558 10
15.5098 20.884 6.97026 0.000107829 10
5.83892 7.91972 -2.63647 0.000297775 4
6.76395 9.1744 -2.6315 4.58779e-05 4
8.01354 10.8693 -2.62492 5.66986e-05 4
9.39967 12.7494 -2.50879 0.000114532 4
12.9946 17.6254 -2.68872 4.48953e-05 1
15.4718 20.9854 -2.28103 0.000142541 10
15.4766 20.9919 -1.36681 0.000143934 10
15.471 20.9844 -0.455072 0.000144648 10
15.4716 20.9852 0.455087 0.000144675 10
15.4719 20.9855 1.3664 0.000144015 10
14.8698 20.1689 2.19228 5.99526e-05 10
15.4573 20.9658 3.19828 0.000120521 10
15.4706 20.9838 4.12912 0.000118253 10
15.4715 20.985 5.06783 0.000115458 10
15.4553 20.9631 6.01286 0.000112167 10
15.4535 20.9606 6.97778 0.000108416 10
5.80823 7.93594 -2.63511 0.000277368 4
6.73106 9.19682 -2.63117 0.000201343 4
7.98124 10.905 -2.62679 8.28621e-05 4
9.3558 12.7831 -2.50897 0.000134017 4
12.9385 17.6782 -2.68986 4.48906e-05 1
15.4247 21.0752 -2.28492 0.000143302 10
15.4166 21.0641 -1.368 0.000144702 10
15.4112 21.0568 -0.455472 0.00014542 10
15.4223 21.0719 0.455799 0.000145447 10
15.4163 21.0637 1.36797 0.000144784 10
14.8073 20.2316 2.19346 6.0398e-05 10
15.416 21.0633 3.20493 0.000121164 10
15.4132 21.0595 4.13341 0.000118883 10
15.415 21.0619 5.07339 0.000116072 10
15.4094 21.0543 6.02356 0.000112763 10
15.405 21.0483 6.98902 0.000108991 10
5.77042 7.9423 -2.63052 0.000154993 4
6.69905 9.22044 -2.63123 0.000129974 4
7.94625 10.9371 -2.62782 7.26816e-05 4
9.31871 12.8261 -2.51102 0.000116951 4
12.8817 17.7302 -2.69091 4.48859e-05 1
15.3669 21.1506 -2.28727 0.000144047 10
15.3707 21.156 -1.37047 0.000145455 10
15.3585 21.1391 -0.45609 0.000146177 10
15.364 21.1467 0.456253 0.000146204 10
15.3539 21.1329 1.36898 0.000145537 10
14.7512 20.3033 2.19564 6.93853e-05 10
15.3663 21.1498 3.20991 0.000121794 10
15.3562 21.1361 4.13789 0.0001195 10
15.3521 21.1304 5.07694 0.000116674 10
15.3558 21.1355 6.0314 0.000113347 10
15.3566 21.1366 7.0005 0.000109554 10
5.75612 7.98106 -2.63668 0.000199851 4
6.66585 9.24243 -2.63084 7.13548e-05 4
7.90454 10.9599 -2.62666 0.000101748 4
9.27604 12.8615 -2.5116 9.98883e-05 4
12.8138 17.7668 -2.68966 4.48812e-05 1
15.3185 21.2397 -2.2911 0.000144775 10
15.3159 21.236 -1.37219 0.000146192 10
15.3077 21.2247 -0.45678 0.000146917 10
15.3045 21.2203 0.456685 0.000146945 10
15.3069 21.2235 1.37138 0.000146274 10
14.702 20.3849 2.1989 6.974e-05 10
15.3136 21.2328 3.21437 0.00012241 10
15.2992 21.2129 4.14245 0.000120104 10
15.3044 21.2201 5.08563 0.000117263 10
15.2981 21.2114 6.03779 0.000113918 10
15.2978 21.2109 7.00741 0.000110105 10
5.71774 7.98644 -2.63185 0.000146823 4
6.64014 9.27484 -2.63346 8.15441e-05 4
9.22985 12.8921 -2.51126 0.000116933 4
12.7454 17.8025 -2.68832 4.48765e-05 1
15.2675 21.3254 -2.29459 0.000145488 10
15.2507 21.3019 -1.373 0.000146912 10
15.2603 21.3154 -0.457584 0.000147642 10
15.2561 21.3095 0.457456 0.00014767 10
15.2465 21.296 1.37262 0.000146995 10
14.6517 20.4652 2.20203 7.00871e-05 10
15.2526 21.3046 3.21716 0.000123013 10
15.2441 21.2928 4.14764 0.000120695 10
15.243 21.2912 5.08989 0.000117839 10
15.2477 21.2977 6.04719 0.000114476 10
15.2399 21.2869 7.01488 0.000110643 10
5.69771 8.01746 -2.6355 0.000216146 4
6.59521 9.28036 -2.62847 3.05775e-05 4
7.83156 11.0201 -2.62791 5.2321e-05 4
9.17766 12.9142 -2.50931 0.000113676 4
12.6967 17.866 -2.6912 4.48717e-05 1
15.2066 21.3978 -2.29665 0.000146186 10
15.2026 21.3921 -1.37538 0.000147616 10
15.2096 21.402 -0.4583 0.00014835 10
15.1987 21.3866 0.457971 0.000148378 10
15.2074 21.399 1.37582 0.000147701 10
14.6031 20.5485 2.20549 7.04266e-05 10
15.2014 21.3905 3.2221 0.000123602 10
15.2008 21.3896 4.15613 0.000121272 10
15.2043 21.3945 5.10187 0.000118402 10
15.1979 21.3855 6.05699 0.000115022 10
15.1898 21.3742 7.02613 0.00011117 10
5.66739 8.03403 -2.63443 0.000159044 4
7.79123 11.0448 -2.6273 0.000119168 4
9.14629 12.9657 -2.51309 0.000103924 4
12.6361 17.9128 -2.69159 4.48669e-05 1
15.1577 21.4874 -2.30057 0.000146866 10
15.1591 21.4893 -1.37822 0.000148305 10
15.151 21.4779 -0.45879 0.000149042 10
15.149 21.475 0.458728 0.00014907 10
15.141 21.4638 1.37658 0.000148389 10
14.5519 20.6287 2.20864 7.07585e-05 10
15.1524 21.4798 3.22757 0.000124178 10
15.1456 21.4703 4.16151 0.000121836 10
15.1359 21.4564 5.104 0.000118952 10
15.1408 21.4634 6.06406 0.000115555 10
15.1446 21.4688 7.03983 0.000111684 10
5.64446 8.06113 -2.63684 0.000415943 4
6.53413 9.3317 -2.63003 5.86007e-05 4
7.75752 11.0789 -2.62896 6.82993e-05 4
9.09697 12.9918 -2.51199 9.33621e-05 4
12.5625 17.9411 -2.68923 4.4862e-05 1
15.0993 21.564 -2.30312 0.000147531 10
15.102 21.5679 -1.37987 0.000148977 10
15.0881 21.5481 -0.459161 0.000149718 10
15.1026 21.5687 0.459601 0.000149746 10
15.1024 21.5685 1.37991 0.000149062 10
14.5075 20.7189 2.21286 7.10827e-05 10
15.0961 21.5595 3.2316 0.00012474 10
15.091 21.5522 4.16715 0.000122387 10
15.0931 21.5552 5.11492 0.000119489 10
15.0903 21.5512 6.07395 0.000116076 10
15.0807 21.5375 7.04502 0.000112186 10
5.60186 8.06001 -2.63006 0.000191651 4
6.5112 9.36838 -2.63395 6.87885e-05 4
7.72249 11.1112 -2.63022 4.06864e-05 4
9.054 13.027 -2.51267 0.000112837 4
12.4978 17.982 -2.68881 4.48571e-05 1
15.0414 21.6417 -2.30579 0.00014818 10
15.0498 21.6538 -1.382 0.000149632 10
15.0395 21.639 -0.459977 0.000150377 10
15.0492 21.653 0.460274 0.000150406 10
15.0367 21.6349 1.38079 0.000149718 10
14.4508 20.7919 2.21526 7.13991e-05 10
15.0349 21.6323 3.23463 0.000125288 10
15.0434 21.6446 4.17484 0.000122925 10
15.032 21.6282 5.11978 0.000120012 10
15.0278 21.6222 6.07915 0.000116583 10
15.0399 21.6395 7.06119 0.000112675 10
5.58427 8.09486 -2.63506 0.00029358 4
6.46964 9.37827 -2.63036 0.000239473 4
7.67022 11.1186 -2.62562 3.34188e-05 4
8.9959 13.0403 -2.50916 0.000437367 4
12.4469 18.0428 -2.69138 4.48523e-05 1
14.991 21.7307 -2.30969 0.000148813 10
14.9924 21.7328 -1.38369 0.000150272 10
14.9844 21.7212 -0.460609 0.00015102 10
14.9943 21.7355 0.460914 0.000151049 10
14.9811 21.7163 1.38264 0.000150359 10
14.3905 20.8603 2.21717 7.1708e-05 10
14.9871 21.725 3.24065 0.000125823 10
14.976 21.7089 4.17714 0.000123449 10
14.9865 21.7242 5.13007 0.000120523 10
14.9828 21.7188 6.09154 0.000117078 10
14.9723 21.7036 7.06501 0.000113152 10
5.55331 8.1104 -2.63379 0.000358804 4
6.4365 9.40027 -2.63021 0.000114635 4
8.97509 13.1078 -2.5161 0.000503728 4
12.3806 18.0815 -2.69069 4.48473e-05 1
14.9419 21.8221 -2.31384 0.000149429 10
14.9416 21.8216 -1.38602 0.000150895 10
14.9425 21.8229 -0.461659 0.000151646 10
14.9406 21.8202 0.461601 0.000151675 10
14.9332 21.8094 1.38524 0.000150982 10
14.3506 20.9586 2.22229 7.20089e-05 10
14.9364 21.8141 3.24614 0.000126344 10
14.9211 21.7917 4.18303 0.000123959 10
14.9279 21.8016 5.13603 0.00012102 10
14.9297 21.8042 6.10087 0.00011756 10
14.9299 21.8046 7.08086 0.000113617 10
5.51727 8.1184 -2.63012 5.30028e-05 4
7.59573 11.1768 -2.62676 7.99043e-05 4
8.92769 13.1367 -2.51565 0.000439829 4
12.3235 18.1334 -2.69201 4.48424e-05 1
14.8903 21.9104 -2.31769 0.000150029 10
14.8737 21.8859 -1.3868 0.000151501 10
14.8858 21.9038 -0.462267 0.000152256 10
14.8763 21.8898 0.461973 0.000152286 10
14.8711 21.8821 1.38656 0.000151589 10
14.2879 21.0239 2.22391 7.23021e-05 10
14.879 21.8938 3.25025 0.000126851 10
14.8804 21.8959 4.19302 0.000124456 10
14.8806 21.8962 5.14603 0.000121504 10
14.878 21.8923 6.11094 0.00011803 10
14.8758 21.8891 7.09141 0.000114069 10
5.48943 8.13842 -2.63038 0.000118232 4
6.3794 9.45785 -2.6338 0.00011717 4
7.55404 11.1993 -2.62585 3.34123e-05 4
8.89893 13.1932 -2.52051 0.000515621 4
12.2592 18.175 -2.6918 4.48374e-05 1
14.8238 21.9772 -2.31926 0.000150613 10
14.8312 21.9881 -1.38998 0.000152091 10
14.8214 21.9736 -0.462646 0.000152849 10
14.8179 21.9684 0.462535 0.000152879 10
14.818 21.9686 1.38875 0.00015218 10
14.2419 21.1145 2.22822 7.25876e-05 10
14.8193 21.9706 3.25395 0.000127345 10
14.8146 21.9635 4.19604 0.000124939 10
14.8125 21.9605 5.14896 0.000121975 10
14.816 21.9657 6.11694 0.000118486 10
14.8108 21.9579 7.09692 0.000114509 10
6.33562 9.46404 -2.62935 0.000264892 4
7.52827 11.2456 -2.63052 0.000116209 4
8.86411 13.241 -2.52372 0.000418485 4
12.1895 18.2084 -2.69044 4.48324e-05 1
14.7692 22.062 -2.32276 0.00015118 10
14.7665 22.0578 -1.39113 0.000152665 10
14.7676 22.0596 -0.463368 0.000153426 10
14.7612 22.05 0.463167 0.000153456 10
14.7609 22.0495 1.3906 0.000152754 10
14.1917 21.1993 2.23192 7.28652e-05 10
14.7723 22.0666 3.26052 0.000127824 10
14.7621 22.0513 4.20294 0.000125409 10
14.7571 22.0439 5.15641 0.000122433 10
14.768 22.0601 6.12886 0.000118929 10
14.7596 22.0476 7.10921 0.000114936 10
5.44333 8.19288 -2.63563 8.56081e-05 4
6.31229 9.50077 -2.63341 0.00014772 4
7.48048 11.259 -2.62754 4.21231e-05 4
8.82744 13.2864 -2.52647 0.000473399 4
12.1198 18.2418 -2.6891 4.48274e-05 1
14.7191 22.1541 -2.32703 0.000151731 10
14.7117 22.1428 -1.39324 0.000153222 10
14.7111 22.142 -0.464018 0.000153987 10
14.7201 22.1555 0.4643 0.000154017 10
14.7126 22.1443 1.39333 0.000153312 10
14.1367 21.2775 2.23495 7.31351e-05 10
14.7056 22.1337 3.26282 0.00012829 10
14.7106 22.1412 4.21026 0.000125865 10
14.7021 22.1284 5.16415 0.000122878 10
14.7003 22.1258 6.1328 0.00011936 10
14.7032 22.1301 7.1192 0.000115351 10
5.40776 8.2013 -2.63225 0.000203819 4
6.27471 9.51609 -2.63157 0.000101871 4
7.44474 11.2905 -2.62881 0.00010167 4
8.80382 13.3517 -2.53304 0.000424169 4
12.0649 18.2973 -2.69107 4.48223e-05 1
14.6601 22.2332 -2.32995 0.000152266 10
14.6581 22.2302 -1.39551 0.000153762 10
14.653 22.2224 1.39502 0.000153854 10
14.0752 21.3462 2.237 7.33971e-05 10
14.6492 22.2166 3.26749 0.000128742 10
14.6495 22.2171 6.14389 0.000119777 10
14.658 22.2301 7.13487 0.000115753 10
5.37665 8.21638 -2.63105 0.000240496 4
6.23501 9.5281 -2.62886 8.1492e-05 4
7.40919 11.3224 -2.6302 0.000117638 4
8.76492 13.3942 -2.53528 0.000511637 4
11.991 18.3241 -2.68883 4.48172e-05 1
14.6139 22.3324 -2.33498 0.000152784 10
14.6003 22.3117 -1.39741 0.000154286 10
14.5994 22.3102 1.39732 0.000154379 10
14.033 21.4447 2.24217 7.36512e-05 10
14.5958 22.3048 3.27294 0.00012918 10
14.594 22.302 6.15326 0.000120182 10
14.5971 22.3067 7.14307 0.000116142 10
5.35373 8.24401 -2.6339 0.00016304 4
6.21112 9.56428 -2.63284 0.000168068 4
7.3706 11.3497 -2.63055 0.000137962 4
8.73685 13.4536 -2.54073 0.000432909 4
11.9386 18.3839 -2.69147 4.48121e-05 1
14.5445 22.3966 -2.33637 0.000153286 10
14.5522 22.4084 -1.40028 0.000154793 10
14.5516 22.4074 1.40022 0.000154887 10
13.972 21.5149 2.2444 7.38974e-05 10
14.545 22.3973 3.27906 0.000129604 10
14.5363 22.3839 6.16182 0.000120573 10
14.5394 22.3888 7.15305 0.000116519 10
5.31989 8.25486 -2.63142 0.000191563 4
6.17251 9.57787 -2.63064 9.16683e-05 4
7.32338 11.3637 -2.62784 4.79203e-05 4
8.69889 13.498 -2.54338 0.000509469 4
11.8765 18.4287 -2.69194 4.4807e-05 1
14.4888 22.4822 -2.34001 0.000153771 10
14.4973 22.4955 -1.40255 0.000155284 10
14.4967 22.4944 1.40248 0.000155378 10
13.9254 21.6079 2.24902 7.41358e-05 10
14.496 22.4934 3.28569 0.000130014 10
14.4852 22.4767 6.17339 0.000120952 10
14.48 22.4686 7.16235 0.000116883 10
5.30223 8.29086 -2.63698 0.000240462 4
6.14576 9.60985 -2.63351 5.60164e-05 4
7.29019 11.3994 -2.63019 9.87383e-05 4
8.6664 13.5513 -2.54769 0.000402097 4
11.8111 18.4684 -2.69171 4.48018e-05 1
14.4382 22.5763 -2.34455 0.000154239 10
14.4363 22.5734 -1.40426 0.000155758 10
14.4431 22.5841 1.40492 0.000155852 10
13.8685 21.6855 2.25204 7.43663e-05 10
14.4398 22.5789 3.2908 0.00013041 10
14.4317 22.5663 6.18413 0.000121317 10
14.427 22.5589 7.17506 0.000117235 10
5.26884 8.30236 -2.63477 0.000374939 4
6.10693 9.62297 -2.63125 0.000129849 4
7.24127 11.4104 -2.62689 5.95293e-05 4
8.62594 13.5923 -2.54973 0.000364133 4
11.7492 18.5137 -2.69232 4.47966e-05 1
14.3843 22.6661 -2.34864 0.000154691 10
14.3853 22.6676 -1.40699 0.000156215 10
14.3803 22.6598 1.4065 0.00015631 10
13.8163 21.771 2.2559 7.45888e-05 10
14.373 22.6482 3.29357 0.000130792 10
14.3778 22.6557 6.19485 0.000121669 10
14.3694 22.6425 7.18564 0.000117574 10
5.2381 8.31795 -2.6339 0.000289341 4
6.07742 9.65078 -2.63304 0.000137479 4
7.20303 11.4382 -2.62749 4.93624e-05 4
8.58327 13.63 -2.55117 0.000391221 4
11.6844 18.5544 -2.69229 4.47913e-05 1
14.3278 22.7521 -2.35236 0.000155127 10
14.3281 22.7526 -1.40915 0.000156655 10
14.3285 22.7533 1.40919 0.000156751 10
13.7558 21.8439 2.25846 7.48035e-05 10
14.3251 22.7479 3.30077 0.00013116 10
14.324 22.7462 6.20587 0.000122008 10
14.3154 22.7324 7.19828 0.0001179 10
5.20622 8.33169 -2.63248 0.000130401 4
6.04145 9.66834 -2.63206 0.000226573 4
7.15719 11.4539 -2.62533 0.000111784 4
8.54817 13.6799 -2.55491 0.000430837 4
11.616 18.5894 -2.69147 4.47861e-05 1
14.2663 22.8308 -2.35534 0.000155546 10
14.2763 22.8469 -1.4119 0.000157079 10
14.2738 22.8428 1.41164 0.000157175 10
13.7038 21.9306 2.26246 7.50102e-05 10
14.265 22.8287 3.30526 0.000131514 10
14.2578 22.8173 6.21165 0.000122334 10
14.2664 22.831 7.21368 0.000118213 10
5.17968 8.35398 -2.63379 8.96464e-05 4
6.01353 9.69883 -2.63463 0.000112007 4
8.51593 13.7348 -2.55959 0.000290937 4
11.549 18.6266 -2.691 4.47808e-05 1
14.212 22.9217 -2.35958 0.000155948 10
14.2182 22.9316 -1.41405 0.000157486 10
14.2178 22.931 1.41402 0.000157582 10
13.6474 22.011 2.26583 7.5209e-05 10
14.2042 22.9091 3.30969 0.000131854 10
14.2094 22.9174 6.22539 0.000122647 10
14.2115 22.9208 7.22634 0.000118514 10
5.14973 8.37076 -2.6334 0.000138538 4
5.96879 9.70212 -2.62985 6.61824e-05 4
7.08725 11.5201 -2.62912 9.14466e-05 4
8.4798 13.7837 -2.56318 0.000117621 4
11.478 18.6572 -2.68961 4.47755e-05 1
14.1593 23.0156 -2.36414 0.000156333 10
14.1527 23.0048 -1.41551 0.000157876 10
14.159 23.0151 1.41615 0.000157973 10
13.6053 22.1152 2.27165 7.53998e-05 10
14.1555 23.0094 3.31703 0.000132179 10
14.148 22.9972 6.23359 0.000122947 10
14.1545 23.0077 7.23813 0.000118802 10
5.12458 8.39541 -2.63551 0.000158903 4
5.94531 9.73999 -2.63447 5.59972e-05 4
7.04227 11.5371 -2.62736 5.3703e-05 4
8.44105 13.8287 -2.56604 0.000401413 4
11.4234 18.7145 -2.69211 4.47701e-05 1
14.103 23.1044 -2.3682 0.000156702 10
14.1074 23.1117 -1.41905 0.000158249 10
14.099 23.0979 1.41821 0.000158347 10
13.5396 22.1815 2.27359 7.55827e-05 10
14.0943 23.0902 3.32157 0.000132491 10
14.0856 23.0759 6.24156 0.000123233 10
14.0923 23.0868 7.24749 0.000119077 10
5.09272 8.40908 -2.63421 0.000313716 4
5.90179 9.74501 -2.63024 0.000119624 4
7.0004 11.559 -2.62677 5.80532e-05 4
8.40611 13.8801 -2.57013 0.000402234 4
11.3549 18.7492 -2.69139 4.47648e-05 1
14.0441 23.1895 -2.37188 0.000157054 10
14.0433 23.1882 -1.42073 0.000158606 10
14.0375 23.1787 -0.472998 0.000159402 10
14.047 23.1944 0.473319 0.000159434 10
14.0407 23.1839 1.42047 0.000158703 10
13.4856 22.2674 2.27756 7.57575e-05 10
14.0389 23.1809 3.32754 0.000132789 10
14.0313 23.1684 4.29 0.000130268 10
14.0416 23.1855 5.26886 0.000127163 10
14.0317 23.1691 6.2535 0.000123507 10
14.0328 23.1709 7.25846 0.00011934 10
5.05917 8.41986 -2.63204 0.000203702 4
5.8652 9.76132 -2.6291 0.000119617 4
6.96236 11.5873 -2.62766 4.06344e-05 4
8.37033 13.9306 -2.57404 0.000393639 4
11.2825 18.7771 -2.68972 4.47594e-05 1
13.9905 23.284 -2.37653 0.00015739 10
13.981 23.2683 -1.42264 0.000158945 10
13.9889 23.2815 -0.474097 0.000159744 10
13.9927 23.2878 0.474225 0.000159776 10
13.9853 23.2754 1.42307 0.000159043 10
13.4264 22.3452 2.28071 7.59245e-05 10
13.9851 23.2752 3.33404 0.000133072 10
13.9871 23.2784 4.30131 0.000130545 10
13.987 23.2783 5.27884 0.000127432 10
13.9854 23.2757 6.26903 0.000123767 10
13.9812 23.2685 7.27371 0.00011959 10
5.03655 8.44889 -2.6356 0.000122215 4
5.83895 9.79492 -2.63264 0.000236674 4
6.92838 11.6225 -2.63013 0.000107383 4
8.33417 13.9807 -2.57791 0.000465858 4
11.228 18.8352 -2.69241 4.4754e-05 1
13.932 23.3712 -2.38046 0.000157709 10
13.9339 23.3744 -1.42614 0.000159268 10
13.9261 23.3613 -0.474728 0.000160068 10
13.9305 23.3687 0.474879 0.000160101 10
13.9258 23.3607 1.42531 0.000159366 10
13.377 22.4401 2.28562 7.60835e-05 10
13.924 23.3577 3.33889 0.000133342 10
13.9171 23.3461 4.30482 0.000130809 10
13.9188 23.349 5.28381 0.000127688 10
13.9231 23.3562 6.27759 0.000124014 10
13.9152 23.343 7.28176 0.000119827 10
5.01199 8.47481 -2.63821 0.000203681 4
5.80519 9.81604 -2.63286 0.000206124 4
8.30886 14.0495 -2.58524 0.000426043 4
11.1583 18.8676 -2.69145 4.47485e-05 1
13.8761 23.4631 -2.38487 0.000158011 10
13.8695 23.452 -1.42792 0.000159574 10
13.8646 23.4437 -0.475416 0.000160376 10
13.8707 23.454 0.475626 0.000160409 10
13.8752 23.4617 1.42851 0.000159672 10
13.3163 22.5166 2.28866 7.62345e-05 10
13.8741 23.4599 3.34655 0.000133597 10
13.8591 23.4344 4.31215 0.000131058 10
13.8623 23.4398 5.29338 0.00012793 10
13.8593 23.4348 6.28569 0.000124248 10
13.8561 23.4293 7.29355 0.000120051 10
4.9764 8.48207 -2.63505 0.000537692 4
5.77591 9.8448 -2.63515 0.000170487 4
6.83575 11.6513 -2.62578 4.49784e-05 4
8.26839 14.0931 -2.58794 0.000417352 4
11.0941 18.9095 -2.69189 4.4743e-05 1
13.8186 23.5532 -2.38911 0.000158297 10
13.8106 23.5396 -1.4303 0.000159863 10
13.8205 23.5565 -0.476723 0.000160668 10
13.806 23.5318 0.476223 0.000160701 10
13.8174 23.5512 1.43101 0.000159961 10
13.2682 22.6151 2.29395 7.63776e-05 10
13.8093 23.5374 3.3507 0.000133838 10
13.8079 23.5349 4.32175 0.000131294 10
13.7996 23.5209 5.30079 0.000128159 10
13.8123 23.5425 6.30159 0.000124469 10
13.8111 23.5404 7.31308 0.000120263 10
4.9478 8.50116 -2.6356 0.000199588 4
5.73716 9.85743 -2.63315 0.000251899 4
6.80834 11.6979 -2.63092 3.19179e-05 4
8.2399 14.1576 -2.59447 0.000509384 4
11.0207 18.9355 -2.6901 4.47376e-05 1
13.7507 23.6261 -2.39162 0.000158566 10
13.7501 23.625 -1.43257 0.000160136 10
13.7543 23.6323 -0.477282 0.000160942 10
13.7483 23.6219 0.477073 0.000160975 10
13.7471 23.6198 1.43225 0.000160234 10
13.2099 22.6968 2.29755 7.65127e-05 10
13.7504 23.6256 3.35641 0.000134065 10
13.7491 23.6233 4.32914 0.000131516 10
13.7508 23.6262 5.31366 0.000128374 10
13.7507 23.6261 6.31109 0.000124676 10
13.7498 23.6244 7.32423 0.000120462 10
4.91753 8.51741 -2.6353 0.000171066 4
