VERSION 0.7
FIELDS x y z intensity label
SIZE 4 4 4 4 4
TYPE F F F F F
COUNT 1 1 1 1 1
WIDTH 1181
HEIGHT 1
VIEWPOINT 8.05377 5.11692 2.7298 0.999997 0.000029 0.000557603 -0.00257793
POINTS 1181
DATA ascii
30.0508 -9.99658 8.48592 0.000189541 10
9.36201 -3.07807 -2.64065 0.000395871 4
10.6909 -3.51498 -2.59816 0.000527464 4
12.3511 -4.06085 -2.52725 0.000170813 4
15.1314 -4.97495 -2.52279 0.000100661 4
20.9259 -6.88008 -2.70468 4.39129e-05 1
30.5889 -10.0571 -1.68752 8.8662e-05 10
30.0791 -9.88951 1.65939 0.000218217 10
30.0559 -9.88187 2.76803 0.00021608 10
30.0649 -9.88485 3.88591 0.000212888 10
30.0519 -9.88057 5.01042 0.000208676 10
30.0611 -9.8836 6.15101 0.000203494 10
30.0678 -9.88579 7.30726 0.0001974 10
30.0607 -9.88347 8.47893 0.000190463 10
9.37097 -3.04481 -2.64016 0.000420114 4
10.7731 -3.5004 -2.61516 0.000328893 4
12.3607 -4.01623 -2.52632 0.00010696 4
15.1476 -4.92174 -2.5226 0.000111849 4
20.9616 -6.81083 -2.70621 4.39142e-05 1
30.9475 -10.0555 -1.70536 8.49062e-05 10
30.0517 -9.76438 1.65599 0.000219257 10
30.0776 -9.7728 2.76687 0.000217111 10
30.0496 -9.76371 3.8795 0.000213905 10
30.0632 -9.76812 5.00658 0.000209674 10
30.0483 -9.76328 6.14138 0.000204468 10
30.0454 -9.76236 7.29351 0.000198347 10
30.0606 -9.7673 8.46924 0.000191379 10
9.37923 -3.01134 -2.63951 0.000803881 4
10.8676 -3.4892 -2.63512 0.0005069 4
12.3663 -3.9704 -2.52463 0.000218713 4
15.1605 -4.8675 -2.52191 9.10787e-05 4
20.9827 -6.73681 -2.70588 4.39156e-05 1
31.3203 -10.0559 -1.72395 8.12579e-05 10
31.5354 -10.1249 -0.578127 0.000161497 10
31.5411 -10.1267 0.578232 0.000161524 10
30.2275 -9.70498 1.6638 7.08702e-05 10
30.2179 -9.70192 2.77665 7.0166e-05 10
30.2223 -9.70333 3.89741 6.91188e-05 10
30.2134 -9.70048 5.02593 6.77406e-05 10
30.2057 -9.69801 6.1666 6.60474e-05 10
30.211 -9.69968 7.32542 6.40585e-05 10
30.201 -9.6965 8.49921 6.17965e-05 10
9.38862 -2.97825 -2.63921 0.000173705 4
10.8948 -3.45602 -2.63877 0.000224303 4
12.3777 -3.92643 -2.52413 0.000226699 4
15.1728 -4.8131 -2.52115 0.00012224 4
21.0121 -6.66542 -2.70665 4.39169e-05 1
31.6941 -10.054 -1.74259 7.77154e-05 10
31.8002 -10.0876 -0.582334 0.000157949 10
31.8018 -10.0881 0.582362 0.000157976 10
31.6821 -10.0502 1.74193 6.06009e-05 10
31.3272 -9.93757 2.87537 0.000192763 10
31.6808 -10.0497 4.08093 5.90843e-05 10
31.692 -10.0533 5.26602 5.78913e-05 10
31.3074 -9.93131 6.3844 0.000181421 10
30.5886 -9.70327 7.40873 6.12745e-05 10
31.7005 -10.056 8.91126 5.27484e-05 10
9.40357 -2.9469 -2.64051 0.000363573 4
10.8994 -3.41565 -2.63698 9.32507e-05 4
12.3907 -3.88301 -2.52401 0.000202755 4
15.2066 -4.76547 -2.52399 9.50776e-05 4
21.022 -6.5879 -2.70496 4.39182e-05 1
32.0713 -10.0506 -1.76139 7.42776e-05 10
32.078 -10.0526 -0.586775 0.000154497 10
32.0897 -10.0563 0.586987 0.000154523 10
32.077 -10.0523 1.7617 5.79202e-05 10
31.3258 -9.8169 2.87207 0.000193659 10
32.0642 -10.0483 4.12579 5.64664e-05 10
32.0604 -10.0471 5.32137 5.53228e-05 10
31.3104 -9.81207 6.37797 0.000182268 10
30.9418 -9.69656 7.48603 5.85725e-05 10
32.0815 -10.0537 9.00845 5.03936e-05 10
9.02701 -2.79433 -2.53201 0.00047852 4
10.9271 -3.38252 -2.64083 0.000476342 4
12.4045 -3.83984 -2.52408 0.000205952 4
15.2241 -4.71264 -2.52414 0.00010307 4
21.0449 -6.5145 -2.70497 4.39195e-05 1
32.4794 -10.0541 -1.78186 7.0943e-05 10
32.6144 -10.0958 -0.595938 0.000147189 10
32.6158 -10.0963 0.595963 0.000147214 10
32.4556 -10.0467 1.78056 5.532e-05 10
31.3135 -9.69315 2.86783 0.000194549 10
32.4639 -10.0493 4.17268 5.39272e-05 10
32.4591 -10.0478 5.38169 5.28316e-05 10
31.3128 -9.69294 6.37154 5.77043e-05 10
32.4772 -10.0534 7.84898 4.99062e-05 10
32.4549 -10.0465 9.10339 4.81104e-05 10
9.03691 -2.76286 -2.53207 0.000626109 4
10.9466 -3.34671 -2.64269 0.000131059 4
12.4244 -3.79854 -2.52541 0.00019478 4
15.2355 -4.65796 -2.52332 0.000103871 4
21.0617 -6.43921 -2.70421 4.39208e-05 1
32.8545 -10.0446 -1.80051 6.77103e-05 10
32.8792 -10.0522 -0.600132 0.000144024 10
32.8814 -10.0529 0.600171 0.000144048 10
32.8624 -10.047 1.80094 5.27993e-05 10
32.8614 -10.0468 3.00637 5.22631e-05 10
32.8729 -10.0502 4.2207 5.14659e-05 10
32.8743 -10.0507 5.44468 5.0417e-05 10
32.8693 -10.0492 6.68107 4.91289e-05 10
32.874 -10.0506 7.93633 4.76166e-05 10
32.8682 -10.0488 9.20941 4.58977e-05 10
9.04078 -2.72958 -2.53047 0.000612699 4
10.947 -3.30511 -2.64 6.55303e-05 4
12.426 -3.75162 -2.52305 0.000194783 4
15.2382 -4.60069 -2.5211 0.000104672 4
21.1017 -6.37098 -2.70647 4.39221e-05 1
33.2863 -10.0497 -1.82223 6.45776e-05 10
33.4151 -10.0886 -0.609266 0.000137318 10
33.4198 -10.09 0.609352 0.000137341 10
33.263 -10.0427 1.82096 5.03566e-05 10
33.2787 -10.0474 3.04131 4.98436e-05 10
33.2656 -10.0435 4.26661 4.90808e-05 10
33.2613 -10.0422 5.50294 4.80774e-05 10
33.2602 -10.0418 6.75336 4.68451e-05 10
33.2644 -10.0431 8.02208 4.53985e-05 10
33.2607 -10.042 9.3095 4.37544e-05 10
9.05277 -2.69875 -2.53117 0.000603762 4
10.9513 -3.26471 -2.63825 0.000241961 4
12.4458 -3.71025 -2.52443 0.000205962 4
15.2531 -4.54714 -2.52092 0.000129444 4
21.1236 -6.29722 -2.70645 4.39233e-05 1
33.6853 -10.042 -1.84215 6.15439e-05 10
33.6974 -10.0456 -0.613771 0.00013441 10
33.696 -10.0452 0.613744 0.000134433 10
33.6908 -10.0437 1.84245 4.7991e-05 10
33.5524 -10.0024 3.06311 0.000158577 10
33.6819 -10.041 4.31548 4.67712e-05 10
33.676 -10.0393 5.56572 4.58118e-05 10
33.5457 -10.0004 6.80421 0.000149083 10
33.6897 -10.0434 8.11615 4.3251e-05 10
33.5246 -9.99413 9.37356 0.000139269 10
9.07863 -2.67199 -2.53578 0.000663609 4
10.9729 -3.2295 -2.64073 0.000299935 4
12.4528 -3.66507 -2.52325 0.000220335 4
15.2823 -4.49782 -2.52313 9.34896e-05 4
21.1248 -6.21736 -2.7038 4.39245e-05 1
34.1125 -10.0399 -1.86358 5.86074e-05 10
34.227 -10.0736 -0.622773 0.000128246 10
34.2312 -10.0748 0.622849 0.000128268 10
34.1158 -10.0408 1.86376 4.57013e-05 10
33.5329 -9.86928 3.05817 0.000159283 10
34.1048 -10.0376 4.36514 4.45358e-05 10
34.1163 -10.041 5.63266 4.36193e-05 10
33.5527 -9.8751 6.79859 0.000149749 10
34.1241 -10.0433 8.21229 4.11729e-05 10
33.5453 -9.87292 9.36965 0.000139894 10
9.15491 -2.65975 -2.55448 0.000695901 4
10.9824 -3.19069 -2.64033 0.000236927 4
12.472 -3.62344 -2.52455 0.000228322 4
15.2863 -4.44108 -2.52122 9.9884e-05 4
21.1709 -6.15071 -2.70694 4.39258e-05 1
34.5658 -10.0423 -1.88642 5.57669e-05 10
34.5521 -10.0383 -0.628047 5.60583e-05 10
34.5602 -10.0407 0.628194 5.60601e-05 10
34.5427 -10.0356 1.88516 4.34863e-05 10
33.556 -9.74892 3.05716 0.000159983 10
34.5607 -10.0408 4.41899 4.23737e-05 10
33.5256 -9.7401 6.78617 0.00015041 10
34.5626 -10.0414 8.30935 3.91634e-05 10
33.5469 -9.74627 9.36053 0.000140515 10
9.24268 -2.6503 -2.57637 0.000658522 4
10.9844 -3.14973 -2.63815 0.00037808 4
12.4878 -3.58082 -2.5252 0.000210762 4
15.3108 -4.3903 -2.52271 0.000119064 4
21.1786 -6.07286 -2.7052 4.3927e-05 1
34.99 -10.0332 -1.90765 5.30207e-05 10
34.7597 -9.9672 1.89509 0.000144854 10
34.7425 -9.96224 3.16206 0.000143382 10
34.7545 -9.96569 4.43928 0.000141183 10
34.7474 -9.96366 7.0264 0.000134718 10
34.7471 -9.96356 8.34527 0.00013053 10
34.7495 -9.96426 9.68633 0.000125768 10
9.3517 -2.64626 -2.60417 0.000703741 4
10.9924 -3.11054 -2.63744 0.000247015 4
12.529 -3.54536 -2.53103 0.000189814 4
15.3289 -4.33764 -2.52319 0.000108678 4
21.2133 -6.00276 -2.70694 4.39281e-05 1
35.4679 -10.0364 -1.93178 5.03675e-05 10
43.7579 -12.3822 -0.793788 5.64316e-05 10
43.7545 -12.3813 0.793726 5.64421e-05 10
34.742 -9.831 1.89225 0.00014548 10
34.7496 -9.83313 3.15957 0.000144002 10
34.7338 -9.82868 4.43223 0.000141794 10
34.7448 -9.83179 7.01889 0.000135303 10
34.7388 -9.8301 8.33501 0.000131098 10
34.7346 -9.8289 9.67256 0.000126317 10
9.45235 -2.63914 -2.62962 0.00061942 4
11.0264 -3.07863 -2.64301 0.000433543 4
12.6473 -3.5312 -2.55242 0.000339511 4
15.3465 -4.28482 -2.52361 0.000117471 4
21.2162 -5.92367 -2.70465 4.39293e-05 1
35.9433 -10.0355 -1.95575 4.78056e-05 10
34.7378 -9.69896 1.89016 0.0001461 10
34.7353 -9.69826 3.15517 0.000144616 10
34.7491 -9.70212 4.42983 0.000142399 10
34.6673 -9.67929 5.70077 4.00045e-05 10
34.7272 -9.69601 7.00846 0.000135883 10
34.7281 -9.69626 8.32426 0.000131661 10
34.7496 -9.70226 9.66724 0.00012686 10
9.53815 -2.62724 -2.65092 0.000615703 4
11.0237 -3.03642 -2.63979 0.000501605 4
12.7661 -3.51638 -2.5739 0.000275295 4
15.3606 -4.23102 -2.52349 0.000108682 4
21.2334 -5.84867 -2.70423 4.39304e-05 1
36.4093 -10.0288 -1.97919 4.53336e-05 10
36.9235 -10.1704 -0.668505 0.000102399 10
36.9182 -10.169 0.668408 0.000102417 10
35.1352 -9.67785 1.90993 3.97754e-05 10
35.14 -9.67917 3.18884 3.93647e-05 10
35.1279 -9.67584 4.47379 3.87541e-05 10
35.124 -9.67477 5.77028 3.7951e-05 10
35.1299 -9.6764 7.08288 3.69649e-05 10
35.118 -9.67311 8.40957 3.58077e-05 10
35.1148 -9.67222 9.75939 3.4493e-05 10
9.63625 -2.61811 -2.67563 0.000798788 4
11.0247 -2.99534 -2.63752 0.000524297 4
12.9035 -3.50582 -2.59912 0.000312769 4
15.3741 -4.17705 -2.52329 0.000108684 4
21.2648 -5.77751 -2.70564 4.39315e-05 1
36.912 -10.0288 -2.00461 4.295e-05 10
36.9199 -10.0309 -0.667801 0.000102832 10
36.9088 -10.0279 0.6676 0.00010285 10
35.6124 -9.67569 1.93403 3.77061e-05 10
35.6154 -9.67649 3.2289 3.73153e-05 10
35.6113 -9.67538 4.53103 3.67343e-05 10
35.6053 -9.67376 5.84376 3.59702e-05 10
35.613 -9.67585 7.17342 3.50322e-05 10
35.6018 -9.6728 8.51729 3.39314e-05 10
35.5909 -9.66985 9.88227 3.2681e-05 10
9.74297 -2.61062 -2.70271 0.000687784 4
11.054 -2.96192 -2.64205 0.0004386 4
13.0085 -3.48562 -2.6178 0.00029632 4
15.3773 -4.12033 -2.52143 9.98955e-05 4
21.2723 -5.6999 -2.70405 4.39327e-05 1
37.4134 -10.0249 -2.02992 4.0653e-05 10
37.4607 -10.0376 -0.676945 9.83719e-05 10
37.451 -10.035 0.67677 9.83891e-05 10
36.1008 -9.67319 1.95871 3.57109e-05 10
36.0924 -9.67093 3.26906 3.53394e-05 10
36.0979 -9.6724 4.58861 3.47871e-05 10
36.0987 -9.67262 5.91916 3.40608e-05 10
36.0918 -9.67079 7.26303 3.31692e-05 10
36.0847 -9.66888 8.62469 3.2123e-05 10
36.0846 -9.66884 10.0099 3.09347e-05 10
9.81941 -2.5944 -2.72139 0.00062215 1
10.5744 -2.79388 -2.52507 0.000321632 4
13.115 -3.46514 -2.63678 7.4609e-05 4
15.4041 -4.06995 -2.5235 9.74997e-05 4
21.3 -5.62771 -2.70506 4.39337e-05 1
37.9201 -10.0189 -2.0555 3.84412e-05 10
37.988 -10.0369 -0.685837 9.41428e-05 10
37.9911 -10.0377 0.685892 9.41593e-05 10
36.5879 -9.66696 1.98329 3.37887e-05 10
36.5917 -9.66795 3.31121 3.34358e-05 10
36.6032 -9.67099 4.64853 3.29113e-05 10
36.586 -9.66643 5.99349 3.22215e-05 10
36.5978 -9.66956 7.35801 3.13747e-05 10
36.5954 -9.66892 8.73863 3.03813e-05 10
36.5936 -9.66846 10.1417 2.92531e-05 10
9.82329 -2.55878 -2.71997 0.000622157 1
10.6072 -2.76297 -2.53058 0.000408338 4
13.1343 -3.42124 -2.63824 8.75233e-05 4
15.4105 -4.01414 -2.52223 7.67225e-05 4
21.3113 -5.55118 -2.70401 4.39348e-05 1
38.4708 -10.0209 -2.08345 3.63129e-05 10
38.7189 -10.0855 -0.698393 0.000134314 10
38.713 -10.084 0.698285 0.000134338 10
37.0967 -9.66298 2.00903 3.19382e-05 10
37.0946 -9.66242 3.35365 3.16033e-05 10
37.1063 -9.66548 4.70811 3.11056e-05 10
37.099 -9.66357 6.07197 3.0451e-05 10
37.1031 -9.66462 7.45276 2.96477e-05 10
37.1073 -9.66572 8.85275 2.87051e-05 10
9.82281 -2.52207 -2.71739 0.000622163 1
10.6007 -2.72181 -2.52676 0.000360796 4
13.1419 -3.37426 -2.63738 0.000107612 4
15.4373 -3.96364 -2.52434 9.2708e-05 4
21.3487 -5.48141 -2.70631 4.39359e-05 1
39.0147 -10.0173 -2.11099 3.42668e-05 10
39.0132 -10.0169 -0.703066 3.44522e-05 10
39.0193 -10.0185 0.703176 3.44535e-05 10
37.6437 -9.66528 2.03682 3.0158e-05 10
37.6413 -9.66463 3.4 2.98405e-05 10
37.6212 -9.65947 4.76913 2.93687e-05 10
37.6302 -9.66179 6.15336 2.87482e-05 10
9.8243 -2.48593 -2.71538 0.000622169 1
10.6264 -2.68889 -2.53062 0.0003608 4
13.1601 -3.33003 -2.6387 0.00018653 4
15.4368 -3.9061 -2.522 0.000103099 4
21.361 -5.40518 -2.70547 4.39369e-05 1
39.5706 -10.0129 -2.13917 3.23009e-05 10
43.7507 -11.0706 0.787739 5.8447e-05 10
38.7046 -9.79376 3.49293 0.000103944 10
38.6973 -9.79192 6.32222 0.000100136 10
38.7046 -9.79377 10.6977 9.08024e-05 10
9.84128 -2.45371 -2.71769 0.000622175 1
10.6752 -2.66162 -2.54 0.000194787 4
13.1732 -3.28446 -2.63901 5.4525e-05 4
15.456 -3.85361 -2.52293 0.000103101 4
19.8821 -4.95716 -2.51595 3.54132e-05 4
40.1406 -10.0082 -2.16808 3.04138e-05 10
9.85765 -2.42127 -2.71986 0.000622181 1
10.7889 -2.65002 -2.56486 0.000276643 4
13.1777 -3.23674 -2.63762 0.000130575 4
15.4676 -3.79921 -2.52265 8.7118e-05 4
19.9023 -4.88847 -2.51633 4.32116e-05 4
43.7458 -10.745 -0.786283 5.89126e-05 10
43.7414 -10.7439 0.786204 5.89234e-05 10
9.85823 -2.38496 -2.71771 0.000622186 1
10.9219 -2.6423 -2.59427 0.00042764 4
13.1983 -3.19301 -2.6395 0.000252543 4
15.4808 -3.74521 -2.52265 9.75098e-05 4
19.9288 -4.82128 -2.51754 4.77613e-05 4
41.9409 -10.1466 -0.7532 6.86094e-05 10
41.937 -10.1456 0.75313 6.86218e-05 10
40.9112 -9.89748 2.20592 8.77907e-05 10
40.9128 -9.89785 3.68266 8.6855e-05 10
40.9323 -9.90258 6.67007 8.36183e-05 10
40.9255 -9.90093 9.72096 7.87058e-05 10
9.85656 -2.34817 -2.71497 0.000622192 1
11.0302 -2.62776 -2.61779 0.000481574 4
13.2085 -3.14671 -2.63933 0.000170756 4
15.4776 -3.6873 -2.52002 0.000111898 4
19.9349 -4.74917 -2.5162 4.67876e-05 4
40.9281 -9.75045 2.20498 8.81269e-05 10
40.9372 -9.75263 3.68177 8.71879e-05 10
40.9292 -9.75071 6.66397 8.39397e-05 10
40.9125 -9.74674 9.70974 7.90096e-05 10
9.88232 -2.31788 -2.71982 0.000622197 1
11.1788 -2.62197 -2.65087 0.000381441 4
13.2131 -3.0991 -2.63806 0.000179368 4
15.4985 -3.63513 -2.52133 0.000110301 4
19.9633 -4.68236 -2.51771 4.41892e-05 4
42.7624 -10.0298 -0.766677 6.46446e-05 10
42.7437 -10.0255 0.766341 6.46562e-05 10
42.1207 -9.87933 2.26736 7.99857e-05 10
42.1325 -9.88209 3.78615 7.91256e-05 10
42.1077 -9.87628 6.8502 7.61506e-05 10
42.1259 -9.88054 9.98945 7.1637e-05 10
9.89225 -2.28381 -2.72034 0.000622203 1
11.313 -2.61181 -2.68051 0.000358225 4
13.2138 -3.05065 -2.63607 0.00017363 4
15.5231 -3.58379 -2.52329 0.000119895 4
19.9759 -4.6118 -2.51725 4.09408e-05 4
43.3104 -9.999 -0.775872 6.20722e-05 10
43.2944 -9.9953 0.775584 6.20835e-05 10
42.1105 -9.72197 2.26497 8.02855e-05 10
42.1268 -9.72575 3.78256 7.94224e-05 10
42.1057 -9.72088 6.84431 7.64371e-05 10
42.122 -9.72465 9.98044 7.19077e-05 10
9.87518 -2.24359 -2.71348 0.000384836 4
11.4342 -2.59779 -2.70706 0.000453939 4
13.2253 -3.00471 -2.63625 0.000261166 4
15.5522 -3.53337 -2.526 0.000152045 4
19.991 -4.54184 -2.51714 5.16645e-05 4
43.7573 -9.94143 2.35167 7.05269e-05 10
43.733 -9.9359 3.92365 6.97593e-05 10
43.7519 -9.94019 5.50895 6.86135e-05 10
43.7259 -9.93429 7.10199 6.71047e-05 10
43.7484 -9.93939 8.72053 6.52521e-05 10
43.7331 -9.93593 10.3539 6.30794e-05 10
43.7413 -9.93778 12.0191 6.06143e-05 10
9.88049 -2.20855 -2.7128 0.000442189 4
11.4893 -2.56817 -2.71798 0.000387607 1
13.2308 -2.95745 -2.63528 4.30498e-05 4
15.7212 -3.51411 -2.55144 0.000191891 4
20.0161 -4.47412 -2.51831 3.76931e-05 4
43.7463 -9.77845 2.34922 7.07863e-05 10
43.7529 -9.77994 3.92235 7.00159e-05 10
43.7555 -9.78051 5.50508 6.88663e-05 10
43.7402 -9.77709 7.09872 6.73523e-05 10
43.7302 -9.77486 8.71005 6.54934e-05 10
43.7473 -9.77867 10.3491 6.33132e-05 10
43.7448 -9.77812 12.0106 6.08397e-05 10
9.85295 -2.16631 -2.70315 0.000376238 4
11.4812 -2.5243 -2.71395 0.00038761 1
12.6981 -2.79186 -2.52722 0.000218799 4
15.9126 -3.4986 -2.5805 0.000183627 4
20.0259 -4.40298 -2.5176 4.58175e-05 4
9.83159 -2.12567 -2.69524 0.000463483 4
11.5103 -2.48861 -2.71875 0.000387614 1
12.6939 -2.74452 -2.52446 0.000223593 4
16.0875 -3.47825 -2.60689 0.000118733 4
9.81628 -2.08651 -2.68903 0.000396381 4
11.5047 -2.4454 -2.71541 0.000387618 1
12.6951 -2.69843 -2.52281 0.000225192 4
16.2653 -3.4573 -2.63372 5.43449e-05 4
20.054 -4.2626 -2.51733 4.06199e-05 4
9.79937 -2.0472 -2.68242 0.000311564 4
11.5144 -2.40549 -2.7157 0.000387621 1
12.7304 -2.65953 -2.52797 0.000182072 4
16.2924 -3.40367 -2.63617 3.50387e-05 4
20.0709 -4.19303 -2.5176 3.93208e-05 4
9.76233 -2.00392 -2.67035 0.000440289 4
11.5322 -2.36722 -2.71793 0.000387624 1
12.8572 -2.63922 -2.55131 0.000306959 4
16.296 -3.34509 -2.63485 5.0771e-05 4
9.74038 -1.96401 -2.66246 0.000447758 4
11.5477 -2.32844 -2.71966 0.000387628 1
13.0479 -2.63091 -2.58729 0.00023501 4
16.2879 -3.28421 -2.63166 8.72414e-05 4
9.74102 -1.92878 -2.66077 0.000472182 4
11.534 -2.28379 -2.71453 0.000387631 1
13.2331 -2.62023 -2.6222 0.000232247 4
16.3028 -3.22803 -2.63223 4.36213e-05 4
9.7143 -1.88827 -2.65166 0.000469779 4
11.5578 -2.24661 -2.71827 0.000387634 1
13.4098 -2.60661 -2.65539 0.000243439 4
16.3115 -3.17063 -2.63183 0.000122999 4
9.68308 -1.84715 -2.64136 0.000474151 4
11.5144 -2.19649 -2.70625 0.000269604 4
13.5862 -2.59172 -2.68852 0.000242746 4
16.3451 -3.118 -2.63549 8.72447e-05 4
9.6832 -1.81216 -2.63965 0.00012123 4
11.4819 -2.14878 -2.69683 0.000254729 4
13.7221 -2.56802 -2.71361 0.000220191 1
16.3387 -3.05771 -2.63273 3.8617e-05 4
9.68529 -1.77758 -2.63851 0.00079204 4
11.4618 -2.10364 -2.69037 0.000305886 4
13.7277 -2.5195 -2.71296 0.000220193 1
16.3564 -3.00197 -2.63388 0.000120143 4
20.1574 -3.69958 -2.51636 4.94005e-05 4
9.6894 -1.7434 -2.63796 0.000788004 4
11.4364 -2.05773 -2.68269 0.000258436 4
13.744 -2.47293 -2.71445 0.000220195 1
9.71143 -1.71239 -2.64231 0.000650612 4
11.4024 -2.01056 -2.67307 0.000246916 4
13.7411 -2.42293 -2.7122 0.000220197 1
15.6688 -2.76283 -2.51997 0.000105528 4
20.1939 -3.56074 -2.51775 4.19267e-05 4
9.71873 -1.67872 -2.64269 0.000816301 4
11.3774 -1.96523 -2.66558 0.000332883 4
13.7594 -2.37667 -2.71417 0.000220199 1
15.6827 -2.70887 -2.52067 7.91468e-05 4
20.2779 -3.5026 -2.52668 9.23101e-05 4
9.71767 -1.64362 -2.64082 0.0007961 4
11.3468 -1.91916 -2.65681 0.000260845 4
13.7696 -2.32895 -2.71455 0.0002202 1
15.7102 -2.65719 -2.52359 0.000110327 4
20.5767 -3.4803 -2.56239 7.40571e-05 4
9.71222 -1.60785 -2.6378 0.00092138 4
11.3203 -1.87407 -2.64908 0.000280744 4
13.7883 -2.28265 -2.71666 0.000220202 1
15.87 -2.62727 -2.54778 0.000139684 4
20.8694 -3.45491 -2.59732 6.23435e-05 4
9.71953 -1.57422 -2.63828 0.000141441 4
11.2927 -1.82902 -2.6411 0.000287435 4
13.7769 -2.23138 -2.71286 0.000220204 1
16.1242 -2.61155 -2.5871 0.000104898 4
9.73358 -1.54165 -2.64062 0.000125277 4
11.2911 -1.78833 -2.63925 0.00051184 4
13.7309 -2.17476 -2.70228 0.000165918 4
16.3852 -2.59515 -2.6275 0.000102762 4
21.136 -3.34761 -2.62752 3.40719e-05 4
9.74673 -1.50887 -2.64274 0.000214184 4
11.2941 -1.74841 -2.6385 0.000446286 4
13.6996 -2.12082 -2.69466 0.000130692 4
16.678 -2.58189 -2.673 8.74435e-05 4
21.164 -3.27636 -2.62957 3.26286e-05 4
9.75286 -1.47498 -2.64299 0.00019802 4
11.3027 -1.70938 -2.63911 0.000474025 4
13.6545 -2.06506 -2.68436 0.000143999 4
16.9291 -2.56028 -2.71179 0.000109399 1
21.1766 -3.20266 -2.62972 3.4939e-05 4
9.74202 -1.43858 -2.63867 9.29486e-05 4
11.3209 -1.67173 -2.64198 0.000451334 4
13.5897 -2.00676 -2.67022 0.000141289 4
16.9297 -2.49996 -2.71047 0.0001094 1
21.1812 -3.12777 -2.62892 3.32069e-05 4
9.76457 -1.4071 -2.64344 0.000173774 4
11.3123 -1.63013 -2.63862 0.000458901 4
13.5658 -1.95487 -2.66417 0.000147939 4
16.9271 -2.43923 -2.70868 0.000109401 1
21.1832 -3.05255 -2.62784 3.3496e-05 4
9.76513 -1.3724 -2.64227 0.000109115 4
11.3122 -1.58983 -2.6373 0.000511854 4
13.5007 -1.89741 -2.65007 0.000177527 4
16.9483 -2.38193 -2.71072 0.000109402 1
21.1995 -2.9794 -2.62855 2.88762e-05 4
9.77367 -1.33883 -2.6433 3.63717e-05 4
11.3251 -1.55135 -2.63903 6.5558e-05 4
13.4694 -1.84507 -2.64263 0.00015925 4
16.9433 -2.32094 -2.70861 0.000109403 1
21.2113 -2.90558 -2.62874 3.00315e-05 4
9.77577 -1.30437 -2.64262 0.000189942 4
11.3406 -1.51316 -2.64139 0.000133638 4
16.9623 -2.26326 -2.71038 0.000109404 1
20.3227 -2.71163 -2.51743 4.03074e-05 4
9.78279 -1.27056 -2.64331 0.000185901 4
11.3249 -1.47085 -2.63653 0.00018659 4
13.4462 -1.74635 -2.63562 0.000259792 4
16.9437 -2.2006 -2.70616 7.05687e-05 4
20.3403 -2.64175 -2.51845 4.32334e-05 4
9.77047 -1.2343 -2.6388 7.27442e-05 4
11.3483 -1.43363 -2.64079 0.000196677 4
13.4668 -1.70126 -2.63849 0.000315771 4
16.8762 -2.13196 -2.69417 7.34857e-05 4
20.5915 -2.60132 -2.54842 5.87248e-05 4
9.78771 -1.20178 -2.6423 0.00026673 4
11.3342 -1.39166 -2.63636 0.00015129 4
13.465 -1.65329 -2.63698 0.000299984 4
16.806 -2.06351 -2.68179 6.96277e-05 4
21.0048 -2.57906 -2.59843 6.24768e-05 4
9.78073 -1.16628 -2.63931 0.000218234 4
11.3594 -1.35453 -2.64111 0.00014877 4
13.4675 -1.6059 -2.63636 0.000261231 4
16.7455 -1.99677 -2.67101 7.08327e-05 4
21.4562 -2.55849 -2.65315 5.35387e-05 4
9.79689 -1.13354 -2.64258 0.000230359 4
11.3696 -1.31551 -2.64239 0.000186593 4
13.4828 -1.56001 -2.63827 4.44957e-05 4
16.6498 -1.92645 -2.65466 7.6777e-05 4
21.8725 -2.53073 -2.70352 4.39629e-05 1
9.79018 -1.09815 -2.63972 0.00025865 4
11.3477 -1.27285 -2.63625 0.000166421 4
13.4953 -1.51374 -2.63967 6.74615e-05 4
16.5862 -1.86045 -2.64348 7.26858e-05 4
21.8979 -2.45625 -2.70559 4.39632e-05 1
9.81344 -1.06608 -2.64497 0.000173781 4
11.3766 -1.2359 -2.64195 0.000216853 4
13.4848 -1.46492 -2.6366 0.00010191 4
16.5235 -1.79503 -2.63246 6.15126e-05 4
21.8856 -2.37754 -2.70302 4.39635e-05 1
9.79315 -1.0293 -2.63852 0.000379894 4
11.3761 -1.19568 -2.64085 0.000123556 4
13.5 -1.41891 -2.63859 7.89449e-05 4
16.5419 -1.73863 -2.63441 0.000150206 4
21.8985 -2.30163 -2.70361 4.39638e-05 1
9.79713 -0.995157 -2.63864 0.000286942 4
11.3639 -1.1543 -2.63706 6.80821e-05 4
13.4944 -1.37071 -2.63655 5.16732e-05 4
16.555 -1.6816 -2.63555 0.000148776 4
21.9178 -2.22633 -2.70501 4.39641e-05 1
9.8029 -0.961183 -2.63928 0.000173782 4
11.3644 -1.11429 -2.63626 0.000234506 4
13.49 -1.32271 -2.63476 5.88503e-05 4
16.5389 -1.62165 -2.63206 0.000148061 4
21.8555 -2.14295 -2.69639 3.10734e-05 4
9.25887 -0.875221 -1.80776 0.000186894 6
16.5641 -1.56577 -2.63519 0.000115159 4
21.7091 -2.05211 -2.67742 2.99771e-05 4
9.81795 -0.893503 -2.64158 0.000185907 4
11.3905 -1.03661 -2.64056 0.000100863 4
9.16037 -0.833659 -1.78795 0.00353588 6
16.5607 -1.50714 -2.6338 7.36736e-05 4
21.5891 -1.96476 -2.66176 2.92752e-05 4
9.82046 -0.859181 -2.64144 0.000266737 4
9.25302 -0.809537 -2.14439 6.19233e-05 6
9.14337 -0.799943 -1.78408 0.00353701 6
9.27958 -0.81186 -1.47535 0.000130585 6
9.83197 -0.825615 -2.64374 0.000230364 4
9.22664 -0.774785 -2.13764 0.000370894 6
9.13131 -0.766779 -1.78119 0.00290174 6
9.24267 -0.776131 -1.46905 0.000343693 6
21.3461 -1.79249 -2.6302 3.28569e-05 4
9.8332 -0.791162 -2.64331 0.000185908 4
9.21066 -0.741074 -2.13332 0.000354023 6
9.1245 -0.734141 -1.77935 0.000487667 6
9.2127 -0.741238 -1.46386 0.000343236 6
21.3305 -1.71622 -2.62752 5.63153e-05 4
9.84044 -0.757182 -2.64453 0.000161659 4
9.21239 -0.708856 -2.13313 0.000593736 6
9.11987 -0.701737 -1.77796 0.000612374 6
9.22756 -0.710023 -1.46582 0.000374469 6
21.3341 -1.64157 -2.62724 5.37163e-05 4
9.83267 -0.722067 -2.64175 0.000307153 4
9.24069 -0.678595 -2.13913 0.000564161 6
9.11237 -0.669172 -1.77604 0.00061294 6
9.21895 -0.676998 -1.46407 0.000380893 6
21.3522 -1.56801 -2.62878 5.77597e-05 4
9.82667 -0.687149 -2.63948 0.000501145 4
9.23528 -0.645794 -2.13734 0.000564675 6
9.11244 -0.637205 -1.7756 0.000613481 6
9.21099 -0.644096 -1.46244 0.00038117 6
10.8464 -0.758458 -1.33503 0.000310011 6
9.83026 -0.652925 -2.63981 9.6996e-05 4
9.21766 -0.612237 -2.13275 0.000565167 6
9.13034 -0.606437 -1.77867 0.000613998 6
9.21288 -0.611919 -1.46239 0.000381436 6
10.827 -0.719128 -1.33232 0.000442286 6
9.84812 -0.619591 -2.64401 0.000286947 4
9.23966 -0.58131 -2.13736 0.000565635 6
9.1324 -0.574562 -1.77867 0.000614479 6
9.21702 -0.579886 -1.46272 0.000353224 6
10.8367 -0.68179 -1.33322 0.000442589 6
9.83515 -0.584316 -2.63997 0.0002142 4
9.22774 -0.548229 -2.13415 0.00056608 6
9.11858 -0.541743 -1.7756 0.000614948 6
9.20788 -0.547049 -1.46096 0.000353364 6
10.8259 -0.643177 -1.3316 0.00113201 6
9.84746 -0.55056 -2.64274 0.00029503 4
9.21319 -0.515099 -2.13036 0.000566502 6
9.12044 -0.509914 -1.7756 0.000615392 6
9.23313 -0.516214 -1.46467 0.000353493 6
10.8106 -0.604409 -1.32945 0.00110719 6
9.83318 -0.515337 -2.63841 0.000351611 4
9.23557 -0.484018 -2.13513 0.000566901 6
9.11602 -0.477752 -1.77441 0.000615812 6
9.22458 -0.483441 -1.46303 0.00035341 6
10.8361 -0.5679 -1.33234 0.000342288 6
10.9002 -0.571259 -0.954955 0.000198763 6
9.84895 -0.481695 -2.64217 0.000198034 4
9.21084 -0.450487 -2.12903 0.000567277 6
9.1174 -0.445917 -1.77436 0.000616207 6
9.2243 -0.451145 -1.46273 0.000353556 6
10.8279 -0.529574 -1.33109 0.000342584 6
10.8663 -0.531455 -0.951818 0.00031786 6
9.85764 -0.447634 -2.64407 0.000129328 4
9.22064 -0.418708 -2.13095 0.000567629 6
9.10673 -0.413535 -1.77199 0.000616461 6
9.2329 -0.419264 -1.46385 0.000357889 6
10.8154 -0.491124 -1.32933 0.000342867 6
10.8872 -0.494386 -0.953488 0.000318627 6
9.85889 -0.413211 -2.644 0.000117204 4
9.21718 -0.386315 -2.12982 0.000567957 6
9.13555 -0.382894 -1.77733 0.000649313 6
9.22387 -0.386596 -1.4622 0.000358062 6
10.8379 -0.454243 -1.33189 0.000342477 6
10.8684 -0.455524 -0.951701 0.000319383 6
9.85327 -0.378525 -2.64212 0.000153577 4
9.23286 -0.354691 -2.13315 0.000568263 6
9.1257 -0.350575 -1.77517 0.000649651 6
9.20767 -0.353724 -1.45943 0.000358195 6
10.827 -0.415932 -1.33037 0.000342654 6
10.8643 -0.417366 -0.951207 0.000424485 6
9.84311 -0.343729 -2.63906 0.000169743 4
9.2233 -0.322085 -2.13066 0.000568545 6
9.12162 -0.318534 -1.77414 0.000649964 6
9.23622 -0.322536 -1.46376 0.000358317 6
10.8219 -0.377909 -1.32957 0.000339888 6
10.8634 -0.379359 -0.951004 0.000424742 6
9.84169 -0.309288 -2.63837 0.000254614 4
9.21015 -0.289441 -2.12738 0.000568803 6
9.12444 -0.286747 -1.77449 0.00065025 6
9.22343 -0.289858 -1.46157 0.000360801 6
10.8172 -0.339943 -1.32884 0.000340065 6
10.8626 -0.341371 -0.950824 0.000447348 6
9.8678 -0.275635 -2.6451 0.00029907 4
9.23543 -0.257971 -2.133 0.000569038 6
9.12682 -0.254937 -1.77477 0.000650336 6
9.22177 -0.257589 -1.46116 0.000360908 6
10.8196 -0.302221 -1.329 0.000340227 6
10.8612 -0.303383 -0.950603 0.000447582 6
9.86375 -0.241067 -2.64377 0.000234406 4
9.22173 -0.225376 -2.12964 0.00056925 6
9.13011 -0.223137 -1.77524 0.000650578 6
9.23114 -0.225606 -1.46251 0.000361005 6
10.8356 -0.26482 -1.33085 0.000340376 6
10.8558 -0.265311 -0.95004 0.000447798 6
9.21621 -0.193054 -2.1282 0.000569437 6
9.11963 -0.191031 -1.77307 0.000650794 6
9.22354 -0.193207 -1.46119 0.000343036 6
10.8186 -0.22662 -1.32865 0.000340509 6
10.8569 -0.227422 -0.950067 0.000449943 6
9.86205 -0.172144 -2.64293 6.06222e-05 4
9.2214 -0.160961 -2.12925 0.000569602 6
9.10642 -0.158954 -1.77038 0.000651086 6
9.22825 -0.161081 -1.46183 0.000343112 6
10.8111 -0.18871 -1.32764 0.000340629 6
10.8595 -0.189555 -0.950227 0.000450088 6
9.86104 -0.137696 -2.64252 0.000335442 4
9.22726 -0.128846 -2.13049 0.000569743 6
9.11054 -0.127216 -1.77108 0.000651159 6
9.21548 -0.128682 -1.45973 0.00034317 6
10.836 -0.15131 -1.33062 0.000340778 6
10.8624 -0.151679 -0.950431 0.00045021 6
9.86103 -0.103269 -2.6424 0.000234405 4
9.22349 -0.0965925 -2.12953 0.000569859 6
9.13495 -0.0956653 -1.77575 0.000651207 6
9.22293 -0.0965866 -1.46085 0.000344742 6
10.8192 -0.113303 -1.3285 0.000341731 6
10.8559 -0.113688 -0.94982 0.000450321 6
9.85525 -0.0688043 -2.64077 0.00013741 4
9.23628 -0.0644829 -2.13241 0.000569953 6
9.12655 -0.0637169 -1.77406 0.00065292 6
9.22602 -0.0644114 -1.46129 0.000344782 6
10.8157 -0.07551 -1.32804 0.000341769 6
10.8565 -0.0757944 -0.949842 0.000427893 6
9.86116 -0.0344224 -2.64231 0.000343523 4
9.22681 -0.032208 -2.13019 0.000570024 6
9.13335 -0.0318818 -1.77535 0.000653016 6
9.23007 -0.0322194 -1.46191 0.000344813 6
10.8109 -0.0377377 -1.32742 0.000341792 6
10.8607 -0.0379116 -0.950198 0.000427963 6
9.84916 0 -2.63907 0.00014145 4
9.22986 0 -2.13088 0.00057007 6
9.10977 0 -1.77076 0.000652593 6
9.23021 0 -1.46192 0.000344832 6
10.8353 0 -1.33041 0.000341801 6
10.8714 0 -0.951126 0.000428227 6
9.85845 0.0344106 -2.64158 6.87042e-05 4
9.22201 0.0321891 -2.12908 0.000570093 6
9.11944 0.0318311 -1.77265 0.000652618 6
9.22553 0.0322014 -1.46119 0.000344842 6
10.8268 0.0377905 -1.32937 0.000341795 6
10.8514 0.0378764 -0.949381 0.000428259 6
9.84925 0.0687601 -2.63916 0.000218236 4
9.23048 0.0644403 -2.13108 0.000570093 6
9.1265 0.0637144 -1.77406 0.000652617 6
9.20967 0.064295 -1.4587 0.000344841 6
10.8357 0.0756468 -1.33049 0.00034179 6
10.8609 0.0758229 -0.950232 0.000428262 6
9.87023 0.103363 -2.64487 0.000509217 4
9.21502 0.0965016 -2.12757 0.000570069 6
9.12471 0.0955558 -1.77376 0.000652591 6
9.22565 0.0966129 -1.46128 0.00034483 6
10.8091 0.113195 -1.32726 0.000341795 6
10.8486 0.113609 -0.949183 0.000428229 6
9.84939 0.137531 -2.63939 9.69934e-05 4
9.22636 0.128832 -2.13028 0.000570021 6
9.10799 0.127179 -1.77059 0.000652538 6
9.22688 0.128839 -1.46154 0.000344809 6
10.8072 0.150905 -1.32708 0.000341786 6
10.8439 0.151418 -0.948812 0.00042818 6
9.87033 0.172286 -2.64515 8.4869e-05 4
9.22871 0.161087 -2.13094 0.00056995 6
9.13024 0.159368 -1.77501 0.000652921 6
9.23316 0.161164 -1.46261 0.000344778 6
10.8151 0.188778 -1.32813 0.000341762 6
10.8664 0.189673 -0.950835 0.000427895 6
9.8608 0.206554 -2.64277 0.000250565 4
9.21616 0.19305 -2.12818 0.000569855 6
9.12718 0.191186 -1.77453 0.000652798 6
9.21437 0.193013 -1.45973 0.000344736 6
10.8059 0.22635 -1.32708 0.000341724 6
10.8526 0.22733 -0.949691 0.000450322 6
9.86357 0.24106 -2.64373 5.65789e-05 4
9.21086 0.225108 -2.12713 0.000569736 6
9.13301 0.223205 -1.77581 0.000651127 6
9.22575 0.225472 -1.46165 0.000343164 6
10.8256 0.264571 -1.32961 0.000340773 6
10.8724 0.265715 -0.951496 0.00045021 6
9.85229 0.275199 -2.64094 9.69921e-05 4
9.23012 0.25782 -2.13177 0.000569595 6
9.10598 0.254353 -1.77071 0.000651053 6
9.21772 0.257474 -1.46051 0.000343106 6
10.8175 0.30216 -1.32874 0.00034063 6
10.8617 0.303395 -0.950647 0.000450086 6
9.83968 0.309222 -2.63784 0.000258644 4
9.22977 0.290055 -2.13191 0.000569429 6
9.13152 0.286967 -1.77586 0.000650787 6
9.22258 0.289829 -1.46143 0.000343029 6
10.8056 0.339577 -1.32742 0.00034051 6
10.8662 0.34148 -0.951134 0.000449941 6
9.8648 0.344485 -2.64488 0.000161652 4
9.21021 0.321626 -2.12764 0.00056924 6
9.126 0.318685 -1.775 0.00065057 6
9.23182 0.32238 -1.46307 0.000360996 6
10.8181 0.377773 -1.3291 0.000340376 6
10.858 0.379169 -0.950534 0.000447803 6
9.85713 0.378671 -2.64316 0.000343509 4
9.22153 0.354254 -2.13053 0.000569028 6
9.10541 0.349793 -1.77122 0.000650327 6
9.23243 0.354673 -1.46335 0.000360898 6
10.8098 0.415267 -1.32825 0.000340227 6
10.8533 0.416941 -0.950245 0.000447587 6
9.85469 0.413032 -2.64287 0.000234394 4
9.21472 0.38621 -2.12925 0.000568792 6
9.13113 0.382707 -1.77647 0.000650057 6
9.21972 0.38642 -1.46154 0.000360789 6
10.8279 0.453823 -1.33067 0.000340064 6
10.8511 0.454795 -0.950182 0.000447352 6
9.83731 0.446709 -2.63862 0.000383919 4
9.22057 0.418702 -2.13093 0.000568532 6
9.10621 0.413509 -1.77189 0.000649949 6
9.22657 0.418975 -1.46285 0.00036067 6
10.8157 0.491136 -1.32937 0.000339886 6
10.8441 0.492425 -0.94971 0.000447099 6
9.85739 0.482106 -2.64444 0.000250556 4
9.2322 0.451529 -2.13397 0.000568249 6
9.11588 0.44584 -1.77407 0.000649636 6
9.2107 0.450478 -1.46058 0.000358177 6
10.8253 0.529444 -1.33077 0.000342644 6
10.8537 0.530831 -0.950707 0.000424486 6
9.85843 0.516658 -2.64518 0.000262679 4
9.23081 0.483766 -2.13402 0.000567943 6
9.11384 0.477636 -1.77398 0.000649296 6
9.21954 0.483175 -1.46224 0.000358043 6
10.8297 0.56756 -1.33154 0.000342466 6
10.8487 0.568554 -0.950439 0.000319516 6
9.85315 0.550877 -2.64427 0.00016973 4
9.22592 0.515809 -2.1333 0.000567613 6
9.10928 0.509287 -1.77343 0.000616446 6
9.21859 0.515399 -1.46236 0.00035787 6
10.8144 0.60462 -1.32992 0.000342875 6
10.8634 0.607359 -0.95191 0.000318758 6
9.83413 0.584255 -2.63969 0.000133359 4
9.2173 0.547608 -2.13173 0.00056726 6
9.10914 0.541183 -1.77376 0.000616066 6
9.21103 0.547236 -1.46146 0.000357709 6
10.8139 0.642461 -1.33012 0.000342592 6
10.8565 0.644995 -0.951495 0.000302091 6
9.843 0.619267 -2.64264 0.000189934 4
9.21405 0.579697 -2.13144 0.000566884 6
9.13092 0.574467 -1.77838 0.000615793 6
9.21027 0.579459 -1.46165 0.000353379 6
10.8125 0.680264 -1.33024 0.000342295 6
10.8972 0.685594 -0.955271 0.0002075 6
9.84156 0.653674 -2.64285 0.000282879 4
9.20756 0.611564 -2.13042 0.000566484 6
9.12067 0.605792 -1.77678 0.000615372 6
9.22307 0.612594 -1.46401 0.000353449 6
10.8187 0.718574 -1.33129 0.00110696 6
11.0102 0.731295 -0.96539 3.69426e-05 6
9.82813 0.687248 -2.63987 0.00014548 4
9.21677 0.644498 -2.13306 0.000566062 6
9.12448 0.638044 -1.77795 0.000614926 6
9.22018 0.644736 -1.4639 0.000353318 6
10.8017 0.755325 -1.32952 0.00113184 6
9.82426 0.721447 -2.63949 0.000250547 4
9.2115 0.676449 -2.13237 0.000565615 6
9.11676 0.669492 -1.77689 0.000614457 6
9.19983 0.675592 -1.46103 0.000353177 6
10.8296 0.795275 -1.33329 0.00109675 6
9.83293 0.756602 -2.64251 0.000602117 4
9.20544 0.708319 -2.13153 0.000565146 6
9.11404 0.701286 -1.77683 0.000613974 6
9.21986 0.709429 -1.4646 0.000381415 6
10.8125 0.831977 -1.33154 0.000442254 6
9.83911 0.791635 -2.6449 0.000311159 4
9.21199 0.741179 -2.13363 0.000564654 6
9.10846 0.732848 -1.77623 0.000613456 6
9.21401 0.741341 -1.46407 0.000381148 6
10.8247 0.870938 -1.33341 0.000310864 6
9.83053 0.825493 -2.64335 0.000400059 4
9.20502 0.772967 -2.13263 0.000564138 6
9.1186 0.765709 -1.77871 0.000612913 6
9.215 0.773804 -1.46465 0.000380869 6
21.3372 1.79173 -2.62909 3.11811e-05 4
9.81433 0.858642 -2.63979 0.000161639 4
9.22606 0.807175 -2.13814 0.000593353 6
9.10975 0.796999 -1.77752 0.000612347 6
9.21478 0.806188 -1.46505 0.000380579 6
9.81212 0.89297 -2.64001 0.000242457 4
9.20722 0.83792 -2.13444 0.000593974 6
9.11887 0.82988 -1.77985 0.000547289 6
9.81657 0.927937 -2.64207 0.000113146 4
9.22347 0.871873 -2.1389 0.000371331 6
9.11186 0.861323 -1.77906 0.00215815 6
9.22231 0.871764 -1.46718 0.000344188 6
9.80542 0.961428 -2.63995 0.000286903 4
9.2473 0.906704 -2.14514 6.22384e-05 6
9.13726 0.895915 -1.78462 0.00312902 6
9.22853 0.904863 -1.46866 0.000325041 6
9.80877 0.996337 -2.64178 0.00032731 4
11.365 1.15441 -2.63732 0.000186565 4
9.15202 0.929627 -1.78813 0.00158632 6
9.34864 0.949599 -1.4883 0.000116178 6
9.80582 1.03063 -2.64194 0.000222246 4
11.3815 1.19624 -2.6421 0.00022438 4
9.19872 0.966823 -1.7979 0.000373241 6
16.5354 1.73794 -2.63338 4.50499e-05 4
9.79593 1.06418 -2.64025 0.000105061 4
11.3793 1.23618 -2.64256 0.000196646 4
13.496 1.46614 -2.63879 3.44412e-05 4
16.5304 1.79577 -2.63356 3.64685e-05 4
9.79117 1.09826 -2.63999 9.69786e-05 4
11.3495 1.27305 -2.63666 0.000269755 4
13.4855 1.51264 -2.63776 8.17969e-05 4
9.77875 1.13144 -2.63769 0.000323259 4
11.3642 1.31489 -2.64115 0.000100842 4
13.4863 1.56041 -2.63895 5.16606e-05 4
16.5095 1.91021 -2.63229 4.21879e-05 4
9.80299 1.16894 -2.64531 0.000202035 4
11.3668 1.35541 -2.64282 0.000161346 4
13.4594 1.60494 -2.63478 0.000139195 4
16.5143 1.96922 -2.63415 7.79392e-05 4
9.78402 1.20132 -2.64131 0.000327295 4
11.3559 1.39433 -2.64141 0.000113445 4
13.4525 1.65176 -2.63455 7.31841e-05 4
9.77584 1.23497 -2.64025 0.000109097 4
11.3323 1.4316 -2.63707 0.000163864 4
13.4493 1.69903 -2.63505 0.000136322 4
9.78274 1.27055 -2.64329 0.000299005 4
11.3441 1.47334 -2.64099 0.000113443 4
13.4566 1.7477 -2.63767 8.03571e-05 4
9.76651 1.30313 -2.64012 0.00028284 4
11.3446 1.51369 -2.64232 0.000113442 4
9.75843 1.33674 -2.63918 0.000161621 4
11.323 1.55106 -2.63854 0.00011092 4
13.4371 1.84065 -2.6363 8.75296e-05 4
9.7736 1.37359 -2.64457 0.000258592 4
11.3341 1.5929 -2.64239 0.000390735 4
13.4484 1.89005 -2.63979 8.0354e-05 4
16.4689 2.31455 -2.63405 3.21737e-05 4
9.76877 1.4077 -2.64457 0.000234347 4
11.3284 1.63244 -2.64238 0.000189064 4
13.425 1.93457 -2.63651 6.31345e-05 4
16.4632 2.37239 -2.63445 0.000133697 4
9.75053 1.43983 -2.64098 0.000238385 4
13.4346 1.98385 -2.63974 3.0132e-05 4
16.4503 2.42916 -2.63372 0.000130835 4
9.73536 1.47233 -2.63824 0.000141413 4
11.3019 1.70924 -2.63891 3.27703e-05 4
13.4016 2.0268 -2.63463 0.000107613 4
16.4298 2.48476 -2.63181 0.000143702 4
9.74325 1.50833 -2.64179 8.08069e-05 4
11.2903 1.74783 -2.63762 0.000136121 4
13.3983 2.07416 -2.63538 8.32193e-05 4
16.4447 2.54578 -2.63562 0.000125111 4
9.75076 1.54437 -2.64527 0.000181814 4
11.2887 1.78795 -2.63868 0.000143682 4
13.4114 2.12416 -2.63941 3.01307e-05 4
16.4275 2.60186 -2.63429 6.07673e-05 4
9.73333 1.57645 -2.64202 0.000282819 4
11.2756 1.82624 -2.6371 5.79761e-05 4
13.391 2.16886 -2.63686 0.000110478 4
16.4197 2.65941 -2.63452 5.64768e-05 4
9.72453 1.60989 -2.64115 0.000343419 4
11.2675 1.86533 -2.63672 0.000103347 4
13.3807 2.21516 -2.63635 2.86951e-05 4
9.71159 1.64259 -2.63917 0.000101005 4
11.2689 1.90599 -2.63857 8.82224e-05 4
13.3802 2.2631 -2.6378 8.60839e-05 4
16.3884 2.77189 -2.63254 4.00327e-05 4
9.70689 1.67667 -2.63947 0.000234328 4
11.2537 1.94386 -2.6366 0.000214252 4
13.377 2.31061 -2.63873 9.32562e-05 4
16.3978 2.83239 -2.63561 5.14697e-05 4
9.71585 1.71317 -2.64352 0.000189884 4
11.2516 1.98396 -2.63771 7.30967e-05 4
13.3549 2.35483 -2.63598 0.000295546 4
16.3877 2.8896 -2.6356 5.0039e-05 4
9.71388 1.7478 -2.64462 7.27209e-05 4
11.2549 2.02507 -2.64011 0.000161315 4
13.3683 2.40534 -2.64026 0.000274021 4
9.69827 1.77996 -2.64205 0.0001212 4
11.2478 2.06435 -2.64013 8.82179e-05 4
13.3437 2.44902 -2.63707 0.000299841 4
16.3614 3.00287 -2.63467 6.71925e-05 4
9.70037 1.81537 -2.64433 0.000153519 4
11.2262 2.10093 -2.63678 0.000115942 4
13.329 2.49444 -2.63587 0.000252493 4
9.67503 1.84561 -2.63916 0.000323193 4
11.2316 2.14254 -2.63977 3.78067e-05 4
13.3381 2.54437 -2.63941 0.000307004 4
16.3481 3.11856 -2.63597 4.78906e-05 4
9.67012 1.87968 -2.6396 0.000210073 4
13.3124 2.58767 -2.6361 3.01261e-05 4
16.3138 3.17108 -2.63221 6.71884e-05 4
9.66147 1.91302 -2.63904 0.000153513 4
11.2072 2.21909 -2.63762 7.30909e-05 4
13.3086 2.63518 -2.63716 9.46803e-05 4
16.322 3.23184 -2.63534 5.43214e-05 4
9.67063 1.94994 -2.64339 9.69545e-05 4
11.2213 2.26261 -2.64278 5.04068e-05 4
13.3159 2.68496 -2.64044 4.01667e-05 4
9.66586 1.98412 -2.64396 0.000193907 4
11.2009 2.29921 -2.63985 0.000118454 4
13.2867 2.72737 -2.63652 9.03735e-05 4
9.66013 2.01811 -2.6443 0.000444364 4
11.1849 2.33664 -2.63797 0.000126013 4
13.2831 2.77498 -2.63771 5.88135e-05 4
9.65323 2.05186 -2.64436 0.00021814 4
11.1794 2.37625 -2.63862 7.56069e-05 4
13.2867 2.82418 -2.64037 6.31158e-05 4
16.2668 3.45761 -2.63396 2.93024e-05 4
9.63421 2.08299 -2.64113 0.000258533 4
11.1782 2.41681 -2.64032 0.000115929 4
13.2652 2.86804 -2.63808 5.02049e-05 4
9.6356 2.11852 -2.64352 0.000145423 4
11.1647 2.45472 -2.63914 0.00015625 4
16.248 3.57236 -2.6349 0.000101482 4
11.1648 2.49562 -2.6412 0.00020917 4
13.2312 2.95751 -2.63534 7.88905e-05 4
16.245 3.63118 -2.63644 5.2169e-05 4
9.62208 2.18608 -2.64393 0.000238326 4
11.1398 2.53091 -2.63737 0.000201606 4
13.2319 3.0062 -2.63756 7.60203e-05 4
16.2198 3.68505 -2.63444 6.00286e-05 4
9.61653 2.22015 -2.64452 0.000222165 4
11.1459 2.57324 -2.64093 8.82014e-05 4
13.2238 3.05295 -2.63805 4.87668e-05 4
9.60261 2.25227 -2.64284 0.000222162 4
11.1248 2.60931 -2.63807 0.00010584 4
13.2067 3.0976 -2.63679 7.8886e-05 4
16.1858 3.79635 -2.63315 6.71717e-05 4
9.58204 2.28276 -2.63935 0.00032314 4
11.111 2.647 -2.63696 6.80389e-05 4
13.2017 3.14509 -2.63797 7.02789e-05 4
16.1764 3.85376 -2.63379 6.28826e-05 4
9.56969 2.31515 -2.63816 0.00030294 4
11.1198 2.69016 -2.64127 0.000128516 4
13.202 3.1939 -2.64024 9.7528e-05 4
16.1673 3.91128 -2.63452 4.07298e-05 4
9.58058 2.35322 -2.64341 0.000840142 4
11.1194 2.73118 -2.64341 5.29174e-05 4
13.1727 3.23553 -2.63662 0.000103263 4
9.56148 2.38394 -2.64042 0.000852248 4
11.0918 2.7655 -2.63915 0.000194027 4
13.1809 3.28635 -2.64054 5.44988e-05 4
16.1501 4.02667 -2.63623 4.43003e-05 4
9.54601 2.41551 -2.63846 0.000807806 4
11.083 2.80443 -2.63936 0.00012599 4
13.1578 3.32942 -2.63822 6.45367e-05 4
9.54357 2.45037 -2.64014 0.000775482 4
11.0825 2.8455 -2.64158 0.000123468 4
13.1481 3.37585 -2.63862 0.000129071 4
29.5312 7.58233 -2.66745 3.47902e-05 4
9.55404 2.48864 -2.64542 0.000868367 4
11.0699 2.8835 -2.64097 0.000128505 4
13.1393 3.42254 -2.63925 7.02705e-05 4
16.0948 4.19238 -2.63423 7.07321e-05 4
29.1552 7.59435 -2.63586 3.17097e-05 4
9.5263 2.51696 -2.64016 0.000791616 4
11.0432 2.91773 -2.637 9.0708e-05 4
13.1198 3.4664 -2.63774 4.589e-05 4
16.0793 4.24835 -2.63411 5.78702e-05 4
28.7765 7.60308 -2.60401 3.16035e-05 4
9.53399 2.55463 -2.64474 0.000230211 4
11.0545 2.96204 -2.64216 0.000156217 4
13.113 3.51362 -2.63883 6.45313e-05 4
28.3805 7.60452 -2.57056 4.1077e-05 4
9.52679 2.58837 -2.64524 0.000129239 4
11.0367 2.99859 -2.64038 0.000188968 4
16.0486 4.3603 -2.63399 0.000105018 4
28.0358 7.61716 -2.54173 3.85288e-05 4
9.50519 2.61817 -2.64176 0.000262514 4
11.0391 3.04068 -2.64349 9.07031e-05 4
13.0844 3.60403 -2.63806 7.74343e-05 4
16.0353 4.41686 -2.63433 5.21504e-05 4
27.6672 7.62081 -2.51071 4.06557e-05 4
9.50356 2.65344 -2.64386 0.00014539 4
11.006 3.07292 -2.63811 0.000178884 4
13.0746 3.6505 -2.63865 9.32059e-05 4
16.0176 4.47219 -2.63397 3.71472e-05 4
9.47906 2.6823 -2.63964 0.000210005 4
10.9906 3.11002 -2.637 0.000110855 4
13.0455 3.69151 -2.63537 0.000103241 4
15.9989 4.52723 -2.63347 0.00013144 4
9.47642 2.71732 -2.64153 0.000117116 4
10.9926 3.15207 -2.64011 7.0543e-05 4
13.055 3.74345 -2.6399 4.5884e-05 4
15.9998 4.58786 -2.63624 5.92893e-05 4
9.46919 2.75105 -2.64217 0.000161537 4
10.9882 3.19235 -2.64171 0.000277128 4
13.0394 3.7883 -2.63941 6.73905e-05 4
15.9727 4.64048 -2.63442 7.92883e-05 4
9.4469 2.78037 -2.63865 0.000214033 4
10.9615 3.22613 -2.63798 0.00010833 4
15.9532 4.69527 -2.63389 4.35716e-05 4
28.7391 8.45837 -2.62098 2.912e-05 4
9.45531 2.81875 -2.64373 9.28808e-05 4
10.9616 3.2678 -2.64075 0.000176348 4
13.0152 3.88 -2.63993 9.03279e-05 4
15.9473 4.75408 -2.63564 3.71419e-05 4
20.526 6.11908 -2.62989 3.05539e-05 4
28.418 8.47177 -2.59438 3.26603e-05 4
9.43254 2.84785 -2.64012 0.000218064 4
10.9344 3.30129 -2.63695 8.31337e-05 4
12.9964 3.92384 -2.63887 5.30485e-05 4
15.9166 4.80551 -2.63334 5.99967e-05 4
28.1087 8.48651 -2.56883 3.66935e-05 4
9.42515 2.88156 -2.64085 0.0003069 4
10.949 3.34745 -2.64328 5.54214e-05 4
12.9722 3.96601 -2.63676 7.74202e-05 4
15.898 4.86052 -2.63305 3.35686e-05 4
27.812 8.50297 -2.54441 3.75861e-05 4
9.41141 2.91332 -2.63984 9.69142e-05 4
10.9191 3.38003 -2.63889 0.000125955 4
12.9546 4.01013 -2.63601 6.02143e-05 4
15.8973 4.92103 -2.63576 6.42784e-05 4
9.42148 2.95251 -2.64554 6.86464e-05 4
10.9123 3.41972 -2.64012 9.82432e-05 4
12.9492 4.05802 -2.63777 8.45847e-05 4
15.8795 4.97633 -2.63568 4.92786e-05 4
9.40491 2.98341 -2.64379 0.000258429 4
10.9003 3.45777 -2.64011 0.00017633 4
12.9381 4.10422 -2.63842 0.000111821 4
15.8543 5.02927 -2.63438 4.49921e-05 4
9.37773 3.01086 -2.63909 0.000197857 4
10.8941 3.49772 -2.64156 0.000186403 4
12.9221 4.14882 -2.63808 5.73428e-05 4
20.3938 6.54773 -2.62994 6.16692e-05 4
9.36382 3.04249 -2.63815 0.000145361 4
10.8752 3.53357 -2.63995 3.52647e-05 4
12.9173 4.19707 -2.64008 0.00012185 4
15.8204 5.14036 -2.63466 3.71341e-05 4
20.378 6.62123 -2.63087 6.10903e-05 4
9.3764 3.0828 -2.64471 0.000189774 4
10.8591 3.5703 -2.63905 0.000105792 4
12.9007 4.24153 -2.6397 8.74435e-05 4
20.3593 6.69379 -2.63145 4.92736e-05 4
9.34343 3.10814 -2.63845 0.000117093 4
10.8552 3.61104 -2.64114 0.000178835 4
12.8909 4.28824 -2.64075 4.58708e-05 4
9.35631 3.14874 -2.64518 0.000113053 4
10.8402 3.64813 -2.64058 8.05999e-05 4
12.8585 4.32737 -2.63719 7.88385e-05 4
15.7758 5.30914 -2.63634 2.9276e-05 4
9.34457 3.18115 -2.64498 6.86381e-05 4
10.829 3.68648 -2.64096 0.000100748 4
12.848 4.37382 -2.63815 6.5936e-05 4
15.7563 5.36387 -2.63619 3.92714e-05 4
9.3137 3.20696 -2.6394 7.26743e-05 4
10.8182 3.72501 -2.64149 8.56338e-05 4
12.827 4.41669 -2.63699 4.15673e-05 4
15.739 5.41938 -2.63646 2.99881e-05 4
20.8348 7.17398 -2.70559 4.38587e-05 1
9.30964 3.24196 -2.64144 0.000347215 4
10.7888 3.75707 -2.63751 4.02974e-05 4
12.8308 4.46815 -2.64095 8.45657e-05 4
15.7185 5.47378 -2.63621 5.78323e-05 4
20.8188 7.24987 -2.70679 4.38568e-05 1
9.30503 3.27682 -2.64336 0.000278575 4
10.7905 3.79993 -2.64114 0.000123408 4
12.7932 4.5052 -2.63644 0.000110363 4
15.6803 5.52191 -2.63302 7.42514e-05 4
20.7817 7.31838 -2.70527 4.38548e-05 1
9.29626 3.31025 -2.64413 0.000205899 4
10.7785 3.83803 -2.64146 0.000146072 4
12.7914 4.55482 -2.63933 0.000113226 4
15.6601 5.57631 -2.63287 9.85226e-05 4
20.7704 7.39599 -2.70714 4.38528e-05 1
9.2805 3.34119 -2.64295 0.000238193 4
10.7712 3.87786 -2.64298 8.31079e-05 4
12.7829 4.60212 -2.64087 5.87613e-05 4
15.66 5.63793 -2.63614 4.28345e-05 4
20.7401 7.46688 -2.70657 4.38508e-05 1
9.276 3.37619 -2.64501 0.000117076 4
10.734 3.90685 -2.63718 0.000105771 4
12.7655 4.64625 -2.6406 0.000106054 4
20.6731 7.52438 -2.70124 8.91416e-05 4
43.256 15.7439 -0.803493 2.86963e-05 10
43.2762 15.7513 0.803868 2.86954e-05 10
9.24771 3.40249 -2.64031 0.000213962 4
10.7347 3.94962 -2.64073 0.000103251 4
15.6248 5.74879 -2.63691 3.42652e-05 4
20.4905 7.53902 -2.6808 9.28898e-05 4
42.0049 15.4548 -2.34566 8.80608e-05 10
41.9943 15.4509 -0.781054 8.85676e-05 10
42.7887 15.7432 0.795827 3.00005e-05 10
41.9835 15.4469 2.34447 6.87007e-05 10
41.9881 15.4486 5.49338 6.68394e-05 10
41.9997 15.4529 7.08806 6.53712e-05 10
41.9783 15.445 8.69453 6.35684e-05 10
41.9775 15.4447 10.3264 6.1454e-05 10
9.24184 3.43701 -2.64205 0.000391583 4
12.7242 4.73208 -2.63883 0.000202065 4
15.6024 5.8025 -2.63654 4.63992e-05 4
20.29 7.54578 -2.658 0.00010006 4
41.9926 15.6169 -2.348 8.75527e-05 10
41.9872 15.6149 -0.78193 8.80564e-05 10
42.3151 15.7368 0.788036 3.13452e-05 10
41.9801 15.6122 2.3473 6.83043e-05 10
42.0008 15.6199 5.50213 6.6453e-05 10
42 15.6197 7.09727 6.49927e-05 10
41.9956 15.618 8.70935 6.31996e-05 10
41.9732 15.6097 10.3387 6.10966e-05 10
9.22749 3.46838 -2.64139 0.000197806 4
10.7138 4.02706 -2.64244 6.79913e-05 4
12.694 4.77134 -2.636 0.000144738 4
20.0886 7.5508 -2.63506 5.89016e-05 4
41.9565 15.7704 -2.34904 8.72619e-05 10
41.9667 15.7742 -0.78257 8.77645e-05 10
41.8845 15.7433 0.781036 3.27299e-05 10
41.9491 15.7676 2.34863 4.34596e-05 10
41.9673 15.7745 5.50493 4.22814e-05 10
41.9634 15.773 7.10036 4.13521e-05 10
41.9434 15.7655 8.70988 4.0211e-05 10
41.9439 15.7657 10.345 3.88727e-05 10
9.21326 3.49979 -2.6408 8.07356e-05 4
10.6804 4.05711 -2.63768 0.000128425 4
12.6904 4.82064 -2.63875 9.45785e-05 4
15.5496 5.90673 -2.63452 4.6396e-05 4
19.8756 7.55002 -2.61056 7.7519e-05 4
40.4637 15.3707 -2.26846 3.68939e-05 10
40.4595 15.3691 -0.755461 3.70959e-05 10
41.439 15.7412 0.773749 3.41555e-05 10
40.4723 15.374 2.26894 2.87642e-05 10
9.20188 3.53227 -2.64105 7.26606e-05 4
12.6806 4.86761 -2.64021 6.44835e-05 4
15.5247 5.95938 -2.63381 6.85209e-05 4
19.6943 7.55991 -2.59019 0.000110861 4
40.4372 15.5224 -2.26999 9.82893e-05 10
40.4374 15.5225 -0.756055 9.88488e-05 10
40.9834 15.732 0.766262 3.56224e-05 10
40.4227 15.5168 2.26918 7.66805e-05 10
40.443 15.5246 3.79004 7.58561e-05 10
40.4287 15.5191 5.31718 7.46256e-05 10
