VERSION 0.7
FIELDS x y z intensity label
SIZE 4 4 4 4 4
TYPE F F F F F
COUNT 1 1 1 1 1
WIDTH 1198
HEIGHT 1
VIEWPOINT 13.0302 52.9974 2.72806 0.999999 0.000124939 0.000664411 -0.00154863
POINTS 1198
DATA ascii
11.3727 -0.835158 -2.63266 8.10886e-05 4
13.5061 -0.991826 -2.63239 6.06292e-05 4
9.82041 -0.686711 -2.6378 0.000158308 4
11.3795 -0.795732 -2.63358 8.10879e-05 4
13.5047 -0.944342 -2.63146 0.000154459 4
16.5651 -1.15835 -2.63006 3.67279e-05 4
9.8342 -0.653187 -2.64087 0.000280081 4
11.3967 -0.756966 -2.63692 0.000215388 4
13.5025 -0.896837 -2.63041 8.51679e-05 4
16.5444 -1.09888 -2.62615 4.17684e-05 4
9.81651 -0.617603 -2.63553 0.000304434 4
11.3891 -0.716539 -2.63457 0.000126698 4
13.5207 -0.85065 -2.63335 5.91839e-05 4
16.5656 -1.04222 -2.62893 3.38464e-05 4
9.83917 -0.584554 -2.64105 0.000385613 4
11.4021 -0.677407 -2.63701 0.000195113 4
13.5256 -0.803568 -2.63374 7.21747e-05 4
9.82552 -0.549334 -2.63685 0.00034502 4
11.3824 -0.636377 -2.63194 4.56104e-05 4
13.5225 -0.756028 -2.63261 4.90783e-05 4
16.5673 -0.92626 -2.6281 4.32071e-05 4
9.81598 -0.514435 -2.63379 0.000154243 4
11.3982 -0.597354 -2.63508 0.000101356 4
13.5259 -0.708863 -2.63277 7.36166e-05 4
16.5722 -0.868517 -2.62838 4.17663e-05 4
9.84492 -0.481499 -2.64109 0.000332837 4
11.4044 -0.557769 -2.63606 0.000473833 4
16.5631 -0.810074 -2.62647 6.12083e-05 4
9.81985 -0.445918 -2.63393 0.000146123 4
11.4038 -0.517845 -2.63549 0.000461159 4
13.5357 -0.614653 -2.63378 0.000125578 4
16.5642 -0.75218 -2.62622 7.05686e-05 4
9.82193 -0.411662 -2.63409 9.33553e-05 4
11.3905 -0.477404 -2.63201 0.000415546 4
13.5231 -0.566788 -2.63094 6.6397e-05 4
21.345 -0.894621 -2.62313 3.34954e-05 4
9.83014 -0.377637 -2.63592 0.000316594 4
11.3937 -0.437702 -2.63238 0.000489022 4
13.5315 -0.519827 -2.63219 9.52642e-05 4
16.5877 -0.637236 -2.62917 3.96036e-05 4
11.408 -0.398375 -2.63534 0.000478882 4
13.5357 -0.472677 -2.63268 0.000101036 4
9.83893 -0.309201 -2.63763 0.000121765 4
11.4058 -0.358442 -2.63454 0.000238172 4
13.5345 -0.425341 -2.63215 0.000112582 4
16.5967 -0.521573 -2.62996 4.89629e-05 4
9.83649 -0.27476 -2.63671 0.000150175 4
11.4014 -0.318473 -2.63325 0.000154556 4
13.5394 -0.378191 -2.63281 3.60835e-05 4
16.5864 -0.463303 -2.62805 3.02413e-05 4
9.84426 -0.24059 -2.63855 0.00022729 4
11.3982 -0.278567 -2.63226 8.8679e-05 4
13.5524 -0.331216 -2.63511 9.95892e-05 4
16.5866 -0.405371 -2.62784 5.97616e-05 4
9.83089 -0.205929 -2.63476 0.000422106 4
11.4003 -0.238805 -2.63255 7.34761e-05 4
13.5522 -0.283881 -2.63487 6.92785e-05 4
16.5835 -0.347378 -2.62714 4.75205e-05 4
9.84886 -0.171914 -2.63939 0.000170464 4
11.4105 -0.199173 -2.63473 0.000103879 4
13.5468 -0.236462 -2.63363 4.32985e-05 4
16.589 -0.289565 -2.62784 3.59997e-05 4
9.85136 -0.137561 -2.63992 0.000129876 4
11.4099 -0.159324 -2.63444 0.00012668 4
16.6015 -0.231818 -2.62968 5.97585e-05 4
9.84289 -0.103079 -2.63754 0.000109582 4
11.4133 -0.119525 -2.63511 8.61413e-05 4
13.5452 -0.141852 -2.63307 4.04108e-05 4
9.83766 -0.0686815 -2.63606 0.000198869 4
11.4151 -0.0796942 -2.63544 8.10732e-05 4
13.5326 -0.0944776 -2.63053 4.90695e-05 4
16.6086 -0.115952 -2.6306 5.61565e-05 4
21.347 -0.149034 -2.62115 4.60094e-05 4
9.83523 -0.0343318 -2.63536 0.000174516 4
11.4103 -0.0398301 -2.6343 0.000177346 4
9.84443 0 -2.63781 6.08769e-05 4
11.4083 0 -2.63381 8.10712e-05 4
13.5535 0 -2.63453 3.31931e-05 4
16.5934 0 -2.62814 4.67953e-05 4
9.84217 0.0343537 -2.63722 0.00017857 4
11.4182 0.0398549 -2.63612 0.000124139 4
13.552 0.0473028 -2.63426 0.000115452 4
9.83659 0.0686717 -2.63577 0.000401779 4
11.4266 0.079772 -2.6381 9.62696e-05 4
13.5558 0.0946361 -2.63504 0.000281411 4
9.85017 0.103153 -2.63949 0.000231325 4
11.4092 0.119479 -2.63416 0.00017227 4
13.5498 0.141896 -2.63395 8.80296e-05 4
16.5975 0.173812 -2.62893 5.54311e-05 4
21.3417 0.223495 -2.62058 3.93066e-05 4
9.8553 0.137614 -2.64098 0.000186681 4
11.4129 0.159363 -2.63514 5.57335e-05 4
13.5396 0.18906 -2.6321 3.4634e-05 4
16.6055 0.23187 -2.63031 2.95147e-05 4
9.8426 0.171802 -2.63772 0.000288134 4
11.4019 0.199019 -2.63273 0.000169732 4
13.5496 0.236508 -2.63418 0.000121217 4
16.5996 0.289745 -2.62952 4.31913e-05 4
9.85221 0.206374 -2.64047 0.000101455 4
11.4009 0.238814 -2.63268 7.09316e-05 4
13.5515 0.283863 -2.63472 6.49366e-05 4
16.5835 0.347373 -2.62714 5.11086e-05 4
21.3478 0.447171 -2.62176 2.96958e-05 4
9.83583 0.240382 -2.63629 0.000275953 4
11.4252 0.279225 -2.6385 6.07977e-05 4
13.5471 0.331083 -2.63407 0.000103897 4
16.6028 0.405762 -2.63041 4.67886e-05 4
9.8461 0.275026 -2.63928 0.000194788 4
11.4152 0.318856 -2.63644 6.58632e-05 4
13.525 0.377787 -2.63002 0.000148628 4
16.5871 0.46332 -2.62817 2.95121e-05 4
9.84655 0.309438 -2.63968 0.000158263 4
11.4183 0.358831 -2.63742 0.000268515 4
13.5335 0.425303 -2.63194 7.93629e-05 4
16.5865 0.521249 -2.62835 4.10281e-05 4
9.83772 0.343539 -2.63761 9.33336e-05 4
11.4194 0.39877 -2.63797 9.37256e-05 4
13.5458 0.473028 -2.63465 3.17446e-05 4
16.5817 0.579041 -2.62788 3.31097e-05 4
21.3536 0.745681 -2.62349 3.40587e-05 4
9.84918 0.378365 -2.64103 0.00021507 4
11.4197 0.438699 -2.63839 7.09264e-05 4
13.5335 0.519901 -2.63258 0.000180364 4
16.5964 0.637568 -2.63056 5.18226e-05 4
9.82385 0.41174 -2.6346 0.000259704 4
11.4025 0.477903 -2.63477 0.000341961 4
13.5461 0.567748 -2.63541 5.77152e-05 4
16.5811 0.694952 -2.6285 6.83754e-05 4
9.82957 0.446357 -2.63654 0.000154197 4
11.3994 0.517641 -2.63446 0.000134249 4
13.544 0.615028 -2.6354 5.04999e-05 4
16.5908 0.753383 -2.63044 9.42839e-05 4
9.83822 0.481169 -2.63929 0.000243466 4
11.4118 0.558128 -2.63777 6.33242e-05 4
16.5705 0.81043 -2.62764 4.82204e-05 4
9.82279 0.51479 -2.63562 0.000117674 4
11.4088 0.597909 -2.63754 0.000126646 4
13.5304 0.709099 -2.63366 5.77119e-05 4
9.83722 0.549986 -2.63999 0.000178537 4
11.3912 0.636867 -2.63398 0.000108914 4
13.5127 0.755474 -2.6307 0.000128406 4
9.84016 0.584613 -2.64131 4.86912e-05 4
11.3959 0.67704 -2.63559 0.000321671 4
13.5344 0.804094 -2.63547 8.51217e-05 4
16.562 0.983966 -2.62779 3.02254e-05 4
9.81202 0.617318 -2.63432 0.00021505 4
11.3817 0.716076 -2.63288 8.10496e-05 4
9.81813 0.652117 -2.63656 0.000210989 4
11.3786 0.755764 -2.63275 0.000144367 4
13.5076 0.897172 -2.6314 8.07901e-05 4
16.563 1.10011 -2.62909 4.38965e-05 4
9.83132 0.687472 -2.64073 0.000170412 4
11.3865 0.796223 -2.63521 9.62431e-05 4
13.5055 0.944397 -2.63162 0.000124068 4
9.80806 0.720257 -2.63514 0.000219098 4
11.3719 0.835098 -2.63248 0.00011397 4
13.4945 0.990971 -2.63012 9.08851e-05 4
16.5494 1.21531 -2.62823 3.81376e-05 4
9.80289 0.754291 -2.63444 0.000653226 4
11.388 0.876257 -2.6369 4.0522e-05 4
13.5115 1.03965 -2.63412 9.08831e-05 4
16.5586 1.27411 -2.63038 3.23801e-05 4
9.80957 0.789259 -2.63696 0.000146061 4
11.3813 0.91572 -2.63608 0.000445734 4
13.5071 1.08675 -2.634 6.63577e-05 4
9.80765 0.823571 -2.6372 0.000292117 4
11.386 0.956111 -2.63792 0.00018994 4
13.5105 1.1345 -2.63541 0.000109632 4
16.5346 1.38845 -2.62804 4.0293e-05 4
9.80071 0.857451 -2.63612 0.000194742 4
11.3769 0.995346 -2.63659 4.30522e-05 4
13.4996 1.18106 -2.63408 0.000128382 4
9.79341 0.891268 -2.63498 0.000231252 4
11.3662 1.03441 -2.63495 0.000200063 4
13.4838 1.22712 -2.63182 6.05834e-05 4
9.79662 0.926051 -2.6367 0.00021502 4
11.3776 1.0755 -2.63843 0.000192462 4
13.4746 1.27372 -2.63088 6.49093e-05 4
16.5253 1.5621 -2.62902 5.32398e-05 4
9.78983 0.959899 -2.63576 0.000292098 4
11.3494 1.11282 -2.63279 8.86319e-05 4
13.4662 1.32037 -2.63012 6.34654e-05 4
16.5246 1.62025 -2.62979 3.52523e-05 4
9.80063 0.995511 -2.63958 0.000320491 4
11.346 1.15248 -2.6329 0.000141808 4
13.4651 1.36773 -2.63081 9.23111e-05 4
16.5057 1.67659 -2.6277 3.66901e-05 4
21.2434 2.15783 -2.62179 3.25812e-05 4
9.79259 1.02924 -2.63837 0.000267748 4
11.3508 1.19302 -2.63497 0.000113951 4
13.4687 1.41561 -2.63247 9.23089e-05 4
9.79991 1.06461 -2.64133 0.000198779 4
11.3496 1.23296 -2.63568 0.000291202 4
13.466 1.46288 -2.63293 2.88458e-05 4
13.734 1.49198 -2.18804 0.000330934 6
9.78949 1.09807 -2.63954 0.000292079 4
11.3482 1.27291 -2.63638 0.000144332 4
13.4646 1.5103 -2.63367 7.06705e-05 4
13.3354 1.4958 -2.12536 0.000367246 6
9.77147 1.1306 -2.63572 0.000113584 4
11.3459 1.31277 -2.63689 0.000192439 4
12.9798 1.50181 -2.53984 0.000441002 6
12.9724 1.50096 -2.06834 0.000416832 6
9.78155 1.16638 -2.63953 0.000109526 4
11.3279 1.35077 -2.63377 8.60893e-05 4
12.627 1.50568 -2.47183 0.000412112 6
12.6263 1.5056 -2.01398 0.000465463 6
9.75885 1.19823 -2.63451 8.92416e-05 4
11.3388 1.39223 -2.63744 0.000101279 4
12.2954 1.50968 -2.40793 0.000451273 6
12.2737 1.50701 -1.95855 0.000537268 6
9.75821 1.23275 -2.63549 0.000182536 4
11.3229 1.43042 -2.63488 0.000275981 4
11.9752 1.51282 -2.34625 0.000495115 6
11.9586 1.51072 -1.90911 0.000591362 6
21.1981 2.67793 -2.62348 3.31533e-05 4
9.75856 1.26741 -2.63676 0.000421854 4
11.336 1.47229 -2.63911 6.58288e-05 4
11.6813 1.51713 -2.28968 0.000546787 6
11.6829 1.51735 -1.86594 0.000101047 6
9.76861 1.30341 -2.64069 9.3293e-05 4
11.3114 1.50926 -2.63458 9.11457e-05 4
11.3737 1.51758 -2.23042 8.33546e-05 6
11.3683 1.51686 -1.81652 0.00070004 6
9.76335 1.33741 -2.64051 0.000247424 4
11.3148 1.54994 -2.63663 9.33069e-05 6
11.2474 1.5407 -2.20668 0.000205158 6
11.2696 1.54375 -1.8016 0.00204514 6
9.7595 1.37161 -2.64075 0.000121682 4
11.2611 1.58264 -2.62537 0.000150373 6
11.079 1.55705 -2.17471 0.00238492 6
11.2456 1.58047 -1.79864 0.00205547 6
13.2595 1.8635 -1.64406 0.000523898 6
9.75632 1.40591 -2.6412 5.27279e-05 4
11.2657 1.62341 -2.62775 0.000290029 6
11.0105 1.58663 -2.16233 0.00160891 6
11.2486 1.62094 -1.8 0.0016837 6
13.0876 1.88595 -1.62355 0.000546543 6
9.73565 1.43764 -2.63695 0.000247411 4
11.262 1.66303 -2.62823 0.000289323 6
10.8816 1.60686 -2.13811 0.00171285 6
11.2298 1.65828 -1.79792 0.00168881 6
12.9393 1.91071 -1.60598 0.000243196 6
9.72892 1.47136 -2.6365 0.000166289 4
11.2479 1.70108 -2.62631 0.000199036 6
10.8401 1.6394 -2.13106 0.00499902 6
11.2183 1.6966 -1.797 0.00169389 6
12.8094 1.93723 -1.59068 0.00025006 6
9.73754 1.50745 -2.64025 0.000227122 4
11.2511 1.74176 -2.62846 0.000248162 6
10.8313 1.67677 -2.13047 0.00502029 6
11.1965 1.7333 -1.79447 0.00169895 6
12.6966 1.96553 -1.57751 0.000753001 6
9.72989 1.54106 -2.63961 0.000210895 4
11.2586 1.78319 -2.63165 0.000178211 6
10.8074 1.71172 -2.12693 0.00504141 6
11.1688 1.76897 -1.79102 0.00170398 6
12.5837 1.99307 -1.56435 0.00077677 6
9.71709 1.57382 -2.63762 0.000146001 4
10.7728 1.74481 -2.12131 0.00506239 6
11.1665 1.80858 -1.79165 0.00157256 6
12.5432 2.03156 -1.56019 0.000990207 6
9.72717 1.61032 -2.64186 0.000206831 4
10.7532 1.78017 -2.11865 0.00508321 6
11.1197 1.84086 -1.78516 0.00209618 6
12.5172 2.07221 -1.55784 0.000994374 6
9.70261 1.64107 -2.63673 0.000409599 4
11.2525 1.90321 -2.63474 0.000301219 4
10.7409 1.81669 -2.11748 0.00510388 6
11.1124 1.87953 -1.78504 0.00210681 6
12.5 2.11422 -1.55661 0.00099853 6
9.70268 1.67594 -2.63832 0.000316317 4
11.2401 1.94151 -2.63342 0.000113903 4
10.7202 1.85171 -2.11466 0.00512439 6
11.0644 1.91115 -1.77837 0.00203527 6
12.4875 2.15697 -1.55598 0.00100268 6
9.705 1.71125 -2.64056 0.000117603 4
11.2387 1.98169 -2.63469 0.000346764 4
10.7201 1.89025 -2.11593 0.00516004 6
11.056 1.94948 -1.77812 0.00194093 6
12.4521 2.19564 -1.55251 0.00100681 6
9.69022 1.74355 -2.63818 0.000186538 4
11.2242 2.01955 -2.63292 0.000124022 4
10.6963 1.92457 -2.11255 0.00517887 6
11.0611 1.9902 -1.78003 0.00193678 6
12.4531 2.24066 -1.5536 0.000867866 6
9.68304 1.77717 -2.6379 0.000279802 4
11.2239 2.05997 -2.63452 0.000205011 4
10.6705 1.95841 -2.10879 0.00436184 6
11.0718 2.03205 -1.78289 0.00171555 6
12.4366 2.28254 -1.55253 0.000865657 6
9.6685 1.80941 -2.63564 0.000166255 4
11.2338 2.10234 -2.63855 0.000136671 4
10.6642 1.99575 -2.1089 0.00437736 6
11.0485 2.06766 -1.78029 0.00171838 6
12.46 2.33182 -1.55646 0.000840217 6
9.67593 1.84578 -2.63941 0.000401438 4
11.2301 2.14225 -2.63942 0.000159445 4
10.6351 2.02875 -2.10452 0.00439272 6
11.0357 2.10516 -1.77939 0.00171121 6
12.4512 2.3752 -1.55639 0.000837678 6
9.65131 1.87602 -2.63446 0.000291948 4
11.1946 2.176 -2.63284 0.000242958 4
10.6311 2.06647 -2.10515 0.00461544 6
11.0242 2.14289 -1.77874 0.00171358 6
12.4557 2.42114 -1.55799 0.000841373 6
9.65598 1.91193 -2.63754 0.00023923 4
11.1983 2.21733 -2.63553 5.56764e-05 4
10.6131 2.10144 -2.10302 0.00461273 6
11.0169 2.1814 -1.77878 0.00171592 6
12.4441 2.46399 -1.5576 0.000839167 6
51.6906 10.235 -0.919779 5.06804e-05 10
51.6898 10.2348 0.919765 5.06739e-05 10
51.6803 10.233 4.60922 3.88087e-05 10
51.6761 10.2321 8.34359 3.72208e-05 10
51.6896 10.2348 12.1652 3.4834e-05 10
9.65021 1.94582 -2.63781 0.000328428 4
11.2046 2.25925 -2.63886 0.000136657 4
10.5993 2.1372 -2.10177 0.00456713 6
11.0125 2.22051 -1.77932 0.00171822 6
12.4521 2.51079 -1.5597 0.0008009 6
50.7402 10.231 4.52853 4.15017e-05 10
50.7341 10.2298 8.19721 3.98151e-05 10
50.7395 10.2309 11.9499 3.72789e-05 10
9.65462 1.98181 -2.64089 0.00028382 4
11.196 2.29822 -2.6387 6.07348e-05 4
10.5957 2.17498 -2.10254 0.00456406 6
10.7669 2.21013 -1.74087 0.000128334 6
12.4313 2.55178 -1.5582 0.000799622 6
49.8241 10.2274 4.44993 4.43021e-05 10
49.8266 10.2279 8.0563 4.25134e-05 10
49.8391 10.2305 11.7462 3.98228e-05 10
9.64587 2.01513 -2.6404 0.000462211 4
11.1637 2.33223 -2.63299 0.000111344 4
10.5975 2.21393 -2.10441 0.00460343 6
10.9704 2.29184 -1.77505 0.0015657 6
12.4275 2.59625 -1.55885 0.000798747 6
48.9262 10.2212 -2.61947 6.12813e-05 10
48.9589 10.228 4.37582 4.72105e-05 10
48.9579 10.2278 7.92157 4.53165e-05 10
48.9479 10.2257 11.5445 4.24665e-05 10
9.64256 2.04959 -2.64144 0.000105414 4
11.1579 2.37169 -2.63356 0.000177134 4
10.6062 2.25443 -2.1077 0.00459995 6
10.9637 2.3304 -1.77527 0.00156592 6
12.4339 2.6429 -1.5608 0.000879651 6
48.0902 10.2219 -2.57661 6.51919e-05 10
48.1066 10.2254 4.30281 5.02276e-05 10
46.3924 9.86102 7.51199 5.51652e-05 10
48.0955 10.223 9.55767 4.68354e-05 10
48.1024 10.2245 13.1769 4.33715e-05 10
9.63017 2.08211 -2.64002 0.000206769 4
11.1627 2.41347 -2.63667 6.32604e-05 4
10.5957 2.29086 -2.10718 0.00459628 6
10.9705 2.37189 -1.7777 0.0015661 6
12.4171 2.68468 -1.55986 0.000879823 6
47.263 10.2186 -2.53418 6.92435e-05 10
47.2792 10.2221 4.23197 5.33535e-05 10
45.594 9.85777 5.72759 5.99064e-05 10
47.2645 10.2189 9.39956 3.17732e-05 10
47.2832 10.223 12.9622 4.61123e-05 10
9.62968 2.11722 -2.64189 0.000186493 4
11.1547 2.45252 -2.63678 0.000111335 4
10.5928 2.32897 -2.10821 0.0045499 6
10.9519 2.40793 -1.77604 0.00156624 6
12.4212 2.73098 -1.56156 0.000886872 6
46.4637 10.2157 -2.49322 7.34371e-05 10
46.4742 10.218 4.16308 5.65895e-05 10
46.4729 10.2177 9.24917 5.28121e-05 10
46.4742 10.218 12.7502 4.89515e-05 10
9.61482 2.14917 -2.63986 0.000320275 4
11.1397 2.49002 -2.63528 9.36203e-05 4
10.5734 2.36343 -2.10598 0.00455686 6
10.9313 2.44343 -1.77407 0.00156636 6
12.3975 2.77117 -1.55979 0.00089761 6
45.7058 10.2164 -2.45445 7.77732e-05 10
45.6939 10.2138 4.09635 5.99354e-05 10
45.716 10.2187 9.10559 5.59571e-05 10
45.7236 10.2204 12.5539 5.18895e-05 10
9.60717 2.18269 -2.63983 9.72964e-05 4
11.1398 2.53091 -2.63737 7.84365e-05 4
10.5802 2.40376 -2.109 0.00455135 6
10.9367 2.48477 -1.77635 0.00156645 6
12.3904 2.81502 -1.56012 0.000897689 6
44.9445 10.2111 -2.41547 8.2252e-05 10
44.9443 10.2111 5.6591 6.23231e-05 10
44.9711 10.2172 8.96426 5.9207e-05 10
44.959 10.2144 12.3537 5.49266e-05 10
9.60056 2.21646 -2.64013 0.000125672 4
11.1267 2.56879 -2.63636 5.56631e-05 4
10.5619 2.43842 -2.10704 0.00454566 6
10.9154 2.52001 -1.7743 0.0015665 6
12.3683 2.85544 -1.55858 0.000897751 6
44.2118 10.2071 -2.37799 8.6874e-05 10
44.2194 10.2089 5.57228 6.58363e-05 10
44.2245 10.21 8.82248 6.25621e-05 10
44.2503 10.216 12.1687 5.8063e-05 10
9.5846 2.24805 -2.63788 0.000186476 4
11.1107 2.606 -2.63473 0.000217586 4
10.5544 2.47551 -2.10724 0.00453978 6
10.9086 2.55858 -1.77463 0.00156653 6
12.4061 2.90983 -1.56462 0.000803814 6
43.5055 10.2041 -2.3419 9.16395e-05 10
41.9829 9.84699 8.38211 7.51287e-05 10
43.5334 10.2107 11.9813 6.12993e-05 10
9.57694 2.28155 -2.63795 0.000162149 4
10.5581 2.51528 -2.10971 0.00449175 6
10.9317 2.6043 -1.77987 0.00147518 6
12.4241 2.95984 -1.56818 0.00075282 6
42.8448 10.2071 -2.30824 9.65487e-05 10
42.8519 10.2088 11.8035 6.46353e-05 10
9.57743 2.31702 -2.6403 0.000109448 4
11.097 2.68465 -2.63586 0.000273232 4
10.5465 2.55146 -2.10917 0.00448556 6
10.9114 2.63973 -1.77804 0.00147095 6
12.4436 3.01042 -1.57196 0.00074744 6
42.1707 10.2022 -2.27383 0.000101602 10
42.1772 10.2037 -0.757444 0.000102153 10
42.1843 10.2055 0.757572 0.000102144 10
42.1836 10.2053 11.6291 6.80715e-05 10
9.55223 2.34625 -2.63559 0.000235105 4
11.0909 2.72419 -2.63665 0.000161911 4
10.569 2.596 -2.11547 0.00421199 6
10.9219 2.68268 -1.78128 0.0014667 6
12.4366 3.05472 -1.57241 0.000742075 6
41.5363 10.2023 -2.24153 0.000106798 10
41.537 10.2024 -0.746581 0.000107375 10
41.5346 10.2019 0.746537 0.000107366 10
41.5516 10.206 8.31688 7.70381e-05 10
9.54972 2.38101 -2.63717 0.000226993 4
11.0729 2.76077 -2.63463 7.08339e-05 4
10.5724 2.636 -2.11798 0.00419155 6
10.9227 2.72333 -1.78294 0.00146244 6
12.4637 3.10754 -1.5772 0.000175159 6
40.9165 10.2016 -2.20999 0.000112139 10
40.9025 10.1981 -0.735813 0.000112742 10
40.9125 10.2006 0.735992 0.000112733 10
40.9027 10.1982 8.19408 8.09219e-05 10
9.53935 2.41382 -2.63662 0.00017024 4
11.0664 2.80023 -2.63541 0.000103718 4
10.581 2.6774 -2.12156 0.004171 6
10.9125 2.76127 -1.78284 0.00145815 6
20.7104 5.24054 -2.62307 5.16722e-05 4
40.2945 10.1961 -2.1783 0.000117624 10
38.8908 9.84089 -0.700238 3.33809e-05 10
40.2956 10.1964 0.725531 0.000118245 10
38.8698 9.83557 2.10129 0.000103833 10
40.3046 10.1986 8.08134 8.49115e-05 10
38.8775 9.83751 10.7455 8.95967e-05 10
9.53109 2.44717 -2.63668 0.000210768 4
11.0539 2.83815 -2.63476 0.000169486 4
10.5856 2.71792 -2.12437 0.00411192 6
10.9094 2.80106 -1.78393 0.00151421 6
20.7041 5.31591 -2.6246 4.32511e-05 4
39.7021 10.1938 -2.14819 0.000123253 10
38.8702 9.98017 -0.700489 3.37466e-05 10
39.6966 10.1924 0.715382 0.000123901 10
38.2955 9.83261 2.07208 0.000108726 10
39.7185 10.198 5.03501 9.35019e-05 10
39.7153 10.1971 7.97026 8.9007e-05 10
9.53499 2.48368 -2.64014 0.000133754 4
11.0387 2.87536 -2.63352 0.000151774 4
10.5954 2.75989 -2.12825 0.00409135 6
10.9185 2.84405 -1.78702 0.00150728 6
20.6703 5.38422 -2.62269 4.99245e-05 4
39.1224 10.1906 -2.11874 0.000129025 10
37.7391 9.8303 -0.68072 0.000146671 10
39.132 10.1931 0.705844 0.000129701 10
37.753 9.83391 3.41317 0.000112529 10
39.1382 10.1947 4.96592 9.78936e-05 10
37.7318 9.8284 6.17555 0.000108381 10
39.1401 10.1952 7.86194 9.32083e-05 10
37.7525 9.83378 10.4533 9.82735e-05 10
9.52091 2.51553 -2.63866 8.10607e-05 4
11.0507 2.91971 -2.63879 0.00029342 4
10.597 2.79985 -2.13054 0.00410873 6
10.9146 2.88377 -1.78803 0.00150034 6
20.6746 5.46248 -2.62564 4.5858e-05 4
38.5612 10.1883 -2.09025 0.000134941 10
37.674 9.9539 -0.680168 3.83048e-05 10
38.586 10.1949 0.696633 0.000135645 10
37.6816 9.9559 3.40984 2.94057e-05 10
38.5722 10.1912 4.8986 0.000102395 10
38.5825 10.1939 7.75702 9.75152e-05 10
38.5744 10.1918 9.21119 9.43657e-05 10
9.51064 2.54837 -2.63826 0.000291811 4
11.0376 2.95753 -2.63813 8.34706e-05 4
10.6075 2.84226 -2.13462 0.00406496 6
10.9436 2.93233 -1.79444 0.00149339 6
20.5155 5.49711 -2.60785 8.5724e-05 4
38.0332 10.191 -2.06355 0.000141 10
37.6837 10.0973 -0.680976 3.86979e-05 10
38.0309 10.1903 0.687249 0.000141733 10
37.6625 10.0916 3.41128 2.97075e-05 10
38.0304 10.1902 4.83427 0.000107006 10
38.0287 10.1898 7.6528 0.000101927 10
38.0442 10.1939 9.09304 9.86494e-05 10
9.49307 2.57921 -2.63587 0.000352596 4
11.0138 2.99239 -2.63492 4.04694e-05 4
10.6167 2.8845 -2.13849 0.00404274 6
10.7273 2.91454 -1.76063 0.000584193 6
20.2938 5.51369 -2.58209 0.000102165 4
37.5131 10.1921 -2.03725 0.000147202 10
37.4976 10.1879 -0.67825 0.000147974 10
37.5094 10.1911 0.678464 0.000147965 10
37.4953 10.1872 2.03628 0.000114752 10
37.4922 10.1864 3.39906 0.000113533 10
37.5116 10.1917 4.77281 0.000111726 10
37.503 10.1894 6.15523 0.000109353 10
37.5211 10.1943 7.55777 0.000106445 10
37.5124 10.1919 8.97437 0.000103036 10
37.5015 10.1889 10.4128 9.91672e-05 10
9.49531 2.61544 -2.63901 0.00013374 4
11.0108 3.03288 -2.63671 0.000338921 4
10.6129 2.92328 -2.13977 0.00402044 6
10.9452 3.0148 -1.7981 0.00147948 6
20.0908 5.53393 -2.55871 6.84846e-05 4
35.6471 9.81886 -1.93776 0.000173186 10
35.6519 9.82017 -0.645482 0.000174082 10
36.9746 10.1845 0.669429 0.000154339 10
35.6541 9.82076 1.93814 0.00013501 10
35.6696 9.82504 3.2369 0.000133597 10
36.9952 10.1902 4.71161 0.000116554 10
35.6744 9.82637 5.8607 0.000128752 10
35.6828 9.82869 7.19435 0.000125379 10
35.6727 9.8259 8.5424 0.000121424 10
35.6583 9.82192 9.91043 0.000116933 10
9.49388 2.65074 -2.64117 0.000474157 4
10.9875 3.06777 -2.63369 0.000151751 4
10.6082 2.96187 -2.1409 0.00396104 6
10.9561 3.05899 -1.80164 0.00159306 6
19.8875 5.55268 -2.53527 8.37093e-05 4
35.6372 9.95008 -1.9391 4.76709e-05 10
35.6269 9.94721 -0.645655 4.79249e-05 10
36.4811 10.1857 0.661133 0.000160856 10
35.6451 9.95228 1.93953 3.71835e-05 10
35.6399 9.95084 3.23734 3.67999e-05 10
36.4776 10.1847 4.65019 0.000121491 10
35.6305 9.9482 5.85915 3.54789e-05 10
35.6416 9.9513 7.19299 3.45562e-05 10
35.1942 9.82638 8.43597 0.00012653 10
35.6153 9.94395 9.90807 3.22414e-05 10
9.48013 2.6826 -2.63993 9.32079e-05 4
10.9823 3.10768 -2.63503 4.55239e-05 4
10.6324 3.00867 -2.14789 0.00397559 6
10.9331 3.09375 -1.79963 0.00145898 6
19.6884 5.57125 -2.51235 4.67077e-05 4
35.6365 10.0841 -1.94096 4.81202e-05 10
35.6394 10.0849 -0.646515 4.83783e-05 10
35.9896 10.184 0.652868 0.000167515 10
35.6466 10.087 1.94152 3.75341e-05 10
35.621 10.0797 3.2388 3.71468e-05 10
35.9954 10.1857 4.59323 0.000126537 10
35.6253 10.0809 5.86405 3.5813e-05 10
35.6371 10.0843 7.19915 3.48813e-05 10
34.8267 9.85495 8.35608 3.107e-05 10
35.6358 10.0839 9.92352 3.25451e-05 10
9.4526 2.71049 -2.63489 5.26813e-05 4
10.9745 3.14689 -2.63577 0.000151742 4
10.6446 3.05228 -2.15248 0.00395304 6
10.9549 3.14126 -1.80501 0.00145162 6
19.6779 5.64256 -2.51352 4.24589e-05 4
35.6085 10.2106 -1.94137 4.8692e-05 10
35.5962 10.207 -0.646373 4.89533e-05 10
35.5 10.1795 0.644626 0.000174315 10
35.5146 10.1836 4.53638 0.00013169 10
34.7799 9.97296 8.35315 3.10712e-05 10
9.46975 2.75121 -2.64233 0.000235034 4
10.96 3.18417 -2.63494 6.57526e-05 4
10.6442 3.09241 -2.15456 0.00310383 6
10.9542 3.18248 -1.80671 0.00361205 6
19.6483 5.70835 -2.51226 3.46181e-05 4
33.7983 9.8193 -1.84453 0.000202933 10
33.7862 9.8158 -0.614125 0.000203969 10
33.7883 9.81642 0.614164 0.000203958 10
33.7845 9.8153 1.84378 0.000158204 10
33.7994 9.81964 3.07934 0.000156573 10
35.0582 10.1853 4.48259 0.000136951 10
33.7894 9.81671 5.57299 0.000150979 10
33.798 9.81922 6.84131 0.000147082 10
34.7651 10.1002 8.35802 3.10724e-05 10
33.8099 9.82267 9.43392 0.000137318 10
9.44475 2.77974 -2.63804 0.000214766 4
10.943 3.22068 -2.63353 0.00011127 4
10.6721 3.14096 -2.16242 0.00288268 6
10.9918 3.23506 -1.81476 0.00333598 6
19.6302 5.77749 -2.51251 3.95144e-05 4
33.7317 9.92777 -1.84278 5.91821e-05 10
33.713 9.92229 -0.613421 5.94947e-05 10
33.7103 9.92146 0.61337 5.95021e-05 10
33.7031 9.91935 1.84121 4.61622e-05 10
33.7232 9.92528 3.07553 4.56947e-05 10
34.5871 10.1795 4.42688 0.000142318 10
33.7186 9.92393 5.567 4.40788e-05 10
33.7182 9.92382 6.83213 4.29495e-05 10
34.6048 10.1847 8.32798 0.000131494 10
33.7088 9.92104 9.41533 4.0115e-05 10
9.45129 2.81755 -2.6426 0.000243125 4
10.9521 3.26497 -2.63846 8.09213e-05 4
10.6933 3.1878 -2.16896 0.00357816 6
11.0065 3.28117 -1.81906 0.00136709 6
19.6068 5.84503 -2.51211 4.8002e-05 4
33.7247 10.0538 -1.8443 5.96949e-05 10
33.7217 10.0529 -0.614214 6.00103e-05 10
33.7251 10.0539 0.614274 6.00178e-05 10
33.7045 10.0477 1.8432 4.65623e-05 10
33.7229 10.0532 3.07868 4.60906e-05 10
34.1565 10.1825 4.37628 0.000147792 10
33.7246 10.0537 5.57375 4.44602e-05 10
33.7161 10.0512 6.83877 4.33209e-05 10
34.1568 10.1826 8.22866 0.00013659 10
33.712 10.05 9.42596 4.04611e-05 10
9.42648 2.84602 -2.63843 0.000222859 4
10.9445 3.30434 -2.63939 0.000123907 4
10.7077 3.23283 -2.17415 0.0035354 6
11.0094 3.32394 -1.82146 0.00135796 6
19.6015 5.91803 -2.51406 4.01623e-05 4
33.7185 10.1802 -1.8459 0.0002019 10
33.7153 10.1793 -0.61474 0.000202931 10
33.7152 10.1792 0.614738 0.000202921 10
33.7213 10.1811 1.84605 0.0001574 10
33.7156 10.1794 3.08125 0.000155777 10
33.7144 10.179 4.32416 0.000153372 10
33.7231 10.1816 5.57935 4.48362e-05 10
33.7062 10.1765 6.84393 4.36869e-05 10
33.7116 10.1781 8.12992 0.000141786 10
33.6922 10.1723 9.43028 4.08021e-05 10
9.40505 2.87541 -2.63522 0.000226905 4
10.9087 3.33513 -2.63355 0.000250334 4
10.7405 3.28371 -2.18314 0.00349285 6
11.0144 3.36743 -1.82422 0.00148595 6
19.5656 5.98179 -2.51212 4.11392e-05 4
33.2854 10.1764 -1.82412 0.000209364 10
33.2908 10.178 -0.607645 0.00021043 10
33.291 10.1781 0.607647 0.000210419 10
33.28 10.1747 1.82382 0.000163219 10
33.277 10.1738 3.04438 0.000161543 10
33.285 10.1762 4.27362 0.000159057 10
33.2965 10.1798 5.51462 0.000155791 10
33.2782 10.1742 6.76418 0.000151783 10
33.2788 10.1743 8.03407 0.000147081 10
33.2932 10.1788 9.3285 0.00014174 10
9.39883 2.90942 -2.63631 0.000417331 4
10.7684 3.33336 -2.19115 0.0033888 6
11.0377 3.41673 -1.83004 0.00147035 6
19.549 6.05143 -2.51269 3.75452e-05 4
32.8569 10.1709 -1.80257 0.000216964 10
32.8751 10.1765 -0.600701 0.000218065 10
32.8831 10.179 0.600847 0.000218055 10
32.8692 10.1747 1.80324 0.000169145 10
32.8628 10.1727 3.00972 0.000167414 10
32.8813 10.1785 4.22632 0.000164846 10
32.8773 10.1772 5.45104 0.000161472 10
32.8776 10.1773 6.68995 0.000157333 10
32.8625 10.1726 7.94209 0.000152475 10
32.8886 10.1807 9.22502 0.000146956 10
9.39593 2.9445 -2.63836 0.000372752 4
10.9036 3.41698 -2.63801 0.000139066 4
10.7958 3.38319 -2.19912 0.00334574 6
11.0518 3.46343 -1.83438 0.00145483 6
19.5408 6.12371 -2.51436 4.3419e-05 4
32.584 10.2112 -1.78954 6.88528e-05 10
32.5851 10.2115 -0.59605 6.92136e-05 10
32.5734 10.2079 0.595835 6.92222e-05 10
32.5806 10.2101 1.78936 5.37055e-05 10
32.5775 10.2092 2.98684 5.31661e-05 10
32.5736 10.208 4.19133 5.23617e-05 10
32.5671 10.2059 5.40548 5.13016e-05 10
32.5785 10.2095 6.6363 4.99983e-05 10
32.5576 10.2029 7.87696 4.84671e-05 10
32.5598 10.2036 9.14273 4.67257e-05 10
9.37687 2.97452 -2.63591 0.00026335 4
10.8815 3.4518 -2.63555 0.000161816 4
10.8309 3.43578 -2.20871 0.00330291 6
11.0769 3.5138 -1.84057 0.0014394 6
19.5035 6.18689 -2.51234 4.24368e-05 4
32.588 10.3375 -1.79173 6.93866e-05 10
32.5762 10.3338 -0.596543 6.97503e-05 10
32.5719 10.3324 0.596465 6.97591e-05 10
32.5735 10.3329 1.79094 5.41219e-05 10
32.5862 10.3369 2.99092 5.35783e-05 10
32.5646 10.3301 4.19479 5.27674e-05 10
32.5675 10.331 5.4115 5.16988e-05 10
32.5736 10.3329 6.6426 5.0385e-05 10
32.5814 10.3354 7.8914 4.88415e-05 10
32.5593 10.3284 9.15266 4.70862e-05 10
9.38262 3.01243 -2.64046 0.000453759 4
10.8659 3.48864 -2.6347 0.00010366 4
10.8633 3.48783 -2.21778 0.00326031 6
15.826 5.08116 -2.63261 3.08602e-05 4
19.5034 6.26184 -2.51511 4.11283e-05 4
32.5659 10.4558 -1.79252 6.99119e-05 10
32.5836 10.4615 -0.597345 7.02785e-05 10
32.591 10.4638 0.59748 7.02874e-05 10
32.5625 10.4547 1.79233 5.45318e-05 10
32.5762 10.4591 2.99334 5.39839e-05 10
32.5785 10.4598 4.20125 5.31666e-05 10
32.5817 10.4608 5.41989 5.20896e-05 10
32.5741 10.4584 6.65011 5.07656e-05 10
32.5589 10.4535 7.89473 4.92099e-05 10
32.5645 10.4553 9.16432 4.74408e-05 10
9.37367 3.04569 -2.64092 0.000113437 4
13.2614 4.30889 -2.71041 0.000220859 1
15.7941 5.13181 -2.63028 5.45409e-05 4
19.4738 6.32742 -2.51413 4.07991e-05 4
32.5828 10.5868 -1.79547 7.04288e-05 10
32.5894 10.5889 -0.598125 7.07982e-05 10
32.5647 10.5809 0.59767 7.08072e-05 10
32.5643 10.5808 1.79445 5.4935e-05 10
32.5731 10.5836 2.99643 5.43829e-05 10
32.568 10.582 4.20464 5.35594e-05 10
32.5687 10.5822 5.42384 5.24742e-05 10
32.5621 10.5801 6.65516 5.11399e-05 10
32.5755 10.5844 7.90768 4.95723e-05 10
32.5685 10.5821 9.1758 4.77896e-05 10
9.34485 3.07243 -2.63581 0.000166099 4
10.8469 3.56626 -2.63607 0.000422198 4
13.2434 4.35422 -2.70983 0.00022085 1
15.7826 5.18906 -2.63136 9.61593e-05 4
19.4426 6.39239 -2.51297 3.85118e-05 4
32.5695 10.7083 -1.79679 7.0937e-05 10
32.5917 10.7156 -0.59885 7.13094e-05 10
32.5857 10.7136 0.598739 7.13184e-05 10
32.5752 10.7102 1.7971 5.53316e-05 10
32.566 10.7072 2.9992 5.47754e-05 10
32.575 10.7101 4.21034 5.39456e-05 10
32.5632 10.7062 5.42912 5.28523e-05 10
32.57 10.7085 6.66437 5.1508e-05 10
32.5593 10.705 7.91277 4.99286e-05 10
32.5555 10.7037 9.1826 4.81326e-05 10
9.35093 3.11064 -2.64057 0.000170145 4
10.8289 3.6023 -2.63475 0.000520778 4
13.2269 4.39999 -2.70957 0.000220841 1
15.7681 5.24534 -2.63198 0.000115529 4
19.4191 6.45986 -2.51283 4.56888e-05 4
32.5844 10.8394 -1.79968 7.14368e-05 10
32.5789 10.8375 -0.599305 7.18119e-05 10
32.5813 10.8384 0.59935 7.1821e-05 10
32.5833 10.839 1.79962 5.57215e-05 10
32.5715 10.8351 3.00317 5.51612e-05 10
32.5595 10.8311 4.2132 5.43253e-05 10
32.5667 10.8335 5.43597 5.32239e-05 10
32.5715 10.8351 6.67237 5.18698e-05 10
32.5732 10.8357 7.92528 5.02789e-05 10
32.5774 10.8371 9.1994 4.84697e-05 10
9.33962 3.14313 -2.64046 0.000243058 4
10.8184 3.64079 -2.63527 0.000480313 4
13.2239 4.45034 -2.71213 0.000220832 1
15.7315 5.29422 -2.62893 0.000103325 4
19.4168 6.53448 -2.51547 3.91592e-05 4
32.566 10.9597 -1.80077 7.19278e-05 10
32.5662 10.9598 -0.599773 7.23056e-05 10
32.5766 10.9633 0.599964 7.23149e-05 10
32.5863 10.9665 1.80189 5.61046e-05 10
32.5716 10.9616 3.00669 5.55403e-05 10
32.5789 10.964 4.22064 5.46985e-05 10
32.5646 10.9592 5.44197 5.35891e-05 10
32.5691 10.9607 6.67968 5.22253e-05 10
32.5735 10.9622 7.93462 5.0623e-05 10
32.5535 10.9555 9.20339 4.88008e-05 10
9.31796 3.17209 -2.63745 0.000109373 4
10.8106 3.68024 -2.63649 0.000462601 4
13.2158 4.49901 -2.71366 0.000220823 1
15.7363 5.35708 -2.63285 0.000132737 4
19.3692 6.59381 -2.51227 3.71986e-05 4
32.5855 11.093 -1.80398 7.24101e-05 10
32.5755 11.0896 -0.600652 7.27906e-05 10
32.5751 11.0895 0.600645 7.28e-05 10
32.5803 11.0912 1.80369 5.64809e-05 10
32.5817 11.0917 3.01117 5.59126e-05 10
32.5633 11.0855 4.22361 5.50649e-05 10
32.5699 11.0877 5.44929 5.39478e-05 10
32.5627 11.0853 6.68627 5.25744e-05 10
32.569 11.0874 7.9429 5.09609e-05 10
32.558 11.0836 9.21555 4.9126e-05 10
9.31465 3.20729 -2.63967 0.000263297 4
10.7901 3.71533 -2.63463 0.000573808 4
13.1921 4.54242 -2.71205 0.000220814 1
15.7189 5.41244 -2.63308 8.82474e-05 4
19.3643 6.66765 -2.51464 4.50268e-05 4
32.5685 11.2142 -1.80519 7.28837e-05 10
32.588 11.2209 -0.601602 7.32669e-05 10
32.5622 11.212 0.601124 7.32763e-05 10
32.5602 11.2114 1.80473 5.68504e-05 10
32.5837 11.2195 3.01497 5.62782e-05 10
32.5612 11.2117 4.22839 5.54247e-05 10
32.5558 11.2099 5.45345 5.43e-05 10
32.5741 11.2161 6.6966 5.29172e-05 10
32.5543 11.2093 7.9488 5.12926e-05 10
32.5589 11.2109 9.22682 4.94451e-05 10
9.295 3.23686 -2.63728 0.000275442 4
10.7755 3.75241 -2.63424 3.79156e-05 4
13.1417 4.57644 -2.70496 0.000239924 4
15.6982 5.4667 -2.6328 8.6808e-05 4
19.348 6.73768 -2.51556 4.9265e-05 4
32.591 11.3494 -1.80863 7.33484e-05 10
32.5777 11.3448 -0.60214 7.37342e-05 10
32.5751 11.3438 0.602091 7.37438e-05 10
32.5834 11.3467 1.8082 5.7213e-05 10
32.5662 11.3407 3.01699 5.6637e-05 10
32.5668 11.341 4.23423 5.57778e-05 10
32.5609 11.3389 5.46089 5.46455e-05 10
32.5783 11.3449 6.70556 5.32535e-05 10
32.5738 11.3434 7.96319 5.16181e-05 10
32.5633 11.3397 9.23923 4.97583e-05 10
9.29099 3.27187 -2.63937 5.26564e-05 4
10.7665 3.79149 -2.63527 0.000149129 4
13.0396 4.59198 -2.68722 0.000278595 4
15.5708 5.48333 -2.61462 0.000231673 4
19.3209 6.80396 -2.51511 4.66516e-05 4
32.5846 11.4748 -1.81048 7.38043e-05 10
32.5688 11.4693 -0.60271 7.41927e-05 10
32.5616 11.4667 0.602577 7.42024e-05 10
32.5775 11.4723 1.81009 5.75687e-05 10
32.5776 11.4724 3.02174 5.6989e-05 10
32.5577 11.4654 4.23821 5.61242e-05 10
32.5614 11.4667 5.46766 5.49845e-05 10
32.5721 11.4704 6.71249 5.35833e-05 10
32.5775 11.4723 7.97384 5.19373e-05 10
32.5502 11.4627 9.2468 5.00654e-05 10
9.28657 3.3068 -2.64138 0.000125562 4
10.7813 3.83905 -2.64216 0.000256653 4
12.9118 4.5977 -2.66418 0.000316547 4
15.4356 5.49636 -2.59513 0.000227797 4
19.2773 6.86434 -2.51254 3.65358e-05 4
32.5794 11.601 -1.81243 7.42514e-05 10
32.5774 11.6003 -0.603616 7.46423e-05 10
32.5873 11.6038 0.603799 7.4652e-05 10
32.5765 11.6 1.81227 5.79175e-05 10
32.5582 11.5934 3.02367 5.73341e-05 10
32.5764 11.5999 4.24589 5.64637e-05 10
32.5607 11.5943 5.47431 5.53168e-05 10
32.5588 11.5937 6.71805 5.39067e-05 10
32.5533 11.5917 7.97778 5.22502e-05 10
32.5665 11.5964 9.26288 5.03663e-05 10
9.27738 3.34006 -2.64206 6.88543e-05 4
10.8088 3.8914 -2.6522 0.000242765 4
12.7924 4.60554 -2.64283 0.00032297 4
15.3111 5.51233 -2.57741 0.000253159 4
19.253 6.9315 -2.51251 4.56664e-05 4
32.5772 11.7285 -1.81457 7.46895e-05 10
32.5759 11.728 -0.604343 7.50828e-05 10
32.5727 11.7269 0.604283 7.50927e-05 10
32.5705 11.7261 1.8142 5.82593e-05 10
32.5683 11.7253 3.0284 5.76723e-05 10
32.5745 11.7275 4.25096 5.67965e-05 10
32.5726 11.7269 5.48316 5.56424e-05 10
32.5748 11.7277 6.72976 5.42236e-05 10
32.5533 11.7199 7.98776 5.25567e-05 10
32.5588 11.7219 9.27227 5.06612e-05 10
9.26759 3.37313 -2.64261 0.000121504 4
10.823 3.93927 -2.65906 0.000213307 4
12.6557 4.60628 -2.61789 0.000346586 4
15.1876 5.52782 -2.55985 0.000254555 4
19.2502 7.00648 -2.51531 4.24015e-05 4
32.5705 11.8547 -1.8165 0.000208566 10
32.5702 11.8546 -0.605001 0.00020963 10
32.5611 11.8513 0.604831 7.55244e-05 10
32.5681 11.8538 1.81636 0.000162604 10
32.5777 11.8573 3.0331 5.80035e-05 10
32.5546 11.8489 4.25373 5.71224e-05 10
32.5644 11.8525 5.4887 5.59614e-05 10
32.5652 11.8528 6.73628 5.45339e-05 10
32.5493 11.847 7.99688 5.28569e-05 10
32.5619 11.8516 9.28489 5.09499e-05 10
9.23147 3.39652 -2.63568 0.0001782 4
10.8724 4.00026 -2.67459 0.000215873 4
12.5489 4.61708 -2.59912 0.000453669 4
15.0403 5.53376 -2.53827 0.00013065 4
20.6647 7.60311 -2.70359 4.4104e-05 1
32.2295 11.8581 -1.79977 7.82686e-05 10
32.2012 11.8477 -0.598912 7.86798e-05 10
32.5647 11.9815 0.605671 7.5947e-05 10
32.2157 11.8531 1.79901 0.000167478 10
32.2188 11.8542 3.00351 0.000165767 10
32.5598 11.9797 4.25985 5.74415e-05 10
32.2255 11.8567 5.43852 0.000159893 10
32.2194 11.8544 6.67327 0.000155798 10
32.5541 11.9776 8.00827 5.31507e-05 10
32.2175 11.8537 9.19841 0.000145535 10
9.22599 3.43112 -2.63752 0.000384739 4
10.8894 4.04975 -2.68225 0.000211458 4
12.4359 4.62485 -2.57904 0.000360439 4
14.906 5.5435 -2.51886 9.06437e-05 4
20.6369 7.6748 -2.70345 4.41008e-05 1
32.5611 12.1094 0.606388 7.63605e-05 10
32.5725 12.1136 4.26702 5.77537e-05 10
32.55 12.1053 8.01762 5.34381e-05 10
32.6378 12.1379 9.33045 3.26619e-05 10
9.22424 3.46716 -2.64046 8.90948e-05 4
10.9112 4.10125 -2.69112 0.000198624 4
12.3175 4.62984 -2.55783 0.000395393 4
14.8781 5.5923 -2.51742 9.30005e-05 4
20.5925 7.74022 -2.70116 4.40975e-05 1
32.5583 12.2378 0.607127 7.67648e-05 10
32.5658 12.2407 4.27172 5.8059e-05 10
32.5559 12.2369 8.02953 5.37191e-05 10
32.6253 12.2631 9.33908 3.2833e-05 10
9.20145 3.4953 -2.63741 0.000275376 4
10.9453 4.15773 -2.7031 0.000288326 4
12.1957 4.63271 -2.53588 0.000422299 4
14.8777 5.65152 -2.52069 0.000108227 4
20.5632 7.81124 -2.70088 4.40942e-05 1
32.5635 12.3697 0.608026 7.716e-05 10
32.5673 12.3711 4.27754 5.83573e-05 10
32.5518 12.3653 8.03912 5.39936e-05 10
32.6177 12.3903 9.34923 3.30003e-05 10
9.20031 3.53167 -2.6406 0.000267268 4
10.9758 4.2132 -2.71424 0.000187037 4
12.1187 4.65192 -2.52322 0.000224168 4
14.8507 5.70063 -2.51946 0.000110626 4
20.5378 7.88372 -2.70113 4.40909e-05 1
32.5716 12.5031 0.608989 7.7546e-05 10
32.5693 12.5022 4.28351 5.86486e-05 10
32.5476 12.4938 8.0488 5.42616e-05 10
32.6221 12.5224 9.36294 3.31635e-05 10
9.17157 3.55741 -2.6359 0.000862521 4
10.9582 4.25039 -2.71353 0.000388483 1
12.0992 4.69296 -2.52256 0.000201742 4
14.8353 5.75425 -2.52025 9.69931e-05 4
20.5074 7.95429 -2.70077 4.40876e-05 1
32.6447 12.6621 -1.83503 0.000200032 10
32.5724 12.634 0.609823 7.79227e-05 10
32.557 12.628 4.28768 5.8933e-05 10
32.5545 12.6271 8.06136 5.45232e-05 10
9.17519 3.59572 -2.64054 0.00077341 4
10.9421 4.28815 -2.71324 0.000388469 1
12.0939 4.73955 -2.5249 0.000208137 4
14.825 5.80984 -2.52192 7.93536e-05 4
20.4796 8.02586 -2.70078 4.40842e-05 1
32.5826 12.769 0.610845 7.82903e-05 10
32.5517 12.7569 4.29281 5.92103e-05 10
32.5593 12.7599 8.07354 5.47781e-05 10
9.15655 3.62534 -2.6388 0.000765288 4
10.9438 4.33296 -2.7174 0.000388455 1
12.072 4.77966 -2.5238 0.000166503 4
14.7994 5.8595 -2.52103 9.85854e-05 4
20.4623 8.1016 -2.70221 4.40809e-05 1
32.5574 12.8904 0.611212 7.86484e-05 10
32.5552 12.8895 4.29918 5.94805e-05 10
32.5671 12.8942 8.08658 5.50265e-05 10
9.15156 3.66036 -2.64102 0.000797656 4
10.9216 4.36834 -2.71567 0.00038844 1
12.5975 5.03864 -2.63731 0.000307814 4
14.7745 5.90939 -2.52029 0.000117815 4
20.4467 8.17809 -2.7039 4.40775e-05 1
32.5627 13.0242 0.612163 7.89973e-05 10
32.5706 13.0273 4.30719 5.97437e-05 10
32.5474 13.018 8.09291 5.52683e-05 10
9.11951 3.68452 -2.63547 0.000797631 4
10.8982 4.40315 -2.71364 0.000388426 1
12.5818 5.08336 -2.63772 0.000237323 4
14.7647 5.96534 -2.52216 0.000121815 4
20.4015 8.24273 -2.70171 4.40741e-05 1
32.575 13.1612 0.613253 7.93368e-05 10
32.5553 13.1532 4.31121 5.99998e-05 10
32.5482 13.1503 8.10449 5.55036e-05 10
9.13143 3.72647 -2.64266 0.000732825 4
10.8765 4.43862 -2.71209 0.000388411 1
12.5473 5.12046 -2.63422 0.000151017 4
14.7191 6.00677 -2.51793 0.000112993 4
20.3865 8.31957 -2.70356 4.40707e-05 1
32.6369 13.3189 -1.84737 0.000194395 10
32.6389 13.3197 -0.615327 0.000195394 10
32.5728 13.2927 0.614081 7.96669e-05 10
32.5723 13.2925 4.31959 6.02488e-05 10
32.5495 13.2832 8.11629 5.57322e-05 10
9.11243 3.75587 -2.64094 0.000153848 4
10.8694 4.48005 -2.7142 0.000388397 1
12.5211 5.16082 -2.63249 0.00013519 4
14.708 6.06221 -2.51964 0.000121801 4
20.3452 8.38568 -2.70195 4.40673e-05 1
32.5325 13.4089 -1.8441 0.00019525 10
32.5481 13.4153 -0.614495 0.000196253 10
32.5556 13.4185 0.614637 7.99876e-05 10
32.5581 13.4195 1.84555 0.000152228 10
32.5426 13.4131 3.07947 0.000150663 10
32.5647 13.4222 4.32477 6.04906e-05 10
32.5578 13.4194 5.5775 0.000145288 10
32.5589 13.4198 6.8453 0.000141542 10
32.5456 13.4143 8.12696 5.59542e-05 10
32.5615 13.4209 9.43687 0.000132154 10
9.08718 3.78263 -2.63743 0.000105261 4
10.8408 4.51258 -2.71097 0.000388382 1
12.5102 5.20748 -2.63399 8.05349e-05 4
14.6998 6.11892 -2.52187 0.000109775 4
20.3074 8.45313 -2.70083 4.40638e-05 1
32.2167 13.4105 -1.82884 0.000200376 10
32.2159 13.4102 -0.609103 0.000201402 10
32.5796 13.5616 0.615979 8.02989e-05 10
32.2161 13.4103 1.82881 0.000156224 10
32.2231 13.4132 3.05364 0.000154622 10
32.5582 13.5526 4.33015 6.07254e-05 10
32.2304 13.4162 5.5294 0.00014912 10
32.2162 13.4103 6.78305 0.000145284 10
32.5628 13.5546 8.14303 5.61696e-05 10
32.2365 13.4187 9.3562 0.000135671 10
9.08394 3.81854 -2.64034 0.000415293 4
10.8388 4.55622 -2.71444 0.000388367 1
12.5009 5.25489 -2.63589 0.000188385 4
14.6812 6.1714 -2.52236 0.000102558 4
18.7304 7.87352 -2.49473 0.000682715 10
32.5563 13.6854 -1.85082 8.01643e-05 10
32.5576 13.6859 -0.616463 8.05895e-05 10
32.5716 13.6918 0.616728 8.06007e-05 10
32.578 13.6945 1.85205 6.25312e-05 10
32.5745 13.6931 3.09146 6.18979e-05 10
32.5734 13.6926 4.33851 6.09529e-05 10
32.5504 13.6829 5.59246 5.97077e-05 10
32.5543 13.6846 6.86427 5.81767e-05 10
32.5469 13.6815 8.15094 5.63783e-05 10
32.1897 13.5313 9.35628 5.63358e-05 10
9.09913 3.86235 -2.64866 0.000408146 4
10.7813 4.5764 -2.70402 0.0006204 4
12.4754 5.29548 -2.63439 0.000241582 4
14.6333 6.21145 -2.51784 0.000130593 4
18.4901 7.8486 -2.46637 8.76493e-05 10
32.5813 13.8299 -1.85497 8.04548e-05 10
32.561 13.8213 -0.617437 8.08818e-05 10
32.5611 13.8214 0.617439 8.08931e-05 10
32.5617 13.8216 1.85386 6.2758e-05 10
32.5707 13.8254 3.09566 6.21221e-05 10
32.5611 13.8214 4.34327 6.11733e-05 10
32.5493 13.8164 5.60052 5.9923e-05 10
32.5592 13.8205 6.87542 5.8386e-05 10
32.5631 13.8222 8.16702 5.65803e-05 10
32.5485 13.816 9.47452 5.45273e-05 10
9.11796 3.90796 -2.65809 0.000378336 4
10.691 4.58216 -2.68536 0.000607342 4
12.4612 5.34088 -2.63532 0.000143792 4
14.6217 6.26687 -2.5196 7.69094e-05 4
18.4662 7.91464 -2.46685 8.76424e-05 10
32.5671 13.9583 -1.85693 8.07359e-05 10
32.5631 13.9566 -0.618398 8.11646e-05 10
32.569 13.9591 0.618509 8.1176e-05 10
32.5564 13.9537 1.85632 6.29773e-05 10
32.5719 13.9603 3.10038 6.2339e-05 10
32.5685 13.9589 4.35073 6.13865e-05 10
32.571 13.96 5.61261 6.01314e-05 10
32.5511 13.9514 6.88395 5.85883e-05 10
32.5664 13.958 8.18002 5.67757e-05 10
32.5667 13.9581 9.49396 5.47147e-05 10
9.12831 3.95017 -2.66512 0.000351906 4
10.5917 4.58342 -2.66441 0.000697585 4
12.4334 5.38041 -2.63339 9.77742e-05 4
14.6031 6.31934 -2.52018 0.000103341 4
18.4376 7.97867 -2.46673 8.76356e-05 10
32.5668 14.0929 -1.85971 8.10076e-05 10
32.5782 14.0979 -0.619616 8.14379e-05 10
32.5696 14.0941 0.619452 8.14493e-05 10
32.5641 14.0917 1.85955 6.31893e-05 10
32.5499 14.0856 3.10295 6.25485e-05 10
32.5638 14.0916 4.35665 6.15925e-05 10
32.567 14.093 5.62035 6.03327e-05 10
32.5469 14.0843 6.89343 5.87838e-05 10
32.5452 14.0836 8.18699 5.69643e-05 10
32.5666 14.0928 9.50821 5.48957e-05 10
9.14109 3.99364 -2.6729 0.000317617 4
10.5064 4.59015 -2.64699 0.000684738 4
12.4183 5.42544 -2.6342 0.000176848 4
14.5722 6.36644 -2.51867 0.000102534 4
18.399 8.03833 -2.4653 8.76286e-05 10
32.5601 14.2252 -1.86215 8.12697e-05 10
32.5571 14.2239 -0.620155 8.17017e-05 10
32.5522 14.2217 0.62006 8.17132e-05 10
32.5634 14.2266 1.86234 6.33939e-05 10
32.5736 14.2311 3.10993 6.27508e-05 10
32.5573 14.2239 4.36239 6.17913e-05 10
32.5704 14.2297 5.62949 6.05269e-05 10
32.5454 14.2187 6.90359 5.89724e-05 10
32.5556 14.2232 8.20205 5.71463e-05 10
32.5524 14.2218 9.51848 5.50701e-05 10
9.16533 4.04239 -2.6841 0.000413583 4
10.4243 4.59767 -2.63032 0.000735364 4
12.4026 5.4702 -2.63489 0.000416852 4
14.5694 6.42587 -2.52204 0.000104931 4
18.381 8.10698 -2.46667 8.76217e-05 10
32.5671 14.3638 -1.8654 8.15224e-05 10
32.5765 14.368 -0.621476 8.19559e-05 10
32.573 14.3664 0.621408 8.19676e-05 10
32.5629 14.362 1.86516 6.35911e-05 10
32.5499 14.3562 3.11243 6.29458e-05 10
32.5495 14.356 4.36803 6.19829e-05 10
32.5582 14.3599 5.636 6.0714e-05 10
32.5491 14.3559 6.91495 5.9154e-05 10
32.5508 14.3566 8.21341 5.73215e-05 10
32.5413 14.3524 9.52983 5.52381e-05 10
9.18719 4.0904 -2.69467 0.000283772 4
10.3406 4.60393 -2.61325 0.000742059 4
12.2981 5.47546 -2.61674 0.000382404 4
14.5347 6.47128 -2.51994 9.05074e-05 4
18.3561 8.17266 -2.46714 8.76147e-05 10
32.5766 14.504 -1.86884 8.17655e-05 10
32.5626 14.4978 -0.622172 8.22007e-05 10
32.5769 14.5042 0.622444 8.22123e-05 10
32.553 14.4935 1.86748 6.37808e-05 10
32.5482 14.4914 3.11708 6.31334e-05 10
32.5562 14.4949 4.3757 6.21672e-05 10
32.562 14.4975 5.64538 6.0894e-05 10
32.5603 14.4968 6.92805 5.93287e-05 10
32.5574 14.4955 8.22781 5.749e-05 10
32.5618 14.4974 9.5506 5.53996e-05 10
9.18853 4.12949 -2.69927 0.000345622 4
10.2569 4.60961 -2.59613 0.000722535 4
12.1981 5.48203 -2.59951 0.000475261 4
14.5261 6.52826 -2.52237 9.771e-05 4
18.3166 8.23178 -2.46567 8.76076e-05 10
32.5807 14.6424 -1.87199 8.19992e-05 10
32.5656 14.6355 -0.623201 8.24358e-05 10
32.5729 14.6389 0.623342 8.24476e-05 10
32.5547 14.6307 1.8705 6.39632e-05 10
32.5704 14.6377 3.12408 6.33136e-05 10
32.5507 14.6288 4.38179 6.23443e-05 10
32.5551 14.6309 5.65301 6.10669e-05 10
32.5446 14.6261 6.93553 5.94965e-05 10
32.5455 14.6265 8.23764 5.76518e-05 10
32.5574 14.6319 9.56424 5.55546e-05 10
9.20118 4.17384 -2.70725 0.000358049 4
10.187 4.62101 -2.58251 0.00069097 4
12.126 5.50059 -2.58823 0.000537081 4
14.494 6.57478 -2.52077 0.000111319 4
18.2766 8.29061 -2.46417 8.76006e-05 10
32.5616 14.7706 -1.87385 8.22234e-05 10
32.5739 14.7762 -0.624345 8.26614e-05 10
32.5697 14.7743 0.624263 8.26732e-05 10
32.5658 14.7725 1.87409 6.41382e-05 10
32.5672 14.7731 3.1287 6.34865e-05 10
32.5509 14.7657 4.38873 6.25142e-05 10
32.5676 14.7733 5.6641 6.12327e-05 10
32.5492 14.7649 6.94744 5.96574e-05 10
32.5534 14.7669 8.25264 5.78069e-05 10
32.5523 14.7664 9.57781 5.57031e-05 10
9.22867 4.22522 -2.71966 0.000623186 1
10.0991 4.62371 -2.5643 0.000842236 4
12.0299 5.50773 -2.57181 0.000484462 4
14.4796 6.62927 -2.52227 9.68974e-05 4
18.2613 8.36068 -2.46604 8.75935e-05 10
32.5799 14.9162 -1.87788 8.2438e-05 10
32.5558 14.9052 -0.624991 8.28774e-05 10
32.5499 14.9025 0.624877 8.28894e-05 10
32.5703 14.9118 1.87733 6.43058e-05 10
32.5629 14.9084 3.13327 6.36521e-05 10
32.5648 14.9093 4.3976 6.26768e-05 10
32.5575 14.906 5.67136 6.13914e-05 10
32.5661 14.9099 6.96211 5.98113e-05 10
32.54 14.898 8.26237 5.79552e-05 10
32.5408 14.8984 9.58969 5.5845e-05 10
9.20574 4.25365 -2.71726 0.000623165 1
10.0036 4.62233 -2.54415 0.00057206 4
11.9345 5.51452 -2.55551 0.000512373 4
14.4364 6.67056 -2.51879 0.000103298 4
18.2423 8.42912 -2.46742 8.75864e-05 10
32.5636 15.0465 -1.87996 8.26431e-05 10
32.5585 15.0441 -0.626046 8.30839e-05 10
32.5504 15.0404 0.625891 8.30959e-05 10
32.5638 15.0466 1.87997 6.44658e-05 10
32.5468 15.0387 3.13676 6.38103e-05 10
32.5601 15.0449 4.40403 6.28322e-05 10
32.545 15.0379 5.6783 6.15431e-05 10
32.5646 15.0469 6.97297 5.99583e-05 10
32.5519 15.0411 8.27867 5.80968e-05 10
32.5619 15.0457 9.61132 5.59805e-05 10
9.18053 4.28095 -2.71422 0.000623143 1
9.9323 4.63151 -2.5301 0.000771902 4
11.8602 5.53048 -2.54371 0.000430697 4
14.4292 6.72845 -2.52162 9.36828e-05 4
18.194 8.48399 -2.46488 8.75792e-05 10
32.5529 15.1797 -1.88239 8.28387e-05 10
32.5585 15.1823 -0.627062 8.32807e-05 10
32.5504 15.1785 0.626906 8.32928e-05 10
32.5591 15.1825 1.88275 6.46185e-05 10
32.5568 15.1815 3.14281 6.39611e-05 10
32.5562 15.1812 4.41064 6.29802e-05 10
32.5507 15.1786 5.68849 6.16875e-05 10
32.5497 15.1782 6.98109 6.00983e-05 10
32.551 15.1788 8.29188 5.82317e-05 10
32.5372 15.1723 9.6196 5.61094e-05 10
9.17741 4.31856 -2.71773 0.000623122 1
9.91133 4.66392 -2.52889 0.000381013 4
11.7539 5.53097 -2.52504 8.63636e-05 4
14.4037 6.77789 -2.52129 0.000134511 4
18.1846 8.55701 -2.46764 8.7572e-05 10
41.9239 19.7279 -2.42824 3.50211e-05 10
41.9224 19.7272 -0.808727 3.52241e-05 10
41.9015 19.7173 0.808323 3.52299e-05 10
34.5271 16.2472 1.99982 5.33581e-05 10
34.5686 16.2668 3.34247 7.19408e-05 10
34.5427 16.2545 4.68742 5.1981e-05 10
34.5802 16.2722 6.05305 6.93129e-05 10
34.5299 16.2485 8.81037 4.79922e-05 10
34.5846 16.2743 10.2416 6.28983e-05 10
9.15745 4.34828 -2.7163 0.0006231 1
9.87098 4.68708 -2.52276 0.000341777 4
11.7174 5.56381 -2.52135 0.000212742 4
14.3863 6.83111 -2.52239 0.000108883 4
18.1339 8.61061 -2.46482 8.75648e-05 10
34.3159 16.2944 1.99087 0.000115837 10
34.3225 16.2975 3.32416 0.00011462 10
