VERSION 0.7
FIELDS x y z intensity label
SIZE 4 4 4 4 4
TYPE F F F F F
COUNT 1 1 1 1 1
WIDTH 1177
HEIGHT 1
VIEWPOINT 13.0204 53 2.72599 0.999999 0.00004 0.000975514 -0.000965764
POINTS 1177
DATA ascii
5.07386 -13.6432 1.2735 0.00067728 10
5.06794 -13.6273 1.78518 0.000669085 10
5.06711 -13.6251 2.3024 0.000658126 10
5.06991 -13.6326 2.82722 0.000644508 10
5.07121 -13.6361 3.35879 0.000628366 10
5.06683 -13.6243 3.8949 0.000609855 10
3.57305 -9.50594 -2.7211 0.000621723 1
4.14008 -11.0145 -2.7166 0.000387048 1
4.91705 -13.0816 -2.7165 0.000219648 1
5.07542 -13.5029 -2.28474 0.000866924 10
5.0749 -13.5016 -1.77102 0.000882576 10
5.07911 -13.5128 -1.26297 0.000894611 10
5.08211 -13.5207 -0.756994 0.000902908 10
5.0751 -13.5021 -0.251779 0.000907388 10
5.07559 -13.5034 0.251803 0.000908006 10
5.07172 -13.4931 0.755447 0.000904756 10
5.07091 -13.4909 1.26093 0.000699926 10
5.07106 -13.4913 1.76968 0.000691465 10
5.07184 -13.4934 2.28313 0.00068015 10
5.0691 -13.4861 2.8005 0.000666091 10
5.07042 -13.4897 3.32706 0.000649426 10
5.0665 -13.4792 3.85846 0.000630317 10
3.60224 -9.48297 -2.7181 0.000621772 1
4.18025 -11.0046 -2.71774 0.000387084 1
4.96004 -13.0574 -2.71505 0.000219673 1
5.08321 -13.3817 -2.26721 0.000895644 10
5.0775 -13.3666 -1.75564 0.000911787 10
5.07542 -13.3611 -1.25044 0.000924197 10
5.07603 -13.3628 -0.749137 0.000932752 10
5.08063 -13.3749 -0.249736 0.000937368 10
5.07954 -13.372 0.249681 0.000937999 10
5.07124 -13.3501 0.74843 0.000934641 10
5.06777 -13.341 1.24856 0.000723048 10
5.06801 -13.3416 1.75236 0.000714314 10
5.0699 -13.3466 2.26127 0.000702636 10
5.06831 -13.3424 2.77432 0.000688127 10
5.06572 -13.3356 3.29342 0.000670929 10
5.06903 -13.3443 3.82488 0.000651209 10
3.63358 -9.46579 -2.7168 0.000621821 1
4.21482 -10.98 -2.71528 0.00038712 1
4.99939 -13.0239 -2.71169 0.000219697 1
5.08205 -13.2392 -2.24606 0.000924958 10
5.07406 -13.2184 -1.73848 0.000941602 10
5.07994 -13.2337 -1.24017 0.000954395 10
5.08098 -13.2364 -0.743044 0.000963211 10
5.08096 -13.2364 -0.247479 0.000967966 10
5.07692 -13.2258 0.247282 0.000968612 10
5.06915 -13.2056 0.741313 0.000965142 10
5.0779 -13.2284 1.23967 0.000746647 10
5.07041 -13.2089 1.73723 0.000737635 10
5.07528 -13.2215 2.24307 0.000725587 10
5.06471 -13.194 2.74712 0.000710619 10
5.07184 -13.2126 3.26739 0.000692878 10
5.06763 -13.2016 3.78903 0.000672535 10
3.66726 -9.45475 -2.71729 0.000621869 1
4.25216 -10.9627 -2.71466 0.000387155 1
5.04466 -13.0059 -2.71161 0.000219722 1
5.08142 -13.1007 -2.22556 0.000954871 10
5.08266 -13.1039 -1.72575 0.000972025 10
5.07363 -13.0806 -1.22747 0.00255563 10
5.08236 -13.1031 -0.736552 0.00257751 10
5.07256 -13.0778 -0.244845 0.00258853 10
5.07664 -13.0884 0.245042 0.00258856 10
5.07638 -13.0877 0.735685 0.00257761 10
5.07706 -13.0895 1.22831 0.000770727 10
5.07637 -13.0877 1.72361 0.000761431 10
5.07551 -13.0855 2.22298 0.000749005 10
5.07319 -13.0795 2.72694 0.000733569 10
5.07225 -13.0771 3.23823 0.000715275 10
5.06266 -13.0523 3.75123 0.000694296 10
3.69628 -9.4318 -2.71438 0.000621918 1
4.2945 -10.9583 -2.71725 0.000387191 1
5.09207 -12.9934 -2.71269 0.000219747 1
5.13313 -13.0982 -2.22817 0.0024685 10
5.12798 -13.0851 -1.72561 0.00251119 10
5.12777 -13.0845 -1.22952 0.00254359 10
5.13321 -13.0984 -0.737291 0.00256538 10
5.12631 -13.0808 -0.245234 0.00257634 10
5.13297 -13.0978 0.245552 0.00257637 10
5.1266 -13.0815 0.736341 0.00256548 10
5.07381 -12.9469 1.21658 0.000795289 10
5.06673 -12.9288 1.705 0.000785705 10
5.06839 -12.933 2.20007 0.000772894 10
5.07405 -12.9475 2.70309 0.000756982 10
5.07207 -12.9424 3.20925 0.000738122 10
5.06627 -12.9276 3.72044 0.000716496 10
3.73633 -9.4369 -2.71959 0.000621966 1
4.32592 -10.926 -2.71299 0.000387226 1
5.13992 -12.982 -2.71403 0.000219771 1
5.18205 -13.0884 -2.22956 0.00245674 10
5.18676 -13.1003 -1.73 0.00249924 10
5.18301 -13.0908 -1.2318 0.00253148 10
5.18364 -13.0924 -0.737966 0.00255317 10
5.18529 -13.0966 -0.245867 0.00256409 10
5.17902 -13.0807 0.245569 0.00256412 10
5.18408 -13.0935 0.738028 0.00255327 10
5.0703 -12.8061 1.20501 0.000820339 10
5.075 -12.818 1.69272 0.000810461 10
5.07355 -12.8143 2.18288 0.000797258 10
5.07195 -12.8103 2.67813 0.000780859 10
5.06571 -12.7945 3.17695 0.000761424 10
5.0724 -12.8114 3.69208 0.000739139 10
3.76657 -9.41709 -2.71765 0.000622014 1
4.36561 -10.9148 -2.71397 0.000387262 1
5.18546 -12.9646 -2.71416 0.000219795 1
5.23368 -13.0851 -2.23211 0.00244491 10
5.23452 -13.0872 -1.73068 0.00248721 10
5.23619 -13.0914 -1.23357 0.00251931 10
5.24088 -13.1032 -0.739599 0.0025409 10
5.23247 -13.0821 -0.245937 0.00255176 10
5.23027 -13.0766 0.245833 0.00255179 10
5.2317 -13.0802 0.738303 0.00254099 10
5.09415 -12.7363 1.2001 0.00210524 10
5.0881 -12.7212 1.68227 0.00207857 10
5.09252 -12.7322 2.17191 0.00204341 10
5.08924 -12.724 2.6638 0.0020001 10
5.09472 -12.7377 3.16723 0.00194905 10
5.08813 -12.7212 3.67118 0.00189076 10
3.80153 -9.40911 -2.71916 0.000622063 1
4.40626 -10.9059 -2.71556 0.000387297 1
5.22632 -12.9356 -2.71189 0.00021982 1
5.28452 -13.0796 -2.23431 0.00243302 10
5.29171 -13.0974 -1.73446 0.00247512 10
5.28896 -13.0906 -1.23523 0.00250707 10
5.28403 -13.0784 -0.73924 0.00252855 10
5.29385 -13.1027 -0.246671 0.00253937 10
5.28711 -13.0861 0.246357 0.0025394 10
5.29102 -13.0957 0.740218 0.00252865 10
5.14656 -12.7382 1.20197 0.00209505 10
5.14203 -12.727 1.6854 0.0020685 10
5.13869 -12.7187 2.17265 0.00203351 10
5.14779 -12.7412 2.67115 0.00199039 10
5.14467 -12.7335 3.17064 0.00193959 10
5.14169 -12.7261 3.67776 0.00188157 10
3.83514 -9.39771 -2.71972 0.000622111 1
4.4449 -10.8919 -2.71592 0.000387333 1
5.27442 -12.9246 -2.71343 0.000219844 1
5.33747 -13.0791 -2.23738 0.00242106 10
5.34148 -13.0889 -1.73579 0.00246296 10
5.34174 -13.0895 -1.23688 0.00249476 10
5.34358 -13.0941 -0.741173 0.00251614 10
5.34333 -13.0934 -0.246845 0.00252691 10
5.34618 -13.1004 0.246977 0.00252694 10
5.34482 -13.0971 0.741344 0.00251624 10
5.19407 -12.7277 1.20268 0.0020848 10
5.19205 -12.7227 1.68723 0.00205838 10
5.19503 -12.73 2.17767 0.00202355 10
5.19366 -12.7267 2.67188 0.00198064 10
5.19989 -12.7419 3.17724 0.00193007 10
5.19146 -12.7213 3.68157 0.00187233 10
3.85989 -9.36481 -2.71408 0.000622159 1
4.47986 -10.869 -2.71409 0.000387368 1
5.3186 -12.9039 -2.71297 0.000219868 1
5.39148 -13.0807 -2.24086 0.00240903 10
5.39436 -13.0877 -1.73812 0.00245074 10
5.39564 -13.0908 -1.23877 0.00248239 10
5.39109 -13.0798 -0.741424 0.00250367 10
5.39964 -13.1005 -0.247332 0.00251438 10
5.39789 -13.0963 0.247252 0.00251441 10
5.39141 -13.0805 0.741469 0.00250377 10
5.25213 -12.7426 1.20582 0.0020745 10
5.24985 -12.7371 1.69155 0.00204821 10
5.24138 -12.7165 2.17848 0.00201354 10
5.24756 -12.7315 2.67673 0.00197084 10
5.24128 -12.7163 3.17539 0.00192051 10
5.24987 -12.7371 3.69144 0.00186304 10
3.90108 -9.37175 -2.72002 0.000622207 1
4.52545 -10.8717 -2.7187 0.000387403 1
5.36434 -12.887 -2.71334 0.000219893 1
5.447 -13.0856 -2.24494 0.00239695 10
5.44773 -13.0873 -1.74058 0.00243845 10
9.35623 -22.4769 -2.13004 0.000243291 10
9.35111 -22.4646 -1.27525 0.000245755 10
9.35553 -22.4752 -0.424938 0.000247078 10
9.35131 -22.4651 0.424745 0.000247248 10
7.85548 -18.8716 1.07128 5.43225e-05 10
5.45023 -13.0933 1.2408 0.00192597 10
5.45197 -13.0975 1.74194 0.00190146 10
5.40229 -12.9782 3.76674 0.000510914 10
3.93234 -9.35466 -2.71903 0.000622255 1
4.55403 -10.8336 -2.71313 0.000387438 1
5.4131 -12.8773 -2.71525 0.000219917 1
5.50238 -13.0897 -2.24892 0.0023848 10
5.503 -13.0911 -1.74363 0.00242611 10
9.42876 -22.4301 -2.12871 0.000587388 10
9.43393 -22.4424 -1.27585 0.000592937 10
9.4359 -22.4471 -0.425026 0.000595731 10
9.43793 -22.452 0.425118 0.00059574 10
7.92143 -18.8443 1.0713 5.42985e-05 10
5.50446 -13.0946 1.24273 0.00191623 10
5.5002 -13.0845 1.74274 0.00189183 10
5.44839 -12.9612 3.76731 0.000510873 10
3.96554 -9.34223 -2.71942 0.000622303 1
4.60031 -10.8376 -2.71815 0.000387473 1
5.45331 -12.8472 -2.71291 0.000219941 1
5.55695 -13.0914 -2.25253 0.0023726 10
5.55407 -13.0846 -1.74533 0.0024137 10
9.52594 -22.4417 -2.13296 0.000584083 10
9.53035 -22.4521 -1.27828 0.000589603 10
9.52297 -22.4347 -0.425418 0.000592381 10
9.52186 -22.4321 0.425368 0.00059239 10
7.98726 -18.8168 1.07131 5.42745e-05 10
5.55884 -13.0958 1.24468 0.00190643 10
5.55944 -13.0972 1.74701 0.00188216 10
5.4972 -12.9506 3.76978 0.000510832 10
3.99681 -9.32525 -2.71853 0.000622351 1
4.63575 -10.816 -2.71677 0.000387509 1
5.50474 -12.8435 -2.71617 0.000219965 1
5.6073 -13.0828 -2.25442 0.00236033 10
5.61501 -13.1008 -1.7501 0.00240123 10
9.6134 -22.4298 -2.13499 0.000580764 10
9.61492 -22.4333 -1.27911 0.000586253 10
9.61819 -22.4409 -0.42617 0.000589018 10
9.61313 -22.4291 0.425945 0.000589026 10
8.05533 -18.7945 1.07164 5.42505e-05 10
5.60672 -13.0815 1.24517 0.00189659 10
5.61323 -13.0966 1.74954 0.00187244 10
5.53653 -12.9177 3.76581 0.000510791 10
4.03232 -9.31815 -2.72054 0.000622398 1
4.66701 -10.7848 -2.71301 0.000387544 1
5.54237 -12.8077 -2.71266 0.000219989 1
5.65844 -13.0759 -2.25661 0.00234801 10
5.66039 -13.0804 -1.75 0.0023887 10
9.71092 -22.4406 -2.13924 0.000577429 10
9.71263 -22.4446 -1.28168 0.00058289 10
9.7062 -22.4297 -0.426598 0.000585639 10
9.71334 -22.4462 0.426911 0.000585647 10
8.12237 -18.7697 1.07183 5.42266e-05 10
5.66925 -13.1009 1.24889 0.0018867 10
5.65943 -13.0782 1.7497 0.00186267 10
5.58608 -12.9087 3.76884 0.00051075 10
4.06377 -9.30159 -2.71983 0.000622446 1
4.7119 -10.7851 -2.7172 0.000387579 1
5.58468 -12.7828 -2.71152 0.000220013 1
5.71393 -13.0787 -2.26052 0.00233564 10
5.71962 -13.0917 -1.75417 0.00237612 10
11.5345 -26.4014 -2.52065 3.43669e-05 10
13.9407 -31.9089 -1.82491 8.71306e-05 10
13.9296 -31.8836 -0.607325 8.76417e-05 10
13.9265 -31.8764 0.607188 8.77047e-05 10
8.18378 -18.7319 1.0713 5.42028e-05 10
5.71931 -13.091 1.24985 0.00187677 10
5.71628 -13.084 1.75315 0.00185286 10
5.62549 -12.8762 3.76508 0.000510709 10
4.08608 -9.26438 -2.71311 0.000622493 1
4.74261 -10.7529 -2.71325 0.000387614 1
5.62971 -12.7643 -2.71173 0.000220037 1
5.77327 -13.0898 -2.26591 0.0023232 10
5.76757 -13.0768 -1.75487 0.00236348 10
11.6297 -26.368 -2.52132 3.43764e-05 10
13.9288 -31.5808 -1.80891 9.01087e-05 10
13.9309 -31.5855 -0.602569 9.06355e-05 10
13.9272 -31.5772 0.60241 9.06999e-05 10
8.25148 -18.7086 1.07161 5.4179e-05 10
5.77596 -13.0959 1.25223 0.00186679 10
5.77175 -13.0863 1.75614 0.001843 10
5.80828 -13.1691 2.27965 0.00114174 10
5.80251 -13.156 2.79496 0.00111738 10
5.79679 -13.1431 3.31634 0.00108867 10
5.6685 -12.8522 3.76382 0.000510668 10
4.12754 -9.27061 -2.71913 0.000622541 1
4.77816 -10.7319 -2.71214 0.000387648 1
5.67886 -12.7549 -2.71394 0.000220061 1
5.82381 -13.0805 -2.26781 0.00231072 10
5.83083 -13.0963 -1.7602 0.00235079 10
11.7236 -26.3316 -2.52173 3.43859e-05 10
13.9286 -31.2841 -1.79469 9.31518e-05 10
13.9349 -31.2983 -0.598015 9.36947e-05 10
13.9246 -31.2752 0.597572 9.37607e-05 10
8.32393 -18.6959 1.07253 5.41552e-05 10
5.82362 -13.0801 1.25266 0.00185677 10
5.82854 -13.0911 1.7595 0.0018331 10
5.71746 -12.8416 3.76654 0.000510627 10
4.15392 -9.2429 -2.71524 0.000622588 1
4.82549 -10.7372 -2.71771 0.000387683 1
5.71921 -12.7258 -2.71198 0.000220085 1
5.87749 -13.078 -2.27092 0.00229817 10
5.87907 -13.0815 -1.76096 0.00233804 10
11.8119 -26.2827 -2.52098 3.43954e-05 10
13.9321 -31.0002 -1.78118 9.62607e-05 10
13.9351 -31.0069 -0.593373 9.682e-05 10
13.9246 -30.9836 0.592926 9.68874e-05 10
8.39185 -18.6727 1.07288 5.41315e-05 10
5.88104 -13.0859 1.25517 0.0018467 10
5.87704 -13.077 1.76035 0.00182316 10
5.7567 -12.8092 3.76291 0.000510586 10
4.18524 -9.22631 -2.71464 0.000622636 1
4.85354 -10.6996 -2.71246 0.000387718 1
5.76037 -12.6987 -2.71046 0.000220109 1
5.93133 -13.0755 -2.27407 0.00228558 10
5.93299 -13.0792 -1.76343 0.00232524 10
11.8982 -26.2293 -2.51983 3.44048e-05 10
13.9336 -30.7164 -1.76766 9.94358e-05 10
13.9328 -30.7147 -0.588709 0.000100012 10
13.9247 -30.6968 0.588365 0.000100081 10
8.45098 -18.6301 1.07212 5.41078e-05 10
5.93542 -13.0846 1.25702 0.0018366 10
5.93609 -13.086 1.76435 0.00181318 10
5.81201 -12.8125 3.7698 0.000510546 10
4.21911 -9.21535 -2.71574 0.000622683 1
4.89718 -10.6964 -2.71597 0.000387753 1
5.81122 -12.6928 -2.71352 0.000220133 1
5.99709 -13.0988 -2.28174 0.00227294 10
5.99554 -13.0954 -1.76842 0.00231238 10
11.9917 -26.1921 -2.52027 3.44143e-05 10
13.9356 -30.438 -1.75443 0.000102678 10
13.9263 -30.4177 -0.583944 0.000103271 10
13.9288 -30.4231 0.584047 0.000103341 10
8.51901 -18.6071 1.0725 5.40842e-05 10
5.9893 -13.0818 1.25876 0.00182645 10
5.99252 -13.0888 1.76753 0.00180316 10
5.85116 -12.78 3.76624 0.000510505 10
4.25573 -9.21025 -2.7186 0.00062273 1
4.92874 -10.6668 -2.7128 0.000387787 1
5.84973 -12.66 -2.71085 0.000220157 1
6.05399 -13.102 -2.28598 0.00226025 10
6.05373 -13.1015 -1.77209 0.00229948 10
12.0757 -26.1343 -2.51874 3.44237e-05 10
13.9257 -30.138 -1.73993 0.000105987 10
13.9326 -30.153 -0.579793 0.000106597 10
13.921 -30.1277 0.579306 0.000106669 10
8.58575 -18.5813 1.07273 5.40606e-05 10
6.04511 -13.0828 1.26088 0.00181627 10
6.0515 -13.0966 1.77143 0.0017931 10
5.89791 -12.7642 3.76763 0.000510464 10
4.28419 -9.18747 -2.71627 0.000622777 1
4.96503 -10.6475 -2.7123 0.000387822 1
5.89289 -12.6373 -2.71039 0.000220181 1
6.10336 -13.0887 -2.28735 0.00224751 10
6.09815 -13.0775 -1.77171 0.00228653 10
12.1767 -26.1129 -2.52076 3.44331e-05 10
13.9273 -29.8671 -1.72708 0.000109363 10
13.9259 -29.8642 -0.575171 0.000109991 10
13.9278 -29.8683 0.575249 0.000110065 10
8.64433 -18.5378 1.07196 5.40371e-05 10
6.10892 -13.1006 1.26464 0.00180604 10
6.10066 -13.0829 1.77244 0.001783 10
5.94151 -12.7416 3.76704 0.000510424 10
4.31568 -9.1713 -2.71592 0.000622824 1
5.0117 -10.6504 -2.71747 0.000387856 1
5.94301 -12.6295 -2.71315 0.000220204 1
6.16083 -13.0924 -2.29175 0.00223472 10
6.16089 -13.0926 -1.77665 0.00227353 10
12.2589 -26.0515 -2.51894 3.44425e-05 10
13.9348 -29.6129 -1.71519 0.000112808 10
13.926 -29.5943 -0.570905 0.000113453 10
13.9224 -29.5866 0.570756 0.000113529 10
8.71909 -18.529 1.0732 5.40137e-05 10
6.15934 -13.0893 1.26561 0.00179578 10
6.15414 -13.0782 1.77471 0.00177286 10
5.98354 -12.7157 3.76553 0.00172834 10
4.34541 -9.15141 -2.71451 0.000622871 1
5.04841 -10.6319 -2.71723 0.000387891 1
5.98487 -12.6041 -2.71216 0.000220228 1
6.21246 -13.0834 -2.29395 0.00222189 10
6.21887 -13.0969 -1.78018 0.00226048 10
12.3579 -26.0258 -2.52062 3.44519e-05 10
13.9256 -29.3273 -1.70145 0.000116321 10
13.926 -29.3281 -0.566704 0.000116985 10
13.9293 -29.3351 0.566839 0.000117062 10
8.78168 -18.4942 1.07296 5.39902e-05 10
6.20925 -13.0767 1.26648 0.00178548 10
6.21138 -13.0811 1.77803 0.00176269 10
6.24939 -13.1612 2.30759 0.00109191 10
6.24064 -13.1428 2.82807 0.00106857 10
6.24048 -13.1424 3.35885 0.00104107 10
6.0378 -12.7156 3.77172 0.00171843 10
4.37907 -9.13983 -2.71559 0.000622918 1
5.07903 -10.6008 -2.71378 0.000387925 1
6.03164 -12.589 -2.71343 0.000220252 1
6.27136 -13.0893 -2.29882 0.00220901 10
6.27368 -13.0942 -1.78278 0.00224739 10
12.437 -25.958 -2.51824 3.44613e-05 10
13.753 -28.7048 -1.66811 0.000124877 10
13.7463 -28.6907 -0.555312 0.000125585 10
13.7484 -28.695 0.555395 0.000125667 10
8.84129 -18.4532 1.07236 5.39669e-05 10
6.26439 -13.0748 1.26841 0.00177514 10
6.26917 -13.0848 1.78149 0.00175248 10
6.3023 -13.1539 2.31016 0.000518407 10
6.29734 -13.1436 2.83295 0.000507608 10
6.30214 -13.1536 3.3673 0.00049482 10
6.10062 -12.733 3.78318 0.00170847 10
4.40654 -9.11537 -2.71288 0.000622964 1
5.12175 -10.5948 -2.71683 0.000387959 1
6.07815 -12.5733 -2.71459 0.000220275 1
6.33327 -13.101 -2.30473 0.00219609 10
6.32647 -13.0869 -1.78478 0.00223425 10
12.5309 -25.9214 -2.51892 3.44706e-05 10
13.7426 -28.4279 -1.65479 0.000128667 10
13.745 -28.4329 -0.551246 0.000129394 10
13.748 -28.439 0.551366 0.000129477 10
8.9145 -18.4405 1.07343 5.39436e-05 10
6.32244 -13.0786 1.27092 0.00176477 10
6.33031 -13.0949 1.78587 0.00174223 10
6.33108 -13.0965 2.30394 0.00109324 10
6.32601 -13.086 2.82528 0.00106988 10
6.32583 -13.0856 3.35554 0.00104234 10
6.15097 -12.7239 3.78683 0.00169849 10
4.44077 -9.10494 -2.71437 0.000623011 1
5.15273 -10.5647 -2.71368 0.000387994 1
6.1205 -12.5489 -2.71392 0.000220299 1
6.38684 -13.095 -2.30758 0.00218312 10
6.38345 -13.088 -1.78796 0.00222107 10
12.6262 -25.8875 -2.51989 3.448e-05 10
13.8373 -28.3708 -1.65427 0.000267582 10
13.8391 -28.3744 -0.551046 0.000268926 10
13.8442 -28.3848 0.551247 0.00026893 10
8.97238 -18.3961 1.07266 5.39203e-05 10
6.38016 -13.0813 1.27333 0.00175437 10
6.37825 -13.0774 1.7865 0.00173196 10
6.32727 -12.9728 2.28606 0.000844308 10
6.32807 -12.9745 2.80596 0.000826737 10
6.32287 -12.9638 3.32994 0.000805933 10
6.20774 -12.7277 3.79441 0.00168847 10
4.47104 -9.08636 -2.71347 0.000623058 1
5.19042 -10.5483 -2.71413 0.000388028 1
6.15783 -12.5144 -2.71109 0.000220322 1
6.44398 -13.0959 -2.31169 0.00217011 10
6.44602 -13.1 -1.79266 0.00220784 10
12.7124 -25.8349 -2.51908 3.44893e-05 10
13.928 -28.3054 -1.65328 0.000131068 10
13.9228 -28.2948 -0.550441 0.000131807 10
13.9193 -28.2877 0.550303 0.000131891 10
9.03839 -18.3684 1.07288 5.38971e-05 10
6.43376 -13.0751 1.27491 0.00174393 10
6.43389 -13.0754 1.78929 0.00172164 10
6.32608 -12.8563 2.2694 0.00086575 10
6.33319 -12.8708 2.78829 0.000847747 10
6.32354 -12.8511 3.30665 0.000826433 10
6.26787 -12.738 3.80396 0.00167842 10
4.50236 -9.06994 -2.71324 0.000623104 1
5.22243 -10.5205 -2.71165 0.000388062 1
6.20472 -12.4993 -2.71251 0.000220346 1
6.49533 -13.0848 -2.31372 0.00215707 10
6.50322 -13.1006 -1.79584 0.00219458 10
6.54908 -13.193 -1.28863 0.000711063 10
6.54172 -13.1782 -0.771053 0.000717574 10
6.54067 -13.1761 -0.256768 0.000721042 10
6.54547 -13.1858 0.256956 0.000721431 10
6.54934 -13.1936 0.77195 0.000718739 10
6.49121 -13.0765 1.27724 0.00173346 10
6.49291 -13.0799 1.793 0.0017113 10
6.33179 -12.7553 2.25546 0.000887518 10
6.33154 -12.7548 2.76795 0.000869077 10
6.33379 -12.7593 3.2887 0.000847246 10
6.32035 -12.7323 3.80881 0.00166834 10
4.53708 -9.06034 -2.71509 0.00062315 1
5.26212 -10.5082 -2.71319 0.000388096 1
6.24209 -12.4652 -2.70981 0.000220369 1
6.55801 -13.0961 -2.31975 0.00214398 10
6.55043 -13.0809 -1.79626 0.00218128 10
6.55538 -13.0908 -1.28087 0.00145949 10
6.55171 -13.0835 -0.766842 0.00147206 10
6.55342 -13.0869 -0.255473 0.00147839 10
6.55313 -13.0863 0.255461 0.00147841 10
6.55878 -13.0976 0.767669 0.00147212 10
6.54755 -13.0752 1.27934 0.00172295 10
6.55065 -13.0813 1.79632 0.00170093 10
6.36905 -12.7187 2.2529 0.00179284 10
6.37019 -12.721 2.76541 0.00175464 10
6.36773 -12.7161 3.28325 0.00170962 10
6.37416 -12.7289 3.81444 0.00165823 10
4.56718 -9.04148 -2.7142 0.000623196 1
5.30177 -10.4957 -2.71473 0.00038813 1
6.29133 -12.4547 -2.71229 0.000220393 1
6.61252 -13.0906 -2.32285 0.00213086 10
6.61292 -13.0914 -1.80085 0.00216794 10
6.61664 -13.0987 -1.2839 0.00145056 10
6.61224 -13.09 -0.768574 0.00146306 10
6.6175 -13.1004 -0.256187 0.00146935 10
6.60552 -13.0767 0.255723 0.00146937 10
6.60992 -13.0854 0.768305 0.00146312 10
6.61623 -13.0979 1.28382 0.00171242 10
6.60527 -13.0762 1.79877 0.00169052 10
6.43311 -12.7354 2.25983 0.00178191 10
6.42941 -12.7281 2.77182 0.00174393 10
6.43499 -12.7391 3.29498 0.00169918 10
6.42948 -12.7282 3.82094 0.00164808 10
4.60669 -9.04114 -2.71891 0.000623243 1
5.33674 -10.4739 -2.7139 0.000388164 1
6.32918 -12.4217 -2.7099 0.000220416 1
6.67435 -13.0992 -2.32849 0.0021177 10
6.66475 -13.0803 -1.80253 0.00215456 10
13.0622 -25.636 -2.51722 3.45264e-05 10
13.9253 -27.3299 -1.60751 0.000146944 10
13.9213 -27.3221 -0.535247 0.000147764 10
13.9157 -27.3111 0.535031 0.000147855 10
9.29966 -18.2516 1.07353 5.38047e-05 10
6.66861 -13.0879 1.28511 0.00170186 10
6.66195 -13.0748 1.80177 0.00168009 10
6.67419 -13.0988 2.32844 0.0016514 10
6.67251 -13.0955 2.8569 0.00161605 10
6.66829 -13.0873 3.39103 0.0015744 10
6.66921 -13.0891 3.93623 0.00152686 10
4.63799 -9.02455 -2.71877 0.000623289 1
5.36689 -10.4428 -2.71068 0.000388198 1
6.37957 -12.4133 -2.7129 0.00022044 1
6.72469 -13.0848 -2.33011 0.0021045 10
6.72066 -13.077 -1.80529 0.00214114 10
6.81408 -13.2588 -1.30422 0.000707946 10
6.82256 -13.2753 -0.78223 0.000714431 10
6.8186 -13.2676 -0.26038 0.000717879 10
6.81675 -13.264 0.260309 0.000718256 10
6.81707 -13.2646 0.7816 0.00071556 10
6.73026 -13.0957 1.28817 0.00169127 10
6.72883 -13.0929 1.80748 0.00166963 10
6.72401 -13.0835 2.32987 0.00164111 10
6.71987 -13.0755 2.85762 0.00160597 10
6.73068 -13.0965 3.39949 0.00156457 10
6.73169 -13.0985 3.94609 0.00151731 10
4.66924 -9.00789 -2.71865 0.000623335 1
5.40612 -10.4295 -2.71209 0.000388231 1
6.41941 -12.3843 -2.71145 0.000220463 1
6.78894 -13.0972 -2.33651 0.00209127 10
6.78305 -13.0858 -1.80977 0.00212769 10
6.82023 -13.1576 -1.2966 0.000725077 10
6.81557 -13.1486 -0.77616 0.000731708 10
6.81351 -13.1446 -0.258432 0.000735234 10
6.81616 -13.1497 0.258532 0.000735618 10
6.80953 -13.1369 0.775473 0.000732856 10
6.77734 -13.0748 1.28844 0.00168065 10
6.78644 -13.0924 1.81067 0.00165914 10
6.78305 -13.0858 2.33449 0.00163079 10
6.77742 -13.075 2.86266 0.00159587 10
6.78663 -13.0927 3.40465 0.00155472 10
6.78924 -13.0978 3.95301 0.00150774 10
4.69711 -8.98474 -2.71659 0.000623381 1
5.45287 -10.4304 -2.71726 0.000388265 1
6.46311 -12.3628 -2.71166 0.000220486 1
6.84861 -13.1002 -2.3413 0.00207801 10
6.84847 -13.0999 -1.81501 0.00211421 10
6.84473 -13.0928 -1.29256 0.00141463 10
6.8485 -13.1 -0.774699 0.00142684 10
6.84634 -13.0958 -0.257942 0.00143298 10
6.84454 -13.0924 0.257874 0.001433 10
6.83583 -13.0757 0.773266 0.00142689 10
6.84207 -13.0877 1.29205 0.00167001 10
6.84219 -13.0879 1.81334 0.00164863 10
6.84143 -13.0865 2.33884 0.00162045 10
6.83748 -13.0789 2.86873 0.00158574 10
6.84686 -13.0968 3.4119 0.00154484 10
6.84274 -13.089 3.95753 0.00149815 10
4.72587 -8.96341 -2.71512 0.000623427 1
5.47722 -10.3885 -2.71131 0.000388299 1
6.50442 -12.3367 -2.71091 0.000220509 1
6.90192 -13.0907 -2.34388 0.00206472 10
6.89655 -13.0805 -1.81564 0.00210069 10
6.90272 -13.0922 -1.29487 0.00140559 10
6.90333 -13.0933 -0.775726 0.00141772 10
6.90014 -13.0873 -0.258246 0.00142383 10
6.90363 -13.0939 0.258376 0.00142385 10
6.89839 -13.084 0.77517 0.00141778 10
6.899 -13.0851 1.29417 0.00165934 10
6.90018 -13.0874 1.81659 0.00163809 10
6.8957 -13.0789 2.34177 0.00161008 10
6.89944 -13.086 2.87554 0.00157559 10
6.90522 -13.0969 3.41819 0.00153494 10
6.90368 -13.094 3.96631 0.00148853 10
4.76319 -8.95826 -2.71857 0.000623472 1
5.51929 -10.3803 -2.71418 0.000388332 1
6.55435 -12.3269 -2.71377 0.000220532 1
6.96354 -13.0965 -2.34927 0.00205139 10
6.9516 -13.0741 -1.81811 0.00208714 10
9.44937 -17.7717 -1.76094 0.000954639 10
9.44492 -17.7633 -1.05435 0.000963312 10
9.448 -17.7691 -0.351279 0.000967678 10
9.44856 -17.7702 0.3513 0.000967692 10
9.43976 -17.7536 1.05377 0.000963353 10
6.95585 -13.0821 1.29626 0.00164864 10
6.96274 -13.095 1.82102 0.00162753 10
6.95425 -13.079 2.34614 0.00159969 10
6.95643 -13.0831 2.88024 0.00156541 10
6.96275 -13.095 3.42402 0.00152501 10
6.95861 -13.0872 3.9716 0.0014789 10
4.78238 -8.9191 -2.71174 0.000623518 1
5.55377 -10.3577 -2.71334 0.000388366 1
6.5984 -12.306 -2.71421 0.000220555 1
7.02006 -13.0924 -2.35291 0.00203804 10
7.01267 -13.0786 -1.82213 0.00207357 10
7.08666 -13.2166 -1.31203 0.000721782 10
7.08425 -13.2121 -0.785672 0.000728385 10
7.08221 -13.2083 -0.261603 0.00073189 10
7.08349 -13.2106 0.261649 0.000732263 10
7.08342 -13.2105 0.78558 0.000729499 10
7.02119 -13.0945 1.29991 0.00163792 10
7.01966 -13.0916 1.82394 0.00161694 10
7.00997 -13.0735 2.34953 0.00158928 10
7.01317 -13.0795 2.88482 0.00155521 10
7.02134 -13.0947 3.43033 0.00151506 10
7.02104 -13.0942 3.98112 0.00146924 10
4.81487 -8.90492 -2.71252 0.000623563 1
5.58893 -10.3365 -2.71287 0.000388399 1
6.63932 -12.2792 -2.71339 0.000220578 1
7.06959 -13.0749 -2.3542 0.00202465 10
7.07007 -13.0758 -1.82517 0.00205996 10
7.09303 -13.1183 -1.30473 0.000738527 10
7.08942 -13.1116 -0.781164 0.000745274 10
7.0908 -13.1142 -0.260227 0.000748856 10
7.07726 -13.0891 0.25973 0.000749234 10
7.07914 -13.0926 0.780032 0.000746406 10
7.07831 -13.0911 1.30202 0.00162718 10
7.07355 -13.0823 1.82607 0.00160633 10
7.07975 -13.0937 2.35758 0.00157884 10
7.08013 -13.0944 2.89354 0.00154499 10
7.08078 -13.0956 3.43701 0.0015051 10
7.06872 -13.0733 3.98226 0.00145956 10
4.84789 -8.89166 -2.71362 0.000623609 1
5.62919 -10.3247 -2.7149 0.000388432 1
6.67742 -12.2472 -2.71147 0.000220601 1
7.14043 -13.0965 -2.36255 0.00201124 10
7.12818 -13.074 -1.82838 0.00204632 10
7.13789 -13.0918 -1.30456 0.00136924 10
7.14075 -13.0971 -0.781778 0.00138106 10
7.12907 -13.0756 -0.259955 0.00138702 10
7.1301 -13.0775 0.259992 0.00138704 10
7.13877 -13.0934 0.781561 0.00138112 10
7.13979 -13.0953 1.30491 0.00161642 10
7.13298 -13.0828 1.82961 0.0015957 10
7.13828 -13.0925 2.36184 0.00156838 10
7.14009 -13.0958 2.89934 0.00153474 10
7.13604 -13.0884 3.44164 0.00149511 10
7.13298 -13.0828 3.99271 0.00144986 10
4.87931 -8.87543 -2.71385 0.000623654 1
5.66598 -10.3064 -2.71528 0.000388466 1
6.71753 -12.2191 -2.71042 0.000220624 1
7.19399 -13.0858 -2.36514 0.00199781 10
7.19829 -13.0936 -1.83463 0.00203266 10
13.8545 -25.2012 -2.51604 3.46089e-05 10
13.9178 -25.3164 -1.51405 0.000186912 10
13.9159 -25.313 -0.504207 0.000187933 10
13.9156 -25.3123 0.504194 0.000188039 10
9.88105 -17.9736 1.07491 5.36001e-05 10
7.19225 -13.0827 1.30614 0.00160563 10
7.19795 -13.093 1.83454 0.00158504 10
7.18926 -13.0772 2.36359 0.00155791 10
7.18962 -13.0779 2.9009 0.00152448 10
7.19675 -13.0908 3.44886 0.0014851 10
7.19715 -13.0916 4.00302 0.00144014 10
4.91158 -8.86072 -2.71458 0.0006237 1
5.6936 -10.2715 -2.71131 0.000388499 1
6.76296 -12.2007 -2.71155 0.000220647 1
7.24949 -13.0784 -2.36837 0.00198434 10
7.25584 -13.0899 -1.83764 0.00201898 10
13.923 -25.1178 -2.51255 0.000189753 10
13.9269 -25.1248 -1.5055 0.000191722 10
13.9249 -25.1212 -0.501352 0.000192767 10
13.9232 -25.1182 0.501291 0.000192876 10
9.95136 -17.9527 1.07574 5.35776e-05 10
7.2517 -13.0824 1.30864 0.00159483 10
7.25124 -13.0816 1.83647 0.00157437 10
7.24821 -13.0761 2.36795 0.00154741 10
7.25945 -13.0964 2.91062 0.0015142 10
7.25877 -13.0952 3.45665 0.00147507 10
7.25389 -13.0864 4.00915 0.0014304 10
4.94787 -8.85318 -2.71754 0.000623745 1
5.72744 -10.248 -2.71038 0.000388532 1
6.80103 -12.169 -2.70977 0.00022067 1
7.30924 -13.0784 -2.37296 0.00197086 10
7.31815 -13.0943 -1.84183 0.00200527 10
7.36 -13.1692 -1.31988 0.000735025 10
7.35595 -13.1619 -0.790205 0.000741744 10
7.34913 -13.1497 -0.262944 0.000745305 10
7.3579 -13.1654 0.263257 0.000745672 10
7.35366 -13.1578 0.789959 0.000742844 10
7.31252 -13.0842 1.31137 0.001584 10
7.31172 -13.0828 1.84021 0.00156368 10
7.3197 -13.0971 2.37635 0.0015369 10
7.31474 -13.0882 2.91445 0.0015039 10
7.31346 -13.0859 3.46092 0.00146503 10
7.31 -13.0797 4.0149 0.00142065 10
4.97923 -8.8367 -2.7178 0.00062379 1
5.76878 -10.2379 -2.71301 0.000388565 1
6.85234 -12.1609 -2.71328 0.000220693 1
7.3802 -13.0977 -2.38114 0.00195735 10
7.37031 -13.0802 -1.84346 0.00199154 10
7.36805 -13.0762 -1.31313 0.0013326 10
7.36828 -13.0766 -0.786621 0.00134412 10
7.37976 -13.097 -0.262402 0.00134992 10
7.37612 -13.0905 0.262273 0.00134994 10
7.38047 -13.0982 0.787923 0.00134418 10
7.37209 -13.0834 1.31385 0.00157316 10
7.37364 -13.0861 1.84429 0.00155297 10
7.37757 -13.0931 2.38029 0.00152636 10
7.37109 -13.0816 2.91869 0.00149359 10
7.37682 -13.0917 3.46926 0.00145497 10
7.36942 -13.0786 4.02244 0.00141088 10
5.00227 -8.80558 -2.71358 0.000623835 1
5.80657 -10.2214 -2.71399 0.000388598 1
6.89415 -12.1359 -2.71305 0.000220715 1
7.43797 -13.0932 -2.38502 0.00194383 10
7.4265 -13.073 -1.84609 0.00197778 10
7.43313 -13.0847 -1.31658 0.0013234 10
7.43392 -13.0861 -0.788747 0.00133485 10
7.44083 -13.0982 -0.262946 0.00134061 10
7.43057 -13.0802 0.262584 0.00134063 10
7.43464 -13.0873 0.788823 0.0013349 10
7.43391 -13.0861 1.31672 0.0015623 10
7.43929 -13.0955 1.84927 0.00154225 10
7.42665 -13.0733 2.38139 0.00151581 10
7.43461 -13.0873 2.92573 0.00148326 10
7.42905 -13.0775 3.47234 0.00144489 10
7.43531 -13.0885 4.03344 0.0014011 10
5.03237 -8.78701 -2.71326 0.00062388 1
5.84634 -10.2083 -2.7159 0.000388631 1
6.93773 -12.114 -2.71354 0.000220738 1
7.48928 -13.077 -2.38682 0.00193028 10
7.49585 -13.0885 -1.85196 0.00196401 10
13.9191 -24.3041 -2.45036 0.000209559 10
13.9259 -24.316 -1.46854 0.000211717 10
13.9135 -24.2943 -0.488679 0.000212861 10
13.9177 -24.3017 0.488827 0.000212977 10
10.2029 -17.8153 1.07594 5.34883e-05 10
7.49038 -13.0789 1.31863 0.00155143 10
7.49408 -13.0854 1.85152 0.00153151 10
7.50054 -13.0967 2.39041 0.00150525 10
7.48798 -13.0748 2.92876 0.00147291 10
7.49984 -13.0955 3.48404 0.0014348 10
7.50115 -13.0977 4.04433 0.0013913 10
5.07201 -8.78499 -2.71808 0.000623925 1
5.87809 -10.1811 -2.71413 0.000388664 1
6.97023 -12.0728 -2.70975 0.000220761 1
7.55031 -13.0775 -2.3917 0.00191671 10
7.55865 -13.092 -1.85617 0.00195021 10
7.62278 -13.203 -1.33381 0.000731868 10
7.62233 -13.2023 -0.798939 0.00073856 10
7.61967 -13.1976 -0.266004 0.000742103 10
7.6308 -13.2169 0.266392 0.000742461 10
7.62818 -13.2124 0.799552 0.00073963 10
7.55712 -13.0893 1.32233 0.00154054 10
7.55478 -13.0853 1.85522 0.00152075 10
7.55429 -13.0844 2.39297 0.00149467 10
7.55762 -13.0902 2.93811 0.00146255 10
7.5476 -13.0728 3.485 0.0014247 10
7.55035 -13.0776 4.04622 0.00138149 10
5.10236 -8.76673 -2.71793 0.000623969 1
5.90646 -10.1483 -2.71085 0.000388697 1
7.00861 -12.042 -2.70831 0.000220783 1
7.61187 -13.0785 -2.39673 0.00190313 10
7.60904 -13.0736 -1.85733 0.0019364 10
7.62229 -13.0964 -1.32572 0.000747664 10
7.62402 -13.0994 -0.794318 0.000754492 10
7.62908 -13.1081 -0.264733 0.000758106 10
7.62907 -13.108 0.264733 0.000758469 10
7.62852 -13.1071 0.794787 0.000755578 10
7.61721 -13.0877 1.32484 0.00152963 10
7.6091 -13.0737 1.85734 0.00150998 10
7.61293 -13.0803 2.39706 0.00148408 10
7.62277 -13.0972 2.94564 0.00145217 10
7.60853 -13.0728 3.49204 0.00141458 10
7.61726 -13.0878 4.05757 0.00137167 10
5.12589 -8.73687 -2.7142 0.000624014 1
5.94021 -10.1249 -2.71011 0.00038873 1
7.05745 -12.0291 -2.71094 0.000220806 1
7.68166 -13.0931 -2.4043 0.00188953 10
7.68285 -13.0951 -1.86418 0.00192257 10
7.67438 -13.0807 -1.32683 0.00128648 10
7.67224 -13.077 -0.794581 0.00129762 10
7.67241 -13.0773 -0.264651 0.00130323 10
7.67807 -13.087 0.264846 0.00130325 10
7.68347 -13.0962 0.795745 0.00129767 10
7.68149 -13.0928 1.32806 0.00151872 10
7.68036 -13.0909 1.86357 0.0014992 10
7.67927 -13.089 2.40355 0.00147347 10
7.67991 -13.0901 2.95005 0.00144179 10
7.68349 -13.0962 3.50545 0.00140445 10
7.68231 -13.0942 4.06785 0.00136183 10
5.16253 -8.72936 -2.71745 0.000624058 1
5.9748 -10.1028 -2.70978 0.000388763 1
7.10423 -12.0126 -2.71279 0.000220829 1
7.74268 -13.0922 -2.40908 0.00187591 10
7.7368 -13.0822 -1.86618 0.00190873 10
13.9194 -23.5364 -2.39232 0.000230566 10
13.9123 -23.5245 -1.43233 0.000232924 10
13.914 -23.5273 -0.477112 0.000234172 10
13.9124 -23.5247 0.477059 0.000234296 10
10.4526 -17.6744 1.07614 5.33999e-05 10
7.73663 -13.0819 1.32969 0.00150779 10
7.7413 -13.0898 1.86726 0.0014884 10
7.74255 -13.0919 2.40904 0.00146285 10
7.73507 -13.0793 2.95368 0.00143139 10
7.73273 -13.0753 3.50707 0.00139431 10
7.74284 -13.0924 4.07567 0.00135199 10
5.18159 -8.6922 -2.7115 0.000624103 1
6.01389 -10.0884 -2.71152 0.000388795 1
7.13905 -11.9759 -2.71011 0.000220851 1
7.80416 -13.0916 -2.41397 0.00186228 10
7.79906 -13.0831 -1.87016 0.00189487 10
7.8965 -13.2465 -1.34921 0.000728981 10
7.89159 -13.2383 -0.807707 0.00073565 10
7.89344 -13.2414 -0.26908 0.000739176 10
7.89652 -13.2465 0.269185 0.000739525 10
7.88985 -13.2354 0.807529 0.000736693 10
7.79292 -13.0728 1.33151 0.00149684 10
7.79681 -13.0793 1.86963 0.0014776 10
7.8018 -13.0876 2.41324 0.00145223 10
7.80714 -13.0966 2.96372 0.00142098 10
7.7995 -13.0838 3.51661 0.00138416 10
7.80371 -13.0908 4.08364 0.00134213 10
5.2227 -8.69203 -2.71712 0.000624147 1
6.0583 -10.0827 -2.71566 0.000388828 1
7.18016 -11.9498 -2.70986 0.000220873 1
7.85568 -13.074 -2.41578 0.00184864 10
7.86837 -13.0952 -1.87581 0.001881 10
7.89361 -13.1372 -1.34087 0.00074424 10
7.8919 -13.1343 -0.803042 0.00075104 10
7.88975 -13.1308 -0.26739 0.000754635 10
7.8913 -13.1333 0.267442 0.000754989 10
7.89906 -13.1463 0.803771 0.000752098 10
7.86004 -13.0813 1.33517 0.00148589 10
7.86334 -13.0868 1.87461 0.00146678 10
7.86219 -13.0849 2.41778 0.00144159 10
7.8607 -13.0824 2.9667 0.00141056 10
7.86919 -13.0965 3.5274 0.001374 10
7.86047 -13.082 4.08942 0.00133226 10
5.25133 -8.67098 -2.71625 0.000624191 1
6.09363 -10.0618 -2.71574 0.00038886 1
7.21739 -11.9173 -2.7082 0.000220896 1
7.92552 -13.0866 -2.42319 0.00183498 10
7.91876 -13.0754 -1.87693 0.00186711 10
7.92241 -13.0815 -1.338 0.00124939 10
7.91834 -13.0747 -0.801083 0.00126022 10
7.92989 -13.0938 -0.2672 0.00126568 10
7.93162 -13.0967 0.267258 0.00126569 10
7.92354 -13.0833 0.801609 0.00126028 10
7.92177 -13.0804 1.33789 0.00147493 10
7.92856 -13.0916 1.87926 0.00145596 10
7.92358 -13.0834 2.4226 0.00143094 10
7.92721 -13.0894 2.97454 0.00140013 10
7.93093 -13.0955 3.53457 0.00136383 10
7.92423 -13.0845 4.0988 0.00132239 10
5.28464 -8.65763 -2.71783 0.000624235 1
6.12485 -10.0341 -2.71403 0.000388892 1
7.26804 -11.907 -2.71159 0.000220918 1
7.98119 -13.0753 -2.42624 0.00182132 10
7.98994 -13.0896 -1.88296 0.00185322 10
7.98053 -13.0742 -1.3401 0.00124009 10
13.7372 -22.5052 -1.38181 0.000265284 10
13.7412 -22.5117 -0.460364 0.00026669 10
13.7341 -22.5001 0.460125 0.000266827 10
10.7074 -17.5415 1.07704 5.33123e-05 10
7.99125 -13.0918 1.3419 0.00146396 10
7.98882 -13.0878 1.8827 0.00144512 10
7.98993 -13.0896 2.4289 0.00142028 10
7.98279 -13.0779 2.97825 0.00138969 10
7.99398 -13.0963 3.54227 0.00135365 10
7.98527 -13.082 4.10673 0.00131251 10
5.31411 -8.63796 -2.71746 0.000624279 1
6.16187 -10.016 -2.71492 0.000388925 1
7.31097 -11.8838 -2.71211 0.00022094 1
8.04429 -13.0758 -2.43154 0.00180764 10
8.05456 -13.0925 -1.88741 0.00183932 10
13.7982 -22.4287 -2.30386 0.00043269 10
13.8079 -22.4445 -1.38103 0.000436852 10
13.8008 -22.4329 -0.459735 0.000438948 10
13.8021 -22.4349 0.459776 0.000438955 10
10.7688 -17.5045 1.07707 5.32906e-05 10
8.05294 -13.0899 1.34458 0.00145299 10
8.05732 -13.097 1.88806 0.00143428 10
8.04216 -13.0723 2.43089 0.00140962 10
8.05194 -13.0882 2.98699 0.00137925 10
8.04305 -13.0738 3.54377 0.00134347 10
8.04442 -13.076 4.11365 0.00130262 10
5.33606 -8.60619 -2.71331 0.000624323 1
6.19509 -9.99166 -2.71417 0.000388957 1
7.34474 -11.8458 -2.70928 0.000220962 1
8.11925 -13.095 -2.44036 0.00179396 10
8.11585 -13.0895 -1.89105 0.0018254 10
8.1692 -13.1756 -1.3563 0.000741059 10
8.17217 -13.1804 -0.812754 0.000747833 10
8.17082 -13.1782 -0.270653 0.00075141 10
8.17085 -13.1782 0.270654 0.000751754 10
8.16453 -13.168 0.811994 0.000748864 10
8.11736 -13.092 1.3477 0.001442 10
8.10814 -13.0771 1.88925 0.00142343 10
8.10926 -13.0789 2.43736 0.00139895 10
8.11041 -13.0807 2.99172 0.0013688 10
8.11658 -13.0907 3.55601 0.00133328 10
8.10651 -13.0745 4.12204 0.00129273 10
5.37279 -8.59826 -2.7167 0.000624367 1
6.22918 -9.96877 -2.71385 0.000388989 1
7.38777 -11.8229 -2.70992 0.000220985 1
8.17573 -13.0839 -2.4436 0.00178027 10
8.18016 -13.091 -1.89538 0.00181148 10
8.17745 -13.0867 -1.35008 0.00121218 10
8.17774 -13.0871 -0.808759 0.00122271 10
8.16814 -13.0718 -0.269051 0.00122801 10
8.17498 -13.0827 0.269276 0.00122802 10
8.17616 -13.0846 0.808604 0.00122276 10
8.17705 -13.086 1.35001 0.00143101 10
8.17945 -13.0899 1.89521 0.00141258 10
8.1706 -13.0757 2.44206 0.00138827 10
8.17289 -13.0794 2.99791 0.00135834 10
8.17927 -13.0896 3.56343 0.00132308 10
8.16921 -13.0735 4.13069 0.00128283 10
5.02828 -7.98477 -2.5284 0.000624098 4
6.26291 -9.94534 -2.7134 0.000389021 1
7.43213 -11.802 -2.71106 0.000221007 1
8.23313 -13.074 -2.4471 0.00176657 10
8.24673 -13.0956 -1.9002 0.00179756 10
8.24287 -13.0895 -1.35333 0.00120287 10
8.23295 -13.0737 -0.809701 0.00121332 10
8.24416 -13.0915 -0.270048 0.00121858 10
8.23732 -13.0806 0.269824 0.0012186 10
8.23518 -13.0773 0.809921 0.00121337 10
8.23415 -13.0756 1.3519 0.00142002 10
8.2319 -13.072 1.89678 0.00140172 10
8.23635 -13.0791 2.44805 0.0013776 10
8.23522 -13.0773 3.00401 0.00134789 10
8.24172 -13.0876 3.57072 0.00131288 10
8.23499 -13.077 4.14085 0.00127293 10
5.04876 -7.95558 -2.52472 0.000731907 4
6.29697 -9.92244 -2.71314 0.000389053 1
7.46555 -11.7638 -2.70826 0.000221029 1
8.30339 -13.0841 -2.45439 0.00175287 10
8.3098 -13.0941 -1.90419 0.00178363 10
14.2327 -22.4271 0.463642 0.00042427 10
11.0189 -17.3629 1.07772 5.32042e-05 10
8.29584 -13.0722 1.35453 0.00140902 10
8.30482 -13.0863 1.90305 0.00139086 10
8.30728 -13.0902 2.45554 0.00136691 10
8.30557 -13.0875 3.01299 0.00133742 10
8.3065 -13.089 3.57897 0.00130268 10
8.29741 -13.0746 4.14926 0.00126302 10
5.0725 -7.93165 -2.52273 0.000642147 4
6.32933 -9.8969 -2.71218 0.000389085 1
7.50671 -11.7379 -2.70831 0.000221051 1
8.36524 -13.0804 -2.45916 0.00173917 10
8.3707 -13.0889 -1.90766 0.0017697 10
8.44412 -13.2037 -1.3712 0.000738062 10
8.43043 -13.1823 -0.820052 0.000744811 10
8.44072 -13.1984 -0.273462 0.000748372 10
8.43559 -13.1904 0.273296 0.000748708 10
8.4334 -13.1869 0.820341 0.000745817 10
8.36008 -13.0723 1.35756 0.00139802 10
8.36332 -13.0774 1.90598 0.00137999 10
8.36816 -13.0849 2.46002 0.00135623 10
8.37508 -13.0958 3.0216 0.00132696 10
8.37462 -13.095 3.5886 0.00129248 10
8.36606 -13.0817 4.16073 0.00125312 10
5.10664 -7.92396 -2.52594 0.000390704 4
6.3681 -9.88136 -2.71399 0.000389117 1
7.55485 -11.7228 -2.7109 0.000221073 1
8.43971 -13.0959 -2.4676 0.00172546 10
8.42421 -13.0718 -1.90945 0.00175576 10
8.43794 -13.0931 -1.36277 0.000752486 10
8.43841 -13.0939 -0.816378 0.00075936 10
8.4408 -13.0976 -0.271982 0.000762985 10
8.43544 -13.0893 0.271809 0.000763326 10
8.4257 -13.0741 0.815148 0.000760378 10
8.43771 -13.0928 1.36273 0.00138702 10
8.42884 -13.079 1.9105 0.00136913 10
8.43822 -13.0936 2.46716 0.00134554 10
8.43875 -13.0944 3.02806 0.00131649 10
8.42515 -13.0733 3.59068 0.00128227 10
8.42947 -13.08 4.16953 0.00124321 10
5.13217 -7.90284 -2.5249 0.000534447 4
6.39907 -9.8537 -2.71252 0.000389149 1
7.58452 -11.6791 -2.7069 0.000221095 1
8.48998 -13.0734 -2.46894 0.00171175 10
8.4951 -13.0813 -1.91515 0.00174182 10
8.49262 -13.0775 -1.36422 0.00116559 10
8.49647 -13.0834 -0.817571 0.00117573 10
8.49951 -13.0881 -0.2724 0.00118084 10
8.49472 -13.0807 0.272246 0.00118085 10
8.50101 -13.0904 0.818008 0.00117578 10
8.49324 -13.0784 1.36432 0.00137601 10
8.50384 -13.0948 1.91712 0.00135826 10
8.49935 -13.0879 2.47166 0.00133485 10
8.50391 -13.0949 3.03502 0.00130602 10
8.49177 -13.0762 3.59959 0.00127206 10
8.48884 -13.0717 4.1763 0.0012333 10
5.16601 -7.89449 -2.52798 0.000570416 4
6.43302 -9.83068 -2.71234 0.00038918 1
7.63354 -11.6653 -2.70984 0.000221116 1
8.55577 -13.0746 -2.47478 0.00169805 10
8.56139 -13.0832 -1.91979 0.00172788 10
14.6867 -22.4437 0.46818 0.000409607 10
11.2512 -17.1937 1.07687 5.31188e-05 10
8.56488 -13.0885 1.36848 0.00136501 10
8.56117 -13.0828 1.91974 0.00134739 10
8.54436 -13.0572 2.47149 0.000866284 10
8.55308 -13.0705 3.03627 0.000847948 10
8.54704 -13.0612 3.60367 0.000826265 10
8.56626 -13.0906 4.19189 0.00122339 10
5.19051 -7.87183 -2.52651 0.000588422 4
6.4634 -9.80226 -2.71071 0.000389212 1
7.67843 -11.6449 -2.71133 0.000221138 1
8.62304 -13.0775 -2.48102 0.00168434 10
8.6264 -13.0826 -1.92412 0.00171395 10
8.70597 -13.2033 -1.38365 0.000735203 10
8.70581 -13.2031 -0.828825 0.00074193 10
8.69772 -13.1908 -0.275794 0.000745475 10
8.702 -13.1973 0.275929 0.000745803 10
8.71028 -13.2098 0.829251 0.000742912 10
8.62608 -13.0821 1.37095 0.00135401 10
8.62626 -13.0824 1.92408 0.00133652 10
8.55202 -12.9698 2.46059 0.000882825 10
8.55438 -12.9734 3.02064 0.000864152 10
8.54118 -12.9534 3.58212 0.000842071 10
8.62259 -13.0768 4.19709 0.00121348 10
5.21791 -7.85359 -2.52648 0.00058397 4
6.50252 -9.78709 -2.71277 0.000389243 1
7.70526 -11.5974 -2.70649 0.00022116 1
8.69898 -13.093 -2.48971 0.00167064 10
8.68934 -13.0785 -1.92796 0.00170001 10
8.71045 -13.1103 -1.37708 0.000749157 10
8.69911 -13.0932 -0.823831 0.000756004 10
8.70834 -13.1071 -0.274678 0.000759611 10
8.6982 -13.0918 0.274358 0.000759944 10
8.69795 -13.0915 0.823721 0.000756998 10
8.69988 -13.0944 1.37541 0.00134301 10
8.69088 -13.0808 1.9283 0.00132566 10
8.54239 -12.8573 2.44489 0.00089954 10
8.55551 -12.8771 3.00514 0.000880527 10
8.54797 -12.8657 3.56611 0.000858044 10
8.68544 -13.0726 4.20544 0.00120357 10
5.24508 -7.83501 -2.52638 0.000579517 4
6.54004 -9.76941 -2.71418 0.000389275 1
7.75192 -11.5797 -2.70867 0.000221181 1
8.75818 -13.0828 -2.49357 0.00165694 10
8.76442 -13.0921 -1.93447 0.00168609 10
8.76141 -13.0876 -1.37791 0.00112832 10
8.75062 -13.0715 -0.824383 0.00113815 10
8.75835 -13.0831 -0.274814 0.00114309 10
8.76137 -13.0876 0.274908 0.00114311 10
8.75114 -13.0723 0.824432 0.00113819 10
8.75859 -13.0834 1.37746 0.00133201 10
8.7536 -13.076 1.93208 0.0013148 10
8.55477 -12.779 2.43565 0.000916427 10
8.54876 -12.77 2.9871 0.00089707 10
8.54957 -12.7712 3.54816 0.000874181 10
8.76078 -13.0867 4.21978 0.00119367 10
5.27488 -7.82033 -2.52757 0.000570571 4
6.56014 -9.72582 -2.70842 0.000389306 1
7.79249 -11.5528 -2.70874 0.000221203 1
8.83272 -13.0951 -2.50176 0.00164324 10
8.82012 -13.0764 -1.93667 0.00167216 10
15.1292 -22.43 0.472255 0.00039499 10
11.4972 -17.0453 1.07752 5.30343e-05 10
8.8309 -13.0924 1.38164 0.00132101 10
8.81828 -13.0736 1.93627 0.00130394 10
8.58688 -12.7306 2.43213 0.00137564 10
8.57949 -12.7196 2.9823 0.00134601 10
8.58126 -12.7222 3.54286 0.0013111 10
8.81906 -13.0748 4.22584 0.00118377 10
5.29541 -7.79196 -2.52436 0.000624526 4
6.59439 -9.70335 -2.70856 0.000389338 1
7.83722 -11.5321 -2.71028 0.000221225 1
8.89259 -13.085 -2.50576 0.00162956 10
8.88924 -13.0801 -1.94181 0.00165824 10
8.97071 -13.2 -1.3963 0.00073244 10
8.98426 -13.2199 -0.837678 0.000739145 10
8.98359 -13.219 -0.278979 0.000742676 10
8.97233 -13.2024 0.278629 0.000742996 10
8.97909 -13.2123 0.837197 0.000740104 10
8.89908 -13.0946 1.38515 0.00131002 10
8.88613 -13.0755 1.94114 0.00129308 10
8.65452 -12.7347 2.43868 0.00136423 10
8.64097 -12.7148 2.98823 0.00133484 10
8.64862 -12.7261 3.55231 0.0013002 10
8.89386 -13.0869 4.23977 0.00117387 10
5.32646 -7.77909 -2.5262 0.000543689 4
6.63689 -9.69294 -2.7121 0.000389369 1
7.86593 -11.4879 -2.70632 0.000221246 1
8.9609 -13.0871 -2.51213 0.00161587 10
8.95892 -13.0842 -1.94705 0.00164433 10
8.98172 -13.1175 -1.39088 0.000745944 10
8.96864 -13.0984 -0.831954 0.000752765 10
8.97398 -13.1062 -0.277258 0.000756356 10
8.96912 -13.0991 0.277107 0.000756681 10
8.97867 -13.113 0.832884 0.000753736 10
8.9548 -13.0782 1.38671 0.00129904 10
8.96401 -13.0916 1.94815 0.00128224 10
9.00904 -13.1574 3.68145 0.000209777 10
8.95835 -13.0834 4.24872 0.00116398 10
5.35504 -7.76258 -2.52689 0.000539232 4
6.66762 -9.66526 -2.71085 0.0003894 1
7.91654 -11.4757 -2.70993 0.000221268 1
9.02219 -13.0784 -2.51649 0.0016022 10
9.03067 -13.0907 -1.9527 0.00163042 10
9.02546 -13.0831 -1.39057 0.00109109 10
9.0316 -13.0921 -0.83355 0.00110061 10
9.0329 -13.0939 -0.277664 0.0011054 10
9.02575 -13.0836 0.277444 0.00110542 10
9.01723 -13.0712 0.832224 0.00110066 10
9.02646 -13.0846 1.39072 0.00128806 10
9.01789 -13.0722 1.94993 0.00127139 10
9.06671 -13.1429 3.68625 0.000750026 10
9.02235 -13.0786 4.25739 0.0011541 10
5.38347 -7.7458 -2.52753 0.00063364 4
6.70593 -9.64858 -2.71272 0.000389431 1
7.94899 -11.4371 -2.70736 0.000221289 1
9.09228 -13.0821 -2.52329 0.00158853 10
9.09364 -13.084 -1.95643 0.00161653 10
9.34015 -13.4387 -1.43182 0.00105846 10
9.34108 -13.4401 -0.857777 0.00106818 10
9.33111 -13.4257 -0.285389 0.00107329 10
9.34175 -13.441 0.285714 0.00107375 10
9.32977 -13.4238 0.856739 0.00106955 10
9.09091 -13.0801 1.39361 0.00127709 10
9.09195 -13.0816 1.95606 0.00126056 10
9.13903 -13.1493 3.69697 0.000743611 10
9.09975 -13.0928 4.27232 0.00114422 10
5.39884 -7.71034 -2.52209 0.000426949 4
6.73674 -9.62106 -2.71158 0.000389462 1
7.98885 -11.4093 -2.70736 0.00022131 1
9.15388 -13.0731 -2.52771 0.00157488 10
9.15637 -13.0767 -1.96009 0.00160264 10
9.24875 -13.2086 -1.41073 0.000729739 10
9.24253 -13.1997 -0.844492 0.000736422 10
9.25374 -13.2157 -0.28161 0.000739938 10
9.24388 -13.2016 0.281309 0.000740252 10
9.2402 -13.1964 0.844279 0.00073736 10
9.1683 -13.0937 1.39846 0.00126613 10
9.1668 -13.0916 1.96232 0.00124973 10
9.20178 -13.1415 2.54093 0.000773755 10
9.2013 -13.1408 3.11825 0.000756972 10
9.20624 -13.1479 3.70557 0.0007372 10
9.1531 -13.072 4.27592 0.00113435 10
5.42331 -7.68803 -2.52098 0.000696647 4
6.76649 -9.59212 -2.71006 0.000389493 1
8.0262 -11.3779 -2.70654 0.000221332 1
9.23666 -13.0938 -2.53793 0.00156124 10
9.2274 -13.0807 -1.96551 0.00158877 10
9.24942 -13.1119 -1.40384 0.000742812 10
9.24771 -13.1095 -0.840779 0.000749609 10
9.25079 -13.1138 -0.280125 0.000753183 10
9.25108 -13.1142 0.280134 0.000753501 10
9.2482 -13.1102 0.840823 0.000750558 10
9.23652 -13.0936 1.40188 0.00125517 10
9.2316 -13.0866 1.9664 0.00123891 10
9.28057 -13.156 3.71698 0.000730795 10
9.22074 -13.0712 4.28618 0.00112449 10
5.46603 -7.69146 -2.52834 0.000588818 4
6.79894 -9.56704 -2.70967 0.000389523 1
8.07902 -11.3683 -2.71095 0.000221353 1
9.30032 -13.0868 -2.54285 0.0015476 10
9.29652 -13.0815 -1.97049 0.00157491 10
9.2936 -13.0774 -1.40361 0.00105396 10
9.29828 -13.0839 -0.841219 0.00106317 10
9.2991 -13.0851 -0.280203 0.0010678 10
9.29632 -13.0812 0.280119 0.00106782 10
9.29424 -13.0783 0.840853 0.00106322 10
9.30019 -13.0866 1.4046 0.00124423 10
9.29194 -13.075 1.96952 0.0012281 10
9.33908 -13.1414 3.72202 0.000724396 10
9.30044 -13.087 4.30196 0.00111464 10
5.48623 -7.66309 -2.52529 0.000651789 4
6.83659 -9.54925 -2.71137 0.000389554 1
8.10995 -11.3279 -2.70805 0.000221374 1
9.36507 -13.081 -2.54805 0.00153399 10
9.3707 -13.0889 -1.97652 0.00156107 10
9.37226 -13.091 -1.40858 0.00158162 10
9.37357 -13.0929 -0.843891 0.00159544 10
9.37355 -13.0928 -0.281068 0.0016024 10
9.3602 -13.0742 0.280667 0.00160243 10
9.3609 -13.0752 0.84275 0.00159551 10
9.36994 -13.0878 1.40823 0.0012333 10
9.36159 -13.0761 1.9746 0.00121731 10
9.42101 -13.1591 3.73634 0.000718005 10
9.36229 -13.0771 4.30943 0.0011048 10
5.50914 -7.63862 -2.52355 0.000548438 4
6.86662 -9.5208 -2.71008 0.000389585 1
8.15895 -11.3127 -2.7112 0.000221395 1
9.43196 -13.0777 -2.55382 0.00152039 10
9.42839 -13.0728 -1.97905 0.00154723 10
9.43389 -13.0804 -1.41097 0.00156761 10
9.44025 -13.0892 -0.845775 0.00158132 10
9.44321 -13.0933 -0.281784 0.00158822 10
9.42869 -13.0732 0.281351 0.00158825 10
9.44318 -13.0933 0.846038 0.00158139 10
9.43222 -13.0781 1.41072 0.00122238 10
9.43416 -13.0808 1.98026 0.00120652 10
9.48156 -13.1465 3.74214 0.00071162 10
9.44304 -13.0931 4.32554 0.00109497 10
5.54614 -7.63361 -2.52828 0.000427091 4
