VERSION 0.7
FIELDS x y z intensity label
SIZE 4 4 4 4 4
TYPE F F F F F
COUNT 1 1 1 1 1
WIDTH 1198
HEIGHT 1
VIEWPOINT 12.919 47.4981 2.72668 0.969356 -8.33496e-05 0.000875033 0.245657
POINTS 1198
DATA ascii
20.3664 10.3772 6.12471 0.000296219 10
8.7582 4.50111 -2.63853 0.000170863 4
10.4315 5.36107 -2.70774 0.000102682 4
11.7993 6.06401 -2.57871 0.000850041 4
15.1687 7.79564 -2.70119 0.000110498 1
17.8092 9.15267 -2.45857 8.85588e-05 10
20.2897 10.4275 1.19555 0.000336427 10
20.2768 10.4209 1.99456 0.000333385 10
17.8533 9.17535 2.46466 0.00051033 10
20.282 10.4235 6.11025 0.000296714 10
8.72812 4.52423 -2.63421 0.000370186 4
10.4231 5.40284 -2.71044 0.000390505 1
11.7742 6.10316 -2.57787 0.000775461 4
15.139 7.8473 -2.70076 0.000110489 1
17.7876 9.22021 -2.46002 8.85493e-05 10
20.2002 10.4708 1.19242 0.000336935 10
20.1944 10.4678 1.99003 0.00033389 10
17.8706 9.26322 2.47149 0.000508813 10
20.1954 10.4683 6.09512 0.000297181 10
8.72196 4.55973 -2.63714 0.000134237 4
10.4001 5.43704 -2.70937 0.000390484 1
11.7317 6.13319 -2.57324 0.000912155 4
15.1235 7.90636 -2.7029 0.00011048 1
17.7563 9.28276 -2.46015 8.85397e-05 10
20.0959 10.5059 1.18842 0.000337413 10
20.1082 10.5123 1.98514 0.000334365 10
17.8769 9.34581 2.47687 0.000507254 10
20.1126 10.5146 6.08116 0.000297622 10
8.70279 4.58846 -2.63617 0.000158637 4
10.3948 5.48055 -2.71295 0.000390463 1
11.6862 6.16142 -2.56795 0.000887112 4
15.0946 7.9585 -2.7027 0.000110471 1
17.7226 9.34409 -2.46 8.85301e-05 10
20.022 10.5564 1.18622 0.00033786 10
20.0325 10.5619 1.98129 0.000334809 10
17.9031 9.43926 2.48505 0.000505654 10
20.0337 10.5626 6.06842 0.000298036 10
8.6731 4.61157 -2.63204 0.000223709 4
10.3626 5.5099 -2.70956 0.000390442 1
11.6207 6.17885 -2.5583 0.000652555 4
15.0512 8.00287 -2.69991 0.000110462 1
17.6838 9.40264 -2.45915 8.85204e-05 10
19.9507 10.608 1.18418 0.000338276 10
19.9374 10.6009 1.97554 0.000335224 10
17.9009 9.51809 2.48934 0.000504014 10
19.9402 10.6024 6.05128 0.000298422 10
8.6783 4.65326 -2.63853 0.000113883 4
10.3374 5.54289 -2.70802 0.00039042 1
11.5947 6.21701 -2.55732 0.000759145 4
15.0294 8.05869 -2.70103 0.000110452 1
17.6435 9.46035 -2.45812 8.85107e-05 10
19.8603 10.649 1.18102 0.000338661 10
19.8601 10.6489 1.97155 0.000335607 10
17.9435 9.62124 2.49992 0.000502332 10
19.8458 10.6412 6.03387 0.00029878 10
8.64701 4.67542 -2.63396 0.000361968 4
10.3311 5.58601 -2.71145 0.000390399 1
11.5395 6.23936 -2.54993 0.000879982 4
14.9978 8.10928 -2.70042 0.000110443 1
17.6214 9.52787 -2.45966 8.8501e-05 10
19.7863 10.6984 1.17883 0.000339015 10
19.7872 10.6989 1.96801 0.000335959 10
17.9586 9.71018 2.50673 0.000500611 10
19.7773 10.6935 6.02434 0.000299112 10
8.62283 4.70132 -2.63158 4.47355e-05 4
10.3165 5.62472 -2.71274 0.000390378 1
11.4967 6.26822 -2.54531 0.000698441 4
14.9914 8.17356 -2.70438 0.000110434 1
17.5767 9.58312 -2.45807 8.84912e-05 10
19.6932 10.7371 1.17551 0.000339338 10
19.6848 10.7325 1.96153 0.000336281 10
17.9696 9.79737 2.51303 0.000598465 10
19.6829 10.7315 6.00697 0.000299415 10
8.62642 4.74241 -2.63771 0.000130134 4
10.2732 5.64774 -2.70654 0.000390356 1
11.4443 6.29157 -2.53855 0.000664105 4
14.9403 8.21352 -2.70033 0.000110425 1
17.5451 9.64548 -2.45834 8.84813e-05 10
19.6086 10.7799 1.1727 0.00033963 10
19.6091 10.7802 1.95773 0.000336572 10
18.0241 9.90881 2.52546 0.000593511 10
19.5969 10.7735 5.99217 0.000299691 10
8.59693 4.76536 -2.63376 0.000170792 4
10.2577 5.68594 -2.70766 0.000390335 1
11.3957 6.31672 -2.53263 0.00061613 4
14.9323 8.27714 -2.70409 0.000110415 1
17.5187 9.71076 -2.45938 8.84714e-05 10
19.5431 10.8329 1.17104 0.00033989 10
19.5382 10.8302 1.95441 0.000336831 10
18.057 10.0092 2.53495 0.000588531 10
19.5309 10.8261 5.9835 0.000299939 10
8.57844 4.79433 -2.63321 0.00021958 4
10.2501 5.7286 -2.71093 0.000390313 1
11.3731 6.35623 -2.53254 0.000811587 4
14.8894 8.3214 -2.70156 0.000110406 1
17.4872 9.77329 -2.45974 8.84615e-05 10
19.4476 10.8689 1.16758 0.000340118 10
19.4486 10.8695 1.94924 0.000337059 10
18.0856 10.1077 2.54391 0.000583527 10
19.444 10.8669 5.96847 0.000300159 10
8.56897 4.82837 -2.63546 0.00016671 4
10.2283 5.76335 -2.71046 0.000390291 1
11.3209 6.37902 -2.52587 0.000969721 4
14.8664 8.37679 -2.70268 0.000110397 1
17.4416 9.82781 -2.45813 8.84515e-05 10
19.3641 10.9111 1.16485 0.000340315 10
19.3644 10.9113 1.9446 0.000337255 10
18.1224 10.2114 2.55408 0.000578498 10
19.3685 10.9136 5.95695 0.00030035 10
10.1986 5.79361 -2.70793 0.00039027 1
11.2694 6.4019 -2.51933 0.00104294 4
14.8431 8.43206 -2.70378 0.000110387 1
17.4249 9.89871 -2.46063 8.84415e-05 10
19.2823 10.9539 -1.94019 0.000337122 10
19.294 10.9605 -1.16292 0.0003403 10
19.2979 10.9627 -0.387404 0.000341927 10
19.2852 10.9555 0.387148 0.000341988 10
19.2988 10.9632 1.16321 0.00034048 10
19.2999 10.9639 1.94196 0.00033742 10
18.1682 10.321 2.56559 0.000573446 10
19.2741 10.9492 4.30883 0.00031933 10
19.2929 10.9599 5.12264 0.000310541 10
19.2789 10.952 5.94112 0.000300514 10
8.53011 4.88524 -2.63393 0.000109774 4
10.1789 5.8295 -2.70808 0.000390248 1
11.2538 6.44512 -2.52087 0.00022696 4
14.8168 8.48567 -2.70436 0.000110378 1
17.3899 9.95929 -2.46059 8.84314e-05 10
19.2124 11.0031 -1.93701 0.000337254 10
19.2104 11.0019 -1.16019 0.000340432 10
19.2118 11.0027 -0.386446 0.00034206 10
19.2057 10.9992 0.386321 0.00034212 10
19.1959 10.9936 1.15931 0.000340613 10
19.2069 10.9999 1.93645 0.000337553 10
18.2104 10.4292 2.57668 0.000568372 10
19.1983 10.995 4.30044 0.000319464 10
19.2004 10.9962 5.10825 0.000310675 10
19.1982 10.9949 5.92802 0.000300649 10
8.52007 4.91906 -2.63612 0.000223604 4
10.1554 5.86324 -2.70727 0.000390226 1
11.2223 6.47922 -2.51887 0.000206021 4
14.7782 8.53217 -2.70273 0.000110368 1
17.3377 10.0099 -2.45813 8.84213e-05 10
19.1217 11.0399 -1.93173 0.000337355 10
19.1261 11.0425 -1.15742 0.000340532 10
19.1349 11.0475 -0.385671 0.00034216 10
19.1178 11.0376 0.385325 0.000342221 10
19.1364 11.0484 1.15805 0.000340714 10
19.1275 11.0433 1.93232 0.000337655 10
19.1316 11.0457 4.29412 0.000319568 10
19.1361 11.0482 5.10137 0.000310781 10
19.1255 11.0421 5.91746 0.000300755 10
8.50749 4.95148 -2.63756 0.000284573 4
10.1448 5.90439 -2.7099 0.000390204 1
11.2126 6.52587 -2.52177 9.97846e-05 4
14.7496 8.58446 -2.70296 0.000110359 1
17.3045 10.0714 -2.45839 8.84112e-05 10
19.0512 11.0881 -1.92851 0.000337423 10
19.0556 11.0906 -1.15549 0.000340601 10
19.0394 11.0812 -0.384525 0.000342228 10
19.0558 11.0907 0.384854 0.000342289 10
19.048 11.0862 1.15503 0.000340783 10
19.0616 11.0941 1.92957 0.000337725 10
19.0584 11.0922 4.28634 0.000319643 10
19.0586 11.0924 5.091 0.000310857 10
19.0359 11.0792 5.90167 0.000300834 10
8.48311 4.97701 -2.63537 8.9433e-05 4
10.1089 5.93083 -2.70583 0.00113881 4
11.1701 6.55344 -2.51734 0.000234961 4
14.7107 8.63072 -2.70135 0.000110349 1
17.2671 10.1306 -2.45809 8.8401e-05 10
18.977 11.1338 -1.92493 0.00033746 10
18.9658 11.1272 -1.1524 0.000340637 10
18.9809 11.136 -0.384124 0.000342264 10
18.9609 11.1243 0.383719 0.000342325 10
18.9765 11.1335 1.15305 0.000340819 10
18.9582 11.1227 1.92301 0.000337762 10
18.9695 11.1294 4.27507 0.000319686 10
18.9614 11.1246 5.07538 0.000310904 10
18.9741 11.132 5.8945 0.000300883 10
8.47484 5.012 -2.63822 0.000544702 4
10.0883 5.96623 -2.7059 0.000937079 4
11.1518 6.59514 -2.51839 0.000225289 4
14.679 8.68113 -2.70107 0.000110339 1
17.2507 10.2021 -2.46081 8.83908e-05 10
18.8999 11.1774 -1.92105 0.000337465 10
18.8971 11.1757 -1.15058 0.00034064 10
18.8977 11.1761 -0.383229 0.000342267 10
18.8969 11.1756 0.383213 0.000342328 10
18.8925 11.173 1.1503 0.000340823 10
18.8927 11.1731 1.92032 0.000337768 10
18.9018 11.1785 4.26857 0.0003197 10
18.89 11.1715 5.06667 0.00031092 10
18.8958 11.175 5.88227 0.000300904 10
8.46176 5.04422 -2.63961 9.34891e-05 4
10.051 5.99162 -2.70148 0.001163 4
11.1266 6.63281 -2.51793 0.000257456 4
14.6477 8.73177 -2.7009 0.00011033 1
17.2022 10.2545 -2.45898 8.83805e-05 10
18.8175 11.2175 -1.91665 0.000337438 10
18.8079 11.2118 -1.14753 0.000340612 10
18.815 11.216 -0.382344 0.000342238 10
18.8148 11.2159 0.382339 0.000342299 10
18.8027 11.2087 1.14721 0.000340795 10
18.819 11.2184 1.91679 0.000337741 10
18.8102 11.2131 4.25669 0.000319683 10
18.8116 11.214 5.05611 0.000310908 10
18.7995 11.2067 5.86443 0.000300896 10
8.4201 5.0593 -2.63211 0.000394261 4
9.99947 6.00829 -2.69324 0.0014655 4
11.1125 6.67708 -2.51999 0.000178597 4
14.63 8.79061 -2.70329 0.00011032 1
17.1656 10.3142 -2.45888 8.83702e-05 10
18.7307 11.2545 -1.91179 0.000337378 10
18.7478 11.2648 -1.14625 0.00034055 10
18.7252 11.2512 -0.381313 0.000342176 10
18.739 11.2595 0.381594 0.000342238 10
18.7291 11.2536 1.14511 0.000340734 10
18.7222 11.2494 1.91092 0.000337683 10
18.7265 11.252 2.68247 0.000333114 10
18.737 11.2583 3.46215 0.000327077 10
18.7257 11.2515 4.24644 0.000319635 10
18.7388 11.2594 5.04709 0.000310865 10
18.7292 11.2536 5.85472 0.00030086 10
8.42218 5.10066 -2.63831 0.00012193 4
9.95355 6.02808 -2.68653 0.000630798 4
11.0805 6.71058 -2.51802 0.00014319 4
14.59 8.83599 -2.70157 0.00011031 1
17.1972 10.415 -2.4686 0.000558452 10
18.6702 11.3071 -1.90963 0.000337287 10
18.6649 11.3039 -1.14359 0.000340457 10
18.6591 11.3004 -0.380769 0.000342081 10
18.6668 11.305 0.380925 0.000342143 10
18.6655 11.3042 1.14363 0.000340641 10
18.6483 11.2938 1.90739 0.000337592 10
18.6518 11.2959 2.6774 0.000333026 10
18.6556 11.2982 3.45439 0.000326994 10
18.6585 11.3 4.24011 0.000319557 10
18.6556 11.2982 5.03527 0.000310793 10
18.6602 11.301 5.84544 0.000300794 10
8.3978 5.12604 -2.63626 4.06414e-05 4
9.9154 6.05239 -2.68192 0.000700184 4
11.0647 6.7539 -2.51977 0.000202704 4
14.5602 8.88758 -2.70178 0.0001103 1
17.2312 10.518 -2.47874 0.000553113 10
18.5793 11.3409 -1.90438 0.000337162 10
18.5708 11.3357 -1.14024 0.00034033 10
18.5892 11.3469 -0.380149 0.000341954 10
18.5696 11.335 0.379748 0.000342016 10
18.5685 11.3343 1.1401 0.000340515 10
18.5688 11.3345 1.9033 0.000337468 10
18.5822 11.3426 2.67307 0.000332907 10
18.5904 11.3476 3.44963 0.000326879 10
18.5742 11.3377 4.22992 0.000319448 10
18.5769 11.3394 5.02468 0.000310691 10
18.5667 11.3331 5.82851 0.000300699 10
8.37908 5.15484 -2.63602 0.000203197 4
9.88941 6.084 -2.68061 0.00104285 4
11.0354 6.78902 -2.51849 0.000199473 4
14.5441 8.94758 -2.70457 0.00011029 1
17.2834 10.6328 -2.49157 0.000547758 10
18.4941 11.3776 -1.8997 0.000337006 10
18.5065 11.3853 -1.13873 0.000340171 10
18.4922 11.3765 -0.378974 0.000341793 10
18.5159 11.391 0.379459 0.000341855 10
18.5032 11.3832 1.13852 0.000340356 10
18.5092 11.3869 1.90125 0.000337312 10
18.4898 11.375 2.66548 0.000332755 10
18.512 11.3887 3.44243 0.000326733 10
18.4953 11.3784 4.22097 0.000319308 10
18.501 11.3819 5.01485 0.000310559 10
18.4929 11.3769 5.81777 0.000300576 10
8.3661 5.1872 -2.63762 0.000316972 4
9.84359 6.10329 -2.67395 0.00123849 4
11.0086 6.82563 -2.5178 0.000230021 4
14.4943 8.98687 -2.70114 0.00011028 1
17.3105 10.733 -2.50086 0.000542387 10
18.4244 11.4236 -1.89663 0.000336817 10
18.4168 11.4189 -1.13565 0.000339979 10
18.4342 11.4297 -0.378601 0.0003416 10
18.4138 11.417 0.378181 0.000341662 10
18.415 11.4178 1.13554 0.000340165 10
18.4165 11.4187 1.89581 0.000337124 10
18.4298 11.427 2.66256 0.000332571 10
18.4201 11.4209 3.43273 0.000326555 10
18.4204 11.4211 4.21296 0.000319137 10
18.4213 11.4217 5.00404 0.000310396 10
18.4221 11.4222 5.808 0.000300423 10
8.35494 5.22075 -2.63983 0.000308829 4
9.81336 6.13207 -2.67154 0.000998881 4
10.9941 6.86987 -2.51995 0.000207487 4
14.4827 9.04977 -2.70483 0.000110271 1
17.3529 10.8433 -2.51244 0.000537002 10
18.3624 11.4741 -1.89435 0.000336595 10
18.3512 11.4671 -1.13407 0.000339754 10
18.3422 11.4614 -0.37753 0.000341374 10
18.3564 11.4704 0.377823 0.000341436 10
18.3539 11.4688 1.13424 0.000339941 10
18.3566 11.4705 1.89376 0.000336903 10
18.3363 11.4578 2.65482 0.000332355 10
18.3529 11.4682 3.42766 0.000326345 10
18.3591 11.4721 4.20808 0.000318936 10
18.3465 11.4642 4.99455 0.000310204 10
18.3386 11.4592 5.79427 0.000300241 10
8.32379 5.24177 -2.63575 0.000130027 4
9.76719 6.15073 -2.6648 0.00120608 4
10.9568 6.89987 -2.51691 0.000197822 4
14.4326 9.08871 -2.7014 0.000110261 1
17.4038 10.9598 -2.52533 0.000589426 10
18.2719 11.5065 -1.88915 0.000336341 10
18.2693 11.5048 -1.13148 0.000339497 10
18.2729 11.5071 -0.37693 0.000341115 10
18.2852 11.5148 0.377183 0.000341177 10
18.2634 11.5011 1.13112 0.000339683 10
18.2818 11.5127 1.89017 0.00033665 10
18.2732 11.5073 2.65149 0.000332107 10
18.2654 11.5023 3.41879 0.000326104 10
18.275 11.5084 4.19797 0.000318704 10
18.2668 11.5032 4.98377 0.000309982 10
18.2616 11.4999 5.78257 0.00030003 10
8.29971 5.26715 -2.63393 0.000166588 4
9.71595 6.16593 -2.65667 0.00130016 4
10.9512 6.94982 -2.52116 0.000228364 4
14.4157 9.14845 -2.70418 0.000110251 1
17.4917 11.1006 -2.5437 0.000579522 10
18.2115 11.5574 -1.88707 0.000336054 10
18.1973 11.5484 -1.12952 0.000339206 10
18.186 11.5412 -0.375964 0.000340822 10
18.2068 11.5544 0.376396 0.000340885 10
18.19 11.5437 1.12906 0.000339393 10
18.2095 11.5561 1.88685 0.000336364 10
18.1887 11.5429 2.64505 0.000331827 10
18.2062 11.554 3.41523 0.000325832 10
18.1881 11.5425 4.18725 0.00031844 10
18.1879 11.5424 4.9732 0.000309729 10
18.1967 11.548 5.77476 0.000299789 10
8.28321 5.29733 -2.63454 8.93844e-05 4
9.68695 6.19506 -2.65464 0.00136621 4
10.9311 6.9907 -2.52214 0.000196186 4
14.3821 9.19774 -2.70389 0.000110241 1
17.5791 11.2423 -2.56209 0.000569665 10
18.1287 11.5938 -1.88266 0.000335734 10
18.126 11.5921 -1.1276 0.000338883 10
18.1351 11.5979 -0.375748 0.000340497 10
18.1228 11.59 0.375492 0.000340559 10
18.1157 11.5855 1.12695 0.00033907 10
18.1094 11.5814 1.88066 0.000336045 10
18.1103 11.582 2.63951 0.000331514 10
18.1237 11.5906 3.40734 0.000325527 10
18.1158 11.5855 4.17988 0.000318146 10
18.1218 11.5894 4.96616 0.000309446 10
18.1252 11.5915 5.76488 0.00029952 10
8.26528 5.32661 -2.63474 0.000239701 4
9.64707 6.21711 -2.64964 0.00130623 4
10.9042 7.02727 -2.52159 0.000192956 4
14.3553 9.25137 -2.70491 0.00011023 1
17.6734 11.3897 -2.58161 0.000559853 10
18.0528 11.6342 -1.87899 0.000335382 10
18.0416 11.627 -1.12486 0.000338526 10
18.0424 11.6275 1.87791 0.000335693 10
18.0527 11.6342 2.63703 0.000331169 10
18.0557 11.6361 3.40217 0.000325191 10
8.24966 5.35739 -2.63571 0.000223438 4
9.61299 6.24274 -2.64625 0.00135328 4
10.8798 7.06545 -2.52164 0.000170432 4
14.322 9.30082 -2.70474 0.00011022 1
17.7391 11.5199 -2.59707 0.000550089 10
17.97 11.6699 -1.8746 0.000334997 10
17.9634 11.6656 -1.12252 0.000338136 10
17.9652 11.6667 1.87409 0.000335309 10
17.9755 11.6734 2.63169 0.000330792 10
17.9667 11.6677 3.39304 0.000324823 10
8.24119 5.39288 -2.639 0.000146243 4
9.56328 6.25804 -2.63857 0.00138104 4
10.8427 7.09526 -2.51876 0.000200966 4
14.2825 9.3462 -2.70342 0.00011021 1
17.8423 11.6757 -2.61813 0.000540375 10
17.8984 11.7123 -1.87138 0.000334579 10
17.91 11.72 -1.12173 0.000337713 10
17.8984 11.7124 1.87139 0.000334891 10
17.9062 11.7175 2.6275 0.000330382 10
17.8888 11.7061 3.38603 0.000324423 10
9.5333 6.28605 -2.63633 0.00131972 4
10.8185 7.13346 -2.5189 0.000204167 4
14.2491 9.39556 -2.70329 0.0001102 1
17.8267 11.7545 -2.62184 0.000329507 10
17.8335 11.759 -1.86888 0.000334128 10
17.8252 11.7536 -1.11898 0.000337257 10
17.8281 11.7555 1.86831 0.000334441 10
17.8223 11.7516 2.6212 0.00032994 10
17.8192 11.7496 3.38059 0.000323991 10
8.19579 5.44527 -2.63657 0.000174661 4
9.50287 6.31369 -2.634 0.001028 4
10.793 7.17087 -2.51879 0.00019933 4
14.2243 9.45061 -2.70483 0.00011019 1
17.744 11.7891 -2.61572 0.000329031 10
17.7607 11.8002 -1.86555 0.000333644 10
17.741 11.7871 -1.11627 0.000336768 10
17.7505 11.7934 1.86448 0.000333958 10
17.7349 11.7831 2.61438 0.000329465 10
17.7423 11.788 3.3738 0.000323528 10
8.18601 5.48006 -2.63956 0.000255886 4
9.45354 6.3286 -2.62643 0.000913493 4
10.7666 7.20758 -2.51847 0.000225033 4
14.1904 9.49967 -2.70468 0.000110179 1
17.6828 11.8376 -2.61278 0.000328523 10
17.6712 11.8299 -1.86048 0.000333128 10
17.6864 11.84 -1.11543 0.000336246 10
17.6732 11.8311 1.86068 0.000333442 10
17.6707 11.8295 2.61099 0.000328958 10
17.6664 11.8266 3.36718 0.000323032 10
8.16757 5.5091 -2.6398 0.00038584 4
9.40873 6.34627 -2.62012 0.00123171 4
10.7407 7.2447 -2.51832 0.000221802 4
14.1465 9.5419 -2.70263 0.000110169 1
17.613 11.8801 -2.60857 0.000327983 10
17.6073 11.8763 -1.8581 0.000332578 10
17.5896 11.8643 -1.11193 0.00033569 10
17.6117 11.8792 1.85857 0.000332893 10
17.5918 11.8658 2.60543 0.000328419 10
17.5991 11.8707 3.36223 0.000322505 10
8.1289 5.52439 -2.63352 0.000117777 4
9.38753 6.37975 -2.6204 0.00111688 4
10.7285 7.29111 -2.52142 0.000205714 4
14.1238 9.59849 -2.70467 0.000110159 1
17.5199 11.9065 -2.60092 0.00032741 10
17.5276 11.9117 -1.85407 0.000331996 10
17.5328 11.9153 -1.11096 0.000335102 10
17.5158 11.9037 1.85282 0.000332311 10
17.5169 11.9045 2.60048 0.000327847 10
17.5232 11.9088 3.35567 0.000321945 10
8.11396 5.55574 -2.63495 0.000207113 4
9.34507 6.3987 -2.61477 0.00127634 4
10.6896 7.31935 -2.51827 0.000204092 4
14.086 9.6449 -2.70388 0.000110148 1
17.4494 11.9478 -2.59663 0.000326805 10
17.4676 11.9603 -1.85212 0.000331381 10
17.4603 11.9553 -1.109 0.00033448 10
17.4644 11.9581 1.85179 0.000331697 10
17.4625 11.9568 2.59858 0.000327242 10
17.4531 11.9504 3.35021 0.000321354 10
8.09098 5.58159 -2.63379 6.49734e-05 4
9.30368 6.41818 -2.60944 0.0011192 4
10.6668 7.35852 -2.51892 0.000118911 4
14.0617 9.70051 -2.70569 0.000110138 1
17.3719 11.9841 -2.59131 0.000326167 10
17.3897 11.9963 -1.84829 0.000330732 10
17.3719 11.9841 -1.10604 0.000333825 10
17.3795 11.9893 1.84722 0.000331049 10
17.3727 11.9846 2.59142 0.000326605 10
17.3909 11.9971 3.34627 0.00032073 10
8.07288 5.61079 -2.63426 0.000223334 4
9.2639 6.43857 -2.60457 0.00135255 4
10.6571 7.40685 -2.52271 0.000114082 4
14.0175 9.74242 -2.70372 0.000110127 1
17.3105 12.0311 -2.58839 0.000325496 10
17.3171 12.0357 -1.84503 0.000330051 10
17.3193 12.0372 -1.10536 0.000333136 10
17.3177 12.0361 1.8451 0.000330368 10
17.3101 12.0309 2.58835 0.000325935 10
17.3051 12.0274 3.33784 0.000320075 10
8.07243 5.65238 -2.64054 0.000170537 4
9.21831 6.45473 -2.59807 0.00124578 4
10.6233 7.43854 -2.52086 0.00020244 4
13.9887 9.795 -2.70474 0.000110117 1
17.2295 12.0642 -2.58256 0.000324793 10
17.2437 12.0741 -1.84169 0.000329337 10
17.2491 12.0779 -1.10356 0.000332415 10
17.2275 12.0628 1.83996 0.000329655 10
17.2472 12.0766 2.58523 0.000325233 10
17.2466 12.0762 3.33467 0.000319388 10
8.03245 5.66627 -2.63391 0.000158347 4
9.18451 6.47896 -2.5949 0.00143002 4
10.5935 7.47288 -2.51995 0.000175113 4
13.9446 9.83684 -2.70284 0.000110106 1
17.1555 12.1018 -2.57779 0.000324058 10
17.1686 12.1111 -1.83818 0.00032859 10
17.1676 12.1104 -1.10105 0.00033166 10
17.1578 12.1035 1.83702 0.000328908 10
17.1578 12.1035 2.57814 0.000324499 10
17.1516 12.0991 3.32443 0.000318669 10
8.02703 5.70451 -2.63865 0.000146159 4
9.16474 6.51304 -2.59572 0.00120686 4
10.5711 7.51252 -2.52086 0.000239357 4
13.9147 9.88868 -2.70372 0.000110096 1
17.0901 12.1453 -2.57433 0.00032329 10
17.0987 12.1514 -1.83522 0.00032781 10
17.1007 12.1529 -1.09947 0.000330872 10
17.0881 12.1439 1.83409 0.000328129 10
17.0869 12.143 2.57384 0.000323731 10
17.0982 12.151 3.32228 0.000317917 10
8.00451 5.73067 -2.63781 0.000223287 4
9.11473 6.5255 -2.58799 0.00151929 4
10.5477 7.55142 -2.52154 0.000200788 4
13.8749 9.93346 -2.7027 0.000110085 1
17.0277 12.1906 -2.57132 0.00032249 10
17.0182 12.1839 -1.83114 0.000326998 10
17.0127 12.1799 -1.09654 0.000330051 10
17.0196 12.1849 1.83129 0.000327317 10
17.0164 12.1825 2.56961 0.000322932 10
17.0091 12.1773 3.31322 0.000317134 10
7.97705 5.75323 -2.63536 0.000466847 4
9.09006 6.55596 -2.58747 0.00147432 4
10.5075 7.57823 -2.51823 0.000237714 4
13.8606 9.99658 -2.7067 0.000110074 1
16.9555 12.2287 -2.56685 0.000321657 10
16.9591 12.2313 -1.82936 0.000326152 10
16.9611 12.2328 -1.09596 0.000329197 10
16.9397 12.2173 1.82727 0.000326472 10
16.9537 12.2274 2.56657 0.0003221 10
16.9475 12.2229 3.30951 0.000316319 10
7.95471 5.77943 -2.63463 0.00012178 4
9.0391 6.56729 -2.57948 0.00100226 4
10.4909 7.62209 -2.52062 0.000176666 4
13.8159 10.0378 -2.70479 0.000110064 1
16.8874 12.2694 -2.563 0.000320792 10
16.8838 12.2668 -1.82584 0.000325274 10
16.8816 12.2652 -1.09358 0.00032831 10
16.88 12.2641 1.82544 0.000325594 10
16.8887 12.2703 2.5632 0.000321235 10
16.8741 12.2597 3.3035 0.000315473 10
7.95051 5.81889 -2.63995 0.000198896 4
8.99904 6.5863 -2.57459 0.0015005 4
10.461 7.65628 -2.51984 0.000218407 4
13.7904 10.093 -2.70667 0.000110053 1
16.818 12.3089 -2.55898 0.000319894 10
16.8161 12.3075 -1.82316 0.000324363 10
16.8051 12.2995 -1.0914 0.00032739 10
16.8121 12.3046 1.82273 0.000324683 10
16.7997 12.2955 2.55619 0.000320339 10
16.804 12.2987 3.29817 0.000314594 10
7.92202 5.84061 -2.63724 9.33544e-05 4
8.97967 6.62038 -2.57564 0.00161598 4
10.4308 7.69023 -2.51901 0.000216784 4
13.7518 10.1387 -2.70603 0.000110042 1
16.7362 12.339 -2.55307 0.000318965 10
16.7448 12.3454 -1.8201 0.000323419 10
16.7414 12.3428 -1.09006 0.000326436 10
16.7461 12.3463 1.82023 0.00032374 10
16.731 12.3351 2.55227 0.00031941 10
16.7336 12.3371 3.29279 0.000313684 10
7.90794 5.87295 -2.63936 7.71147e-05 4
8.92452 6.62793 -2.56645 0.00097455 4
10.4149 7.7348 -2.52169 0.000197499 4
13.7072 10.1798 -2.70423 0.000110031 1
16.6803 12.3879 -2.55112 0.000318003 10
16.6735 12.3828 -1.81703 0.000322442 10
16.6685 12.3791 -1.08812 0.00032545 10
16.6578 12.3711 1.81531 0.000322764 10
16.6693 12.3797 2.54943 0.000318448 10
16.6607 12.3733 3.28692 0.000312742 10
7.88791 5.90091 -2.63953 0.000344968 4
8.90091 6.65873 -2.56632 0.00132775 4
10.3836 7.76795 -2.52066 0.000171795 4
13.6705 10.2269 -2.70403 0.00011002 1
16.6075 12.424 -2.54661 0.000317008 10
16.6053 12.4223 -1.81431 0.000321433 10
16.6001 12.4185 -1.08648 0.00032443 10
16.5941 12.414 1.81309 0.000321755 10
16.5972 12.4163 2.54502 0.000317455 10
16.5918 12.4122 3.28185 0.000311768 10
7.85431 5.91865 -2.63519 0.000288134 4
8.86434 6.67976 -2.56249 0.000984408 4
10.366 7.81132 -2.52298 0.000240816 4
13.6412 10.2794 -2.7053 0.000110009 1
16.5332 12.4587 -2.54187 0.000315982 10
16.522 12.4502 -1.80995 0.000320391 10
16.5232 12.4511 -1.08428 0.000323378 10
16.5208 12.4493 1.80982 0.000320714 10
16.5173 12.4467 2.53942 0.000316429 10
16.5204 12.449 3.2763 0.000310763 10
7.83008 5.94335 -2.63401 9.7392e-05 4
8.8218 6.69611 -2.55693 0.00152793 4
10.3317 7.84217 -2.52128 0.000197453 4
13.5944 10.3187 -2.70315 0.000109999 1
16.447 12.4839 -2.53529 0.000314923 10
16.4479 12.4846 -1.80659 0.000319317 10
16.4666 12.4988 -1.08342 0.000322293 10
16.4591 12.4931 1.80782 0.00031964 10
16.4606 12.4943 2.5374 0.000315371 10
16.4484 12.485 3.27065 0.000309726 10
7.80734 5.96916 -2.63335 0.000572146 4
8.7908 6.72107 -2.55473 0.00139185 4
10.3098 7.88241 -2.52263 0.000199043 4
13.5603 10.3676 -2.70356 0.000109988 1
16.3935 12.5338 -2.53378 0.000313833 10
16.3936 12.5338 -1.80542 0.00031821 10
16.399 12.538 -1.08185 0.000321176 10
16.3916 12.5323 1.8052 0.000318533 10
16.3937 12.534 2.53381 0.000314281 10
16.3915 12.5323 3.26802 0.000308657 10
7.8014 6.00788 -2.6384 0.000320547 4
8.76225 6.74784 -2.55326 0.000710425 4
10.2765 7.91393 -2.52122 0.000186187 4
13.544 10.4303 -2.70754 0.000109977 1
16.3295 12.5754 -2.53065 0.00031271 10
16.3166 12.5654 -1.80176 0.000317071 10
16.3073 12.5583 -1.07868 0.000320025 10
16.31 12.5604 1.80103 0.000317394 10
16.3101 12.5605 2.52765 0.000313159 10
16.314 12.5635 3.26129 0.000307557 10
7.76717 6.02483 -2.63392 0.000198809 4
8.70551 6.75268 -2.54358 0.00113772 4
10.2403 7.94319 -2.51914 0.000173333 4
13.5087 10.4784 -2.70779 0.000109966 1
16.2524 12.6066 -2.5255 0.000311555 10
16.2609 12.6132 -1.80046 0.000315899 10
16.2565 12.6098 -1.07823 0.000318842 10
16.2531 12.6072 1.79959 0.000316223 10
16.2476 12.6029 2.52476 0.000312005 10
16.2468 12.6023 3.25664 0.000306426 10
7.74575 6.05164 -2.6338 0.000117656 4
8.66945 6.77332 -2.53994 0.00155784 4
10.2244 7.98821 -2.52209 0.000195787 4
13.4658 10.5207 -2.70654 0.000109954 1
16.1853 12.6453 -2.52193 0.000310369 10
16.177 12.6388 -1.79604 0.000314695 10
16.1885 12.6478 -1.07664 0.000317626 10
16.1751 12.6374 1.79584 0.00031502 10
16.1717 12.6347 2.51981 0.000310819 10
16.1798 12.641 3.25202 0.000305263 10
7.7259 6.07968 -2.63426 0.000742408 4
8.63274 6.79329 -2.53612 0.0016891 4
10.1848 8.01465 -2.51919 0.000189352 4
13.4332 10.5709 -2.70738 0.000109943 1
16.1122 12.6791 -2.51742 0.000309151 10
16.1013 12.6704 -1.79254 0.000313459 10
16.1119 12.6788 -1.07448 0.000316378 10
16.1096 12.677 1.79346 0.000313784 10
16.103 12.6718 2.51598 0.000309601 10
16.1166 12.6825 3.24821 0.000304069 10
7.71551 6.11524 -2.63798 0.000839726 4
8.61906 6.83138 -2.53909 0.000735384 4
10.1737 8.0636 -2.5234 0.000202174 4
13.3901 10.6129 -2.70615 0.000109932 1
16.0404 12.7135 -2.51312 0.000307901 10
16.0405 12.7136 -1.79071 0.000312191 10
16.0429 12.7154 -1.07283 0.000315098 10
16.0501 12.7212 1.79178 0.000312516 10
16.0364 12.7103 2.51249 0.000308352 10
16.0396 12.7128 3.2416 0.000302844 10
7.68932 6.1383 -2.63633 0.000693648 4
8.56958 6.84101 -2.53153 0.00161401 4
10.1404 8.09495 -2.52212 0.000178091 4
13.3516 10.6584 -2.70586 0.000109921 1
15.9855 12.7611 -2.51148 0.000306619 10
15.9703 12.7489 -1.78782 0.00031089 10
15.9796 12.7564 -1.07157 0.000313785 10
15.9857 12.7613 1.78955 0.000311216 10
15.9768 12.7541 2.51012 0.000307071 10
15.9835 12.7594 3.23924 0.000301588 10
7.66965 6.16656 -2.63695 0.000823407 4
8.5292 6.85765 -2.52666 0.001473 4
10.0989 8.11973 -2.51884 0.00017166 4
13.3257 10.7141 -2.70817 0.00010991 1
15.9151 12.7961 -2.50743 0.000305306 10
15.9152 12.7962 -1.78664 0.000309558 10
15.9078 12.7902 -1.06974 0.00031244 10
15.9155 12.7964 -0.356463 0.000313921 10
15.896 12.7807 0.356028 0.000313988 10
15.9114 12.7931 1.06999 0.000312637 10
15.9148 12.7958 1.7866 0.000309885 10
15.9133 12.7946 2.50714 0.000305758 10
15.8962 12.7809 3.23057 0.000300301 10
15.9035 12.7868 3.96661 0.000293569 10
15.8977 12.7821 4.70949 0.000285632 10
15.9021 12.7856 5.4674 0.000276571 10
7.64413 6.19009 -2.63559 0.000782801 4
8.5052 6.88738 -2.52666 0.000952071 4
10.0906 8.1712 -2.52387 0.000226188 4
13.2888 10.7611 -2.70829 0.000109899 1
15.8321 12.8206 -2.50138 0.000303962 10
15.8291 12.8182 -1.78199 0.000308194 10
15.8334 12.8216 -1.06775 0.000311063 10
15.8444 12.8306 -0.355874 0.000312538 10
15.8361 12.8238 0.355685 0.000312604 10
15.8296 12.8185 1.06749 0.00031126 10
15.8304 12.8192 1.78213 0.000308521 10
15.8489 12.8342 2.50403 0.000304414 10
15.8395 12.8266 3.22813 0.000298982 10
15.8433 12.8297 3.96275 0.000292282 10
15.845 12.831 4.7071 0.000284383 10
15.8391 12.8262 5.46109 0.000275365 10
7.63688 6.22849 -2.64057 0.000762478 4
8.47638 6.91317 -2.52525 0.000387569 4
10.0606 8.20519 -2.5235 0.000213337 4
13.2299 10.7901 -2.70395 0.000109887 1
15.7627 12.8557 -2.49748 0.000302586 10
15.7767 12.8672 -1.78114 0.000306798 10
15.7789 12.869 -1.06709 0.000309654 10
15.7603 12.8538 -0.35499 0.000311122 10
15.7707 12.8622 0.355223 0.000311188 10
15.7643 12.8571 1.06611 0.000309851 10
15.781 12.8706 1.78162 0.000307125 10
15.7736 12.8646 2.49922 0.000303039 10
15.7586 12.8524 3.22076 0.000297633 10
15.7731 12.8642 3.95639 0.000290966 10
15.7719 12.8632 4.6987 0.000283104 10
15.7594 12.8531 5.44907 0.00027413 10
7.60923 6.25029 -2.63854 0.000888155 4
8.44155 6.93396 -2.52207 0.000387543 4
10.034 8.24201 -2.52404 0.000216528 4
13.2086 10.8497 -2.70732 0.000109876 1
15.7081 12.9028 -2.49596 0.000301179 10
15.6978 12.8943 -1.7773 0.000305371 10
15.7051 12.9003 -1.06514 0.000308213 10
15.7049 12.9002 -0.354754 0.000309674 10
15.6992 12.8955 0.354624 0.00030974 10
15.7109 12.905 1.06553 0.00030841 10
15.6943 12.8915 1.77691 0.000305698 10
15.7006 12.8966 2.49477 0.000301632 10
15.7034 12.8989 3.21867 0.000296254 10
15.6909 12.8887 3.94704 0.000289619 10
15.6972 12.8938 4.68981 0.000281797 10
15.6979 12.8944 5.44332 0.000272866 10
7.57828 6.2693 -2.63538 0.000835386 4
8.41226 6.95922 -2.52056 0.00029485 4
9.9934 8.26726 -2.52107 0.000176416 4
13.175 10.8993 -2.7082 0.000109865 1
15.6305 12.9306 -2.49078 0.000299741 10
15.6394 12.9381 -1.7758 0.000303912 10
15.6476 12.9448 -1.0643 0.00030674 10
15.6336 12.9333 -0.354161 0.000308194 10
15.6255 12.9265 0.353976 0.00030826 10
15.6472 12.9444 1.06427 0.000306937 10
15.6257 12.9267 1.77424 0.00030424 10
15.6464 12.9438 2.49331 0.000300194 10
15.6367 12.9358 3.21424 0.000294843 10
15.6437 12.9416 3.94648 0.000288243 10
15.6401 12.9386 4.68623 0.00028046 10
15.6333 12.933 5.43654 0.000271575 10
7.57153 6.30836 -2.64067 0.000867778 4
8.38875 6.98924 -2.52081 0.000353796 4
9.96464 8.30222 -2.52111 0.000213285 4
13.1237 10.9343 -2.7055 0.000109853 1
15.5816 12.9821 -2.4902 0.000298272 10
15.5709 12.9732 -1.77315 0.000302422 10
15.5785 12.9795 -1.06267 0.000305235 10
15.5753 12.9768 -0.353864 0.000306682 10
15.5765 12.9778 0.35389 0.000306749 10
15.5612 12.9651 1.06149 0.000305433 10
15.5766 12.978 1.7738 0.000302749 10
15.5747 12.9763 2.4891 0.000298725 10
15.5674 12.9703 3.20928 0.000293403 10
15.5692 12.9718 3.9391 0.000286836 10
15.5596 12.9638 4.67565 0.000279094 10
15.5632 12.9668 5.42789 0.000270255 10
7.53622 6.32363 -2.63604 0.000778523 4
8.38459 7.0355 -2.52692 0.000146001 4
9.93228 8.33417 -2.52027 0.000213268 4
13.088 10.9822 -2.70603 0.000109842 1
15.4991 13.0052 -2.48425 0.000296771 10
15.4992 13.0053 -1.77013 0.0003009 10
15.5126 13.0166 -1.06127 0.000303699 10
15.5075 13.0123 -0.353353 0.000305139 10
15.5071 13.012 0.353344 0.000305205 10
15.5101 13.0145 1.0611 0.000303897 10
15.4991 13.0053 1.77013 0.000301228 10
15.4983 13.0047 2.48413 0.000297226 10
15.5106 13.015 3.20692 0.000291932 10
15.5005 13.0064 3.93318 0.0002854 10
15.5044 13.0097 4.67266 0.000277699 10
15.5059 13.011 5.42369 0.000268907 10
7.51029 6.34668 -2.6347 0.000786587 4
8.35846 7.06345 -2.52646 0.000109494 4
9.91383 8.37784 -2.523 0.000222871 4
13.0617 11.038 -2.70853 0.00010983 1
15.4286 13.0382 -2.48024 0.000295241 10
15.4456 13.0525 -1.76921 0.000299347 10
15.4309 13.0401 -1.05879 0.000302131 10
15.4468 13.0536 -0.353006 0.000303564 10
15.4458 13.0528 0.352984 0.00030363 10
15.4415 13.0491 1.05952 0.00030233 10
15.4462 13.0531 1.76928 0.000299675 10
15.4412 13.0488 2.48226 0.000295695 10
15.4387 13.0468 3.20145 0.00029043 10
15.425 13.0352 3.92555 0.000283934 10
15.4308 13.04 4.66418 0.000276275 10
15.4328 13.0417 5.41402 0.00026753 10
7.50772 6.38957 -2.64161 0.00082303 4
8.31553 7.07707 -2.52094 0.000373376 4
9.86977 8.39983 -2.51923 0.0001972 4
13.0247 11.0849 -2.70887 0.000109819 1
15.3733 13.0837 -2.47867 0.000293679 10
15.364 13.0758 -1.76508 0.000297763 10
15.3678 13.079 -1.05759 0.000300532 10
15.3708 13.0816 -0.352311 0.000301958 10
15.3594 13.0718 0.352048 0.000302024 10
15.3656 13.0771 1.05743 0.000300731 10
15.3709 13.0817 1.76587 0.000298092 10
15.3653 13.0769 2.47738 0.000294134 10
15.3681 13.0793 3.19625 0.000288898 10
15.361 13.0733 3.92085 0.000282439 10
15.3773 13.0871 4.66179 0.000274822 10
15.3586 13.0712 5.40396 0.000266126 10
7.46962 6.40224 -2.63605 0.000786496 4
8.30289 7.11644 -2.52462 0.000527743 4
9.85057 8.44296 -2.52184 0.000185962 4
12.9838 11.1285 -2.70843 0.000109807 1
15.3052 13.1182 -2.47506 0.000292087 10
15.3059 13.1187 -1.76366 0.000296148 10
15.2946 13.1091 -1.05569 0.000298902 10
15.3031 13.1164 -0.351808 0.00030032 10
15.2974 13.1115 0.351676 0.000300386 10
15.3047 13.1177 1.05639 0.000299101 10
15.2941 13.1086 1.76229 0.000296477 10
15.2955 13.1098 2.47349 0.000292542 10
15.3121 13.1241 3.19411 0.000287337 10
15.3027 13.116 3.91763 0.000280914 10
15.2986 13.1125 4.65179 0.000273341 10
15.3049 13.1179 5.40114 0.000264695 10
7.45143 6.4319 -2.63754 0.000749965 4
8.27838 7.14571 -2.52474 0.000381746 4
9.82091 8.47718 -2.5218 0.000198771 4
12.9266 11.158 -2.70461 0.000109796 1
15.249 13.1626 -2.47339 0.000290464 10
15.2485 13.1621 -1.76232 0.000294503 10
15.2385 13.1535 -1.05498 0.000297241 10
15.232 13.1479 -0.351226 0.000298651 10
15.2417 13.1563 0.351448 0.000298717 10
15.2403 13.155 1.0551 0.00029744 10
15.2398 13.1546 1.76132 0.000294832 10
15.2369 13.1521 2.47143 0.00029092 10
15.2426 13.157 3.18917 0.000285745 10
15.2408 13.1555 3.91352 0.00027936 10
15.2367 13.152 4.64689 0.000271831 10
15.2268 13.1434 5.38975 0.000263235 10
7.44118 6.46852 -2.64189 0.000709385 4
8.24962 7.17129 -2.52359 0.000311551 4
9.79389 8.5137 -2.52248 0.000197152 4
12.8995 11.2133 -2.7071 0.000109784 1
15.1621 13.1802 -2.46674 0.000288812 10
15.1703 13.1874 -1.7586 0.000292827 10
15.1671 13.1846 -1.05322 0.000295549 10
15.1739 13.1905 -0.350945 0.000296951 10
15.1684 13.1857 0.350817 0.000297017 10
15.1632 13.1811 1.05295 0.000295748 10
15.1808 13.1964 1.75981 0.000293156 10
15.1727 13.1894 2.46846 0.000289267 10
15.1586 13.1772 3.18121 0.000284124 10
15.1731 13.1898 3.90793 0.000277777 10
15.171 13.1879 4.64085 0.000270293 10
15.161 13.1792 5.3827 0.000261748 10
7.40095 6.47904 -2.63562 8.51213e-05 4
8.22094 7.19689 -2.52248 0.000364854 4
9.75151 8.5368 -2.51922 0.00021156 4
12.852 11.2511 -2.70536 0.000109773 1
15.1052 13.2236 -2.46498 0.000287129 10
15.1125 13.23 -1.75724 0.00029112 10
15.0996 13.2187 -1.05173 0.000293826 10
15.101 13.2199 -0.350324 0.00029522 10
15.0981 13.2173 0.350255 0.000295286 10
15.1087 13.2267 1.05236 0.000294025 10
15.0975 13.2168 1.75549 0.000291449 10
15.0935 13.2134 2.46307 0.000287585 10
15.0991 13.2182 3.17838 0.000282473 10
15.1126 13.2301 3.90422 0.000276165 10
15.1053 13.2237 4.63487 0.000268727 10
15.0922 13.2122 5.37463 0.000260234 10
7.38667 6.51223 -2.63861 0.000145914 4
8.56991 7.55539 -2.63764 0.000392009 4
9.73344 8.58117 -2.52228 0.000208337 4
12.8124 11.2956 -2.70531 0.000109761 1
15.0385 13.2582 -2.46163 0.000285416 10
15.0451 13.2641 -1.75478 0.000289382 10
15.0431 13.2623 -1.05101 0.000292072 10
15.048 13.2666 -0.350167 0.000293458 10
15.0289 13.2498 0.349722 0.000293524 10
15.0489 13.2674 1.05141 0.000292272 10
15.032 13.2525 1.75325 0.000289712 10
15.0346 13.2547 2.46098 0.000285872 10
15.0481 13.2666 3.17737 0.000280792 10
15.035 13.2551 3.89609 0.000274524 10
15.0276 13.2486 4.62518 0.000267132 10
15.0309 13.2515 5.36924 0.000258692 10
7.36073 6.53516 -2.63748 0.00012564 4
8.54375 7.5855 -2.63772 0.000265536 4
9.70651 8.61784 -2.52308 0.000237164 4
12.7855 11.3515 -2.70798 0.000109749 1
14.9657 13.2871 -2.45729 0.000283673 10
14.9651 13.2866 -1.75084 0.000287615 10
14.9699 13.2909 -1.04913 0.000290288 10
14.9697 13.2907 -0.349421 0.000291666 10
14.9843 13.3036 0.349761 0.000291732 10
14.9831 13.3026 1.05006 0.000290488 10
14.9801 13.3 1.7526 0.000287945 10
14.9789 13.2989 2.45945 0.00028413 10
14.9793 13.2992 3.17263 0.000279082 10
14.9668 13.2881 3.89041 0.000272854 10
14.9791 13.2991 4.62451 0.000265509 10
14.9748 13.2952 5.36573 0.000257123 10
7.33235 6.55588 -2.63549 0.000316109 4
8.51084 7.60956 -2.63574 0.000123908 4
9.67477 8.65024 -2.52266 0.000177858 4
12.7498 11.3996 -2.70883 0.000109738 1
14.9113 13.3322 -2.45598 0.000281901 10
14.9108 13.3318 -1.74992 0.000285817 10
14.9004 13.3225 -1.04752 0.000288474 10
14.9175 13.3378 -0.349288 0.000289843 10
14.9142 13.3348 0.34921 0.000289909 10
14.9105 13.3315 1.04822 0.000288673 10
14.9033 13.3251 1.74904 0.000286147 10
14.9073 13.3287 2.45533 0.000282358 10
14.9079 13.3292 3.16735 0.000277343 10
14.8976 13.32 3.88449 0.000271156 10
14.9057 13.3272 4.61617 0.000263859 10
14.9096 13.3307 5.359 0.000255527 10
7.31951 6.59052 -2.63913 0.000279618 4
8.49016 7.64458 -2.63759 0.000399513 4
9.64554 8.68488 -2.52293 0.000227511 4
12.7071 11.4416 -2.70824 0.000109726 1
14.8366 13.3589 -2.45134 0.000280099 10
14.8387 13.3608 -1.74692 0.00028399 10
14.8459 13.3673 -1.04695 0.000286629 10
14.8379 13.3601 -0.348513 0.000287989 10
14.8368 13.3591 0.348488 0.000288056 10
14.8416 13.3634 1.04665 0.000286829 10
14.8502 13.3711 1.74827 0.00028432 10
14.8401 13.3621 2.45192 0.000280556 10
14.8486 13.3697 3.16464 0.000275575 10
14.8336 13.3563 3.87995 0.000269429 10
14.8417 13.3635 4.61077 0.000262181 10
14.8403 13.3623 5.35084 0.000253904 10
7.31228 6.63037 -2.64485 0.000183218 4
8.46953 7.6797 -2.63949 0.000260424 4
9.62262 8.72526 -2.52489 0.000181032 4
12.6584 11.4779 -2.70637 0.000109714 1
14.7839 13.4052 -2.45036 0.000278268 10
14.7819 13.4034 -1.74574 0.000282133 10
14.7695 13.3922 -1.04486 0.000284755 10
14.7826 13.404 -0.348312 0.000286106 10
14.7683 13.3911 0.347974 0.000286173 10
14.7725 13.3949 1.04507 0.000284954 10
14.78 13.4017 1.74551 0.000282463 10
14.7673 13.3901 2.4476 0.000278725 10
14.788 13.4089 3.16168 0.000273778 10
14.7674 13.3902 3.87483 0.000267674 10
14.7798 13.4015 4.60605 0.000260475 10
14.7678 13.3907 5.34153 0.000252255 10
7.2998 6.66563 -2.64874 0.000161557 4
8.42654 7.69449 -2.63444 0.000237652 4
9.58768 8.75476 -2.52372 0.000213055 4
12.6179 11.5218 -2.7063 0.000109702 1
14.7135 13.4352 -2.44644 0.000276407 10
14.7131 13.4349 -1.74313 0.000280246 10
14.71 13.432 -1.04396 0.00028285 10
14.7212 13.4423 -0.347968 0.000284193 10
14.7117 13.4336 0.347744 0.00028426 10
14.7039 13.4265 1.04353 0.00028305 10
14.7169 13.4384 1.74359 0.000280576 10
14.7116 13.4336 2.44613 0.000276864 10
14.7186 13.44 3.15687 0.000271952 10
14.7134 13.4352 3.87295 0.000265891 10
14.7113 13.4333 4.59929 0.000258742 10
14.7016 13.4244 5.33447 0.000250579 10
7.2942 6.70736 -2.65519 0.000164279 4
8.40237 7.72638 -2.63531 0.000525831 4
9.55875 8.78972 -2.52417 0.000213037 4
12.5785 11.5665 -2.70649 0.00010969 1
14.6411 13.4632 -2.44221 0.000274517 10
14.6455 13.4672 -1.74069 0.00027833 10
14.6567 13.4776 -1.04351 0.000280916 10
14.6488 13.4702 1.74107 0.00027866 10
14.6416 13.4636 2.44229 0.000274975 10
14.6574 13.4782 3.15381 0.000270098 10
7.29946 6.75937 -2.66567 0.000166958 4
8.38954 7.7688 -2.63977 0.000303342 4
9.52357 8.81892 -2.52299 0.000205011 4
12.5432 11.6151 -2.7076 0.000109678 1
14.5817 13.5028 -2.44014 0.000272599 10
14.5758 13.4973 -1.73799 0.000276385 10
14.5747 13.4963 -1.04102 0.000278953 10
14.5829 13.5039 1.73884 0.000276715 10
14.5739 13.4956 2.43884 0.000273057 10
14.5746 13.4962 3.14611 0.000268215 10
7.28159 6.79019 -2.66779 0.000182741 4
8.35956 7.79542 -2.63888 0.000371568 4
9.48802 8.84771 -2.52174 0.000161753 4
12.4976 11.6542 -2.70652 0.000109667 1
14.5119 13.5325 -2.43635 0.000270652 10
14.517 13.5373 -1.7366 0.00027441 10
14.5281 13.5476 -1.04106 0.00027696 10
14.5269 13.5465 1.73779 0.000274741 10
14.5285 13.5481 2.43914 0.00027111 10
14.5189 13.5391 3.14426 0.000266304 10
7.29005 6.84581 -2.67962 0.000157839 4
8.32557 7.81823 -2.63675 0.000356377 4
9.46911 8.89208 -2.52495 0.000235402 4
12.4532 11.6943 -2.70573 0.000109655 1
14.4671 13.5855 -2.43678 0.000268676 10
14.4561 13.5751 -1.73497 0.000272407 10
14.4654 13.5839 -1.03996 0.000274938 10
14.4638 13.5824 1.73591 0.000272737 10
14.4634 13.582 2.43616 0.000269134 10
14.4448 13.5645 3.13845 0.000264365 10
7.27468 6.87932 -2.68279 0.000174743 4
8.30418 7.85287 -2.63864 0.000295696 4
9.41933 8.90742 -2.51995 0.00020656 4
12.4141 11.7395 -2.70613 0.000109643 1
14.3981 13.6156 -2.43316 0.000266672 10
14.3829 13.6013 -1.73188 0.000270375 10
14.3836 13.6019 -1.03749 0.000272887 10
14.3917 13.6096 1.73294 0.000270705 10
14.3807 13.5992 2.43021 0.00026713 10
14.384 13.6023 3.13554 0.000262399 10
7.27357 6.92652 -2.69128 0.000148999 4
8.27157 7.87691 -2.637 0.000472574 4
9.39242 8.94428 -2.52109 0.000118481 4
12.3736 11.7832 -2.70624 0.000109631 1
14.3285 13.6448 -2.42941 0.00026464 10
14.3267 13.6431 -1.73083 0.000268314 10
14.338 13.6539 -1.03763 0.000270807 10
14.3279 13.6443 1.73098 0.000268645 10
14.3239 13.6405 2.42865 0.000265098 10
14.3184 13.6353 3.1316 0.000260404 10
7.24929 6.95182 -2.69125 0.000149142 4
8.25407 7.91537 -2.64022 0.000308289 4
9.37335 8.98871 -2.52438 0.00013288 4
12.3472 11.8405 -2.70949 0.000109619 1
14.276 13.6902 -2.42861 0.00026258 10
14.2655 13.6802 -1.72921 0.000266225 10
14.2705 13.6849 -1.0362 0.000268698 10
14.259 13.6739 1.72842 0.000266556 10
14.2573 13.6722 2.42542 0.000263038 10
14.2697 13.6841 3.13136 0.000258382 10
7.25527 7.00633 -2.70254 0.000163199 4
8.21185 7.93009 -2.63555 0.000293106 4
9.32915 9.00906 -2.52093 0.000257733 4
12.306 11.8838 -2.70954 0.000109606 1
14.2041 13.7168 -2.42451 0.000260492 10
14.1935 13.7065 -1.72626 0.000264108 10
14.1946 13.7076 -1.03416 0.000266562 10
14.1911 13.7042 1.72597 0.000264439 10
14.1908 13.7039 2.42224 0.00026095 10
14.1953 13.7083 3.12554 0.000256332 10
7.24469 7.04515 -2.70774 0.000187093 4
8.19191 7.96629 -2.63806 0.00021476 4
9.31432 9.05778 -2.52545 0.000267314 4
12.2635 11.9257 -2.70932 0.000109594 1
14.1391 13.7496 -2.42158 0.000258377 10
14.148 13.7584 -1.72657 0.000261963 10
14.1318 13.7426 -1.03307 0.000264397 10
14.1298 13.7406 1.72434 0.000262294 10
14.1411 13.7516 2.42193 0.000258835 10
14.1432 13.7536 3.12459 0.000254256 10
7.22441 7.07467 -2.70938 0.000149562 4
8.15702 7.98795 -2.63579 0.000189481 4
9.27713 9.08483 -2.52395 0.000216074 4
12.2111 11.958 -2.70696 0.000109582 1
14.0686 13.777 -2.41774 0.000256234 10
14.0842 13.7923 -1.72465 0.00025979 10
14.0837 13.7917 -1.03306 0.000262204 10
14.0834 13.7915 1.72454 0.000260121 10
14.0787 13.7869 2.41947 0.000256692 10
14.0625 13.771 3.11738 0.000252152 10
7.20791 7.10796 -2.71248 0.000623489 1
8.12565 8.01298 -2.63467 8.33655e-05 4
9.2435 9.11533 -2.52344 0.000230459 4
12.1682 11.9995 -2.70673 0.00010957 1
14.0124 13.8181 -2.41635 0.000254064 10
14.0139 13.8196 -1.72193 0.00025759 10
14.0171 13.8227 -1.03171 0.000259984 10
14.0071 13.8129 1.72109 0.000257921 10
14.0079 13.8136 2.41557 0.000254522 10
14.0053 13.8111 3.11536 0.000250022 10
7.20073 7.15063 -2.71915 0.000623451 1
8.09201 8.03571 -2.63284 0.000959191 4
9.21148 9.14739 -2.5234 0.000224038 4
12.135 12.0506 -2.70867 0.000109558 1
13.9489 13.8518 -2.41372 0.000251867 10
13.9526 13.8555 -1.72032 0.000255362 10
13.946 13.849 -1.03003 0.000257735 10
13.9573 13.8602 1.72091 0.000255693 10
13.9516 13.8545 2.41419 0.000252325 10
13.951 13.8539 3.11403 0.000247866 10
7.16069 7.16069 -2.71345 0.000623412 1
8.0709 8.0709 -2.63512 0.00152927 4
9.1749 9.1749 -2.52214 0.000206416 4
12.0816 12.0816 -2.70614 0.000109546 1
13.8793 13.8793 -2.41005 0.000249643 10
13.8804 13.8804 -1.71739 0.000253108 10
13.8779 13.8779 -1.02857 0.00025546 10
13.8857 13.8857 1.71804 0.000253438 10
13.8822 13.8822 2.41056 0.000250101 10
13.8824 13.8824 3.10952 0.000245682 10
7.13224 7.18221 -2.71216 0.000623374 1
8.02964 8.08589 -2.63085 0.000934554 4
9.15267 9.21679 -2.52485 0.000235198 4
12.0541 12.1386 -2.70947 0.000109533 1
13.8253 13.9221 -2.40909 0.000247393 10
13.819 13.9158 -1.71579 0.000250826 10
13.8326 13.9295 -1.02881 0.000253157 10
13.8239 13.9207 1.7164 0.000251157 10
13.8106 13.9074 2.40654 0.000247851 10
13.8145 13.9113 3.10517 0.000243473 10
7.11349 7.21351 -2.71458 0.000623335 1
7.99595 8.10838 -2.62907 0.00140601 4
9.10924 9.23732 -2.52175 0.000153585 4
12.0037 12.1725 -2.70767 0.000109521 1
13.7641 13.9576 -2.4069 0.000245116 10
13.7526 13.9459 -1.71358 0.000248518 10
13.7578 13.9513 -1.02687 0.000250828 10
13.7604 13.9539 1.71456 0.000248849 10
13.7587 13.9522 2.40597 0.000245574 10
13.7654 13.9589 3.10506 0.000241238 10
7.09722 7.24745 -2.71801 0.000623296 1
7.95396 8.12232 -2.62457 0.000991189 4
9.08991 9.28231 -2.52536 0.000214361 4
11.9677 12.221 -2.70916 0.000109509 1
13.7007 13.9907 -2.40435 0.000242814 10
13.7001 13.9901 -1.71312 0.000246183 10
13.6864 13.9761 1.7114 0.000246514 10
13.6978 13.9878 2.40384 0.000243271 10
13.6959 13.9858 3.10037 0.000238978 10
7.06108 7.26107 -2.71386 0.000623257 1
7.92743 8.15195 -2.62519 0.00132201 4
9.05007 9.30639 -2.5233 0.000172753 4
11.9304 12.2683 -2.71039 0.000109496 1
13.6289 14.0149 -2.40033 0.000240485 10
13.6393 14.0256 -1.71162 0.000243822 10
13.6422 14.0286 -1.02552 0.000246089 10
13.6244 14.0103 -0.341117 0.000247262 10
13.6255 14.0114 0.341144 0.000247329 10
13.6403 14.0266 1.02538 0.000246289 10
13.6242 14.0101 1.70973 0.000244153 10
13.6262 14.0121 2.39984 0.000240943 10
13.6396 14.0259 3.09869 0.000236692 10
13.6358 14.022 3.80186 0.000231443 10
13.6229 14.0087 4.51125 0.00022525 10
13.6327 14.0189 5.23962 0.000218177 10
7.03347 7.28337 -2.71301 0.000623218 1
7.89136 8.17174 -2.62268 0.00140801 4
9.68507 10.0292 -2.71009 0.000220453 1
11.8807 12.3028 -2.70884 0.000109484 1
13.5628 14.0447 -2.39731 0.000238131 10
13.57 14.0522 -1.70908 0.000241436 10
13.5694 14.0516 -1.02373 0.00024368 10
13.5699 14.052 -0.340978 0.000244842 10
13.5706 14.0528 0.340996 0.000244909 10
13.5804 14.0629 1.02456 0.00024388 10
13.5759 14.0583 1.70981 0.000241766 10
13.5616 14.0434 2.39708 0.000238588 10
13.5783 14.0608 3.09591 0.00023438 10
13.5636 14.0455 3.79538 0.000229184 10
13.5702 14.0523 4.51002 0.000223054 10
13.5664 14.0484 5.23293 0.000216051 10
7.0095 7.30944 -2.71359 0.000623179 1
7.85716 8.19337 -2.6208 0.00141199 4
9.65223 10.0653 -2.71072 0.000220433 1
11.8431 12.3499 -2.71008 0.000109472 1
13.5141 14.0924 -2.39737 0.000235751 10
13.507 14.0849 -1.70731 0.000239023 10
13.5021 14.0799 -1.02235 0.000241246 10
13.5062 14.0841 -0.340611 0.000242397 10
13.5008 14.0785 0.340475 0.000242463 10
13.5099 14.088 1.02295 0.000241445 10
13.5131 14.0914 1.70809 0.000239353 10
13.4991 14.0768 2.39471 0.000236209 10
13.517 14.0954 3.09312 0.000232044 10
13.5058 14.0837 3.79294 0.000226901 10
13.514 14.0922 4.50766 0.000220834 10
13.5041 14.082 5.22785 0.000213903 10
6.98976 7.33997 -2.71585 0.00062314 1
7.81512 8.20669 -2.61632 0.00118855 4
9.6289 10.1113 -2.71406 0.000220413 1
11.7872 12.3778 -2.70716 0.000109459 1
13.4488 14.1227 -2.39452 0.000233347 10
13.4581 14.1323 -1.70736 0.000236585 10
13.4534 14.1274 -1.02239 0.000238785 10
13.4567 14.1309 -0.340605 0.000239925 10
13.4409 14.1143 0.340203 0.000239992 10
13.4501 14.124 1.02215 0.000238985 10
13.4532 14.1273 1.70675 0.000236915 10
13.4568 14.131 2.39594 0.000233804 10
13.4364 14.1096 3.08592 0.000229683 10
13.4563 14.1305 3.79288 0.000224594 10
13.4433 14.1168 4.50048 0.00021859 10
13.4503 14.1242 5.22606 0.000211731 10
6.96583 7.36616 -2.71652 0.000623101 1
7.784 8.23134 -2.6155 0.00143018 4
9.58139 10.132 -2.71062 0.000220393 1
11.7596 12.4354 -2.71077 0.000109447 1
13.393 14.1627 -2.39337 0.000230917 10
13.3805 14.1495 -1.70378 0.000234122 10
13.3898 14.1594 -1.02131 0.0002363 10
13.3843 14.1535 -0.34002 0.000237428 10
13.3904 14.1599 0.340174 0.000237494 10
13.3932 14.1629 1.02157 0.000236499 10
13.3814 14.1505 1.70389 0.000234452 10
13.3835 14.1526 2.39167 0.000231374 10
13.3846 14.1539 3.08537 0.000227297 10
13.3888 14.1582 3.78774 0.000222263 10
13.3866 14.1559 4.49803 0.000216323 10
13.3917 14.1613 5.22246 0.000209537 10
6.93154 7.38134 -2.71318 0.000623061 1
7.75232 8.25538 -2.61452 0.00146523 4
9.55662 10.1768 -2.71365 0.000220373 1
11.704 12.4635 -2.70797 0.000109434 1
