VERSION 0.7
FIELDS x y z intensity label
SIZE 4 4 4 4 4
TYPE F F F F F
COUNT 1 1 1 1 1
WIDTH 1215
HEIGHT 1
VIEWPOINT 16.0523 54.992 2.72685 0.999996 -0.000128211 0.00094905 -0.00275422
POINTS 1215
DATA ascii
8.0879 11.3808 -0.243707 0.00126828 10
8.0858 11.3778 0.243644 0.00126846 10
8.08276 11.3736 0.731251 0.00126326 10
8.07422 11.3615 1.21945 0.00125274 10
8.07885 11.368 1.71239 0.00123699 10
7.86459 11.0666 2.1503 0.0018597 10
5.8341 8.27035 -2.71192 0.000625417 1
6.77621 9.60589 -2.71396 0.000389805 1
7.32255 10.3804 -2.46926 0.000430282 10
8.01594 11.3633 -2.20251 0.00121627 10
8.02202 11.3719 -1.70875 0.00123743 10
8.02317 11.3736 -1.21773 0.00125353 10
8.01627 11.3638 -0.728819 0.00126442 10
8.02847 11.3811 -0.243112 0.00126998 10
8.02597 11.3775 0.243036 0.00127016 10
8.0284 11.381 0.729922 0.00126495 10
8.02102 11.3705 1.2174 0.00125442 10
8.0242 11.375 1.70922 0.00123866 10
7.87584 11.1647 2.16402 0.00183946 10
5.80022 8.28357 -2.7096 0.000625379 1
6.73472 9.61817 -2.71077 0.000389777 1
7.29083 10.4124 -2.4708 0.000430244 10
7.96917 11.3811 -2.20056 0.0012178 10
7.96522 11.3755 -1.7051 0.00123899 10
7.95648 11.363 -1.21362 0.00125511 10
7.97108 11.3839 -0.728319 0.001266 10
7.96675 11.3777 -0.242444 0.00127157 10
7.97046 11.383 0.242557 0.00127175 10
7.96225 11.3713 0.727512 0.00126654 10
7.95671 11.3634 1.21365 0.001256 10
7.96327 11.3727 1.70468 0.00124022 10
7.86877 11.2378 2.17284 0.0018192 10
5.77485 8.30891 -2.71128 0.00062534 1
6.70245 9.64356 -2.71131 0.000389749 1
7.26129 10.4476 -2.47314 0.000430207 10
7.89966 11.3661 -2.19231 0.00121924 10
7.90437 11.3729 -1.70056 0.00124044 10
7.90399 11.3723 -1.21166 0.00125658 10
7.89549 11.3601 -0.725031 0.00126748 10
7.91075 11.3821 -0.241948 0.00127305 10
7.90553 11.3746 0.241787 0.00127323 10
7.91066 11.3819 0.726424 0.00126802 10
7.9086 11.379 1.21236 0.00125747 10
7.90382 11.3721 1.70045 0.00124168 10
7.87703 11.3336 2.18603 0.00179892 10
7.89818 11.364 2.69005 0.00119506 10
7.90251 11.3702 3.19677 0.00116467 10
7.90216 11.3697 3.71005 0.00112995 10
5.75221 8.33831 -2.71431 0.000625302 1
6.66526 9.66184 -2.70989 0.000389721 1
7.21329 10.4563 -2.46921 0.00043017 10
7.85058 11.3801 -2.1897 0.00122057 10
7.84643 11.3741 -1.69663 0.00124179 10
7.84109 11.3663 -1.20809 0.00125794 10
7.84141 11.3668 -0.723705 0.00126885 10
7.84569 11.373 -0.24117 0.00127443 10
7.84549 11.3727 0.241164 0.00127461 10
7.84193 11.3675 0.723752 0.0012694 10
7.85066 11.3802 1.20956 0.00125884 10
7.85025 11.3796 1.69746 0.00124304 10
7.83583 11.3587 2.18559 0.00122215 10
7.8523 11.3826 2.68795 0.00119638 10
7.84925 11.3781 3.19127 0.00116597 10
7.84381 11.3702 3.70127 0.00113122 10
5.72073 8.35492 -2.71319 0.000625263 1
6.62908 9.68153 -2.70891 0.000389692 1
7.18473 10.493 -2.47195 0.000430132 10
7.78946 11.3762 -2.18372 0.0012218 10
7.78883 11.3753 -1.69275 0.00124304 10
7.79446 11.3835 -1.20702 0.0012592 10
7.78649 11.3719 -0.722294 0.00127012 10
7.79146 11.3791 -0.240723 0.0012757 10
7.79376 11.3825 0.240794 0.00127588 10
7.77963 11.3619 0.721659 0.00127066 10
7.79382 11.3826 1.20692 0.0012601 10
7.79274 11.381 1.6936 0.00124429 10
7.78501 11.3697 2.18247 0.00122339 10
7.77803 11.3595 2.67608 0.0011976 10
7.79304 11.3814 3.18455 0.00116717 10
7.77756 11.3588 3.68869 0.0011324 10
5.68896 8.37105 -2.71197 0.000625224 1
6.60313 9.71621 -2.71215 0.000389664 1
7.14085 10.5074 -2.46946 0.000430095 10
7.72901 11.3729 -2.17789 0.00122293 10
7.72031 11.3601 -1.68647 0.00124418 10
7.73417 11.3805 -1.20383 0.00126035 10
7.73379 11.3799 -0.721087 0.00127128 10
7.73365 11.3797 -0.240162 0.00127686 10
7.73073 11.3754 0.240072 0.00127704 10
7.72878 11.3725 0.720619 0.00127183 10
7.72188 11.3624 1.20191 0.00126126 10
7.72547 11.3677 1.68759 0.00124544 10
7.72794 11.3713 2.17759 0.00122453 10
7.72472 11.3666 2.67137 0.00119872 10
7.73288 11.3786 3.17618 0.00116828 10
7.72177 11.3622 3.68102 0.00113348 10
5.65993 8.39118 -2.71207 0.000625186 1
6.56677 9.73564 -2.71115 0.000389635 1
7.10563 10.5345 -2.46998 0.000430057 10
7.67094 11.3726 -2.1727 0.00122396 10
7.66562 11.3648 -1.68318 0.00124522 10
7.67319 11.376 -1.20051 0.0012614 10
7.66849 11.369 -0.718694 0.00127233 10
7.66354 11.3617 -0.239216 0.00127792 10
7.6651 11.364 0.239264 0.0012781 10
7.66432 11.3628 0.718303 0.00127288 10
7.67149 11.3734 1.20024 0.00126231 10
7.66697 11.3667 1.68347 0.00124648 10
7.66765 11.3678 2.17177 0.00122556 10
7.67428 11.3776 2.66765 0.00119974 10
7.66217 11.3596 3.1634 0.00116928 10
7.67566 11.3796 3.67796 0.00113447 10
5.63179 8.41266 -2.71265 0.000625147 1
6.53444 9.76102 -2.71185 0.000389607 1
7.07096 10.5625 -2.47073 0.000430019 10
7.61245 11.3713 -2.16736 0.00122488 10
7.6055 11.3609 -1.67867 0.00124615 10
7.60955 11.367 -1.19676 0.00126233 10
7.6047 11.3598 -0.716428 0.00127327 10
7.60959 11.3671 -0.238768 0.00127886 10
7.61531 11.3756 0.238948 0.00127905 10
7.61961 11.382 0.717832 0.00127383 10
7.60715 11.3634 1.19638 0.00126325 10
7.60719 11.3635 1.67904 0.00124742 10
7.61609 11.3768 2.1684 0.00122649 10
7.6118 11.3704 2.65971 0.00120066 10
7.6057 11.3613 3.15644 0.00117019 10
7.61255 11.3715 3.66671 0.00113536 10
5.60849 8.44145 -2.7156 0.000625108 1
6.49255 9.77207 -2.70861 0.000389578 1
7.03534 10.589 -2.47118 0.000429981 10
7.55666 11.3737 -2.16277 0.0012257 10
7.55832 11.3762 -1.67701 0.00124698 10
7.54816 11.3609 -1.19333 0.00126317 10
7.5622 11.382 -0.716162 0.00127411 10
7.54726 11.3595 -0.238056 0.0012797 10
7.54762 11.3601 0.238067 0.00127989 10
7.56066 11.3797 0.716016 0.00127466 10
7.56002 11.3787 1.1952 0.00126408 10
7.54993 11.3636 1.67515 0.00124825 10
7.5607 11.3798 2.16392 0.00122731 10
7.5555 11.3719 2.65389 0.00120147 10
7.55602 11.3727 3.15228 0.00117099 10
7.54558 11.357 3.65353 0.00113615 10
5.57132 8.44935 -2.71187 0.000625068 1
6.46606 9.8063 -2.71183 0.000389549 1
6.99851 10.6138 -2.47124 0.000429943 10
7.49274 11.3633 -2.15581 0.00122641 10
7.4905 11.3599 -1.67075 0.00124769 10
7.48932 11.3581 -1.19029 0.00126389 10
7.4897 11.3587 -0.713046 0.00127484 10
7.49473 11.3663 -0.237648 0.00128043 10
7.50238 11.378 0.237891 0.00128062 10
7.49026 11.3596 0.7131 0.00127539 10
7.49273 11.3633 1.19083 0.00126481 10
7.50261 11.3783 1.67345 0.00124897 10
7.50026 11.3747 2.15798 0.00122803 10
7.49211 11.3624 2.64554 0.00120219 10
7.50293 11.3788 3.14668 0.0011717 10
7.49985 11.3741 3.65059 0.00113685 10
5.54703 8.47675 -2.71443 0.000625029 1
6.43155 9.82844 -2.71172 0.00038952 1
6.96261 10.64 -2.47167 0.000429905 10
7.44622 11.379 -2.15384 0.00122702 10
7.43564 11.3629 -1.66735 0.00124831 10
7.44132 11.3715 -1.18896 0.00126451 10
7.44081 11.3707 -0.712167 0.00127546 10
7.43751 11.3657 -0.237091 0.00128105 10
7.43982 11.3692 0.237164 0.00128124 10
7.44706 11.3803 0.712766 0.00127602 10
7.4456 11.3781 1.18964 0.00126543 10
7.44449 11.3764 1.66934 0.00124959 10
7.44578 11.3783 2.15372 0.00122865 10
7.44312 11.3743 2.64224 0.0012028 10
7.43718 11.3652 3.13573 0.0011723 10
7.44396 11.3756 3.64269 0.00113745 10
5.5087 8.48265 -2.71015 0.00062499 1
6.40323 9.8601 -2.71428 0.000389491 1
6.92748 10.6674 -2.4724 0.000429867 10
7.3784 11.3617 -2.14569 0.00122752 10
7.37673 11.3592 -1.66302 0.00124881 10
7.38456 11.3712 -1.18623 0.00126501 10
7.3879 11.3764 -0.710899 0.00127596 10
7.3795 11.3634 -0.236505 0.00128156 10
7.37674 11.3592 0.236416 0.00128175 10
7.38402 11.3704 0.710525 0.00127653 10
7.38605 11.3735 1.18646 0.00126594 10
7.38544 11.3726 1.66499 0.0012501 10
7.38547 11.3726 2.14774 0.00122915 10
7.38888 11.3779 2.63707 0.00120331 10
7.3778 11.3608 3.12739 0.00117281 10
7.38103 11.3658 3.63129 0.00113795 10
5.48333 8.50846 -2.71226 0.00062495 1
6.35573 9.86217 -2.70872 0.000389462 1
6.90838 10.7197 -2.47892 0.00187322 10
7.33379 11.3798 -2.14425 0.00122792 10
7.32026 11.3588 -1.65922 0.00124921 10
7.32434 11.3652 -1.18292 0.00126541 10
7.32785 11.3706 -0.708936 0.00127636 10
7.32121 11.3603 -0.235906 0.00128196 10
7.3293 11.3729 0.236167 0.00128215 10
7.32114 11.3602 0.708287 0.00127693 10
7.31878 11.3565 1.18202 0.00126635 10
7.33199 11.377 1.66188 0.0012505 10
7.32872 11.372 2.14277 0.00122956 10
7.32452 11.3654 2.62825 0.00120371 10
7.33085 11.3753 3.1243 0.00117321 10
7.32931 11.3729 3.62535 0.00113835 10
5.45601 8.53133 -2.71346 0.000624911 1
6.33167 9.90056 -2.71318 0.000389433 1
6.91533 10.8132 -2.49495 0.0018502 10
7.2711 11.3695 -2.13751 0.00122821 10
7.26683 11.3628 -1.65609 0.0012495 10
7.27799 11.3803 -1.18184 0.0012657 10
7.27066 11.3688 -0.707238 0.00127665 10
7.26861 11.3656 -0.235488 0.00128225 10
7.26727 11.3635 0.235445 0.00128244 10
7.27397 11.374 0.70756 0.00127722 10
7.26242 11.3559 1.17931 0.00126664 10
7.26705 11.3632 1.65614 0.0012508 10
7.27074 11.3689 2.1374 0.00122986 10
7.26235 11.3558 2.62015 0.00120401 10
7.26375 11.358 3.11258 0.00117351 10
7.27106 11.3694 3.61615 0.00113866 10
5.43161 8.55884 -2.71617 0.000624871 1
6.28649 9.90592 -2.70862 0.000389404 1
6.9124 10.8922 -2.50759 0.00182719 10
7.22235 11.3806 -2.13484 0.00122839 10
7.21752 11.373 -1.65389 0.00124968 10
7.21106 11.3628 -1.17741 0.00126588 10
7.21626 11.371 -0.705803 0.00127683 10
7.21211 11.3645 -0.234941 0.00128243 10
7.2145 11.3682 0.235019 0.00128262 10
7.21228 11.3647 0.705413 0.0012774 10
7.21146 11.3634 1.17747 0.00126682 10
7.21496 11.369 1.65331 0.00125099 10
7.21011 11.3613 2.13123 0.00123005 10
7.2205 11.3777 2.61936 0.00120421 10
7.21355 11.3667 3.10805 0.00117372 10
7.21635 11.3711 3.60866 0.00113887 10
5.39806 8.57198 -2.71434 0.000624831 1
6.25464 9.93219 -2.70982 0.000389375 1
6.92297 10.9935 -2.52533 0.00180419 10
7.1603 11.3704 -2.12822 0.00122847 10
7.16537 11.3784 -1.65103 0.00124976 10
7.15925 11.3687 -1.17542 0.00126595 10
7.15659 11.3645 -0.703843 3.6467e-05 10
7.16637 11.38 -0.234744 3.66269e-05 10
7.1531 11.3589 0.234309 3.66323e-05 10
7.16025 11.3703 0.704203 3.64833e-05 10
7.16445 11.377 1.17627 0.0012669 10
7.16513 11.378 1.65098 0.00125107 10
7.15071 11.3551 2.12537 0.00123013 10
7.15906 11.3684 2.61145 0.0012043 10
7.1607 11.371 3.10237 0.00117382 10
7.15245 11.3579 3.59651 0.00113898 10
5.36225 8.58139 -2.71137 0.000624791 1
6.22504 9.96214 -2.71204 0.000389345 1
6.92564 11.0833 -2.5404 0.00178122 10
7.10311 11.3674 -2.12301 0.00122844 10
7.10069 11.3635 -1.64526 0.00124972 10
7.09872 11.3603 -1.17198 0.00126591 10
7.13346 11.4159 -0.705482 5.71979e-05 10
7.12492 11.4022 -0.234688 5.74583e-05 10
7.12726 11.406 0.234765 5.74765e-05 10
7.12505 11.4025 0.704651 5.72523e-05 10
7.10541 11.371 1.17309 0.00126686 10
7.11038 11.379 1.6475 0.00125104 10
7.10997 11.3783 2.12506 0.00123011 10
7.10047 11.3631 2.60453 0.00120429 10
7.11009 11.3785 3.09763 0.00117382 10
7.10169 11.3651 3.59091 0.00113899 10
5.34269 8.61687 -2.71668 0.000624751 1
6.18702 9.97865 -2.71064 0.000389316 1
6.91624 11.1547 -2.55122 0.00175826 10
7.04473 11.362 -2.1174 0.00122831 10
7.0559 11.38 -1.64408 0.00124958 10
7.04824 11.3676 -1.1702 0.00126576 10
7.09572 11.4442 -0.705697 3.58177e-05 10
7.09293 11.4397 -0.234949 3.59773e-05 10
7.10003 11.4512 0.235184 3.59827e-05 10
7.1018 11.454 0.706301 3.58363e-05 10
7.04627 11.3645 1.16987 0.00126672 10
7.04538 11.363 1.64162 0.0012509 10
7.054 11.3769 2.12018 0.00122998 10
7.04872 11.3684 2.60009 0.00120417 10
7.05472 11.3781 3.09079 0.00117371 10
7.04792 11.3671 3.58376 0.0011389 10
5.30197 8.61822 -2.71125 0.00062471 1
6.15992 10.0128 -2.71406 0.000389286 1
6.92266 11.2526 -2.56806 0.00173534 10
6.98666 11.3566 -2.11185 0.00122807 10
6.98933 11.361 -1.6378 0.00124933 10
6.98851 11.3597 -1.16685 0.00126551 10
7.04775 11.456 -0.704899 5.74587e-05 10
7.04554 11.4524 -0.234702 5.77205e-05 10
7.04706 11.4548 0.234752 5.7739e-05 10
7.04177 11.4462 0.704301 3.58268e-05 10
6.98491 11.3538 1.16625 0.00126646 10
6.99548 11.371 1.63924 0.00125065 10
6.994 11.3686 2.11406 0.00122975 10
6.99304 11.367 2.59417 0.00120395 10
6.99567 11.3713 3.08229 0.0011735 10
6.99258 11.3663 3.57577 0.00113871 10
5.273 8.63856 -2.71184 0.00062467 1
6.12472 10.0339 -2.71397 0.000389257 1
6.92314 11.3419 -2.58291 0.00171244 10
6.94403 11.3762 -2.11095 0.00122772 10
6.94224 11.3732 -1.63605 0.00124897 10
6.9308 11.3545 -1.16383 0.00126514 10
6.93152 11.3557 1.16395 0.0012661 10
6.93689 11.3645 1.63479 0.0012503 10
6.936 11.363 2.10851 0.0012294 10
6.93593 11.3629 2.58768 0.00120362 10
6.93203 11.3565 3.0717 0.00117319 10
6.9358 11.3627 3.567 0.00113842 10
5.24384 8.65862 -2.71238 0.00062463 1
6.08299 10.0442 -2.711 0.000389227 1
6.87789 11.3567 -2.5808 0.00120115 10
6.88879 11.3747 -2.10622 0.00122726 10
6.88604 11.3702 -1.63215 0.00124849 10
6.88247 11.3643 -1.16237 0.00126466 10
6.88102 11.3619 1.16212 0.00126562 10
6.88799 11.3734 1.63262 0.00124983 10
6.88415 11.3671 2.1048 0.00122895 10
6.87906 11.3587 2.58124 0.00120319 10
6.88561 11.3695 3.0687 0.00117278 10
6.88884 11.3748 3.56325 0.00113803 10
5.22324 8.69293 -2.7174 0.000624589 1
6.05548 10.078 -2.7144 0.000389197 1
6.82588 11.3602 -2.57615 0.0012006 10
6.82805 11.3638 -2.09976 0.00122669 10
6.83197 11.3703 -1.62873 0.00124791 10
6.83574 11.3766 -1.16118 0.00126406 10
6.82274 11.3549 1.15897 0.00126503 10
6.82644 11.3611 1.62742 0.00124926 10
6.82563 11.3597 2.09902 0.00122839 10
6.83024 11.3674 2.5778 0.00120265 10
6.8248 11.3584 3.05924 0.00117226 10
6.8272 11.3624 3.55185 0.00113754 10
5.17979 8.68918 -2.71056 0.000624548 1
6.00927 10.0806 -2.70944 0.000389167 1
6.7747 11.3647 -2.57179 0.00119995 10
6.78284 11.3783 -2.09806 0.00122602 10
6.7719 11.36 -1.62386 0.00124722 10
6.78076 11.3748 -1.15857 0.00126336 10
6.7693 11.3556 1.15662 0.00126433 10
6.78256 11.3778 1.62641 0.00124857 10
6.77027 11.3572 2.09417 0.00122773 10
6.77079 11.3581 2.57031 0.001202 10
6.78102 11.3753 3.0574 0.00117165 10
6.76865 11.3545 3.542 0.00113695 10
5.15728 8.72048 -2.71469 0.000624508 1
5.97538 10.1038 -2.71004 0.000389137 1
6.72452 11.3705 -2.5678 0.00119919 10
6.72701 11.3748 -2.09306 0.00122524 10
6.71933 11.3618 -1.62075 0.00124642 10
6.72664 11.3741 -1.1561 0.00126254 10
6.71499 11.3544 1.1541 0.00126352 10
6.71883 11.3609 1.62063 0.00124777 10
6.72338 11.3686 2.09193 0.00122695 10
6.72055 11.3638 2.56628 0.00120125 10
6.72042 11.3636 3.04795 0.00117092 10
6.7218 11.3659 3.53822 0.00113625 10
5.12607 8.73717 -2.7143 0.000624467 1
5.95035 10.1421 -2.71473 0.000389107 1
6.67537 11.3779 -2.56418 0.00119832 10
6.67207 11.3723 -2.0883 0.00122435 10
6.66819 11.3657 -1.61798 0.00124551 10
6.66753 11.3645 -1.15276 0.00126162 10
6.66303 11.3569 1.15198 0.0012626 10
6.66603 11.362 1.61745 0.00124687 10
6.67087 11.3702 2.08793 0.00122607 10
6.65993 11.3516 2.55824 0.00120039 10
6.67305 11.3739 3.04445 0.0011701 10
6.66378 11.3581 3.52853 0.00113546 10
5.09811 8.75943 -2.71567 0.000624425 1
5.90743 10.15 -2.7113 0.000389077 1
6.60913 11.3556 -2.55394 0.00119735 10
6.61349 11.3631 -2.08237 0.00122335 10
6.60863 11.3547 -1.61313 0.00124449 10
6.61791 11.3707 -1.15103 0.00126058 10
6.60733 11.3525 1.14919 0.00126156 10
6.60779 11.3533 1.61293 0.00124585 10
6.60862 11.3547 2.08084 0.00122507 10
6.60827 11.3541 2.55361 0.00119943 10
6.61872 11.3721 3.03776 0.00116917 10
6.61717 11.3694 3.52484 0.00113457 10
5.06101 8.76593 -2.71219 0.000624384 1
5.87079 10.1685 -2.71076 0.000389047 1
6.56209 11.3659 -2.55108 0.00119627 10
6.55574 11.3549 -2.07665 0.00122224 10
6.56807 11.3762 -1.61292 0.00124336 10
6.56626 11.3731 -1.14895 0.00125943 10
6.55813 11.359 1.14752 0.00126042 10
6.56509 11.3711 1.61218 0.00124473 10
6.56162 11.3651 2.07852 0.00122397 10
6.56299 11.3674 2.55143 0.00119836 10
6.55847 11.3596 3.02828 0.00116813 10
6.56391 11.369 3.51759 0.00113358 10
5.03577 8.79295 -2.71509 0.000624343 1
5.84581 10.2073 -2.71566 0.000389016 1
6.50653 11.361 -2.54488 0.00119509 10
6.5086 11.3647 -2.07428 0.00122102 10
6.50463 11.3577 -1.60706 0.00124211 10
6.5106 11.3681 -1.14614 0.00125817 10
6.51259 11.3716 1.14649 0.00125916 10
6.50087 11.3512 1.60613 0.00124349 10
6.5114 11.3695 2.07517 0.00122276 10
6.50556 11.3593 2.5445 0.00119718 10
6.50996 11.367 3.02419 0.00116699 10
6.51347 11.3732 3.51181 0.00113248 10
5.00179 8.80474 -2.71332 0.000624302 1
5.8041 10.2171 -2.71284 0.000388986 1
6.4519 11.3574 -2.53901 0.0011938 10
6.45305 11.3594 -2.0692 0.00121969 10
6.45148 11.3567 -1.60371 0.00124076 10
6.44887 11.3521 -1.14225 0.00125679 10
6.44846 11.3513 1.14217 0.00125779 10
6.45532 11.3634 1.60467 0.00124214 10
6.45771 11.3676 2.07069 0.00122144 10
6.45303 11.3594 2.53945 0.0011959 10
6.45794 11.368 3.01844 0.00116575 10
6.45406 11.3612 3.50114 0.00113129 10
4.9727 8.82511 -2.71424 0.00062426 1
5.76425 10.2299 -2.71088 0.000388956 1
6.40477 11.3666 -2.53606 0.0011924 10
6.40585 11.3685 -2.06677 0.00121826 10
6.39958 11.3574 -1.60066 0.0012393 10
6.40546 11.3679 -1.14158 0.00125531 10
6.40758 11.3716 1.14196 0.0012563 10
6.39805 11.3547 1.60028 0.00124068 10
6.39776 11.3542 2.06416 0.00122001 10
6.39999 11.3581 2.53416 0.00119451 10
6.39693 11.3527 3.00842 0.0011644 10
6.40013 11.3584 3.49337 0.00112999 10
4.94928 8.85569 -2.71831 0.000624219 1
5.73821 10.2673 -2.71547 0.000388925 1
6.34686 11.3564 -2.52881 0.00119089 10
6.35637 11.3734 -2.0636 0.00121671 10
6.35307 11.3675 -1.59894 0.00123772 10
6.35334 11.368 -1.13935 0.00125371 10
6.35733 11.3751 1.14007 0.00125471 10
6.35673 11.374 1.59986 0.00123911 10
6.34964 11.3613 2.06142 0.00121848 10
6.34531 11.3536 2.52819 0.00119301 10
6.34442 11.352 3.00235 0.00116295 10
6.34695 11.3565 3.48596 0.00112859 10
4.91381 8.86474 -2.71581 0.000624177 1
5.69994 10.283 -2.71433 0.000388894 1
6.30343 11.3717 -2.52731 0.00118928 10
6.3001 11.3657 -2.05821 0.00121506 10
6.29351 11.3538 -1.59392 0.00123603 10
6.29223 11.3515 -1.13549 0.001252 10
6.2925 11.352 1.13554 0.001253 10
6.29432 11.3552 1.59412 0.00123743 10
6.3048 11.3742 2.05974 0.00121683 10
6.30492 11.3744 2.5279 0.0011914 10
6.30257 11.3701 3.00131 0.00116139 10
6.29533 11.3571 3.47936 0.00112709 10
4.88435 8.8846 -2.71665 0.000624135 1
5.65891 10.2935 -2.71189 0.000388864 1
6.25325 11.3746 -2.52309 0.00118756 10
6.25309 11.3743 -2.05581 0.0012133 10
6.24814 11.3653 -1.59246 0.00123424 10
6.25271 11.3736 -1.13552 0.00125017 10
6.24948 11.3677 1.13493 0.00125118 10
6.24533 11.3602 1.59175 0.00123563 10
6.24457 11.3588 2.053 0.00121507 10
6.2441 11.358 2.5194 0.00118969 10
6.24822 11.3655 2.9943 0.00115973 10
6.24601 11.3614 3.474 0.00112549 10
4.84931 8.89427 -2.71442 0.000624093 1
5.61996 10.3077 -2.71045 0.000388833 1
6.19115 11.3554 -2.51401 0.00118573 10
6.19097 11.355 -2.0484 0.00121143 10
6.19721 11.3665 -1.58959 0.00123233 10
6.19328 11.3593 -1.13192 0.00124823 10
6.19504 11.3625 1.13224 0.00124925 10
6.19239 11.3576 1.58835 0.00123373 10
6.19613 11.3645 2.05011 0.0012132 10
6.19402 11.3606 2.51518 0.00118787 10
6.18942 11.3522 2.98509 0.00115797 10
6.19506 11.3626 3.46771 0.00112378 10
4.81733 8.90946 -2.71391 0.000624051 1
5.58952 10.3376 -2.71315 0.000388802 1
6.1494 11.3731 -2.51316 0.0011838 10
6.14258 11.3605 -2.0455 0.00120944 10
6.13733 11.3507 -1.58438 0.00123031 10
6.13726 11.3506 -1.12892 0.00124619 10
6.15031 11.3748 1.13132 0.0012472 10
6.14146 11.3584 1.58545 0.00123171 10
6.14857 11.3715 2.04749 0.00121123 10
6.14544 11.3657 2.51154 0.00118594 10
6.14974 11.3737 2.98508 0.0011561 10
6.14528 11.3655 3.46202 0.00112198 10
4.78956 8.93249 -2.71581 0.000624009 1
5.55006 10.3508 -2.71152 0.000388771 1
6.08885 11.3557 -2.5046 0.00118175 10
6.09367 11.3646 -2.04241 0.00120735 10
6.09286 11.3631 -1.58313 0.00122817 10
6.09766 11.3721 -1.12893 0.00124402 10
6.09707 11.371 1.12882 0.00124504 10
6.09876 11.3741 1.58466 0.00122959 10
6.09326 11.3639 2.04227 0.00120914 10
6.09835 11.3734 2.50851 0.00118391 10
6.0959 11.3688 2.9782 0.00115412 10
6.09627 11.3695 3.45675 0.00112007 10
4.7503 8.93401 -2.71122 0.000623967 1
5.51252 10.3675 -2.71085 0.00038874 1
6.0467 11.3722 -2.50358 0.00117961 10
6.03998 11.3595 -2.03769 0.00120515 10
6.0455 11.3699 -1.58113 0.00122593 10
6.03609 11.3522 -1.12486 0.00124175 10
6.03405 11.3484 1.12448 3.54922e-05 10
6.03544 11.351 1.57849 0.00122735 10
6.04138 11.3622 2.03817 0.00120695 10
6.03705 11.354 2.49958 0.00118176 10
6.03834 11.3565 2.96942 0.00115204 10
6.04255 11.3644 3.44876 0.00111806 10
4.72582 8.96331 -2.71508 0.000623925 1
5.48521 10.4036 -2.71526 0.000388709 1
5.99097 11.3629 -2.49692 0.00117735 10
5.98661 11.3546 -2.03305 0.00120284 10
5.99037 11.3617 -1.57707 0.00122358 10
5.98666 11.3547 -1.12303 0.00123936 10
6.03631 11.4489 -0.678299 3.50741e-05 10
6.03138 11.4395 -0.225732 3.52277e-05 10
6.02927 11.4355 0.225652 3.52335e-05 10
6.02938 11.4357 0.67752 3.50915e-05 10
5.984 11.3497 1.12253 3.54241e-05 10
5.99341 11.3675 1.57787 0.001225 10
5.98362 11.3489 2.03203 0.00120464 10
5.99032 11.3617 2.49664 0.00117952 10
5.99597 11.3724 2.96809 0.00114986 10
5.99252 11.3658 3.44283 0.00111595 10
4.69315 8.97716 -2.7143 0.000623882 1
5.43949 10.4048 -2.71059 0.000388678 1
5.94333 11.3685 -2.49358 0.00117499 10
5.94317 11.3682 -2.03176 0.00120042 10
5.93294 11.3487 -1.57237 0.00122111 10
5.94062 11.3633 -1.12182 0.00123686 10
5.98364 11.4457 -0.676866 3.50036e-05 10
5.98449 11.4473 -0.225471 3.51568e-05 10
5.98187 11.4423 0.225372 3.51627e-05 10
5.98638 11.4509 0.677176 3.5021e-05 10
5.93379 11.3503 1.12053 3.53528e-05 10
5.94042 11.363 1.57435 0.00122254 10
5.9437 11.3692 2.03194 0.00120223 10
5.93975 11.3617 2.49208 0.00117716 10
5.9442 11.3702 2.96209 0.00114757 10
5.93909 11.3604 3.4349 0.00111374 10
4.65728 8.9848 -2.71168 0.00062384 1
5.41415 10.4449 -2.71611 0.000388647 1
5.89041 11.3637 -2.488 0.00117251 10
5.88938 11.3618 -2.02691 0.00119789 10
5.88386 11.3511 -1.56985 0.00121853 10
5.88221 11.3479 -1.11827 0.00123425 10
5.89039 11.3637 1.11982 3.52783e-05 10
5.89516 11.3729 1.57287 0.00121996 10
5.88298 11.3494 2.02471 0.00119971 10
5.88483 11.353 2.48565 0.0011747 10
5.88239 11.3483 2.95101 0.00114517 10
5.89423 11.3711 3.43189 0.00111142 10
4.63753 9.02365 -2.7185 0.000623797 1
5.3676 10.4442 -2.71103 0.000388616 1
5.84279 11.3688 -2.48464 0.00116994 10
5.84371 11.3706 -2.02485 0.00119525 10
5.83788 11.3593 -1.56816 0.00121585 10
5.84184 11.367 -1.11813 0.00123152 10
5.8434 11.37 1.11843 3.52005e-05 10
5.83246 11.3487 1.5667 0.00121728 10
5.83353 11.3508 2.02132 0.00119707 10
5.84403 11.3713 2.48517 0.00117212 10
5.83628 11.3562 2.94775 0.00114268 10
5.83667 11.3569 3.42144 0.00110901 10
4.60276 9.03342 -2.71659 0.000623755 1
5.33643 10.4733 -2.71374 0.000388584 1
5.79484 11.373 -2.48112 0.00116725 10
5.7844 11.3525 -2.01801 0.0011925 10
5.79436 11.3721 -1.56712 0.00121305 10
5.78677 11.3572 -1.11517 0.00122869 10
5.78811 11.3598 1.11543 3.51196e-05 10
5.78871 11.361 1.56559 0.00121449 10
5.78618 11.356 2.01863 0.00119433 10
5.79439 11.3721 2.48092 0.00116945 10
5.78405 11.3518 2.94136 0.00114007 10
5.78267 11.3491 3.41298 0.00110649 10
4.56926 9.0456 -2.71544 0.000623712 1
5.29954 10.4913 -2.71359 0.000388553 1
5.73975 11.3628 -2.47449 0.00116446 10
5.73412 11.3516 -2.01428 0.00118965 10
5.74292 11.3691 -1.56393 0.00121014 10
5.73787 11.3591 -1.11338 0.00122573 10
5.73517 11.3537 1.11286 3.50354e-05 10
5.74078 11.3648 1.56335 0.00121158 10
5.73997 11.3632 2.01634 0.00119148 10
5.73323 11.3499 2.47168 0.00116666 10
5.7321 11.3476 2.93507 0.00113736 10
5.73905 11.3614 3.41062 0.00110387 10
4.53996 9.06608 -2.71681 0.000623669 1
5.26082 10.5056 -2.71252 0.000388521 1
5.68609 11.3549 -2.46843 0.00116156 10
5.69476 11.3722 -2.01439 0.00118668 10
5.69228 11.3672 -1.56094 0.00120712 10
5.68685 11.3564 -1.11117 0.00122267 10
5.68288 11.3484 1.11039 3.49481e-05 10
5.69059 11.3638 1.56047 0.00120856 10
5.68623 11.3551 2.01137 0.00118852 10
5.68582 11.3543 2.46832 0.00116377 10
5.68615 11.355 2.93182 0.00113455 10
5.69412 11.3709 3.40749 0.00110115 10
4.5055 9.07627 -2.71514 0.000623625 1
5.22054 10.5167 -2.71066 0.00038849 1
5.64128 11.3643 -2.46619 0.00115855 10
5.63518 11.352 -2.00732 0.0011836 10
5.63357 11.3487 -1.55569 0.00120398 10
5.64221 11.3662 -1.11019 0.0012195 10
5.63298 11.3476 1.10837 3.48575e-05 10
5.6323 11.3462 1.55534 0.00120544 10
5.63977 11.3612 2.00895 0.00118545 10
5.63311 11.3478 2.46262 0.00116077 10
5.63984 11.3614 2.92838 0.00113164 10
5.64388 11.3695 3.40116 0.00109833 10
4.48055 9.10567 -2.71924 0.000623583 1
5.19159 10.5507 -2.71474 0.000388458 1
5.59582 11.3722 -2.46365 0.00115544 10
5.59513 11.3708 -2.00718 0.00118042 10
5.59543 11.3714 -1.55611 0.00120074 10
5.58948 11.3593 -1.10761 0.00121621 10
5.58456 11.3493 1.10663 3.47637e-05 10
5.58931 11.359 1.55441 0.0012022 10
5.59238 11.3652 2.00619 0.00118227 10
5.59243 11.3653 2.46216 0.00115766 10
5.58417 11.3485 2.92002 0.00112862 10
5.58288 11.3459 3.38824 0.00109541 10
4.44194 9.10732 -2.71508 0.000623539 1
5.15644 10.5723 -2.71564 0.000388426 1
5.54412 11.3671 -2.45835 0.00115222 10
5.53616 11.3508 -2.00023 0.00117713 10
5.53731 11.3532 -1.55096 0.00119739 10
5.54348 11.3658 -1.10635 0.00121281 10
5.53812 11.3548 1.10528 3.46667e-05 10
5.54423 11.3674 1.5529 0.00119885 10
5.5365 11.3515 2.00035 0.00117898 10
5.54189 11.3626 2.45736 0.00115445 10
5.54181 11.3624 2.9186 0.00112549 10
5.53385 11.3461 3.3825 0.00109238 10
4.40697 9.11624 -2.71314 0.000623496 1
5.11053 10.5716 -2.71088 0.000388394 1
5.4901 11.3568 -2.45195 0.00114889 10
5.49567 11.3683 -1.99992 0.00117372 10
5.48672 11.3498 -1.54788 0.00119392 10
5.49122 11.3591 -1.10383 0.0012093 10
5.49292 11.3627 1.10417 3.45665e-05 10
5.48991 11.3564 1.54878 0.00119539 10
5.4945 11.3659 1.9995 0.00117558 10
5.48472 11.3457 2.44955 0.00115113 10
5.49238 11.3615 2.91343 0.00112226 10
5.4882 11.3529 3.3788 0.00108926 10
4.37452 9.13031 -2.71277 0.000623453 1
5.07311 10.5884 -2.71061 0.000388362 1
5.4381 11.3502 -2.44641 0.00114546 10
5.4376 11.3491 -1.99319 0.00117021 10
5.44758 11.37 -1.54802 0.00119035 10
5.43882 11.3517 -1.10125 0.00120568 10
5.44466 11.3639 1.10243 3.44632e-05 10
5.44733 11.3695 1.54795 0.00119182 10
5.44536 11.3653 1.99604 0.00117208 10
5.43598 11.3458 2.44546 0.0011477 10
5.44244 11.3592 2.90795 0.00111893 10
5.44454 11.3636 3.37632 0.00108603 10
4.34318 9.14671 -2.71312 0.000623409 1
5.03864 10.6113 -2.71197 0.000388331 1
5.39222 11.356 -2.44359 0.00114192 10
5.39163 11.3547 -1.99086 0.00116659 10
5.39768 11.3675 -1.54511 0.00118666 10
5.38786 11.3468 -1.09895 0.00120194 10
5.39566 11.3632 1.10054 3.43566e-05 10
5.39344 11.3586 1.5439 0.00118814 10
5.39158 11.3546 1.99084 0.00116846 10
5.39423 11.3602 2.4445 0.00114417 10
5.38715 11.3453 2.89956 0.00111549 10
5.3886 11.3484 3.36618 0.00108271 10
4.31924 9.17884 -2.71816 0.000623365 1
5.00533 10.6369 -2.71401 0.000388298 1
5.33852 11.3449 -2.43718 0.00113828 10
5.33994 11.3479 -1.98639 0.00116286 10
5.33886 11.3456 -1.5396 0.00118287 10
5.34698 11.3629 -1.09869 0.0011981 10
5.3499 11.3691 1.09929 3.42469e-05 10
5.34083 11.3498 1.54017 0.00118435 10
5.35034 11.3701 1.99026 0.00116474 10
5.33845 11.3448 2.43715 0.00114053 10
5.34545 11.3597 2.89844 0.00111195 10
5.3397 11.3474 3.36035 0.00107928 10
4.2873 9.19415 -2.71824 0.000623322 1
4.96892 10.6559 -2.71442 0.000388266 1
5.30102 11.3681 -2.43817 0.00113453 10
5.30167 11.3695 -1.9869 0.00115903 10
5.29137 11.3474 -1.53732 0.00117896 10
5.29546 11.3561 -1.09624 0.00119414 10
5.2957 11.3567 1.09629 3.41339e-05 10
5.29979 11.3654 1.53976 0.00118045 10
5.29931 11.3644 1.98602 0.00116091 10
5.29124 11.3471 2.43367 0.00113679 10
5.30178 11.3697 2.89626 0.00110831 10
5.2936 11.3522 3.35626 0.00107575 10
4.24605 9.18928 -2.71241 0.000623278 1
4.92584 10.6605 -2.7112 0.000388234 1
5.2504 11.3629 -2.43311 0.00113067 10
5.248 11.3577 -1.98164 0.00115509 10
5.24921 11.3603 -1.53658 0.00117495 10
5.25275 11.368 -1.09561 0.00119007 10
5.25051 11.3631 1.09514 3.40179e-05 10
5.24487 11.3509 1.53531 0.00117644 10
5.25329 11.3692 1.98364 0.00115697 10
5.25189 11.3661 2.4338 0.00113294 10
5.24984 11.3617 2.88953 0.00110456 10
5.24326 11.3474 3.34943 0.00107212 10
4.22502 9.22824 -2.71953 0.000623234 1
4.89019 10.6811 -2.71209 0.000388202 1
5.20113 11.3603 -2.42865 0.00112671 10
5.19944 11.3566 -1.97826 0.00115103 10
5.198 11.3534 -1.53318 0.00117083 10
5.19533 11.3476 -1.09189 0.0011859 10
5.20454 11.3677 1.09383 3.38986e-05 10
5.2022 11.3626 1.53442 0.00117232 10
5.20281 11.3639 1.97954 0.00115293 10
5.19868 11.3549 2.4275 0.00112898 10
5.20272 11.3637 2.88541 0.00110071 10
5.20032 11.3585 3.34731 0.00106839 10
4.19243 9.24215 -2.71931 0.00062319 1
4.85358 10.6997 -2.71248 0.00038817 1
5.15659 11.3676 -2.42636 0.00112264 10
5.14753 11.3477 -1.97357 0.00114688 10
5.15761 11.3699 -1.53297 0.00116659 10
5.15624 11.3669 -1.09201 0.00118161 10
5.15399 11.3619 1.09153 3.37762e-05 10
5.15036 11.3539 1.53081 0.00116809 10
5.1535 11.3608 1.97585 0.00114877 10
5.15534 11.3649 2.42577 0.00112492 10
5.15115 11.3557 2.87878 0.00109676 10
5.14719 11.3469 3.33859 0.00106457 10
4.15265 9.24007 -2.71441 0.000623146 1
4.81777 10.72 -2.71336 0.000388137 1
5.09812 11.3438 -2.41746 0.00111847 10
5.10242 11.3534 -1.97145 0.00114261 10
5.09969 11.3473 -1.52751 0.00116225 10
5.10299 11.3547 -1.08912 0.00117721 10
5.10046 11.349 1.08858 3.36507e-05 10
5.10229 11.3531 1.52829 0.00116375 10
5.09951 11.3469 1.97033 0.00114451 10
5.09991 11.3478 2.41831 0.00112076 10
5.10433 11.3576 2.87475 0.00109271 10
5.09871 11.3451 3.33281 0.00106064 10
4.12027 9.25426 -2.71434 0.000623101 1
4.78454 10.7463 -2.71576 0.000388105 1
5.05491 11.3535 -2.41575 0.00111419 10
5.05491 11.3535 -1.9684 0.00113824 10
5.05855 11.3617 -1.52706 0.0011578 10
5.05799 11.3604 -1.08797 0.0011727 10
5.05082 11.3443 1.08643 3.3522e-05 10
5.05573 11.3554 1.52621 0.00115931 10
5.05198 11.3469 1.96726 0.00114014 10
5.05221 11.3474 2.41446 0.00111648 10
5.06109 11.3674 2.87273 0.00108855 10
5.06143 11.3682 3.33436 0.00105661 10
4.0928 9.27962 -2.71757 0.000623057 1
4.74676 10.7623 -2.71562 0.000388072 1
5.01426 11.3688 -2.41527 0.00110981 10
5.01049 11.3603 -1.96653 0.00113376 10
5.01093 11.3613 -1.52465 0.00115324 10
5.00515 11.3482 -1.08512 0.00116808 10
5.00923 11.3574 1.086 3.33902e-05 10
5.00481 11.3474 1.52279 0.00115475 10
5.00246 11.3421 1.96338 0.00113567 10
5.01129 11.3621 2.41384 0.00111211 10
5.00893 11.3568 2.86561 0.00108429 10
5.01095 11.3613 3.32721 0.00105248 10
4.06049 9.29408 -2.71764 0.000623013 1
4.71175 10.7848 -2.71711 0.00038804 1
4.96196 11.3575 -2.40916 0.00110533 10
4.96086 11.3549 -1.96259 0.00112917 10
4.96495 11.3643 -1.52272 0.00114858 10
4.96146 11.3563 -1.08423 0.00116335 10
4.96002 11.353 1.52121 0.00115009 10
4.96011 11.3532 1.9623 0.00113109 10
4.9554 11.3425 2.40598 0.00110763 10
4.96595 11.3666 2.8637 0.00107993 10
4.95676 11.3456 3.31751 0.00104826 10
4.02813 9.30845 -2.71771 0.000622968 1
4.67052 10.7929 -2.71504 0.000388007 1
4.91623 11.3607 -2.4062 0.00110074 10
4.91848 11.3659 -1.96151 0.00112448 10
4.90926 11.3446 -1.51778 0.0011438 10
4.91432 11.3563 -1.08259 0.00115851 10
4.90856 11.343 1.51756 0.00114532 10
4.90903 11.3441 1.95774 0.0011264 10
4.90994 11.3462 2.40312 0.00110305 10
4.9162 11.3607 2.85786 0.00107547 10
4.91916 11.3675 3.31888 0.00104394 10
3.99084 9.31132 -2.71446 0.000622924 1
4.63093 10.8048 -2.71394 0.000387974 1
4.86818 11.3583 -2.40208 0.00109604 10
4.8698 11.3621 -1.9579 0.00111968 10
4.8642 11.349 -1.51608 0.00113892 10
4.8673 11.3563 -1.08095 0.00115357 10
4.86687 11.3553 1.51692 0.00114044 10
4.86917 11.3606 1.95765 0.00112161 10
4.86557 11.3522 2.40079 0.00109836 10
4.86192 11.3437 2.84931 0.00107091 10
4.87048 11.3637 3.31278 0.00103951 10
3.95887 9.32652 -2.71485 0.000622879 1
4.59846 10.8333 -2.71705 0.000387941 1
4.82163 11.3591 -2.39866 0.00109125 10
4.81579 11.3453 -1.9521 0.00111478 10
4.81836 11.3513 -1.51413 0.00113393 10
4.82132 11.3583 -1.07954 0.00114851 10
4.85516 11.438 -0.65121 3.25067e-05 10
4.85134 11.429 -0.216723 3.26492e-05 10
4.85229 11.4313 0.216765 3.26555e-05 10
4.85509 11.4379 0.6512 3.25254e-05 10
4.82134 11.3584 1.51507 0.00113545 10
4.81527 11.3441 1.95189 0.00111671 10
4.82042 11.3562 2.39805 0.00109357 10
4.8144 11.342 2.84465 0.00106624 10
4.82173 11.3593 3.30656 0.00103499 10
3.92417 9.33522 -2.71338 0.000622834 1
4.5577 10.8423 -2.71532 0.000387909 1
4.77726 11.3646 -2.3963 0.00108635 10
4.76893 11.3448 -1.94915 0.00110977 10
4.7677 11.3419 -1.51065 0.00112884 10
4.76758 11.3416 -1.07637 0.00114335 10
4.77752 11.3653 -0.646114 3.29336e-05 10
4.77335 11.3554 -0.215008 3.30779e-05 10
4.77202 11.3522 0.214948 3.30843e-05 10
4.7702 11.3479 0.645125 3.29526e-05 10
4.773 11.3545 1.07759 3.26843e-05 10
4.77721 11.3645 1.51366 0.00113036 10
4.77539 11.3602 1.95179 0.00111171 10
4.77418 11.3573 2.39476 0.00108868 10
4.77371 11.3562 2.84401 0.00106148 10
4.76717 11.3406 3.29628 0.00103038 10
3.89625 9.36013 -2.71665 0.000622789 1
4.5226 10.8649 -2.71699 0.000387876 1
4.72161 11.3429 -2.38824 0.00108135 10
4.72111 11.3417 -1.94577 0.00110466 10
4.72639 11.3544 -1.51011 0.00112363 10
4.72305 11.3464 -1.07525 0.00113808 10
4.72755 11.3572 -0.644713 0.00114787 10
4.72632 11.3543 -0.214674 0.00115289 10
4.72228 11.3446 0.214491 0.00115312 10
4.72839 11.3592 0.644828 0.00114853 10
4.73147 11.3666 1.07717 0.00113919 10
4.72877 11.3601 1.51087 0.00112516 10
4.72949 11.3619 1.94922 0.0011066 10
4.72577 11.3529 2.39034 0.00108368 10
4.73088 11.3652 2.84211 0.00105661 10
4.72293 11.3461 3.29305 0.00102566 10
3.86569 9.37887 -2.71816 0.000622744 1
4.48589 10.8836 -2.71773 0.000387843 1
4.68119 11.3574 -2.38783 0.00107624 10
4.68031 11.3553 -1.94528 0.00109945 10
4.67458 11.3414 -1.5062 0.00111833 10
4.67569 11.3441 -1.07348 0.0011327 10
4.6812 11.3574 -0.643795 0.00114244 10
4.68329 11.3625 -0.21452 0.00114745 10
4.67681 11.3468 0.214223 0.00114767 10
4.67687 11.3469 0.643199 0.00114311 10
4.68106 11.3571 1.07471 0.00113381 10
4.67547 11.3435 1.50648 0.00111986 10
4.67921 11.3526 1.94482 0.00110139 10
4.68157 11.3583 2.38802 0.00107858 10
4.67591 11.3446 2.83286 0.00105165 10
4.68064 11.3561 3.29118 0.00102085 10
3.83419 9.39539 -2.71905 0.0006227 1
4.44383 10.8893 -2.71527 0.00038781 1
4.63724 11.3632 -2.38563 0.00107104 10
4.63454 11.3566 -1.94272 0.00109412 10
4.62814 11.3409 -1.50398 0.00111291 10
4.62949 11.3442 -1.07195 0.00112722 10
4.63726 11.3633 -0.643204 0.00113691 10
4.62884 11.3426 -0.213838 0.00114189 10
4.6356 11.3592 0.21415 0.00114212 10
4.63785 11.3647 0.643285 0.00113758 10
4.63386 11.3549 1.07297 0.00112833 10
4.63788 11.3648 1.50714 0.00111445 10
4.63342 11.3538 1.94225 0.00109607 10
4.62822 11.3411 2.38099 0.00107338 10
4.62961 11.3445 2.82878 0.00104658 10
4.63611 11.3604 3.28774 0.00101594 10
3.80141 9.40882 -2.71908 0.000622654 1
4.40968 10.9143 -2.71767 0.000387776 1
4.58801 11.3557 -2.38068 0.00106573 10
4.58495 11.3481 -1.93853 0.0010887 10
4.59157 11.3645 -1.50497 0.00110739 10
4.58212 11.3411 -1.07014 0.00112163 10
4.59143 11.3642 -0.642344 0.00113127 10
4.59048 11.3618 -0.213897 0.00113623 10
4.59036 11.3615 0.213891 0.00113645 10
4.5905 11.3619 0.642214 0.00113194 10
4.59175 11.365 1.07239 0.00112274 10
4.58203 11.3409 1.50185 0.00110893 10
4.58513 11.3486 1.9386 0.00109065 10
4.58516 11.3487 2.3792 0.00106808 10
4.58436 11.3467 2.82532 0.00104142 10
4.5884 11.3567 3.282 0.00101094 10
3.76212 9.40598 -2.71444 0.000622609 1
4.36939 10.9243 -2.71632 0.000387743 1
4.54045 11.3519 -2.37655 0.00106032 10
4.54087 11.353 -1.93663 0.00108317 10
4.54158 11.3548 -1.50157 0.00110177 10
4.54338 11.3593 -1.07035 0.00111593 10
4.54411 11.3611 -0.641269 0.00112552 10
4.54353 11.3596 -0.213555 0.00113046 10
4.5407 11.3525 0.213422 0.00113068 10
4.53944 11.3494 0.64061 0.0011262 10
4.53638 11.3418 1.0687 0.00111704 10
4.5426 11.3573 1.50191 0.00110331 10
4.54236 11.3567 1.93727 0.00108513 10
4.54305 11.3584 2.37791 0.00106267 10
4.53898 11.3483 2.82175 0.00103616 10
4.54306 11.3585 3.27791 0.00100583 10
3.73402 9.43105 -2.7179 0.000622564 1
4.3292 10.9343 -2.71504 0.00038771 1
4.49857 11.3621 -2.37537 0.00105481 10
4.49169 11.3447 -1.93254 0.00107754 10
4.49222 11.346 -1.49834 0.00109604 10
4.49241 11.3465 -1.06767 0.00111013 10
4.49091 11.3427 -0.639344 0.00111967 10
4.49823 11.3612 -0.213289 0.00112458 10
4.49553 11.3544 0.213161 0.00112481 10
4.49128 11.3437 0.639397 0.00112035 10
4.49547 11.3542 1.06839 0.00111124 10
4.49011 11.3407 1.49763 0.00109759 10
4.49097 11.3429 1.93222 0.0010795 10
4.49848 11.3618 2.37532 0.00105717 10
4.49253 11.3468 2.81748 0.0010308 10
4.49481 11.3526 3.27167 0.00100064 10
3.69755 9.43503 -2.71531 0.000622518 1
4.295 10.9596 -2.71758 0.000387677 1
4.44802 11.35 -2.36959 0.0010492 10
4.44662 11.3464 -1.93017 0.00107181 10
4.45106 11.3578 -1.49783 0.00109021 10
4.44489 11.342 -1.06578 0.00110422 10
4.45199 11.3601 -0.639446 0.00111371 10
4.44812 11.3503 -0.21279 0.0011186 10
4.45356 11.3641 0.21305 0.00111882 10
4.44629 11.3456 0.638628 0.00111439 10
4.45286 11.3624 1.06769 0.00110534 10
4.45373 11.3646 1.49872 0.00109176 10
4.45247 11.3614 1.93271 0.00107378 10
4.45348 11.364 2.3725 0.00105157 10
4.45308 11.3629 2.81759 0.00102534 10
4.44925 11.3531 3.26733 0.000995346 10
3.667 9.45409 -2.7171 0.000622473 1
4.24991 10.9569 -2.71322 0.000387643 1
4.40793 11.3643 -2.36935 0.00104349 10
4.40512 11.3571 -1.92936 0.00106597 10
4.40598 11.3593 -1.49599 0.00108427 10
4.40633 11.3602 -1.06603 0.00109821 10
4.4031 11.3519 -0.638111 0.00110765 10
4.40379 11.3536 -0.212564 0.00111251 10
4.40089 11.3462 0.212424 0.00111273 10
4.39973 11.3432 0.637622 0.00110833 10
4.39884 11.3409 1.06422 0.00109933 10
4.39894 11.3411 1.4936 0.00108582 10
4.39955 11.3427 1.92692 0.00106795 10
4.39935 11.3422 2.36474 0.00104586 10
4.39831 11.3395 2.80797 0.00101978 10
4.39961 11.3429 3.25993 0.000989959 10
3.63479 9.46895 -2.71771 0.000622427 1
4.21069 10.9692 -2.71262 0.00038761 1
4.36067 11.3599 -2.36525 0.00103768 10
4.3622 11.3639 -1.92792 0.00106004 10
4.35926 11.3563 -1.49358 0.00107823 10
4.35602 11.3478 -1.06344 0.00109209 10
4.35893 11.3554 -0.637451 0.00110148 10
4.3543 11.3433 -0.212085 0.00110631 10
4.35569 11.347 0.212153 0.00110654 10
4.35259 11.3389 0.636523 0.00110216 10
4.35512 11.3455 1.06322 0.00109321 10
4.35689 11.3501 1.49277 0.00107979 10
4.35402 11.3426 1.92431 0.00106201 10
4.358 11.353 2.3638 0.00104006 10
4.35606 11.3479 2.80627 0.00101413 10
4.35845 11.3542 3.25878 0.000984479 10
3.59653 9.46793 -2.71379 0.000622382 1
4.17828 10.9994 -2.71646 0.000387576 1
4.31747 11.3658 -2.36332 0.00103178 10
4.3139 11.3564 -1.92408 0.001054 10
4.30892 11.3433 -1.48989 0.00107209 10
4.31306 11.3542 -1.06262 0.00108587 10
4.31105 11.3489 -0.636238 0.0010952 10
4.31665 11.3637 -0.212182 0.00110001 10
4.30876 11.3429 0.211794 0.00110024 10
4.30944 11.3447 0.636 0.00109588 10
4.31385 11.3563 1.06281 0.00108699 10
4.31725 11.3652 1.49277 0.00107365 10
4.31229 11.3522 1.92336 0.00105598 10
4.30853 11.3423 2.35842 0.00103415 10
4.30765 11.34 2.80056 0.00100838 10
4.31646 11.3632 3.25703 0.000978904 10
3.57171 9.50238 -2.72008 0.000622336 1
4.13641 11.0047 -2.71419 0.000387543 1
4.26186 11.3385 -2.35453 0.00102577 10
4.26886 11.3571 -1.92166 0.00104786 10
4.26414 11.3445 -1.48808 0.00106584 10
4.27198 11.3654 -1.06227 0.00107954 10
4.26541 11.3479 -0.635344 0.00108882 10
4.27031 11.361 -0.211853 0.0010936 10
4.26386 11.3438 0.211532 0.00109383 10
4.26161 11.3378 0.634779 0.0010895 10
4.26319 11.342 1.06008 0.00108067 10
4.26961 11.3591 1.48999 0.00106741 10
4.26707 11.3523 1.92085 0.00104985 10
4.27156 11.3643 2.35989 0.00102815 10
4.26478 11.3462 2.79842 0.00100254 10
4.26605 11.3496 3.24886 0.000973235 10
3.53394 9.50248 -2.71656 0.00062229 1
4.09545 11.0123 -2.71252 0.000387509 1
4.21961 11.3462 -2.35306 0.00101966 10
4.22123 11.3505 -1.91805 0.00104162 10
4.22487 11.3603 -1.48821 0.0010595 10
4.22154 11.3514 -1.05957 0.00107311 10
4.22658 11.3649 -0.635466 0.00108234 10
4.21761 11.3408 -0.211201 0.00108709 10
4.22508 11.3609 0.211575 0.00108732 10
4.21904 11.3447 0.634333 0.00108302 10
4.22043 11.3484 1.05929 0.00107424 10
4.22315 11.3557 1.48761 0.00106106 10
4.22099 11.3499 1.91794 0.00104361 10
4.22306 11.3555 2.35498 0.00102205 10
4.21729 11.34 2.79322 0.000996593 10
4.22311 11.3556 3.24633 0.000967473 10
3.50467 9.52542 -2.7196 0.000622244 1
4.06307 11.0431 -2.71659 0.000387476 1
4.1769 11.3525 -2.35132 0.00101346 10
4.17821 11.356 -1.9165 0.00103529 10
4.17156 11.338 -1.48336 0.00105305 10
4.17948 11.3595 -1.05896 0.00106658 10
4.17639 11.3511 -0.633873 0.00107575 10
4.18091 11.3634 -0.211348 0.00108048 10
4.17241 11.3403 0.210918 0.00108071 10
4.17176 11.3385 0.63317 0.00107644 10
4.17876 11.3575 1.05878 0.00106772 10
4.17163 11.3381 1.48339 0.00105462 10
4.17892 11.358 1.91682 0.00103728 10
4.17405 11.3447 2.34972 0.00101586 10
4.17677 11.3521 2.79261 0.000990557 10
4.17907 11.3584 3.24293 0.000961619 10
3.46396 9.51714 -2.71377 0.000622198 1
4.02003 11.045 -2.71358 0.000387442 1
4.12735 11.3398 -2.3457 0.00100716 10
4.13387 11.3577 -1.91433 0.00102885 10
4.13076 11.3492 -1.48293 0.0010465 10
4.1311 11.3501 -1.05673 0.00105995 10
4.13018 11.3476 -0.632869 0.00106906 10
4.13028 11.3479 -0.21079 0.00107376 10
4.12965 11.3461 0.210757 0.00107399 10
4.12811 11.3419 0.63255 0.00106975 10
4.12811 11.3419 1.05597 0.00106108 10
4.1304 11.3482 1.48281 0.00104808 10
4.12962 11.346 1.91237 0.00103085 10
4.13215 11.353 2.34842 0.00100956 10
4.12992 11.3469 2.78775 0.000984424 10
4.13569 11.3627 3.24002 0.000955673 10
3.43072 9.52918 -2.71377 0.000622152 1
3.98907 11.0801 -2.71877 0.000387408 1
4.08923 11.3583 -2.34655 0.00100077 10
4.08801 11.3549 -1.91144 0.00102231 10
4.08258 11.3398 -1.47984 0.00103985 10
4.0847 11.3457 -1.05499 0.00105322 10
4.08214 11.3386 -0.631567 0.00106227 10
4.08383 11.3433 -0.210438 0.00106694 10
4.09149 11.3645 0.210833 0.00106717 10
4.08466 11.3456 0.631957 0.00106296 10
4.08953 11.3591 1.05624 0.00105435 10
4.08144 11.3366 1.47942 0.00104143 10
4.08987 11.36 1.91231 0.00102431 10
4.08163 11.3371 2.34219 0.00100317 10
4.08172 11.3374 2.78191 0.000978198 10
4.08203 11.3383 3.22898 0.000949635 10
3.40308 9.55696 -2.71828 0.000622106 1
3.94792 11.087 -2.71708 0.000387374 1
4.04267 11.3531 -2.34256 0.000994274 10
4.04384 11.3564 -1.90931 0.00101568 10
4.04495 11.3595 -1.48056 0.00103311 10
4.03938 11.3439 -1.0535 0.00104638 10
4.03962 11.3446 -0.631112 0.00105538 10
4.0432 11.3546 -0.210386 0.00106002 10
4.04305 11.3542 0.210378 0.00106025 10
4.04265 11.3531 0.631586 0.00105607 10
4.04527 11.3604 1.05504 0.00104752 10
4.04184 11.3508 1.47942 0.00103468 10
4.04628 11.3633 1.91046 0.00101768 10
4.04007 11.3459 2.34106 0.000996682 10
4.03851 11.3415 2.77943 0.000971877 10
4.04033 11.3466 3.2273 0.000943505 10
3.36793 9.56376 -2.71686 0.00062206 1
3.90764 11.0963 -2.716 0.00038734 1
3.99527 11.3452 -2.33803 0.000987687 10
4.00127 11.3622 -1.90793 0.00100895 10
4.0001 11.3589 -1.47865 0.00102626 10
4.00016 11.3591 -1.05361 0.00103945 10
3.99576 11.3466 -0.630444 0.00104839 10
3.9923 11.3368 -0.209796 0.00105299 10
3.99359 11.3404 0.209863 0.00105322 10
4.00166 11.3633 0.631374 0.00104908 10
4.00151 11.3629 1.05397 0.00104059 10
3.99769 11.3521 1.47776 0.00102784 10
3.99485 11.344 1.90486 0.00101096 10
3.99328 11.3395 2.33686 0.0009901 10
3.99992 11.3584 2.78014 0.000965464 10
3.99576 11.3466 3.22332 0.000937285 10
3.33299 9.57104 -2.7156 0.000622014 1
3.86658 11.1033 -2.71438 0.000387306 1
3.95203 11.3487 -2.3359 0.000981004 10
3.95539 11.3583 -1.90494 0.00100212 10
3.94887 11.3396 -1.47434 0.00101931 10
3.95006 11.343 -1.05084 0.00103241 10
3.95343 11.3527 -0.630015 0.00104129 10
3.94849 11.3385 -0.209572 0.00104587 10
3.95036 11.3439 0.209671 0.0010461 10
3.95194 11.3484 0.629776 0.00104198 10
3.95028 11.3437 1.0509 0.00103355 10
3.94922 11.3406 1.47447 0.0010209 10
3.95635 11.3611 1.90541 0.00100413 10
3.95118 11.3463 2.33539 0.000983421 10
3.95017 11.3433 2.77307 0.000958957 10
3.95652 11.3616 3.22364 0.000930975 10
3.30015 9.58432 -2.71609 0.000621967 1
3.82675 11.1137 -2.71364 0.000387272 1
3.91125 11.3591 -2.33521 0.000974227 10
3.90789 11.3493 -1.90114 0.000995199 10
3.90508 11.3412 -1.47276 0.00101227 10
3.911 11.3584 -1.05099 0.00102528 10
3.90586 11.3434 -0.628738 0.0010341 10
3.90895 11.3524 -0.209575 0.00103865 10
3.91169 11.3604 0.209722 0.00103888 10
3.91002 11.3555 0.629409 0.00103479 10
3.91208 11.3615 1.05128 0.00102642 10
3.90594 11.3437 1.47308 0.00101386 10
3.90391 11.3378 1.8992 0.000997214 10
3.912 11.3613 2.33566 0.000976649 10
3.90355 11.3367 2.7681 0.000952359 10
3.90979 11.3549 3.21784 0.000924575 10
3.2683 9.60057 -2.71744 0.000621921 1
3.78809 11.1274 -2.71375 0.000387238 1
3.86456 11.3521 -2.33098 0.000967357 10
3.86412 11.3508 -1.8991 0.00098818 10
3.86309 11.3477 -1.47185 0.00100513 10
3.86111 11.3419 -1.04821 0.00101805 10
3.86215 11.345 -0.628073 0.0010268 10
3.86057 11.3403 -0.209102 0.00103132 10
3.85988 11.3383 0.209065 0.00103155 10
3.86769 11.3613 0.628974 0.0010275 10
3.86727 11.36 1.04988 0.00101919 10
3.86121 11.3422 1.47113 0.00100672 10
3.86259 11.3463 1.89835 0.000990198 10
3.8647 11.3525 2.33106 0.000969782 10
3.86198 11.3445 2.76669 0.00094567 10
3.86267 11.3465 3.21163 0.000918087 10
3.23602 9.61563 -2.71849 0.000621874 1
3.757 11.1637 -2.71938 0.000387204 1
3.81502 11.3361 -2.32495 0.000960392 10
3.81579 11.3384 -1.89479 0.000981063 10
3.82335 11.3609 -1.47181 0.000997891 10
3.81698 11.3419 -1.04698 0.00101072 10
3.82312 11.3602 -0.628172 0.00101941 10
3.8205 11.3524 -0.209077 0.0010239 10
3.81631 11.3399 0.208847 0.00102413 10
3.8156 11.3378 0.626936 0.00102011 10
3.81489 11.3357 1.0464 0.00101186 10
3.81492 11.3358 1.46857 0.000999485 10
3.82012 11.3512 1.89694 0.000983086 10
3.82278 11.3591 2.32968 0.000962822 10
3.82151 11.3554 2.76608 0.000938888 10
3.82159 11.3556 3.21042 0.000911509 10
3.206 9.63759 -2.72152 0.000621827 1
3.71831 11.1776 -2.7196 0.00038717 1
3.77476 11.3473 -2.32454 0.000953336 10
3.77643 11.3523 -1.89491 0.000973855 10
3.7736 11.3439 -1.4679 0.000990558 10
3.77313 11.3425 -1.0458 0.00100329 10
3.77282 11.3415 -0.626408 0.00101192 10
3.77406 11.3452 -0.208702 0.00101638 10
3.7757 11.3502 0.208792 0.00101661 10
3.77396 11.3449 0.626597 0.00101262 10
3.77861 11.3589 1.04732 0.00100444 10
3.77611 11.3514 1.46887 0.000992155 10
3.77395 11.3449 1.89367 0.00097588 10
3.77515 11.3485 2.32478 0.00095577 10
3.77255 11.3407 2.75927 0.000932017 10
3.77389 11.3447 3.20359 0.000904844 10
3.17115 9.64512 -2.7205 0.000621781 1
3.6705 11.1639 -2.71312 0.000387135 1
3.72815 11.3392 -2.3202 0.000946186 10
3.72909 11.3421 -1.89102 0.000966551 10
3.7276 11.3376 -1.46539 0.000983129 10
3.72963 11.3437 -1.04471 0.000995763 10
3.73474 11.3593 -0.626666 0.00100433 10
3.73168 11.35 -0.208548 0.00100875 10
3.73334 11.355 0.20864 0.00100899 10
3.72687 11.3353 0.625345 0.00100503 10
3.72914 11.3422 1.04458 0.000996917 10
3.73202 11.351 1.46713 0.000984728 10
3.7288 11.3412 1.89087 0.00096858 10
3.73378 11.3563 2.3237 0.000948625 10
3.73331 11.3549 2.75954 0.000925054 10
3.72728 11.3366 3.1976 0.00089809 10
3.13126 9.63703 -2.71512 0.000621734 1
3.63354 11.1829 -2.71464 0.000387101 1
3.68953 11.3552 -2.32082 0.000938946 10
