VERSION 0.7
FIELDS x y z intensity label
SIZE 4 4 4 4 4
TYPE F F F F F
COUNT 1 1 1 1 1
WIDTH 1141
HEIGHT 1
VIEWPOINT 17.0234 44.9962 2.72808 0.999999 0.000123714 0.000957126 -0.000776885
POINTS 1141
DATA ascii
-18.0953 -9.22 5.44173 0.000652789 10
-8.8405 -4.5434 -2.66332 5.86896e-05 4
-10.2801 -5.28328 -2.66844 0.000181987 4
-12.2393 -6.29017 -2.67489 3.01306e-05 4
-14.5947 -7.50068 -2.59898 0.000152056 4
-18.0752 -9.28939 -2.49529 0.000923059 10
-18.0809 -9.29233 -1.77856 0.000935441 10
-31.7559 -16.3203 -1.87118 0.000179525 10
-31.7592 -16.322 -0.623285 0.000119157 10
-31.7485 -16.3165 0.623074 0.00011912 10
-18.0853 -9.29459 1.06566 0.000735184 10
-18.0753 -9.28946 1.77801 0.000728358 10
-18.0741 -9.28885 3.95007 0.000689005 10
-18.0833 -9.29355 4.69393 0.000670047 10
-18.0863 -9.29511 5.44876 0.000648469 10
-8.83547 -4.57987 -2.66661 0.000125211 4
-10.2548 -5.31557 -2.66666 6.06657e-05 4
-14.5863 -7.56081 -2.60216 0.000112 4
-18.086 -9.37488 -2.50129 0.000916934 10
-18.0661 -9.36458 -1.7803 0.000929239 10
-31.7371 -16.451 -1.87344 0.000178165 10
-37.0247 -19.1918 -0.727932 5.52883e-05 10
-37.0616 -19.2109 0.728655 0.000106706 10
-18.0766 -9.37002 1.06706 0.000730309 10
-18.0807 -9.37214 1.78174 0.000723527 10
-18.09 -9.37695 3.96066 0.00068442 10
-18.0968 -9.38048 4.7059 0.000665581 10
-18.0963 -9.38026 5.46161 0.000644139 10
-8.81623 -4.60901 -2.66564 0.00020739 4
-10.2439 -5.3554 -2.66869 0.000133472 4
-12.1728 -6.36381 -2.67 4.93114e-05 4
-14.5865 -7.62564 -2.60694 0.000275974 4
-18.0693 -9.44641 -2.50353 0.000910796 10
-18.0681 -9.44575 -1.78373 0.000923021 10
-31.7385 -16.5925 -1.87693 0.000176802 10
-31.7513 -16.5992 -0.625389 0.00011735 10
-31.7423 -16.5945 0.62521 0.000117313 10
-18.0926 -9.45857 1.06995 0.000725424 10
-18.0886 -9.45651 1.78576 0.000718684 10
-18.0892 -9.45682 3.9677 0.000679825 10
-18.0981 -9.46148 4.71482 0.000661105 10
-18.1008 -9.46285 5.47288 0.0006398 10
-8.79798 -4.63865 -2.665 0.000172181 4
-10.237 -5.39736 -2.67177 8.49417e-05 4
-12.1547 -6.40845 -2.67091 0.000123287 4
-14.5956 -7.69538 -2.61335 0.000292136 4
-18.0673 -9.5258 -2.50784 0.000904644 10
-18.0857 -9.53553 -1.78875 0.000916791 10
-27.5008 -14.4995 -1.62931 0.000145003 10
-27.5104 -14.5046 -0.542851 0.000145736 10
-27.4902 -14.4939 0.542452 0.000145748 10
-18.0757 -9.53022 1.07091 0.000720528 10
-18.095 -9.54041 1.78967 0.00071383 10
-18.0875 -9.53646 3.9746 0.00067522 10
-18.0861 -9.53573 4.72032 0.00065662 10
-18.0863 -9.53583 5.47854 0.000635452 10
-8.78157 -4.66925 -2.66496 0.000191757 4
-10.2026 -5.42484 -2.66773 8.49466e-05 4
-12.1275 -6.4483 -2.66986 5.61681e-05 4
-14.5765 -7.75049 -2.61476 0.000222801 4
-18.0741 -9.61019 -2.51343 0.000898481 10
-18.0637 -9.60461 -1.78987 0.000910548 10
-27.3002 -14.5158 -1.62042 0.000280019 10
-27.3133 -14.5227 -0.539958 0.000281326 10
-27.3013 -14.5164 0.539722 0.000281239 10
-18.0746 -9.61042 1.07282 0.000715622 10
-18.0876 -9.61736 1.79225 0.000708967 10
-18.0735 -9.60988 3.97888 0.000670605 10
-18.0991 -9.62346 4.73245 0.000652126 10
-18.0885 -9.61784 5.48935 0.000631095 10
-8.78121 -4.70844 -2.66982 0.000203507 4
-10.1827 -5.45993 -2.66749 0.000126214 4
-12.1175 -6.49736 -2.67264 0.000135635 4
-14.5833 -7.81947 -2.62085 0.000292973 4
-18.0788 -9.69377 -2.51877 0.000892305 10
-18.0664 -9.68713 -1.79349 0.000904294 10
-18.2959 -9.81017 -1.08799 0.000472235 10
-18.2744 -9.79867 -0.361943 0.000474414 10
-18.2974 -9.811 0.362398 0.000474446 10
-18.0858 -9.69753 1.0755 0.000710707 10
-18.0813 -9.6951 1.79496 0.000704095 10
-18.1471 -9.73036 2.52828 0.000438808 10
-18.1651 -9.74002 3.26456 0.000430746 10
-18.0791 -9.69394 3.98753 0.000665983 10
-18.0774 -9.69301 4.73559 0.000647624 10
-18.0801 -9.69448 5.49703 0.000626729 10
-8.74068 -4.72607 -2.66249 0.000223086 4
-10.1579 -5.49237 -2.666 8.98111e-05 4
-12.0965 -6.54053 -2.67302 8.22088e-05 4
-14.5801 -7.88341 -2.6252 0.000239198 4
-18.0747 -9.77295 -2.52293 0.000886118 10
-18.0772 -9.77428 -1.79793 0.000898027 10
-18.1294 -9.80255 -1.08012 0.000483798 10
-18.1244 -9.79984 -0.359647 0.000486027 10
-18.1212 -9.7981 0.359583 0.00048606 10
-18.0828 -9.77732 1.07734 0.000705782 10
-18.0781 -9.77481 1.79803 0.000699214 10
-18.0919 -9.78223 2.52533 0.000440194 10
-18.096 -9.78447 3.25826 0.000432109 10
-18.0965 -9.78472 3.99887 0.000661351 10
-18.0847 -9.77838 4.74643 0.000643113 10
-18.0928 -9.78272 5.51123 0.000622357 10
-8.72553 -4.75731 -2.66292 0.000285721 4
-10.1396 -5.5283 -2.66624 0.000111664 4
-14.5893 -7.95435 -2.63185 0.000275639 4
-18.0701 -9.85215 -2.52708 0.00087992 10
-18.0701 -9.85214 -1.80064 0.00089175 10
-18.0654 -9.84956 -1.07834 0.000899619 10
-18.0842 -9.85984 -0.35953 0.000903446 10
-18.0766 -9.85569 0.359379 0.000903191 10
-18.0706 -9.85241 1.07865 0.00070085 10
-18.0934 -9.86482 1.80296 0.000694324 10
-18.0751 -9.85485 2.52777 0.000684721 10
-18.0926 -9.8644 3.26383 0.000672141 10
-18.0875 -9.86161 4.00446 0.000656712 10
-18.0764 -9.85557 4.75324 0.000638595 10
-18.085 -9.86027 5.51932 0.000617976 10
-8.71041 -4.78859 -2.66339 0.000219194 4
-10.1312 -5.56967 -2.66913 0.000169933 4
-12.0459 -6.62226 -2.67198 7.94799e-05 4
-14.5816 -8.01632 -2.6355 0.00027369 4
-18.0603 -9.92873 -2.53054 0.000873712 10
-18.0709 -9.93455 -1.80416 0.000885462 10
-18.0631 -9.93028 -1.08027 0.000893278 10
-18.0767 -9.93775 -0.360068 0.000897079 10
-18.0793 -9.93915 0.360119 0.000896825 10
-18.0838 -9.94163 1.0815 0.000695909 10
-18.0928 -9.94661 1.80635 0.000689427 10
-18.0847 -9.94217 2.53396 0.000679887 10
-18.0727 -9.93555 3.26648 0.000667391 10
-18.0883 -9.94414 4.01231 0.000652065 10
-18.0882 -9.94407 4.76545 0.000634069 10
-18.0868 -9.94332 5.53043 0.000613589 10
-8.71024 -4.82816 -2.66848 3.52294e-05 4
-10.1048 -5.60119 -2.66731 8.49715e-05 4
-14.5921 -8.08854 -2.64248 0.000307943 4
-18.0736 -10.0184 -2.53729 0.000867494 10
-18.0794 -10.0216 -1.80849 0.000879165 10
-18.0666 -10.0145 -1.08256 0.000886928 10
-18.0901 -10.0275 -0.361031 0.000890702 10
-18.0745 -10.0189 0.360718 0.00089045 10
-18.0772 -10.0204 1.0832 0.00069096 10
-18.088 -10.0263 1.80935 0.000684522 10
-18.0833 -10.0237 2.53864 0.000675046 10
-18.0755 -10.0194 3.27328 0.000662633 10
-18.0977 -10.0317 4.02213 0.000647411 10
-18.0849 -10.0246 4.77377 0.000629537 10
-18.0987 -10.0323 5.54473 0.000609195 10
-8.68349 -4.85304 -2.66545 9.00351e-05 4
-10.0881 -5.63805 -2.66808 9.95439e-05 4
-12.0066 -6.71025 -2.6736 8.77146e-05 4
-14.5802 -8.14859 -2.64545 0.000294642 4
-18.0609 -10.0939 -2.54043 0.000861268 10
-18.073 -10.1007 -1.81137 0.000872859 10
-18.0796 -10.1043 -1.08545 0.000880568 10
-18.0674 -10.0975 -0.361278 0.000884317 10
-18.0813 -10.1053 0.361555 0.000884066 10
-18.071 -10.0995 1.08493 0.000686004 10
-18.0779 -10.1034 1.81185 0.000679609 10
-18.0945 -10.1127 2.54515 0.000670198 10
-18.0736 -10.101 3.2793 0.000657869 10
-18.0791 -10.1041 4.02582 0.00064275 10
-18.0914 -10.111 4.78478 0.000624998 10
-18.0874 -10.1087 5.55204 0.000604794 10
-8.67574 -4.88853 -2.6683 0.000215312 4
-10.0741 -5.67646 -2.66959 0.000109262 4
-14.5753 -8.21274 -2.64975 0.000267681 4
-18.0735 -10.1839 -2.54718 0.000855033 10
-18.0693 -10.1816 -1.81455 0.000866544 10
-18.0863 -10.1911 -1.08798 0.0008742 10
-18.0748 -10.1846 -0.362135 0.000877922 10
-18.0794 -10.1872 0.362227 0.000877673 10
-18.0827 -10.1891 1.08777 0.000681042 10
-18.0797 -10.1874 1.81559 0.00067469 10
-18.0847 -10.1902 2.54877 0.000665343 10
-18.096 -10.1966 3.2898 0.000653098 10
-18.0835 -10.1895 4.03468 0.000638083 10
-18.0911 -10.1938 4.79407 0.000620453 10
-18.0954 -10.1962 5.5654 0.000600388 10
-8.65341 -4.91582 -2.66669 9.78742e-05 4
-10.0604 -5.7151 -2.67123 8.74149e-05 4
-11.9418 -6.78387 -2.66965 0.000100064 4
-14.5752 -8.27986 -2.65497 0.000242922 4
-18.0688 -10.2645 -2.55156 0.00084879 10
-18.0726 -10.2667 -1.81847 0.000860221 10
-18.0638 -10.2617 -1.08878 0.000867823 10
-18.0785 -10.27 -0.362924 0.000871519 10
-18.0817 -10.2718 0.362989 0.000871271 10
-18.0802 -10.271 1.08976 0.000676073 10
-18.0784 -10.27 1.81905 0.000669765 10
-18.0915 -10.2774 2.55477 0.000660482 10
-18.0876 -10.2752 3.29478 0.000648322 10
-18.0839 -10.2731 4.04275 0.00063341 10
-18.094 -10.2788 4.80432 0.000615902 10
-18.0965 -10.2803 5.57675 0.000595976 10
-8.64031 -4.94835 -2.66796 0.000313213 4
-10.0224 -5.73988 -2.66645 6.55651e-05 4
-11.9272 -6.83076 -2.6717 3.97544e-05 4
-14.5699 -8.34425 -2.65929 0.000311254 4
-18.0791 -10.354 -2.5581 0.000842541 10
-18.067 -10.3471 -1.82152 0.000853891 10
-31.7358 -18.1753 -1.91665 0.000161722 10
-31.7651 -18.192 -0.638954 6.1079e-05 10
-31.7644 -18.1916 0.638938 6.10835e-05 10
-18.0811 -10.3552 1.09199 0.000671098 10
-18.0903 -10.3604 1.82387 0.000664834 10
-18.0949 -10.363 2.56033 0.000655616 10
-18.0858 -10.3578 3.30101 0.00064354 10
-18.0826 -10.356 4.05053 0.000628733 10
-18.0941 -10.3626 4.81393 0.000611346 10
-18.0765 -10.3525 5.58166 0.00059156 10
-8.6258 -4.98011 -2.66883 0.000137038 4
-11.8956 -6.86792 -2.66998 8.77403e-05 4
-14.5649 -8.40905 -2.66373 0.000275078 4
-18.0798 -10.4384 -2.56335 0.000836283 10
-18.0661 -10.4305 -1.8251 0.000847553 10
-31.754 -18.3332 -1.9216 0.000160347 10
-36.7681 -21.2281 -0.741074 5.64544e-05 10
-37.068 -21.4012 0.747119 9.55376e-05 10
-18.069 -10.4321 1.09345 0.000666118 10
-18.0928 -10.4459 1.8278 0.000659897 10
-18.0228 -10.4055 2.55526 0.000378046 10
-18.011 -10.3987 3.29398 0.000371219 10
-18.0932 -10.4461 4.06104 0.000624049 10
-18.0957 -10.4476 4.82402 0.000606785 10
-18.0396 -10.4152 5.58147 0.000184132 10
-8.60223 -5.00662 -2.66693 0.000258428 4
-9.98867 -5.81354 -2.66821 0.000191862 4
-11.8778 -6.91305 -2.67139 5.62128e-05 4
-14.5715 -8.4808 -2.67033 0.000222914 4
-18.0721 -10.5182 -2.56745 0.000830021 10
-18.0767 -10.5209 -1.82986 0.00084121 10
-31.7378 -18.4718 -1.92451 0.000158972 10
-31.7501 -18.479 -0.641232 0.000105519 10
-31.7579 -18.4835 0.641389 0.000105484 10
-18.0752 -10.52 1.09604 0.000661133 10
-18.0857 -10.5261 1.83078 0.000654956 10
-17.8832 -10.4083 2.5406 0.000386651 10
-17.8786 -10.4056 3.27637 0.000379676 10
-18.0926 -10.5301 4.06912 0.000619362 10
-18.0751 -10.5199 4.82828 0.00060222 10
-18.0041 -10.4786 5.58178 0.000184121 10
-8.56941 -5.02764 -2.66218 0.000281936 4
-9.97182 -5.85043 -2.66915 3.64317e-05 4
-11.8593 -6.95781 -2.67267 4.52478e-05 4
-14.5608 -8.54276 -2.67382 0.000282187 4
-18.0835 -10.6095 -2.57431 0.000823752 10
-18.0606 -10.5961 -1.83197 0.000834861 10
-31.7454 -18.6249 -1.92891 0.000157596 10
-37.0547 -21.7399 0.749891 9.38179e-05 10
-18.0839 -10.6097 1.09881 0.000656143 10
-18.0732 -10.6035 1.83325 0.00065001 10
-17.7262 -10.3999 2.52345 0.00039537 10
-17.7361 -10.4057 3.2569 0.000388246 10
-18.0904 -10.6136 4.07694 0.00061467 10
-18.0988 -10.6185 4.84448 0.000597651 10
-17.9654 -10.5402 5.58113 0.000184111 10
-8.57018 -5.06839 -2.6679 0.000168387 4
-9.95918 -5.88984 -2.67125 0.000189457 4
-11.8379 -7.00091 -2.67334 4.38799e-05 4
-14.5754 -8.61987 -2.68201 0.000352871 4
-18.0732 -10.6885 -2.57813 0.000817479 10
-18.0771 -10.6908 -1.83742 0.000828507 10
-31.7359 -18.7686 -1.9323 0.000156221 10
-31.7457 -18.7743 -0.643773 0.000103693 10
-31.7443 -18.7735 0.643744 0.000103659 10
-18.0703 -10.6867 1.10024 0.00065115 10
-18.068 -10.6854 1.83649 0.000645061 10
-17.7191 -10.479 2.52762 0.000671925 10
-17.7263 -10.4833 3.2618 0.000659576 10
-18.0781 -10.6914 4.08256 0.000609975 10
-18.0784 -10.6915 4.84898 0.000593079 10
-17.9346 -10.6065 5.58303 0.0001841 10
-8.54274 -5.09249 -2.66487 0.000325043 4
-9.93839 -5.92447 -2.6712 9.71632e-05 4
-14.5572 -8.67784 -2.68422 0.000291493 4
-18.0721 -10.7731 -2.58333 0.0008112 10
-18.0831 -10.7797 -1.84184 0.000822148 10
-31.7282 -18.9138 -1.93584 0.000154846 10
-37.0542 -22.0887 0.752983 9.20997e-05 10
-18.0832 -10.7798 1.10331 0.000646153 10
-18.0833 -10.7798 1.84185 0.000640107 10
-18.0772 -10.7762 4.09082 0.000605276 10
-18.079 -10.7773 4.85922 0.000588503 10
-17.8853 -10.6618 5.57926 0.000184089 10
-8.53255 -5.12687 -2.66726 0.000164488 4
-9.90727 -5.95289 -2.66841 9.95985e-05 4
-11.7785 -7.07725 -2.67102 5.62296e-05 4
-14.5567 -8.74655 -2.68974 0.000246003 4
-18.081 -10.8642 -2.59001 0.000804919 10
-18.0637 -10.8537 -1.84371 0.000815785 10
-31.73 -19.0653 -1.93999 0.000153471 10
-37.0624 -22.2694 0.754726 9.12415e-05 10
-18.0674 -10.856 1.10465 0.000641153 10
-18.0924 -10.871 1.84664 0.000635151 10
-18.0868 -10.8676 4.10156 0.000600574 10
-18.0889 -10.8689 4.87203 0.000583925 10
-17.842 -10.7206 5.5774 0.000184079 10
-8.49726 -5.14612 -2.66183 0.000105748 4
-9.87882 -5.98283 -2.66636 0.00031339 4
-14.563 -8.81964 -2.69657 0.000302992 4
-18.0764 -10.9475 -2.59481 0.000798633 10
-18.0759 -10.9472 -1.84885 0.000809419 10
-31.7408 -19.2229 -1.94475 0.000152097 10
-37.0547 -22.4411 0.756159 9.03839e-05 10
-18.0677 -10.9422 1.107 0.00063615 10
-18.0737 -10.9458 1.84862 0.000630193 10
-18.0864 -10.9535 4.1101 0.00059587 10
-18.096 -10.9593 4.88423 0.000579344 10
-17.8046 -10.7829 5.57744 0.000184068 10
-8.48931 -5.18189 -2.66499 9.40033e-05 4
-9.86064 -6.01896 -2.6671 0.000131195 4
-11.7202 -7.15405 -2.66906 8.09281e-05 4
-14.5615 -8.88836 -2.70202 0.000318959 4
-18.0736 -11.0321 -2.59991 0.000792345 10
-18.0834 -11.0381 -1.85354 0.00080305 10
-31.7291 -19.3675 -1.94816 0.000150724 10
-37.0649 -22.6245 0.757975 8.95271e-05 10
-18.0678 -11.0286 1.10936 0.000631145 10
-18.0794 -11.0357 1.85313 0.000625232 10
-18.1572 -11.0832 2.61194 0.000389587 10
-18.1572 -11.0832 3.36924 0.000382381 10
-18.0837 -11.0384 4.11824 0.000591165 10
-18.0824 -11.0375 4.89092 0.000574762 10
-17.7668 -10.8449 5.57741 0.000184057 10
-8.47932 -5.21651 -2.66755 0.000164514 4
-9.83429 -6.05009 -2.66567 0.000228391 4
-11.6955 -7.1951 -2.66913 6.72165e-05 4
-14.5507 -8.95164 -2.7058 0.000332623 4
-18.0597 -11.1104 -2.60347 0.000786055 10
-18.0837 -11.1252 -1.85754 0.00079668 10
-31.7362 -19.5242 -1.95277 0.000149352 10
-37.0637 -22.8018 0.759574 8.86712e-05 10
-18.0725 -11.1183 1.11202 0.000626139 10
-18.0875 -11.1275 1.85794 0.000620269 10
-18.0939 -11.1315 4.12938 0.000586458 10
-18.0943 -11.1317 4.90461 0.000570178 10
-17.731 -10.9082 5.57808 0.000184046 10
-8.46391 -5.24784 -2.66845 0.00021153 4
-9.809 -6.08183 -2.66455 0.000104483 4
-11.6671 -7.2339 -2.6684 6.72217e-05 4
-14.5444 -9.01788 -2.71046 0.00024147 4
-18.074 -11.2064 -2.61116 0.000779764 10
-18.0772 -11.2084 -1.86088 0.000790307 10
-31.7388 -19.6789 -1.95714 0.00014798 10
-37.0502 -22.9721 0.760936 8.78162e-05 10
-18.087 -11.2144 1.11532 0.000621131 10
-18.0815 -11.211 1.86132 0.000615305 10
-18.0829 -11.2118 4.13576 0.000581749 10
-18.0966 -11.2204 4.91583 0.000565593 10
-17.7308 -10.9936 5.59006 0.000578373 10
-8.44202 -5.27516 -2.66734 0.000207624 4
-9.7959 -6.12115 -2.66678 7.28998e-05 4
-11.6576 -7.28446 -2.67202 9.74103e-05 4
-14.5632 -9.10011 -2.71988 0.000293812 4
-18.0748 -11.2944 -2.61695 0.000773471 10
-18.0774 -11.296 -1.86495 0.000783933 10
-23.1973 -14.4953 -1.43355 0.000242516 10
-23.2009 -14.4975 -0.477536 0.000243702 10
-23.2024 -14.4985 0.477566 0.000243718 10
-18.0667 -11.2893 1.11649 0.000616122 10
-18.0869 -11.3019 1.86593 0.00061034 10
-18.0958 -11.3075 4.14772 0.00057704 10
-18.0828 -11.2994 4.92277 0.000561008 10
-17.7243 -11.0753 5.60016 0.000573694 10
-8.42405 -5.3049 -2.6675 0.000129282 4
-9.78283 -6.16057 -2.66906 0.000182261 4
-11.6168 -7.3155 -2.66852 3.293e-05 4
-14.5604 -9.16917 -2.72531 0.000339277 4
-18.0644 -11.3758 -2.62119 0.000767178 10
-18.0734 -11.3814 -1.86863 0.000777559 10
-23.0257 -14.5001 -1.42607 0.00024792 10
-23.0136 -14.4925 -0.47472 0.000249131 10
-23.0235 -14.4986 0.474922 0.000249147 10
-18.0669 -11.3773 1.11895 0.000611113 10
-18.074 -11.3818 1.86869 0.000605375 10
-18.0839 -11.388 4.15408 0.000572331 10
-18.0839 -11.388 4.93385 0.000556422 10
-17.7271 -11.1633 5.61333 0.000569015 10
-8.40099 -5.33143 -2.66607 0.000188057 4
-9.76474 -6.19689 -2.67001 0.000179843 4
-14.5553 -9.23707 -2.73037 0.000266322 4
-18.0671 -11.4657 -2.62737 0.000760885 10
-18.0751 -11.4708 -1.87293 0.000771184 10
-18.1379 -11.5106 -1.12582 0.000321507 10
-18.142 -11.5133 -0.375055 0.000322998 10
-18.1428 -11.5138 0.375073 0.000323018 10
-18.0786 -11.473 1.12214 0.000606103 10
-18.083 -11.4758 1.87374 0.00060041 10
-18.1453 -11.5153 2.63874 0.000374097 10
-18.1495 -11.518 3.4046 0.000367161 10
-18.0778 -11.4725 4.16185 0.000567622 10
-18.093 -11.4822 4.94724 0.000551836 10
-17.7169 -11.2435 5.62251 0.000564336 10
-8.36777 -5.35141 -2.66144 0.000180231 4
-9.72369 -6.21856 -2.66471 0.00010451 4
-11.5733 -7.40144 -2.67033 6.86148e-05 4
-14.5493 -9.30468 -2.73533 0.000313992 4
-18.0581 -11.5487 -2.63191 0.000754592 10
-18.0697 -11.5561 -1.87654 0.000764811 10
-18.0771 -11.5608 -1.12455 0.000509665 10
-18.0723 -11.5577 -0.374447 0.000511845 10
-18.0755 -11.5598 0.374512 0.000511693 10
-18.0861 -11.5666 1.12511 0.000601095 10
-18.0803 -11.5628 1.87763 0.000595446 10
-18.0957 -11.5727 2.63738 0.00023836 10
-18.1031 -11.5774 3.40345 0.000234027 10
-18.091 -11.5697 4.17416 0.000562913 10
-18.0923 -11.5705 4.95807 0.000547251 10
-17.7381 -11.344 5.64174 0.000559657 10
-8.352 -5.3825 -2.66238 0.000203751 4
-9.72378 -6.26655 -2.67071 0.000228478 4
-11.5538 -7.44593 -2.67181 4.66617e-05 4
-14.5501 -9.37689 -2.74161 0.000309287 4
-18.0748 -11.6484 -2.64025 0.000748301 10
-18.0687 -11.6445 -1.88064 0.000758438 10
-22.4902 -14.494 0.467028 0.000265854 10
-18.0684 -11.6443 1.12653 0.000596087 10
-18.0773 -11.65 1.88153 0.000590482 10
-18.001 -11.6008 2.62947 0.000378389 10
-18.0035 -11.6025 3.39233 0.000371514 10
-18.0928 -11.66 4.18393 0.000558206 10
-18.0764 -11.6495 4.96483 0.000542667 10
-17.7208 -11.4202 5.64888 0.000554979 10
-8.34993 -5.42251 -2.66774 0.000164577 4
-9.70001 -6.29926 -2.67021 0.000128831 4
-11.515 -7.47794 -2.66886 0.000105683 4
-14.5302 -9.43603 -2.74406 0.000122734 4
-18.0819 -11.7425 -2.64726 0.000742012 10
-18.0613 -11.7291 -1.88412 0.000752068 10
-18.1556 -11.7904 -1.13453 0.000320704 10
-18.1379 -11.7789 -0.377501 0.000322193 10
-18.1449 -11.7834 0.377645 0.000322213 10
-18.0765 -11.739 1.12959 0.00059108 10
-18.0677 -11.7333 1.88479 0.00058552 10
-17.8685 -11.604 2.61602 0.000386141 10
-17.874 -11.6075 3.37554 0.000379132 10
-18.073 -11.7367 4.18881 0.000553499 10
-18.0898 -11.7477 4.97975 0.000538085 10
-17.738 -11.5192 5.66716 0.000550303 10
-8.33114 -5.45175 -2.6678 0.000117561 4
-9.6622 -6.32276 -2.66586 7.53589e-05 4
-11.4971 -7.52349 -2.67077 5.76501e-05 4
-14.5463 -9.51882 -2.75335 0.000283919 4
-18.0762 -11.8288 -2.65246 0.000735724 10
-18.0599 -11.8181 -1.88827 0.000745699 10
-18.074 -11.8273 -1.132 0.000496934 10
-18.076 -11.8286 -0.377068 0.000499061 10
-18.0828 -11.833 0.37721 0.000498912 10
-18.0762 -11.8287 1.13214 0.000586075 10
-18.0892 -11.8373 1.89134 0.000580559 10
-17.7406 -11.6091 2.60321 0.000393982 10
-17.7408 -11.6093 3.35802 0.000386839 10
-18.0859 -11.8351 4.20135 0.000548795 10
-18.091 -11.8384 4.9914 0.000533504 10
-17.7378 -11.6073 5.68 0.000545629 10
-8.30589 -5.47672 -2.66582 0.000654461 4
-9.65169 -6.36412 -2.66907 0.000160452 4
-11.4637 -7.55891 -2.66913 4.53001e-05 4
-14.5205 -9.57448 -2.75477 0.000103336 1
-18.0767 -11.9194 -2.65862 0.000729441 10
-18.0771 -11.9197 -1.89441 0.000739335 10
-21.9813 -14.494 0.459586 0.000283194 10
-18.0891 -11.9276 1.13555 0.000581074 10
-18.0865 -11.9258 1.89539 0.000575602 10
-17.7234 -11.6864 2.60665 0.000599788 10
-17.7278 -11.6893 3.36325 0.000588694 10
-18.0806 -11.9219 4.20976 0.000544093 10
-18.0901 -11.9282 5.00263 0.000528926 10
-17.7201 -11.6843 5.68737 0.000540957 10
-8.29385 -5.51042 -2.66812 0.00022731 4
-9.61697 -6.3895 -2.66562 0.000177481 4
-11.4345 -7.59709 -2.6685 0.000107081 4
-14.4765 -9.61815 -2.75278 0.000103347 1
-18.0653 -12.0026 -2.66309 0.00072316 10
-18.0605 -11.9993 -1.89704 0.000732973 10
-18.1334 -12.0478 -1.14096 0.00031991 10
-18.1321 -12.047 -0.379985 0.000321397 10
-18.132 -12.0469 0.379982 0.000321416 10
-18.0686 -12.0047 1.13688 0.000576074 10
-18.0765 -12.01 1.89873 0.000570647 10
-18.0786 -12.0114 2.66504 0.000562663 10
-18.0713 -12.0066 3.43636 0.000552209 10
-18.0812 -12.0131 4.21963 0.000539394 10
-18.0765 -12.01 5.01041 0.00052435 10
-18.0945 -12.0219 5.82096 0.000507235 10
-8.27291 -5.53823 -2.66758 0.000176371 4
-9.58918 -6.4194 -2.66411 0.000505733 4
-11.4191 -7.64443 -2.67111 4.66802e-05 4
-14.4452 -9.6702 -2.75323 0.000103357 1
-18.0722 -12.0983 -2.67031 0.000716883 10
-18.0622 -12.0916 -1.90164 0.000726614 10
-18.0705 -12.0972 -1.13966 0.000484221 10
-18.0681 -12.0955 -0.379526 0.000486296 10
-18.0718 -12.098 0.379602 0.000486149 10
-18.0889 -12.1095 1.14082 0.000571078 10
-18.0715 -12.0978 1.90262 0.000565694 10
-18.0692 -12.0963 2.66986 0.000557776 10
-18.0708 -12.0974 3.44428 0.000547408 10
-18.076 -12.1008 4.22825 0.000534697 10
-18.0872 -12.1083 5.02507 0.000519777 10
-18.0747 -12.0999 5.82815 0.000502803 10
-8.23977 -5.5578 -2.66314 0.000634972 4
-9.57531 -6.45862 -2.66651 0.000483883 4
-14.4045 -9.71594 -2.75192 0.000103368 1
-18.0623 -12.1831 -2.67511 0.000710611 10
-18.0597 -12.1814 -1.90584 0.000720261 10
-21.4714 -14.4826 0.452071 0.000301166 10
-18.0653 -12.1852 1.142 0.000566085 10
-18.0729 -12.1903 1.90724 0.000560745 10
-18.0764 -12.1927 2.6772 0.000552893 10
-18.093 -12.2039 3.45659 0.00054261 10
-18.0913 -12.2027 4.24178 0.000530004 10
-18.0742 -12.1912 5.03325 0.000515208 10
-18.0739 -12.191 5.84157 0.000498374 10
-8.23257 -5.59485 -2.6671 3.9198e-05 4
-9.54882 -6.48937 -2.66542 0.000520391 4
-11.3741 -7.72983 -2.67314 7.14048e-05 4
-14.3759 -9.76986 -2.75296 0.000103378 1
-18.0728 -12.2823 -2.68301 0.000704343 10
-18.0641 -12.2764 -1.91083 0.000713913 10
-18.1283 -12.32 -1.14869 0.00031912 10
-18.1384 -12.3269 -0.382802 0.000320605 10
-18.1411 -12.3287 0.382857 0.000320624 10
-18.0827 -12.289 1.1458 0.000561096 10
-18.0686 -12.2794 1.9113 0.000555801 10
-17.9632 -12.2078 2.66674 0.000378357 10
-17.9582 -12.2044 3.43897 0.000371464 10
-18.0753 -12.284 4.24806 0.000525316 10
-18.0957 -12.2978 5.05116 0.000510643 10
-17.9511 -12.1995 5.81561 0.000341597 10
-8.19827 -5.61347 -2.66233 0.000239121 4
-9.52093 -6.51912 -2.66397 0.000406126 4
-11.342 -7.76605 -2.67196 7.96502e-05 4
-14.3279 -9.81049 -2.7503 0.000103389 1
-18.0811 -12.3804 -2.69063 0.000698082 10
-18.0674 -12.371 -1.91572 0.00070757 10
-18.07 -12.3728 -1.14773 0.000471535 10
-18.0769 -12.3775 -0.382413 0.000473557 10
-18.081 -12.3803 0.382499 0.000473413 10
-18.0771 -12.3777 1.14818 0.000556111 10
-18.0852 -12.3832 1.91762 0.00055086 10
-17.8205 -12.202 2.65186 0.000385725 10
-17.8327 -12.2103 3.42308 0.000378704 10
-18.0903 -12.3867 4.2617 0.000520631 10
-18.0767 -12.3774 5.05788 0.000506081 10
-17.8253 -12.2053 5.78863 0.000348285 10
-8.1901 -5.64997 -2.66606 0.000376343 4
-9.51086 -6.5611 -2.66755 0.000155652 4
-11.3177 -7.80753 -2.67262 4.66953e-05 4
-14.3039 -9.86758 -2.75229 0.0001034 1
-18.081 -12.4732 -2.69708 0.000691826 10
-18.0676 -12.464 -1.92035 0.000701234 10
-20.9913 -14.4809 0.445131 0.000319769 10
-18.0749 -12.4691 1.1508 0.000551132 10
-18.0872 -12.4776 1.92244 0.000545925 10
-17.7171 -12.2222 2.6428 0.00056896 10
-17.7098 -12.2171 3.40764 0.000558404 10
-18.0734 -12.468 4.26796 0.000515951 10
-18.0788 -12.4717 5.07062 0.000501525 10
-17.7196 -12.224 5.76813 0.000512993 10
-8.16298 -5.67342 -2.66366 0.00016858 4
-9.47515 -6.5854 -2.66396 8.51277e-05 4
-11.2809 -7.8404 -2.67038 4.66991e-05 4
-14.2818 -9.92613 -2.7547 0.00010341 1
-18.0737 -12.5616 -2.70252 0.000685578 10
-18.0739 -12.5617 -1.92567 0.000694904 10
-18.1109 -12.5874 -1.15588 0.000318327 10
-18.1292 -12.6001 -0.385369 0.000319811 10
-18.1114 -12.5877 0.384991 0.000319829 10
-18.079 -12.5652 1.15385 0.000546158 10
-18.0711 -12.5597 1.92537 0.000540995 10
-17.72 -12.3157 2.64962 0.000563838 10
-17.7198 -12.3155 3.41781 0.000553373 10
-18.0776 -12.5642 4.27928 0.000511276 10
-18.0803 -12.5661 5.08333 0.000496974 10
-17.7306 -12.3231 5.78568 0.000508349 10
-8.1348 -5.69605 -2.66094 0.000176431 4
-9.46397 -6.62674 -2.66731 0.000197023 4
-11.2571 -7.8823 -2.67125 6.45599e-05 4
-14.2259 -9.96106 -2.7506 0.000103421 1
-18.063 -12.6478 -2.7075 0.000679336 10
-18.0603 -12.646 -1.92891 0.000688582 10
-18.0608 -12.6463 -1.1555 0.000458886 10
-18.0782 -12.6585 -0.385224 0.000460855 10
-18.0803 -12.66 0.385268 0.000460714 10
-18.0689 -12.652 1.15602 0.000541189 10
-18.0748 -12.6561 1.93046 0.00053607 10
-18.092 -12.6682 4.29313 0.000506607 10
-18.0783 -12.6586 5.09515 0.000492427 10
-8.11895 -5.72728 -2.66228 0.000309752 4
-9.45006 -6.66628 -2.66993 0.000119195 4
-11.22 -7.91486 -2.66899 5.90703e-05 4
-14.2066 -10.0217 -2.75362 0.000103432 1
-18.0751 -12.7506 -2.71598 0.000673103 10
-18.0686 -12.746 -1.93454 0.000682268 10
-18.2414 -12.8679 -1.16992 0.000311658 10
-18.2354 -12.8637 -0.389528 0.000313113 10
-18.2259 -12.857 0.389325 0.000313131 10
-18.0872 -12.7591 1.16003 0.000536227 10
-18.0717 -12.7482 1.93487 0.000531152 10
-18.0827 -12.756 4.30147 0.000501943 10
-18.0787 -12.7531 5.10777 0.000487887 10
-8.09496 -5.75279 -2.66098 0.000219584 4
-9.40828 -6.68611 -2.6647 6.32505e-05 4
-13.7653 -9.78251 -2.67469 4.05882e-05 4
-18.0632 -12.8368 -2.72089 0.000666877 10
-18.0665 -12.8392 -1.9391 0.000675962 10
-18.1036 -12.8656 -1.16395 0.000317528 10
-18.1099 -12.87 -0.387804 0.000319009 10
-18.0925 -12.8576 0.38743 0.000319028 10
-18.0748 -12.8451 1.1621 0.000531271 10
-18.0885 -12.8548 1.94146 0.000526241 10
-18.0715 -12.8427 4.30943 0.000497286 10
-18.0858 -12.8529 5.12244 0.000483353 10
-8.07806 -5.78332 -2.66204 0.000192147 4
-9.39505 -6.72619 -2.66759 0.000467113 4
-11.165 -7.99332 -2.6691 8.24373e-05 4
-13.7206 -9.82297 -2.67264 0.000144103 4
-18.0692 -12.9363 -2.72859 0.000660661 10
-18.0807 -12.9445 -1.94546 0.000669664 10
-18.0615 -12.9308 -1.16414 0.000446284 10
-18.0667 -12.9345 -0.387844 0.000448201 10
-18.0639 -12.9325 0.387782 0.000448063 10
-18.0775 -12.9422 1.16517 0.000526323 10
-18.0667 -12.9345 1.94395 0.000521336 10
-18.09 -12.9512 4.32461 0.000492636 10
-18.0807 -12.9445 5.13375 0.000478826 10
-8.07545 -5.8242 -2.66787 0.000203923 4
-13.7065 -9.88541 -2.6766 0.000137352 4
-16.9534 -12.2272 -2.56652 4.52486e-05 4
-18.0789 -13.0389 -1.95015 0.000663377 10
-18.2031 -13.1285 -1.17621 0.000310983 10
-18.2163 -13.138 -0.392036 0.000312436 10
-18.2227 -13.1426 0.392174 0.000312454 10
-18.0765 -13.0372 1.16803 0.000521381 10
-18.066 -13.0296 1.94876 0.000516438 10
-18.0906 -13.0473 4.3356 0.000487993 10
-18.0835 -13.0422 5.14743 0.000474305 10
-8.04443 -5.84462 -2.66434 0.000247075 4
-9.35256 -6.79503 -2.66893 0.000180058 4
-13.672 -9.9333 -2.67663 0.000131277 4
-16.9188 -12.2922 -2.56776 4.34448e-05 4
-18.0668 -13.1263 -1.95378 0.000657099 10
-18.0881 -13.1418 -1.17174 0.000316718 10
-18.0757 -13.1328 -0.389996 0.000318197 10
-18.0656 -13.1254 0.389776 0.000318215 10
-18.0791 -13.1353 1.17116 0.000516448 10
-18.065 -13.125 1.95358 0.000511549 10
-18.089 -13.1424 4.34619 0.000483357 10
-18.0869 -13.1409 5.16144 0.000469792 10
-8.03031 -5.87729 -2.66644 0.00019218 4
-9.32823 -6.82723 -2.66877 8.27349e-05 4
-11.0871 -8.11456 -2.67067 5.90948e-05 4
-13.6308 -9.97622 -2.67535 0.000133998 4
-16.8694 -12.3466 -2.5668 2.89673e-05 4
-18.0751 -13.229 -1.95966 0.000650832 10
-19.7957 -14.4883 0.428194 0.000372445 10
-18.0803 -13.2327 1.17422 0.000511523 10
-18.0682 -13.2239 1.95891 0.000506667 10
-18.0888 -13.239 4.35721 0.000478729 10
-18.0842 -13.2356 5.1738 0.000465287 10
-8.00448 -5.90141 -2.66469 8.62901e-05 4
-9.28799 -6.8477 -2.66408 0.00011681 4
-11.0527 -8.14877 -2.66921 4.26068e-05 4
-13.5953 -10.0233 -2.67524 0.000120475 4
-18.0721 -13.3239 -1.96436 0.000644576 10
-19.6469 -14.485 0.426066 0.000379341 10
-18.0712 -13.3232 1.17664 0.000506606 10
-18.0698 -13.3222 1.96411 0.000501794 10
-18.1364 -13.3713 2.76667 0.000229976 10
-18.1295 -13.3663 3.56747 0.000225753 10
-18.0701 -13.3224 4.3639 0.00047411 10
-18.0924 -13.3388 5.18945 0.000460789 10
-18.1403 -13.3742 6.03891 0.000207464 10
-7.9887 -5.93293 -2.66632 0.000227506 4
-9.27489 -6.88814 -2.6672 0.000121686 4
-11.0265 -8.18902 -2.66977 0.000159445 4
-13.5469 -10.0608 -2.6726 0.000140795 4
-16.7952 -12.4732 -2.56869 3.95396e-05 4
-18.0627 -13.4145 -1.96842 0.000638332 10
-19.6082 -14.5623 -1.28002 0.000379397 10
-19.6004 -14.5565 -0.426157 0.000381201 10
-19.515 -14.4931 0.4243 0.000386305 10
-18.0665 -13.4174 1.17938 0.000501699 10
-18.0834 -13.4299 1.97068 0.000496931 10
-18.0362 -13.3948 2.75849 0.000364474 10
-18.0453 -13.4016 3.56007 0.000357785 10
-18.0735 -13.4225 4.376 0.000469499 10
-18.0921 -13.4364 5.20279 0.000456301 10
-18.0363 -13.395 6.01983 0.000328814 10
-7.95461 -5.95081 -2.66186 9.02231e-05 4
-9.25028 -6.92009 -2.66706 8.5186e-05 4
-13.5186 -10.1132 -2.67397 3.99414e-05 4
-16.7497 -12.5304 -2.56841 4.4979e-05 4
-18.0786 -13.5245 -1.97528 0.000632099 10
-19.3675 -14.4888 0.422191 0.000393339 10
-18.0769 -13.5233 1.18313 0.000496801 10
-18.072 -13.5196 1.97456 0.000492077 10
-17.9176 -13.4041 2.74749 0.00037101 10
-17.919 -13.4051 3.54437 0.000364208 10
-18.0732 -13.5205 4.38733 0.000464897 10
-18.0781 -13.5242 5.21232 0.000451821 10
-17.9046 -13.3943 5.99141 0.000334745 10
-7.93506 -5.97949 -2.66228 0.000231455 4
-9.22589 -6.95221 -2.66701 9.006e-05 4
-10.9736 -8.26922 -2.67088 3.71186e-05 4
-13.4729 -10.1526 -2.67194 6.63504e-05 4
-16.6923 -12.5785 -2.56632 3.53242e-05 4
-18.0751 -13.6206 -1.98008 0.000625879 10
-19.2342 -14.494 0.420385 0.000400439 10
-18.0751 -13.6206 1.18612 0.000491913 10
-18.0674 -13.6147 1.97924 0.000487232 10
-17.7943 -13.409 2.73575 0.000377608 10
-17.776 -13.3951 3.52531 0.000370691 10
-18.0832 -13.6266 4.40127 0.000460305 10
-18.0812 -13.6251 5.22688 0.000447351 10
-17.7799 -13.3981 5.96533 0.000340731 10
-7.91324 -6.00648 -2.66198 0.00031778 4
-9.19025 -6.97578 -2.66372 0.000150922 4
-10.9371 -8.30168 -2.66902 0.000108615 4
-16.6567 -12.6431 -2.56762 3.56313e-05 4
-18.0674 -13.7139 -1.98448 0.000619673 10
-19.0923 -14.4918 0.418385 0.000407609 10
-18.0647 -13.7118 1.18857 0.000487035 10
-18.0751 -13.7197 1.98531 0.000482398 10
-17.7225 -13.4521 2.73191 0.000502955 10
-17.7083 -13.4414 3.52118 0.000493557 10
-18.0887 -13.73 4.41425 0.000455723 10
-18.0855 -13.7276 5.24195 0.00044289 10
-17.7159 -13.4471 5.95954 0.000453145 10
-7.89916 -6.03936 -2.66432 0.00035311 4
-10.9051 -8.33754 -2.66829 0.00017325 4
-13.4082 -10.2513 -2.67323 3.04736e-05 4
-16.6172 -12.7048 -2.56836 4.28846e-05 4
-18.0785 -13.822 -1.99098 0.00061348 10
-18.9557 -14.4927 0.416499 0.000414846 10
-18.0628 -13.8101 1.19161 0.000482169 10
-18.0668 -13.8131 1.98969 0.000477575 10
-18.0877 -13.8291 2.79563 0.000470822 10
-18.0888 -13.8299 3.60641 0.000461983 10
-18.0919 -13.8323 4.4268 0.00045115 10
-18.0731 -13.8179 5.25229 0.000438439 10
-18.0948 -13.8345 6.10322 0.000423982 10
-7.87216 -6.06238 -2.66233 0.000168718 4
-9.16095 -7.05488 -2.66944 0.000202069 4
-10.8861 -8.38343 -2.6708 0.000110009 4
-16.5614 -12.754 -2.5666 4.04744e-05 4
-18.064 -13.9111 -1.99472 0.000607301 10
-18.814 -14.4888 0.414495 0.000422151 10
-18.0696 -13.9154 1.19525 0.000477313 10
-18.0873 -13.9291 1.99729 0.000472762 10
-18.0808 -13.9241 2.80206 0.000466073 10
-18.0766 -13.9208 3.61364 0.000457318 10
-18.076 -13.9204 4.43477 0.000446589 10
-18.0884 -13.9299 5.27083 0.000433998 10
-18.0897 -13.931 6.11787 0.000419679 10
-7.85732 -6.09476 -2.66449 0.000109869 4
-9.11636 -7.07138 -2.66363 0.000182605 4
-10.8536 -8.41889 -2.67001 0.000136148 4
-16.5115 -12.8076 -2.56577 3.86678e-05 4
-18.0678 -14.0148 -2.00053 0.000601137 10
-18.6658 -14.4786 0.412339 0.000429524 10
-18.0829 -14.0265 1.19936 0.000472468 10
-18.0776 -14.0224 2.00161 0.000467961 10
-18.0873 -14.0299 2.81063 0.000461336 10
-18.0875 -14.0301 3.62559 0.000452665 10
-18.071 -14.0173 4.44552 0.000442038 10
-18.0745 -14.02 5.28101 0.000429568 10
-18.0904 -14.0323 6.13462 0.000415387 10
-7.83574 -6.12195 -2.6644 0.0001138 4
-9.10888 -7.11664 -2.66868 5.84379e-05 4
-10.8159 -8.45028 -2.66797 6.73922e-05 4
-13.3127 -10.401 -2.67575 5.55478e-05 4
-16.4772 -12.8734 -2.56741 3.47457e-05 4
-18.067 -14.1155 -2.00588 0.000594988 10
-18.5314 -14.4783 0.410484 0.000436963 10
-18.0792 -14.125 1.20238 0.000467636 10
-18.0667 -14.1153 2.00585 0.000463172 10
-18.0777 -14.1238 2.81679 0.000456611 10
-18.0864 -14.1306 3.63523 0.000448023 10
-18.0892 -14.1328 4.46211 0.000437499 10
-18.0888 -14.1325 5.29959 0.00042515 10
-18.0921 -14.1351 6.15188 0.000411106 10
-7.80366 -6.14088 -2.66077 0.000219766 4
-10.8008 -8.4994 -2.67156 3.02604e-05 4
-13.264 -10.4378 -2.67328 5.2844e-05 4
-16.4211 -12.9221 -2.56568 3.74705e-05 4
-18.0668 -14.2172 -2.01136 0.000588854 10
-18.3958 -14.4761 -1.22679 0.000442361 10
-18.3961 -14.4763 -0.408605 0.000444446 10
-18.4172 -14.4929 0.409073 0.00044447 10
-18.0811 -14.2284 1.20581 0.000462816 10
-18.0809 -14.2283 2.01293 0.000458395 10
-18.0654 -14.2161 2.8226 0.000451897 10
-18.089 -14.2346 3.64572 0.000443393 10
-18.0762 -14.2245 4.47111 0.000432971 10
-18.0806 -14.228 5.3117 0.000420742 10
-18.072 -14.2212 6.16189 0.000406835 10
-7.78386 -6.16941 -2.66135 0.00020408 4
-10.7585 -8.52705 -2.66843 4.40189e-05 4
-13.2224 -10.48 -2.67225 4.87844e-05 4
-16.3787 -12.9816 -2.56611 3.53604e-05 4
-18.0785 -14.3288 -2.01821 0.000582737 10
-18.2774 -14.4865 -1.22226 0.0004499 10
-18.28 -14.4886 -0.407148 0.000452018 10
-18.2739 -14.4837 0.407012 0.000452042 10
-18.0748 -14.3259 1.20871 0.000458009 10
-18.0719 -14.3236 2.01748 0.000453631 10
-18.0736 -14.3249 2.83166 0.000447197 10
-18.0834 -14.3327 3.65465 0.000438775 10
-18.0742 -14.3254 4.48295 0.000428456 10
-18.0801 -14.3301 5.32622 0.000416347 10
-18.0844 -14.3335 6.18315 0.000402577 10
-7.76268 -6.19686 -2.66148 0.000243341 4
-9.03427 -7.21196 -2.6688 0.0001924 4
-10.7349 -8.5696 -2.67 3.98956e-05 4
-16.3425 -13.0461 -2.56758 4.14111e-05 4
-18.0623 -14.4189 -2.02202 0.000576636 10
-18.1536 -14.4918 -1.21736 0.000457505 10
-18.1511 -14.4898 -0.4054 0.000459657 10
-18.1496 -14.4886 0.405366 0.000459681 10
-18.0621 -14.4188 1.21122 0.000453214 10
-18.0796 -14.4327 2.02395 0.000448879 10
-18.0653 -14.4213 2.83823 0.000442508 10
-18.069 -14.4243 3.6619 0.00043417 10
-18.0724 -14.427 4.49497 0.000423952 10
-18.072 -14.4267 5.33862 0.000411964 10
-18.0848 -14.4369 6.20048 0.00039833 10
-7.74439 -6.22665 -2.66265 0.00018448 4
-8.99872 -7.23515 -2.66575 7.06328e-05 4
-10.7024 -8.60497 -2.66937 7.2919e-05 4
-13.1581 -10.5794 -2.67412 4.13404e-05 4
-16.2779 -13.0878 -2.56458 3.80918e-05 4
-18.0614 -14.5217 -2.02758 0.000570553 10
-18.0747 -14.5325 -1.21546 0.000575689 10
-18.0607 -14.5212 -0.404512 0.000578177 10
-18.0708 -14.5293 0.404736 0.000577988 10
-18.0693 -14.5281 1.2151 0.000448433 10
-18.0703 -14.5289 2.02857 0.000444141 10
-18.0728 -14.5309 2.84736 0.000437833 10
-18.0883 -14.5433 3.67607 0.000429578 10
-18.082 -14.5383 4.50997 0.000419462 10
-18.0843 -14.5402 5.35723 0.000407593 10
-18.087 -14.5423 6.21862 0.000394096 10
-7.71853 -6.25034 -2.66124 0.000325803 4
-8.96451 -7.25932 -2.6631 0.000133968 4
-10.6698 -8.64026 -2.66875 6.60457e-05 4
-13.1245 -10.628 -2.6748 7.25232e-05 4
-18.0755 -14.6372 -2.03488 0.000564487 10
-18.0705 -14.6332 -1.21861 0.000569571 10
-18.0646 -14.6284 -0.405739 0.000572033 10
-18.0807 -14.6415 0.406101 0.000571846 10
-18.071 -14.6336 1.21864 0.000443666 10
-18.0714 -14.6339 2.03442 0.000439417 10
-18.08 -14.6409 2.85654 0.000433172 10
-18.0835 -14.6437 3.68547 0.000424999 10
-18.0862 -14.6459 4.52374 0.000414985 10
-18.0878 -14.6472 5.37337 0.000403235 10
-18.0909 -14.6497 6.2375 0.000389874 10
-7.71507 -6.29226 -2.66761 0.000215907 4
-8.95776 -7.30577 -2.66866 0.000116926 4
-10.6393 -8.67721 -2.66867 6.46754e-05 4
-13.0827 -10.67 -2.67387 3.66046e-05 4
-18.0647 -14.7332 -2.03945 0.000558439 10
-18.0615 -14.7306 -1.22146 0.000563472 10
-18.0681 -14.736 -0.406971 0.000565908 10
-18.0651 -14.7336 0.406904 0.000565723 10
-18.0559 -14.7261 1.22108 0.000357975 10
-18.0638 -14.7325 2.03935 0.00035468 10
-18.0473 -14.719 2.85947 0.000349772 10
-18.0582 -14.7279 3.69077 0.000343304 10
-18.0891 -14.7531 4.53732 0.000410521 10
-18.0422 -14.7149 5.37507 0.000325977 10
-18.0495 -14.7208 6.2409 0.0003153 10
-7.69168 -6.31802 -2.66713 0.000259104 4
-8.9325 -7.33723 -2.66875 8.5265e-05 4
-10.6006 -8.70742 -2.66657 4.12858e-05 4
-13.0425 -10.7132 -2.67328 3.72866e-05 4
-16.157 -13.2715 -2.56729 2.87329e-05 4
-18.0622 -14.8364 -2.045 0.00055241 10
-18.0777 -14.8492 -1.22606 0.000557391 10
-18.0651 -14.8388 -0.408067 0.000559802 10
-18.0661 -14.8397 0.40809 0.000559618 10
-17.9356 -14.7324 1.21641 0.000363853 10
-17.9243 -14.7232 2.02939 0.000360507 10
-17.923 -14.7221 2.8479 0.000355523 10
-17.9319 -14.7295 3.67544 0.000348954 10
-18.0842 -14.8545 4.54905 0.000406072 10
-17.915 -14.7155 5.35242 0.000331357 10
-17.925 -14.7237 6.21557 0.000320514 10
-7.65499 -6.33275 -2.66205 0.00021986 4
-8.89495 -7.35854 -2.66519 2.92358e-05 4
-10.5711 -8.74514 -2.6668 3.85369e-05 4
-13.0064 -10.7598 -2.67355 8.20398e-05 4
-16.0972 -13.3167 -2.56515 4.11397e-05 4
-18.0638 -14.9437 -2.05108 0.0005464 10
-18.078 -14.9554 -1.22961 0.00055133 10
-18.0682 -14.9473 -0.409314 0.000553715 10
-18.0723 -14.9507 0.409406 0.000553532 10
-17.7895 -14.7167 1.20998 0.000369779 10
-17.7877 -14.7152 2.01972 0.000366382 10
-17.799 -14.7246 2.83634 0.000361321 10
-17.7885 -14.716 3.65656 0.000354651 10
-18.0792 -14.9564 4.56091 0.000401636 10
-17.8018 -14.727 5.33395 0.000336782 10
-17.8013 -14.7265 6.19046 0.000325772 10
-7.6438 -6.36858 -2.66588 0.000392631 4
-8.86939 -7.3897 -2.66524 6.8222e-05 4
-10.5387 -8.78052 -2.66636 5.6434e-05 4
-12.9637 -10.8009 -2.67251 7.73024e-05 4
-16.0534 -13.3752 -2.5656 4.2356e-05 4
-18.058 -15.0453 -2.05636 0.00054041 10
-18.0648 -15.051 -1.23227 0.000545288 10
-18.08 -15.0637 -0.41077 0.000547648 10
-18.0688 -15.0543 0.410514 0.000547467 10
-17.7189 -14.7629 1.20868 0.000449405 10
-17.7173 -14.7615 2.01757 0.000445107 10
-17.7213 -14.7648 2.83216 0.000438791 10
-17.7067 -14.7527 3.65031 0.000430526 10
-18.071 -15.0562 4.57208 0.000397215 10
-17.7129 -14.7579 5.32271 0.000408515 10
-17.7293 -14.7715 6.18334 0.000395002 10
-7.61505 -6.38979 -2.66361 0.000585056 4
-10.5061 -8.81564 -2.66587 0.000150045 4
-12.9358 -10.8544 -2.67455 5.69661e-05 4
-16.0065 -13.431 -2.56558 4.78091e-05 4
-18.0648 -15.1582 -2.06315 0.00053444 10
-18.0635 -15.1571 -1.23579 0.000539266 10
-18.0786 -15.1697 -0.411938 0.000541601 10
-18.0788 -15.1699 0.411944 0.000541421 10
-18.1401 -15.2213 1.24103 0.000265353 10
-18.1388 -15.2203 2.0716 0.0002628 10
-18.0017 -15.1052 3.72196 8.48384e-05 10
-18.084 -15.1743 4.58874 0.000392809 10
-7.5938 -6.41726 -2.664 0.000160999 4
-8.82516 -7.45784 -2.66753 7.55426e-05 4
-10.4967 -8.87043 -2.67134 8.26011e-05 4
-12.8778 -10.8826 -2.6704 4.74772e-05 4
-15.9574 -13.4851 -2.56525 4.38821e-05 4
-18.0634 -15.2647 -2.06906 0.00052849 10
-18.0657 -15.2667 -1.23957 0.000533265 10
-18.0584 -15.2606 -0.41269 0.000535575 10
-18.0724 -15.2724 0.413009 0.000535397 10
-18.1455 -15.3341 1.24505 0.000262397 10
-18.1421 -15.3312 2.07807 0.000259871 10
-17.939 -15.1596 3.71992 8.48283e-05 10
-18.0701 -15.2704 4.59869 0.000388418 10
-7.56098 -6.4349 -2.66035 6.28327e-05 4
-8.7949 -7.48504 -2.66626 9.01704e-05 4
-10.4471 -8.89116 -2.66658 0.000110145 4
-15.918 -13.5473 -2.5665 4.35861e-05 4
-18.062 -15.3719 -2.07503 0.000522561 10
-18.0565 -15.3673 -1.24262 0.000527285 10
-18.0743 -15.3824 -0.414277 0.00052957 10
-18.0698 -15.3786 0.414174 0.000529393 10
-18.1384 -15.4369 1.24825 0.000259451 10
-18.1439 -15.4416 2.08444 0.000256952 10
-17.8959 -15.2306 3.72198 8.48182e-05 10
-18.0862 -15.3925 4.61644 0.000384043 10
-7.55054 -6.47159 -2.66461 0.000117819 4
-8.77494 -7.52103 -2.66816 9.74887e-05 4
-10.4225 -8.93314 -2.66825 0.000210671 4
-12.819 -10.9872 -2.67405 3.0528e-05 4
-15.8537 -13.5882 -2.56376 4.26846e-05 4
-18.0666 -15.4849 -2.08176 0.000516653 10
-18.0633 -15.4821 -1.2468 0.000521326 10
-18.0634 -15.4822 -0.415264 0.000523586 10
-18.0598 -15.4791 0.415181 0.000523411 10
-18.1466 -15.5535 1.25254 0.000256516 10
-18.1438 -15.5511 2.09065 0.000254043 10
-17.8302 -15.2823 3.71938 8.4808e-05 10
-18.0717 -15.4894 4.62653 0.000379683 10
-7.51769 -6.48909 -2.66099 6.67682e-05 4
-8.73873 -7.54307 -2.66514 0.00012187 4
-10.3955 -8.97312 -2.66934 8.53776e-05 4
-12.7624 -11.0162 -2.67024 4.74934e-05 4
-15.8073 -13.6445 -2.56394 4.23884e-05 4
-18.0557 -15.5853 -2.08677 0.000510767 10
-18.0711 -15.5986 -1.25109 0.000515389 10
-18.0607 -15.5896 -0.41645 0.000517625 10
-18.0589 -15.5881 0.416409 0.00051745 10
-18.1385 -15.6567 1.25575 0.000253591 10
-18.1514 -15.6679 2.09782 0.000251145 10
-17.7971 -15.362 3.72364 8.47979e-05 10
-18.0839 -15.6096 4.64356 0.00037534 10
-7.4951 -6.51539 -2.66103 0.000329934 4
-8.70406 -7.56632 -2.6626 0.000109691 4
-12.7345 -11.07 -2.67249 6.107e-05 4
-15.7578 -13.6981 -2.56366 3.48244e-05 4
-18.0557 -15.6955 -2.09308 0.000504904 10
-18.0725 -15.7102 -1.25498 0.000509475 10
-18.0632 -15.7021 -0.41777 0.000511686 10
-18.0667 -15.7052 0.41785 0.000511513 10
-18.1433 -15.7717 1.25989 0.000250678 10
-18.1343 -15.7639 2.10219 0.000248258 10
-18.1397 -15.7686 2.95117 0.000244702 10
-17.7282 -15.4109 3.72046 8.47877e-05 10
-18.0839 -15.7201 4.65761 0.000371014 10
-7.46956 -6.5391 -2.66005 7.46327e-05 4
-10.3363 -9.04872 -2.67029 0.00010743 4
-15.7157 -13.758 -2.56459 3.48298e-05 4
-18.0714 -15.8203 -2.10129 0.000499063 10
-18.0704 -15.8195 -1.25866 0.000503584 10
-18.0671 -15.8165 -0.419133 0.00050577 10
-18.0751 -15.8236 0.41932 0.000505599 10
-18.1431 -15.8831 1.26372 0.000247776 10
-17.7275 -15.5193 3.73167 0.00039764 10
-18.068 -15.8174 4.66773 0.000366704 10
-7.4514 -6.56929 -2.66174 0.000239626 4
-8.66052 -7.63527 -2.66552 8.77661e-05 4
-10.2995 -9.08027 -2.66898 5.23425e-05 4
-12.6585 -11.1599 -2.67281 4.81886e-05 4
-18.0585 -15.9207 -2.10624 0.000493245 10
-18.0741 -15.9345 -1.26278 0.000497716 10
-18.0695 -15.9305 -0.420478 0.000499878 10
-18.0783 -15.9381 0.42068 0.000499707 10
-18.1387 -15.9914 1.26729 0.000244886 10
-17.7076 -15.6113 3.73891 0.000393013 10
-18.055 -15.9176 4.67868 9.46365e-05 10
-7.4321 -6.59853 -2.66305 0.000121785 4
-8.62327 -7.65609 -2.66227 0.000109716 4
-10.2554 -9.10516 -2.66576 4.13268e-05 4
-12.6233 -11.2075 -2.67362 4.48002e-05 4
-15.629 -13.8761 -2.5662 4.60502e-05 4
-18.0551 -16.03 -2.11235 0.000487451 10
-18.0611 -16.0354 -1.26577 0.000491872 10
-18.0671 -16.0407 -0.421721 0.000494009 10
-18.0691 -16.0425 0.421769 0.00049384 10
-18.1463 -16.111 1.27174 0.000242007 10
-17.7186 -15.7313 3.75283 0.000388404 10
-18.0102 -15.9902 4.68151 9.46271e-05 10
-7.41458 -6.6294 -2.66505 0.000192511 4
-8.60512 -7.69386 -2.66494 0.000207257 4
-10.2268 -9.14384 -2.66661 5.64851e-05 4
-12.5671 -11.2363 -2.67002 5.09152e-05 4
-15.5687 -13.92 -2.56426 3.48461e-05 4
-18.0628 -16.15 -2.11984 0.000481681 10
-18.0693 -16.1558 -1.27029 0.000486051 10
-18.0741 -16.1601 -0.4232 0.000488164 10
-18.0627 -16.15 0.422933 0.000487997 10
-18.1297 -16.2098 1.27454 0.00023914 10
-17.7064 -15.8314 3.76192 0.000383814 10
-17.9508 -16.0499 4.68062 9.46175e-05 10
-7.39464 -6.65816 -2.66622 0.000220026 4
-8.56857 -7.71517 -2.66194 0.000175572 4
-10.1916 -9.17657 -2.66577 4.409e-05 4
-12.5255 -11.278 -2.66953 3.25895e-05 4
-15.5227 -13.9767 -2.5647 3.75791e-05 4
-18.056 -16.2577 -2.12568 0.000475935 10
-18.0603 -16.2616 -1.27364 0.000480257 10
-18.0596 -16.2609 -0.424186 0.000482345 10
-18.0614 -16.2625 0.424227 0.000482179 10
-18.1276 -16.3222 1.27839 0.000236286 10
-17.7187 -15.954 3.77634 0.000379244 10
-17.8916 -16.1097 4.67981 9.46081e-05 10
-18.154 -16.3459 5.63978 6.6824e-05 10
-7.35635 -6.67033 -2.66079 0.00027898 4
-8.54995 -7.75261 -2.66455 3.9019e-05 4
-10.1688 -9.22046 -2.66819 3.44485e-05 4
-15.4975 -14.0523 -2.56863 0.000211245 4
-18.0578 -16.3738 -2.13261 0.000470214 10
-18.0649 -16.3802 -1.27799 0.000474486 10
-18.0772 -16.3914 -0.42594 0.000476551 10
-18.0774 -16.3916 0.425945 0.000476386 10
-18.1372 -16.4458 1.2831 0.000233443 10
-17.7094 -16.0579 3.78629 0.000374694 10
-17.8498 -16.1852 4.68362 9.45986e-05 10
-18.1472 -16.4548 5.65548 0.000211923 10
-8.51544 -7.77566 -2.66224 0.00019511 4
-10.1454 -9.26398 -2.67052 0.000119892 4
-12.4565 -11.3744 -2.67168 7.5381e-05 4
-15.4858 -14.1404 -2.57485 0.00021033 4
-18.069 -16.4992 -2.14072 0.000464519 10
-18.0671 -16.4975 -1.28221 0.000468741 10
-18.064 -16.4947 -0.426984 0.000470782 10
-18.0698 -16.5 0.427121 0.000470618 10
-18.134 -16.5586 1.28696 0.000230614 10
-18.1378 -16.5621 2.14888 0.000228375 10
-18.1468 -16.5703 3.0173 0.000225087 10
-17.7104 -16.1718 3.79854 0.000370163 10
-17.7919 -16.2462 4.68328 9.4589e-05 10
-18.1357 -16.5602 5.66989 0.00020933 10
-18.1374 -16.5617 6.58117 0.000202307 10
-7.3069 -6.71904 -2.65981 0.000275086 4
-8.48619 -7.80345 -2.66159 0.000121953 4
-10.1108 -9.29733 -2.66994 4.27241e-05 4
-12.4239 -11.4244 -2.67323 4.41472e-05 4
-15.4786 -14.2333 -2.58191 0.000150892 4
-18.0576 -16.6048 -2.14623 0.000458849 10
-18.0568 -16.604 -1.28558 0.000463022 10
-18.074 -16.6199 -0.428589 0.000465039 10
-18.0712 -16.6174 0.428523 0.000464876 10
-18.0624 -16.6092 1.28598 0.000230229 10
-18.0631 -16.6099 2.14689 0.000227994 10
-18.0693 -16.6156 3.01405 0.000224711 10
-17.7239 -16.2979 3.81361 0.000365653 10
-17.723 -16.2971 4.68009 9.45795e-05 10
-18.0792 -16.6247 5.67034 0.000208991 10
-18.0791 -16.6246 6.58102 0.00020198 10
-7.2987 -6.75867 -2.6654 0.000314405 4
-8.46701 -7.84053 -2.66414 5.61026e-05 4
-10.0783 -9.33257 -2.66994 0.000139211 4
-12.3659 -11.4509 -2.66932 7.33609e-05 4
-15.4731 -14.3283 -2.58932 0.000223788 4
-18.0524 -16.7167 -2.15254 0.000453205 10
-18.0591 -16.723 -1.2899 0.000457329 10
-18.0623 -16.7259 -0.429693 0.000459322 10
-18.0627 -16.7262 0.429702 0.000459161 10
-17.9736 -16.6437 1.28379 0.000333927 10
-17.9815 -16.651 2.14408 0.000330819 10
-17.9665 -16.6372 3.00658 0.00032619 10
-17.7204 -16.4093 3.82516 0.000361163 10
-17.7122 -16.4017 4.69234 0.000352577 10
-17.9695 -16.6399 5.6541 0.000303758 10
-17.9707 -16.6411 6.56269 0.000293699 10
-7.2666 -6.77621 -2.6623 0.000169004 4
-8.43153 -7.86253 -2.6616 7.56224e-05 4
-10.0356 -9.35833 -2.66727 8.95994e-05 4
-12.3439 -11.5108 -2.67323 4.21196e-05 4
-15.4681 -14.4242 -2.59689 0.00016631 4
-18.0677 -16.8484 -2.16136 0.000447588 10
-18.062 -16.8431 -1.2943 0.000451664 10
-18.07 -16.8505 -0.431272 0.000453632 10
-18.0613 -16.8424 0.431064 0.000453473 10
-17.8456 -16.6413 1.27879 0.000338805 10
-17.8517 -16.647 2.13552 0.000335654 10
-17.844 -16.6398 2.99577 0.000330961 10
-17.7257 -16.5295 3.83874 0.000356694 10
-17.7192 -16.5234 4.70943 0.000348209 10
-17.8372 -16.6335 5.63072 0.000308219 10
-17.8394 -16.6355 6.5359 0.000298021 10
-7.2366 -6.79561 -2.65998 0.000153292 4
-8.40986 -7.89738 -2.66345 0.000109783 4
-10.0042 -9.3946 -2.66764 5.65218e-05 4
-12.3034 -11.5537 -2.67318 6.45458e-05 4
-15.4785 -14.5353 -2.60714 0.000154904 4
-18.0682 -16.9671 -2.16849 0.000441997 10
-18.0553 -16.955 -1.29805 0.000446024 10
-18.0663 -16.9654 -0.432595 0.00044797 10
-18.0744 -16.973 0.432789 0.000447812 10
