VERSION 0.7
FIELDS x y z intensity label
SIZE 4 4 4 4 4
TYPE F F F F F
COUNT 1 1 1 1 1
WIDTH 1179
HEIGHT 1
VIEWPOINT 20.9017 49.4971 2.72684 0.968559 -0.000436573 0.000565564 -0.248782
POINTS 1179
DATA ascii
9.77456 -5.7347 0.197812 0.00238747 10
9.7982 -5.74857 0.595355 0.00237834 10
9.78744 -5.74226 0.992784 0.00235943 10
9.63508 -5.65287 1.37162 0.00316177 10
9.64311 -5.65758 1.77078 0.00310935 10
9.27849 -5.44366 2.09104 0.00333579 10
9.71252 -5.6983 2.59974 0.00186366 10
9.70351 -5.69302 3.0145 0.00180913 10
8.77605 -5.10778 -2.72082 0.00061675 1
9.68301 -5.63565 -2.58656 0.00378457 10
9.6802 -5.63401 -2.17713 0.00388086 10
9.67969 -5.63372 -1.77387 0.00396247 10
9.74277 -5.67043 -1.38412 0.00237251 10
9.74175 -5.66983 -0.986136 0.00240297 10
9.74602 -5.67232 -0.590978 0.00242368 10
9.74375 -5.671 -0.196787 0.00243446 10
9.74996 -5.67462 0.196912 0.00243519 10
9.74998 -5.67462 0.591218 0.00242588 10
9.75498 -5.67754 0.987476 0.00240661 10
9.67525 -5.63113 1.37453 0.00313946 10
9.67944 -5.63357 1.77382 0.0030874 10
9.32497 -5.42726 2.09724 0.00331233 10
9.68892 -5.63909 2.58814 0.00112636 10
9.68873 -5.63898 3.00378 0.00109386 10
8.80541 -5.08381 -2.7244 0.000616788 1
9.7078 -5.6048 -2.58794 0.0037576 10
9.72676 -5.61575 -2.18318 0.00385322 10
9.71677 -5.60998 -1.77707 0.00393427 10
9.70373 -5.60246 -1.37579 0.00241959 10
9.70879 -5.60538 -0.980813 0.00245062 10
9.71493 -5.60892 -0.587902 0.00408308 10
9.72617 -5.61541 -0.196035 0.00409966 10
9.71093 -5.60661 0.195727 0.00409934 10
9.70594 -5.60373 0.587358 0.00408212 10
9.70877 -5.60537 0.980811 0.00404817 10
9.70432 -5.60279 1.37587 0.00311713 10
9.72061 -5.6122 1.77777 0.00306543 10
9.34017 -5.39255 2.09641 0.00328884 10
9.71241 -5.60746 2.58917 0.00177723 10
9.70681 -5.60423 3.0033 0.00172595 10
8.82483 -5.05403 -2.72494 0.000616826 1
9.75258 -5.58535 -2.59466 0.0037306 10
9.7591 -5.58909 -2.18605 0.00382556 10
9.74796 -5.58271 -1.7792 0.00390605 10
9.76418 -5.592 -1.38158 0.00397131 10
9.74423 -5.58057 -0.982419 0.00402073 10
9.74696 -5.58214 -0.588658 0.00405382 10
9.76585 -5.59296 -0.19644 0.0040703 10
9.74397 -5.58042 0.195999 0.00406998 10
9.76806 -5.59422 0.589932 0.00405287 10
9.75916 -5.58913 0.983925 0.00401915 10
9.74886 -5.58323 1.37942 0.00309478 10
9.75801 -5.58847 1.78103 0.00304343 10
9.38783 -5.37646 2.10288 0.00326532 10
9.67385 -5.54027 2.57372 0.00181224 10
9.67887 -5.54314 2.98865 0.00175998 10
8.84078 -5.02226 -2.72443 0.000616864 1
9.78864 -5.56072 -2.59908 0.00370358 10
9.79882 -5.56651 -2.19058 0.00379787 10
9.79024 -5.56163 -1.78336 0.0038778 10
9.79886 -5.56653 -1.38373 0.00394261 10
9.79884 -5.56652 -0.985961 0.00399168 10
9.78766 -5.56017 -0.58994 0.00402454 10
9.80161 -5.56809 -0.196767 0.0040409 10
9.80094 -5.56771 0.196753 0.00404058 10
9.78485 -5.55857 0.58977 0.0040236 10
9.78775 -5.56022 0.984844 0.00399011 10
9.80267 -5.56869 1.38427 0.0030724 10
9.78726 -5.55994 1.78282 0.00302142 10
9.43635 -5.36059 2.10955 0.00324179 10
9.64161 -5.47719 2.56004 0.00184762 10
9.63471 -5.47328 2.96909 0.00179437 10
8.86453 -4.9949 -2.72636 0.000616903 1
9.84167 -5.54549 -2.608 0.00367654 10
9.83386 -5.54109 -2.19407 0.00377017 10
9.82996 -5.5389 -1.78706 0.00384953 10
9.84252 -5.54598 -1.38716 0.00391388 10
9.8324 -5.54027 -0.987385 0.0039626 10
9.83567 -5.54212 -0.591664 0.00399524 10
9.83925 -5.54414 -0.197133 0.00401148 10
9.82587 -5.53659 0.196865 0.00401116 10
9.82675 -5.53709 0.591127 0.0039943 10
9.8407 -5.54495 0.988219 0.00396104 10
9.84292 -5.5462 1.38721 0.00305001 10
9.83173 -5.5399 1.78738 0.00299939 10
9.47977 -5.34158 2.11507 0.00321824 10
9.60656 -5.41302 2.5457 0.00188339 10
9.58782 -5.40246 2.94882 0.00182914 10
8.86273 -4.95321 -2.72047 0.000616941 1
9.87348 -5.5181 -2.61131 0.00364948 10
9.86986 -5.51608 -2.1978 0.00374244 10
9.86718 -5.51458 -1.79032 0.00382124 10
9.87587 -5.51944 -1.38913 0.00388513 10
9.87764 -5.52043 -0.989988 0.00393351 10
9.8793 -5.52136 -0.593126 0.00396591 10
9.88567 -5.52491 -0.197675 0.00398203 10
9.87338 -5.51805 0.197429 0.00398172 10
9.87481 -5.51884 0.592856 0.00396498 10
9.8784 -5.52085 0.990063 0.00393196 10
9.8909 -5.52784 1.39125 0.00302761 10
9.87629 -5.51967 1.79197 0.00297734 10
9.50206 -5.31052 2.1159 0.00319467 10
9.57098 -5.34904 2.53131 0.00191954 10
9.55743 -5.34147 2.93372 0.00186429 10
8.89601 -4.93114 -2.72539 0.000616979 1
9.90761 -5.49188 -2.61525 0.00362241 10
9.92648 -5.50234 -2.20612 0.0037147 10
9.91318 -5.49496 -1.79517 0.00379294 10
9.90709 -5.49159 -1.39082 0.00385637 10
9.92097 -5.49929 -0.9924 0.0039044 10
9.91165 -5.49412 -0.593913 0.00393657 10
9.9306 -5.50462 -0.198188 0.00395258 10
9.92944 -5.50398 0.198165 0.00395226 10
9.93001 -5.50429 0.595012 0.00393564 10
9.91982 -5.49864 0.992284 0.00390285 10
9.91088 -5.49369 1.39135 0.00300519 10
9.9166 -5.49686 1.79579 0.00295528 10
9.54793 -5.29251 2.12199 0.00317108 10
9.54617 -5.29153 2.51985 0.00309213 10
9.54142 -5.2889 2.92312 0.00300197 10
8.90771 -4.89706 -2.72372 0.000617017 1
9.95145 -5.47086 -2.62177 0.00359532 10
9.95678 -5.47379 -2.20859 0.00368695 10
9.95804 -5.47448 -1.79983 0.00376462 10
9.95522 -5.47293 -1.39489 0.00382759 10
9.95996 -5.47554 -0.994382 0.00387527 10
9.9712 -5.48172 -0.596331 0.00390721 10
9.96047 -5.47582 -0.198402 0.0039231 10
9.96765 -5.47976 0.198544 0.00392279 10
9.97186 -5.48208 0.59637 0.00390628 10
9.96099 -5.4761 0.994485 0.00387374 10
9.97065 -5.48141 1.39705 0.00298276 10
9.95623 -5.47348 1.7995 0.00293321 10
9.58066 -5.26702 2.12516 0.00314749 10
9.59788 -5.27648 2.52862 0.0030691 10
9.59744 -5.27624 2.93462 0.00297959 10
8.92314 -4.86505 -2.72323 0.000617055 1
9.99856 -5.4514 -2.62915 0.00356821 10
9.99187 -5.44775 -2.21214 0.00365917 10
10.0057 -5.45531 -1.80499 0.00373628 10
10.0086 -5.45687 -1.39969 0.0037988 10
10.0025 -5.45354 -0.996723 0.00384613 10
9.99209 -5.44787 -0.596439 0.00387784 10
9.99799 -5.45108 -0.198769 0.00389361 10
10.0121 -5.45875 0.199048 0.0038933 10
10.0031 -5.45386 0.597095 0.00387691 10
10.0108 -5.45808 0.997551 0.0038446 10
10.0082 -5.45665 1.39963 0.00296031 10
10.0129 -5.45919 1.80628 0.00291112 10
9.62538 -5.24793 2.131 0.00312388 10
9.63195 -5.25151 2.53275 0.00304606 10
9.63563 -5.25352 2.94067 0.0029572 10
8.94231 -4.83509 -2.72391 0.000617093 1
10.0357 -5.42631 -2.63393 0.0035411 10
10.0461 -5.43193 -2.21994 0.0036314 10
10.0499 -5.43395 -1.80952 0.00370793 10
17.6253 -9.52999 -2.46021 0.000583001 10
17.6148 -9.5243 -1.75195 0.000591154 10
17.6186 -9.52633 -1.04968 0.000394135 10
17.6172 -9.52559 -0.349582 0.000396039 10
17.626 -9.53033 0.349756 0.000396162 10
17.6133 -9.52347 1.04937 0.000394506 10
10.6251 -5.74495 1.05675 0.000349365 10
10.0363 -5.42662 1.40091 0.00293786 10
10.054 -5.43619 1.81027 0.00288903 10
10.0368 -5.42686 2.21787 0.00282893 10
10.0496 -5.43381 2.63757 0.00275813 10
10.0387 -5.42793 3.0579 0.00267729 10
8.95176 -4.79989 -2.72167 0.000617131 1
10.0945 -5.4126 -2.64437 0.00351398 10
10.0828 -5.40633 -2.22386 0.00360361 10
10.0918 -5.41116 -1.81365 0.00367958 10
17.5655 -9.41854 -2.44725 0.000594759 10
17.5514 -9.41097 -1.74236 0.000603066 10
17.6412 -9.45913 -1.04906 0.000611342 10
17.6401 -9.45853 -0.349379 0.000614048 10
17.6495 -9.4636 0.349566 0.000613995 10
17.661 -9.46976 1.05023 0.000611183 10
10.6341 -5.70197 1.05567 0.000349298 10
10.081 -5.40536 1.40449 0.00291541 10
10.0937 -5.41222 1.81401 0.00286694 10
10.0768 -5.40312 2.22253 0.00280728 10
10.0905 -5.4105 2.64334 0.002737 10
10.0786 -5.40412 3.06428 0.00265675 10
8.97742 -4.77338 -2.72439 0.000617169 1
10.1122 -5.37676 -2.64408 0.00348685 10
10.125 -5.38357 -2.22902 0.00357581 10
10.1194 -5.38057 -1.81523 0.00365122 10
17.513 -9.31183 -2.4354 0.000606649 10
17.4994 -9.30458 -1.73396 0.000615113 10
17.4982 -9.30395 -1.03861 0.0004101 10
17.4889 -9.29903 -0.34574 0.000412076 10
17.5043 -9.30722 0.346044 0.000412203 10
17.5079 -9.30911 1.03919 0.000410481 10
10.6707 -5.67373 1.05733 0.00034923 10
10.1346 -5.38868 1.40934 0.00289294 10
10.136 -5.38941 1.81821 0.00284483 10
10.1163 -5.37895 2.2271 0.00278562 10
10.1244 -5.38324 2.64727 0.00271586 10
10.1288 -5.38555 3.07379 0.00263622 10
8.99913 -4.7447 -2.72593 0.000617207 1
10.1653 -5.35956 -2.65306 0.00345973 10
10.1658 -5.35983 -2.23386 0.00354802 10
10.177 -5.36574 -1.8222 0.00362286 10
17.443 -9.19663 -2.42118 0.000618672 10
17.4449 -9.19764 -1.72537 0.000627294 10
17.4988 -9.22608 -1.03673 0.000627917 10
17.507 -9.23038 -0.345458 0.000630691 10
17.5209 -9.23773 0.345733 0.000630636 10
17.4998 -9.22662 1.03679 0.000627753 10
10.666 -5.62356 1.05491 0.000349163 10
10.1638 -5.35878 1.41079 0.00287048 10
10.164 -5.35887 1.81987 0.00282273 10
10.1618 -5.35772 2.23299 0.00276396 10
10.1622 -5.35791 2.65224 0.00269472 10
10.1765 -5.36546 3.08257 0.00261568 10
9.01701 -4.71398 -2.72635 0.000617246 1
10.2125 -5.33897 -2.6605 0.0034326 10
10.2085 -5.33686 -2.23913 0.00352022 10
10.1991 -5.33196 -1.82281 0.00359449 10
17.3845 -9.08841 -2.40865 0.000630828 10
17.3855 -9.08894 -1.71635 0.000639609 10
17.3766 -9.08425 -1.02761 0.000426423 10
17.3818 -9.08697 -0.342359 0.000428471 10
17.3736 -9.08271 0.342199 0.000428602 10
17.377 -9.08447 1.02763 0.000426814 10
10.6989 -5.59323 1.05622 0.000349096 10
10.1978 -5.33126 1.41291 0.00284802 10
10.1994 -5.33209 1.82285 0.00280062 10
10.2051 -5.33512 2.2384 0.0027423 10
10.2013 -5.33312 2.65758 0.00267359 10
10.2098 -5.33757 3.08701 0.00259514 10
9.01514 -4.67301 -2.72084 0.000617284 1
10.2513 -5.31379 -2.66576 0.00340547 10
10.2589 -5.31771 -2.24611 0.00349242 10
10.2621 -5.31935 -1.83073 0.00356613 10
17.3137 -8.97455 -2.39447 0.000643115 10
17.328 -8.98198 -1.70757 0.000652057 10
17.3531 -8.99498 -1.02435 0.000645177 10
17.3692 -9.00333 -0.34149 0.00064802 10
17.3696 -9.00355 0.341498 0.000647963 10
17.3677 -9.00254 1.02521 0.000645008 10
10.7151 -5.55416 1.0559 0.000349029 10
10.2404 -5.30813 1.41625 0.00282555 10
10.2567 -5.31657 1.82977 0.00277852 10
10.2523 -5.3143 2.24467 0.00272064 10
10.2446 -5.31027 2.664 0.00265245 10
10.2454 -5.31073 3.09215 0.0025746 10
9.04696 -4.64951 -2.72553 0.000617321 1
10.282 -5.28421 -2.66891 0.00337835 10
10.3042 -5.29566 -2.25197 0.00346463 10
10.2986 -5.29277 -1.83394 0.00353777 10
17.2537 -8.86718 -2.38188 0.000655534 10
17.2682 -8.87465 -1.69861 0.000664639 10
17.4395 -8.96271 -1.0276 0.000639635 10
17.4267 -8.95613 -0.342005 0.000642455 10
17.4333 -8.95953 0.342134 0.000642399 10
17.4274 -8.95647 1.02689 0.000639467 10
10.7273 -5.51306 1.0552 0.000348962 10
10.2829 -5.28468 1.41956 0.00280309 10
10.3025 -5.29475 1.83463 0.00275642 10
10.2882 -5.2874 2.24846 0.00269898 10
10.2883 -5.28746 2.67056 0.00263132 10
10.2927 -5.28974 3.10083 0.00255407 10
9.06482 -4.61876 -2.72603 0.000617359 1
10.3311 -5.26397 -2.67689 0.00335123 10
10.3486 -5.27288 -2.25763 0.00343684 10
10.3335 -5.26516 -1.83687 0.00350942 10
17.204 -8.76586 -2.37078 0.000668085 10
17.2154 -8.77166 -1.69039 0.000677355 10
17.227 -8.77759 -1.01327 0.000663165 10
17.2271 -8.77765 -0.337484 0.000666081 10
17.2289 -8.77856 0.337518 0.000666023 10
17.2306 -8.77943 1.01348 0.000662991 10
10.7646 -5.48486 1.05699 0.000348895 10
10.3324 -5.26463 1.42385 0.00278063 10
10.3306 -5.26373 1.83637 0.00273432 10
10.3394 -5.26816 2.25561 0.00267733 10
10.3365 -5.26672 2.67829 0.00261019 10
10.3419 -5.26945 3.11007 0.00253353 10
9.064 -4.57856 -2.72096 0.000617397 1
10.3731 -5.23984 -2.68302 0.00332412 10
10.382 -5.24431 -2.2609 0.00340907 10
10.3671 -5.23681 -1.83959 0.00348107 10
17.1559 -8.66605 -2.35997 0.000680768 10
17.1543 -8.66527 -1.68142 0.000690205 10
17.2849 -8.73124 -1.01488 0.000657395 10
17.2944 -8.73604 -0.338203 0.000660287 10
17.2861 -8.73185 0.33804 0.000660229 10
17.2971 -8.73742 1.01559 0.000657223 10
10.7697 -5.44016 1.05561 0.000348828 10
10.3715 -5.23903 1.42671 0.00275818 10
10.378 -5.24229 1.84151 0.00271223 10
10.3694 -5.23797 2.25817 0.00265568 10
10.3734 -5.24 2.6831 0.00258907 10
10.3784 -5.24252 3.11554 0.00251301 10
9.09154 -4.55271 -2.72444 0.000617435 1
10.4208 -5.21836 -2.69063 0.00329702 10
10.4269 -5.2214 -2.2667 0.0033813 10
10.42 -5.21794 -1.84573 0.00345274 10
17.0934 -8.55974 -2.34725 0.000693583 10
17.0902 -8.55814 -1.67219 0.000703186 10
17.3592 -8.69284 -1.01745 0.00065163 10
17.3647 -8.69562 -0.338983 0.000654497 10
17.3635 -8.69498 0.338958 0.00065444 10
17.3693 -8.69788 1.01804 0.000651459 10
10.7875 -5.40198 1.05551 0.000348761 10
10.4167 -5.21627 1.43041 0.00273574 10
10.4236 -5.21973 1.84636 0.00269015 10
10.4245 -5.2202 2.26618 0.00263404 10
10.4161 -5.21599 2.68941 0.00256795 10
10.4146 -5.21523 3.12091 0.00249249 10
9.10167 -4.51811 -2.72273 0.000617473 1
10.466 -5.19539 -2.6976 0.00326993 10
10.4689 -5.19683 -2.27189 0.00335354 10
10.4658 -5.19525 -1.85061 0.00342442 10
17.0484 -8.46291 -2.337 0.000706528 10
17.0233 -8.45044 -1.66275 0.000716301 10
27.1522 -13.4785 -1.58867 0.000276683 10
27.1634 -13.484 -0.529344 0.000278026 10
27.1555 -13.4801 0.529188 0.000277999 10
26.9395 -13.3729 1.57622 0.000153377 10
10.8291 -5.3756 1.05773 0.000348694 10
10.4813 -5.20295 1.43678 0.00271331 10
10.4731 -5.19889 1.85191 0.00266808 10
10.4576 -5.19121 2.26943 0.00261242 10
10.4662 -5.19546 2.69764 0.00254684 10
10.4645 -5.19461 3.13041 0.00247198 10
9.11946 -4.48733 -2.72335 0.000617511 1
10.5039 -5.16858 -2.70271 0.00324286 10
10.5068 -5.16996 -2.27616 0.0033258 10
10.5104 -5.17178 -1.85531 0.00339611 10
16.9872 -8.35875 -2.3246 0.000719605 10
16.9664 -8.34849 -1.65433 0.000729548 10
27.2607 -13.4139 -1.59227 0.000273967 10
27.2543 -13.4108 -0.530199 0.000275298 10
27.2728 -13.4199 0.530559 0.000275271 10
26.2956 -12.939 1.53589 0.000166884 10
10.8451 -5.33644 1.05747 0.000348627 10
10.4997 -5.16649 1.43682 0.00269089 10
10.5126 -5.17285 1.85569 0.00264602 10
10.5102 -5.17167 2.27691 0.0025908 10
10.4998 -5.16653 2.70164 0.00252575 10
10.5062 -5.16968 3.13747 0.00245149 10
9.12535 -4.45073 -2.72046 0.000617549 1
10.5464 -5.1438 -2.70898 0.0032158 10
10.5411 -5.14122 -2.27969 0.00329807 10
10.5612 -5.15106 -1.86109 0.00336782 10
16.926 -8.25538 -2.31227 0.000732812 10
16.927 -8.25587 -1.64768 0.000742927 10
26.404 -12.8781 1.53959 0.000236464 10
10.8566 -5.29512 1.05678 0.00034856 10
10.545 -5.14314 1.44055 0.00266848 10
10.5605 -5.15071 1.86096 0.00262397 10
10.5433 -5.14229 2.28017 0.0025692 10
10.5663 -5.15354 2.71411 0.00250467 10
10.5695 -5.15511 3.151 0.00243101 10
9.14842 -4.42252 -2.72271 0.000617586 1
10.5851 -5.11702 -2.71432 0.00318876 10
10.5881 -5.11849 -2.28599 0.00327037 10
10.5845 -5.11676 -1.86203 0.00333955 10
16.8797 -8.15998 -2.30204 0.000746148 10
16.8839 -8.16198 -1.64069 0.000114314 10
27.9123 -13.4933 -1.62478 0.000120374 10
27.8929 -13.484 -0.540778 0.000121013 10
27.8989 -13.4869 0.540894 0.000121052 10
26.5079 -12.8144 1.54303 0.000234127 10
10.8674 -5.2535 1.05604 0.000348494 10
10.6048 -5.12659 1.44628 0.00264609 10
10.5929 -5.12081 1.86351 0.00260194 10
10.6091 -5.12863 2.29052 0.00254761 10
10.6065 -5.12736 2.71981 0.0024836 10
10.6127 -5.13039 3.15851 0.00241054 10
9.17167 -4.39433 -2.72505 0.000617624 1
10.6242 -5.09025 -2.71978 0.000384085 1
10.6329 -5.09444 -2.29181 0.00324268 10
10.6522 -5.10366 -1.87079 0.0033113 10
16.8176 -8.05765 -2.28972 0.000759615 10
16.9114 -8.10257 -1.64061 0.000114338 10
30.7982 -14.756 -0.596102 0.000136037 10
30.787 -14.7506 0.595885 0.000136082 10
26.5884 -12.739 1.54512 0.00016613 10
10.8948 -5.21991 1.05693 0.000348427 10
10.6461 -5.10076 1.44947 0.00262371 10
10.6549 -5.10495 1.87126 0.00257992 10
10.6338 -5.09488 2.29201 0.00252603 10
10.6474 -5.10139 2.72573 0.00246255 10
10.6494 -5.10234 3.16411 0.00239008 10
9.18532 -4.36151 -2.72457 0.000617662 1
10.653 -5.05842 -2.72262 0.000384113 1
10.6797 -5.07112 -2.29808 0.00321503 10
10.6995 -5.08048 -1.87597 0.00328307 10
16.4777 -7.82421 -2.23971 0.000808164 10
16.4746 -7.82271 -1.59557 0.000819255 10
16.48 -7.82529 -0.956103 0.000826792 10
16.4745 -7.82268 -0.318336 0.000830698 10
16.4883 -7.82925 0.318603 0.000830934 10
16.4652 -7.81824 0.955241 0.000827499 10
10.9207 -5.18553 1.05768 0.00034836 10
10.6777 -5.07013 1.45134 0.00260136 10
10.6763 -5.06949 1.87191 0.00255793 10
10.698 -5.07979 2.30201 0.00250448 10
10.6873 -5.07471 2.73139 0.00244152 10
10.6967 -5.07919 3.17289 0.00236965 10
9.19959 -4.329 -2.7243 0.0006177 1
10.67 -5.0209 -2.72246 0.000384141 1
10.7343 -5.05119 -2.30601 0.00318739 10
10.7442 -5.05582 -1.8807 0.00325487 10
16.4415 -7.7368 -2.23111 0.000822468 10
16.423 -7.7281 -1.58796 0.000833744 10
16.4308 -7.73176 -0.951677 0.000841406 10
16.4373 -7.73483 -0.317094 0.000845377 10
16.438 -7.73512 0.317105 0.000845616 10
16.4378 -7.73507 0.952084 0.000842121 10
10.919 -5.13808 1.05577 0.00026921 10
10.7333 -5.0507 1.4565 0.00257902 10
10.7357 -5.05185 1.87922 0.00253595 10
10.7259 -5.04723 2.3042 0.00248295 10
10.7217 -5.04523 2.73565 0.00242051 10
10.7314 -5.04984 3.17794 0.00234923 10
9.20602 -4.29284 -2.72175 0.000617737 1
10.6773 -4.97893 -2.71989 0.000384168 1
10.7833 -5.02834 -2.31275 0.00315979 10
10.7726 -5.02333 -1.88259 0.0032267 10
16.3861 -7.64095 -2.21995 0.000836905 10
16.3866 -7.64121 -1.58185 0.000848367 10
16.365 -7.63111 -0.946314 0.000856156 10
16.381 -7.63858 -0.31549 0.000860192 10
16.3768 -7.63661 0.315408 0.000860434 10
16.3732 -7.63495 0.94679 0.00085688 10
10.9503 -5.10619 1.05706 0.000269159 10
10.7813 -5.02742 1.46063 0.00255671 10
10.7863 -5.02972 1.88498 0.002514 10
10.7741 -5.02405 2.31077 0.00246144 10
10.7714 -5.02281 2.74386 0.00239952 10
10.7851 -5.02918 3.18861 0.00232884 10
9.22455 -4.26234 -2.72282 0.000617775 1
10.7004 -4.94428 -2.72135 0.000384196 1
10.8269 -5.00272 -2.31833 0.00313221 10
10.8321 -5.00514 -1.88993 0.00319856 10
16.3226 -7.54209 -2.20777 0.000851475 10
16.3352 -7.54792 -1.57433 0.000863126 10
16.3233 -7.54244 -0.942378 0.000871042 10
16.3221 -7.54186 -0.313847 0.000875144 10
16.3355 -7.54804 0.314104 0.000875389 10
16.3316 -7.54628 0.942858 0.000871775 10
10.9733 -5.07036 1.05757 0.000269108 10
10.8137 -4.99664 1.46265 0.00253442 10
10.8212 -5.00008 1.88802 0.00249207 10
10.8292 -5.0038 2.31884 0.00243995 10
10.8117 -4.99572 2.74967 0.00237855 10
10.8199 -4.99951 3.19372 0.00230847 10
9.22746 -4.22466 -2.71931 0.000617813 1
10.7292 -4.9122 -2.72429 0.000384223 1
10.8588 -4.97155 -2.32144 0.00310467 10
10.8765 -4.97966 -1.89464 0.00317046 10
16.2707 -7.4493 -2.19722 0.000866177 10
16.2765 -7.45197 -1.56616 0.000878019 10
16.2841 -7.45543 -0.938603 0.000886065 10
16.2709 -7.44938 -0.31236 0.000890232 10
16.2702 -7.4491 0.312348 0.000890479 10
16.2803 -7.45372 0.938388 0.000886805 10
10.9739 -5.02424 1.05593 0.000269056 10
10.8601 -4.97213 1.46656 0.00251216 10
10.8694 -4.97642 1.8934 0.00247016 10
10.8563 -4.97039 2.3209 0.00241849 10
10.8644 -4.9741 2.75862 0.00235761 10
10.8588 -4.97154 3.20005 0.00228812 10
9.25922 -4.20017 -2.72433 0.00061785 1
10.7469 -4.87503 -2.72447 0.000384251 1
10.9222 -4.95452 -2.33128 0.00307716 10
10.9175 -4.95241 -1.89876 0.00314239 10
16.2284 -7.36154 -2.18802 0.00117733 10
16.2424 -7.36787 -1.56039 0.00119297 10
16.2341 -7.36412 -0.934236 0.00120345 10
16.2401 -7.36685 -0.311274 0.00120866 10
16.2335 -7.36386 0.311148 0.00120855 10
16.2423 -7.36785 0.934709 0.00120313 10
11.0064 -4.99273 1.05738 0.000269005 10
10.9236 -4.95518 1.4728 0.00248992 10
10.9212 -4.95409 1.8994 0.00244829 10
10.912 -4.94991 2.32911 0.00239705 10
10.9034 -4.94601 2.76413 0.00233669 10
10.9109 -4.94942 3.21031 0.0022678 10
9.27848 -4.16992 -2.7257 0.000617888 1
10.7566 -4.83422 -2.72263 0.000384279 1
10.9643 -4.92754 -2.33658 0.00304968 10
10.9557 -4.9237 -1.9024 0.00311435 10
16.2978 -7.3245 -2.19391 0.00116621 10
16.2891 -7.32062 -1.56242 0.00118171 10
16.314 -7.33179 -0.937354 0.00119209 10
16.3142 -7.33189 -0.312202 0.00119726 10
16.303 -7.32684 0.311986 0.00119715 10
16.2976 -7.32445 0.936416 0.00119177 10
11.0194 -4.95232 1.05696 0.000268954 10
10.9642 -4.92752 1.47594 0.00246772 10
10.9584 -4.92491 1.90287 0.00242644 10
10.9499 -4.92107 2.33351 0.00237564 10
10.9519 -4.92199 2.77206 0.00231581 10
10.9612 -4.92614 3.22001 0.0022475 10
9.28221 -4.13271 -2.72254 0.000617925 1
10.7731 -4.79649 -2.72254 0.000384306 1
11.002 -4.89841 -2.34096 0.00302225 10
11.0165 -4.90485 -1.90996 0.00308636 10
16.3678 -7.28743 -2.19991 0.0011551 10
16.3736 -7.29 -1.56807 0.00117046 10
16.3793 -7.29255 -0.939641 0.00118075 10
16.3613 -7.28454 -0.312616 0.00118587 10
16.3814 -7.29348 0.312999 0.00118577 10
16.377 -7.29151 0.939506 0.00118044 10
11.0342 -4.91273 1.05672 0.000268903 10
11.0181 -4.90556 1.48088 0.00244554 10
10.9989 -4.89702 1.90691 0.00240462 10
11.0073 -4.90075 2.34208 0.00235426 10
11.0107 -4.90228 2.78259 0.00229495 10
11.0036 -4.8991 3.22742 0.00222724 10
9.29962 -4.10163 -2.72343 0.000617963 1
10.796 -4.76161 -2.72412 0.000384333 1
11.0416 -4.86993 -2.34576 0.00299486 10
11.0596 -4.87788 -1.91448 0.0030584 10
16.3392 -7.20645 -2.19267 0.000886589 10
16.4443 -7.25282 -1.57241 0.00115924 10
16.4297 -7.24638 -0.941075 0.00116944 10
16.4379 -7.25 -0.313593 0.00117451 10
16.4369 -7.24954 0.313573 0.0011744 10
16.4508 -7.25568 0.942283 0.00116912 10
11.0595 -4.87782 1.05751 0.000268852 10
11.0493 -4.87331 1.48277 0.0024234 10
11.0558 -4.87621 1.91383 0.00238284 10
11.0447 -4.87131 2.34642 0.00233292 10
11.0539 -4.87534 2.78918 0.00227412 10
11.048 -4.87276 3.23545 0.002207 10
9.31681 -4.07042 -2.72428 0.000618 1
10.7985 -4.71775 -2.72057 0.000384361 1
11.1081 -4.85301 -2.35627 0.00296751 10
11.0838 -4.84241 -1.91573 0.00303049 10
16.3083 -7.12494 -2.18517 0.000901331 10
16.5202 -7.21751 -1.57725 0.00114804 10
16.5183 -7.21666 -0.944698 0.00115815 10
16.5122 -7.21399 -0.314527 0.00116317 10
16.5162 -7.21577 0.314604 0.00116307 10
16.4995 -7.20845 0.943623 0.00115783 10
11.1031 -4.85085 1.06006 0.00243185 10
11.0944 -4.84702 1.48655 0.0024013 10
11.1011 -4.84996 1.91872 0.00236109 10
11.1049 -4.8516 2.35558 0.00231161 10
11.1031 -4.85082 2.79731 0.00225333 10
11.093 -4.8464 3.24364 0.0021868 10
9.32447 -4.03506 -2.72239 0.000618038 1
10.809 -4.67746 -2.71908 0.000384388 1
11.1462 -4.82337 -2.36075 0.0029402 10
11.1448 -4.82277 -1.92334 0.00300263 10
16.2635 -7.03784 -2.17586 0.000916197 10
25.7279 -11.1335 -2.45262 0.000258987 10
25.7144 -11.1276 -1.4684 0.000172786 10
25.7212 -11.1306 -0.4892 0.000173677 10
25.7098 -11.1256 0.488982 0.000173728 10
25.7029 -11.1226 1.46775 0.000204146 10
11.1368 -4.81931 1.06166 0.00240951 10
11.1483 -4.82431 1.49151 0.00237923 10
11.1509 -4.82541 1.9244 0.00233937 10
11.1587 -4.82878 2.3634 0.00229033 10
11.1472 -4.82381 2.80415 0.00223257 10
11.1493 -4.82473 3.25517 0.00216663 10
9.33193 -3.99967 -2.72047 0.000618075 1
10.8435 -4.64754 -2.72367 0.000384416 1
11.1957 -4.79849 -2.36769 0.00291295 10
11.1943 -4.7979 -1.929 0.00297481 10
16.1991 -6.94296 -2.16399 0.000931188 10
25.6531 -10.9949 -2.44181 0.000263644 10
25.7734 -11.0465 -1.46956 0.00022162 10
25.784 -11.0511 -0.489658 0.000222674 10
25.7697 -11.0449 0.489386 0.000222652 10
25.6368 -10.988 1.46178 0.000207814 10
11.1905 -4.79624 1.06517 0.00238721 10
11.1809 -4.79216 1.49363 0.00235719 10
11.1802 -4.79182 1.92655 0.0023177 10
11.1819 -4.79259 2.36478 0.00226909 10
11.1944 -4.79792 2.8118 0.00221185 10
11.196 -4.7986 3.26388 0.0021465 10
9.34408 -3.96633 -2.71996 0.000618113 1
10.865 -4.61192 -2.72501 0.000384443 1
11.2266 -4.76543 -2.3707 0.00288574 10
11.2446 -4.77306 -1.93478 0.00294705 10
16.1625 -6.86057 -2.15589 0.000946301 10
25.5589 -10.8491 -2.42923 0.000268346 10
25.5675 -10.8528 -1.45566 0.000227372 10
25.5858 -10.8605 -0.485171 0.000228451 10
25.5762 -10.8564 0.484988 0.000228428 10
25.5647 -10.8516 1.45549 0.000211517 10
11.2357 -4.76926 1.06789 0.00236495 10
11.2298 -4.76676 1.49792 0.0023352 10
11.246 -4.77366 1.93502 0.00229606 10
11.2393 -4.77082 2.37338 0.00224789 10
11.236 -4.76941 2.81806 0.00219116 10
11.2404 -4.77127 3.27196 0.0021264 10
9.36811 -3.93799 -2.72294 0.00061815 1
10.8672 -4.56816 -2.72155 0.000384471 1
11.2945 -4.74776 -2.38151 0.00285858 10
11.2828 -4.74283 -1.93848 0.00291934 10
16.1028 -6.769 -2.14476 0.000961538 10
25.4812 -10.7113 -2.41827 0.000273092 10
25.6725 -10.7917 -1.45948 0.000224901 10
25.6931 -10.8004 -0.486487 0.000225968 10
25.6961 -10.8017 0.486544 0.000225946 10
25.4946 -10.717 1.44937 0.000215254 10
11.296 -4.7484 1.07204 0.00234272 10
11.2889 -4.74542 1.50359 0.00231325 10
11.2908 -4.7462 1.93986 0.00227446 10
11.2986 -4.74951 2.38238 0.00222673 10
11.3011 -4.75053 2.8302 0.00217051 10
11.2925 -4.74692 3.28228 0.00210634 10
9.37672 -3.90315 -2.72147 0.000618187 1
10.8891 -4.53269 -2.72304 0.000384498 1
11.3236 -4.71357 -2.38417 0.00283148 10
11.3232 -4.7134 -1.94259 0.00289168 10
16.061 -6.68555 -2.13607 0.000976897 10
25.4034 -10.5744 -2.40738 0.000277882 10
25.4821 -10.6072 -1.44654 0.000230792 10
25.4708 -10.6025 -0.481574 0.000231885 10
25.4836 -10.6078 0.481816 0.000231862 10
25.4002 -10.5731 1.44189 0.000219026 10
11.3408 -4.72073 1.07472 0.00232055 10
11.3246 -4.71399 1.50615 0.00229134 10
11.3324 -4.71721 1.94416 0.00225291 10
11.3471 -4.72332 2.3891 0.00220561 10
11.327 -4.71499 2.83256 0.00214991 10
11.3507 -4.72483 3.29438 0.00208632 10
9.3923 -3.87123 -2.72205 0.000618224 1
10.9039 -4.49428 -2.72282 0.000384525 1
11.3884 -4.69396 -2.39435 0.00280443 10
11.3764 -4.689 -1.94889 0.00286408 10
16.0198 -6.60289 -2.12751 0.000992378 10
25.3556 -10.4508 -2.39937 0.000282716 10
25.3307 -10.4405 -1.43587 0.000188606 10
25.3307 -10.4406 -0.478233 0.000189572 10
25.3343 -10.442 0.478301 0.000189626 10
25.3467 -10.4472 1.43677 0.000222832 10
11.3917 -4.69532 1.07798 0.00229842 10
11.3832 -4.6918 1.51174 0.00226948 10
11.372 -4.68721 1.94815 0.0022314 10
11.3896 -4.69444 2.39459 0.00218454 10
11.3893 -4.69432 2.84401 0.00212934 10
11.3785 -4.68989 3.29769 0.00206634 10
9.41963 -3.84408 -2.72606 0.000618262 1
10.907 -4.45107 -2.71969 0.000384552 1
11.4375 -4.66757 -2.40123 0.00277744 10
11.4236 -4.6619 -1.95419 0.00283653 10
15.9691 -6.51687 -2.11775 0.00100798 10
25.2828 -10.3177 -2.38906 0.000287593 10
25.3605 -10.3494 -1.4355 0.000234287 10
25.3728 -10.3544 -0.478342 0.000235395 10
25.3643 -10.351 0.478183 0.000235371 10
25.269 -10.3121 1.43032 0.000226673 10
11.4404 -4.66874 1.08104 0.00227633 10
11.4399 -4.66853 1.5171 0.00224766 10
11.4206 -4.66067 1.95367 0.00220993 10
11.4278 -4.66361 2.39919 0.00216351 10
11.4264 -4.66301 2.84919 0.00210883 10
11.4327 -4.66559 3.30865 0.00204641 10
9.41699 -3.80471 -2.72144 0.000618299 1
10.9427 -4.42115 -2.72473 0.00038458 1
11.492 -4.64307 -2.40925 0.00275051 10
11.4911 -4.64271 -1.96295 0.00280905 10
15.912 -6.42888 -2.10719 0.0010237 10
25.2036 -10.1829 -2.3782 0.000292513 10
25.1978 -10.1806 -1.42427 0.000195138 10
25.1999 -10.1814 -0.47441 0.000196134 10
25.1819 -10.1741 0.474071 0.00019619 10
25.1913 -10.1779 1.4239 0.000230547 10
11.4946 -4.64411 1.08462 0.0022543 10
11.4753 -4.63632 1.51964 0.0022259 10
11.479 -4.6378 1.96087 0.00218852 10
11.4834 -4.6396 2.40745 0.00214252 10
11.4792 -4.63788 2.8583 0.00208835 10
11.4892 -4.64193 3.32029 0.00202652 10
9.44247 -3.77672 -2.72498 0.000618336 1
10.9426 -4.37673 -2.72088 0.000384607 1
11.527 -4.61048 -2.4132 0.00272364 10
11.5264 -4.61025 -1.96622 0.00278163 10
15.8891 -6.3552 -2.10121 0.00103954 10
25.1321 -10.0521 -2.36813 0.000297477 10
25.2718 -10.108 -1.42645 0.000237861 10
25.2481 -10.0985 -0.474653 0.000238984 10
25.253 -10.1005 0.474743 0.00023896 10
25.106 -10.0417 1.41709 0.000234456 10
11.5383 -4.61501 1.08723 0.00223231 10
11.5216 -4.6083 1.52363 0.00220418 10
11.52 -4.60769 1.96513 0.00216715 10
11.5215 -4.60826 2.41204 0.00212159 10
11.5284 -4.61102 2.86653 0.00206792 10
11.5189 -4.60722 3.3242 0.00200667 10
9.45028 -3.74163 -2.72344 0.000618373 1
10.9492 -4.33511 -2.71875 0.000384635 1
11.5679 -4.58007 -2.41841 0.00269684 10
11.5832 -4.58612 -1.97316 0.00275427 10
15.8316 -6.26818 -2.09069 0.0010555 10
25.0528 -9.91913 -2.35738 0.000302484 10
25.062 -9.92274 -1.41264 0.000201785 10
25.052 -9.91879 -0.470311 0.000202813 10
25.0349 -9.91201 0.469989 0.00020287 10
25.035 -9.91205 1.41112 0.000238398 10
11.5868 -4.58754 1.09028 0.00221038 10
11.5889 -4.58838 1.53041 0.00218251 10
11.5794 -4.58459 1.97251 0.00214583 10
11.567 -4.57972 2.41822 0.0021007 10
11.5872 -4.58771 2.87717 0.00204755 10
11.5734 -4.58223 3.33529 0.00198688 10
9.46014 -3.70739 -2.72254 0.00061841 1
10.9853 -4.30511 -2.72397 0.000384662 1
11.6351 -4.55976 -2.42911 0.0026701 10
11.6339 -4.55929 -1.97908 0.00272699 10
15.7945 -6.18981 -2.08293 0.00107158 10
24.9754 -9.78774 -2.34686 0.000307534 10
25.1404 -9.85244 -1.41512 0.000241518 10
25.1546 -9.858 -0.471589 0.000242655 10
25.1449 -9.85419 0.471407 0.000242631 10
24.9642 -9.78338 1.4052 0.000242374 10
11.6389 -4.56122 1.09367 0.0021885 10
11.6206 -4.55406 1.53249 0.00216089 10
11.6359 -4.56005 1.97941 0.00212457 10
11.6278 -4.5569 2.42759 0.00207987 10
11.6377 -4.56077 2.88573 0.00202722 10
11.6285 -4.55716 3.34657 0.00196713 10
9.48137 -3.67758 -2.72494 0.000618447 1
10.9914 -4.26327 -2.72175 0.000384689 1
11.6722 -4.52735 -2.43354 0.00264343 10
11.6869 -4.53306 -1.98539 0.00269977 10
15.7388 -6.10469 -2.07276 0.00108778 10
24.9186 -9.6653 -2.33835 0.000312626 10
24.9233 -9.66713 -1.40099 0.000248109 10
24.9344 -9.67142 -0.466825 0.000249275 10
24.9373 -9.67256 0.466879 0.000249249 10
24.8994 -9.65784 1.39964 0.000246384 10
11.6827 -4.53141 1.09629 0.00216667 10
11.6776 -4.52943 1.5379 0.00213933 10
11.6809 -4.53072 1.98436 0.00210335 10
11.6522 -4.5196 2.42937 0.00174164 10
11.6521 -4.51956 2.88537 0.00169815 10
11.6523 -4.51962 3.34886 0.0016484 10
9.49469 -3.64467 -2.72509 0.000618484 1
10.9994 -4.22229 -2.72009 0.000384716 1
11.7208 -4.49919 -2.44038 0.00261682 10
11.7326 -4.50373 -1.99047 0.00267262 10
15.6997 -6.02655 -2.06482 0.00110409 10
24.8383 -9.53452 -2.32767 0.000317761 10
25.0388 -9.6115 -1.40559 0.000245261 10
25.0414 -9.61251 -0.468198 0.000246414 10
25.0249 -9.60616 0.467888 0.000246389 10
24.8271 -9.53024 1.3937 0.000250427 10
11.7195 -4.49868 1.09827 0.0021449 10
11.7371 -4.50546 1.54367 0.00211783 10
11.734 -4.50427 1.99071 0.0020822 10
11.614 -4.45821 2.41815 0.00176665 10
11.5982 -4.45215 2.86817 0.00172256 10
11.6055 -4.45495 3.33093 0.00167212 10
9.50507 -3.61064 -2.72444 0.000618521 1
11.0149 -4.18416 -2.72028 0.000384743 1
11.7817 -4.47545 -2.4498 0.00259029 10
11.7871 -4.47751 -1.99706 0.00264554 10
15.6465 -5.94356 -2.05509 0.00112051 10
24.7737 -9.41065 -2.31853 0.000322937 10
24.8097 -9.42433 -1.39087 0.000252024 10
24.8057 -9.42281 -0.463172 0.000253205 10
24.818 -9.42748 0.463402 0.00025318 10
24.7756 -9.41136 1.38896 0.000254503 10
11.7691 -4.47068 1.10145 0.00212319 10
11.7716 -4.4716 1.54613 0.00209638 10
11.7941 -4.48016 1.99824 0.0020611 10
11.5887 -4.40213 2.40966 0.00179183 10
11.5645 -4.39295 2.85602 0.00174713 10
11.5633 -4.3925 3.3144 0.00169599 10
9.52067 -3.57858 -2.72531 0.000618558 1
11.0424 -4.15056 -2.72348 0.00038477 1
11.8248 -4.44465 -2.45552 0.00256384 10
11.8153 -4.44108 -1.99919 0.00261854 10
15.608 -5.86667 -2.04733 0.00113706 10
24.6955 -9.28245 -2.30817 0.000328156 10
24.9266 -9.36929 -1.39558 0.000249095 10
24.9207 -9.36708 -0.464706 0.000250264 10
24.9334 -9.37186 0.464943 0.000250238 10
24.6968 -9.28292 1.38272 0.000258611 10
11.8178 -4.44203 1.10455 0.00210154 10
11.8393 -4.45009 1.55298 0.00207499 10
11.829 -4.44623 2.00151 0.00204005 10
11.5529 -4.34246 2.39906 0.00181717 10
11.5451 -4.33953 2.84748 0.00177186 10
11.5375 -4.33666 3.30263 0.00172003 10
9.53371 -3.54556 -2.72549 0.000618595 1
11.0456 -4.10781 -2.72071 0.000384797 1
11.8761 -4.4167 -2.46296 0.00253746 10
11.8916 -4.42246 -2.00948 0.00259162 10
15.5694 -5.79022 -2.0396 0.00115371 10
24.6496 -9.16709 -2.30086 0.000333416 10
24.6925 -9.18307 -1.38067 0.000256036 10
24.7009 -9.18619 -0.460007 0.000257235 10
24.6819 -9.17914 0.459653 0.000257209 10
24.622 -9.15686 1.37673 0.000262753 10
11.8877 -4.42098 1.10963 0.00207995 10
11.8859 -4.42033 1.55706 0.00205367 10
11.877 -4.41703 2.00701 0.00201907 10
11.5128 -4.28156 2.3876 0.00184268 10
11.5042 -4.27838 2.83368 0.00179675 10
11.5018 -4.27749 3.28813 0.00174421 10
9.52477 -3.50444 -2.71942 0.000618632 1
11.0622 -4.0701 -2.72129 0.000384824 1
11.9286 -4.38887 -2.47064 0.00251115 10
11.9169 -4.38457 -2.01115 0.00256477 10
15.5139 -5.70801 -2.02971 0.00117048 10
24.5564 -9.035 -2.28921 0.000338717 10
24.5651 -9.0382 -1.37178 0.000225939 10
24.5651 -9.03818 -0.456886 0.00022708 10
24.5736 -9.04134 0.457046 0.000227142 10
24.5761 -9.04224 1.37239 0.000266927 10
11.941 -4.39343 1.11317 0.00205843 10
11.9276 -4.38849 1.5605 0.0020324 10
11.9396 -4.39291 2.01498 0.00199815 10
11.4814 -4.22434 2.37803 0.00214731 10
11.4766 -4.22258 2.82324 0.00209309 10
11.4976 -4.23028 3.28267 0.0020312 10
9.55221 -3.47672 -2.72377 0.000618669 1
11.0787 -4.03232 -2.72187 0.000384851 1
11.9775 -4.35944 -2.4776 0.00248493 10
11.9941 -4.36551 -2.0216 0.00253801 10
15.4752 -5.63252 -2.02206 0.00118737 10
24.4923 -8.91447 -2.28032 0.00034406 10
24.5665 -8.94147 -1.3701 0.000260152 10
24.56 -8.93911 -0.456209 0.000261367 10
24.5751 -8.9446 0.456489 0.00026134 10
24.5071 -8.91988 1.36679 0.000271133 10
11.9895 -4.36383 1.11627 0.00203697 10
11.973 -4.35781 1.56444 0.0020112 10
11.9708 -4.35703 2.01767 0.000415721 10
11.5315 -4.19712 2.38535 0.00212499 10
11.5247 -4.19465 2.83145 0.00207131 10
11.5412 -4.20064 3.29091 0.00201004 10
9.54455 -3.43625 -2.71815 0.000618705 1
11.0835 -3.9903 -2.71961 0.000384878 1
12.0387 -4.3342 -2.48712 0.00245878 10
12.0237 -4.32879 -2.02402 0.00251132 10
15.4427 -5.55972 -2.01527 0.00120436 10
24.4465 -8.8013 -2.27318 0.000349443 10
24.4321 -8.79612 -1.36089 0.000352884 10
24.4299 -8.7953 -0.453219 0.000354663 10
24.4304 -8.79549 0.453229 0.000354758 10
24.415 -8.78994 1.35993 0.000275372 10
12.0263 -4.32972 1.11827 0.00201557 10
12.0261 -4.32966 1.5694 0.00199006 10
11.9825 -4.31398 2.0171 0.000415678 10
11.5831 -4.17018 2.393 0.00210273 10
11.5734 -4.16667 2.83981 0.0020496 10
11.5897 -4.17254 3.30057 0.00198895 10
9.57015 -3.40778 -2.72204 0.000618742 1
11.0971 -3.95151 -2.71955 0.000384905 1
12.0991 -4.30828 -2.49647 0.00243272 10
12.0924 -4.30591 -2.03305 0.00248473 10
15.3992 -5.48339 -2.00707 0.00122146 10
24.3782 -8.68068 -2.264 0.000354868 10
24.3823 -8.68214 -1.35642 0.000358358 10
24.3783 -8.68074 -0.451698 0.000360162 10
24.3623 -8.67502 0.4514 0.000360259 10
24.3759 -8.67985 1.35606 0.000279642 10
12.0854 -4.30342 1.12237 0.00199424 10
12.0993 -4.30837 1.57698 0.00196899 10
12.0146 -4.2782 2.01996 0.000415635 10
9.58741 -3.37626 -2.72358 0.000618779 1
11.1103 -3.91256 -2.71942 0.000384932 1
12.1406 -4.27538 -2.50195 0.00240674 10
12.126 -4.27023 -2.03617 0.00245822 10
15.3574 -5.4082 -1.99916 0.00123868 10
24.3059 -8.55946 -2.25449 0.000360332 10
24.3009 -8.5577 -1.35022 0.000363873 10
24.2914 -8.55437 -0.449532 0.000365702 10
24.3109 -8.56122 0.449892 0.0003658 10
24.2879 -8.55313 1.3495 0.000283945 10
12.1342 -4.27313 1.12551 0.00197298 10
12.143 -4.27622 1.58072 0.00194799 10
12.018 -4.23222 2.01805 0.000415593 10
12.2357 -4.30888 2.99488 0.00102172 10
12.234 -4.30828 3.47542 0.000991628 10
9.5901 -3.33963 -2.72101 0.000618816 1
11.1289 -3.87549 -2.72064 0.000384959 1
12.1976 -4.24767 -2.51063 0.00238085 10
12.1947 -4.24666 -2.04522 0.00243179 10
15.3109 -5.33181 -1.99067 0.001256 10
24.2439 -8.44261 -2.24599 0.000365836 10
24.2439 -8.44262 -1.3454 0.000369428 10
24.2308 -8.43807 -0.447862 0.000371283 10
24.224 -8.43569 0.447736 0.000371382 10
24.2405 -8.44143 1.34522 0.000288278 10
12.1958 -4.24704 1.12984 0.00195179 10
12.1901 -4.24504 1.58492 0.00192706 10
12.0248 -4.18748 2.01672 0.00041555 10
12.2697 -4.27276 2.52546 0.00116366 10
12.2703 -4.27298 2.99968 0.00113405 10
12.2823 -4.27716 3.48488 0.00110025 10
9.61603 -3.31107 -2.72507 0.000618852 1
11.138 -3.83513 -2.71958 0.000384986 1
12.2525 -4.21887 -2.51888 0.00235505 10
12.2347 -4.21275 -2.04945 0.00240546 10
15.291 -5.26513 -1.98569 0.00127343 10
15.2702 -5.25797 -1.41295 0.000852411 10
15.284 -5.26271 -0.847156 0.000860064 10
15.2807 -5.26157 -0.282095 0.000864016 10
15.278 -5.26065 0.282045 0.000864226 10
15.2588 -5.25402 0.845757 0.000860692 10
12.2526 -4.2189 1.13373 0.00193068 10
12.2537 -4.21929 1.59126 0.0019062 10
12.0438 -4.147 2.01746 0.000415507 10
9.62519 -3.27668 -2.72441 0.000618889 1
11.1525 -3.79663 -2.71987 0.000385013 1
12.2941 -4.18526 -2.52442 0.00232934 10
12.3048 -4.1889 -2.05873 0.00237922 10
15.2495 -5.19135 -1.97793 0.00129097 10
15.312 -5.21262 -1.41512 0.000936964 10
15.3085 -5.21143 -0.847499 0.000945056 10
15.3068 -5.21087 -0.282239 0.000949076 10
15.3128 -5.21292 0.28235 0.000948987 10
15.2865 -5.20394 0.84628 0.000944787 10
12.3085 -4.19015 1.13754 0.00190964 10
12.3155 -4.19254 1.59738 0.00188542 10
12.0664 -4.10774 2.01884 0.000415464 10
9.63738 -3.24334 -2.72464 0.000618925 1
11.168 -3.75845 -2.72043 0.00038504 1
12.3577 -4.15884 -2.53448 0.00230372 10
12.3608 -4.15988 -2.06566 0.00235307 10
15.1987 -5.11494 -1.96902 0.00130861 10
15.369 -5.17223 -1.41871 0.000926352 10
15.3553 -5.16762 -0.849084 0.000934355 10
15.3701 -5.17262 -0.283072 0.000938332 10
15.3632 -5.17028 0.282943 0.000938243 10
15.3758 -5.17455 0.850223 0.000934088 10
12.3511 -4.1566 1.14013 0.00188867 10
12.3546 -4.1578 1.60056 0.00186471 10
12.0968 -4.07101 2.02153 0.000415421 10
9.64816 -3.20952 -2.7245 0.000618962 1
11.1956 -3.72427 -2.72396 0.000385066 1
12.3968 -4.12385 -2.53952 0.0022782 10
12.42 -4.1316 -2.07313 0.00232702 10
15.1613 -5.04349 -1.96187 0.00132635 10
15.1502 -5.03981 -1.39689 0.000887815 10
12.6413 -4.20521 -0.698199 0.00141165 10
12.6426 -4.20563 -0.232567 0.00141795 10
12.6403 -4.20488 0.232525 0.00141828 10
12.6294 -4.20123 0.697538 0.00141264 10
12.419 -4.13125 1.14506 0.00186778 10
12.4121 -4.12897 1.60613 0.00184407 10
12.1032 -4.0262 2.02024 0.000415379 10
9.64076 -3.16972 -2.71927 0.000618998 1
11.1826 -3.67664 -2.71766 0.000385093 1
12.4497 -4.09326 -2.54742 0.00225276 10
12.4503 -4.09345 -2.07578 0.00230106 10
12.5995 -4.14251 -1.6285 0.00139954 10
12.6172 -4.14833 -1.16199 0.00141777 10
12.5966 -4.14154 -0.694924 0.00143013 10
12.6206 -4.14943 -0.231894 0.00143651 10
12.6062 -4.14471 0.23163 0.00143685 10
12.6106 -4.14617 0.6957 0.00143113 10
12.4669 -4.0989 1.14815 0.00184696 10
12.4629 -4.09759 1.61084 0.00182351 10
12.1141 -3.98292 2.01973 0.000415336 10
9.66289 -3.13966 -2.72241 0.000619035 1
11.2151 -3.64399 -2.72245 0.00038512 1
12.5217 -4.06853 -2.55922 0.00222743 10
12.5251 -4.06965 -2.08587 0.00227521 10
12.5625 -4.0818 -1.62186 0.00141775 10
12.5716 -4.08476 -1.15647 0.0014362 10
12.5798 -4.08743 -0.693207 0.00144872 10
12.584 -4.08879 -0.230958 0.00145518 10
12.5665 -4.0831 0.230637 0.00145551 10
12.581 -4.08782 0.693275 0.00144973 10
12.5249 -4.06959 1.15218 0.00182623 10
12.5154 -4.06649 1.61578 0.00180303 10
12.1392 -3.94427 2.02161 0.000415293 10
9.67153 -3.10519 -2.72177 0.000619071 1
11.2325 -3.60636 -2.7236 0.000385147 1
12.5692 -4.03552 -2.56604 0.0022022 10
12.579 -4.03869 -2.09249 0.00224945 10
12.5818 -4.03957 -1.62252 0.00151113 10
12.5596 -4.03245 -1.15407 0.0015303 10
12.5608 -4.03284 -0.691382 0.00154313 10
12.5722 -4.03648 -0.230481 0.0015495 10
12.5809 -4.03928 0.230641 0.00154935 10
12.5691 -4.03551 0.691839 0.00154269 10
12.5706 -4.03598 1.15508 0.00180558 10
12.5702 -4.03586 1.62103 0.00178263 10
12.1538 -3.90216 2.02176 0.000415251 10
12.6602 -4.06476 2.58463 0.00107624 10
12.6598 -4.06462 3.06969 0.00104876 10
12.6756 -4.06968 3.56717 0.00101741 10
9.69337 -3.07492 -2.72488 0.000619107 1
11.2374 -3.5647 -2.72175 0.000385173 1
12.6285 -4.00601 -2.57528 0.00217707 10
12.6204 -4.00342 -2.09703 0.0022238 10
12.6424 -4.01041 -1.62852 0.00149391 10
12.6314 -4.0069 -1.15937 0.00151286 10
12.6392 -4.00939 -0.694922 0.00152555 10
12.6384 -4.00914 -0.231438 0.00153186 10
12.6289 -4.00612 0.231263 0.00153171 10
12.6395 -4.00949 0.694939 0.00152512 10
12.6294 -4.0063 1.15919 0.001785 10
12.6245 -4.00473 1.62622 0.00176231 10
12.1614 -3.85784 2.02077 0.00190302 10
12.7086 -4.03142 2.59162 0.00101506 10
12.7231 -4.03599 3.0816 0.000989472 10
12.7101 -4.03187 3.5729 0.000960215 10
9.6954 -3.03836 -2.72245 0.000619144 1
11.245 -3.52396 -2.7206 0.0003852 1
12.6853 -3.97532 -2.58401 0.00215203 10
12.6802 -3.97374 -2.10466 0.00219825 10
12.7381 -3.99189 -1.63905 0.000377228 10
12.8455 -4.02553 -1.17773 0.0013879 10
12.8564 -4.02894 -0.706083 0.00140003 10
12.8409 -4.02411 -0.234888 0.00140628 10
12.8473 -4.02611 0.235005 0.0014066 10
12.8525 -4.02772 0.70587 0.00140099 10
12.674 -3.97178 1.162 0.00176452 10
12.6787 -3.97326 1.6314 0.00174207 10
12.2151 -3.82798 2.02746 0.00188126 10
12.6957 -3.97858 2.58613 0.00107005 10
12.6917 -3.97733 3.07061 0.00104274 10
12.6984 -3.97943 3.56569 0.00101157 10
9.70804 -3.00514 -2.72304 0.00061918 1
11.2545 -3.48385 -2.71995 0.000385226 1
12.7278 -3.9399 -2.58985 0.00212711 10
12.731 -3.94092 -2.1108 0.00217281 10
12.7655 -3.9516 -1.64079 0.000377277 10
12.8093 -3.96515 -1.17314 0.00140548 10
12.8154 -3.96703 -0.70307 0.00141775 10
12.8043 -3.96359 -0.233963 0.00142408 10
12.8079 -3.96471 0.234029 0.0014244 10
12.8285 -3.97109 0.703788 0.00141872 10
12.743 -3.94463 1.16706 0.00174411 10
12.7317 -3.94111 1.63644 0.00172191 10
12.28 -3.80129 2.03601 0.00185959 10
12.6943 -3.92956 2.58305 0.00161766 10
12.6866 -3.92717 3.06606 0.00157691 10
12.6756 -3.92374 3.55541 0.00153031 10
9.72215 -2.97236 -2.72407 0.000619216 1
11.2741 -3.44685 -2.72177 0.000385253 1
12.801 -3.91366 -2.60195 0.00210229 10
12.8119 -3.917 -2.12193 0.00214748 10
12.8066 -3.91536 -1.6443 0.00218412 10
12.7885 -3.90983 -1.16997 0.001461 10
12.812 -3.91702 -0.702127 0.00147327 10
12.8079 -3.91579 -0.233779 0.00147936 10
12.8139 -3.91759 0.233886 0.00147922 10
12.8119 -3.917 0.702124 0.00147284 10
12.8097 -3.91631 1.17191 0.0017238 10
12.8061 -3.91522 1.64424 0.00170185 10
12.328 -3.76904 2.04177 0.00183801 10
12.6427 -3.86528 2.56979 0.001638 10
12.6629 -3.87144 3.05704 0.00159675 10
12.6591 -3.87028 3.54699 0.00154958 10
9.71661 -2.93362 -2.71963 0.000619252 1
11.2698 -3.40256 -2.71784 0.000385279 1
12.8421 -3.87727 -2.60755 0.00207758 10
12.8425 -3.87739 -2.12474 0.00212226 10
12.8659 -3.88446 -1.65017 0.00215849 10
12.8544 -3.88098 -1.17476 0.00144385 10
12.8505 -3.8798 -0.703493 0.00145598 10
12.8474 -3.87885 -0.23425 0.00146201 10
12.8687 -3.88529 0.234638 0.00146187 10
12.8455 -3.8783 0.70322 0.00145557 10
12.8509 -3.87993 1.17444 0.00170357 10
12.8628 -3.8835 1.64976 0.00168187 10
12.3708 -3.73498 2.0467 0.00181653 10
12.6282 -3.81269 2.56411 0.00165844 10
12.6206 -3.81037 3.04359 0.00161669 10
12.6128 -3.80804 3.53027 0.00156896 10
9.7305 -2.90079 -2.72067 0.000619288 1
11.2871 -3.36484 -2.71917 0.000385306 1
12.9157 -3.85033 -2.61973 0.00205297 10
12.8992 -3.84541 -2.13188 0.00209714 10
12.9022 -3.84632 -1.65309 0.00213296 10
13.0939 -3.90347 -1.19539 0.00135943 10
13.083 -3.9002 -0.715467 0.00137133 10
13.0808 -3.89956 -0.238256 0.00137746 10
13.1 -3.90529 0.238606 0.00137777 10
13.0742 -3.8976 0.71499 0.00137226 10
12.9052 -3.84721 1.17816 0.00168343 10
12.9126 -3.84941 1.65442 0.00166197 10
12.4391 -3.70825 2.05584 0.00179513 10
12.5959 -3.755 2.55487 0.00167897 10
12.5883 -3.75274 3.03263 0.00163673 10
12.591 -3.75355 3.52048 0.00158843 10
9.74166 -2.86713 -2.72098 0.000619324 1
11.2896 -3.32272 -2.71696 0.000385332 1
12.9744 -3.81857 -2.62893 0.00202848 10
12.975 -3.81874 -2.14219 0.00207214 10
12.9696 -3.81715 -1.66 0.00210755 10
13.0501 -3.84086 -1.19016 0.00137621 10
13.0687 -3.84634 -0.713951 0.00138824 10
13.0671 -3.84585 -0.23776 0.00139444 10
13.05 -3.84084 0.23745 0.00139476 10
13.0462 -3.8397 0.712718 0.00138918 10
12.97 -3.81727 1.18285 0.00166338 10
12.9774 -3.81946 1.661 0.00164217 10
12.489 -3.67571 2.06195 0.00177384 10
12.564 -3.6978 2.54578 0.00169961 10
12.5665 -3.69852 3.02424 0.00165687 10
12.5526 -3.69444 3.50611 0.00160799 10
9.74103 -2.83003 -2.71802 0.00061936 1
11.3177 -3.28811 -2.72094 0.000385359 1
13.0222 -3.78331 -2.63593 0.0020041 10
13.0335 -3.7866 -2.14967 0.00204726 10
13.0198 -3.78261 -1.66473 0.00208225 10
13.0371 -3.78762 -1.18776 0.00139288 10
13.0266 -3.78458 -0.710925 0.0014046 10
13.0226 -3.78341 -0.236709 0.00141042 10
13.0323 -3.78623 0.236885 0.00141028 10
13.0416 -3.78895 0.711744 0.00140419 10
13.0315 -3.78601 1.18725 0.00164342 10
13.0247 -3.78402 1.66535 0.00162245 10
12.5417 -3.6437 2.06854 0.00175264 10
12.5507 -3.64631 2.54048 0.00171553 10
12.5503 -3.64619 3.01726 0.00167184 10
12.535 -3.64175 3.49762 0.00162198 10
9.75272 -2.79655 -2.71855 0.000619396 1
11.3142 -3.24431 -2.71736 0.000385385 1
13.0916 -3.75395 -2.6473 0.00197983 10
13.0968 -3.75544 -2.15792 0.00202248 10
13.1016 -3.75682 -1.6735 0.00205707 10
13.0966 -3.75539 -1.19198 0.00137605 10
13.0833 -3.75158 -0.713299 0.00138763 10
13.0978 -3.75574 -0.237837 0.00139338 10
13.0832 -3.75154 0.237571 0.00139325 10
13.0805 -3.75078 0.713148 0.00138723 10
13.0923 -3.75417 1.19159 0.00162356 10
13.0778 -3.75 1.67046 0.00160283 10
12.5985 -3.61255 2.07581 0.00173153 10
12.5929 -3.61096 2.54646 0.00169486 10
12.6139 -3.61699 3.02952 0.00165168 10
12.5917 -3.61063 3.50992 0.00160239 10
9.77895 -2.76716 -2.72315 0.000619432 1
11.3397 -3.20881 -2.72077 0.000385411 1
13.1385 -3.71783 -2.65415 0.00195568 10
13.1439 -3.71935 -2.16353 0.00199783 10
13.1513 -3.72144 -1.67818 0.00203202 10
13.3289 -3.77171 -1.21192 0.00133221 10
13.334 -3.77315 -0.726245 0.00134388 10
13.3137 -3.76739 -0.241516 0.0013499 10
13.3256 -3.77077 0.241733 0.0013502 10
13.3272 -3.77121 0.725871 0.00134478 10
13.1493 -3.72087 1.19558 0.00160379 10
13.143 -3.71911 1.67713 0.0015833 10
13.1479 -3.72049 2.1642 0.00155636 10
13.1436 -3.71927 2.65518 0.00152321 10
13.1486 -3.72069 3.15479 0.00148418 10
13.1444 -3.71948 3.66032 0.00143964 10
9.77873 -2.73027 -2.72041 0.000619468 1
11.3485 -3.16856 -2.72021 0.000385438 1
13.2135 -3.68928 -2.66668 0.00193164 10
13.2022 -3.68611 -2.17099 0.0019733 10
13.2026 -3.68622 -1.68307 0.00200708 10
13.3062 -3.71516 -1.20867 0.00134822 10
13.2821 -3.70844 -0.72271 0.00136002 10
13.2983 -3.71297 -0.241001 0.00136611 10
13.2921 -3.71122 0.240888 0.00136641 10
13.2879 -3.71005 0.723025 0.00136094 10
13.2193 -3.69091 1.20078 0.00158411 10
13.2061 -3.68722 1.68353 0.00156387 10
13.2146 -3.68959 2.17304 0.00153724 10
13.2011 -3.68582 2.66418 0.00150448 10
13.205 -3.68691 3.16522 0.00146591 10
13.2123 -3.68893 3.67561 0.0014219 10
9.79678 -2.69848 -2.7228 0.000619504 1
11.3493 -3.12612 -2.71777 0.000385464 1
13.2534 -3.65059 -2.67214 0.00190772 10
13.2631 -3.65326 -2.1789 0.00194888 10
13.2541 -3.65077 -1.688 0.00198226 10
13.2685 -3.65475 -1.20407 0.00132603 10
13.264 -3.65352 -0.721026 0.0013372 10
13.2797 -3.65785 -0.240431 0.00134275 10
13.2746 -3.65643 0.240338 0.00134262 10
13.2612 -3.65275 0.720874 0.00133681 10
13.2807 -3.65811 1.20518 0.00156453 10
13.283 -3.65874 1.69168 0.00154453 10
13.2644 -3.65363 2.17912 0.00151821 10
