VERSION 0.7
FIELDS x y z intensity label
SIZE 4 4 4 4 4
TYPE F F F F F
COUNT 1 1 1 1 1
WIDTH 1199
HEIGHT 1
VIEWPOINT 18.8961 52.4976 2.72734 0.968552 0.000092 0.000475982 -0.248809
POINTS 1199
DATA ascii
21.0902 23.2593 8.41289 0.000194481 10
6.59494 7.32442 -2.6409 7.65489e-05 4
7.65771 8.50474 -2.64212 0.000138132 4
9.27368 10.2995 -2.69397 0.000118049 4
10.6691 11.8492 -2.52538 9.28987e-05 4
13.7451 15.2655 -2.52221 3.02503e-05 4
21.1218 23.4581 -1.6543 9.78546e-05 10
21.1164 23.4522 -0.550848 9.83473e-05 10
21.5207 23.9011 0.561391 0.00026622 10
21.1077 23.4424 1.6532 7.63113e-05 10
21.1135 23.4489 2.76058 7.55543e-05 10
20.7988 23.0994 3.81656 0.000224197 10
21.1068 23.4415 4.99603 7.29508e-05 10
21.1092 23.4442 6.13217 7.11323e-05 10
21.1142 23.4497 7.28497 6.89956e-05 10
20.8161 23.1186 8.33567 5.66107e-05 10
6.57768 7.35673 -2.64426 0.000120863 4
7.62472 8.52779 -2.64099 4.77166e-05 4
9.26407 10.3613 -2.70167 0.00010444 4
11.1116 12.4276 -2.64039 0.00010368 4
13.7017 15.3245 -2.52404 4.47286e-05 4
21.0543 23.548 -1.65545 9.84625e-05 10
21.0623 23.5569 -0.551577 9.8961e-05 10
21.2395 23.7551 0.556216 0.000274272 10
21.0494 23.5425 1.65506 7.67855e-05 10
21.0565 23.5504 2.76386 7.60256e-05 10
20.5029 22.9312 3.77692 0.000230911 10
21.0556 23.5494 5.00333 7.34032e-05 10
21.0485 23.5415 6.13835 7.15728e-05 10
21.0508 23.544 7.29141 6.94223e-05 10
20.7325 23.188 8.33456 5.66127e-05 10
6.54016 7.36636 -2.6395 0.000414951 4
7.60445 8.5651 -2.64431 0.000123054 4
9.2877 10.461 -2.7192 0.000124894 4
11.0597 12.4568 -2.63836 0.000111486 4
13.6364 15.359 -2.52187 3.98989e-05 4
20.9844 23.6353 -1.65643 9.93559e-05 10
20.9768 23.6267 -0.551494 9.9859e-05 10
20.949 23.5955 0.550764 0.000282437 10
20.9908 23.6425 1.65693 4.94632e-05 10
20.9712 23.6204 2.76347 4.89737e-05 10
20.415 22.9939 3.77548 2.99948e-05 10
20.2232 22.7779 4.82439 0.000232997 10
20.981 23.6315 6.1427 4.61064e-05 10
20.9688 23.6177 7.2915 4.4721e-05 10
20.6467 23.2549 8.33265 5.66148e-05 10
6.51577 7.39069 -2.64005 0.000128913 4
7.57208 8.58884 -2.64346 0.000107983 4
9.2501 10.4922 -2.71889 0.000219024 1
11.0143 12.4933 -2.63793 8.30771e-05 4
13.5834 15.4073 -2.522 4.76178e-05 4
20.7809 23.5713 -1.64685 0.0002837 10
20.6597 23.4338 0.545303 0.000290712 10
20.3304 23.0603 3.7747 2.99972e-05 10
19.9509 22.6298 4.77824 0.000239769 10
20.5777 23.3408 8.33762 5.66169e-05 10
6.49316 7.41707 -2.64136 0.000201421 4
7.54374 8.61715 -2.64405 0.000105468 4
9.20547 10.5153 -2.71655 0.000219015 1
10.9776 12.5396 -2.63961 0.000171115 4
13.5353 15.4612 -2.52307 3.95714e-05 4
20.512 23.4307 -1.63201 0.000291905 10
20.3803 23.2802 0.540071 0.000299098 10
20.2403 23.1203 3.77295 2.99996e-05 10
19.6767 22.4765 4.73134 0.00024663 10
20.3734 23.2724 8.28773 0.000202355 10
6.46527 7.43744 -2.64056 0.000157103 4
7.51469 8.64466 -2.64443 6.27761e-05 4
9.17387 10.5533 -2.71808 0.000219005 1
13.4753 15.5016 -2.52197 4.1177e-05 4
19.4849 22.4148 -2.5984 0.000122385 10
19.4833 22.413 -1.55638 0.000123603 10
19.4982 22.4301 -0.518769 0.000124219 10
19.4863 22.4164 0.51845 0.000124226 10
19.4994 22.4315 1.55766 9.63912e-05 10
19.4947 22.4261 2.59971 9.54525e-05 10
19.4951 22.4266 3.64861 9.4055e-05 10
19.6001 22.5473 4.73181 4.13908e-05 10
19.4816 22.411 5.77211 8.99518e-05 10
19.487 22.4172 6.8575 8.72923e-05 10
20.111 23.135 8.21377 0.000208179 10
6.44098 7.46195 -2.64126 0.000136958 4
7.4715 8.65582 -2.63985 5.27301e-05 4
9.13395 10.5818 -2.71718 0.000218995 1
10.8817 12.6066 -2.63765 0.000144829 4
13.4291 15.5578 -2.52347 4.69641e-05 4
19.439 22.5203 -2.60275 0.000123064 10
19.4311 22.5111 -1.55848 0.000124289 10
19.4379 22.5191 -0.519253 0.000124908 10
19.4363 22.5172 0.519208 0.000124915 10
19.4355 22.5162 1.55883 9.6926e-05 10
19.4362 22.5171 2.60238 9.59818e-05 10
19.4443 22.5264 3.65379 9.45762e-05 10
19.5189 22.6128 4.73123 4.13933e-05 10
19.4409 22.5225 5.78331 9.0449e-05 10
19.427 22.5064 6.864 8.77739e-05 10
19.8358 22.98 8.13411 0.000214078 10
6.41293 7.48209 -2.64045 0.000197374 4
7.45487 8.69774 -2.64468 8.78803e-05 4
9.09016 10.6057 -2.71515 0.000218986 1
13.3787 15.6092 -2.52423 3.66679e-05 4
19.3773 22.6079 -2.60504 0.000123728 10
19.3931 22.6263 -1.56176 0.00012496 10
19.3804 22.6115 -0.519821 0.000125583 10
19.3833 22.6149 0.519899 0.00012559 10
19.3791 22.6099 1.56062 9.74497e-05 10
19.3878 22.6201 2.60645 9.65002e-05 10
19.3831 22.6146 3.65709 9.50865e-05 10
19.4388 22.6797 4.731 4.13959e-05 10
19.3815 22.6128 5.78909 9.09357e-05 10
19.3849 22.6168 6.87698 8.82454e-05 10
19.5681 22.8305 8.05694 0.000220051 10
6.39916 7.51899 -2.64558 0.000145005 4
7.42478 8.72409 -2.6448 0.000504666 4
9.0517 10.6357 -2.71473 0.000218977 1
10.7951 12.6842 -2.63805 7.31163e-05 4
13.3285 15.661 -2.52505 4.02031e-05 4
19.3139 22.6938 -2.60716 0.000328912 10
19.3124 22.692 -1.56163 0.000332137 10
19.3066 22.6852 -0.519964 0.000333744 10
19.3153 22.6954 0.520197 0.000333714 10
19.3128 22.6925 1.56166 0.000258901 10
19.3185 22.6992 2.60778 0.000256339 10
19.3059 22.6843 3.65745 0.000252546 10
19.3059 22.6844 4.71789 0.000247562 10
19.3109 22.6903 5.79162 0.000241446 10
19.305 22.6834 6.87669 0.000234265 10
19.316 22.6962 7.98571 0.000226099 10
6.37419 7.54283 -2.64612 0.000173195 4
7.38646 8.74069 -2.642 0.00051218 4
9.02308 10.6774 -2.71731 0.000218967 1
10.7018 12.6639 -2.62605 0.00011533 4
13.2664 15.6987 -2.52366 3.85921e-05 4
19.0489 22.5413 -2.58198 0.00033771 10
19.0447 22.5364 -1.54633 0.000341014 10
19.0603 22.5548 -0.515446 0.00034266 10
19.0531 22.5463 0.515251 0.00034263 10
19.0573 22.5512 1.54735 0.000265821 10
19.0485 22.5409 2.58193 0.000263198 10
19.0538 22.5471 3.62458 0.000259312 10
19.0615 22.5562 4.67737 0.000254208 10
19.0629 22.5578 5.7408 0.000247942 10
19.0512 22.5441 6.81427 0.000240585 10
19.0671 22.5629 7.91534 0.000232219 10
6.34256 7.55876 -2.64393 0.000181245 4
7.35915 8.77029 -2.64316 0.000494587 4
8.95574 10.673 -2.70823 6.935e-05 4
10.5881 12.6184 -2.60892 0.000252628 4
13.2024 15.7341 -2.52192 2.92635e-05 4
18.8018 22.4071 -2.55908 0.00034661 10
18.8032 22.4087 -1.53306 0.000349994 10
18.8116 22.4189 -0.510835 0.00035168 10
18.8093 22.416 0.51077 0.000351649 10
18.8079 22.4144 1.53345 0.000272822 10
18.8032 22.4087 2.55926 0.000270137 10
18.8143 22.422 3.59388 0.000266158 10
18.8041 22.4098 4.63337 0.000260931 10
18.8024 22.4078 5.68588 0.000254514 10
18.8175 22.4259 6.75864 0.00024698 10
18.8053 22.4113 7.8391 0.000238412 10
6.32243 7.58841 -2.64656 0.000173185 4
7.31842 8.78384 -2.63953 0.000524696 4
8.86007 10.6342 -2.69051 0.000347519 4
10.4701 12.5666 -2.59064 0.000255291 4
13.1472 15.7797 -2.52187 4.08373e-05 4
18.564 22.2812 -2.53728 0.000355609 10
18.5626 22.2796 -1.51978 0.000359073 10
18.5609 22.2774 -0.506134 0.0003608 10
18.5668 22.2846 0.506295 0.000360768 10
18.5686 22.2867 1.52027 0.000279901 10
18.5577 22.2736 2.53642 0.000277152 10
18.5624 22.2792 3.5606 0.000273079 10
18.5642 22.2814 4.59339 0.000267729 10
18.5714 22.29 5.63951 0.00026116 10
18.5649 22.2823 6.6958 0.000253447 10
18.568 22.286 7.77255 0.000244675 10
6.29647 7.61112 -2.6468 0.000177207 4
7.28738 8.80892 -2.63941 0.000441833 4
8.7644 10.5943 -2.67267 0.000429868 4
10.3393 12.498 -2.56906 0.000231519 4
14.0849 17.0257 -2.71313 4.34692e-05 1
18.3322 22.1598 -2.51616 0.000143888 10
18.3245 22.1506 -1.50661 0.000145308 10
18.3282 22.1549 -0.501894 0.000146027 10
18.342 22.1716 0.502271 0.000146035 10
18.3307 22.158 1.50711 0.000113319 10
18.3307 22.1579 2.51594 0.000112224 10
18.3345 22.1626 3.53171 0.000110595 10
18.3371 22.1658 4.55633 0.000108449 10
18.3291 22.156 5.58939 0.00010581 10
18.3265 22.153 6.63768 0.000102707 10
18.3322 22.1598 7.70616 9.91758e-05 10
6.2673 7.62994 -2.64572 0.000201365 4
8.65693 10.5391 -2.65111 0.000381162 4
10.236 12.4615 -2.55419 0.000204432 4
14.0163 17.0637 -2.71137 4.34659e-05 1
18.2911 22.2679 -2.52116 0.000144553 10
18.2848 22.2603 -1.50972 0.00014598 10
18.2729 22.2458 -0.502503 0.000146703 10
18.2794 22.2537 0.502683 0.000146711 10
18.2706 22.243 1.50855 0.000113843 10
18.2709 22.2434 2.51839 0.000112744 10
18.2835 22.2587 3.53683 0.000111106 10
18.2784 22.2525 4.56102 0.000108949 10
18.275 22.2483 5.59654 0.000106297 10
18.2779 22.2519 6.64816 0.000103179 10
18.2696 22.2417 7.71243 9.96303e-05 10
6.2408 7.65197 -2.64579 0.000173169 4
7.24129 8.87869 -2.6451 0.000204125 4
8.56301 10.4993 -2.63355 0.000431132 4
10.1179 12.4058 -2.53551 4.93908e-05 4
13.9576 17.1137 -2.71155 4.34626e-05 1
18.2335 22.3565 -2.52397 0.000145202 10
18.2306 22.353 -1.51168 0.000146636 10
18.2234 22.3441 -0.503285 0.000147362 10
18.2205 22.3405 0.503203 0.000147371 10
18.2205 22.3405 1.51084 0.000114355 10
18.2357 22.3592 2.52428 0.00011325 10
18.2313 22.3538 3.54181 0.000111604 10
18.2235 22.3442 4.56674 0.000109437 10
18.2178 22.3373 5.60289 0.000106772 10
18.2272 22.3487 6.65804 0.00010364 10
18.221 22.3411 7.72479 0.000100074 10
6.19975 7.65606 -2.6397 0.00017719 4
7.23806 8.93826 -2.65531 0.000230297 4
8.45206 10.4374 -2.61062 0.000420148 4
10.04 12.3984 -2.52682 8.56825e-05 4
13.9061 17.1726 -2.71317 4.34593e-05 1
18.1816 22.4524 -2.52762 0.000145834 10
18.1694 22.4373 -1.51309 0.000147275 10
18.1844 22.4559 -0.504369 0.000148005 10
18.1747 22.4438 0.504099 0.000148014 10
18.1823 22.4533 1.51417 0.000114853 10
18.184 22.4553 2.52795 0.000113743 10
18.1721 22.4407 3.54549 0.00011209 10
18.1687 22.4364 4.5726 0.000109913 10
18.1754 22.4447 5.61389 0.000107236 10
18.1648 22.4316 6.66381 0.000104088 10
18.1704 22.4386 7.73651 0.000100506 10
6.177 7.68264 -2.64142 0.000161077 4
7.22497 8.98605 -2.66199 0.000137072 4
8.34964 10.3849 -2.59016 0.000443844 4
10.0039 12.4423 -2.52865 9.91641e-05 4
13.8482 17.2236 -2.71358 4.34559e-05 1
18.1335 22.5535 -2.53186 0.00014645 10
18.1263 22.5445 -1.51604 0.000147898 10
18.1284 22.5472 -0.504996 0.000148631 10
18.1143 22.5296 0.504601 0.00014864 10
18.1155 22.5312 1.51514 0.000115339 10
18.1275 22.546 2.53102 0.000114224 10
18.1146 22.53 3.5496 0.000112564 10
18.112 22.5267 4.5781 0.000110376 10
18.1146 22.5301 5.61938 0.000107687 10
18.1113 22.526 6.67301 0.000104525 10
18.1242 22.5419 7.75028 0.000100926 10
6.14853 7.70214 -2.64073 0.00010067 4
7.22905 9.05568 -2.67513 0.000257413 4
8.26377 10.3518 -2.57472 0.000405253 4
9.95973 12.4763 -2.52848 4.28365e-05 4
13.7912 17.276 -2.71422 4.34526e-05 1
18.0808 22.6494 -2.53553 0.00014705 10
18.079 22.6472 -1.51869 0.000148504 10
18.0698 22.6357 -0.505563 0.00014924 10
18.0782 22.6461 0.505796 0.00014925 10
18.0675 22.6328 1.51773 0.000115812 10
18.0684 22.6339 2.53379 0.000114692 10
18.0767 22.6443 3.55764 0.000113024 10
18.0675 22.6327 4.58679 0.000110827 10
18.0627 22.6268 5.62774 0.000108126 10
18.0688 22.6345 6.68642 0.00010495 10
18.0654 22.6301 7.75889 0.000101335 10
6.12769 7.73121 -2.64335 0.000237574 4
7.21526 9.10339 -2.68177 0.000232914 4
8.16994 10.3079 -2.55668 0.000446055 4
9.90475 12.4967 -2.52558 0.000111845 4
13.7166 17.3061 -2.71142 4.34493e-05 1
18.0111 22.7243 -2.53686 0.000147633 10
18.0258 22.7429 -1.52088 0.000149094 10
18.016 22.7305 -0.506273 0.000149833 10
18.021 22.7368 0.506412 0.000149843 10
18.0094 22.7222 1.5195 0.000116272 10
18.0181 22.7332 2.53785 0.000115148 10
18.0243 22.741 3.56292 0.000113473 10
18.0063 22.7182 4.59136 0.000111266 10
18.0107 22.7239 5.63623 0.000108553 10
18.0204 22.7361 6.69784 0.000105364 10
18.0165 22.7312 7.77193 0.000101733 10
6.09355 7.74352 -2.64026 0.000378496 4
7.21141 9.16406 -2.69221 0.00023472 4
8.07155 10.2571 -2.53708 0.000411765 4
9.87105 12.5439 -2.52814 0.000116597 4
13.6579 17.3561 -2.71177 4.34459e-05 1
17.975 22.8422 -2.543 0.0001482 10
17.9685 22.8339 -1.52276 0.000149667 10
17.9679 22.8332 -0.507159 0.00015041 10
17.9635 22.8276 0.507034 0.000150419 10
17.9645 22.8288 1.52243 0.00011672 10
17.966 22.8307 2.54171 0.00011559 10
17.9587 22.8214 3.56568 0.000113908 10
17.9582 22.8208 4.59939 0.000111692 10
17.9563 22.8184 5.64409 0.000108968 10
17.9554 22.8172 6.70323 0.000105765 10
17.9637 22.8278 7.78347 0.00010212 10
6.07444 7.77493 -2.64373 0.000100661 4
7.21177 9.23064 -2.70436 0.000206282 4
8.01092 10.2535 -2.52926 0.000182609 4
9.82599 12.5767 -2.52782 0.000108659 4
13.6075 17.4168 -2.71381 4.34425e-05 1
17.9171 22.9328 -2.54611 0.000148751 10
17.912 22.9263 -1.52475 0.000150224 10
17.9126 22.9271 -0.507853 0.000150969 10
17.9166 22.9322 0.507967 0.000150979 10
17.9059 22.9185 1.52423 0.000117154 10
17.9052 22.9176 2.54442 0.00011602 10
17.9035 22.9154 3.57059 0.000114331 10
17.906 22.9187 4.60649 0.000112106 10
17.9043 22.9165 5.65286 0.000109371 10
17.9157 22.931 6.71823 0.000106155 10
17.9058 22.9184 7.793 0.000102495 10
6.05 7.7996 -2.64492 0.000197288 4
7.21695 9.30403 -2.71846 0.000198897 4
7.9769 10.2837 -2.52983 0.000214358 4
9.77074 12.5964 -2.52491 0.000114998 4
13.5438 17.4606 -2.71325 4.34392e-05 1
17.8605 23.0256 -2.54947 0.000149284 10
17.8658 23.0325 -1.52765 0.000150764 10
17.858 23.0224 -0.50858 0.000151512 10
17.8669 23.0338 0.508833 0.000151522 10
17.8586 23.0232 1.52704 0.000117575 10
17.8492 23.011 2.54786 0.000116436 10
17.8539 23.0171 3.57669 0.000114741 10
17.861 23.0263 4.61556 0.000112508 10
17.852 23.0147 5.66167 0.000109761 10
17.8464 23.0074 6.72233 0.000106533 10
17.8561 23.0199 7.80628 0.000102858 10
6.02332 7.82144 -2.64518 0.00013689 4
7.19448 9.34222 -2.72227 0.000385804 1
7.9464 10.3186 -2.53157 0.000209585 4
9.74177 12.6499 -2.52882 8.96139e-05 4
13.4868 17.5129 -2.71405 4.34358e-05 1
17.8012 23.1154 -2.55252 0.000149802 10
17.7985 23.1118 -1.52878 0.000151287 10
17.7994 23.113 -0.509206 0.000152039 10
17.8024 23.1169 0.509292 0.000152048 10
17.8035 23.1183 1.52921 0.000117983 10
17.8016 23.1158 2.55256 0.00011684 10
17.8062 23.1219 3.5833 0.000115138 10
17.8071 23.123 4.62245 0.000112896 10
17.806 23.1215 5.67263 0.00011014 10
17.8001 23.114 6.73526 0.000106899 10
17.7964 23.1091 7.8154 0.00010321 10
5.98753 7.83135 -2.64145 0.000285849 4
7.14796 9.34914 -2.71699 0.000385789 1
7.90197 10.3353 -2.52889 0.000219102 4
9.69112 12.6755 -2.52714 0.000109434 4
13.425 17.5591 -2.71393 4.34324e-05 1
17.7496 23.2155 -2.55672 0.000150303 10
17.7477 23.2131 -1.53137 0.000151793 10
17.7485 23.214 -0.510064 0.000152548 10
17.7439 23.2081 0.509933 0.000152558 10
17.7471 23.2122 1.53132 0.000118378 10
17.7537 23.2209 2.55731 0.000117231 10
17.7428 23.2066 3.58681 0.000115523 10
17.7528 23.2196 4.62936 0.000113273 10
17.7434 23.2074 5.67848 0.000110506 10
17.7398 23.2027 6.74304 0.000107253 10
17.7496 23.2154 7.83037 0.000103551 10
5.95843 7.84994 -2.64069 0.00017714 4
7.12144 9.38215 -2.71934 0.000385775 1
8.20753 10.813 -2.63874 0.000145486 4
9.6388 12.6986 -2.52504 9.9912e-05 4
13.3593 17.6003 -2.71307 4.3429e-05 1
17.7 23.3189 -2.56128 0.000150787 10
17.6956 23.3131 -1.53389 0.000152283 10
17.7006 23.3196 -0.511024 0.00015304 10
17.6915 23.3077 0.510762 0.00015305 10
17.6917 23.308 1.53355 0.00011876 10
17.6969 23.3148 2.56083 0.000117609 10
17.6994 23.3182 3.59448 0.000115895 10
17.6932 23.3099 4.63502 0.000113636 10
17.7003 23.3192 5.69068 0.00011086 10
17.6924 23.3088 6.75589 0.000107595 10
17.6946 23.3117 7.84196 0.00010388 10
5.93714 7.87885 -2.64342 0.000720614 4
7.09265 9.41226 -2.72088 0.00038576 1
8.17913 10.8541 -2.64178 0.000159742 4
9.60335 12.7441 -2.52739 0.000114971 4
13.2942 17.642 -2.71233 4.34256e-05 1
17.6437 23.414 -2.56495 0.000151255 10
17.6504 23.4228 -1.53704 0.000152756 10
17.6403 23.4095 -0.51164 0.000153516 10
17.652 23.425 0.51198 0.000153526 10
17.6382 23.4067 1.53598 0.000119129 10
17.6387 23.4073 2.56421 0.000117974 10
17.6356 23.4032 3.59808 0.000116254 10
17.6356 23.4032 4.6413 0.000113988 10
17.6451 23.4158 5.69918 0.000111201 10
17.6438 23.414 6.76849 0.000107926 10
17.6334 23.4003 7.85102 0.000104197 10
5.91857 7.91152 -2.64743 0.000893694 4
7.0526 9.4274 -2.71812 0.000385745 1
8.1423 10.884 -2.64214 0.000203946 4
9.56406 12.7845 -2.52878 8.40433e-05 4
13.2371 17.6944 -2.71327 4.34221e-05 1
17.5988 23.5248 -2.57034 0.000151706 10
17.5951 23.5199 -1.53938 0.000153212 10
17.5887 23.5113 -0.512521 0.000153975 10
17.5962 23.5214 0.51274 0.000153985 10
17.5842 23.5052 1.53841 0.000119485 10
17.5966 23.5219 2.57002 0.000118326 10
17.585 23.5063 3.60447 0.0001166 10
17.5888 23.5114 4.65054 0.000114326 10
17.5906 23.5138 5.70805 0.00011153 10
17.5885 23.5111 6.77875 0.000108244 10
17.5883 23.5108 7.86743 0.000104503 10
5.88573 7.92514 -2.6451 0.000829257 4
7.01836 9.45023 -2.71763 0.000385731 1
8.09909 10.9054 -2.64045 0.000255278 4
9.51132 12.807 -2.52664 0.000111787 4
13.1825 17.7502 -2.71476 4.34187e-05 1
17.5439 23.6229 -2.57435 0.00015214 10
17.5305 23.6048 -1.54092 0.000153651 10
17.5305 23.6048 -0.513222 0.000154417 10
17.5369 23.6135 0.51341 0.000154427 10
17.5255 23.5981 1.54048 0.000119828 10
17.5299 23.6041 2.5723 0.000118665 10
17.5269 23.6 3.60943 0.000116933 10
17.5377 23.6146 4.65882 0.000114652 10
17.5349 23.6108 5.71671 0.000111847 10
17.5234 23.5952 6.78533 0.00010855 10
17.5277 23.601 7.8771 0.000104797 10
5.86219 7.95129 -2.64698 0.000788976 4
6.98641 9.47614 -2.71805 0.000385716 1
8.06471 10.9387 -2.64168 0.000104103 4
9.46462 12.8375 -2.52612 0.000101474 4
13.1147 17.7884 -2.71358 4.34153e-05 1
17.3454 23.5267 -2.55726 0.000338468 10
17.3509 23.5342 -1.53235 0.000341776 10
17.3413 23.5212 -0.510084 0.000343429 10
17.4866 23.7183 0.514358 0.000154852 10
17.3509 23.5342 1.53235 0.000266431 10
17.3436 23.5243 2.55699 0.000263813 10
17.3431 23.5236 3.58846 0.000259933 10
17.4816 23.7115 4.66588 0.000114966 10
17.3437 23.5245 5.68111 0.000248573 10
17.3534 23.5376 6.7513 0.000241222 10
17.4706 23.6966 7.88858 0.00010508 10
5.82769 7.96253 -2.64394 0.000740647 4
6.9586 9.50772 -2.72012 0.000385701 1
8.0271 10.9676 -2.64188 0.000152582 4
9.42429 12.8767 -2.52734 9.90903e-05 4
13.0569 17.84 -2.71448 4.34118e-05 1
17.1993 23.4998 -2.54779 0.000159348 10
17.1839 23.4789 -1.52483 0.000160927 10
17.1985 23.4987 -0.508293 0.000161726 10
17.4336 23.82 0.515242 0.00015526 10
17.185 23.4803 1.52492 0.000125502 10
17.1953 23.4944 2.54721 0.000124287 10
17.1956 23.4949 3.5749 0.000122478 10
17.4312 23.8168 4.67458 0.000115267 10
17.1946 23.4934 5.65907 0.000117165 10
17.1946 23.4935 6.7214 0.00011372 10
17.4154 23.7951 7.90111 0.000105351 10
5.80281 7.98688 -2.64528 0.000813076 4
6.92973 9.53795 -2.72183 0.000385686 1
7.97896 10.9821 -2.63864 0.000242409 4
9.38397 12.9159 -2.5286 0.00011256 4
12.9846 17.8718 -2.71241 4.34084e-05 1
17.3811 23.923 -2.58708 0.000153342 10
17.3635 23.8988 0.515631 0.000155651 10
17.3713 23.9095 4.68086 0.000115555 10
17.3734 23.9124 7.91986 0.000105611 10
5.76862 7.99839 -2.64241 0.0002737 4
6.87885 9.53776 -2.71491 0.000604989 4
7.95763 11.0335 -2.6443 0.00019677 4
9.3335 12.9412 -2.52716 0.000109383 4
12.9272 17.924 -2.71347 4.34049e-05 1
17.3157 24.0088 -2.58981 0.00015371 10
17.3095 24.0003 0.516515 0.000156025 10
17.3066 23.9962 4.68597 0.00011583 10
17.3171 24.0107 7.93237 0.000105859 10
5.74741 8.02789 -2.64551 8.04973e-05 4
6.79502 9.49118 -2.69488 0.000642873 4
7.91892 11.061 -2.64425 0.000309399 4
9.28591 12.9704 -2.52652 0.000105414 4
12.865 17.9697 -2.71356 4.34014e-05 1
17.255 24.1015 -2.59329 0.000154061 10
17.2526 24.0981 0.51732 0.000156382 10
17.2563 24.1033 4.69511 0.000116093 10
17.2556 24.1024 7.94271 0.000106095 10
5.72974 8.06252 -2.65032 0.000337444 4
6.72716 9.46604 -2.68106 0.000625997 4
7.87781 11.0852 -2.64343 0.000191048 4
9.24287 13.006 -2.52714 9.98596e-05 4
12.8088 18.0238 -2.71496 4.33979e-05 1
17.2069 24.2125 -2.59875 0.000154395 10
17.1991 24.2015 0.518247 0.000156723 10
17.1964 24.1977 4.70177 0.000116344 10
17.1975 24.1993 7.95479 0.00010632 10
5.71813 8.10597 -2.65802 0.000214441 4
6.64714 9.42292 -2.66226 0.000618397 4
7.80396 11.0628 -2.6316 0.000491886 4
9.20625 13.0507 -2.52957 9.19288e-05 4
12.7317 18.0483 -2.71195 4.33944e-05 1
17.1515 24.3137 -2.60318 0.000154712 10
17.1877 24.3651 -1.56266 0.000155063 10
17.1858 24.3625 -0.520408 0.000155838 10
17.1419 24.3002 0.519078 0.000157046 10
17.196 24.3768 1.56341 7.71994e-05 10
17.1839 24.3598 2.60811 7.64478e-05 10
17.1922 24.3715 3.66207 7.53285e-05 10
17.1515 24.3138 4.71267 0.000116581 10
17.1962 24.3771 5.79876 0.000147814 10
17.1905 24.369 6.88498 0.000143421 10
17.1524 24.315 7.97312 0.000106533 10
5.70318 8.14498 -2.66427 0.000365253 4
6.5719 9.38565 -2.64523 0.000583566 4
7.72894 11.0381 -2.61927 0.000444487 4
9.15413 13.0735 -2.52778 8.71687e-05 4
12.6734 18.0995 -2.71297 4.33909e-05 1
17.0995 24.4206 -2.60822 0.000155012 10
17.0853 24.4004 0.51994 0.000157352 10
17.0865 24.402 4.71817 0.000116806 10
17.0947 24.4138 7.98589 0.000106735 10
5.68989 8.18668 -2.67139 0.000334805 4
6.4996 9.35169 -2.62925 0.000779758 4
7.64382 10.998 -2.60342 0.000438502 4
9.10972 13.1072 -2.52813 0.000107766 4
12.6127 18.1473 -2.71352 4.33874e-05 1
17.0445 24.5238 -2.61287 0.000155296 10
17.0461 24.5261 0.521349 0.000157641 10
17.0427 24.5212 4.72968 0.000117019 10
17.0365 24.5122 7.99859 0.000106924 10
5.68808 8.24534 -2.68404 0.00039434 4
6.42871 9.31894 -2.61372 0.000701823 4
7.56341 10.9638 -2.58906 0.000476375 4
9.07034 13.1482 -2.52992 0.000107759 4
12.5567 18.2019 -2.71512 4.33839e-05 1
16.9769 24.6095 -2.61567 0.000155563 10
16.9849 24.621 0.522102 0.000157914 10
17.0178 24.6688 3.67976 7.5741e-05 10
16.9594 24.5841 4.73037 4.14773e-05 10
16.9852 24.6214 8.01482 0.000107103 10
5.67448 8.28737 -2.69126 0.000345924 4
6.37198 9.30604 -2.60385 0.000811966 4
7.49209 10.9419 -2.5777 0.000462778 4
9.01408 13.1647 -2.52703 0.000103791 4
12.4911 18.2428 -2.7147 4.33803e-05 1
16.923 24.7154 -2.62063 0.000155813 10
16.9257 24.7194 0.522932 0.000158169 10
16.9735 24.7892 3.68887 7.58622e-05 10
16.8749 24.6452 4.73076 4.14802e-05 10
16.9265 24.7206 8.02781 0.000107269 10
5.66567 8.33678 -2.70087 0.00028305 4
6.28803 9.25255 -2.58272 0.000788088 4
7.40869 10.9015 -2.56208 0.000582579 4
8.97573 13.2074 -2.52919 0.000113292 4
12.4183 18.273 -2.71273 4.33768e-05 1
16.8781 24.8353 -2.62708 0.000156047 10
16.8694 24.8225 0.523865 0.000158407 10
16.9092 24.8811 3.69374 7.59752e-05 10
16.7859 24.6997 4.72996 4.1483e-05 10
16.8661 24.8177 8.0402 0.000107424 10
5.65466 8.38338 -2.70955 0.000280024 4
6.21937 9.2206 -2.56773 0.000727585 4
7.33796 10.879 -2.55074 0.000542637 4
8.92119 13.2262 -2.52682 9.34803e-05 4
12.3626 18.3283 -2.71451 4.33732e-05 1
16.8154 24.9299 -2.63086 0.000156264 10
16.8509 24.9825 -1.57928 0.000156619 10
16.8573 24.9919 -0.526196 0.000157404 10
16.8126 24.9257 0.524801 0.000158629 10
16.8542 24.9874 1.57959 7.79745e-05 10
16.8612 24.9978 2.63802 7.72136e-05 10
16.8456 24.9747 3.69888 7.60802e-05 10
16.7047 24.7658 4.73141 4.14859e-05 10
16.8462 24.9755 5.85589 7.27513e-05 10
16.8459 24.975 6.95497 7.05935e-05 10
16.8029 24.9114 8.05149 0.000107568 10
5.64248 8.42863 -2.7178 0.000362653 4
6.15862 9.19964 -2.55589 0.000789899 4
8.88328 13.2697 -2.52918 0.00011011 4
12.2968 18.3687 -2.71413 4.33697e-05 1
16.71 24.9611 -2.62799 0.00030494 10
16.7031 24.9507 -1.57357 0.000307945 10
16.7084 24.9587 -0.524265 0.000309448 10
16.7555 25.0291 0.525743 0.000158833 10
16.7116 24.9634 1.57437 0.000240065 10
16.7028 24.9504 2.62685 0.000237692 10
16.7007 24.9472 3.68614 0.000234174 10
16.6152 24.8195 4.73057 4.14887e-05 10
16.7038 24.9518 5.83663 0.000223875 10
16.7145 24.9678 6.93668 0.00021721 10
16.7581 25.0329 8.0718 0.0001077 10
5.61299 8.44823 -2.71778 0.000619524 1
6.08714 9.16189 -2.53948 0.000695616 4
7.20756 10.8483 -2.53168 0.000199872 4
8.83143 13.2924 -2.52762 0.000111688 4
12.2326 18.4116 -2.71413 4.33661e-05 1
16.5074 24.8456 -2.60974 0.000310661 10
16.5125 24.8534 -1.56378 0.000313718 10
16.5002 24.8348 -0.520449 0.000315246 10
16.7056 25.1439 0.526927 0.000159021 10
16.5101 24.8498 1.56356 0.000244565 10
16.5008 24.8357 2.6087 0.000242153 10
16.5055 24.8427 3.66218 0.000238575 10
16.5236 24.87 4.72916 4.14916e-05 10
16.5089 24.8479 5.79881 0.0002281 10
16.5111 24.8512 6.88821 0.000221321 10
16.6902 25.1208 8.0813 0.00010782 10
5.58335 8.46759 -2.71772 0.000619503 1
6.03343 9.15018 -2.53038 0.000364496 4
7.16235 10.8623 -2.5291 0.000160207 4
8.78359 13.321 -2.52722 9.10872e-05 4
12.1693 18.4556 -2.71435 4.33625e-05 1
16.4109 24.8884 -2.6082 0.00016342 10
16.413 24.8916 -1.56257 0.00016505 10
16.4127 24.8911 -0.520425 0.000165876 10
16.6349 25.2281 0.527471 0.000159191 10
16.4191 24.9009 1.56316 0.00012872 10
16.4156 24.8955 2.60895 0.000127468 10
16.4192 24.9011 3.6623 0.000125602 10
16.4351 24.9252 4.72872 4.14945e-05 10
16.4203 24.9026 5.79816 0.000120121 10
16.4146 24.894 6.88417 0.000116568 10
16.6333 25.2257 8.09632 0.000107929 10
5.55955 8.49588 -2.72056 0.000619482 1
5.99929 9.16787 -2.52947 0.000358917 4
7.12172 10.8831 -2.52815 0.000225231 4
8.74242 13.3598 -2.52877 9.82098e-05 4
12.0959 18.4845 -2.71237 4.33589e-05 1
16.5876 25.3484 -2.65033 0.000156964 10
16.5769 25.3321 -1.58659 0.000158536 10
16.5791 25.3355 -0.528504 0.000159333 10
16.5848 25.3442 0.528685 0.000159345 10
16.5751 25.3295 1.58642 0.000123641 10
16.5801 25.3371 2.64914 0.000122433 10
16.5815 25.3392 3.7182 0.000120634 10
16.5822 25.3403 4.79646 0.000118263 10
16.5746 25.3287 5.88386 0.000115349 10
16.5743 25.3283 6.98821 0.000111924 10
16.5784 25.3345 8.11262 0.000108026 10
5.53804 8.52783 -2.72458 0.000619461 1
5.97865 9.20631 -2.5343 0.000392289 4
7.08656 10.9123 -2.52917 0.000280732 4
9.33722 14.3781 -2.71532 0.000108337 1
12.0322 18.5279 -2.71256 4.33553e-05 1
16.5212 25.4404 -2.6539 0.000157097 10
16.529 25.4524 -1.5905 0.000158672 10
16.5309 25.4554 -0.529797 0.00015947 10
16.5189 25.4369 0.529412 0.000159482 10
16.5284 25.4514 1.59044 0.000123747 10
16.5268 25.449 2.65479 0.000122537 10
16.5153 25.4313 3.72323 0.000120736 10
16.5149 25.4307 4.80264 0.000118362 10
16.5231 25.4433 5.89705 0.000115444 10
16.5221 25.4419 7.0036 0.000112015 10
16.5243 25.4452 8.12956 0.000108112 10
5.4985 8.532 -2.71976 0.00061944 1
5.93992 9.21695 -2.53151 0.00030881 4
7.04924 10.9383 -2.52947 0.000204591 4
9.2916 14.4177 -2.71668 0.000108331 1
11.967 18.5691 -2.71245 4.33517e-05 1
16.4719 25.5593 -2.66029 0.000157214 10
16.4687 25.5544 -1.59327 0.000158791 10
16.4724 25.5601 -0.530778 0.00015959 10
16.4686 25.5542 0.530655 0.000159602 10
16.4712 25.5583 1.59351 0.00012384 10
16.4651 25.5488 2.6592 0.000122629 10
16.4605 25.5416 3.73096 0.000120825 10
16.4714 25.5586 4.81589 0.000118449 10
16.4713 25.5584 5.91036 0.000115527 10
16.4701 25.5567 7.01934 0.000112094 10
16.4613 25.5429 8.14237 0.000108186 10
5.47346 8.55861 -2.72214 0.000619419 1
5.90086 9.22692 -2.52857 0.000417295 4
7.01391 10.9673 -2.53051 0.000222027 4
9.24554 14.4568 -2.71795 0.000108324 1
11.9038 18.6135 -2.71285 4.33481e-05 1
16.4185 25.6729 -2.66613 0.000157315 10
16.4176 25.6715 -1.59699 0.000158893 10
16.416 25.669 -0.531845 0.000159693 10
16.4059 25.6532 0.531517 0.000159705 10
16.4065 25.6542 1.59591 0.000123919 10
16.3999 25.6438 2.66311 0.000122707 10
16.4097 25.6591 3.73973 0.000120902 10
16.4018 25.6467 4.82168 0.000118523 10
16.4129 25.6642 5.92153 0.000115598 10
16.4071 25.655 7.03059 0.000112161 10
16.3992 25.6426 8.15586 0.000108249 10
5.43862 8.56989 -2.71967 0.000619398 1
6.13026 9.65974 -2.6413 0.000416152 4
6.98165 11.0013 -2.53271 0.000247389 4
9.18808 14.4781 -2.71589 0.000108317 1
11.8495 18.6718 -2.71531 4.33444e-05 1
16.3496 25.7629 -2.66953 0.000157399 10
16.358 25.776 -1.59993 0.000158979 10
16.3465 25.7579 -0.532503 0.00015978 10
16.356 25.7729 0.532812 0.000159792 10
16.3522 25.767 1.59937 0.000123986 10
16.3542 25.7702 2.67029 0.000122773 10
16.3526 25.7676 3.74719 0.000120965 10
16.3554 25.772 4.83448 0.000118584 10
16.3401 25.7479 5.92765 0.000115657 10
16.3453 25.7561 7.04259 0.000112216 10
16.3412 25.7496 8.17169 0.0001083 10
5.41803 8.60369 -2.72438 0.000619376 1
6.09801 9.68348 -2.64196 0.000180493 4
6.94147 11.0229 -2.53208 0.00017919 4
9.14647 14.5243 -2.71856 0.000108311 1
11.7853 18.7147 -2.71555 4.33408e-05 1
16.2914 25.8703 -2.67475 0.000157466 10
16.2857 25.8613 -1.60168 0.000159048 10
16.2962 25.8779 -0.533803 0.000159849 10
16.2889 25.8663 0.533563 0.000159862 10
16.2852 25.8605 1.60163 0.00012404 10
16.2931 25.8729 2.67503 0.000122826 10
16.2916 25.8706 3.75389 0.000121017 10
16.284 25.8585 4.84001 0.000118633 10
16.2919 25.8711 5.94288 0.000115703 10
16.2877 25.8644 7.05663 0.000112259 10
16.2838 25.8582 8.18807 0.00010834 10
5.37862 8.60758 -2.71965 0.000619355 1
6.06327 9.70326 -2.64156 0.00034593 4
6.89921 11.041 -2.53071 0.000195037 4
9.09514 14.5553 -2.71839 0.000108304 1
11.7205 18.7568 -2.7157 4.33371e-05 1
16.2358 25.9826 -2.68049 0.000157517 10
16.226 25.967 -1.60471 0.0001591 10
16.233 25.9783 -0.534702 0.000159902 10
16.2337 25.9794 0.534723 0.000159915 10
16.2374 25.9852 1.60584 0.000124081 10
16.2343 25.9803 2.68025 0.000122866 10
16.2235 25.963 3.75905 0.000121055 10
16.2282 25.9705 4.85034 0.00011867 10
16.2321 25.9768 5.95412 0.000115737 10
16.2216 25.9599 7.06719 0.000112291 10
16.2321 25.9768 8.20764 0.000108369 10
5.34509 8.62075 -2.7179 0.000619334 1
6.03829 9.73876 -2.64547 0.00032085 4
6.86076 11.0653 -2.53076 0.000176001 4
9.03561 14.5729 -2.71579 0.000108297 1
11.654 18.7959 -2.71546 4.33335e-05 1
16.1731 26.0845 -2.68516 0.000157551 10
16.1826 26.0999 -1.60942 0.000159136 10
16.1798 26.0953 -0.535945 0.000159939 10
16.1798 26.0953 0.535944 0.000159951 10
16.1732 26.0847 1.60849 0.000124109 10
16.1655 26.0724 2.68391 0.000122893 10
16.1788 26.0937 3.76977 0.000121081 10
16.1722 26.0832 4.86081 0.000118694 10
16.1741 26.0862 5.96621 0.00011576 10
16.163 26.0683 7.0813 0.000112311 10
16.1767 26.0903 8.2256 0.000108386 10
5.32838 8.66116 -2.72476 0.000619312 1
6.00734 9.76478 -2.64683 0.000225588 4
6.82723 11.0975 -2.53266 0.000195018 4
8.99105 14.6147 -2.71771 0.00010829 1
11.5812 18.8249 -2.71379 4.33298e-05 1
16.1164 26.1968 -2.69091 0.000157569 10
16.123 26.2075 -1.61258 0.000159155 10
16.1225 26.2067 -0.537074 0.000159958 10
16.1183 26.2 0.536935 0.000159971 10
16.1081 26.1833 1.61109 0.000124124 10
16.112 26.1896 2.69017 0.000122907 10
16.1152 26.1949 3.77625 0.000121094 10
16.1179 26.1993 4.87195 0.000118706 10
16.1179 26.1992 5.97916 0.00011577 10
16.1163 26.1967 7.10084 0.000112319 10
16.1077 26.1827 8.23695 0.000108392 10
5.28756 8.66241 -2.71933 0.00107782 4
5.95924 9.7628 -2.64064 0.000150386 4
6.7768 11.1022 -2.52832 0.00021562 4
8.94415 14.6529 -2.71898 0.000108283 1
11.526 18.8826 -2.71628 4.33262e-05 1
16.0532 26.2994 -2.69568 0.000157571 10
16.0587 26.3084 -1.61533 0.000159157 10
16.0585 26.308 -0.537997 0.000159961 10
16.0494 26.2931 0.537692 0.000159974 10
16.0564 26.3046 1.61509 0.000124126 10
16.0581 26.3075 2.69651 0.000122909 10
16.0478 26.2906 3.78193 0.000121095 10
16.0571 26.3058 4.88129 0.000118706 10
16.0563 26.3045 5.99036 0.000115768 10
16.0469 26.289 7.11065 0.000112315 10
16.0538 26.3004 8.2563 0.000108386 10
5.23232 8.63958 -2.70641 0.000882073 4
5.9245 9.78251 -2.64036 0.000308279 4
6.73953 11.1283 -2.52889 0.000190243 4
8.89225 14.6828 -2.71876 0.000108277 1
11.4471 18.9014 -2.71323 4.33225e-05 1
15.9904 26.4033 -2.70059 0.000157557 10
15.996 26.4126 -1.61829 0.000159144 10
15.9991 26.4177 -0.539095 0.000159948 10
15.9983 26.4162 0.539065 0.000159961 10
16.0012 26.4211 1.61881 0.000124116 10
15.992 26.4059 2.70086 0.000122898 10
15.996 26.4126 3.79143 0.000121083 10
15.9849 26.3942 4.88732 0.000118693 10
15.9922 26.4063 6.0008 0.000115754 10
15.9931 26.4077 7.12761 0.0001123 10
15.9952 26.4112 8.2735 0.000108369 10
5.16628 8.59813 -2.68776 0.000840762 4
5.89599 9.81256 -2.6429 0.000315785 4
6.70356 11.1566 -2.52999 0.000185478 4
8.83391 14.7021 -2.7166 0.00010827 1
11.3905 18.957 -2.71548 4.33188e-05 1
15.9292 26.5107 -2.70587 0.000157526 10
15.9332 26.5173 -1.62129 0.000159114 10
15.9409 26.5301 -0.540251 0.000159918 10
15.941 26.5303 0.540255 0.000159931 10
15.9316 26.5146 1.62112 0.000124093 10
15.9393 26.5275 2.70758 0.000122874 10
15.9387 26.5264 3.79977 0.000121059 10
15.9278 26.5082 4.8981 0.000118668 10
15.9256 26.5046 6.01046 0.000115728 10
15.9321 26.5155 7.14165 0.000112273 10
15.9341 26.5188 8.28975 0.000108341 10
5.12142 8.59126 -2.68001 0.00117592 4
5.86829 9.84415 -2.64588 0.000383437 4
6.6627 11.1768 -2.52928 0.000201321 4
8.77868 14.7264 -2.71541 0.000108263 1
11.3259 18.9994 -2.71588 4.33151e-05 1
24.3634 40.87 -2.49361 6.47504e-05 10
24.3728 40.8857 -0.830845 6.51141e-05 10
24.3635 40.8701 0.830528 6.51095e-05 10
16.8921 28.3367 1.72891 0.00017418 10
16.9027 28.3545 2.88803 0.000172416 10
16.9046 28.3577 4.05361 0.000169801 10
16.8938 28.3395 5.22555 0.000166365 10
16.8983 28.3472 6.41489 0.000162148 10
16.9027 28.3545 7.62102 0.000157199 10
16.9075 28.3627 8.84762 0.000151574 10
5.05769 8.55209 -2.66227 0.0010538 4
5.83598 9.8681 -2.64682 0.000210506 4
6.62078 11.1951 -2.52818 0.000152172 4
8.7265 14.7557 -2.71518 0.000108256 1
11.2607 19.0407 -2.71616 4.33114e-05 1
24.123 40.7898 -2.48356 3.88198e-05 10
24.1215 40.7873 -0.827129 3.90441e-05 10
24.121 40.7863 0.827109 3.90481e-05 10
16.7042 28.2453 1.71976 0.000177091 10
16.6995 28.2373 2.87013 0.000175301 10
16.6954 28.2304 4.02706 0.000172646 10
16.7052 28.2469 5.1977 0.000169159 10
16.6975 28.234 6.37604 0.000164878 10
16.6957 28.2309 7.57209 0.000159854 10
16.6981 28.235 8.78956 0.000154144 10
4.99725 8.51761 -2.64609 0.00108015 4
5.7947 9.87682 -2.64372 0.000215509 4
6.58497 11.2238 -2.52945 0.000250437 4
8.68501 14.8032 -2.71834 0.000108249 1
11.1917 19.0757 -2.71556 4.33076e-05 1
23.981 40.8746 -2.48361 6.55179e-05 10
24.0169 40.9358 -0.828435 3.89792e-05 10
24.0183 40.9381 0.828483 3.89831e-05 10
16.4998 28.1232 1.70881 0.000180014 10
16.4984 28.1208 2.85242 0.000178198 10
16.5082 28.1376 4.00557 0.000175504 10
16.5115 28.1432 5.16798 0.000171964 10
16.5032 28.1291 6.33931 0.00016762 10
16.5049 28.132 7.53005 0.00016252 10
16.5006 28.1245 8.73718 0.000156725 10
4.95414 8.51207 -2.63898 0.00120206 4
5.76206 9.9002 -2.64458 0.000115267 4
6.54092 11.2384 -2.52759 0.000150572 4
8.63165 14.8307 -2.71782 0.000108242 1
11.1294 19.1221 -2.71662 4.33039e-05 1
23.7001 40.7208 -2.46922 6.67846e-05 10
16.4251 28.221 1.71126 0.000107358 10
16.4369 28.2415 2.85882 0.000106289 10
16.4339 28.2363 4.01143 0.000104696 10
16.4239 28.2191 5.17134 0.000102598 10
16.4211 28.2143 6.34555 0.000100019 10
16.4271 28.2245 7.53943 9.69895e-05 10
16.4215 28.2149 8.74741 9.35434e-05 10
4.89803 8.48363 -2.62485 0.000967133 4
5.71962 9.90668 -2.64096 0.000606297 4
6.50899 11.2739 -2.53044 0.000125206 4
8.57404 14.8507 -2.71599 0.000108235 1
11.0508 19.1406 -2.71374 4.33002e-05 1
23.423 40.5699 -2.4551 6.80598e-05 10
16.3737 28.3601 1.71622 0.000107272 10
16.3591 28.3348 2.86247 0.000106203 10
16.3723 28.3577 4.02053 0.00010461 10
16.3697 28.3531 5.1854 0.000102513 10
16.3709 28.3553 6.36437 9.99347e-05 10
16.3631 28.3417 7.55543 9.69057e-05 10
16.3574 28.3319 8.76591 9.34607e-05 10
4.84453 8.45903 -2.61198 0.00069713 4
5.6583 9.87994 -2.62855 0.00070783 4
6.47642 11.3085 -2.53311 5.54682e-05 4
8.52257 14.8812 -2.71612 0.000108228 1
10.9916 19.1924 -2.71563 4.32964e-05 1
23.1369 40.3993 -2.43987 6.93427e-05 10
16.3054 28.4709 1.71947 0.000107174 10
16.3039 28.4683 2.87019 0.000106106 10
16.3016 28.4642 4.02754 0.000104514 10
16.2962 28.4548 5.19357 0.000102417 10
16.305 28.4701 6.37733 9.98399e-05 10
16.2992 28.4599 7.57174 9.68121e-05 10
16.3006 28.4625 8.78867 9.33684e-05 10
4.79119 8.43402 -2.59908 0.000999275 4
5.60222 9.86169 -2.61847 0.000830967 4
6.43718 11.3315 -2.53321 0.000125193 4
8.46848 14.9072 -2.71545 0.000108222 1
10.9292 19.2388 -2.71679 4.32927e-05 1
22.8703 40.259 -2.42656 7.06337e-05 10
16.2332 28.5756 1.72236 0.000107066 10
16.243 28.5929 2.87702 0.000105998 10
16.2347 28.5783 4.03564 0.000104406 10
16.2362 28.5809 5.2062 0.000102311 10
16.2342 28.5773 6.38861 9.97348e-05 10
16.2402 28.5879 7.59065 9.67084e-05 10
16.233 28.5753 8.80594 9.32664e-05 10
4.73038 8.39508 -2.58198 0.00116328 4
5.54819 9.84645 -2.60927 0.000779995 4
6.38722 11.3355 -2.52911 6.33858e-05 4
8.42313 14.9486 -2.71762 0.000108215 1
10.862 19.277 -2.7168 4.32889e-05 1
22.6062 40.1195 -2.41339 7.1932e-05 10
22.669 40.231 -0.806042 2.92868e-05 10
22.67 40.2327 0.806076 2.92898e-05 10
16.167 28.6917 1.72595 0.000106946 10
16.1695 28.6962 2.88172 0.000105879 10
16.1742 28.7047 4.04549 0.000104289 10
16.1718 28.7004 5.21766 0.000102194 10
16.1701 28.6974 6.40279 9.96197e-05 10
16.1711 28.6991 7.60514 9.65951e-05 10
16.162 28.683 8.82169 9.31551e-05 10
4.68913 8.39021 -2.57543 0.001229 4
5.48281 9.81033 -2.59461 0.000868818 4
6.34643 11.3556 -2.52864 0.00023927 4
8.37482 14.985 -2.7189 0.000108208 1
10.7908 19.3078 -2.71582 4.32852e-05 1
22.3345 39.9628 -2.39926 7.32377e-05 10
22.4202 40.1161 -0.802168 2.9957e-05 10
22.4188 40.1137 0.802119 2.99601e-05 10
16.1104 28.8262 1.73064 0.000106816 10
16.1067 28.8194 2.88843 0.00010575 10
16.1123 28.8295 4.05514 0.00010416 10
16.1041 28.8149 5.22822 0.000102067 10
16.109 28.8236 6.41837 9.94944e-05 10
16.0967 28.8017 7.61739 9.64719e-05 10
16.1034 28.8137 8.84454 9.30343e-05 10
4.63584 8.36327 -2.56218 0.00108668 4
5.42557 9.78798 -2.58367 0.000953483 4
6.31287 11.3887 -2.53109 0.000185385 4
8.32616 15.0208 -2.72011 0.000108201 1
10.7233 19.3453 -2.71582 4.32814e-05 1
22.0685 39.8126 -2.38559 7.45506e-05 10
22.0719 39.8188 -0.794678 4.95152e-05 10
22.1831 40.0194 0.798679 3.06467e-05 10
16.0385 28.9342 1.73375 0.000106676 10
16.0419 28.9403 2.89491 0.00010561 10
16.043 28.9423 4.0631 0.000104022 10
16.0377 28.9328 5.23943 0.00010193 10
16.0428 28.942 6.43223 9.93592e-05 10
16.0353 28.9285 7.63609 9.63389e-05 10
16.0421 28.9407 8.86629 9.2904e-05 10
4.58656 8.34292 -2.55102 0.00115241 4
5.375 9.77707 -2.57583 0.000940954 4
6.27233 11.4093 -2.53079 0.000202804 4
8.26753 15.0386 -2.71809 0.000108194 1
10.6515 19.375 -2.71474 4.32776e-05 1
21.8076 39.6678 -2.37234 7.58703e-05 10
21.8079 39.6683 -0.79015 5.03912e-05 10
21.8174 39.6856 0.790494 5.03882e-05 10
15.9774 29.0628 1.73811 0.000106524 10
15.9792 29.0661 2.9019 0.000105459 10
15.9747 29.0579 4.07148 0.000103872 10
15.9662 29.0423 5.24913 0.000101783 10
15.9673 29.0444 6.44256 9.92139e-05 10
15.9765 29.0612 7.65634 9.61963e-05 10
15.9712 29.0516 8.88313 9.27644e-05 10
4.53106 8.31055 -2.53627 0.000914868 4
5.31427 9.74705 -2.56302 0.000786579 4
6.22641 11.42 -2.52833 0.00022339 4
8.22171 15.0797 -2.72031 0.000108186 1
10.5806 19.4062 -2.71392 4.32738e-05 1
21.5532 39.5314 -2.35967 7.71968e-05 10
21.5524 39.5298 -0.785888 5.12718e-05 10
21.5498 39.5251 0.785793 5.12687e-05 10
15.9046 29.171 1.74125 0.000106362 10
15.9083 29.1779 2.9075 0.000105298 10
15.9109 29.1826 4.08114 0.000103713 10
15.9111 29.183 5.2645 0.000101625 10
15.9055 29.1728 6.45869 9.90587e-05 10
15.9072 29.1759 7.67188 9.6044e-05 10
15.9044 29.1707 8.90252 9.26155e-05 10
4.49307 8.30976 -2.53123 0.000494023 4
5.25424 9.71751 -2.55041 0.000545605 4
6.19685 11.4608 -2.53256 0.000169514 4
8.16505 15.1009 -2.71899 0.000108179 1
10.5202 19.4567 -2.71584 4.327e-05 1
21.3005 39.3944 -2.34704 7.85296e-05 10
21.4452 39.6621 -0.787024 3.2806e-05 10
21.4409 39.6541 0.786866 3.28094e-05 10
15.8487 29.3116 1.74633 0.000106189 10
15.8379 29.2916 2.91331 0.000105126 10
15.844 29.3029 4.0902 0.000103543 10
15.8424 29.2999 5.27557 0.000101457 10
15.8383 29.2923 6.47286 9.88937e-05 10
15.846 29.3065 7.69165 9.58821e-05 10
15.8363 29.2887 8.92161 9.24573e-05 10
4.46436 8.326 -2.53141 0.000551862 4
5.2089 9.71456 -2.54485 0.000172949 4
6.15832 11.4852 -2.53318 0.000210694 4
7.39845 13.7981 -2.47973 0.000212096 10
10.4509 19.4908 -2.71549 4.32662e-05 1
17.1922 32.0633 -1.90668 0.000158826 10
17.1985 32.0751 -0.635279 0.000159646 10
17.2004 32.0787 0.635348 0.000159638 10
15.7802 29.43 1.75009 0.000106006 10
15.7792 29.4281 2.92138 0.000104944 10
15.7683 29.4078 4.09714 0.000103363 10
15.7764 29.4229 5.28777 0.000101279 10
15.7714 29.4135 6.48744 9.87188e-05 10
15.7699 29.4108 7.70453 9.57108e-05 10
15.775 29.4203 8.94488 9.22899e-05 10
4.44009 8.35058 -2.53416 0.000685352 4
5.15297 9.69133 -2.53403 0.00012507 4
6.1175 11.5053 -2.53289 0.000199594 4
7.35207 13.8272 -2.48035 0.000212082 10
10.388 19.5371 -2.71687 4.32624e-05 1
16.986 31.946 -1.89617 0.000161257 10
16.9929 31.9589 -0.631799 0.000162088 10
16.9893 31.9523 0.631667 0.000162079 10
15.7064 29.5395 1.75333 0.000105812 10
15.7009 29.5291 2.92595 0.000104752 10
15.7008 29.529 4.10636 0.000103172 10
15.7001 29.5276 5.29671 0.000101092 10
15.7008 29.5289 6.50077 9.85341e-05 10
15.7004 29.5282 7.72087 9.55299e-05 10
15.707 29.5405 8.9647 9.21134e-05 10
4.41067 8.36558 -2.53402 0.000542922 4
5.12068 9.71224 -2.53481 0.00042522 4
6.07308 11.5186 -2.53113 0.00019008 4
7.29756 13.8411 -2.47825 0.000212069 10
10.3191 19.572 -2.71669 4.32585e-05 1
16.8455 31.9504 -1.89293 0.000106688 10
16.8425 31.9446 -0.63035 0.000107253 10
16.8462 31.9516 0.630487 0.000107263 10
15.6374 29.6589 1.75717 0.000105608 10
15.6466 29.6764 2.93512 0.000104549 10
15.6428 29.6692 4.11824 0.000102972 10
15.6444 29.6722 5.31282 0.000100894 10
15.6438 29.6711 6.52001 9.83398e-05 10
15.64 29.6638 7.74201 9.53396e-05 10
15.6402 29.6642 8.98561 9.19278e-05 10
4.37352 8.36578 -2.52945 0.000649703 4
5.08423 9.72523 -2.53356 0.000441876 4
6.02665 11.5279 -2.52854 0.000210661 4
7.25494 13.8774 -2.48021 0.000212055 10
10.2477 19.6021 -2.71589 4.32547e-05 1
16.7779 32.0932 -1.89791 0.00010645 10
16.7706 32.0792 -0.631846 0.000107013 10
16.7792 32.0957 0.632171 0.000107023 10
15.4818 29.6139 1.75129 0.000161508 10
15.4866 29.6231 2.92448 0.000159868 10
15.4916 29.6326 4.10564 0.000157436 10
15.4901 29.6298 5.29551 0.00015424 10
15.4898 29.6293 6.49891 0.000150318 10
15.4881 29.6261 7.718 0.000145715 10
15.4949 29.639 8.96154 0.000140484 10
4.53847 8.75558 -2.6425 0.000586796 4
5.04523 9.73323 -2.53104 0.000314024 4
5.99043 11.5567 -2.53025 0.00019798 4
7.19837 13.8871 -2.47742 0.000212041 10
10.1746 19.6287 -2.71464 4.32508e-05 1
16.7095 32.2359 -1.90289 0.0001062 10
19.9912 38.5669 -0.758252 5.81697e-05 10
19.988 38.5607 0.758129 5.81757e-05 10
15.3071 29.5303 1.74318 0.000163819 10
15.2981 29.513 2.90832 0.000162158 10
15.3012 29.5189 4.08246 0.000159695 10
15.308 29.5322 5.26848 0.000156458 10
15.2999 29.5164 6.46239 0.000152485 10
15.3004 29.5174 7.67574 0.000147823 10
15.3055 29.5272 8.91154 0.000142524 10
4.51305 8.78144 -2.64553 0.000651079 4
5.0158 9.75969 -2.53335 0.000383482 4
5.9578 11.5926 -2.53355 0.000262904 4
7.16117 13.9341 -2.48135 0.000212027 10
10.1094 19.6708 -2.71556 4.3247e-05 1
16.6327 32.3638 -1.907 0.000105941 10
16.6241 32.3469 -0.634818 7.03476e-05 10
16.6224 32.3438 0.634756 7.03543e-05 10
15.1225 29.4252 1.73384 0.000166134 10
15.1186 29.4177 2.89371 0.000164453 10
15.1222 29.4247 4.0621 0.000161958 10
15.1296 29.4391 5.24242 0.00015868 10
15.1232 29.4265 6.43111 0.000154657 10
15.1306 29.4409 7.64206 0.000149935 10
15.1288 29.4374 8.86843 0.000144568 10
4.47907 8.79066 -2.64358 0.00088415 4
4.97817 9.7702 -2.53155 0.000277874 4
5.91499 11.6088 -2.53256 0.00020271 4
7.11384 13.9617 -2.48182 0.000212014 10
10.0357 19.6962 -2.71423 4.32431e-05 1
16.5542 32.4893 -1.91098 0.000105671 10
16.6332 32.6445 -0.639515 0.00010162 10
16.637 32.6519 0.63966 0.000101615 10
14.9435 29.3282 1.72504 0.000168453 10
14.9428 29.3269 2.87963 0.000166751 10
14.9408 29.3229 4.04082 0.000164225 10
14.9437 29.3286 5.21343 0.000160906 10
14.9491 29.3393 6.40061 0.000156832 10
14.9411 29.3236 7.59801 0.000152051 10
14.9424 29.326 8.81911 0.000146616 10
4.45108 8.81163 -2.6452 0.00078365 4
4.94156 9.78262 -2.53029 0.000330656 4
5.87363 11.6278 -2.53221 0.000221703 4
7.05455 13.9656 -2.47813 0.000212 10
9.96855 19.7344 -2.71467 4.32393e-05 1
16.4864 32.6375 -1.9163 0.00010539 10
16.4766 32.6181 -0.637868 6.99827e-05 10
16.4787 32.6222 0.637947 6.99894e-05 10
14.7576 29.215 1.71535 0.000170776 10
14.7646 29.229 2.86494 0.000169053 10
14.7654 29.2305 4.02096 0.000166496 10
14.7697 29.239 5.18831 0.000163136 10
14.7671 29.2339 6.36633 0.000159011 10
14.7704 29.2404 7.56305 0.00015417 10
14.7658 29.2313 8.77507 0.000148668 10
4.42618 8.83887 -2.64872 0.00022504 4
4.91518 9.81538 -2.5343 0.000411218 4
5.8339 11.65 -2.5326 0.000234359 4
7.01554 14.0097 -2.48158 0.000211986 10
9.9064 19.7826 -2.71653 4.32354e-05 1
16.4058 32.7617 -1.92022 0.0001051 10
16.4509 32.8517 -0.641308 0.000100205 10
16.4522 32.8543 0.641358 0.0001002 10
14.5836 29.1227 1.70693 0.000173102 10
14.5884 29.1324 2.85046 0.000171357 10
14.5821 29.1197 3.99869 0.000168769 10
14.5888 29.1332 5.16045 0.000165368 10
14.5843 29.1242 6.3313 0.000161193 10
14.5901 29.1358 7.52279 0.000156292 10
14.5845 29.1246 8.7277 0.000150722 10
4.38332 8.83014 -2.64151 0.000506321 4
4.87436 9.81935 -2.53092 0.000402865 4
5.79564 11.6753 -2.53367 0.000204262 4
6.95574 14.0122 -2.47772 0.000211972 10
9.83469 19.8119 -2.71582 4.32315e-05 1
16.3377 32.9122 -1.92568 0.000104799 10
18.963 38.2007 -0.744431 4.20451e-05 10
18.9547 38.1839 0.744104 4.20495e-05 10
14.408 29.0248 1.69823 0.00017543 10
14.4158 29.0404 2.83652 0.000173665 10
14.4195 29.0479 3.98189 0.000171046 10
14.4169 29.0426 5.13547 0.000167603 10
14.4122 29.0332 6.30057 0.000163378 10
14.4205 29.0499 7.48757 0.000158418 10
14.4157 29.0403 8.6873 0.00015278 10
4.36386 8.86854 -2.64842 0.000715253 4
4.84041 9.83701 -2.5311 0.000430631 4
5.74852 11.6825 -2.53088 0.000188418 4
6.914 14.0511 -2.4803 0.000211958 10
9.76196 19.8389 -2.71484 4.32276e-05 1
16.2576 33.0398 -1.92982 0.000104489 10
16.2785 33.0822 -0.643575 9.88066e-05 10
16.2677 33.0603 0.643147 9.88021e-05 10
14.237 28.9334 1.68996 0.000177761 10
14.2384 28.9362 2.82148 0.000175974 10
14.2447 28.949 3.96151 0.000173324 10
14.2371 28.9335 5.10736 0.000169841 10
14.2404 28.9404 6.26958 0.000165565 10
14.2405 28.9404 7.44649 0.000160545 10
14.2458 28.9513 8.64576 0.000154839 10
4.32197 8.86135 -2.64175 0.000401813 4
4.81112 9.86427 -2.53378 0.000355602 4
5.96849 12.2372 -2.64652 0.00164302 10
6.861 14.0671 -2.4789 0.000211944 10
9.70216 19.8924 -2.7175 4.32237e-05 1
16.1828 33.1797 -1.93467 0.000104168 10
18.4947 37.9197 -0.736421 4.40658e-05 10
18.492 37.9142 0.736314 4.40705e-05 10
14.0638 28.835 1.68134 0.000180093 10
14.0672 28.8421 2.80749 0.000178286 10
14.0714 28.8507 3.94131 0.000175604 10
14.0653 28.8382 5.08184 0.00017208 10
14.0655 28.8385 6.23685 0.000167754 10
14.0746 28.8572 7.4124 0.000162675 10
14.0762 28.8605 8.60391 0.000156901 10
4.29791 8.89064 -2.646 0.000329474 4
4.77568 9.87896 -2.53326 0.000358365 4
5.89186 12.1879 -2.63139 0.00166726 10
6.81189 14.0911 -2.4789 0.00021193 10
9.63169 19.9241 -2.71723 4.32198e-05 1
16.104 33.3128 -1.93914 0.000103838 10
16.105 33.3148 -0.645895 6.89533e-05 10
16.0972 33.2986 0.645582 6.89601e-05 10
13.9415 28.8393 1.67874 0.000180602 10
13.9492 28.8554 2.80403 0.00017879 10
13.9836 28.9266 3.94498 0.000123884 10
13.9485 28.8539 5.07598 0.000172569 10
13.9519 28.8609 6.23111 0.000168232 10
13.949 28.8549 7.39923 0.000163141 10
