VERSION 0.7
FIELDS x y z intensity label
SIZE 4 4 4 4 4
TYPE F F F F F
COUNT 1 1 1 1 1
WIDTH 1180
HEIGHT 1
VIEWPOINT 18.9681 52.4263 2.72705 0.968122 -0.000196817 0.000565636 -0.250478
POINTS 1180
DATA ascii
9.18223 -20.2421 -2.72918 4.23557e-05 1
5.74396 -12.6625 1.21648 0.00218607 10
5.73505 -12.6428 1.70459 0.00215828 10
5.74186 -12.6579 2.20143 0.00212165 10
5.73289 -12.6381 2.69753 0.00207654 10
5.74041 -12.6547 3.20809 0.0020234 10
5.74137 -12.6568 3.72399 0.00196273 10
4.24292 -9.26735 -2.73106 0.000613693 1
4.92378 -10.7545 -2.73071 0.000381213 1
5.84172 -12.7594 -2.72776 0.000215673 1
7.17207 -15.6652 -2.72879 0.000106499 1
9.25606 -20.217 -2.73013 4.23611e-05 1
5.77761 -12.6194 1.21427 0.00218817 10
5.7772 -12.6185 1.70402 0.00216035 10
5.7868 -12.6395 2.20173 0.00212369 10
5.78543 -12.6365 2.70148 0.00207854 10
5.78411 -12.6336 3.20785 0.00202535 10
5.78145 -12.6278 3.72137 0.00196462 10
4.26898 -9.23892 -2.72706 0.000613724 1
4.96158 -10.7378 -2.73088 0.000381237 1
5.88955 -12.7462 -2.72931 0.000215689 1
7.23181 -15.6511 -2.73072 0.000106509 1
9.33411 -20.2009 -2.73234 4.23664e-05 1
5.12136 -11.0836 1.06821 0.00300803 10
5.11638 -11.0729 1.4977 0.00297042 10
5.11239 -11.0642 1.93043 0.00292086 10
5.12223 -11.0855 2.37372 0.00285981 10
5.11717 -11.0746 2.81651 0.00278786 10
5.11788 -11.0761 3.26934 0.00270569 10
4.29978 -9.22091 -2.72616 0.000613756 1
4.9976 -10.7174 -2.73009 0.00038126 1
5.30471 -11.376 -2.43986 0.00341958 10
5.30691 -11.3807 -1.98887 0.00349276 10
5.31034 -11.3881 -1.54283 0.00355216 10
5.30346 -11.3733 -1.0979 0.00359721 10
5.30706 -11.381 -0.658114 0.00362746 10
5.30611 -11.379 -0.219154 0.00364265 10
5.30882 -11.3848 0.219266 0.0036426 10
5.30088 -11.3678 0.657348 0.00362734 10
5.15966 -11.0649 1.06813 0.00301061 10
5.15345 -11.0516 1.49725 0.00297298 10
5.15726 -11.0598 1.93278 0.00292338 10
5.15522 -11.0554 2.37111 0.00286228 10
5.15082 -11.046 2.81379 0.00279027 10
5.15729 -11.0598 3.26983 0.00270803 10
4.33228 -9.20656 -2.72637 0.000613788 1
5.03635 -10.7028 -2.73083 0.000381283 1
5.34014 -11.3484 -2.43793 0.00342239 10
5.34545 -11.3597 -1.98844 0.00349563 10
5.35015 -11.3697 -1.54286 0.00355507 10
5.34548 -11.3597 -1.09838 0.00360016 10
5.34376 -11.3561 -0.657747 0.00363044 10
5.35106 -11.3716 -0.21937 0.00364564 10
5.34455 -11.3577 0.219103 0.00364559 10
5.34331 -11.3551 0.65769 0.00363031 10
5.19322 -11.0361 1.0671 0.00301308 10
5.18801 -11.0251 1.4961 0.00297541 10
5.19439 -11.0387 1.93225 0.00292577 10
5.18752 -11.024 2.36825 0.00286462 10
5.19561 -11.0412 2.81719 0.00279255 10
5.19304 -11.0358 3.26806 0.00271025 10
4.36251 -9.18743 -2.72519 0.00061382 1
5.07393 -10.6857 -2.73097 0.000381307 1
5.3814 -11.3332 -2.43869 0.00342506 10
5.37956 -11.3293 -1.9864 0.00349835 10
5.38485 -11.3405 -1.54144 0.00355784 10
5.37971 -11.3296 -1.09728 0.00360296 10
5.37944 -11.3291 -0.657266 0.00363327 10
5.38819 -11.3475 -0.219267 0.00364847 10
5.38646 -11.3439 0.219196 0.00364843 10
5.38862 -11.3484 0.658388 0.00363314 10
5.23342 -11.0216 1.06745 0.00301541 10
5.22807 -11.0103 1.49656 0.00297772 10
5.23516 -11.0252 1.93309 0.00292804 10
5.23068 -11.0158 2.37038 0.00286685 10
5.2241 -11.0019 2.8118 0.00279473 10
5.23513 -11.0252 3.27031 0.00271236 10
4.39391 -9.1708 -2.7248 0.000613852 1
5.10468 -10.6543 -2.72749 0.00038133 1
5.42239 -11.3174 -2.43934 0.00342759 10
5.42038 -11.3132 -1.98688 0.00350093 10
5.41726 -11.3067 -1.53941 0.00356047 10
5.4215 -11.3156 -1.09775 0.00360561 10
5.42431 -11.3214 -0.657916 0.00363594 10
5.41842 -11.3091 -0.218889 0.00365116 10
5.42092 -11.3143 0.21899 0.00365111 10
5.42228 -11.3172 0.65767 0.00363581 10
5.2697 -10.9987 1.06701 0.00301762 10
5.26258 -10.9838 1.49545 0.00297991 10
5.2721 -11.0037 1.93253 0.00293019 10
5.26654 -10.9921 2.36923 0.00286896 10
5.27075 -11.0009 2.81622 0.00279678 10
5.27003 -10.9994 3.2681 0.00271436 10
4.42743 -9.15858 -2.72574 0.000613884 1
5.1404 -10.6334 -2.72672 0.000381354 1
5.46552 -11.306 -2.44098 0.00342997 10
5.45961 -11.2937 -1.9868 0.00350337 10
5.45945 -11.2934 -1.54019 0.00356294 10
5.4579 -11.2902 -1.09713 0.00360812 10
5.46671 -11.3084 -0.658267 0.00363847 10
5.45754 -11.2895 -0.218876 0.00365369 10
5.46519 -11.3053 0.219183 0.00365365 10
5.46515 -11.3052 0.658079 0.00363834 10
5.46398 -11.3028 1.09835 0.00281313 10
5.463 -11.3008 1.54119 0.00277784 10
5.45856 -11.2916 1.98642 0.00273133 10
5.46616 -11.3073 2.44126 0.00170705 10
5.45429 -11.2828 2.89323 0.00166395 10
5.45804 -11.2905 3.36023 0.00161473 10
4.46852 -9.16183 -2.73133 0.000613916 1
5.1796 -10.6198 -2.72784 0.000381377 1
5.49723 -11.271 -2.43755 0.00343221 10
5.5017 -11.2802 -1.98778 0.00350565 10
5.49641 -11.2693 -1.5395 0.00356526 10
5.49659 -11.2697 -1.09699 0.00361047 10
5.49523 -11.2669 -0.656961 0.00364084 10
5.50022 -11.2771 -0.219008 0.00365607 10
5.50015 -11.277 0.219005 0.00365603 10
5.50421 -11.2853 0.658035 0.00364071 10
5.49339 -11.2631 1.09635 0.00281496 10
5.49258 -11.2615 1.53843 0.00277965 10
5.49866 -11.2739 1.98668 0.00273311 10
5.52663 -11.3313 2.45059 0.00168589 10
5.5341 -11.3466 2.91454 0.0016433 10
5.53428 -11.347 3.38276 0.00159466 10
4.49774 -9.14062 -2.72967 0.000613948 1
5.22416 -10.6169 -2.73177 0.0003814 1
5.53935 -11.2574 -2.43879 0.00343431 10
5.53384 -11.2463 -1.98519 0.0035078 10
5.54092 -11.2606 -1.54095 0.00356744 10
5.53507 -11.2488 -1.09683 0.00361267 10
5.53998 -11.2587 -0.657608 0.00364306 10
5.53642 -11.2515 -0.218884 0.0036583 10
5.53795 -11.2546 0.218944 0.00365826 10
5.53716 -11.253 0.657273 0.00364293 10
5.53159 -11.2417 1.09614 0.00281668 10
5.54151 -11.2618 1.54112 0.00278135 10
5.54215 -11.2631 1.98818 0.00273478 10
4.52655 -9.11868 -2.72782 0.00061398 1
5.25399 -10.5841 -2.72803 0.000381424 1
5.58078 -11.2424 -2.43974 0.00343626 10
5.58189 -11.2446 -1.98834 0.00350979 10
5.57558 -11.2319 -1.53968 0.00356947 10
5.57655 -11.2339 -1.09727 0.00361473 10
5.57621 -11.2332 -0.657251 0.00364513 10
5.57875 -11.2383 -0.219006 0.00366038 10
5.57146 -11.2236 0.218719 0.00366034 10
5.57065 -11.222 0.656595 0.003645 10
5.57932 -11.2395 1.09781 0.00281828 10
5.56896 -11.2186 1.53785 0.00278293 10
5.57557 -11.2319 1.98608 0.00273634 10
4.56311 -9.11232 -2.73067 0.000614012 1
5.29279 -10.5695 -2.72901 0.000381447 1
5.61984 -11.2226 -2.43968 0.00343807 10
5.6118 -11.2065 -1.98505 0.00351164 10
5.70396 -11.3905 -1.56414 0.000145012 10
5.71646 -11.4155 -1.11695 0.000146352 10
5.72214 -11.4268 -0.669745 0.000147084 10
5.71677 -11.4161 -0.222858 0.000147199 10
5.73402 -11.4506 0.22353 0.000146698 10
5.73453 -11.4516 0.671196 0.000145585 10
5.61685 -11.2166 1.09749 0.00281976 10
5.60834 -11.1996 1.53792 0.00278439 10
5.61777 -11.2184 1.98716 0.00273778 10
4.58736 -9.08142 -2.72619 0.000614044 1
5.32781 -10.5473 -2.72806 0.000381471 1
5.65343 -11.1919 -2.43728 0.00343974 10
5.64637 -11.1779 -1.98346 0.00351334 10
7.75897 -15.3601 -2.11295 0.00160802 10
7.76574 -15.3735 -1.50687 0.00162938 10
7.76256 -15.3673 -0.902282 0.00164374 10
7.76376 -15.3696 -0.300563 0.00165094 10
7.76485 -15.3718 0.300605 0.00165092 10
7.77048 -15.3829 0.903202 0.00164368 10
5.65721 -11.1994 1.09773 0.00282113 10
5.65138 -11.1878 1.539 0.00278574 10
5.65067 -11.1864 1.98497 0.0027391 10
4.61587 -9.05916 -2.72433 0.000614076 1
5.36514 -10.5297 -2.72834 0.000381494 1
5.68619 -11.1598 -2.4346 0.00344127 10
5.68363 -11.1548 -1.98286 0.0035149 10
7.81583 -15.3394 -2.11384 0.00160877 10
7.8192 -15.346 -1.50684 0.00163014 10
7.81783 -15.3434 -0.902476 0.0016445 10
7.81692 -15.3416 -0.300546 0.00165171 10
7.81667 -15.3411 0.300536 0.00165169 10
7.81848 -15.3446 0.90255 0.00164444 10
5.69306 -11.1733 1.09711 0.00282238 10
5.6949 -11.1769 1.54022 0.00278697 10
5.68924 -11.1658 1.98482 0.00274032 10
4.65069 -9.04927 -2.72622 0.000614108 1
5.40505 -10.5171 -2.72995 0.000381518 1
5.72386 -11.1374 -2.43407 0.00344265 10
5.72832 -11.1461 -1.98486 0.00351631 10
7.86547 -15.3046 -2.11281 0.00160944 10
7.87098 -15.3153 -1.50651 0.00163082 10
7.87561 -15.3243 -0.902965 0.00164519 10
7.87133 -15.316 -0.30058 0.0016524 10
7.87357 -15.3203 0.300666 0.00165238 10
7.86884 -15.3111 0.902189 0.00164513 10
5.7286 -11.1466 1.09645 0.00282351 10
5.72612 -11.1418 1.53814 0.00278809 10
5.72197 -11.1337 1.98266 0.00274141 10
4.67907 -9.02685 -2.72437 0.00061414 1
5.43769 -10.4904 -2.72793 0.000381541 1
5.76131 -11.1147 -2.43348 0.00344389 10
5.76086 -11.1138 -1.98268 0.00351757 10
9.54988 -18.4236 -2.54798 0.000119892 10
10.0787 -19.4439 -1.91607 0.000856767 10
10.0781 -19.4426 -1.1477 0.000864658 10
10.0694 -19.4259 -0.381927 0.000868619 10
10.0759 -19.4384 0.382172 0.000868608 10
9.22302 -17.793 1.05032 4.2302e-05 10
5.76633 -11.1244 1.09624 0.00282452 10
5.77161 -11.1346 1.53991 0.00278909 10
5.76759 -11.1268 1.985 0.0027424 10
4.7127 -9.01456 -2.72561 0.000614172 1
5.47861 -10.4796 -2.73009 0.000381565 1
5.80605 -11.1059 -2.43598 0.00344498 10
5.80745 -11.1086 -1.98536 0.00351868 10
9.61824 -18.398 -2.54906 0.000119907 10
10.1484 -19.4122 -1.91643 0.000857065 10
10.1373 -19.3908 -1.14672 0.000864958 10
10.1417 -19.3993 -0.382098 0.00086892 10
10.1389 -19.3939 0.381991 0.000868908 10
9.28402 -17.7587 1.0502 4.22897e-05 10
5.80469 -11.1033 1.09616 0.00282541 10
5.80164 -11.0975 1.53757 0.00278997 10
5.80941 -11.1124 1.98603 0.00274327 10
4.74769 -9.00479 -2.72765 0.000614204 1
5.50796 -10.4468 -2.72652 0.000381588 1
5.83882 -11.0743 -2.4335 0.00344593 10
5.8424 -11.0811 -1.98407 0.00351965 10
9.67842 -18.3568 -2.54802 0.000119922 10
12.9814 -24.6214 -2.43515 0.000431332 10
12.9768 -24.6127 -1.4582 0.000435523 10
12.9742 -24.6078 -0.485575 0.000437628 10
12.9811 -24.6208 0.485832 0.000437622 10
9.34832 -17.7307 1.05047 4.22773e-05 10
5.84503 -11.0861 1.09646 0.00282619 10
5.84826 -11.0922 1.53966 0.00279074 10
5.84357 -11.0833 1.98447 0.00274402 10
4.78488 -8.99905 -2.73095 0.000614236 1
5.55096 -10.4398 -2.72975 0.000381612 1
5.87544 -11.0501 -2.43267 0.00344673 10
5.88131 -11.0611 -1.98416 0.00352047 10
9.75424 -18.3451 -2.5511 0.000119937 10
13.2328 -24.8874 -2.46602 0.000415263 10
9.41522 -17.7075 1.05103 4.22649e-05 10
5.88252 -11.0634 1.09624 0.00282685 10
5.8749 -11.0491 1.53651 0.00279139 10
5.88565 -11.0693 1.98563 0.00274466 10
4.80827 -8.96739 -2.72642 0.000614268 1
5.59041 -10.4261 -2.73123 0.000381635 1
5.91421 -11.03 -2.43277 0.00344739 10
5.91733 -11.0358 -1.98331 0.00352114 10
9.81685 -18.3083 -2.55075 0.000119953 10
13.3246 -24.8502 -2.46693 0.000415355 10
9.47392 -17.6688 1.0507 4.22525e-05 10
5.91381 -11.0292 1.09489 0.00282739 10
5.91582 -11.033 1.53713 0.00279192 10
5.92299 -11.0463 1.9852 0.00274519 10
5.95018 -11.097 2.44756 0.00169335 10
5.95296 -11.1022 2.90836 0.00165057 10
5.95701 -11.1098 3.37779 0.00160173 10
4.84701 -8.96435 -2.73062 0.0006143 1
5.61897 -10.3921 -2.72745 0.000381659 1
5.95197 -11.0079 -2.43248 0.0034479 10
5.95935 -11.0216 -1.98448 0.00352167 10
9.86821 -18.2509 -2.54752 0.000119968 10
13.4081 -24.7978 -2.46636 0.000415426 10
13.4015 -24.7856 -1.47668 0.000277075 10
13.4129 -24.8067 -0.492244 0.000278418 10
13.4014 -24.7854 0.491823 0.000278414 10
9.53736 -17.639 1.0509 4.22402e-05 10
5.95117 -11.0065 1.09469 0.00282781 10
5.96234 -11.0271 1.5392 0.00279234 10
5.95948 -11.0218 1.98453 0.0027456 10
4.8686 -8.92964 -2.72521 0.000614333 1
5.66174 -10.3844 -2.7306 0.000381683 1
5.98939 -10.9853 -2.43209 0.00344827 10
6.00028 -11.0053 -1.98531 0.00352205 10
9.9395 -18.2303 -2.54948 0.000119983 10
13.4862 -24.7355 -2.46482 0.000415478 10
9.5946 -17.5977 1.05043 4.22278e-05 10
5.9947 -10.9951 1.09563 0.00282811 10
5.99962 -11.0041 1.5389 0.00279264 10
5.99225 -10.9906 1.98265 0.00274589 10
4.90722 -8.9262 -2.72937 0.000614365 1
5.69304 -10.3556 -2.72824 0.000381706 1
6.03907 -10.985 -2.43667 0.0034485 10
6.04027 -10.9872 -1.98584 0.00352227 10
9.99614 -18.1829 -2.54772 0.000119998 10
13.5745 -24.6919 -2.46519 0.000415509 10
13.5737 -24.6904 -1.47662 0.00027713 10
13.5727 -24.6886 -0.491769 0.000278473 10
13.5744 -24.6917 0.491831 0.000278469 10
9.66299 -17.5769 1.05119 4.22154e-05 10
6.03772 -10.9826 1.09648 0.00282829 10
6.0395 -10.9858 1.53929 0.00279282 10
6.03937 -10.9856 1.98554 0.00274607 10
4.9335 -8.90027 -2.72669 0.000614397 1
5.73462 -10.3455 -2.73085 0.00038173 1
6.07985 -10.9684 -2.43767 0.00344858 10
6.07108 -10.9525 -1.98339 0.00352236 10
10.0665 -18.1605 -2.54948 0.000120013 10
13.6652 -24.6528 -2.46603 0.00041552 10
9.72192 -17.5388 1.05094 4.2203e-05 10
6.07308 -10.9561 1.09595 0.00282836 10
6.07489 -10.9594 1.53855 0.00279289 10
6.06873 -10.9483 1.98262 0.00274613 10
4.96875 -8.89052 -2.72901 0.000614429 1
5.76908 -10.3226 -2.73009 0.000381753 1
6.1086 -10.93 -2.43388 0.00344851 10
6.11592 -10.9432 -1.98555 0.00352229 10
10.1314 -18.1279 -2.54986 0.000120028 10
13.7578 -24.6167 -2.46721 0.000415512 10
9.78539 -17.5089 1.05118 4.21906e-05 10
6.11573 -10.9428 1.09674 0.00282831 10
6.11833 -10.9475 1.53986 0.00279284 10
6.11785 -10.9466 1.98617 0.00274608 10
4.99922 -8.87219 -2.72872 0.000614461 1
5.80384 -10.3002 -2.7295 0.000381777 1
6.15422 -10.922 -2.43685 0.0034483 10
6.14794 -10.9108 -1.98356 0.00352208 10
10.1941 -18.0916 -2.54975 0.000120044 10
13.8339 -24.5513 -2.46548 0.000415482 10
13.8434 -24.568 -1.47789 0.000277112 10
13.8313 -24.5467 -0.491801 0.000278455 10
13.8431 -24.5676 0.49222 0.000278451 10
9.84612 -17.474 1.05115 4.21783e-05 10
6.1561 -10.9253 1.09714 0.00282814 10
6.14454 -10.9048 1.53687 0.00279267 10
6.15615 -10.9254 1.98621 0.00274592 10
5.02197 -8.84026 -2.72427 0.000614493 1
5.83872 -10.278 -2.72902 0.0003818 1
6.18646 -10.8901 -2.43455 0.00344795 10
6.19104 -10.8982 -1.98518 0.00352172 10
10.2543 -18.0508 -2.54903 0.000120059 10
13.9177 -24.4996 -2.46516 0.000415433 10
9.90936 -17.4436 1.05139 4.21659e-05 10
6.19498 -10.9051 1.09728 0.00282785 10
6.18304 -10.8841 1.53699 0.00279238 10
6.19266 -10.9011 1.9857 0.00274563 10
5.05638 -8.82894 -2.72621 0.000614525 1
5.86715 -10.2446 -2.72557 0.000381824 1
6.23039 -10.8789 -2.43688 0.00344746 10
6.23267 -10.8829 -1.98634 0.00352121 10
10.3131 -18.0077 -2.548 0.000120074 10
14.0136 -24.4691 -2.46699 0.000415364 10
9.97125 -17.4108 1.05151 4.21535e-05 10
6.22721 -10.8733 1.09625 0.00282744 10
6.22638 -10.8719 1.53832 0.00279198 10
6.22424 -10.8681 1.98365 0.00274524 10
5.08306 -8.80411 -2.724 0.000614557 1
5.90228 -10.223 -2.7253 0.000381847 1
6.25721 -10.8378 -2.43256 0.00344681 10
6.26481 -10.851 -1.9845 0.00352056 10
10.3859 -17.9889 -2.55046 0.000120089 10
14.0994 -24.4209 -2.46708 0.000415274 10
14.0937 -24.411 -1.47724 0.000276973 10
14.0898 -24.4043 -0.491878 0.000278316 10
14.0935 -24.4106 0.492004 0.000278312 10
10.0302 -17.3728 1.05132 4.21411e-05 10
6.26067 -10.8438 1.09547 0.00282692 10
6.26933 -10.8588 1.53955 0.00279146 10
6.26683 -10.8545 1.98514 0.00274473 10
5.11598 -8.79013 -2.72518 0.00061459 1
5.94396 -10.2127 -2.72806 0.000381871 1
6.30018 -10.8248 -2.43456 0.00344603 10
6.29719 -10.8197 -1.98278 0.00351975 10
10.4375 -17.9335 -2.54775 0.000120104 10
14.185 -24.3723 -2.46715 0.000415165 10
10.0981 -17.3504 1.05209 4.21287e-05 10
6.30458 -10.8324 1.09654 0.00282627 10
6.29514 -10.8161 1.53661 0.00279082 10
6.29553 -10.8168 1.98226 0.0027441 10
5.1541 -8.78495 -2.72914 0.000614622 1
5.98243 -10.1968 -2.72937 0.000381895 1
6.33731 -10.8017 -2.43432 0.00344509 10
6.34192 -10.8095 -1.98497 0.0035188 10
10.4984 -17.894 -2.54733 0.00012012 10
14.2631 -24.311 -2.46597 0.000415035 10
10.1603 -17.3178 1.05226 4.21164e-05 10
6.33702 -10.8012 1.09561 0.00282551 10
6.34174 -10.8092 1.53877 0.00279007 10
6.34028 -10.8067 1.98446 0.00274336 10
6.37878 -10.8724 2.45025 0.00169222 10
6.3763 -10.8681 2.90906 0.00164948 10
6.37741 -10.87 3.37689 0.00160066 10
5.17682 -8.75352 -2.72497 0.000614654 1
6.00811 -10.1592 -2.72489 0.000381918 1
6.37598 -10.7812 -2.4347 0.00344402 10
6.38516 -10.7967 -1.9867 0.0035177 10
10.5713 -17.8752 -2.54989 0.000120135 10
14.3532 -24.2699 -2.46688 0.000414885 10
14.351 -24.2661 -1.47749 0.000276714 10
14.3603 -24.282 -0.492416 0.000278055 10
10.2126 -17.2686 1.05143 4.2104e-05 10
6.37275 -10.7757 1.09528 0.00282463 10
6.38229 -10.7919 1.53946 0.0027892 10
6.37731 -10.7835 1.98425 0.0027425 10
6.37628 -10.7817 2.43482 0.00171405 10
6.37882 -10.786 2.89302 0.00167078 10
6.38575 -10.7977 3.36133 0.00162136 10
5.21263 -8.74428 -2.72774 0.000614687 1
6.05431 -10.1562 -2.72975 0.000381942 1
6.41868 -10.7674 -2.43664 0.0034428 10
6.42378 -10.776 -1.987 0.00351646 10
10.6311 -17.8339 -2.54928 0.00012015 10
14.4444 -24.2308 -2.468 0.000414715 10
10.2763 -17.2387 1.05178 4.20916e-05 10
6.41582 -10.7626 1.09622 0.00282363 10
6.41503 -10.7613 1.53828 0.00278821 10
6.41218 -10.7565 1.98341 0.00274153 10
6.22608 -10.4444 2.36353 0.00288164 10
6.23606 -10.4611 2.8117 0.00280916 10
6.22575 -10.4438 3.2579 0.00272639 10
5.24862 -8.73518 -2.7306 0.000614719 1
6.08207 -10.1223 -2.72632 0.000381966 1
6.45177 -10.7376 -2.43496 0.00344143 10
6.45673 -10.7458 -1.98557 0.00351507 10
10.6827 -17.779 -2.54674 0.000120165 10
14.5242 -24.1724 -2.46721 0.000414526 10
14.5276 -24.1779 -1.47825 0.000276474 10
14.5204 -24.166 -0.492109 0.000277814 10
14.5285 -24.1795 0.492383 0.000277811 10
10.3332 -17.1974 1.05146 4.20792e-05 10
6.45773 -10.7475 1.09696 0.00282251 10
6.44922 -10.7333 1.53749 0.00278711 10
6.45741 -10.7469 1.98578 0.00274045 10
6.27022 -10.4354 2.36644 0.00288051 10
6.26949 -10.4342 2.81033 0.00280805 10
6.269 -10.4334 3.26146 0.00272531 10
5.27658 -8.71266 -2.72931 0.000614751 1
6.11292 -10.0936 -2.72433 0.000381989 1
6.48928 -10.7151 -2.43499 0.00343993 10
6.48927 -10.7151 -1.98407 0.00351353 10
10.7436 -17.7398 -2.54648 0.000120181 10
14.6068 -24.1187 -2.46692 0.000414315 10
10.4022 -17.1761 1.05237 4.20668e-05 10
6.49446 -10.7236 1.09684 0.00282128 10
6.49576 -10.7258 1.53965 0.00278589 10
6.49994 -10.7327 1.98733 0.00273925 10
6.31098 -10.4207 2.36808 0.00287925 10
6.30469 -10.4103 2.8098 0.00280683 10
6.30398 -10.4091 3.26073 0.00272412 10
5.29931 -8.68167 -2.72538 0.000614783 1
6.15723 -10.0872 -2.72837 0.000382013 1
6.53327 -10.7032 -2.43746 0.00343828 10
6.5307 -10.699 -1.9853 0.00351184 10
10.8075 -17.7055 -2.54697 0.000120196 10
14.6983 -24.0797 -2.46816 0.000414085 10
29.9977 -49.1441 -1.00499 3.64492e-05 10
29.9984 -49.1452 1.00502 3.64486e-05 10
10.4645 -17.1436 1.05262 4.20544e-05 10
6.52568 -10.6908 1.0958 0.00281993 10
6.52787 -10.6944 1.5384 0.00278455 10
6.52782 -10.6943 1.98443 0.00273794 10
6.52663 -10.6923 2.43498 0.00268051 10
6.52634 -10.6919 2.89193 0.00261284 10
6.53443 -10.7051 3.36058 0.00253556 10
5.32745 -8.65964 -2.72428 0.000614816 1
6.18186 -10.0485 -2.72373 0.000382037 1
6.5675 -10.6753 -2.43631 0.00343648 10
6.56989 -10.6792 -1.98587 0.00351001 10
6.66154 -10.8282 -1.56099 0.000102901 10
6.65187 -10.8125 -1.11065 0.000104545 10
6.63838 -10.7905 -0.663954 0.000105764 10
6.6377 -10.7894 -0.221116 0.000106547 10
6.63696 -10.7882 0.221091 0.000106886 10
6.62175 -10.7635 0.662291 0.000106777 10
6.56341 -10.6687 1.09588 0.00281846 10
6.56534 -10.6718 1.53844 0.0027831 10
6.57307 -10.6844 1.98683 0.00273651 10
6.5645 -10.6704 2.4352 0.00267911 10
6.56998 -10.6793 2.89473 0.00261148 10
6.57105 -10.6811 3.36022 0.00253423 10
5.36216 -8.64829 -2.72658 0.000614848 1
6.22303 -10.0367 -2.72641 0.00038206 1
6.61169 -10.6636 -2.43888 0.00343454 10
6.60328 -10.65 -1.98471 0.00350803 10
6.60478 -10.6524 -1.53896 0.00235655 10
6.60644 -10.6551 -1.09685 0.00238643 10
6.60426 -10.6516 -0.656819 0.0024065 10
6.60196 -10.6479 -0.218686 0.00241657 10
6.61525 -10.6693 0.219126 0.00241654 10
6.60387 -10.651 0.656781 0.00240641 10
6.6023 -10.6484 1.09616 0.00281687 10
6.61469 -10.6684 1.54127 0.00278154 10
6.6105 -10.6616 1.98689 0.00273497 10
6.60491 -10.6526 2.43638 0.0026776 10
6.61044 -10.6615 2.89614 0.00261 10
6.61639 -10.6711 3.36434 0.0025328 10
5.39126 -8.62782 -2.72605 0.00061488 1
6.25366 -10.0079 -2.72451 0.000382084 1
6.64866 -10.6401 -2.4388 0.00343246 10
6.64892 -10.6405 -1.98726 0.00350591 10
6.64035 -10.6268 -1.5386 0.00235512 10
6.64074 -10.6274 -1.09637 0.00238498 10
6.64956 -10.6415 -0.657626 0.00240504 10
6.65361 -10.648 -0.219164 0.00241511 10
6.6484 -10.6397 0.218992 0.00241508 10
6.6453 -10.6347 0.657205 0.00240496 10
6.64786 -10.6388 1.09755 0.00281517 10
6.65408 -10.6488 1.54178 0.00277985 10
6.65228 -10.6459 1.98826 0.00273331 10
6.6417 -10.6289 2.43625 0.00267598 10
6.64183 -10.6292 2.89362 0.00260842 10
6.64919 -10.6409 3.36211 0.00253126 10
5.42949 -8.62189 -2.73014 0.000614913 1
6.29316 -9.99338 -2.72651 0.000382107 1
6.67792 -10.6044 -2.43594 0.00343023 10
6.69203 -10.6268 -1.98904 0.00350364 10
11.0512 -17.5491 -2.54641 0.000120257 10
15.0503 -23.8995 -2.47099 0.000412965 10
15.0406 -23.8841 -1.47923 0.000275434 10
15.0461 -23.8929 -0.492856 0.00027677 10
15.0457 -23.8921 0.49284 0.000276766 10
10.6933 -16.9806 1.05167 5.79423e-05 10
6.68237 -10.6114 1.09713 0.00281334 10
6.68117 -10.6095 1.53947 0.00277805 10
6.68897 -10.6219 1.98813 0.00273154 10
6.69126 -10.6255 2.44081 0.00267425 10
6.67787 -10.6043 2.89318 0.00260673 10
6.68799 -10.6204 3.36296 0.00252962 10
5.45068 -8.5889 -2.72571 0.000614945 1
6.3278 -9.97102 -2.72642 0.000382131 1
6.72928 -10.6036 -2.44116 0.00342787 10
6.72953 -10.604 -1.98917 0.00350122 10
11.1157 -17.5156 -2.54717 0.000120272 10
15.1245 -23.8325 -2.4695 0.000412636 10
16.3895 -25.8257 -1.60301 0.000327476 10
16.3914 -25.8288 -0.533967 0.000329096 10
16.3891 -25.8251 0.533891 0.000329092 10
10.758 -16.9519 1.05221 5.79252e-05 10
6.72836 -10.6022 1.09859 0.00281141 10
6.73011 -10.605 1.5422 0.00277614 10
6.72087 -10.5904 1.98661 0.00272965 10
6.72183 -10.5919 2.43846 0.0026724 10
6.71863 -10.5869 2.89481 0.00260492 10
6.7205 -10.5898 3.3607 0.00252787 10
5.48172 -8.57153 -2.72625 0.000614977 1
6.35774 -9.94133 -2.72435 0.000382155 1
6.76624 -10.5801 -2.44116 0.00342536 10
6.76507 -10.5782 -1.98875 0.00349866 10
11.1849 -17.4894 -2.54902 0.000120287 10
15.2189 -23.7971 -2.47133 0.000412286 10
10.8176 -16.915 1.05226 5.79081e-05 10
6.76854 -10.5837 1.09911 0.00280935 10
6.76099 -10.5719 1.54081 0.00277411 10
6.75663 -10.565 1.98627 0.00272766 10
6.7614 -10.5725 2.43941 0.00267044 10
6.75889 -10.5686 2.89625 0.00260301 10
6.76499 -10.5781 3.36446 0.00252601 10
5.51101 -8.55142 -2.72595 0.000615009 1
6.40529 -9.93907 -2.72984 0.000382179 1
6.8041 -10.5579 -2.4415 0.00342271 10
6.79333 -10.5412 -1.98623 0.00349595 10
11.2345 -17.4326 -2.54644 0.000120303 10
15.2942 -23.732 -2.47009 0.000411917 10
16.5751 -25.7195 -1.60356 0.000326894 10
16.5799 -25.727 -0.534242 0.000328512 10
16.5788 -25.7253 0.534207 0.000328507 10
6.89134 -10.6933 0.666706 0.000153643 10
6.79799 -10.5484 1.09791 0.00280718 10
6.80006 -10.5516 1.54131 0.00277196 10
6.79632 -10.5458 1.98711 0.00272555 10
6.80571 -10.5604 2.44208 0.00266837 10
6.8055 -10.5601 2.90041 0.002601 10
6.80483 -10.559 3.36592 0.00252405 10
5.54145 -8.53309 -2.72626 0.000615042 1
6.43301 -9.90598 -2.7269 0.000382202 1
6.83771 -10.5291 -2.44036 0.00341991 10
6.84472 -10.5399 -1.99049 0.0034931 10
6.83609 -10.5267 -1.54114 0.00234652 10
6.83989 -10.5325 -1.09873 0.00237628 10
6.84211 -10.5359 -0.658381 0.00239627 10
6.84691 -10.5433 -0.219436 0.0024063 10
6.83164 -10.5198 0.218946 0.00240627 10
6.84222 -10.5361 0.658392 0.00239618 10
6.84034 -10.5332 1.0988 0.00280489 10
6.83162 -10.5198 1.54013 0.0027697 10
6.83242 -10.521 1.98691 0.00272332 10
6.83709 -10.5282 2.44014 0.0026662 10
6.8367 -10.5276 2.89802 0.00259887 10
6.84621 -10.5422 3.36817 0.00252199 10
5.57072 -8.51295 -2.72602 0.000615074 1
6.46834 -9.88466 -2.72724 0.000382226 1
6.87208 -10.5016 -2.43953 0.00341697 10
6.87353 -10.5039 -1.98819 0.0034901 10
6.86985 -10.4982 -1.54048 0.00234451 10
6.86931 -10.4974 -1.09757 0.00237424 10
6.87294 -10.503 -0.657816 0.00239421 10
6.87488 -10.5059 -0.219155 0.00240423 10
6.87186 -10.5013 0.219059 0.00240421 10
6.87155 -10.5008 0.657682 0.00239413 10
6.87578 -10.5073 1.0986 0.00280249 10
6.86999 -10.4984 1.54051 0.00276732 10
6.87021 -10.4988 1.98723 0.00272098 10
6.87641 -10.5083 2.44107 0.00266391 10
6.87858 -10.5116 2.90021 0.00259664 10
6.87664 -10.5086 3.36507 0.00251982 10
5.59571 -8.48634 -2.72374 0.000615106 1
6.49399 -9.84865 -2.72354 0.00038225 1
6.90781 -10.4763 -2.43922 0.00341389 10
6.91868 -10.4927 -1.99064 0.00348696 10
11.4136 -17.3096 -2.54579 0.000120348 10
15.5561 -23.5921 -2.47236 0.000410691 10
16.8483 -25.5518 -1.60402 0.000325902 10
16.8585 -25.5673 -0.534564 0.000327515 10
16.847 -25.5499 0.534198 0.00032751 10
11.0644 -16.7801 1.05338 5.78399e-05 10
6.92395 -10.5007 1.10043 0.00279997 10
6.9095 -10.4788 1.54116 0.00276484 10
6.92386 -10.5006 1.99214 0.00271853 10
6.92092 -10.4961 2.44385 0.0026615 10
6.91673 -10.4898 2.90083 0.00259429 10
6.91857 -10.4926 3.36765 0.00251754 10
5.62804 -8.47088 -2.72507 0.000615138 1
6.54191 -9.84637 -2.72921 0.000382273 1
6.94813 -10.4578 -2.44055 0.00341067 10
6.95346 -10.4658 -1.99013 0.00348367 10
11.481 -17.2803 -2.54737 0.000120364 10
15.649 -23.5536 -2.47403 0.000410243 10
16.9473 -25.5078 -1.60496 0.000325539 10
16.9482 -25.5091 -0.534579 0.000327151 10
16.949 -25.5103 0.534605 0.000327146 10
11.1216 -16.7393 1.05325 5.78228e-05 10
6.95631 -10.4701 1.09976 0.00279733 10
6.95299 -10.4651 1.5427 0.00276223 10
6.95009 -10.4607 1.98916 0.00271597 10
6.95435 -10.4671 2.44273 0.002659 10
6.9494 -10.4597 2.8992 0.00259185 10
6.95021 -10.4609 3.36525 0.00251516 10
5.66307 -8.4594 -2.72771 0.000615171 1
6.56976 -9.8138 -2.72652 0.000382297 1
6.99686 -10.4518 -2.44484 0.00340732 10
6.99585 -10.4503 -1.99181 0.00348024 10
11.5432 -17.243 -2.54779 0.000120379 10
15.7306 -23.4981 -2.47395 0.000409775 10
15.7312 -23.499 -1.48201 0.000273308 10
15.7364 -23.5068 -0.493766 0.000274634 10
15.7297 -23.4968 0.493556 0.00027463 10
11.1793 -16.6995 1.05319 5.78058e-05 10
6.98509 -10.4342 1.09855 0.00279458 10
6.99175 -10.4442 1.54321 0.00275951 10
6.99418 -10.4478 1.99133 0.0027133 10
7.0004 -10.4571 2.44607 0.00265638 10
6.99681 -10.4517 2.90375 0.00258929 10
6.99869 -10.4545 3.37104 0.00251268 10
5.69311 -8.44039 -2.72798 0.000615203 1
6.61022 -9.80006 -2.72909 0.000382321 1
7.02452 -10.4143 -2.44179 0.00340381 10
7.02869 -10.4205 -1.99079 0.00347667 10
11.5919 -17.1857 -2.54529 0.000120394 10
15.8252 -23.4618 -2.47593 0.000409288 10
11.2434 -16.669 1.05374 5.77887e-05 10
7.02369 -10.4131 1.09889 0.00279171 10
7.02782 -10.4192 1.54313 0.00275668 10
7.03826 -10.4347 1.9935 0.00271051 10
7.03 -10.4224 2.44369 0.00265364 10
7.03397 -10.4283 2.90404 0.00258663 10
7.02552 -10.4158 3.36643 0.00251009 10
5.7225 -8.42041 -2.72796 0.000615236 1
6.64232 -9.77388 -2.72824 0.000382344 1
7.06962 -10.4026 -2.44483 0.00340017 10
7.07777 -10.4146 -1.99438 0.00347296 10
7.07078 -10.4043 -1.54458 0.002333 10
7.07774 -10.4146 -1.10166 0.00236259 10
7.07605 -10.4121 -0.65976 0.00238247 10
7.06992 -10.4031 -0.219551 0.00239244 10
7.06866 -10.4012 0.219512 0.00239241 10
7.06954 -10.4025 0.659153 0.00238238 10
7.07405 -10.4092 1.10108 0.00278873 10
7.0679 -10.4001 1.54395 0.00275374 10
7.06957 -10.4026 1.99207 0.00270762 10
7.06489 -10.3957 2.44319 0.00265081 10
7.06182 -10.3912 2.90055 0.00258386 10
7.07306 -10.4077 3.37178 0.0025074 10
5.7479 -8.39459 -2.72608 0.000615268 1
6.67436 -9.74766 -2.72741 0.000382368 1
7.11033 -10.3844 -2.44635 0.00339639 10
7.11426 -10.3901 -1.99443 0.00346909 10
7.10503 -10.3766 -1.54414 0.0023304 10
7.10238 -10.3728 -1.09985 0.00235997 10
7.1065 -10.3788 -0.659218 0.00237982 10
7.10559 -10.3775 -0.219533 0.00238979 10
7.11646 -10.3933 0.219868 0.00238976 10
7.10355 -10.3745 0.658944 0.00237974 10
7.11239 -10.3874 1.1014 0.00278564 10
7.11538 -10.3917 1.54639 0.00275068 10
7.11502 -10.3912 1.99465 0.00270461 10
7.11665 -10.3936 2.44853 0.00264786 10
7.11673 -10.3937 2.90818 0.00258098 10
7.10173 -10.3718 3.36817 0.00250461 10
5.77606 -8.37288 -2.72556 0.0006153 1
6.69834 -9.70979 -2.72334 0.000382392 1
7.14289 -10.3542 -2.44511 0.00339247 10
7.15476 -10.3714 -1.99562 0.00346509 10
11.7705 -17.0624 -2.54514 0.00012044 10
16.0742 -23.3009 -2.47659 0.00040771 10
11.4065 -16.5346 1.05273 5.77376e-05 10
7.1387 -10.3481 1.09987 0.00278243 10
7.15118 -10.3662 1.5463 0.00274751 10
7.1452 -10.3576 1.99296 0.00270149 10
7.15358 -10.3697 2.44876 0.0026448 10
7.15448 -10.371 2.9088 0.002578 10
7.14998 -10.3645 3.37387 0.00250171 10
5.80061 -8.34599 -2.72338 0.000615332 1
6.74071 -9.69861 -2.72679 0.000382415 1
7.19273 -10.349 -2.44979 0.00338841 10
7.17871 -10.3288 -1.99224 0.00346095 10
11.8389 -17.0339 -2.54704 0.000120455 10
16.1628 -23.2553 -2.47771 0.000407145 10
16.1667 -23.2608 -1.48456 0.000271555 10
16.1675 -23.262 -0.494477 0.000272873 10
16.1668 -23.261 0.494457 0.000272869 10
11.4664 -16.4979 1.05294 5.77205e-05 10
7.18406 -10.3365 1.10129 0.0027791 10
7.17963 -10.3301 1.54464 0.00274422 10
7.18247 -10.3342 1.99328 0.00269825 10
7.18522 -10.3382 2.44723 0.00264163 10
7.18087 -10.3319 2.90485 0.00257491 10
7.19317 -10.3496 3.37718 0.00249871 10
5.82971 -8.32569 -2.72338 0.000615365 1
6.76798 -9.66568 -2.72416 0.000382439 1
7.23248 -10.3291 -2.45103 0.00338421 10
7.22111 -10.3128 -1.994 0.00345666 10
11.8881 -16.9779 -2.54486 0.00012047 10
16.2559 -23.2158 -2.47954 0.000406562 10
11.5318 -16.4691 1.05366 5.77035e-05 10
7.22986 -10.3253 1.10278 0.00277566 10
7.23155 -10.3277 1.54805 0.00274083 10
7.22905 -10.3241 1.99619 0.00269491 10
7.22888 -10.3239 2.44981 0.00263836 10
7.21664 -10.3064 2.90474 0.00257171 10
7.21902 -10.3098 3.3724 0.0024956 10
5.87198 -8.32407 -2.72954 0.000615397 1
6.80522 -9.64701 -2.72557 0.000382463 1
7.26864 -10.304 -2.45108 0.00337987 10
7.27123 -10.3076 -1.99789 0.00345224 10
11.9491 -16.9389 -2.54525 0.000120486 10
16.3508 -23.1787 -2.48166 0.000405959 10
11.596 -16.4384 1.05428 5.76865e-05 10
7.26579 -10.2999 1.10277 0.00277211 10
7.27045 -10.3065 1.54866 0.00273732 10
7.25968 -10.2913 1.99472 0.00269146 10
7.25884 -10.2901 2.44777 0.00263498 10
7.27045 -10.3065 2.91191 0.00256841 10
7.25602 -10.2861 3.37289 0.0024924 10
5.89503 -8.29511 -2.72677 0.000615429 1
6.83566 -9.61871 -2.7243 0.000382486 1
7.30257 -10.2757 -2.45041 0.00337539 10
7.29934 -10.2712 -1.99575 0.00344767 10
7.30696 -10.2819 -1.54878 0.00231602 10
7.30834 -10.2838 -1.10378 0.0023454 10
7.30355 -10.2771 -0.660755 0.00236514 10
7.30835 -10.2838 -0.220217 0.00237505 10
7.29967 -10.2716 0.219955 0.00237502 10
7.30529 -10.2795 0.660912 0.00236506 10
7.29309 -10.2624 1.10147 0.00276845 10
7.29632 -10.2669 1.54653 0.0027337 10
7.30163 -10.2744 1.99638 0.0026879 10
7.30752 -10.2827 2.45207 0.00263149 10
7.30954 -10.2855 2.91316 0.00256501 10
7.29807 -10.2694 3.37576 0.00248909 10
5.93093 -8.28424 -2.72999 0.000615462 1
6.87646 -9.60495 -2.72719 0.00038251 1
7.33222 -10.2415 -2.44835 0.00337078 10
7.33716 -10.2484 -1.9963 0.00344296 10
7.34057 -10.2532 -1.54831 0.00231286 10
7.34064 -10.2533 -1.10324 0.00234221 10
7.33428 -10.2444 -0.660296 0.00236192 10
7.33565 -10.2463 -0.219961 0.00237181 10
7.34305 -10.2567 0.220183 0.00237178 10
7.33356 -10.2434 0.660232 0.00236183 10
7.34391 -10.2579 1.10373 0.00276467 10
7.33332 -10.2431 1.54678 0.00272997 10
7.33475 -10.2451 1.99565 0.00268423 10
7.33934 -10.2515 2.45073 0.00262789 10
7.3479 -10.2634 2.91416 0.0025615 10
7.34124 -10.2541 3.37915 0.00248568 10
5.95164 -8.25216 -2.72625 0.000615494 1
6.90345 -9.57187 -2.72462 0.000382534 1
7.37192 -10.2214 -2.44968 0.00336603 10
7.37094 -10.2201 -1.99577 0.00343811 10
12.1215 -16.8069 -2.54434 0.000120532 10
16.6079 -23.0275 -2.48395 0.000404036 10
16.6469 -23.0815 -1.49144 4.81765e-05 10
16.6434 -23.0767 -0.496638 4.84793e-05 10
16.6293 -23.0571 0.496215 4.85475e-05 10
11.7708 -16.3206 1.05458 5.76354e-05 10
7.38595 -10.2409 1.10467 0.00276078 10
7.37524 -10.226 1.54809 0.00272613 10
7.37309 -10.2231 1.99636 0.00268045 10
7.3868 -10.242 2.45462 0.00262419 10
7.37286 -10.2227 2.90989 0.00255789 10
7.377 -10.2285 3.37915 0.00248217 10
5.97919 -8.22965 -2.72569 0.000615526 1
6.9474 -9.56227 -2.72877 0.000382557 1
7.42259 -10.2163 -2.45465 0.00336114 10
7.42241 -10.2161 -2.00004 0.00343312 10
12.183 -16.7684 -2.54495 0.000120547 10
16.4794 -22.682 -2.45288 0.000419117 10
16.4785 -22.6807 -1.46925 0.000423196 10
16.4711 -22.6705 -0.489131 0.000425245 10
16.4746 -22.6753 0.489234 0.000425239 10
11.8171 -16.2649 1.05363 5.76184e-05 10
7.41222 -10.202 1.10327 0.00275678 10
7.42001 -10.2128 1.54999 0.00272217 10
7.41068 -10.1999 1.99688 0.00267656 10
7.42126 -10.2145 2.45421 0.00262038 10
7.4263 -10.2214 2.91688 0.00255417 10
7.4202 -10.213 3.38259 0.00247856 10
6.00138 -8.19985 -2.72274 0.000615559 1
6.97643 -9.53209 -2.72709 0.000382581 1
7.45026 -10.1795 -2.45203 0.00335612 10
7.45547 -10.1866 -1.99936 0.003428 10
12.2379 -16.721 -2.54422 0.000120562 10
16.5634 -22.631 -2.4536 0.000418394 10
16.5732 -22.6444 -1.47063 0.000422467 10
16.5648 -22.6329 -0.489565 0.000424512 10
16.5637 -22.6314 0.489532 0.000424507 10
11.8718 -16.2207 1.05345 5.76015e-05 10
7.44965 -10.1787 1.10354 0.00275267 10
7.45529 -10.1864 1.54993 0.00271811 10
7.45395 -10.1845 1.99895 0.00267256 10
7.46279 -10.1966 2.45616 0.00261646 10
7.46186 -10.1953 2.91685 0.00255035 10
7.45905 -10.1915 3.38406 0.00247485 10
6.03773 -8.18938 -2.72625 0.000615591 1
7.01145 -9.5101 -2.72779 0.000382605 1
7.50087 -10.1739 -2.45698 0.00335096 10
7.49883 -10.1712 -2.00145 0.00342273 10
12.3033 -16.6878 -2.54568 0.000120577 10
16.6571 -22.5932 -2.45579 0.000417652 10
16.6458 -22.5778 -1.47007 0.000421719 10
16.6485 -22.5814 -0.489705 0.00042376 10
16.6452 -22.577 0.489608 0.000423755 10
11.9267 -16.177 1.05331 5.75845e-05 10
7.4888 -10.1576 1.10409 0.00274845 10
7.49112 -10.1607 1.54999 0.00271394 10
7.50338 -10.1773 2.00266 0.00266846 10
7.49608 -10.1674 2.45542 0.00261244 10
7.48866 -10.1574 2.91344 0.00254642 10
7.49113 -10.1607 3.3825 0.00247104 10
6.07208 -8.17606 -2.72885 0.000615623 1
7.03093 -9.46715 -2.72249 0.000382628 1
7.53421 -10.1448 -2.45629 0.00334567 10
7.53628 -10.1476 -2.00198 0.00341733 10
7.52774 -10.1361 -1.55024 0.00229565 10
7.53425 -10.1449 -1.10556 0.00232479 10
7.53618 -10.1475 -0.662425 0.00234436 10
7.53036 -10.1396 -0.220459 0.00235418 10
7.53561 -10.1467 0.220612 0.00235415 10
7.52915 -10.138 0.661807 0.00234428 10
7.53085 -10.1403 1.10506 0.00274411 10
7.53701 -10.1486 1.55215 0.00270966 10
7.53229 -10.1422 2.00092 0.00266425 10
7.53268 -10.1428 2.45579 0.00260831 10
7.53493 -10.1458 2.91765 0.0025424 10
7.52713 -10.1353 3.38276 0.00246712 10
6.10125 -8.15571 -2.72915 0.000615655 1
7.06954 -9.45005 -2.72465 0.000382652 1
7.56701 -10.115 -2.45546 0.00334024 10
7.56788 -10.1162 -2.00098 0.00341179 10
7.56898 -10.1177 -1.55145 0.00229193 10
7.56737 -10.1155 -1.10523 0.00232102 10
7.57689 -10.1282 -0.662892 0.00234056 10
7.57067 -10.1199 -0.220603 0.00235037 10
7.58038 -10.1329 0.220886 0.00235034 10
7.57245 -10.1223 0.662504 0.00234048 10
7.5797 -10.132 1.10703 0.00273967 10
7.57455 -10.1251 1.55259 0.00270527 10
7.57687 -10.1282 2.00336 0.00265993 10
7.5723 -10.1221 2.45717 0.00260408 10
7.58094 -10.1336 2.92175 0.00253827 10
7.56802 -10.1164 3.38525 0.00246311 10
6.12666 -8.13035 -2.7278 0.000615687 1
7.11295 -9.43921 -2.72867 0.000382676 1
7.61171 -10.1011 -2.45851 0.00333468 10
7.61005 -10.0989 -2.0028 0.00340611 10
12.4759 -16.5561 -2.54538 0.000120623 10
17.5105 -23.2372 -2.54558 3.30985e-05 10
12.1014 -16.0591 1.05382 5.75335e-05 10
7.61631 -10.1072 1.10722 0.00273511 10
7.61511 -10.1056 1.55366 0.00270077 10
7.61111 -10.1003 2.00308 0.0026555 10
7.61081 -10.0999 2.45822 0.00259974 10
7.60904 -10.0975 2.91898 0.00253404 10
7.61454 -10.1048 3.39026 0.002459 10
6.14466 -8.09529 -2.72322 0.00061572 1
7.13247 -9.39669 -2.72356 0.000382699 1
7.64621 -10.0735 -2.45828 0.00332898 10
7.65991 -10.0916 -2.00664 0.0034003 10
12.5326 -16.5111 -2.54517 0.000120638 10
17.5801 -23.161 -2.54394 3.31049e-05 10
12.1642 -16.0258 1.05442 5.75166e-05 10
7.64652 -10.0739 1.10649 0.00273045 10
7.65566 -10.086 1.55474 0.00269616 10
7.65054 -10.0792 2.00418 0.00265097 10
7.64533 -10.0724 2.458 0.0025953 10
7.65646 -10.087 2.92365 0.0025297 10
7.6588 -10.0901 3.39427 0.00245479 10
6.18269 -8.08662 -2.72755 0.000615752 1
7.16718 -9.37428 -2.7243 0.000382723 1
7.6871 -10.0543 -2.46013 0.00332315 10
7.69343 -10.0626 -2.0062 0.00339435 10
12.5961 -16.475 -2.54638 0.000120654 10
17.6717 -23.1137 -2.5455 3.31112e-05 10
12.2136 -15.9747 1.05386 5.74996e-05 10
7.69717 -10.0675 1.10873 0.00272568 10
7.68586 -10.0527 1.55374 0.00269145 10
7.69026 -10.0584 2.00538 0.00264633 10
7.69203 -10.0608 2.46171 0.00259076 10
7.69304 -10.0621 2.92418 0.00252527 10
7.69327 -10.0624 3.39395 0.00245048 10
6.20089 -8.05202 -2.72316 0.000615784 1
7.20956 -9.36181 -2.72797 0.000382747 1
7.72895 -10.0362 -2.46229 0.00331719 10
7.72059 -10.0254 -2.00415 0.00338826 10
12.6473 -16.4229 -2.54512 0.000120669 10
13.7491 -17.8536 -1.97148 0.000118184 10
13.7415 -17.8437 -1.18031 0.000119407 10
13.7311 -17.8303 -0.392822 0.000120086 10
13.7318 -17.8311 0.392841 0.000120212 10
12.2825 -15.9492 1.05499 5.74826e-05 10
7.73775 -10.0477 1.10952 0.0027208 10
7.72796 -10.035 1.55516 0.00268662 10
7.73821 -10.0483 2.00872 0.00264158 10
7.72284 -10.0283 2.46035 0.00258611 10
7.73591 -10.0453 2.92713 0.00252073 10
7.72634 -10.0329 3.39307 0.00244608 10
6.23187 -8.03408 -2.72443 0.000615816 1
7.22985 -9.32067 -2.72332 0.00038277 1
7.77089 -10.0182 -2.4645 0.00331109 10
7.76978 -10.0167 -2.00783 0.00338204 10
7.75988 -10.004 -1.55455 0.00227196 10
7.77581 -10.0245 -1.10995 0.00230081 10
7.77198 -10.0196 -0.664558 0.00232018 10
7.76013 -10.0043 -0.221002 0.00232991 10
7.76337 -10.0085 0.221094 0.00232988 10
7.76383 -10.0091 0.663861 0.0023201 10
7.77406 -10.0223 1.1097 0.00271581 10
7.76339 -10.0085 1.55525 0.00268169 10
7.76182 -10.0065 2.00577 0.00263673 10
7.77285 -10.0207 2.46512 0.00258136 10
7.7667 -10.0128 2.92554 0.0025161 10
7.76869 -10.0153 3.3963 0.00244157 10
6.26744 -8.02196 -2.72773 0.000615849 1
7.26591 -9.29994 -2.72466 0.000382794 1
7.80943 -9.99561 -2.46564 0.00330487 10
7.80103 -9.98487 -2.00689 0.00337569 10
7.80382 -9.98844 -1.55636 0.0022677 10
7.81016 -9.99655 -1.10986 0.00229649 10
7.7999 -9.98342 -0.663961 0.00231583 10
7.80816 -9.99399 -0.221375 0.00232554 10
7.81381 -10.0012 0.221535 0.00232551 10
7.79917 -9.98249 0.663899 0.00231575 10
7.80566 -9.99079 1.10922 0.00271071 10
7.80966 -9.99591 1.55752 0.00267666 10
7.79912 -9.98243 2.0064 0.00263178 10
7.80228 -9.98646 2.46338 0.0025765 10
7.80307 -9.98748 2.92609 0.00251136 10
7.80092 -9.98472 3.39513 0.00243697 10
6.29006 -7.99324 -2.72541 0.000615881 1
7.29979 -9.27638 -2.72521 0.000382818 1
7.84815 -9.97323 -2.46686 0.00329851 10
7.83884 -9.96139 -2.00765 0.0033692 10
12.8203 -16.2917 -2.54546 0.000120715 10
13.717 -17.4312 -1.94059 0.000817307 10
13.7146 -17.4281 -1.16226 0.000824853 10
13.7125 -17.4254 -0.387045 0.000828641 10
13.7042 -17.4149 0.386811 0.00082863 10
12.4399 -15.8083 1.05423 5.74318e-05 10
7.8422 -9.96566 1.10947 0.00270551 10
7.84605 -9.97055 1.55783 0.00267152 10
7.84072 -9.96378 2.00814 0.00262672 10
7.84424 -9.96825 2.46563 0.00257155 10
7.84214 -9.96558 2.92768 0.00250652 10
7.85182 -9.97789 3.4021 0.00243227 10
6.31776 -7.97103 -2.72534 0.000615913 1
7.3265 -9.24374 -2.72311 0.000382841 1
7.87795 -9.9395 -2.4653 0.00329202 10
7.89443 -9.96029 -2.01297 0.00336258 10
12.8703 -16.2383 -2.54412 0.00012073 10
13.7846 -17.3918 -1.94156 0.000815549 10
13.7725 -17.3765 -1.16202 0.00082308 10
13.7881 -17.3962 -0.387463 0.00082686 10
13.784 -17.3911 0.387348 0.00082685 10
12.4978 -15.7683 1.05447 5.74149e-05 10
7.87884 -9.94062 1.10973 0.00270019 10
7.89165 -9.95679 1.55997 0.00266627 10
7.88945 -9.95401 2.01171 0.00262156 10
7.8952 -9.96127 2.4707 0.00256649 10
7.89111 -9.95611 2.93297 0.00250159 10
7.87978 -9.94181 3.39916 0.00242748 10
6.34092 -7.94314 -2.72335 0.000615945 1
7.36162 -9.22174 -2.72419 0.000382865 1
7.92061 -9.92198 -2.4678 0.00328541 10
7.93008 -9.93385 -2.01321 0.00335582 10
12.9301 -16.1973 -2.54476 0.000120745 10
13.8455 -17.344 -1.9416 0.000813756 10
13.8404 -17.3376 -1.16263 0.000821272 10
13.8429 -17.3407 -0.3873 0.000825044 10
13.8545 -17.3552 0.387625 0.000825033 10
12.5667 -15.742 1.05564 5.7398e-05 10
7.92118 -9.92269 1.11081 0.00269478 10
7.92405 -9.92629 1.55952 0.00266092 10
7.92382 -9.926 2.01162 0.00261629 10
7.92603 -9.92877 2.46949 0.00256133 10
7.91687 -9.91729 2.92966 0.00249656 10
7.91954 -9.92063 3.40135 0.00242259 10
6.36524 -7.91677 -2.72191 0.000615977 1
7.39795 -9.2012 -2.72573 0.000382888 1
7.97122 -9.9142 -2.47277 0.00327866 10
7.95853 -9.89842 -2.01165 0.00334894 10
12.9894 -16.1555 -2.5453 0.00012076 10
18.2178 -22.6584 -2.54364 3.31555e-05 10
8.0751 -10.0434 0.224945 0.000384655 10
8.06825 -10.0349 0.674811 0.000383366 10
7.95802 -9.89778 1.11113 0.00268926 10
7.96672 -9.9086 1.5611 0.00265546 10
7.97282 -9.91618 2.01526 0.00261093 10
7.9668 -9.9087 2.4714 0.00255607 10
7.95626 -9.89559 2.93143 0.00249143 10
7.97338 -9.91688 3.40959 0.00241761 10
6.40512 -7.90967 -2.72715 0.00061601 1
7.4258 -9.1701 -2.72418 0.000382912 1
8.00102 -9.88044 -2.4713 0.00327179 10
8.00341 -9.8834 -2.01426 0.00334193 10
8.00169 -9.88127 -1.56118 0.00224503 10
7.99656 -9.87493 -1.11169 0.00227355 10
8.00207 -9.88173 -0.666387 0.0022927 10
8.00484 -9.88516 -0.222025 0.00230232 10
8.01278 -9.89496 0.222245 0.00230229 10
8.013 -9.89523 0.667297 0.00229262 10
7.99732 -9.87587 1.11179 0.00268363 10
8.00618 -9.88681 1.56206 0.0026499 10
8.00259 -9.88238 2.01406 0.00260546 10
8.00598 -9.88656 2.47283 0.00255071 10
7.99929 -9.87831 2.93457 0.0024862 10
8.00669 -9.88744 3.40905 0.00241253 10
6.43307 -7.88772 -2.7273 0.000616042 1
7.45717 -9.1434 -2.72396 0.000382936 1
8.0415 -9.85986 -2.47316 0.00326479 10
8.03871 -9.85644 -2.01447 0.00333478 10
8.04392 -9.86283 -1.5627 0.00224023 10
8.05317 -9.87417 -1.11476 0.00226869 10
8.05218 -9.87296 -0.667686 0.00228781 10
8.05148 -9.87209 -0.222362 0.0022974 10
8.04363 -9.86247 0.222145 0.00229737 10
8.04326 -9.86202 0.666947 0.00228773 10
8.04969 -9.8699 1.11428 0.0026779 10
8.04635 -9.8658 1.56317 0.00264424 10
8.03474 -9.85156 2.01348 0.00259989 10
8.03838 -9.85603 2.4722 0.00254526 10
8.04537 -9.8646 2.93882 0.00248087 10
8.05052 -9.87092 3.41302 0.00240735 10
6.46273 -7.86786 -2.72822 0.000616074 1
7.48423 -9.11145 -2.72221 0.000382959 1
8.08887 -9.84756 -2.47714 0.00325766 10
8.07891 -9.83543 -2.01593 0.00332751 10
13.1451 -16.0031 -2.54283 0.000120806 10
18.4467 -22.4574 -2.54262 3.31744e-05 10
12.7886 -15.5691 1.05592 5.73305e-05 10
8.08139 -9.83844 1.11391 0.00267206 10
8.09017 -9.84913 1.56499 0.00263848 10
8.07618 -9.83211 2.01525 0.00259421 10
8.07625 -9.83219 2.47328 0.0025397 10
8.09163 -9.85092 2.94314 0.00247545 10
8.07711 -9.83324 3.40973 0.00240209 10
6.48482 -7.8388 -2.72598 0.000616106 1
7.51652 -9.08591 -2.7224 0.000382983 1
8.13129 -9.82905 -2.47961 0.00325041 10
8.11663 -9.81132 -2.01679 0.0033201 10
13.2139 -15.9728 -2.54534 0.000120821 10
18.5382 -22.4088 -2.54443 3.31808e-05 10
12.833 -15.5125 1.05511 5.73136e-05 10
8.12885 -9.82609 1.11571 0.00266612 10
8.12811 -9.8252 1.56569 0.00263261 10
8.11613 -9.81072 2.01666 0.00258844 10
8.12198 -9.81779 2.47677 0.00253404 10
8.12797 -9.82504 2.94387 0.00246993 10
8.11941 -9.81468 3.4131 0.00239673 10
6.5189 -7.82423 -2.7288 0.000616138 1
7.55491 -9.06769 -2.72483 0.000383006 1
8.15291 -9.78543 -2.47577 0.00324303 10
8.1672 -9.80258 -2.02084 0.00331257 10
11.5137 -13.8191 -2.20853 0.000269017 10
11.5081 -13.8125 -1.5729 0.000272843 10
11.5055 -13.8093 -0.941988 0.000275491 10
11.5017 -13.8048 -0.31364 0.000276934 10
11.4871 -13.7873 0.31324 0.000277158 10
11.498 -13.8003 0.941376 0.000276159 10
8.155 -9.78793 1.11461 0.00266008 10
8.16381 -9.79851 1.56597 0.00262664 10
8.16588 -9.801 2.02051 0.00258257 10
8.17021 -9.80619 2.48102 0.00252829 10
8.16358 -9.79823 2.94436 0.00246432 10
8.15553 -9.78858 3.4139 0.00239127 10
6.5319 -7.78441 -2.72285 0.000616171 1
7.59426 -9.05049 -2.72761 0.00038303 1
8.19919 -9.77141 -2.47945 0.00323552 10
8.20015 -9.77256 -2.02054 0.00330491 10
8.31465 -9.90902 -1.58826 0.00041737 10
8.29719 -9.88821 -1.12932 0.000423011 10
8.29526 -9.8859 -0.676329 0.000426911 10
8.30126 -9.89306 -0.225423 0.000429033 10
8.30194 -9.89387 0.225441 0.000429357 10
8.29983 -9.89135 0.676702 0.000427878 10
8.20557 -9.77902 1.11685 0.00265394 10
8.19621 -9.76787 1.56563 0.00262057 10
8.19438 -9.76569 2.01912 0.0025766 10
8.20829 -9.78226 2.4822 0.00252244 10
8.19961 -9.77192 2.94503 0.00245861 10
8.2088 -9.78287 3.42188 0.00238573 10
6.56551 -7.76923 -2.72554 0.000616203 1
7.62151 -9.01884 -2.72607 0.000383053 1
8.24194 -9.75302 -2.48207 0.00322789 10
8.23528 -9.74514 -2.0208 0.00329712 10
8.23281 -9.74221 -1.56612 0.00221495 10
8.24644 -9.75834 -1.11777 0.0022431 10
8.25032 -9.76294 -0.669883 0.00226201 10
8.23564 -9.74556 -0.222716 0.0022715 10
8.24227 -9.75341 0.222895 0.00227147 10
8.23852 -9.74897 0.668925 0.00226193 10
8.23557 -9.74549 1.11629 0.00264769 10
8.24438 -9.75591 1.56832 0.0026144 10
8.24179 -9.75284 2.0224 0.00257053 10
8.23317 -9.74265 2.47943 0.00251649 10
8.24692 -9.75891 2.94977 0.00245281 10
8.2478 -9.75996 3.42391 0.00238009 10
6.58901 -7.74206 -2.72406 0.000616235 1
7.65831 -8.99848 -2.72798 0.000383077 1
8.28569 -9.73565 -2.485 0.00322014 10
8.27808 -9.72671 -2.02296 0.00328921 10
8.27615 -9.72444 -1.56789 0.00220964 10
8.2793 -9.72815 -1.11761 0.00223773 10
8.28308 -9.73258 -0.66978 0.00225659 10
8.27275 -9.72045 -0.2228 0.00226606 10
8.28832 -9.73875 0.22322 0.00226603 10
8.2777 -9.72626 0.669345 0.00225651 10
8.28097 -9.73011 1.11784 0.00264135 10
8.28443 -9.73418 1.56946 0.00260813 10
8.28181 -9.73109 2.02387 0.00256436 10
8.28831 -9.73873 2.48578 0.00251045 10
8.28524 -9.73512 2.9513 0.00244691 10
8.27704 -9.72549 3.42194 0.00237436 10
6.62285 -7.72702 -2.72689 0.000616267 1
7.68143 -8.96208 -2.72506 0.000383101 1
8.316 -9.70245 -2.48391 0.00321227 10
8.31193 -9.69771 -2.02295 0.00328117 10
11.4302 -13.3358 -2.15658 0.00149691 10
11.4281 -13.3333 -1.53636 0.00151686 10
11.4361 -13.3427 -0.920965 0.00153027 10
11.4221 -13.3264 -0.306364 0.001537 10
11.4302 -13.3358 0.306581 0.00153698 10
11.4264 -13.3314 0.920181 0.00153021 10
8.31806 -9.70485 1.11826 0.0026349 10
8.32308 -9.71071 1.57035 0.00260176 10
8.32218 -9.70966 2.02544 0.00255809 10
8.31976 -9.70683 2.48504 0.00250431 10
8.32511 -9.71308 2.95341 0.00244092 10
8.31532 -9.70165 3.42374 0.00236854 10
6.63771 -7.68986 -2.72194 0.000616299 1
7.7132 -8.93583 -2.72525 0.000383124 1
8.35537 -9.67979 -2.48557 0.00320427 10
8.36661 -9.69282 -2.02801 0.00327301 10
11.483 -13.3032 -2.15777 0.00149301 10
11.4867 -13.3074 -1.53799 0.00151291 10
11.4818 -13.3018 -0.920902 0.00152629 10
11.4798 -13.2995 -0.306665 0.001533 10
11.4781 -13.2975 0.306618 0.00153298 10
11.4846 -13.305 0.921126 0.00152623 10
8.35485 -9.67919 1.11866 0.00262835 10
8.35542 -9.67985 1.57007 0.00259529 10
8.31076 -9.62811 2.01447 0.00041848 10
8.24927 -9.55688 2.454 0.000539639 10
