VERSION 0.7
FIELDS x y z intensity label
SIZE 4 4 4 4 4
TYPE F F F F F
COUNT 1 1 1 1 1
WIDTH 1200
HEIGHT 1
VIEWPOINT 18.9088 52.4815 2.72904 0.968548 0.000462766 0.000495474 -0.248827
POINTS 1200
DATA ascii
10.9467 8.07058 -2.6436 0.000125184 4
7.93785 5.89517 -2.64934 0.000313296 4
10.9299 8.11726 -2.64638 7.8234e-05 4
7.89733 5.90796 -2.64269 0.000132541 4
10.8936 8.14946 -2.64446 9.24513e-05 4
13.3618 9.99593 -2.64297 3.39342e-05 4
7.87598 5.93498 -2.64246 0.000345392 4
9.15561 6.89924 -2.64669 0.000120132 4
10.8621 8.18516 -2.64373 6.96887e-05 4
13.3345 10.0483 -2.64448 3.39309e-05 4
7.86722 5.97154 -2.6465 0.000156623 4
9.13469 6.93361 -2.64762 8.00828e-05 4
10.8338 8.22333 -2.64382 4.12411e-05 4
13.2785 10.0789 -2.64034 4.09958e-05 4
7.83574 5.99088 -2.64293 0.000389528 4
9.09684 6.95506 -2.64367 0.000115112 4
10.8028 8.25934 -2.64326 3.2706e-05 4
13.2591 10.1374 -2.64351 5.86607e-05 4
17.0839 13.0616 -2.64049 7.24475e-05 4
7.82281 6.02437 -2.64564 0.000273056 4
10.7778 8.29999 -2.64421 8.81571e-05 4
7.81286 6.06028 -2.64942 0.000248949 4
9.0576 7.0258 -2.64646 0.000230194 4
10.7506 8.33899 -2.64467 6.11365e-05 4
13.1804 10.2237 -2.64197 7.06617e-05 4
7.7914 6.0873 -2.64933 0.000317193 4
9.03098 7.05577 -2.64586 9.25721e-05 4
10.709 8.3668 -2.64162 0.000106625 4
13.1373 10.264 -2.6405 4.3806e-05 4
7.76652 6.11165 -2.64811 0.000188699 4
8.99897 7.08149 -2.64371 0.000160114 4
10.6882 8.4108 -2.64371 8.52935e-05 4
13.1203 10.3246 -2.64431 4.66276e-05 4
16.9025 13.301 -2.6409 2.89637e-05 4
7.74974 6.14236 -2.64968 0.000236865 4
8.97174 7.11091 -2.64298 0.000145094 4
10.6527 8.44324 -2.64221 4.1222e-05 4
7.72966 6.17051 -2.65016 0.000228823 4
8.94601 7.1415 -2.64273 0.00015259 4
13.0354 10.4061 -2.64179 5.01501e-05 4
7.6979 6.18927 -2.64667 3.6128e-05 4
8.92586 7.17658 -2.64416 6.25327e-05 4
7.67414 6.2144 -2.64594 0.000276966 4
8.90049 7.20747 -2.64408 0.000107549 4
10.5653 8.55561 -2.6426 8.52669e-05 4
12.9748 10.5067 -2.64429 7.48572e-05 4
22.467 18.1934 -2.52926 3.27671e-05 4
7.65321 6.2418 -2.64622 0.000136469 4
8.87485 7.23815 -2.64396 8.75344e-05 4
10.5423 8.59813 -2.64435 0.000105154 4
7.63023 6.26754 -2.64582 0.000144488 4
8.84686 7.26689 -2.64316 5.25173e-05 4
10.5184 8.63993 -2.6459 6.96237e-05 4
12.884 10.5831 -2.64079 5.22485e-05 4
7.60905 6.29475 -2.64608 0.000228761 4
8.8272 7.30249 -2.64489 9.50251e-05 4
10.4913 8.67917 -2.64669 0.000156286 4
12.8492 10.6298 -2.64124 5.08313e-05 4
7.58651 6.32084 -2.6459 0.000140459 4
8.79692 7.32932 -2.64346 4.0008e-05 4
10.4559 8.71151 -2.6454 4.26201e-05 4
12.8163 10.6781 -2.64212 2.96487e-05 4
16.5315 13.7735 -2.642 6.21206e-05 4
7.57505 6.35622 -2.64962 0.000156503 4
8.78702 7.37318 -2.64821 0.000100013 4
10.4264 8.74881 -2.64566 0.000160523 4
12.7865 10.7291 -2.64368 3.95276e-05 4
16.4869 13.8342 -2.64259 5.89925e-05 4
7.53428 6.36696 -2.64312 0.000156495 4
8.75188 7.39591 -2.64538 0.000187513 4
10.4017 8.79008 -2.64714 5.82383e-05 4
7.53119 6.40954 -2.64987 8.02492e-05 4
8.73803 7.43664 -2.64902 0.000137501 4
10.3577 8.81508 -2.64377 8.37997e-05 4
7.4943 6.42339 -2.64476 0.000252771 4
8.70013 7.45691 -2.64541 4.24974e-05 4
10.3387 8.86133 -2.6468 6.10695e-05 4
12.6642 10.8545 -2.64176 4.37496e-05 4
22.2628 19.0815 -2.56528 2.94996e-05 4
7.47646 6.45351 -2.6464 0.00012036 4
8.68566 7.49726 -2.64895 0.000187476 4
10.3116 8.90075 -2.64781 8.94669e-05 4
12.6307 10.9025 -2.64268 2.96339e-05 4
21.9131 18.9149 -2.53258 3.08462e-05 4
7.45394 6.47961 -2.64642 0.000124366 4
8.64498 7.51496 -2.64453 0.000109979 4
10.2632 8.92162 -2.64334 9.08798e-05 4
12.6039 10.9564 -2.64508 3.52749e-05 4
7.43918 6.5125 -2.64923 0.000180521 4
8.63148 7.55628 -2.64845 0.000159959 4
16.659 14.5838 -2.71853 4.31364e-05 1
7.40336 6.52694 -2.64457 0.000521475 4
8.5924 7.57521 -2.64456 0.000149952 4
10.2057 8.99755 -2.64466 9.79643e-05 4
16.6129 14.6462 -2.71933 4.31306e-05 1
7.39808 6.56832 -2.65086 8.42336e-05 4
8.5801 7.61777 -2.64894 0.00010246 4
12.484 11.0838 -2.64413 6.62969e-05 4
16.5569 14.6999 -2.71855 4.31247e-05 1
7.35496 6.57609 -2.64362 0.000292796 4
8.53651 7.63252 -2.64369 0.000139937 4
10.1525 9.07737 -2.64723 0.000261196 4
12.4399 11.1225 -2.64298 3.80816e-05 4
16.5117 14.7632 -2.71958 4.31188e-05 1
35.127 31.4072 -2.46947 7.58546e-05 10
35.1402 31.419 -0.822797 7.62372e-05 10
35.1311 31.4108 0.822582 7.619e-05 10
35.1523 31.4297 4.12545 5.8334e-05 10
7.34835 6.61648 -2.64953 0.000136363 4
8.51771 7.66938 -2.64614 0.000199896 4
10.1097 9.10277 -2.64433 6.38745e-05 4
12.4086 11.1727 -2.6446 0.000131157 4
16.4458 14.8078 -2.71722 4.31129e-05 1
34.4858 31.0511 -2.43199 8.00305e-05 10
34.5046 31.0681 -0.810449 5.31279e-05 10
34.503 31.0667 0.81041 5.30958e-05 10
34.5137 31.0762 4.06321 6.15523e-05 10
33.3753 30.0513 12.0338 6.03035e-05 10
7.30914 6.62752 -2.64372 0.00044516 4
8.49839 7.70587 -2.64848 6.74605e-05 4
12.3685 11.2151 -2.64439 3.31384e-05 4
16.2142 14.7022 -2.68743 7.27277e-05 4
33.8827 30.7229 -2.39701 8.43337e-05 10
32.7564 29.7016 3.86851 7.33822e-05 10
33.9054 30.7435 5.61964 4.06944e-05 10
33.911 30.7486 7.25019 3.97617e-05 10
33.9213 30.758 8.90064 3.8625e-05 10
7.30532 6.67067 -2.65074 5.2133e-05 4
8.4756 7.73929 -2.64978 3.24789e-05 4
10.0611 9.18705 -2.64834 7.09603e-05 4
12.3283 11.2573 -2.64418 5.28751e-05 4
15.946 14.5607 -2.65138 7.20216e-05 4
33.2772 30.3863 -2.36167 8.87643e-05 10
7.27219 6.68712 -2.64718 0.00015639 4
8.44778 7.76813 -2.64955 0.000144896 4
10.0236 9.21716 -2.64692 4.11537e-05 4
12.2993 11.3097 -2.6464 0.000119133 4
15.7181 14.4535 -2.62185 8.22483e-05 4
32.6948 30.0644 -2.32776 9.33225e-05 10
32.755 30.1197 11.9232 6.21684e-05 10
7.24514 6.70907 -2.64584 0.000248606 4
8.40287 7.78114 -2.64396 0.0001274 4
15.4628 14.3187 -2.58758 7.16995e-05 4
32.1367 29.7589 -2.29541 9.80082e-05 10
32.1693 29.7891 2.29774 7.6291e-05 10
32.1763 29.7956 5.38448 7.41268e-05 10
32.171 29.7907 6.9445 7.24546e-05 10
32.1813 29.8002 8.52549 7.04156e-05 10
32.1874 29.8059 10.1278 6.80357e-05 10
32.2005 29.818 11.7592 6.5345e-05 10
7.23321 6.74507 -2.65006 0.000164392 4
8.39015 7.82394 -2.64854 0.000149873 4
9.96155 9.28929 -2.6476 9.36451e-05 4
12.2011 11.3777 -2.64232 0.000148005 4
15.2501 14.221 -2.56029 7.97234e-05 4
31.6063 29.4734 -2.26486 0.000102822 10
31.6256 29.4913 5.30951 7.7782e-05 10
31.6402 29.505 8.40938 7.39068e-05 10
31.6426 29.5072 11.593 6.86104e-05 10
7.19615 6.75763 -2.64511 0.000312728 4
8.35723 7.84796 -2.64678 9.24154e-05 4
9.9251 9.32029 -2.64654 0.000109244 4
12.165 11.4237 -2.64312 0.000143057 4
15.017 14.1019 -2.5294 3.85549e-05 4
31.0645 29.1715 -2.23332 0.000107763 10
31.0757 29.182 -0.744103 0.000108295 10
31.0654 29.1724 0.743858 0.000108238 10
31.0949 29.2 5.23749 8.15347e-05 10
31.1017 29.2065 8.29331 7.74922e-05 10
30.0437 28.2129 11.0433 8.12409e-05 10
7.17725 6.78719 -2.64686 0.000308701 4
8.32479 7.87236 -2.64519 0.000147355 4
9.88804 9.35065 -2.64534 6.6676e-05 4
12.1285 11.4694 -2.64387 0.000144452 4
14.9642 14.1509 -2.52881 4.49215e-05 4
30.5427 28.8828 -2.20304 0.000112832 10
30.6004 28.9373 -0.735137 2.93095e-05 10
30.6132 28.9495 0.735444 2.93075e-05 10
30.5673 28.906 5.16559 8.53848e-05 10
30.5811 28.9191 8.18135 8.11712e-05 10
7.14894 6.80784 -2.64516 0.000204453 4
8.31218 7.91558 -2.64995 7.2424e-05 4
9.84714 9.3773 -2.64314 3.97186e-05 4
12.0994 11.5221 -2.64628 5.07292e-05 4
14.9214 14.2095 -2.52995 3.8863e-05 4
30.0489 28.6151 -2.17461 0.000118028 10
30.5377 29.0807 -0.736066 2.96087e-05 10
30.5424 29.0851 0.736178 2.96067e-05 10
29.025 27.6401 2.10051 0.000103411 10
30.0716 28.6368 5.09869 8.93322e-05 10
30.0709 28.6361 8.07154 8.4944e-05 10
29.0619 27.6752 9.26501 9.25436e-05 10
29.0654 27.6786 10.7544 8.8992e-05 10
7.13022 6.83763 -2.64705 0.000465004 4
8.26472 7.92558 -2.64362 8.24081e-05 4
9.82019 9.41722 -2.64472 6.09916e-05 4
12.0893 11.5932 -2.6529 6.25533e-05 4
15.543 14.9052 -2.64415 4.35645e-05 4
29.5512 28.3386 -2.14574 0.000123352 10
29.5665 28.3533 -0.715037 8.1876e-05 10
29.5692 28.3559 0.715102 8.1835e-05 10
28.5671 27.3948 2.07429 0.000108009 10
29.5852 28.3711 5.03297 9.33769e-05 10
29.5777 28.364 7.9657 8.88104e-05 10
7.10064 6.857 -2.64494 0.000545146 4
8.2508 7.9677 -2.64805 0.000102379 4
9.78336 9.44768 -2.64366 6.38232e-05 4
12.1156 11.6999 -2.66762 5.98641e-05 4
15.4871 14.9557 -2.64349 4.18615e-05 4
29.065 28.0678 -2.11754 0.000128802 10
29.0799 28.0822 -0.705636 8.54926e-05 10
29.0876 28.0896 0.705823 8.54507e-05 10
28.0979 27.1338 2.04708 0.000112715 10
28.1099 27.1454 3.41883 0.000111468 10
29.1066 28.108 4.96823 9.75184e-05 10
29.1149 28.1159 7.86745 9.27703e-05 10
7.07715 6.88223 -2.64512 3.20656e-05 4
9.76786 9.49882 -2.64842 7.79999e-05 4
12.1496 11.8149 -2.68416 5.77102e-05 4
15.4296 15.0047 -2.64262 3.30886e-05 4
28.613 27.8249 -2.09167 0.000134379 10
28.6104 27.8224 -0.696595 8.91933e-05 10
28.6163 27.8281 0.696737 8.91504e-05 10
27.9583 27.1883 2.04381 3.11752e-05 10
27.939 27.1695 3.40956 3.08437e-05 10
28.6235 27.8352 4.90232 0.000101757 10
27.9442 27.1745 6.1736 2.97075e-05 10
28.6462 27.8572 7.76701 9.68235e-05 10
28.6352 27.8465 9.22145 9.36546e-05 10
7.06109 6.91473 -2.64813 8.41674e-05 4
8.18281 8.0132 -2.64412 4.49409e-05 4
9.71977 9.5183 -2.64437 8.36658e-05 4
12.1673 11.9151 -2.69725 6.63767e-05 4
28.1573 27.5737 -2.06539 0.000140082 10
28.1518 27.5683 -0.687768 9.29777e-05 10
28.1597 27.576 0.68796 9.29337e-05 10
27.8732 27.2955 2.04455 3.14684e-05 10
27.8894 27.3113 3.41511 3.11337e-05 10
28.1702 27.5863 4.84114 0.000106092 10
27.8802 27.3023 6.18049 2.99866e-05 10
28.1897 27.6054 7.66931 0.00010097 10
28.196 27.6115 9.11099 9.76789e-05 10
7.0352 6.93764 -2.64748 0.000188364 4
8.16596 8.05273 -2.64774 0.000132317 4
9.68497 9.55067 -2.64396 0.000120526 4
12.1951 12.026 -2.71269 6.01579e-05 4
15.3314 15.1188 -2.6438 3.33622e-05 4
27.7185 27.3342 -2.04019 0.000145911 10
26.8357 26.4636 1.97521 3.57742e-05 10
26.8256 26.4537 3.29614 3.53977e-05 10
27.7288 27.3443 4.78167 0.000110522 10
26.8418 26.4696 5.97073 3.41072e-05 10
26.8267 26.4548 7.32359 3.32088e-05 10
26.8303 26.4583 8.6995 3.21555e-05 10
26.8373 26.4652 10.0994 3.09598e-05 10
8.14482 8.08815 -2.65002 0.000107344 4
9.66787 9.60061 -2.64842 6.94739e-05 4
12.2046 12.1197 -2.72421 0.000107697 1
15.2747 15.1685 -2.64315 3.19442e-05 4
27.2798 27.09 -2.01484 0.000151866 10
26.778 26.5917 1.97778 3.6097e-05 10
26.7719 26.5856 3.30092 3.57171e-05 10
27.2935 27.1036 4.72288 0.000115049 10
26.7665 26.5803 5.97459 3.44147e-05 10
26.7757 26.5894 7.33494 3.3508e-05 10
26.7698 26.5835 8.70989 3.24449e-05 10
26.7692 26.5829 10.1086 3.12382e-05 10
6.99253 6.99253 -2.64973 0.000256467 4
8.10154 8.10154 -2.64513 7.23903e-05 4
9.61965 9.61965 -2.6444 3.40253e-05 4
12.1569 12.1569 -2.72302 0.000107686 1
15.1065 15.1065 -2.62315 3.80217e-05 4
26.8513 26.8513 -1.99011 0.000157945 10
26.855 26.855 -0.662922 0.000158708 10
26.8731 26.8731 0.663368 0.000158637 10
26.7077 26.7077 1.97946 3.64153e-05 10
26.71 26.71 3.30476 3.60319e-05 10
26.879 26.879 4.66737 0.000119672 10
26.7115 26.7115 5.98309 3.47178e-05 10
26.702 26.702 7.34024 3.38029e-05 10
26.6936 26.6936 8.71538 3.27302e-05 10
26.7092 26.7092 10.1211 3.15126e-05 10
6.96174 7.01051 -2.64732 4.40777e-05 4
8.07198 8.12853 -2.64472 4.49289e-05 4
9.59028 9.65746 -2.64557 5.67042e-05 4
12.1104 12.1953 -2.72213 0.000107675 1
14.9192 15.0237 -2.59972 7.28856e-05 4
26.4432 26.6284 -1.96674 0.00016415 10
26.4571 26.6424 -0.655389 0.00016494 10
26.4461 26.6314 0.655118 0.000164868 10
26.4572 26.6426 4.61025 0.00012439 10
25.5806 25.7598 8.38128 0.000128605 10
6.93145 7.02891 -2.64512 0.000244417 4
8.04435 8.15746 -2.64499 0.000109819 4
9.55948 9.6939 -2.6464 5.24471e-05 4
12.0642 12.2338 -2.72132 0.000107664 1
14.7336 14.9407 -2.57644 0.000114633 4
26.0405 26.4066 -1.94363 0.000170478 10
26.0517 26.418 -0.647629 0.000171297 10
26.0581 26.4245 0.647786 0.000171223 10
25.1771 25.5311 1.87918 0.000148627 10
25.1808 25.5349 3.13754 0.000147031 10
26.0603 26.4268 4.55714 0.000129202 10
25.1799 25.5339 5.67981 0.000141642 10
25.1891 25.5432 6.9732 0.000137913 10
25.3179 25.6739 8.32452 3.15712e-05 10
25.1862 25.5403 9.61132 0.000128607 10
6.90645 7.05264 -2.64495 0.00023639 4
8.02902 8.19896 -2.64934 7.73671e-05 4
12.0179 12.2722 -2.72051 0.000107653 1
14.5508 14.8588 -2.55353 0.000115445 4
25.6437 26.1865 -1.92082 0.00017693 10
25.6595 26.2026 -0.640149 0.000177778 10
25.6491 26.192 0.639888 0.000177702 10
25.1126 25.6441 1.88104 4.4634e-05 10
25.1116 25.6431 3.14006 4.41714e-05 10
25.6623 26.2055 4.50351 0.000134109 10
25.1092 25.6407 5.68403 4.25847e-05 10
25.0973 25.6285 6.97252 4.14796e-05 10
25.2219 25.7558 8.32249 3.15739e-05 10
25.095 25.6261 9.61059 3.87114e-05 10
6.88154 7.07644 -2.64486 0.000324517 4
7.99757 8.22408 -2.64842 0.000179679 4
9.49752 9.76652 -2.64806 6.51939e-05 4
11.973 12.3121 -2.72006 0.000107642 1
14.3791 14.7863 -2.53244 3.68961e-05 4
25.2659 25.9815 -1.8993 0.000183504 10
25.2733 25.9891 -0.632773 0.000184381 10
25.2715 25.9872 0.632726 0.000184304 10
25.0482 25.7576 1.88294 4.49953e-05 10
25.0488 25.7583 3.14343 4.45289e-05 10
25.2906 26.0069 4.45417 0.000139109 10
25.0319 25.7409 5.68684 4.29291e-05 10
25.038 25.7471 6.98097 4.18148e-05 10
25.1452 25.8573 8.32689 3.15766e-05 10
25.0401 25.7493 9.62394 3.90235e-05 10
6.87022 7.11433 -2.65004 0.000140215 4
7.96243 8.24534 -2.6463 6.73752e-05 4
9.45689 9.7929 -2.64624 0.000134629 4
11.8915 12.314 -2.7113 0.000172044 4
14.3139 14.8224 -2.53005 3.40287e-05 4
24.8955 25.7801 -1.87822 0.0001902 10
24.0462 24.9006 -0.604223 0.000213631 10
24.8946 25.7792 0.625541 0.000191029 10
24.8917 25.7761 1.87793 0.000148118 10
24.0655 24.9205 3.03092 0.000163828 10
24.9141 25.7993 4.4037 0.000144203 10
24.9187 25.8041 5.68155 0.000141164 10
24.0654 24.9204 6.73401 0.000153775 10
24.9142 25.7994 8.28019 0.000133104 10
24.0792 24.9347 9.28802 0.000143505 10
6.83234 7.1247 -2.645 0.000144213 4
7.92734 8.26655 -2.64421 0.000252016 4
9.4287 9.83215 -2.64794 0.000294742 4
11.7264 12.2281 -2.68337 0.00016664 4
14.2762 14.8871 -2.53256 4.13376e-05 4
24.5218 25.5711 -1.85675 0.000197017 10
23.9465 24.9712 -0.603904 6.68563e-05 10
24.5411 25.5912 0.618898 0.000197875 10
24.5297 25.5794 1.85735 0.00015343 10
23.9628 24.9881 3.02895 5.13257e-05 10
24.5429 25.5931 4.35386 0.000149389 10
24.5385 25.5885 5.6152 0.000146252 10
23.9622 24.9875 6.72949 4.82301e-05 10
24.5435 25.5937 8.18661 0.00013793 10
23.824 24.8435 9.22299 4.10872e-05 10
6.80821 7.14932 -2.64531 0.000256364 4
7.90818 8.3044 -2.64747 0.000204594 4
9.3971 9.86792 -2.64872 0.000256461 4
11.5736 12.1535 -2.6581 0.000163531 4
14.2146 14.9268 -2.53087 3.81525e-05 4
24.1724 25.3835 -1.83699 0.000203955 10
23.8956 25.0929 -0.604826 6.73638e-05 10
24.1683 25.3792 0.611727 0.000204843 10
24.1655 25.3763 1.83646 0.000158836 10
23.8863 25.0831 3.03034 5.17153e-05 10
24.191 25.403 4.30713 0.000154668 10
24.1932 25.4053 5.55643 0.000151432 10
23.8825 25.0791 6.73167 4.85955e-05 10
24.1963 25.4087 8.10036 0.000142843 10
23.7287 24.9176 9.2197 4.10902e-05 10
6.78703 7.17708 -2.64679 0.000284388 4
7.87242 8.32485 -2.64521 9.48052e-05 4
9.35353 9.89107 -2.64616 0.000274858 4
11.4225 12.079 -2.63306 0.000178227 4
14.1722 14.9866 -2.53261 4.10083e-05 4
22.9994 24.3212 -1.75428 0.000235567 10
23.0189 24.3418 -0.584782 0.000236674 10
23.8212 25.1903 0.605165 0.000211931 10
23.8294 25.1989 1.81759 0.000164336 10
23.0132 24.3358 2.93033 0.000181536 10
23.8394 25.2094 4.26016 0.000160039 10
23.8443 25.2146 5.49648 0.000156701 10
23.0276 24.351 6.51461 0.000170506 10
23.8316 25.2012 8.00766 0.000147843 10
23.6584 25.0181 9.22627 4.10932e-05 10
6.76853 7.20775 -2.64938 0.000404529 4
7.84883 8.35815 -2.64707 0.000172135 4
9.32182 9.92672 -2.64697 0.000270586 4
11.2748 12.0064 -2.60866 0.000221995 4
14.1066 15.022 -2.53025 5.37166e-05 4
22.9041 24.3904 -1.7535 7.65097e-05 10
22.918 24.4052 -0.584379 7.68953e-05 10
23.4782 25.0018 0.598665 0.000219138 10
23.4726 24.9957 1.79702 0.000169928 10
22.9026 24.3888 2.92707 5.90419e-05 10
23.485 25.009 4.21242 0.0001655 10
23.4977 25.0225 5.43669 0.00016206 10
22.8959 24.3816 6.50139 5.55143e-05 10
23.5004 25.0254 7.92566 0.000152928 10
23.5098 25.0353 9.20232 0.000147344 10
6.739 7.22669 -2.64767 0.00012015 4
7.81842 8.38423 -2.64667 0.000102276 4
9.28202 9.95375 -2.64552 3.54141e-05 4
11.1336 11.9393 -2.58563 0.000152905 4
14.0732 15.0917 -2.53369 3.01916e-05 4
22.8468 24.5002 -1.75565 7.70536e-05 10
22.8601 24.5144 -0.58508 7.74422e-05 10
23.1488 24.8241 0.592471 0.000226464 10
23.1381 24.8126 1.77804 0.000175613 10
22.8402 24.4931 2.93 5.94617e-05 10
23.1603 24.8364 4.1697 0.000171052 10
23.1583 24.8342 5.37818 0.000167507 10
22.8399 24.4928 6.50973 5.59083e-05 10
23.1656 24.8421 7.84195 0.000158099 10
23.1555 24.8312 9.09752 0.000152344 10
6.70939 7.24548 -2.64596 0.000240287 4
7.79945 8.42264 -2.65018 9.22916e-05 4
9.25583 9.99538 -2.64799 8.90554e-05 4
11.0058 11.8852 -2.56557 0.000151197 4
22.7999 24.6217 -1.75864 0.000232896 10
22.7937 24.615 -0.585579 7.79798e-05 10
22.8143 24.6372 0.586105 0.000233907 10
22.8168 24.6399 1.75995 0.000181389 10
22.7896 24.6105 2.93452 5.98745e-05 10
22.8191 24.6424 4.12373 0.000176693 10
22.8331 24.6575 5.32262 0.000173043 10
22.7822 24.6025 6.51771 5.62955e-05 10
22.829 24.653 7.75708 0.000163354 10
22.8359 24.6605 9.00571 0.000157426 10
6.68297 7.26767 -2.64553 0.000180205 4
7.77212 8.45212 -2.65091 0.000286833 4
10.8602 11.8104 -2.54122 0.000246282 4
13.9531 15.1738 -2.53107 4.19388e-05 4
22.4827 24.4497 -1.74074 0.000240425 10
22.4896 24.4572 -0.579954 0.000241556 10
22.4941 24.4621 0.580069 0.000241467 10
22.4949 24.463 1.74169 0.000187255 10
22.4886 24.4562 2.90674 0.000185297 10
22.4935 24.4615 4.0803 0.000182423 10
22.4927 24.4606 5.26314 0.000178667 10
22.5052 24.4742 6.46289 0.000174073 10
22.502 24.4707 7.67496 0.000168693 10
22.5034 24.4723 8.90824 0.00016259 10
6.66772 7.30209 -2.64957 0.000328354 4
7.72752 8.46271 -2.64575 4.73866e-05 4
9.26756 10.1493 -2.67155 5.71724e-05 4
10.7922 11.8189 -2.53493 0.00011556 4
13.9095 15.2329 -2.5328 4.41566e-05 4
22.1719 24.2813 -1.72323 0.000248068 10
22.1705 24.2798 -0.573908 0.000249233 10
22.1782 24.2882 0.574106 0.000249143 10
22.1795 24.2897 1.72383 0.000193212 10
22.1798 24.29 2.87776 0.000191198 10
22.1867 24.2975 4.04 0.000188242 10
22.1931 24.3045 5.21286 0.000184378 10
22.1968 24.3086 6.39864 0.000179651 10
22.1913 24.3026 7.59789 0.000174115 10
22.2027 24.3151 8.82276 0.000167835 10
6.64083 7.32382 -2.64903 9.6098e-05 4
7.6965 8.48806 -2.64526 0.000139656 4
9.28131 10.2359 -2.6858 0.000101437 4
10.7423 11.8471 -2.53293 0.000104544 4
13.8451 15.269 -2.53076 3.08101e-05 4
21.1693 23.3465 -1.65164 9.7369e-05 10
21.1568 23.3327 -0.549771 9.78522e-05 10
21.861 24.1093 0.56807 0.000256934 10
21.1645 23.3412 1.65126 7.59108e-05 10
21.1616 23.338 2.7562 7.51529e-05 10
21.135 23.3086 3.86328 0.000216255 10
21.1582 23.3343 4.98888 7.25502e-05 10
21.1502 23.3254 6.12036 7.07355e-05 10
21.1653 23.3421 7.27445 6.86048e-05 10
21.1414 23.3157 8.43329 0.000193087 10
6.61428 7.34589 -2.64864 0.000132127 4
7.68124 8.53088 -2.65024 0.000226926 4
9.27907 10.3054 -2.69554 0.000122478 4
10.709 11.8935 -2.53483 8.95996e-05 4
13.7932 15.3189 -2.53103 4.57323e-05 4
21.1081 23.4429 -1.65323 9.79919e-05 10
21.0966 23.4302 -0.550331 9.84759e-05 10
21.5529 23.9369 0.562233 0.000264838 10
21.1056 23.4401 1.65304 7.63968e-05 10
21.0957 23.4292 2.75826 7.56318e-05 10
20.8293 23.1333 3.82215 0.000222843 10
21.1109 23.446 4.99699 7.3012e-05 10
21.0963 23.4298 6.12841 7.11851e-05 10
21.1008 23.4348 7.28036 6.90404e-05 10
20.8444 23.15 8.34701 0.000199035 10
6.58919 7.36961 -2.64889 7.60689e-05 4
7.63693 8.54143 -2.64522 0.000102234 4
9.29452 10.3954 -2.71055 0.000130307 4
11.1286 12.4466 -2.64442 8.64573e-05 4
13.7389 15.3661 -2.53089 3.81049e-05 4
21.0573 23.5513 -1.65569 9.86007e-05 10
21.0518 23.5451 -0.551301 9.90881e-05 10
21.2685 23.7876 0.556977 0.000272855 10
21.0518 23.5451 1.65525 7.68718e-05 10
21.05 23.5431 2.763 7.61039e-05 10
20.5444 22.9776 3.78456 0.000229524 10
21.0459 23.5385 5.00102 7.34652e-05 10
21.0551 23.5489 6.14028 7.16265e-05 10
21.0476 23.5405 7.29031 6.94678e-05 10
20.6902 23.1407 8.31755 5.69808e-05 10
6.56413 7.39336 -2.64917 0.000156132 4
7.61639 8.57855 -2.64846 0.000189495 4
9.30523 10.4807 -2.72433 0.000115891 4
11.1002 12.5024 -2.64803 0.000133538 4
13.686 15.4149 -2.53104 4.22271e-05 4
20.9692 23.6182 -1.65523 9.94955e-05 10
20.9772 23.6272 -0.551504 9.999e-05 10
20.9793 23.6295 0.55156 0.000280984 10
20.9746 23.6242 1.65565 0.000139117 10
20.9728 23.6223 2.76369 0.000137684 10
20.3353 22.9041 3.76074 3.04212e-05 10
20.2624 22.8221 4.83374 0.000231547 10
20.9852 23.6361 6.14391 0.000129464 10
20.9879 23.6392 7.29814 6.9887e-05 10
20.6121 23.2159 8.31868 5.69849e-05 10
6.54527 7.42415 -2.652 0.000148117 4
7.5903 8.6095 -2.64982 0.000264278 4
9.27662 10.5223 -2.72669 0.000217181 1
11.0466 12.5299 -2.64567 0.000126497 4
13.6358 15.4668 -2.53174 3.93641e-05 4
20.826 23.6225 -1.65043 0.000282386 10
20.6984 23.4777 0.546326 0.000289223 10
20.2512 22.9705 3.76 3.04259e-05 10
19.9887 22.6727 4.78729 0.000238285 10
20.8328 23.6301 7.27285 0.000126707 10
20.5345 23.2918 8.32012 5.69889e-05 10
6.5133 7.44008 -2.64956 0.000312229 4
7.55593 8.63107 -2.64832 3.24092e-05 4
9.22597 10.5387 -2.7226 0.000217163 1
11.0154 12.5828 -2.6487 6.67551e-05 4
13.593 15.5271 -2.53383 5.04679e-05 4
20.4011 23.3039 -2.70972 0.000293459 10
20.4159 23.3209 0.541014 0.000297573 10
20.1799 23.0513 3.76169 3.04305e-05 10
19.7281 22.5352 4.74369 0.000245112 10
20.4302 23.3372 8.31081 0.000200968 10
6.48082 7.45533 -2.64691 7.20486e-05 4
7.5282 8.6602 -2.64918 0.000147078 4
9.19159 10.5737 -2.72333 0.000217145 1
10.9727 12.6227 -2.64902 8.64213e-05 4
13.5319 15.5666 -2.53255 4.22094e-05 4
19.478 22.4068 -2.59748 0.000122576 10
19.486 22.4161 -1.5566 0.000123784 10
19.4765 22.4052 -0.518191 0.00012439 10
19.4892 22.4197 0.518528 0.000124385 10
19.4791 22.4081 1.55604 9.65063e-05 10
19.486 22.416 2.59855 9.5558e-05 10
19.4811 22.4104 3.64597 9.41505e-05 10
19.5474 22.4867 4.7191 4.18513e-05 10
19.4824 22.412 5.77235 9.00269e-05 10
19.4694 22.397 6.85132 8.73572e-05 10
20.1591 23.1903 8.23341 0.000206761 10
6.46189 7.48618 -2.64984 0.000140086 4
7.49362 8.68144 -2.64766 9.72143e-05 4
9.16218 10.6145 -2.72558 0.000217127 1
10.914 12.644 -2.64548 0.000126457 4
13.4752 15.6112 -2.53213 3.36359e-05 4
19.4389 22.5201 -2.60273 0.000123255 10
19.4342 22.5148 -1.55873 0.000124471 10
19.4302 22.5101 -0.519046 0.00012508 10
19.4354 22.5161 0.519184 0.000125076 10
19.4211 22.4995 1.55767 9.7042e-05 10
19.4339 22.5143 2.60206 9.60883e-05 10
19.4324 22.5127 3.65156 9.46726e-05 10
19.4668 22.5525 4.71861 4.18563e-05 10
19.4181 22.4961 5.77652 9.0525e-05 10
19.4258 22.505 6.86357 8.78398e-05 10
19.887 23.0393 8.1551 0.000212629 10
6.42885 7.50067 -2.64701 0.000128072 4
7.46555 8.7102 -2.64847 4.23726e-05 4
9.12897 10.6509 -2.72674 0.000217109 1
10.8683 12.6803 -2.64512 0.000104667 4
13.4246 15.6628 -2.53289 4.09285e-05 4
19.3799 22.6109 -2.60539 0.000123921 10
19.3736 22.6035 -1.56018 0.000125143 10
19.3703 22.5997 -0.51955 0.000125756 10
19.3793 22.6102 0.51979 0.000125752 10
19.3757 22.606 1.56035 9.75666e-05 10
19.3693 22.5985 2.60396 9.66075e-05 10
19.3763 22.6067 3.65581 9.51838e-05 10
19.4004 22.6348 4.72163 4.18612e-05 10
19.3636 22.5919 5.78372 9.10127e-05 10
19.3717 22.6014 6.87229 8.83122e-05 10
19.6241 22.8958 8.08 0.000218571 10
6.39831 7.51799 -2.64522 0.000188094 4
7.43834 8.74002 -2.64963 0.000483513 4
9.08218 10.6715 -2.72387 0.000217091 1
10.8265 12.7211 -2.64573 8.21798e-05 4
19.3278 22.7101 -2.60903 0.000124572 10
19.3171 22.6975 -1.562 0.000125801 10
19.3304 22.7132 -0.520604 0.000126418 10
19.3134 22.6932 0.520145 0.000126414 10
19.3192 22.7 1.56217 9.80802e-05 10
19.3259 22.7078 2.60877 9.71158e-05 10
19.3287 22.7112 3.66177 9.56843e-05 10
19.3165 22.6968 4.72047 9.3802e-05 10
19.3262 22.7082 5.79619 9.149e-05 10
19.3139 22.6937 6.87983 8.87746e-05 10
19.3628 22.7512 8.00507 0.000224588 10
6.38816 7.55937 -2.65192 0.000424188 4
7.39542 8.7513 -2.6452 0.000456066 4
9.0501 10.7093 -2.72545 0.000217073 1
10.7248 12.6911 -2.63169 0.000199507 4
19.0703 22.5666 -2.58488 0.000336243 10
19.0754 22.5727 -1.54882 0.000339459 10
19.0893 22.5891 -0.51623 0.000341023 10
19.0906 22.5906 0.516264 0.000340917 10
19.0882 22.5878 1.54986 0.000264434 10
19.09 22.5899 2.58755 0.000261765 10
19.0975 22.5988 3.63289 0.000257841 10
19.0931 22.5936 4.68512 0.000252706 10
19.0932 22.5937 5.74993 0.000246418 10
19.1039 22.6064 6.83311 0.000239047 10
19.1048 22.6075 7.931 0.000230676 10
6.34552 7.56229 -2.64516 0.000128049 4
7.37295 8.78674 -2.64812 0.000525811 4
8.98102 10.7032 -2.71588 0.000432383 4
10.6108 12.6455 -2.61453 0.000193889 4
13.2693 15.8137 -2.53468 3.8057e-05 4
18.8342 22.4457 -2.56349 0.000345108 10
18.8231 22.4325 -1.53468 0.000348403 10
18.8296 22.4403 -0.511324 0.000350005 10
18.8389 22.4513 0.511575 0.000349899 10
18.8312 22.4422 1.53535 0.000271405 10
18.8457 22.4595 2.56506 0.000268673 10
18.8438 22.4572 3.59952 0.000264655 10
18.8462 22.46 4.64374 0.000259397 10
18.8461 22.4599 5.69911 0.000252959 10
18.8529 22.4681 6.77136 0.00024541 10
18.8424 22.4555 7.85453 0.000236837 10
6.32636 7.59313 -2.6482 0.000120039 4
7.34802 8.81936 -2.65021 0.000515807 4
8.8778 10.6555 -2.6959 0.00031674 4
10.4801 12.5786 -2.59312 0.000269869 4
14.198 17.041 -2.72344 4.28665e-05 1
18.5832 22.3042 -2.5399 0.000354072 10
18.5856 22.3071 -1.52166 0.000357446 10
18.5907 22.3132 -0.506947 0.000359088 10
18.5976 22.3216 0.507136 0.000358979 10
18.585 22.3064 1.52161 0.000278453 10
18.5939 22.3171 2.54137 0.000275657 10
18.5975 22.3214 3.56733 0.000271545 10
18.591 22.3135 4.60002 0.000266163 10
18.606 22.3316 5.65003 0.000259572 10
18.6025 22.3274 6.70936 0.000251845 10
18.6109 22.3375 7.79051 0.000243068 10
6.30865 7.62585 -2.65192 6.80183e-05 4
7.31252 8.83931 -2.64851 0.000498331 4
8.78125 10.6147 -2.67781 0.000278714 4
10.3818 12.5494 -2.57962 0.000201827 4
14.1366 17.0882 -2.72307 4.28604e-05 1
18.3338 22.1617 -2.51638 0.000363135 10
18.3495 22.1808 -1.50866 0.000366588 10
18.3446 22.1748 -0.502344 0.00036827 10
18.346 22.1765 0.502381 0.00036816 10
18.344 22.174 1.50821 0.000285578 10
18.3554 22.1878 2.51934 0.000282718 10
18.3557 22.1882 3.53579 0.000278511 10
18.3488 22.1799 4.55924 0.000273005 10
18.3645 22.1989 5.6002 0.00026626 10
18.3611 22.1947 6.65019 0.000258352 10
18.3569 22.1897 7.71656 0.000249369 10
6.27162 7.63519 -2.64754 0.00018804 4
7.27545 8.85728 -2.64627 9.21849e-05 4
8.6714 10.5567 -2.65554 0.000423122 4
10.259 12.4895 -2.55992 0.000216372 4
14.0838 17.1459 -2.72443 4.28542e-05 1
18.2666 22.2382 -2.5178 0.000144784 10
18.2817 22.2565 -1.50946 0.000146201 10
18.2638 22.2347 -0.502253 0.000146912 10
18.2645 22.2355 0.502272 0.000146908 10
18.2677 22.2395 1.50831 0.000113986 10
18.2734 22.2464 2.51874 0.000112876 10
18.2774 22.2513 3.53565 0.000111227 10
18.2672 22.2389 4.55822 0.000109059 10
18.277 22.2508 5.59716 0.000106395 10
18.2718 22.2444 6.64592 0.000103265 10
18.2692 22.2413 7.71227 9.97047e-05 10
6.25144 7.66502 -2.6503 0.000208032 4
7.2556 8.89624 -2.65033 0.000134507 4
8.57759 10.5172 -2.63803 0.000382179 4
10.1471 12.4416 -2.54284 0.000164766 4
14.0259 17.1974 -2.72481 4.28482e-05 1
18.2157 22.3347 -2.52151 0.000145434 10
18.2176 22.337 -1.5106 0.000146858 10
18.2193 22.3391 -0.503172 0.000147572 10
18.2178 22.3372 0.503129 0.000147569 10
18.2275 22.3491 1.51142 0.000114499 10
18.2117 22.3298 2.52096 0.000113383 10
18.2252 22.3463 3.54062 0.000111726 10
18.2252 22.3463 4.56718 0.000109548 10
18.2163 22.3353 5.6024 0.000106871 10
18.2088 22.3262 6.65134 0.000103727 10
18.219 22.3386 7.72394 0.000100149 10
6.21573 7.67578 -2.6465 0.000140013 4
7.24669 8.94892 -2.65847 0.0002521 4
8.47901 10.4707 -2.61894 0.000417137 4
10.0671 12.4319 -2.53364 0.000114572 4
13.9547 17.2326 -2.72265 4.2842e-05 1
18.1743 22.4434 -2.52661 0.000146067 10
18.1664 22.4337 -1.51284 0.000147498 10
18.1613 22.4274 -0.503729 0.000148216 10
18.1627 22.429 0.503766 0.000148213 10
18.1743 22.4433 1.51349 0.000114998 10
18.1582 22.4235 2.52436 0.000113877 10
18.157 22.422 3.54255 0.000112213 10
18.1634 22.4299 4.57128 0.000110024 10
18.1611 22.4271 5.60949 0.000107335 10
18.1713 22.4397 6.6662 0.000104176 10
18.167 22.4343 7.73505 0.000100582 10
6.19864 7.70955 -2.65067 0.000248009 4
7.25248 9.02026 -2.67213 0.000167553 4
8.38614 10.4302 -2.60148 0.000411718 4
10.0222 12.4651 -2.53327 0.000115344 4
13.8971 17.2846 -2.72318 4.28359e-05 1
18.1245 22.5424 -2.53061 0.000146685 10
18.121 22.5379 -1.5156 0.000148122 10
18.117 22.533 -0.504678 0.000148844 10
18.1211 22.5381 0.504793 0.00014884 10
18.1092 22.5233 1.51461 0.000115485 10
18.1106 22.525 2.52866 0.000114359 10
18.1065 22.5199 3.54801 0.000112687 10
18.1118 22.5266 4.57806 0.000110489 10
18.1042 22.517 5.61614 0.000107787 10
18.1128 22.5277 6.67353 0.000104614 10
18.1158 22.5315 7.74669 0.000101003 10
6.17214 7.73171 -2.65086 7.99982e-05 4
7.24281 9.07292 -2.68022 0.00018503 4
8.29252 10.3879 -2.58368 0.000544168 4
9.99306 12.5181 -2.53694 0.000102779 4
13.8463 17.3449 -2.72506 4.28298e-05 1
18.0603 22.6238 -2.53266 0.000147286 10
18.0598 22.6232 -1.51708 0.00014873 10
18.064 22.6283 -0.505398 0.000149455 10
18.0704 22.6363 0.505577 0.000149451 10
18.0618 22.6256 1.51724 0.000115959 10
18.0558 22.6181 2.53202 0.000114828 10
18.0511 22.6123 3.55261 0.000113149 10
18.0618 22.6256 4.58534 0.000110941 10
18.0501 22.611 5.62382 0.000108228 10
18.0615 22.6252 6.68369 0.00010504 10
18.0605 22.624 7.75679 0.000101414 10
6.13488 7.74029 -2.64645 0.000227982 4
7.23391 9.12692 -2.6887 0.000174544 4
8.19036 10.3337 -2.56307 0.000496958 4
9.9394 12.5404 -2.53442 0.000100415 4
13.7757 17.3806 -2.72309 4.28237e-05 1
18.0141 22.7282 -2.53729 0.00014787 10
18.0119 22.7254 -1.51971 0.000149321 10
18.0151 22.7294 -0.506247 0.000150049 10
18.0087 22.7213 0.506068 0.000150046 10
18.0151 22.7293 1.51997 0.00011642 10
18.0032 22.7144 2.53576 0.000115285 10
18.0159 22.7304 3.56126 0.000113598 10
18.0005 22.7109 4.58988 0.00011138 10
18.0089 22.7216 5.63567 0.000108656 10
18.0073 22.7195 6.69295 0.000105454 10
18.0121 22.7256 7.77001 0.000101812 10
6.12252 7.78034 -2.65282 0.000111984 4
7.23481 9.19381 -2.70095 0.000218525 4
8.10035 10.2937 -2.54613 0.00040536 4
9.90103 12.582 -2.53581 0.000115308 4
13.7176 17.432 -2.72362 4.28175e-05 1
17.9574 22.8198 -2.54051 0.000148438 10
17.9512 22.8119 -1.52129 0.000149895 10
17.9508 22.8114 -0.506676 0.000150626 10
17.9631 22.827 0.507022 0.000150623 10
17.958 22.8205 1.52187 0.000116868 10
17.9602 22.8234 2.5409 0.000115728 10
17.9486 22.8086 3.56368 0.000114035 10
17.957 22.8193 4.59908 0.000111807 10
17.9465 22.806 5.64102 0.000109071 10
17.9484 22.8084 6.70063 0.000105857 10
17.9607 22.824 7.78217 0.0001022 10
6.08662 7.79052 -2.64903 5.5989e-05 4
7.22798 9.25139 -2.71044 0.000198352 4
8.03012 10.2781 -2.53532 0.000196683 4
9.84758 12.6043 -2.53338 0.000117649 4
13.6559 17.4787 -2.72346 4.28114e-05 1
17.8964 22.9063 -2.54317 0.000148989 10
17.8999 22.9109 -1.52372 0.000150452 10
17.9002 22.9112 -0.507502 0.000151187 10
17.9026 22.9142 0.507568 0.000151184 10
17.8977 22.9079 1.52353 0.000117303 10
17.8929 22.9019 2.54268 0.000116159 10
17.8933 22.9024 3.56856 0.000114458 10
17.9018 22.9133 4.60541 0.000112222 10
17.8965 22.9065 5.65039 0.000109475 10
17.8947 22.9042 6.71038 0.000106247 10
17.9065 22.9192 7.79329 0.000102576 10
6.05758 7.80938 -2.64824 0.000215945 4
7.22747 9.31759 -2.72242 0.00021284 4
7.98834 10.2985 -2.53346 0.00020296 4
9.81346 12.6514 -2.53595 9.48935e-05 4
13.6006 17.5338 -2.72463 4.28052e-05 1
17.8418 23.0016 -2.54681 0.000149524 10
17.8592 23.0239 -1.52708 0.000150993 10
17.8539 23.0171 -0.508464 0.000151731 10
17.8572 23.0214 0.508557 0.000151728 10
17.8448 23.0054 1.52586 0.000117725 10
17.8519 23.0146 2.54825 0.000116576 10
17.8413 23.0008 3.57417 0.000114869 10
17.8492 23.011 4.6125 0.000112624 10
17.8383 22.9969 5.65731 0.000109866 10
17.8387 22.9975 6.71943 0.000106626 10
17.8522 23.015 7.8046 0.00010294 10
6.02761 7.82701 -2.64707 0.00022393 4
7.21253 9.36566 -2.7291 0.000382805 1
7.96915 10.3482 -2.53882 0.00020609 4
9.76271 12.6771 -2.53425 9.7236e-05 4
13.5396 17.5815 -2.72469 4.27991e-05 1
17.8064 23.1221 -2.55326 0.000150043 10
17.8014 23.1156 -1.52903 0.000151518 10
17.7906 23.1016 -0.508955 0.000152258 10
17.7908 23.1018 0.508959 0.000152256 10
17.8011 23.1151 1.529 0.000118134 10
17.789 23.0994 2.55076 0.000116981 10
17.7994 23.113 3.58193 0.000115268 10
17.7907 23.1017 4.61819 0.000113014 10
17.7874 23.0974 5.66673 0.000110246 10
17.7878 23.0979 6.73058 0.000106993 10
17.7883 23.0985 7.81183 0.000103293 10
6.01349 7.86532 -2.6529 7.19732e-05 4
7.17062 9.37877 -2.72561 0.000382778 1
7.92586 10.3666 -2.53654 0.000218658 4
9.716 12.708 -2.53363 0.000104282 4
13.4727 17.6216 -2.72359 4.2793e-05 1
17.7353 23.1968 -2.55466 0.000150544 10
17.7458 23.2105 -1.53121 0.000152025 10
17.743 23.2068 -0.509906 0.000152768 10
17.7371 23.1992 0.509737 0.000152766 10
17.7392 23.2018 1.53063 0.00011853 10
17.7488 23.2145 2.5566 0.000117373 10
17.741 23.2042 3.58644 0.000115653 10
17.7456 23.2102 4.62748 0.000113391 10
17.7436 23.2076 5.67853 0.000110613 10
17.7422 23.2058 6.74395 0.000107348 10
17.7458 23.2106 7.82873 0.000103634 10
5.97007 7.86527 -2.64584 0.000235898 4
7.14509 9.41331 -2.72838 0.000382752 1
8.23874 10.8541 -2.64878 0.000360356 4
9.68693 12.7621 -2.53765 8.62396e-05 4
13.4111 17.6685 -2.72359 4.27868e-05 1
17.6819 23.2951 -2.55867 0.000151029 10
17.6813 23.2943 -1.53265 0.000152516 10
17.6917 23.308 -0.510769 0.000153262 10
17.6911 23.3071 0.510749 0.00015326 10
17.6841 23.298 1.53289 0.000118913 10
17.6884 23.3036 2.55961 0.000117751 10
17.6856 23.2999 3.59166 0.000116026 10
17.6904 23.3063 4.63429 0.000113756 10
17.6837 23.2974 5.68536 0.000110967 10
17.6769 23.2885 6.74999 0.000107691 10
17.6855 23.2998 7.83794 0.000103964 10
5.95446 7.90184 -2.65114 0.000739638 4
7.10962 9.43478 -2.72739 0.000382725 1
8.20356 10.8865 -2.64967 0.000128587 4
9.63521 12.7863 -2.53577 0.000122291 4
13.3576 17.7261 -2.72526 4.27807e-05 1
17.6294 23.395 -2.56286 0.000151498 10
17.6396 23.4085 -1.53611 0.000152989 10
17.6267 23.3914 -0.511245 0.000153738 10
17.6313 23.3976 0.51138 0.000153736 10
17.642 23.4117 1.53632 0.000119283 10
17.6351 23.4025 2.56369 0.000118117 10
17.6291 23.3946 3.59676 0.000116386 10
17.6246 23.3886 4.63841 0.000114108 10
17.6299 23.3956 5.69427 0.00011131 10
17.6374 23.4056 6.76605 0.000108022 10
17.639 23.4077 7.8535 0.000104282 10
5.92694 7.92271 -2.65118 0.000735596 4
7.07846 9.46197 -2.72809 0.000382699 1
8.16623 10.916 -2.6499 0.00012575 4
9.59243 12.8225 -2.53628 0.00010425 4
13.2955 17.7724 -2.72523 4.27745e-05 1
17.5733 23.4907 -2.56662 0.00015195 10
17.5851 23.5065 -1.53849 0.000153447 10
17.5722 23.4892 -0.51204 0.000154198 10
17.5765 23.495 0.512164 0.000154196 10
17.5723 23.4894 1.53738 0.00011964 10
17.5757 23.4939 2.56697 0.00011847 10
17.5736 23.4911 3.60213 0.000116733 10
17.5811 23.5012 4.64853 0.000114448 10
17.5789 23.4983 5.70428 0.00011164 10
17.5734 23.4908 6.7729 0.000108342 10
17.5764 23.4949 7.8621 0.000104589 10
5.89091 7.93212 -2.64743 0.000771531 4
7.03546 9.47325 -2.72425 0.000382672 1
8.13027 10.9474 -2.65062 0.000204857 4
9.55461 12.8653 -2.53814 8.77799e-05 4
13.233 17.8182 -2.72515 4.27684e-05 1
17.5287 23.6024 -2.57212 0.000152385 10
17.5348 23.6106 -1.5413 0.000153887 10
17.5185 23.5886 -0.512871 0.000154641 10
17.5293 23.6032 0.513187 0.000154639 10
17.5224 23.5939 1.54021 0.000119983 10
17.5205 23.5914 2.57092 0.00011881 10
17.5277 23.601 3.60959 0.000117067 10
17.5244 23.5966 4.65527 0.000114774 10
17.516 23.5853 5.71055 0.000111958 10
17.5317 23.6065 6.78857 0.000108649 10
17.5191 23.5895 7.87324 0.000104884 10
5.87549 7.96932 -2.65299 0.00073551 4
7.00379 9.49972 -2.72481 0.000382646 1
8.08439 10.9654 -2.64812 0.000142682 4
9.50475 12.8919 -2.53683 0.000119117 4
13.1737 17.8683 -2.72577 4.27622e-05 1
17.3662 23.555 -2.56033 0.000337207 10
17.3572 23.5428 -1.5329 0.000340441 10
17.3678 23.5571 -0.510863 0.000342021 10
17.4678 23.6927 0.513804 0.000155065 10
17.3783 23.5713 1.53476 0.000265239 10
17.373 23.5642 2.56133 0.000262582 10
17.3674 23.5566 3.5935 0.000258669 10
17.4671 23.6919 4.66201 0.000115089 10
17.3766 23.5691 5.69188 0.000247264 10
17.382 23.5763 6.76242 0.0002399 10
17.476 23.7039 7.89104 0.000105168 10
5.83959 7.97878 -2.64933 0.000739464 4
6.97626 9.53185 -2.72703 0.000382619 1
8.04534 10.9926 -2.64788 0.000156795 4
9.45695 12.9213 -2.5361 0.000112836 4
13.1042 17.9046 -2.7243 4.27561e-05 1
17.1835 23.4783 -2.54546 0.000159607 10
17.176 23.468 -1.52412 0.000161176 10
17.1749 23.4665 -0.507595 0.000161964 10
17.4106 23.7885 0.514561 0.000155474 10
17.1811 23.4749 1.52457 0.000125667 10
17.1821 23.4764 2.54525 0.000124441 10
17.1878 23.4841 3.57327 0.000122621 10
17.4223 23.8045 4.67218 0.00011539 10
17.1837 23.4786 5.65552 0.000117283 10
17.1836 23.4784 6.71709 0.000113826 10
17.4094 23.787 7.8984 0.00010544 10
5.81486 8.00346 -2.65077 0.000719437 4
6.93531 9.54562 -2.72402 0.000382592 1
8.0102 11.0251 -2.64897 0.000158194 4
9.41236 12.955 -2.53625 8.61852e-05 4
13.0397 17.9476 -2.72391 4.27499e-05 1
17.3648 23.9006 -2.58465 0.00015359 10
17.3676 23.9045 0.515755 0.000155866 10
17.367 23.9037 4.67972 0.000115679 10
17.3604 23.8945 7.91393 0.0001057 10
5.78361 8.01917 -2.64927 9.59192e-05 4
6.90106 9.56856 -2.72368 0.000736507 4
7.97722 11.0607 -2.65082 7.20289e-05 4
9.37215 12.9948 -2.53763 0.000101844 4
12.9826 18.0008 -2.72508 4.27437e-05 1
17.3128 24.0048 -2.58938 0.000153958 10
17.3146 24.0072 0.516664 0.000156241 10
17.3102 24.0011 4.68694 0.000115956 10
17.2961 23.9816 7.92274 0.000105949 10
5.76232 8.04872 -2.65238 0.000111899 4
6.81477 9.51876 -2.70271 0.000692903 4
7.93495 11.0834 -2.64961 0.000127099 4
9.3177 13.0148 -2.53516 0.0001222 4
12.9215 18.0485 -2.72546 4.27376e-05 1
17.2514 24.0965 -2.59275 0.000154309 10
17.2606 24.1094 0.517563 0.000156599 10
17.242 24.0833 4.69121 0.000116219 10
17.2526 24.0982 7.94132 0.000106186 10
5.73847 8.07481 -2.65435 0.00030515 4
6.75066 9.49909 -2.69042 0.000646975 4
7.89379 11.1076 -2.6488 0.000145446 4
9.281 13.0596 -2.53757 0.000115138 4
12.848 18.0788 -2.72326 4.27314e-05 1
17.2068 24.2123 -2.59874 0.000154644 10
17.1954 24.1962 0.518135 0.00015694 10
17.1864 24.1836 4.69903 0.00011647 10
17.1908 24.1898 7.95168 0.000106411 10
5.7268 8.11826 -2.66205 0.000336946 4
6.67021 9.45562 -2.6715 0.000701893 4
7.82809 11.097 -2.63973 0.000308393 4
9.23104 13.0858 -2.53638 7.12686e-05 4
12.7903 18.1314 -2.72443 4.27252e-05 1
17.1481 24.309 -2.60267 0.000154962 10
17.1375 24.294 0.518944 0.000157264 10
17.1342 24.2893 4.70791 0.000116709 10
17.1369 24.2931 7.96593 0.000106625 10
5.72208 8.17198 -2.6731 0.000370689 4
6.59606 9.42015 -2.65496 0.000663867 4
7.74656 11.0632 -2.62524 0.000402648 4
9.18637 13.1195 -2.53668 0.000104934 4
12.7255 18.1739 -2.72412 4.27191e-05 1
17.0846 24.3994 -2.60595 0.000155263 10
17.0886 24.405 0.520039 0.000157571 10
17.1196 24.4493 3.66476 7.55622e-05 10
17.0797 24.3923 4.7163 4.20015e-05 10
17.0898 24.4068 7.98359 0.000106827 10
5.71034 8.2161 -2.681 0.000356177 4
6.53395 9.40112 -2.64315 0.000704504 4
7.66609 11.0301 -2.61101 0.000471554 4
9.14818 13.1625 -2.5388 0.000112753 4
12.6653 18.223 -2.72484 4.27129e-05 1
17.0312 24.5047 -2.61083 0.000155547 10
17.0369 24.5129 0.521068 0.000157861 10
17.0741 24.5665 3.67337 7.57001e-05 10
16.997 24.4555 4.71702 4.20065e-05 10
17.0335 24.508 7.99719 0.000107018 10
5.69601 8.25683 -2.68778 0.000289723 4
6.45639 9.35907 -2.62497 0.000916551 4
7.5765 10.9828 -2.59354 0.000480514 4
9.09863 13.1892 -2.53781 9.16019e-05 4
12.6008 18.2659 -2.72466 4.27067e-05 1
16.9831 24.6184 -2.61661 0.000155815 10
16.9749 24.6066 0.521795 0.000158134 10
17.0177 24.6686 3.67974 7.58299e-05 10
16.8992 24.4968 4.71357 4.20116e-05 10
16.9705 24.6001 8.00789 0.000107197 10
5.69085 8.31127 -2.69902 0.000340843 4
6.39138 9.33437 -2.61177 0.000683208 4
7.50635 10.9627 -2.5826 0.00047836 4
9.05137 13.2192 -2.53749 0.000106466 4
12.5482 18.3262 -2.7271 4.27005e-05 1
16.9164 24.7057 -2.61961 0.000156066 10
16.9131 24.701 0.522543 0.00015839 10
16.9652 24.777 3.68705 7.59514e-05 10
16.8182 24.5624 4.71487 4.20166e-05 10
16.9118 24.6991 8.02085 0.000107364 10
5.66637 8.3378 -2.7012 0.000324412 4
6.31778 9.29633 -2.59494 0.000782697 4
7.42118 10.9199 -2.5664 0.000544412 4
9.00483 13.2502 -2.53739 9.0017e-05 4
12.4832 18.3685 -2.7269 4.26944e-05 1
16.8545 24.8006 -2.62341 0.0001563 10
16.8686 24.8213 0.52384 0.000158629 10
16.9098 24.8819 3.69386 7.60649e-05 10
16.7286 24.6154 4.71381 4.20217e-05 10
16.8622 24.8119 8.03831 0.00010752 10
5.66438 8.39779 -2.71421 0.000343664 4
6.24843 9.26368 -2.57973 0.000821678 4
7.35586 10.9055 -2.55696 0.000442061 4
8.96114 13.2854 -2.53813 9.23555e-05 4
12.408 18.3956 -2.72448 4.26882e-05 1
16.8056 24.9153 -2.62932 0.000156517 10
16.8409 24.9676 -1.57833 0.000156861 10
16.8523 24.9845 -0.526039 0.000157636 10
16.8107 24.9228 0.52474 0.000158851 10
16.8434 24.9714 1.57857 7.8078e-05 10
16.8519 24.984 2.63657 7.73105e-05 10
16.8374 24.9625 3.69707 7.61701e-05 10
16.651 24.6862 4.7162 4.20268e-05 10
16.8445 24.9729 5.85528 7.28268e-05 10
16.8452 24.974 6.9547 7.06617e-05 10
16.8012 24.9087 8.05063 0.000107664 10
5.65808 8.45194 -2.72531 0.000294966 4
6.17454 9.22342 -2.5625 0.000683467 4
7.27396 10.8657 -2.54166 0.000146117 4
8.91395 13.3155 -2.53791 9.54761e-05 4
12.3491 18.4469 -2.72567 4.2682e-05 1
16.7171 24.9718 -2.62911 0.000303927 10
16.7165 24.9708 -1.57484 0.00030687 10
16.7321 24.994 -0.525007 0.000308314 10
16.7505 25.0216 0.525587 0.000159056 10
16.7309 24.9923 1.57619 0.000239102 10
16.7336 24.9963 2.63169 0.000236696 10
16.7299 24.9908 3.69259 0.000233151 10
16.5588 24.7353 4.71451 4.20318e-05 10
16.7329 24.9952 5.84678 0.000222812 10
16.7271 24.9866 6.9419 0.000216137 10
16.7478 25.0176 8.06687 0.000107797 10
5.62663 8.46876 -2.72438 0.000614997 1
6.10725 9.19215 -2.54787 0.000733286 4
7.22867 10.88 -2.53909 0.000160199 4
8.85792 13.3322 -2.5352 0.000105639 4
12.2796 18.4823 -2.72456 4.26758e-05 1
16.5203 24.865 -2.61178 0.000309631 10
16.517 24.8601 -1.56421 0.000312625 10
16.5245 24.8714 -0.521216 0.000314094 10
16.6874 25.1165 0.526353 0.000159244 10
16.5287 24.8777 1.56532 0.000243587 10
16.5246 24.8715 2.61246 0.000241142 10
16.5321 24.8828 3.66808 0.000237536 10
16.4688 24.7875 4.71349 4.20369e-05 10
16.5336 24.8851 5.80748 0.000227022 10
16.537 24.8902 6.89903 0.000220233 10
16.6814 25.1075 8.07705 0.000107917 10
5.60715 8.50368 -2.7293 0.00061496 1
6.04674 9.17036 -2.53596 0.00037797 4
7.1868 10.8993 -2.53773 0.000158615 4
8.81121 13.3629 -2.53516 9.31086e-05 4
12.2244 18.5393 -2.72665 4.26696e-05 1
16.4159 24.8961 -2.60901 0.000163688 10
16.4073 24.8829 -1.56203 0.000165309 10
16.4125 24.8909 -0.520421 0.000166124 10
16.633 25.2253 0.527412 0.000159416 10
16.4149 24.8945 1.56276 0.000128894 10
16.4115 24.8893 2.6083 0.000127631 10
16.4024 24.8755 3.65855 0.000125753 10
16.4126 24.891 4.72223 0.000123284 10
16.4107 24.8881 5.79478 0.000120249 10
16.4132 24.8918 6.88357 0.000116684 10
16.6234 25.2107 8.09152 0.000108027 10
5.57688 8.52237 -2.72904 0.000614924 1
6.02154 9.20188 -2.53885 0.000383462 4
7.15624 10.9359 -2.5404 0.000168024 4
9.425 14.4029 -2.72621 0.000107018 1
12.1531 18.5718 -2.72518 4.26635e-05 1
16.5814 25.339 -2.64934 0.00015722 10
16.5686 25.3195 -1.5858 0.000158783 10
16.5716 25.324 -0.528264 0.000159569 10
16.5749 25.3292 0.528371 0.00015957 10
16.573 25.3262 1.58622 0.000123806 10
16.5695 25.3209 2.64745 0.000122588 10
16.5731 25.3264 3.71633 0.000120778 10
16.5737 25.3273 4.794 0.000118397 10
16.5652 25.3143 5.88052 0.000115471 10
16.5762 25.331 6.98898 0.000112034 10
16.5767 25.3318 8.11178 0.000108125 10
5.54151 8.53317 -2.72629 0.000614887 1
5.99059 9.2247 -2.53936 0.000347574 4
7.1037 10.9387 -2.53529 0.000229247 4
9.37907 14.4425 -2.72749 0.000107006 1
12.0901 18.6171 -2.72561 4.26573e-05 1
16.524 25.4447 -2.65435 0.000157354 10
16.515 25.4309 -1.58915 0.000158919 10
16.5176 25.4349 -0.529372 0.000159707 10
16.5153 25.4313 0.529295 0.000159707 10
16.5154 25.4314 1.58919 0.000123913 10
16.5215 25.4409 2.65395 0.000122693 10
16.5133 25.4282 3.72278 0.000120881 10
16.5094 25.4222 4.80104 0.000118496 10
16.5065 25.4178 5.89113 0.000115567 10
16.5179 25.4354 7.00182 0.000112125 10
16.5083 25.4205 8.12168 0.000108211 10
5.50913 8.5485 -2.72502 0.000614851 1
5.95747 9.24419 -2.53899 0.000402717 4
7.0698 10.9702 -2.53685 0.000122464 4
9.33066 14.4784 -2.7281 0.000106995 1
12.0241 18.6577 -2.7254 4.26511e-05 1
16.4632 25.5459 -2.65889 0.000157471 10
16.4595 25.5401 -1.59238 0.000159039 10
16.4531 25.5302 -0.530156 0.000159827 10
16.4551 25.5333 0.530221 0.000159828 10
16.4611 25.5426 1.59254 0.000124006 10
16.4587 25.5389 2.65816 0.000122785 10
16.4541 25.5318 3.72951 0.00012097 10
16.4565 25.5354 4.81153 0.000118583 10
16.4556 25.5342 5.90475 0.00011565 10
16.4616 25.5434 7.0157 0.000112205 10
16.4613 25.5429 8.14237 0.000108286 10
5.48537 8.57724 -2.72806 0.000614815 1
5.91793 9.25362 -2.53589 0.000195828 4
7.03096 10.994 -2.53666 0.000166412 4
9.27686 14.5058 -2.72715 0.000106983 1
11.9627 18.7056 -2.72628 4.26449e-05 1
16.4053 25.6522 -2.66398 0.000157572 10
16.4095 25.6587 -1.59619 0.000159141 10
16.4043 25.6507 -0.531466 0.000159931 10
16.4083 25.6569 0.531595 0.000159932 10
16.4072 25.6552 1.59597 0.000124086 10
16.392 25.6314 2.66182 0.000122864 10
16.4055 25.6526 3.73878 0.000121047 10
16.4036 25.6496 4.82223 0.000118658 10
16.3975 25.64 5.91596 0.000115722 10
16.392 25.6314 7.02411 0.000112272 10
16.4013 25.646 8.15693 0.000108349 10
5.45716 8.5991 -2.72894 0.000614778 1
6.1503 9.69131 -2.64994 0.00032808 4
6.99977 11.0299 -2.53928 0.000200933 4
9.22742 14.5401 -2.72752 0.000106972 1
11.9027 18.7557 -2.7275 4.26387e-05 1
16.3372 25.7433 -2.66751 0.000157656 10
16.3472 25.759 -1.59887 0.000159227 10
16.3379 25.7443 -0.532221 0.000160018 10
16.3447 25.7552 0.532445 0.000160019 10
16.3368 25.7426 1.59786 0.000124154 10
16.3491 25.762 2.66944 0.00012293 10
16.3459 25.7569 3.74565 0.000121112 10
16.3444 25.7547 4.83123 0.00011872 10
16.3467 25.7583 5.93006 0.000115781 10
16.3363 25.7419 7.03871 0.000112328 10
16.3462 25.7575 8.1742 0.000108401 10
5.41952 8.60606 -2.72513 0.000614742 1
6.12547 9.72707 -2.65385 0.000370307 4
6.96079 11.0536 -2.53913 0.000224461 4
9.17875 14.5756 -2.72816 0.00010696 1
11.835 18.7937 -2.72701 4.26325e-05 1
16.2893 25.867 -2.67441 0.000157724 10
16.2824 25.856 -1.60135 0.000159296 10
16.2885 25.8657 -0.533552 0.000160088 10
16.2793 25.8511 0.53325 0.000160089 10
16.2828 25.8567 1.6014 0.000124208 10
16.2841 25.8587 2.67356 0.000122983 10
16.2872 25.8637 3.75288 0.000121163 10
16.2832 25.8572 4.83978 0.000118769 10
