VERSION 0.7
FIELDS x y z intensity label
SIZE 4 4 4 4 4
TYPE F F F F F
COUNT 1 1 1 1 1
WIDTH 1201
HEIGHT 1
VIEWPOINT 11.191 0 2.72646 0.999959 -0.000223582 0.000773239 -0.00906316
POINTS 1201
DATA ascii
38.5663 21.202 -2.30647 8.79415e-05 10
38.56 21.1985 -0.768073 8.84523e-05 10
38.874 21.3712 0.774327 4.5227e-05 10
38.5595 21.1982 2.30606 6.86258e-05 10
38.5643 21.2009 5.40347 6.6789e-05 10
38.5611 21.1991 6.96957 6.53363e-05 10
38.2023 21.0019 8.47395 3.4547e-05 10
38.5446 21.1901 10.1548 6.14546e-05 10
38.8746 21.3715 11.8867 3.01557e-05 10
8.60359 4.76905 -2.6358 6.11485e-05 4
7.85593 4.35461 -2.07368 0.000498157 6
7.82339 4.33657 -1.73871 0.000415793 6
7.9454 4.40421 -1.43883 0.000315367 6
8.18331 4.53608 -1.14882 0.000242257 6
8.80303 4.8796 -0.880572 3.69349e-05 6
38.547 21.3669 -2.30976 4.63311e-05 10
38.556 21.3719 -0.769474 4.65944e-05 10
38.5521 21.3698 0.769396 4.66012e-05 10
37.8837 20.9993 8.41949 3.55968e-05 10
38.5432 21.3648 10.174 6.09393e-05 10
38.5343 21.3599 11.8054 3.10828e-05 10
8.59179 4.80178 -2.63731 0.000118219 4
7.753 4.333 -2.05049 0.0020237 6
7.76325 4.33873 -1.7287 0.000578836 6
7.90165 4.41608 -1.43369 0.000323337 6
8.12064 4.53847 -1.14224 0.000247081 6
8.76996 4.90136 -0.87897 3.92395e-05 6
38.2308 21.3665 0.764468 4.80019e-05 10
38.2093 21.3545 11.7286 3.20279e-05 10
8.5526 4.81914 -2.63042 0.000167134 4
7.72114 4.35064 -2.04607 0.00337934 6
7.69762 4.33738 -1.71745 0.000607696 6
7.8284 4.41108 -1.42318 0.000354943 6
8.0481 4.53487 -1.13426 0.00044038 6
8.72726 4.91756 -0.876405 4.77191e-05 6
37.8966 21.3536 0.759271 4.94293e-05 10
37.8992 21.3551 11.6562 3.29914e-05 10
8.55375 4.8592 -2.63598 0.000366874 4
7.82423 4.44478 -2.07749 0.000342332 6
7.65887 4.35084 -1.71218 0.000414238 6
7.76638 4.41192 -1.4147 0.000360885 6
7.99957 4.54439 -1.12965 0.000262294 6
8.69861 4.9415 -0.875255 4.37093e-05 6
37.0006 21.0193 -2.23017 9.81203e-05 10
36.9994 21.0185 -0.74276 9.86845e-05 10
37.5801 21.3485 0.754418 5.08837e-05 10
37.0063 21.0225 2.23051 7.65689e-05 10
37.0101 21.0247 3.72396 7.57574e-05 10
36.9953 21.0163 5.22425 7.45424e-05 10
37.0021 21.0201 6.74018 7.2939e-05 10
36.9897 21.0131 9.8215 6.86531e-05 10
37.5692 21.3422 11.5776 3.39733e-05 10
7.56545 4.33277 -2.33606 0.00127082 6
7.82624 4.48213 -2.08216 0.000430502 6
7.55332 4.32582 -1.69195 0.00180837 6
7.71832 4.42032 -1.40875 0.000647946 6
7.95477 4.55574 -1.12556 0.000267266 6
8.6632 4.96146 -0.873429 4.40255e-05 6
37.0124 21.1972 -2.23532 9.72854e-05 10
37.0107 21.1962 -0.74447 9.7845e-05 10
37.2704 21.345 0.749692 5.2365e-05 10
36.9952 21.1873 2.23428 7.59175e-05 10
36.9843 21.1811 3.72878 7.51124e-05 10
37.0031 21.1919 5.23576 7.3907e-05 10
36.9894 21.184 6.7513 7.23164e-05 10
37.2541 21.3356 8.34496 3.76118e-05 10
36.992 21.1855 9.84169 6.80645e-05 10
37.255 21.3361 11.5036 3.49738e-05 10
7.51955 4.34141 -2.32656 0.00155844 6
7.8104 4.50934 -2.08212 0.000337404 6
7.50091 4.33065 -1.68359 0.00198137 6
7.66498 4.42538 -1.40182 0.000380323 6
7.87458 4.54639 -1.11645 0.000269951 6
8.61836 4.97581 -0.870654 5.1908e-05 6
36.9744 21.3472 -2.23752 5.35649e-05 10
36.9624 21.3403 -0.744992 5.38659e-05 10
36.956 21.3365 0.744861 5.38734e-05 10
36.9577 21.3375 2.2365 4.17828e-05 10
36.9514 21.3339 3.73295 4.13339e-05 10
36.9492 21.3326 5.23864 4.06646e-05 10
36.9481 21.332 6.75731 3.97836e-05 10
36.9613 21.3396 8.29601 3.87018e-05 10
36.966 21.3424 9.85454 3.74329e-05 10
36.9526 21.3346 11.4332 3.59928e-05 10
7.47164 4.3486 -2.31642 0.00271391 6
7.46786 4.3464 -1.99484 0.000474168 6
7.42994 4.32433 -1.67104 0.00207823 6
7.63893 4.44596 -1.39989 0.000702446 6
7.79893 4.53908 -1.10797 0.00033772 6
8.59462 5.00219 -0.870015 5.21858e-05 6
36.6525 21.3323 -2.22253 5.50927e-05 10
36.6485 21.3299 -0.740161 5.54015e-05 10
36.6573 21.3351 0.740338 5.54092e-05 10
36.6552 21.3338 2.22269 4.29744e-05 10
36.6581 21.3355 3.71082 4.25135e-05 10
36.6422 21.3262 5.20563 4.18265e-05 10
36.6637 21.3388 6.71888 4.09221e-05 10
36.6586 21.3358 8.24473 3.98116e-05 10
36.6459 21.3284 9.78898 3.8509e-05 10
36.6563 21.3345 11.3645 3.70306e-05 10
7.41118 4.34811 -2.30236 0.00428158 6
7.38069 4.33022 -1.97558 0.000750734 6
7.36236 4.31947 -1.65922 0.00238385 6
7.60767 4.46339 -1.39701 0.000517179 6
7.7444 4.54361 -1.10247 0.000361259 6
8.55043 5.01651 -0.867309 5.24644e-05 6
36.3631 21.3341 -2.20948 5.66477e-05 10
36.362 21.3335 -0.735874 5.69645e-05 10
36.3529 21.3281 0.735689 5.69723e-05 10
36.3632 21.3342 2.20949 4.41872e-05 10
36.3655 21.3355 3.68872 4.37143e-05 10
36.3416 21.3215 5.17347 4.30093e-05 10
36.3386 21.3197 6.6729 4.20811e-05 10
36.3488 21.3257 8.19173 4.09415e-05 10
36.3584 21.3314 9.73203 3.96046e-05 10
36.3359 21.3181 11.2881 3.80872e-05 10
7.37935 4.36413 -2.29719 0.00507026 6
7.3107 4.32353 -1.96088 0.000935073 6
7.30113 4.31788 -1.64881 0.00242071 6
7.60221 4.49593 -1.39888 0.000100965 6
7.68284 4.54362 -1.09595 0.000331917 6
8.53384 5.0469 -0.867408 5.27439e-05 6
36.0566 21.3238 -2.19537 5.82301e-05 10
36.056 21.3235 -0.731183 5.8555e-05 10
36.0576 21.3244 0.731214 5.8563e-05 10
36.0673 21.3301 2.19602 4.54214e-05 10
36.0591 21.3253 3.66517 4.49362e-05 10
36.0539 21.3222 5.14307 4.42129e-05 10
36.0577 21.3245 6.63495 4.32607e-05 10
36.0459 21.3175 8.1402 4.20914e-05 10
36.0396 21.3138 9.66655 4.07197e-05 10
36.0423 21.3153 11.22 3.91627e-05 10
7.3263 4.36735 -2.28541 0.00500175 6
7.25656 4.32578 -1.95039 0.00101975 6
7.25315 4.32374 -1.64137 0.00246824 6
7.58026 4.51874 -1.39773 0.000108915 6
7.63081 4.54887 -1.09079 0.000668619 6
8.49541 5.06428 -0.865293 5.30242e-05 6
35.7622 21.3185 -2.18196 5.984e-05 10
35.7714 21.324 -0.726917 6.01733e-05 10
35.7557 21.3146 0.726596 6.01814e-05 10
35.7576 21.3158 2.18168 4.6677e-05 10
35.7486 21.3104 3.64114 4.61793e-05 10
35.7653 21.3204 5.11249 4.54375e-05 10
35.761 21.3178 6.594 4.44608e-05 10
35.7676 21.3217 8.0941 4.32615e-05 10
35.7498 21.3111 9.60869 4.18544e-05 10
35.7442 21.3078 11.1503 4.02571e-05 10
7.29819 4.38519 -2.2814 0.00458299 6
7.20777 4.33086 -1.94133 0.00126061 6
7.2059 4.32974 -1.63408 0.00271133 6
7.5733 4.55049 -1.39937 0.000108793 6
7.62775 4.58321 -1.09263 0.000631791 6
8.47321 5.09121 -0.864836 4.73476e-05 6
35.4792 21.318 -2.16922 6.14777e-05 10
35.4669 21.3107 -0.722236 6.18194e-05 10
35.4733 21.3145 0.722366 6.18277e-05 10
35.4685 21.3116 2.16857 4.79543e-05 10
35.4777 21.3171 3.62111 4.7444e-05 10
35.4696 21.3123 5.08083 4.66833e-05 10
35.4727 21.3142 6.55453 4.56817e-05 10
35.4742 21.315 8.0445 4.44518e-05 10
35.4696 21.3123 9.55332 4.30089e-05 10
35.471 21.3131 11.0882 4.13707e-05 10
7.22538 4.37585 -2.26341 0.00305913 6
7.16868 4.34151 -1.93487 0.00117561 6
7.1322 4.31941 -1.62078 0.00275861 6
7.55264 4.57404 -1.39849 0.000421291 6
7.62594 4.61843 -1.09468 0.0006006 6
8.44263 5.11304 -0.863532 4.6491e-05 6
35.3276 21.3951 -2.1645 0.000107241 10
35.3221 21.3918 -0.720804 0.000107852 10
35.3183 21.3895 0.720726 0.000107881 10
35.3074 21.3829 2.16327 8.36864e-05 10
35.2998 21.3783 3.61055 8.28085e-05 10
35.3091 21.384 5.0685 8.14936e-05 10
35.3189 21.3899 6.53986 7.97583e-05 10
35.3105 21.3848 8.02426 7.76241e-05 10
35.2969 21.3766 9.52686 7.51176e-05 10
35.3077 21.3831 11.0604 7.22699e-05 10
7.15994 4.37044 -2.24767 0.00567891 6
7.14261 4.35987 -1.93193 0.00122339 6
7.09786 4.33255 -1.61641 0.00280634 6
7.56342 4.61673 -1.40347 0.0004188 6
7.60843 4.6442 -1.09448 0.00158188 6
8.41822 5.1385 -0.862865 4.90945e-05 6
35.3245 21.5621 -2.16891 0.000106276 10
35.3238 21.5617 -0.722369 0.000106882 10
35.3236 21.5616 0.722366 0.000106912 10
35.3033 21.5492 2.16761 8.29341e-05 10
35.2974 21.5456 3.61797 8.20636e-05 10
35.2976 21.5457 5.07761 8.07597e-05 10
35.3101 21.5534 6.55213 7.90389e-05 10
35.2946 21.5439 8.03768 7.69226e-05 10
35.2875 21.5395 9.54454 7.44373e-05 10
35.3005 21.5475 11.0816 7.16135e-05 10
7.16253 4.40642 -2.2533 0.00438287 6
7.10317 4.3699 -1.92538 0.00115785 6
7.02989 4.32481 -1.60435 0.0029218 6
7.55408 4.6473 -1.40473 0.000442324 6
7.61993 4.68781 -1.09848 0.00158468 6
8.40064 5.16811 -0.862907 4.92515e-05 6
35.3249 21.732 -2.17359 0.000105312 10
35.3137 21.7252 -0.723711 0.000105913 10
35.3081 21.7217 0.723594 0.000105943 10
35.3183 21.7279 2.17318 8.21822e-05 10
35.3172 21.7273 3.62775 8.1319e-05 10
35.2924 21.712 5.08773 8.00261e-05 10
35.2902 21.7107 6.56246 7.83199e-05 10
35.3015 21.7176 8.05647 7.62215e-05 10
35.2934 21.7126 9.56659 7.37572e-05 10
35.2926 21.7122 11.1029 7.09574e-05 10
6.99221 4.33536 -2.20446 0.00040704 6
7.11167 4.40942 -1.93184 0.0010434 6
6.98574 4.33134 -1.59772 0.00355303 6
7.56619 4.69123 -1.41002 0.000439667 6
7.61645 4.7224 -1.10035 0.00048937 6
8.35937 5.18303 -0.860521 4.94088e-05 6
35.322 21.9006 -2.1781 0.000104349 10
35.2975 21.8854 -0.724939 0.000104945 10
35.3174 21.8977 0.725347 0.000104974 10
35.3105 21.8935 2.17739 8.14306e-05 10
35.3042 21.8895 3.63424 8.05747e-05 10
35.2995 21.8866 5.09974 7.92929e-05 10
35.3064 21.8909 6.57964 7.76012e-05 10
35.3067 21.8911 8.07504 7.55208e-05 10
35.294 21.8832 9.58739 7.30775e-05 10
35.2981 21.8858 11.1286 7.03017e-05 10
6.92035 4.32432 -2.18655 0.00184611 6
6.87598 4.29659 -1.87188 0.00233079 6
6.95241 4.34434 -1.59355 0.000428778 6
7.54931 4.71734 -1.40994 0.000462713 6
7.61147 4.75617 -1.10203 0.000486285 6
8.34903 5.21705 -0.861326 5.23061e-05 6
35.3091 22.0636 -2.18204 0.000103386 10
35.3051 22.0611 -0.726672 0.000103977 10
35.3087 22.0633 0.726746 0.000104006 10
35.2908 22.0521 2.1809 8.06794e-05 10
35.2956 22.0552 3.64126 7.98309e-05 10
35.3047 22.0608 5.11159 7.85601e-05 10
35.3065 22.062 6.59397 7.6883e-05 10
35.2985 22.057 8.09074 7.48204e-05 10
35.2903 22.0519 9.60726 7.23983e-05 10
35.2901 22.0517 11.1503 6.96464e-05 10
6.88933 4.33844 -2.18152 0.00174769 6
6.82054 4.29512 -1.86086 0.00340447 6
6.89524 4.34216 -1.58392 0.000459374 6
7.54615 4.75206 -1.41243 0.000463097 6
7.60502 4.78913 -1.10351 0.0004792 6
8.31678 5.23735 -0.859879 5.52329e-05 6
35.3029 22.2314 -2.18643 0.000102424 10
35.2951 22.2265 -0.728059 0.00010301 10
35.3128 22.2377 0.728423 0.000103039 10
32.3246 20.3559 2.00198 6.51129e-05 10
32.3334 20.3614 3.34298 6.44369e-05 10
35.2913 22.2241 5.12085 7.78279e-05 10
32.3132 20.3487 6.04816 6.21017e-05 10
32.3116 20.3477 7.42234 6.04708e-05 10
32.3191 20.3524 8.81767 5.85563e-05 10
32.3098 20.3466 10.231 5.63812e-05 10
6.88013 4.36626 -2.18342 0.0018536 6
6.78098 4.30334 -1.85415 0.00343553 6
6.86298 4.35538 -1.57999 0.00046748 6
7.55315 4.79338 -1.41687 0.000758182 6
7.61031 4.82965 -1.10671 0.000475323 6
8.27316 5.25031 -0.85726 5.54068e-05 6
35.3091 22.4078 -2.19165 0.000101463 10
35.2897 22.3955 -0.729556 0.000102044 10
35.3025 22.4036 0.729819 0.000102072 10
32.2692 20.4787 2.00297 0.000107265 10
32.2618 20.474 3.34294 0.000106167 10
35.2929 22.3976 5.13239 7.70963e-05 10
32.253 20.4684 6.05022 0.00010235 10
32.2563 20.4705 8.81998 9.65356e-05 10
32.2499 20.4664 10.2346 9.29641e-05 10
6.86904 4.39293 -2.18476 0.00156258 6
6.72129 4.29844 -1.84192 0.0034838 6
6.7896 4.34213 -1.56658 0.000419817 6
7.55607 4.83231 -1.42057 0.000752784 6
7.61197 4.86805 -1.10942 0.000472011 6
8.24797 5.2748 -0.856552 5.55809e-05 6
35.3052 22.5786 -2.19629 0.000100502 10
35.2912 22.5696 -0.73121 0.000101078 10
35.2821 22.5638 0.731022 0.000101107 10
32.2717 20.6386 2.00757 0.000106279 10
32.275 20.6407 3.35175 0.00010519 10
32.3862 20.7118 4.72018 6.27627e-05 10
32.2636 20.6335 6.06569 0.000101405 10
32.2588 20.6303 8.84029 9.56412e-05 10
32.2469 20.6227 10.2564 9.21005e-05 10
6.71535 4.32774 -2.14067 0.00211067 6
6.68238 4.3065 -1.83537 0.00353238 6
6.74054 4.34398 -1.55874 0.00040704 6
7.54677 4.86356 -1.42201 0.000747382 6
7.6086 4.90341 -1.11142 0.000468696 6
35.2914 22.7438 -2.20035 9.9543e-05 10
35.2843 22.7392 -0.732707 0.000100114 10
35.2968 22.7472 0.732968 0.000100142 10
32.2309 20.7714 2.00953 6.7422e-05 10
32.2292 20.7703 3.35451 6.67312e-05 10
32.1414 20.7137 4.69501 6.4323e-05 10
32.2282 20.7697 6.07263 6.43295e-05 10
32.2284 20.7698 8.85178 6.06717e-05 10
32.2333 20.773 10.2751 5.84248e-05 10
6.64916 4.31802 -2.12436 0.00257223 6
6.67202 4.33286 -1.83667 0.000379001 6
6.67591 4.33539 -1.54729 0.000494219 6
7.5615 4.91049 -1.428 0.000742448 6
7.60616 4.9395 -1.11357 0.000465377 6
35.294 22.9202 -2.20549 9.85846e-05 10
35.2952 22.9209 -0.73459 9.91502e-05 10
35.2823 22.9126 0.734322 9.91784e-05 10
31.8764 20.7008 4.66683 6.59067e-05 10
31.8913 20.7104 7.3915 4.01139e-05 10
6.61914 4.33144 -2.11959 0.00332722 6
6.60448 4.32185 -1.82221 0.000387905 6
6.63755 4.34349 -1.5419 0.000502518 6
7.54916 4.94003 -1.42892 0.000737041 6
7.60642 4.9775 -1.11615 0.000462057 6
35.2922 23.0945 -2.2104 9.76274e-05 10
35.2784 23.0855 -0.735914 9.8188e-05 10
35.2809 23.0872 0.735967 9.8216e-05 10
31.6305 20.6984 4.64138 6.7514e-05 10
31.7451 20.7734 7.37438 4.06387e-05 10
6.5752 4.33554 -2.11035 0.00337145 6
6.55185 4.32014 -1.81184 0.000403134 6
6.57382 4.33463 -1.5306 0.000500752 6
7.55094 4.97893 -1.43254 0.000731404 6
7.59036 5.00492 -1.11635 0.000458733 6
35.2977 23.2745 -2.21582 9.66714e-05 10
35.2826 23.2646 -0.737693 9.72271e-05 10
35.2835 23.2652 0.737709 9.72549e-05 10
30.8223 20.3236 1.93488 7.53183e-05 10
30.8323 20.3301 3.2311 7.4544e-05 10
31.3976 20.7029 4.61778 6.91448e-05 10
31.5095 20.7767 5.97788 6.73775e-05 10
31.4839 20.7598 7.3305 4.16246e-05 10
31.5032 20.7725 8.71187 6.35649e-05 10
31.4988 20.7696 10.1097 6.12223e-05 10
6.54466 4.34826 -2.10541 0.00550101 6
6.49005 4.31198 -1.79891 0.000492135 6
6.5421 4.34656 -1.52674 0.000483812 6
7.55746 5.02116 -1.43709 0.000725986 6
7.59926 5.04893 -1.12024 0.000455408 6
8.1734 5.43039 -0.85852 2.89094e-05 6
35.2913 23.4475 -2.22055 9.57169e-05 10
35.2842 23.4428 -0.739432 9.62675e-05 10
35.2821 23.4414 0.739387 9.62951e-05 10
30.7042 20.3999 1.93193 0.000119203 10
30.7202 20.4105 3.2268 0.000117996 10
31.1349 20.686 4.58973 7.07992e-05 10
30.7161 20.4077 5.84083 0.0001138 10
30.7129 20.4056 7.16753 0.00011086 10
30.69 20.3904 8.50661 0.000107405 10
30.6914 20.3913 9.87335 0.000103474 10
6.47508 4.33469 -2.08788 0.000341164 6
6.43822 4.31001 -1.7887 0.000500907 6
6.49824 4.35019 -1.52004 0.000530518 6
7.55414 5.05705 -1.43981 0.000720566 6
7.5919 5.08233 -1.12176 0.000449952 6
8.15292 5.4579 -0.858365 3.03224e-05 6
35.2767 23.6157 -2.2248 9.47638e-05 10
35.2858 23.6218 -0.741188 9.53093e-05 10
35.2809 23.6185 0.741085 9.53368e-05 10
30.7034 20.5541 1.93638 0.000118066 10
30.6947 20.5483 3.23163 0.000116871 10
30.8933 20.6813 4.56473 7.24772e-05 10
30.6991 20.5512 5.8512 0.000112711 10
30.708 20.5572 7.18309 0.000109798 10
30.6922 20.5466 8.52706 0.000106374 10
30.6919 20.5464 9.89653 0.000102479 10
6.4301 4.33716 -2.07824 0.000418805 6
6.38051 4.30371 -1.77683 0.000488295 6
6.43797 4.34247 -1.50948 0.000539019 6
7.55616 5.09669 -1.44357 0.000715405 6
7.59834 5.12515 -1.12535 0.000446001 6
8.16 5.50399 -0.861128 3.02148e-05 6
35.2654 23.7868 -2.22931 9.38122e-05 10
35.2737 23.7924 -0.742674 9.43528e-05 10
35.2681 23.7886 0.742556 9.43801e-05 10
30.6763 20.6914 1.93921 7.61297e-05 10
30.6665 20.6848 3.23625 7.53465e-05 10
30.6726 20.6889 4.54276 7.41789e-05 10
30.6688 20.6863 5.85915 7.26411e-05 10
30.657 20.6784 7.18799 7.07514e-05 10
30.6753 20.6908 8.54239 6.85326e-05 10
30.666 20.6845 9.91141 6.60112e-05 10
6.3813 4.33672 -2.06735 0.000447563 6
6.3344 4.30485 -1.76816 0.000529721 6
6.39023 4.3428 -1.50183 0.000579594 6
7.55578 5.1349 -1.44692 0.000709982 6
7.60677 5.16955 -1.12927 0.000442625 6
35.2714 23.9704 -2.23497 9.28625e-05 10
35.2699 23.9694 -0.744351 9.3398e-05 10
35.2606 23.9631 0.744154 9.3425e-05 10
30.4325 20.6819 1.92835 7.78972e-05 10
30.4374 20.6852 3.21967 7.7097e-05 10
30.4262 20.6776 4.51694 7.59041e-05 10
30.4309 20.6808 5.82745 7.4333e-05 10
30.4349 20.6835 7.15281 7.24024e-05 10
30.4226 20.6751 8.49204 7.01355e-05 10
30.4345 20.6833 9.85986 6.75592e-05 10
6.322 4.32876 -2.05302 0.000456523 6
6.28925 4.30634 -1.75974 0.000538667 6
6.34498 4.34449 -1.49475 0.000587985 6
7.53758 5.16109 -1.44687 0.000704557 6
7.59718 5.2019 -1.13053 0.000439249 6
35.2762 24.1541 -2.2406 9.19143e-05 10
35.2722 24.1514 -0.746175 9.24449e-05 10
35.2644 24.146 0.746009 9.24717e-05 10
30.1958 20.6755 1.91791 7.96891e-05 10
30.1946 20.6746 3.2016 7.88717e-05 10
30.2072 20.6833 4.49511 7.76532e-05 10
30.1933 20.6738 5.79575 7.60484e-05 10
30.1828 20.6666 7.11047 7.40763e-05 10
30.1947 20.6747 8.44852 7.17606e-05 10
30.1938 20.6741 9.80518 6.91287e-05 10
6.2783 4.33111 -2.04373 0.000466763 6
6.23753 4.30299 -1.74946 0.000549124 6
6.30853 4.35196 -1.48973 0.000554945 6
7.54387 5.20416 -1.45156 0.000699132 6
7.5902 5.23613 -1.13221 0.000435873 6
35.2708 24.3317 -2.24563 9.0968e-05 10
35.2718 24.3323 -0.747957 9.14936e-05 10
35.2506 24.3178 0.747508 9.15202e-05 10
29.9779 20.6803 1.90864 8.15052e-05 10
29.9687 20.674 3.18528 8.06705e-05 10
29.9563 20.6655 4.46848 7.94261e-05 10
29.9561 20.6654 5.76404 7.77871e-05 10
29.9756 20.6788 7.07862 7.57731e-05 10
29.9747 20.6781 8.40711 7.3408e-05 10
29.9725 20.6766 9.75671 7.07198e-05 10
6.23818 4.33565 -2.03558 0.000475079 6
6.21373 4.31865 -1.74701 0.000593205 6
6.25338 4.34621 -1.48028 0.000592882 6
7.54568 5.24439 -1.45542 0.000693707 6
7.59068 5.27566 -1.13502 0.000432497 6
35.2733 24.5156 -2.25123 9.00237e-05 10
35.2564 24.5038 -0.74944 9.05443e-05 10
35.2498 24.4992 0.749299 9.05707e-05 10
29.75 20.6768 1.89872 8.33457e-05 10
29.7477 20.6752 3.16944 8.24934e-05 10
29.7364 20.6673 4.44642 8.12228e-05 10
29.7249 20.6593 5.73338 7.95492e-05 10
29.7348 20.6662 7.03873 7.74927e-05 10
29.7409 20.6704 8.36172 7.50776e-05 10
29.745 20.6733 9.70609 7.23326e-05 10
6.1684 4.31916 -2.01772 0.000497052 6
6.16211 4.31476 -1.73672 0.000601375 6
6.22761 4.36062 -1.47778 0.000528021 6
7.53319 5.2748 -1.45656 0.000688281 6
7.58841 5.31346 -1.13744 0.000435753 6
35.2709 24.6969 -2.25656 8.90813e-05 10
35.2662 24.6937 -0.751478 8.95969e-05 10
35.2568 24.6871 0.751276 8.96232e-05 10
29.5053 20.6599 1.8877 8.52104e-05 10
29.5094 20.6627 3.15172 8.43404e-05 10
29.5222 20.6717 4.42515 8.30433e-05 10
29.5209 20.6707 5.70792 8.13348e-05 10
29.5143 20.6662 7.00359 7.92352e-05 10
29.5061 20.6604 8.31594 7.67696e-05 10
29.5052 20.6598 9.65131 7.39669e-05 10
6.13423 4.32722 -2.01147 0.000531391 6
6.13089 4.32487 -1.73216 0.00064168 6
6.19981 4.37349 -1.4748 0.000679857 6
7.58308 5.34927 -1.4698 0.000680653 6
7.60238 5.36289 -1.14234 0.00043249 6
35.0691 24.7385 -2.24916 8.97115e-05 10
35.0662 24.7365 -0.74905 9.02303e-05 10
35.0672 24.7372 0.749072 9.02568e-05 10
29.2834 20.6572 1.8781 8.70995e-05 10
29.296 20.666 3.13661 8.62114e-05 10
29.2793 20.6543 4.39952 8.48876e-05 10
29.2851 20.6584 5.67623 8.31437e-05 10
29.2901 20.6619 6.96745 8.10006e-05 10
29.2725 20.6495 8.27038 7.84838e-05 10
29.2753 20.6514 9.59963 7.56229e-05 10
6.09725 4.33309 -2.00429 0.000539631 6
6.07487 4.31718 -1.72058 0.00412825 6
6.16915 4.38419 -1.47113 0.00055682 6
7.56094 5.37328 -1.46914 0.000675267 6
7.58889 5.39315 -1.14313 0.000429226 6
35.0702 24.9231 -2.2548 8.87584e-05 10
35.0634 24.9183 -0.750845 8.92721e-05 10
35.0664 24.9204 0.750909 8.92985e-05 10
29.1993 20.7509 1.87734 0.000128211 10
29.1998 20.7512 3.13404 0.000126925 10
29.1958 20.7484 4.39784 0.000124997 10
29.1889 20.7435 5.67159 0.00012245 10
29.187 20.7421 6.96011 0.000119314 10
29.2045 20.7546 8.27159 0.000115628 10
29.1993 20.7509 9.59842 0.000111433 10
6.03882 4.32337 -1.99003 0.000742655 6
6.06082 4.33912 -1.72088 0.00568568 6
6.11478 4.37775 -1.4618 0.000562016 6
7.5611 5.41321 -1.47283 0.000669882 6
7.58619 5.43117 -1.14557 0.000425282 6
35.0758 25.1118 -2.26079 8.78076e-05 10
35.0813 25.1157 -0.7531 8.83163e-05 10
35.073 25.1098 0.752921 8.83425e-05 10
29.2101 20.9124 1.88271 0.000126914 10
29.1987 20.9042 3.14174 0.00012564 10
29.2016 20.9063 4.40967 0.00012373 10
29.1992 20.9045 5.68772 0.000121207 10
29.1841 20.8938 6.97678 0.000118102 10
29.184 20.8937 8.28637 0.00011445 10
29.181 20.8916 9.61631 0.000110295 10
6.01345 4.33704 -1.98665 0.000748125 6
6.01781 4.34018 -1.71296 0.005654 6
6.09672 4.39709 -1.46115 0.00065445 6
7.57746 5.46504 -1.47973 0.000664499 6
7.5831 5.4691 -1.14798 0.000422005 6
35.2374 25.414 -2.2769 8.53341e-05 10
35.234 25.4116 -0.758278 8.58298e-05 10
35.2439 25.4187 0.758491 8.58553e-05 10
29.194 21.0554 1.8864 0.00012562 10
29.1957 21.0566 3.14931 0.000124358 10
29.1875 21.0507 4.41861 0.000122466 10
29.1873 21.0506 5.6997 0.000119968 10
29.1831 21.0475 6.99405 0.000116891 10
29.1967 21.0573 8.31081 0.000113275 10
29.1914 21.0535 9.6439 0.00010916 10
5.99494 4.35558 -1.98554 0.000793252 6
5.97624 4.34199 -1.70543 0.00553951 6
6.07034 4.41036 -1.4585 0.000596654 6
7.57445 5.50316 -1.48288 0.000659118 6
7.58347 5.50971 -1.15094 0.000418729 6
35.2411 25.6042 -2.2829 8.44033e-05 10
35.2337 25.5987 -0.760189 8.48941e-05 10
35.234 25.599 0.760196 8.49194e-05 10
29.1922 21.2093 1.89106 0.000124328 10
29.1985 21.214 3.15758 0.000123078 10
29.1888 21.2069 4.42998 0.000121205 10
29.1905 21.2081 5.71474 0.00011873 10
29.1921 21.2093 7.0139 0.000115684 10
29.1876 21.2061 8.32924 0.000112102 10
29.1843 21.2036 9.66593 0.000108027 10
5.96316 4.36437 -1.98005 0.000798999 6
5.94751 4.35292 -1.70156 0.00316301 6
6.03192 4.4147 -1.45297 0.000666683 6
7.57888 5.5469 -1.48753 0.00065374 6
7.5965 5.5598 -1.15586 0.000413342 6
35.2301 25.7845 -2.28801 8.34751e-05 10
35.2373 25.7898 -0.762205 8.39609e-05 10
35.2314 25.7855 0.762077 8.3986e-05 10
29.202 21.3726 1.89651 0.000123039 10
29.1851 21.3602 3.16417 0.000121802 10
29.1931 21.3661 4.44194 0.000119947 10
29.1836 21.3592 5.72796 0.000117496 10
29.1845 21.3598 7.02996 0.000114479 10
29.1739 21.352 8.34653 0.000110932 10
29.1742 21.3523 9.68722 0.000106896 10
5.94829 4.38545 -1.98018 0.000848793 6
5.93274 4.37399 -1.70169 0.00784424 6
6.01785 4.43674 -1.4533 0.000666102 6
7.57262 5.58302 -1.49012 0.000648365 6
7.59383 5.59865 -1.15842 0.000410033 6
35.249 25.9878 -2.29511 8.25495e-05 10
35.2369 25.9788 -0.764153 8.30304e-05 10
35.2337 25.9765 0.764084 8.30553e-05 10
29.185 21.517 1.90027 0.000121753 10
29.1816 21.5145 3.17192 0.000120528 10
29.1924 21.5225 4.45323 0.000118691 10
29.1737 21.5087 5.74071 0.000116264 10
29.1814 21.5144 7.04726 0.000113277 10
29.1726 21.5079 8.36759 0.000109765 10
29.1722 21.5076 9.71141 0.000105769 10
5.94611 4.41597 -1.98458 0.000803756 6
5.93038 4.40429 -1.70541 0.00750312 6
6.02043 4.47116 -1.45768 0.000589286 6
7.56467 5.61802 -1.4924 0.000642993 6
7.57571 5.62622 -1.15864 0.000406724 6
29.7701 22.1092 -1.94339 0.000103497 10
29.7732 22.1115 -0.647337 0.00010405 10
29.7617 22.103 0.647086 0.000104062 10
29.1828 21.673 1.90505 0.000120471 10
29.187 21.6762 3.18071 0.000119257 10
29.1933 21.6808 4.46488 0.000117439 10
29.1803 21.6712 5.75686 0.000115036 10
29.1789 21.6702 7.06488 0.000112078 10
29.171 21.6643 8.38878 0.0001086 10
29.1742 21.6667 9.73722 0.000104644 10
5.92974 4.43601 -1.98427 0.000843295 6
5.91239 4.42303 -1.70467 0.00886155 6
6.00459 4.49201 -1.45764 0.000635316 6
7.56259 5.65754 -1.49588 0.00063729 6
7.59626 5.68272 -1.16481 0.000402672 6
29.5523 22.108 -1.9342 0.000105676 10
29.5401 22.0988 -0.643942 0.000106241 10
29.5577 22.112 0.644325 0.000106253 10
29.1785 21.8283 1.90973 0.000119191 10
29.1926 21.8389 3.18961 0.00011799 10
29.1713 21.8229 4.47314 0.000116189 10
29.1814 21.8305 5.77207 0.00011381 10
29.168 21.8205 7.08064 0.000110882 10
29.182 21.8309 8.41379 0.000107439 10
29.1712 21.8229 9.76158 0.000103522 10
5.92326 4.4635 -1.98731 0.0008405 6
5.89508 4.44226 -1.70414 0.00638398 6
5.99103 4.51457 -1.45816 0.000549308 6
7.55605 5.69389 -1.49851 0.000632017 6
7.5887 5.71849 -1.16671 0.000399355 6
29.3237 22.097 -1.92427 0.000107882 10
29.3278 22.1001 -0.640991 0.000108457 10
29.3302 22.1019 0.641045 0.000108469 10
29.1937 21.999 1.91574 0.000117915 10
29.1713 21.9821 3.19564 0.000116726 10
29.1734 21.9837 4.48521 0.000114943 10
29.1847 21.9922 5.78787 0.000112588 10
29.1832 21.9911 7.10291 0.000109689 10
29.1731 21.9835 8.4333 0.000106281 10
29.1803 21.9889 9.79024 0.000102403 10
5.9959 4.55114 -2.017 0.000698858 6
5.91218 4.48759 -1.7136 0.00074718 6
5.98921 4.54605 -1.46157 0.000546248 6
7.57014 5.74605 -1.50527 0.000626655 6
7.58588 5.758 -1.16936 0.000396041 6
29.1965 22.1613 -1.92099 0.000149468 10
29.1767 22.1463 -0.639376 0.000150291 10
29.1805 22.1492 0.639458 0.000150335 10
29.1716 22.1425 1.91935 0.000116642 10
29.1876 22.1546 3.20588 0.000115465 10
29.1666 22.1387 4.49601 0.000113701 10
29.1772 22.1467 5.80168 0.000111369 10
29.1804 22.1491 7.121 0.0001085 10
29.158 22.1321 8.45122 0.000105126 10
29.1712 22.1421 9.81306 0.000101288 10
5.98841 4.57848 -2.01984 0.000729266 6
5.89306 4.50559 -1.71261 0.000822036 6
5.97432 4.56771 -1.46182 0.000543185 6
7.56704 5.78544 -1.50866 0.000621299 6
7.57676 5.79287 -1.17106 0.000388783 6
29.1717 22.3035 -1.92447 0.000147841 10
29.1715 22.3033 -0.640963 0.000148657 10
29.184 22.3129 0.641238 0.000148699 10
29.1689 22.3013 1.92428 6.14824e-05 10
29.1742 22.3054 3.21294 0.000114208 10
29.1373 22.2771 4.50345 7.79552e-05 10
29.1454 22.2833 5.81079 7.63423e-05 10
29.1781 22.3083 7.1394 0.000107313 10
29.1283 22.2703 8.4651 7.20338e-05 10
29.1691 22.3014 9.83847 0.000100175 10
5.98385 4.60818 -2.02371 0.000722899 6
5.89282 4.53808 -1.71713 0.000815252 6
5.98203 4.60678 -1.46763 0.000724952 6
7.57124 5.83064 -1.51355 0.000616189 6
7.57003 5.8297 -1.17316 0.000385559 6
35.2224 27.1249 -2.32986 7.70565e-05 10
35.2027 27.1097 -0.775556 7.75081e-05 10
35.2217 27.1244 0.775975 7.75318e-05 10
28.9591 22.3015 1.91556 6.27355e-05 10
30.5846 23.5533 3.37731 9.65014e-05 10
28.9199 22.2713 4.48183 7.95463e-05 10
28.9414 22.2878 5.78559 5.9869e-05 10
30.5951 23.5614 7.5062 9.05887e-05 10
28.9267 22.2765 8.42905 7.35121e-05 10
30.5726 23.544 10.3395 8.44723e-05 10
5.98327 4.6411 -2.02898 0.000716539 6
5.91071 4.58482 -1.727 0.000808456 6
5.97686 4.63613 -1.47032 0.000719811 6
7.56865 5.87085 -1.51712 0.000610848 6
7.58487 5.88342 -1.17863 0.000382196 6
35.2105 27.312 -2.33537 7.61519e-05 10
35.2171 27.3172 -0.777971 7.65986e-05 10
35.2057 27.3084 0.777718 7.66221e-05 10
28.7323 22.2871 1.9057 6.4003e-05 10
28.7021 22.2636 4.4601 8.11557e-05 10
28.7459 22.2976 5.76204 6.10824e-05 10
30.5827 23.7223 7.52341 8.95676e-05 10
28.7082 22.2683 8.38798 7.50077e-05 10
5.99673 4.68516 -2.03908 0.00071457 6
5.89624 4.60664 -1.72746 0.000801667 6
5.96326 4.65901 -1.47097 0.000714669 6
7.56341 5.90918 -1.52019 0.000605513 6
7.5831 5.92456 -1.18157 0.00142385 6
35.2122 27.5108 -2.34184 7.52506e-05 10
35.2084 27.5078 -0.779893 7.56925e-05 10
35.213 27.5114 0.779996 7.57158e-05 10
28.5364 22.2951 1.89786 6.52847e-05 10
28.5058 22.2712 4.44166 8.27834e-05 10
28.5318 22.2915 5.73469 6.23097e-05 10
30.5845 23.8952 7.54434 8.85497e-05 10
28.5056 22.271 8.35145 7.65204e-05 10
5.99239 4.71554 -2.04319 0.000708218 6
5.89396 4.63809 -1.73152 0.000794885 6
5.97341 4.70061 -1.47751 0.000743606 6
7.56094 5.94987 -1.52386 0.000600185 6
7.58231 5.96669 -1.18468 0.00119775 6
35.2088 27.7066 -2.34803 7.43527e-05 10
35.197 27.6973 -0.781778 7.47898e-05 10
35.209 27.7068 0.782045 7.4813e-05 10
28.3098 22.2776 1.88794 6.65809e-05 10
28.2954 22.2663 4.42096 8.44293e-05 10
28.3089 22.2769 5.70548 6.35507e-05 10
30.5866 24.0693 7.56553 8.75355e-05 10
28.2859 22.2588 8.3098 7.80501e-05 10
6.00114 4.75644 -2.05182 0.000666779 6
5.89389 4.67144 -1.73628 0.000748705 6
5.97003 4.73178 -1.48075 0.000733145 6
7.55603 5.98884 -1.52707 0.000594865 6
7.579 6.00704 -1.18743 0.000486109 6
35.1913 27.8923 -2.35334 7.34584e-05 10
35.2029 27.9014 -0.784068 7.38906e-05 10
35.2072 27.9049 0.784164 7.39136e-05 10
28.1029 22.2741 1.87932 6.78914e-05 10
28.0802 22.2561 4.39944 8.60935e-05 10
28.1031 22.2742 5.67963 6.48055e-05 10
30.5774 24.2353 7.58414 8.65246e-05 10
28.0731 22.2505 8.27005 7.9597e-05 10
5.99644 4.7869 -2.05592 0.000695539 6
5.89359 4.70479 -1.74102 0.000742277 6
5.96154 4.75903 -1.48276 0.000727787 6
7.56541 6.03938 -1.53322 0.000589551 6
7.59032 6.05927 -1.19251 0.000121139 6
30.8755 24.6476 -2.07047 8.78385e-05 10
30.8726 24.6453 -0.689532 8.83174e-05 10
30.8763 24.6482 0.689615 8.8327e-05 10
27.913 22.2826 1.87181 6.92161e-05 10
27.8854 22.2606 4.38106 8.77757e-05 10
27.8968 22.2697 5.65362 6.60741e-05 10
30.5786 24.4106 7.60553 8.55174e-05 10
27.8753 22.2525 8.23461 8.11607e-05 10
5.98979 4.81591 -2.05939 0.000689214 6
5.89471 4.73947 -1.74623 0.000774582 6
5.95848 4.79074 -1.48615 0.000722505 6
7.56935 6.08591 -1.53831 0.000584246 6
16.052 12.9061 -2.52899 0.000203699 4
30.6536 24.6461 -2.06135 8.95913e-05 10
30.6914 24.6765 -0.687405 0.000115742 10
30.7016 24.6847 0.687631 0.000115776 10
27.7066 22.2767 1.86317 7.0555e-05 10
30.6066 24.6084 3.43591 8.39506e-05 10
27.6803 22.2555 4.36103 8.94762e-05 10
27.694 22.2665 5.62823 6.73562e-05 10
30.5708 24.5796 7.62489 8.45139e-05 10
27.675 22.2513 8.19834 8.27416e-05 10
30.6063 24.6081 10.5229 7.33615e-05 10
5.9867 4.84793 -2.06413 0.0006829 6
5.90554 4.78221 -1.75437 0.000768349 6
5.95366 4.82117 -1.48913 0.000716995 6
7.55277 6.11611 -1.53928 0.000578949 6
15.9373 12.9058 -2.518 0.000252527 4
30.4437 24.6528 -2.05301 9.13635e-05 10
30.4517 24.6593 -0.68396 7.75417e-05 10
30.4478 24.6562 0.683872 7.75649e-05 10
27.5036 22.272 1.85474 7.19082e-05 10
30.5247 24.7184 3.43637 8.44545e-05 10
27.4805 22.2532 4.34175 9.11947e-05 10
27.5092 22.2765 5.60644 6.86521e-05 10
30.4217 24.635 7.60911 6.61365e-05 10
27.4742 22.2482 8.16182 8.43393e-05 10
30.5198 24.7145 10.5228 7.3803e-05 10
5.98801 4.8837 -2.07045 0.000676597 6
5.90819 4.8186 -1.76014 0.000761619 6
5.95145 4.85388 -1.49281 0.000711626 6
7.51895 6.13231 -1.53674 0.00045841 6
15.8289 12.9098 -2.50798 0.000138993 4
30.205 24.6346 -2.0427 9.31551e-05 10
30.2184 24.6455 -0.680648 6.18651e-05 10
30.2213 24.6479 0.680713 6.18717e-05 10
27.3058 22.27 1.84663 7.32755e-05 10
27.2656 22.2373 4.32004 9.29312e-05 10
27.3106 22.274 5.58178 6.99616e-05 10
30.2128 24.641 7.57832 6.74401e-05 10
27.2784 22.2477 8.12666 8.59539e-05 10
6.00215 4.93022 -2.08128 0.000670305 6
5.90004 4.84634 -1.76274 0.000754208 6
5.94071 4.87975 -1.49438 0.000670948 6
7.46267 6.12991 -1.5296 0.000465165 6
15.7617 12.9468 -2.50448 5.113e-05 4
30.0035 24.6451 -2.03487 9.4966e-05 10
29.9895 24.6336 -0.677424 6.30673e-05 10
29.9878 24.6322 0.677385 6.3074e-05 10
27.1092 22.2677 1.83858 7.46569e-05 10
27.0782 22.2423 4.30263 9.46855e-05 10
27.1105 22.2688 5.55675 7.12846e-05 10
29.9859 24.6307 7.54292 6.8758e-05 10
27.0738 22.2387 8.0888 8.75853e-05 10
27.0716 22.2368 9.3872 8.44126e-05 10
6.0022 4.96545 -2.08729 0.000630824 6
5.89177 4.87409 -1.76534 0.000747488 6
5.95218 4.92407 -1.50158 0.000665854 6
7.40442 6.12547 -1.52203 0.000472282 6
15.7276 13.011 -2.50625 4.05715e-05 4
29.7831 24.6387 -2.02575 9.67963e-05 10
29.9252 24.7562 -0.677919 7.93582e-05 10
29.9154 24.7482 0.677699 7.93821e-05 10
26.9106 22.2623 1.83037 7.60524e-05 10
26.872 22.2305 4.28217 9.64581e-05 10
26.9141 22.2653 5.53238 7.26214e-05 10
29.7598 24.6194 7.50762 7.009e-05 10
26.8764 22.2341 8.05295 8.92336e-05 10
26.8934 22.2482 9.35229 6.60978e-05 10
5.99192 4.99228 -2.08976 0.00062866 6
5.90138 4.91684 -1.77336 0.00070374 6
5.93478 4.94467 -1.50153 0.000695541 6
7.34764 6.12183 -1.51474 0.000479281 6
16.3795 13.6469 -2.61773 4.65867e-05 4
29.5626 24.6306 -2.01659 9.8646e-05 10
29.6553 24.7078 -0.673755 8.07776e-05 10
29.6414 24.6963 0.67344 8.08019e-05 10
26.71 22.2539 1.822 7.74621e-05 10
29.6435 24.698 3.37567 9.11968e-05 10
26.675 22.2248 4.26311 9.82485e-05 10
26.7122 22.2558 5.50682 7.39715e-05 10
29.5554 24.6246 7.47769 7.14363e-05 10
26.6851 22.2332 8.01883 9.08987e-05 10
26.7145 22.2576 9.31703 6.73347e-05 10
6 5.03459 -2.0987 0.000655483 6
5.88316 4.93656 -1.77305 0.000697646 6
5.94503 4.98847 -1.50852 0.000746842 6
7.30009 6.1255 -1.50934 0.000486178 6
29.3512 24.6286 -2.00802 0.000100515 10
29.3758 24.6492 -0.669357 8.22331e-05 10
29.3658 24.6408 0.669127 8.22579e-05 10
26.517 22.2504 1.81412 7.88857e-05 10
29.3317 24.6122 3.34992 7.75808e-05 10
26.5006 22.2366 4.24762 0.000100056 10
26.5101 22.2446 5.48112 7.53352e-05 10
29.3352 24.6151 7.44366 7.27967e-05 10
26.488 22.2261 7.98287 9.25804e-05 10
26.5231 22.2555 9.27731 6.85841e-05 10
5.99789 5.06861 -2.10413 0.000649234 6
5.89269 4.9797 -1.78115 0.000727686 6
5.9432 5.0224 -1.5125 0.000740534 6
7.2483 6.12529 -1.50304 0.000493268 6
16.2646 13.7447 -2.61463 0.000183867 4
29.1363 24.622 -1.99918 0.000102403 10
29.1301 24.6169 -0.665712 6.80042e-05 10
29.141 24.6261 0.665961 6.80113e-05 10
26.4879 22.384 1.81747 9.66387e-05 10
29.1349 24.6209 3.33724 7.9039e-05 10
26.4706 22.3694 4.2553 0.000122543 10
26.4899 22.3857 5.49306 9.23409e-05 10
29.1222 24.6101 7.41137 7.41712e-05 10
26.4596 22.3601 7.99779 0.000113449 10
26.4789 22.3764 9.28912 8.41125e-05 10
5.99848 5.10511 -2.11058 0.000642996 6
5.89765 5.01929 -1.78793 0.000721021 6
5.94033 5.05561 -1.51625 0.000741767 6
7.1833 6.11347 -1.49398 0.000500354 6
16.16 13.7533 -2.60552 0.000155165 4
28.9137 24.6075 -1.98979 0.00010431 10
28.915 24.6086 -0.662756 6.92703e-05 10
28.9323 24.6234 0.663152 6.92775e-05 10
26.4962 22.55 1.82342 9.54861e-05 10
28.9261 24.618 3.32315 8.05121e-05 10
26.4684 22.5264 4.26757 0.000121079 10
26.4988 22.5522 5.51121 9.12364e-05 10
28.9098 24.6041 7.37913 7.55597e-05 10
26.464 22.5226 8.02283 0.000112087 10
26.4787 22.5351 9.31659 8.31002e-05 10
5.99693 5.13999 -2.11634 0.000636773 6
5.89025 5.04855 -1.79102 0.000707265 6
5.94526 5.09571 -1.52204 0.000730426 6
7.14394 6.1231 -1.49023 0.000507488 6
16.0502 13.7567 -2.59553 0.00022665 4
28.7228 24.6184 -1.98256 0.000106237 10
28.8322 24.7122 -0.662831 8.42072e-05 10
28.8345 24.7141 0.662883 8.42327e-05 10
26.5012 22.7143 1.82921 9.43383e-05 10
28.715 24.6118 3.30875 8.19998e-05 10
26.4575 22.6768 4.27854 0.000119622 10
26.4848 22.7002 5.52475 9.01364e-05 10
28.7155 24.6122 7.35143 7.69622e-05 10
26.4686 22.6863 8.04818 0.000110731 10
26.4903 22.7049 9.34851 8.20921e-05 10
5.99298 5.173 -2.1213 0.000599035 6
5.89068 5.0847 -1.79654 0.00071168 6
5.93119 5.11966 -1.523 0.000724057 6
7.09853 6.12729 -1.48521 0.000513841 6
15.937 13.7565 -2.58498 0.000153706 4
28.5026 24.6028 -1.97328 0.000108182 10
28.5758 24.666 -0.658911 8.57543e-05 10
28.5645 24.6562 0.65865 8.57803e-05 10
26.4976 22.8721 1.83446 9.31952e-05 10
28.5116 24.6106 3.29519 8.35024e-05 10
26.4723 22.8503 4.2938 0.00011817 10
26.4798 22.8568 5.54031 8.90412e-05 10
28.4967 24.5976 7.31734 7.83787e-05 10
26.4639 22.843 8.07095 0.000109381 10
26.4754 22.853 9.37135 8.10884e-05 10
5.99249 5.20919 -2.12755 0.00059315 6
5.88244 5.11353 -1.79946 0.000702683 6
5.9332 5.15765 -1.52813 0.000681813 6
7.0427 6.12213 -1.47799 0.000521076 6
15.8398 13.7693 -2.57699 0.000212245 4
28.2974 24.5986 -1.965 0.000110146 10
28.3002 24.601 -0.654533 7.31443e-05 10
28.2946 24.5961 0.654403 7.31518e-05 10
26.4812 23.0197 1.83888 9.20571e-05 10
28.3113 24.6107 3.28195 8.50195e-05 10
26.4683 23.0085 4.30615 0.000116725 10
26.4791 23.0179 5.55693 8.79506e-05 10
28.3051 24.6053 7.29016 7.98092e-05 10
26.4437 22.9871 8.08921 0.000108036 10
26.4483 22.9911 9.39009 0.000104144 10
5.98659 5.24086 -2.13194 0.00061819 6
5.87971 5.14729 -1.80411 0.000661266 6
5.92558 5.18745 -1.53083 0.000675781 6
6.97961 6.11018 -1.46922 0.000528357 6
15.732 13.7724 -2.56727 0.000188091 4
28.1048 24.6038 -1.95757 0.00011213 10
28.096 24.5961 -0.65179 7.44608e-05 10
28.1078 24.6065 0.652065 7.44683e-05 10
26.4652 23.1685 1.84338 9.96031e-05 10
28.097 24.597 3.26704 8.65512e-05 10
26.4483 23.1537 4.31603 0.000115287 10
26.4633 23.1669 5.57057 9.5099e-05 10
28.0917 24.5924 7.25725 8.12533e-05 10
26.4441 23.1501 8.11402 0.000106698 10
28.0921 24.5928 10.0041 7.57911e-05 10
6.21835 5.48221 -2.22127 0.000531259 6
5.89232 5.19478 -1.81353 0.000654996 6
5.9315 5.22932 -1.53706 0.000705012 6
6.89727 6.08076 -1.45634 0.00053872 6
15.6239 13.7743 -2.55746 0.000176942 4
27.9045 24.6011 -1.94959 0.000114132 10
28.0156 24.6991 -0.651922 8.78509e-05 10
28.0239 24.7064 0.652116 8.78778e-05 10
26.4813 23.3464 1.85016 8.9796e-05 10
27.894 24.5919 3.2534 8.80975e-05 10
26.4582 23.326 4.3309 0.000113855 10
26.4758 23.3415 5.59031 8.57842e-05 10
27.8969 24.5944 7.22906 8.27114e-05 10
26.4455 23.3148 8.13935 0.000105366 10
27.893 24.591 9.96372 7.71579e-05 10
6.82549 6.05995 -2.44569 0.00087405 6
5.88229 5.22254 -1.81604 0.000682885 6
5.92673 5.262 -1.54058 0.000698705 6
6.8538 6.08509 -1.45164 0.000546182 6
15.534 13.7918 -2.55061 0.00020718 4
27.7033 24.5961 -1.94152 0.000116152 10
27.7604 24.6468 -0.647982 8.94988e-05 10
27.7573 24.6441 0.647909 8.95262e-05 10
26.488 23.5171 1.85635 8.86731e-05 10
27.6879 24.5825 3.23935 8.96584e-05 10
26.4476 23.4813 4.34256 0.000112429 10
26.4653 23.4969 5.60537 8.47083e-05 10
27.6957 24.5894 7.19914 8.41833e-05 10
26.4548 23.4877 8.16741 0.00010404 10
27.6979 24.5914 9.92466 7.85377e-05 10
6.82675 6.10382 -2.45376 0.000883997 6
5.88091 5.25814 -1.82127 0.000676317 6
5.91411 5.28783 -1.54208 0.000928209 6
6.80768 6.08677 -1.44637 0.000555376 6
15.4252 13.7917 -2.54062 0.000167669 4
27.4945 24.5829 -1.93289 0.000118192 10
27.5108 24.5975 -0.644157 7.84848e-05 10
27.4973 24.5854 0.643839 7.84926e-05 10
26.4675 23.6646 1.86069 8.75555e-05 10
26.454 23.6526 4.35714 0.00011101 10
26.4781 23.6741 5.62555 8.36375e-05 10
26.4522 23.651 8.19205 0.00010272 10
27.5856 24.6644 9.91521 5.85492e-05 10
6.84145 6.16006 -2.46676 0.000854688 6
5.87631 5.29105 -1.82556 0.000669764 6
5.91539 5.32624 -1.54726 0.00130881 6
6.75164 6.0792 -1.43896 0.000563489 6
15.317 13.7915 -2.53073 0.000230262 4
27.313 24.5927 -1.92616 0.00012025 10
27.3006 24.5815 -0.641239 7.98508e-05 10
27.312 24.5919 0.641508 7.98587e-05 10
26.4647 23.8289 1.86633 8.64432e-05 10
26.4527 23.8181 4.37059 0.000109598 10
26.4636 23.8279 5.64011 8.25719e-05 10
26.4421 23.8086 8.2146 0.000101407 10
7.27739 6.59874 -2.63224 0.000284933 4
5.87546 5.32754 -1.83106 0.000656333 6
5.90919 5.35812 -1.55052 0.00129664 6
6.70697 6.0815 -1.43395 0.000570346 6
15.2234 13.8038 -2.5232 0.000139997 4
27.1035 24.576 -1.91742 0.000122326 10
27.2077 24.6704 -0.641076 9.17321e-05 10
27.2227 24.6841 0.64143 9.17603e-05 10
26.4659 23.9978 1.87232 8.53365e-05 10
26.4402 23.9745 4.38233 0.000108193 10
26.4601 23.9926 5.65719 8.15116e-05 10
26.445 23.9789 8.24146 0.0001001 10
7.2567 6.62628 -2.6331 0.000549498 4
5.87676 5.36622 -1.83729 0.000649804 6
5.91657 5.40257 -1.55739 0.00132983 6
6.64893 6.07131 -1.42607 0.00057798 6
15.1113 13.7985 -2.51259 0.000189129 4
26.9222 24.5833 -1.91065 0.000124421 10
26.9409 24.6004 -0.636808 9.34912e-05 10
26.951 24.6096 0.637047 9.352e-05 10
26.4641 24.165 1.87814 8.42352e-05 10
26.5237 24.2194 3.1424 0.000100875 10
26.4405 24.1435 4.39631 0.000106795 10
26.4652 24.1661 5.67629 8.04566e-05 10
26.5128 24.2095 6.97885 9.47703e-05 10
26.4438 24.1465 8.2673 9.87996e-05 10
26.5094 24.2064 9.61895 8.84719e-05 10
7.23844 6.65608 -2.63489 0.000333759 4
5.8804 5.40731 -1.84432 0.000611128 6
5.92569 5.44895 -1.56479 0.000660867 6
6.60096 6.06989 -1.42031 0.000415014 6
15.0194 13.811 -2.50531 4.05292e-05 4
26.7303 24.5797 -1.90311 0.000126534 10
26.7256 24.5754 -0.633743 0.000127205 10
26.7218 24.572 0.633655 0.000127218 10
26.4332 24.3066 1.88196 0.000115267 10
26.443 24.3156 3.14288 0.000114113 10
26.4358 24.309 4.40962 0.000112382 10
26.4352 24.3084 5.68801 0.000110094 10
26.4279 24.3017 6.9788 0.000107276 10
26.4228 24.297 8.28721 0.000103962 10
26.436 24.3092 9.62307 0.00010019 10
7.21574 6.68184 -2.6351 0.000264557 4
5.89243 5.45645 -1.85405 0.000636801 6
5.91057 5.47324 -1.56583 0.000655416 6
6.56746 6.08153 -1.41767 0.000419027 6
14.9791 13.8708 -2.50664 4.64569e-05 4
26.5474 24.5831 -1.89619 0.000128666 10
26.5441 24.5801 -0.631472 0.000129347 10
26.5319 24.5688 0.631181 0.00012936 10
26.4406 24.4843 1.88856 0.000113757 10
26.4428 24.4863 3.15299 0.000112617 10
26.428 24.4726 4.42255 0.000110907 10
26.4255 24.4703 5.70427 0.000108646 10
26.4303 24.4747 7.00193 0.000105863 10
26.4279 24.4725 8.31553 0.00010259 10
26.425 24.4698 9.6501 9.88652e-05 10
7.19763 6.7119 -2.63703 0.000211639 4
5.87897 5.48223 -1.85583 0.000630328 6
5.90118 5.50293 -1.56842 0.000620695 6
6.52701 6.08653 -1.41351 0.000402054 6
14.9293 13.9218 -2.50642 5.04069e-05 4
26.4477 24.6629 -1.89521 0.000143834 10
26.4351 24.6512 -0.630922 0.000144627 10
26.4355 24.6515 0.63093 0.000144672 10
26.4384 24.6542 1.89454 0.000112254 10
26.4382 24.6541 3.16269 0.000111128 10
26.4306 24.6469 4.43735 0.000109439 10
26.4237 24.6405 5.7224 0.000107207 10
26.4238 24.6406 7.02297 0.000104458 10
26.423 24.6399 8.34102 0.000101225 10
26.4293 24.6457 9.68301 9.75469e-05 10
7.17329 6.73617 -2.63671 0.000142445 4
5.874 5.51605 -1.86033 0.000623874 6
5.91115 5.55094 -1.57622 0.000641841 6
6.49817 6.10219 -1.41187 0.000138321 6
14.8762 13.9697 -2.50569 2.89901e-05 4
26.4385 24.8274 -1.90075 0.000141919 10
26.431 24.8204 -0.632887 0.000142702 10
26.4275 24.8171 0.632803 0.000142746 10
26.4261 24.8158 1.89986 0.000110759 10
26.4194 24.8094 3.17077 0.000109648 10
26.4276 24.8172 4.45136 0.000107979 10
26.4281 24.8176 5.74208 0.000105775 10
26.4307 24.82 7.04777 0.000103061 10
26.4125 24.803 8.36499 9.98682e-05 10
26.4194 24.8095 9.71107 9.62358e-05 10
7.14587 6.75751 -2.63528 0.00015058 4
5.87494 5.55565 -1.86675 0.000617439 6
5.90646 5.58546 -1.58015 0.00063557 6
12.0449 11.3903 -2.62565 4.48139e-05 4
26.4418 25.0047 -1.90724 0.000140013 10
26.4316 24.9951 -0.634986 0.000140787 10
26.4291 24.9927 0.634925 0.000140831 10
26.4187 24.9829 1.90558 0.000109273 10
26.4147 24.9792 3.18066 0.000108175 10
26.4202 24.9844 4.46478 0.000106528 10
26.4156 24.98 5.75828 0.000104351 10
26.4239 24.9878 7.06916 0.000101671 10
26.4077 24.9725 8.391 9.85187e-05 10
26.4224 24.9864 9.74414 9.49322e-05 10
7.12084 6.78108 -2.63477 3.66264e-05 4
5.87647 5.59609 -1.87344 0.000442513 6
5.90326 5.6216 -1.58454 0.000629316 6
11.9964 11.424 -2.62375 5.63756e-05 4
14.7904 14.0847 -2.50774 3.91966e-05 4
26.4317 25.1706 -1.91284 0.000138119 10
26.4213 25.1606 1.91209 0.000107794 10
26.4323 25.1712 3.19334 0.000106711 10
26.4145 25.1542 4.47862 0.000105085 10
26.421 25.1604 5.77857 0.000102935 10
26.4238 25.163 7.0926 0.000100289 10
26.422 25.1613 8.4234 9.71768e-05 10
26.4206 25.16 9.77583 9.36359e-05 10
7.1035 6.81201 -2.63713 0.000260446 4
5.88806 5.64644 -1.8834 2.88069e-05 6
5.89957 5.65749 -1.58884 0.000624722 6
11.9572 11.4665 -2.6239 4.04725e-05 4
14.7409 14.136 -2.50769 5.13798e-05 4
26.4259 25.3415 -1.91881 0.000136235 10
26.4303 25.3458 1.91913 0.000106324 10
26.418 25.334 3.20228 0.000105255 10
26.4124 25.3286 4.49323 0.000103649 10
26.4167 25.3327 5.79692 0.000101528 10
26.4174 25.3334 7.11458 9.8915e-05 10
26.4043 25.3208 8.44591 9.58428e-05 10
26.4108 25.3271 9.80487 9.23472e-05 10
7.07444 6.83171 -2.63518 7.73174e-05 4
5.87302 5.67151 -1.88491 0.000287888 6
5.89602 5.69372 -1.59322 0.000620073 6
11.9133 11.5045 -2.62307 6.14279e-05 4
14.6918 14.1877 -2.50775 4.77532e-05 4
26.4226 25.516 -1.92503 0.000134362 10
26.4191 25.5126 1.92477 0.000104863 10
26.4235 25.5169 3.21372 0.000103807 10
26.4162 25.5098 4.50899 0.000102223 10
26.415 25.5087 5.81606 0.000100128 10
26.419 25.5125 7.13895 9.75491e-05 10
26.412 25.5058 8.47678 9.45164e-05 10
26.4112 25.505 9.83801 9.1066e-05 10
7.05433 6.86003 -2.63659 0.000496443 4
5.88603 5.72392 -1.89549 0.000187296 6
5.89504 5.73268 -1.59836 0.000582761 6
11.887 11.5596 -2.62616 5.70885e-05 4
14.6343 14.2312 -2.5064 4.18219e-05 4
26.4209 25.6932 -1.93142 0.0001325 10
26.4214 25.6937 1.93147 0.000103411 10
26.4046 25.6773 3.2223 0.000102368 10
26.4207 25.693 4.52505 0.000100804 10
26.4002 25.673 5.83249 9.8737e-05 10
26.4161 25.6885 7.16235 9.61914e-05 10
26.4008 25.6737 8.5019 9.31981e-05 10
26.3993 25.6722 9.86689 8.97927e-05 10
7.02434 6.87874 -2.63434 0.000187177 4
5.89901 5.77674 -1.90615 0.000193428 6
5.90717 5.78473 -1.60711 0.000576714 6
11.8528 11.6071 -2.62753 3.46847e-05 4
14.5855 14.2832 -2.50657 4.97214e-05 4
26.4073 25.8599 -1.93702 0.00013065 10
26.3736 25.8269 1.93455 9.67229e-05 10
26.3792 25.8324 3.23019 9.5726e-05 10
26.3833 25.8364 4.53406 9.42412e-05 10
26.379 25.8323 5.84771 9.22863e-05 10
26.367 25.8205 7.17344 8.98847e-05 10
26.3808 25.834 8.52445 8.70654e-05 10
26.3676 25.821 9.88865 8.38618e-05 10
6.99812 6.90108 -2.63353 0.00011393 4
5.90646 5.82456 -1.91512 0.000180251 6
5.90156 5.81973 -1.6111 0.000602842 6
14.5427 14.3411 -2.50781 4.21447e-05 4
26.4064 26.0402 -1.94361 0.000128811 10
26.1803 25.8173 1.92697 9.82591e-05 10
26.1927 25.8295 3.21837 9.72475e-05 10
26.1864 25.8233 4.51569 9.57407e-05 10
26.1878 25.8247 5.82527 9.37568e-05 10
26.1837 25.8206 7.14805 9.13197e-05 10
26.1916 25.8284 8.49239 8.84585e-05 10
26.1775 25.8145 9.85108 8.52072e-05 10
6.97771 6.92916 -2.63493 0.000219715 4
5.93781 5.8965 -1.93195 0.000186083 6
5.89245 5.85146 -1.61418 0.000596546 6
11.77 11.6881 -2.6272 4.26282e-05 4
14.4867 14.3859 -2.50678 4.47752e-05 4
26.4035 26.2198 -1.95012 0.000126983 10
30.8075 30.5932 -0.757849 7.25067e-05 10
30.7972 30.5829 0.757595 7.25139e-05 10
26.0555 25.8742 1.92442 0.000103591 10
26.0488 25.8675 3.21176 0.000102549 10
26.0421 25.861 4.50635 0.000100984 10
26.0354 25.8542 5.81139 9.89152e-05 10
26.0338 25.8527 7.13172 9.6368e-05 10
26.038 25.8568 8.47179 9.33727e-05 10
26.0365 25.8553 9.83193 8.99648e-05 10
6.95669 6.95669 -2.63615 8.95108e-05 4
5.93682 5.93682 -1.93835 0.000182461 6
5.89709 5.89709 -1.62108 0.000590271 6
11.7185 11.7185 -2.62483 5.77975e-05 4
14.4495 14.4495 -2.50907 3.62123e-05 4
26.4182 26.4182 -1.958 0.000125167 10
30.5896 30.5896 -0.755111 7.63879e-05 10
30.59 30.59 0.75512 7.64138e-05 10
26.3953 26.3953 1.95631 9.76886e-05 10
26.405 26.405 4.58507 9.52176e-05 10
26.3977 26.3977 8.61876 8.80062e-05 10
6.93722 6.98582 -2.638 7.32336e-05 4
5.96596 6.00775 -1.9547 0.000178873 6
5.88725 5.92849 -1.62405 0.000584018 6
11.6825 11.7643 -2.62593 0.000112698 4
14.3811 14.4819 -2.50595 3.12718e-05 4
26.4063 26.5913 -1.96399 0.000123362 10
26.5424 26.7284 -0.657504 7.81548e-05 10
26.55 26.736 0.657691 7.81622e-05 10
26.3998 26.5848 1.96351 9.62806e-05 10
26.3848 26.5697 4.59763 9.3843e-05 10
26.3968 26.5817 8.6487 8.6729e-05 10
6.91511 7.01235 -2.63888 0.000134257 4
5.92974 6.01311 -1.9497 0.000706857 6
5.8907 5.97353 -1.63075 0.000577965 6
11.6298 11.7933 -2.62332 0.00013653 4
14.339 14.5406 -2.50744 4.41061e-05 4
26.4023 26.7736 -1.97064 0.000121569 10
26.408 26.7794 -0.656487 8.07485e-05 10
26.4063 26.7776 0.656443 8.07748e-05 10
26.4019 26.7731 1.9706 9.48819e-05 10
26.3935 26.7646 4.6154 9.24773e-05 10
26.4433 26.8151 7.32043 5.58503e-05 10
26.3865 26.7575 8.67588 8.54602e-05 10
6.88889 7.0347 -2.63823 0.000203413 4
5.90871 6.03378 -1.9497 0.000709789 6
5.89379 6.01854 -1.63741 0.000571759 6
11.5924 11.8378 -2.6242 0.000148802 4
14.294 14.5966 -2.50847 4.11404e-05 4
26.3877 26.9462 -1.97655 0.000119789 10
26.4406 27.0002 -0.659634 7.79129e-05 10
