VERSION 0.7
FIELDS x y z intensity label
SIZE 4 4 4 4 4
TYPE F F F F F
COUNT 1 1 1 1 1
WIDTH 1203
HEIGHT 1
VIEWPOINT 5.55914 20.8652 2.72784 0.878733 -0.000488335 0.000707304 0.477313
POINTS 1203
DATA ascii
-2.03652 6.66117 1.35396 0.00649028 10
-2.03613 6.6599 1.60781 0.00633517 10
-2.03608 6.65973 1.866 0.00615793 10
-2.03308 6.56783 0.120009 0.0142103 10
-2.04066 6.59231 0.361663 0.014153 10
-2.03941 6.58828 0.603384 0.0140402 10
-2.0387 6.58597 0.846513 0.013873 10
-2.03348 6.56911 1.08915 0.0106453 10
-2.06228 6.58075 0.120376 0.0142554 10
-2.05869 6.5693 0.360792 0.014198 10
-2.05428 6.55522 0.601009 0.0140849 10
-2.05892 6.57004 0.845384 0.0139171 10
-2.0591 6.5706 1.09059 0.0106792 10
-2.08268 6.56544 0.120228 0.0143002 10
-2.07789 6.55033 0.360147 0.0142425 10
-2.08311 6.5668 0.602734 0.014129 10
-2.08051 6.5586 0.844842 0.0139608 10
-2.08017 6.55753 1.08962 0.0107127 10
-2.10077 6.54315 0.119953 0.0143444 10
-2.10287 6.54967 0.360512 0.0142866 10
-2.09592 6.52804 0.599845 0.0141728 10
-2.10334 6.55114 0.84482 0.014004 10
-2.10376 6.55244 1.08998 0.0107459 10
-2.1218 6.53022 0.119851 0.0143881 10
-2.12021 6.52534 0.359578 0.0143301 10
-2.11715 6.51592 0.599406 0.014216 10
-2.11773 6.51771 0.841458 0.0140467 10
-2.12519 6.54067 1.08925 0.0107787 10
-2.13785 6.5023 0.119475 0.0144314 10
-2.13916 6.50631 0.358938 0.0143732 10
-2.13725 6.50048 0.598668 0.0142588 10
-2.14001 6.50887 0.841276 0.014089 10
-2.14181 6.51434 1.08611 0.0108111 10
-2.16099 6.49618 0.119501 0.0144742 10
-2.16592 6.511 0.359612 0.0144159 10
-2.15994 6.49303 0.598673 0.0143011 10
-2.1621 6.49951 0.841037 0.0141308 10
-2.16476 6.50751 1.08622 0.0108432 10
-2.18356 6.48832 0.119495 0.0145165 10
-2.17943 6.47603 0.358099 0.014458 10
-2.1815 6.4822 0.598373 0.0143429 10
-2.18683 6.49804 0.841829 0.0141721 10
-2.18768 6.50056 1.08633 0.0108749 10
-2.20597 6.47999 0.119483 0.0145583 10
-2.20177 6.46766 0.358058 0.0144996 10
-2.20338 6.4724 0.598174 0.0143842 10
-2.20187 6.46797 0.838924 0.014213 10
-2.20403 6.47431 1.08322 0.0109063 10
-2.24242 6.51245 -0.120225 0.0142738 10
-2.22692 6.46745 0.119395 0.0145996 10
-2.22659 6.46648 0.358421 0.0145408 10
-2.22486 6.46146 0.597878 0.014425 10
-2.22577 6.4641 0.839425 0.0142533 10
-2.22203 6.45325 1.08099 0.0109373 10
-2.26721 6.51055 -0.120336 0.0143137 10
-2.24877 6.45759 0.119357 0.0146404 10
-2.2476 6.45424 0.358175 0.0145815 10
-2.24096 6.43516 0.596164 0.0144654 10
-2.24759 6.45419 0.839152 0.0142932 10
-2.24774 6.45462 1.08253 0.0109679 10
-2.28613 6.49181 -0.120136 0.0143531 10
-2.26774 6.43958 0.119169 0.0146808 10
-2.26312 6.42648 0.357071 0.0146216 10
-2.2652 6.43239 0.596637 0.0145052 10
-2.27015 6.44645 0.83917 0.0143326 10
-2.26445 6.43025 1.07976 0.0109981 10
-2.30436 6.47141 -0.119907 0.0143921 10
-2.28614 6.42024 0.118958 0.0147206 10
-2.28435 6.41519 0.356885 0.0146613 10
-2.28711 6.42294 0.596497 0.0145446 10
-2.28121 6.40639 0.834987 0.0143715 10
-2.2865 6.42124 1.07958 0.011028 10
-2.32521 6.45853 -0.119818 0.0144305 10
-2.30271 6.39602 0.118658 0.0147599 10
-2.30486 6.40201 0.356597 0.0147004 10
-2.31088 6.4187 0.596849 0.0145834 10
-2.30178 6.39343 0.83434 0.0144099 10
-2.30424 6.40028 1.0774 0.0110574 10
-2.35085 6.45891 -0.119976 0.0144685 10
-2.32785 6.39571 0.118802 0.0147986 10
-2.32316 6.38283 0.355978 0.014739 10
-2.32213 6.38 0.594 0.0146217 10
-2.32871 6.39809 0.836003 0.0144478 10
-2.3274 6.39447 1.07778 0.0110865 10
-2.37594 6.45761 -0.120105 0.0145059 10
-2.3449 6.37325 0.118536 0.0148369 10
-2.35197 6.39247 0.356972 0.0147772 10
-2.34748 6.38028 0.594785 0.0146596 10
-2.34919 6.38491 0.835348 0.0144852 10
-2.34659 6.37785 1.07636 0.0111152 10
-2.39045 6.42774 -0.119704 0.0145429 10
-2.36829 6.36814 0.118594 0.0148747 10
-2.36936 6.37102 0.356233 0.0148148 10
-2.36766 6.36644 0.594262 0.0146969 10
-2.37045 6.37396 0.834992 0.014522 10
-2.3666 6.36359 1.07534 0.0111435 10
-2.409 6.40905 -0.119512 0.0145793 10
-2.38471 6.34441 0.118307 0.0149119 10
-2.38815 6.35358 0.355722 0.0148518 10
-2.38891 6.3556 0.594025 0.0147337 10
-2.38714 6.35089 0.833057 0.0145584 10
-2.38518 6.34569 1.07371 0.0111715 10
-2.4327 6.40414 -0.119578 0.0146152 10
-2.40788 6.33878 0.118358 0.0149486 10
-2.40362 6.32757 0.354734 0.0148884 10
-2.40944 6.3429 0.593621 0.0147699 10
-2.41115 6.34739 0.833697 0.0145943 10
-2.40495 6.33109 1.07266 0.011199 10
-2.45558 6.39701 -0.119604 0.0146506 10
-2.42726 6.32323 0.118225 0.0149848 10
-2.43224 6.33621 0.355691 0.0149244 10
-2.42678 6.32198 0.592452 0.0148057 10
-2.42405 6.31488 0.830534 0.0146296 10
-2.42888 6.32744 1.07347 0.0112261 10
-2.47396 6.37824 -0.119414 0.0146855 10
-2.45286 6.32385 0.118396 0.0150204 10
-2.45202 6.32168 0.355355 0.0149599 10
-2.447 6.30874 0.592008 0.0148409 10
-2.45288 6.3239 0.832841 0.0146644 10
-2.45182 6.32117 1.07385 0.0112528 10
-2.49307 6.36158 -0.119264 0.0147198 10
-2.47113 6.30558 0.118215 0.0150555 10
-2.474 6.31291 0.355345 0.0149949 10
-2.47089 6.30496 0.592459 0.0148756 10
-2.46409 6.28761 0.829189 0.0146987 10
-2.47451 6.3142 1.07413 0.0112792 10
-2.50961 6.33856 -0.118996 0.0147536 10
-2.48468 6.27558 0.117814 0.0150901 10
-2.48393 6.27368 0.353623 0.0150293 10
-2.48804 6.28408 0.591309 0.0149098 10
-2.49329 6.29733 0.831614 0.0147325 10
-2.4937 6.29836 1.0729 0.0113051 10
-2.5304 6.32645 -0.118934 0.0147869 10
-2.50866 6.2721 0.117912 0.0151241 10
-2.508 6.27044 0.353931 0.0150632 10
-2.51437 6.28638 0.592348 0.0149434 10
-2.51299 6.28293 0.830865 0.0147657 10
-2.50743 6.26903 1.06939 0.0113306 10
-2.55588 6.32604 -0.119093 0.0148196 10
-2.53379 6.27137 0.118064 0.0151575 10
-2.52706 6.25471 0.353539 0.0150965 10
-2.53076 6.26385 0.591054 0.0149765 10
-2.52876 6.25891 0.828851 0.0147984 10
-2.53503 6.27442 1.07182 0.0113557 10
-2.57954 6.32097 -0.119167 0.0148518 10
-2.55367 6.25757 0.117971 0.0151905 10
-2.54779 6.24316 0.353387 0.0151293 10
-2.55338 6.25688 0.591233 0.015009 10
-2.55476 6.26025 0.830205 0.0148306 10
-2.55173 6.25283 1.06964 0.0113804 10
-2.59622 6.29891 -0.118921 0.0148835 10
-2.57308 6.24276 0.117861 0.0152228 10
-2.56859 6.23188 0.353253 0.0151616 10
-2.56618 6.22604 0.589162 0.015041 10
-2.57437 6.24589 0.829486 0.0148622 10
-2.56903 6.23293 1.06777 0.0114047 10
-2.61134 6.27334 -0.11861 0.0149147 10
-2.58693 6.2147 0.117501 0.0152547 10
-2.58433 6.20844 0.352434 0.0151933 10
-2.58508 6.21024 0.588518 0.0150725 10
-2.58778 6.21674 0.82681 0.0148933 10
-2.58572 6.21179 1.06569 0.0114285 10
-2.63557 6.26979 -0.118716 0.0149452 10
-2.61117 6.21174 0.117616 0.0152859 10
-2.60602 6.19947 0.352439 0.0152244 10
-2.6117 6.213 0.58964 0.0151034 10
-2.60626 6.20006 0.825797 0.0149238 10
-2.61461 6.21991 1.06864 0.011452 10
-2.66211 6.27154 -0.118924 0.0149753 10
-2.62607 6.18663 0.117314 0.0153166 10
-2.63531 6.20841 0.353468 0.015255 10
-2.62927 6.19416 0.588719 0.0151337 10
-2.62993 6.19572 0.826436 0.0149538 10
-2.6326 6.20201 1.06713 0.011475 10
-2.68253 6.25881 -0.11886 0.0150048 10
-2.64934 6.18138 0.117389 0.0153468 10
-2.65487 6.19428 0.353189 0.015285 10
-2.65419 6.19269 0.589456 0.0151635 10
-2.64535 6.17206 0.824507 0.0149832 10
-2.65072 6.1846 1.06572 0.0114976 10
-2.69598 6.23003 -0.118491 0.0150337 10
-2.67546 6.18262 0.117589 0.0153763 10
-2.66885 6.16734 0.352182 0.0153145 10
-2.6713 6.17301 0.588467 0.0151927 10
-2.67514 6.18188 0.827062 0.0150121 10
-2.66735 6.16388 1.06375 0.0115198 10
-2.54632 5.8283 -1.70423 0.0156188 10
-2.54137 5.81696 -1.46552 0.0160622 10
-2.54258 5.81974 -1.23449 0.0164497 10
-2.5462 5.82802 -1.00732 0.0167779 10
-2.53927 5.81217 -0.778779 0.0170437 10
-2.54489 5.82502 -0.556137 0.0172448 10
-2.71132 6.20597 -0.354926 0.0150041 10
-2.71163 6.20669 -0.118226 0.0150621 10
-2.68854 6.15383 0.117219 0.0154053 10
-2.6959 6.17068 0.352908 0.0153434 10
-2.69134 6.16024 0.588141 0.0152214 10
-2.69506 6.16874 0.826557 0.0150405 10
-2.69245 6.16278 1.06518 0.0115415 10
-2.71587 6.21639 1.31863 0.00706002 10
-2.71585 6.21635 1.56614 0.00689164 10
-2.71781 6.22082 1.819 0.00669922 10
-2.55821 5.80025 -1.69862 0.0156476 10
-2.5567 5.79681 -1.46269 0.0160918 10
-2.56576 5.81735 -1.23588 0.01648 10
-2.5607 5.80588 -1.00503 0.0168087 10
-2.56518 5.81604 -0.780494 0.017075 10
-2.56535 5.81642 -0.556168 0.0172765 10
-2.56554 5.81686 -0.333183 0.0174113 10
-2.55678 5.797 -0.110592 0.0174783 10
-2.56568 5.81719 0.110977 0.0174767 10
-2.55802 5.79982 0.332206 0.0174067 10
-2.56055 5.80556 0.555129 0.0172689 10
-2.56253 5.81003 0.779687 0.0170644 10
-2.56577 5.81739 1.00702 0.0167952 10
-2.56325 5.81168 1.23467 0.012837 10
-2.56311 5.81136 1.46636 0.0125323 10
-2.56574 5.81732 1.70362 0.012184 10
-2.58441 5.80467 -1.70255 0.0156758 10
-2.57608 5.78597 -1.46221 0.0161208 10
-2.58199 5.79924 -1.23394 0.0165097 10
-2.5758 5.78534 -1.00302 0.016839 10
-2.58052 5.79594 -0.779 0.0171058 10
-2.58023 5.79528 -0.555004 0.0173076 10
-2.58016 5.79514 -0.332452 0.0174426 10
-2.5803 5.79545 -0.110733 0.0175097 10
-2.57782 5.78987 0.110627 0.0175082 10
-2.57994 5.79465 0.332424 0.017438 10
-2.58671 5.80985 0.556399 0.0172999 10
-2.5849 5.80579 0.780323 0.0170951 10
-2.58637 5.80908 1.00714 0.0168255 10
-2.58685 5.81016 1.23626 0.0128601 10
-2.58342 5.80246 1.46638 0.0125548 10
-2.58265 5.80073 1.70139 0.012206 10
-2.59895 5.78293 -1.69882 0.0157034 10
-2.60519 5.7968 -1.46724 0.0161491 10
-2.59832 5.78152 -1.23209 0.0165387 10
-2.59831 5.7815 -1.00392 0.0168686 10
-2.60548 5.79745 -0.780421 0.0171358 10
-2.60221 5.79018 -0.555382 0.017338 10
-2.5976 5.77992 -0.332098 0.0174733 10
-2.60127 5.7881 -0.110766 0.0175405 10
-2.6025 5.79083 0.110818 0.0175389 10
-2.60491 5.79619 0.333032 0.0174687 10
-2.59813 5.7811 0.554511 0.0173303 10
-2.59544 5.77512 0.777414 0.0171252 10
-2.60526 5.79698 1.00661 0.0168551 10
-2.60586 5.7983 1.23567 0.0128827 10
-2.59901 5.78307 1.46376 0.012577 10
-2.604 5.79416 1.70212 0.0122275 10
-2.61594 5.76682 -1.69676 0.0157304 10
-2.61706 5.76928 -1.46258 0.0161769 10
-2.61647 5.76797 -1.23114 0.0165671 10
-2.61547 5.76577 -1.00277 0.0168976 10
-2.61927 5.77415 -0.77851 0.0171653 10
-2.61409 5.76273 -0.553621 0.0173678 10
-2.62308 5.78254 -0.332772 0.0175033 10
-2.61747 5.77019 -0.110597 0.0175706 10
-2.62269 5.7817 0.110818 0.017569 10
-2.61933 5.77428 0.332297 0.0174987 10
-2.61898 5.77351 0.554657 0.0173601 10
-2.61796 5.77125 0.77812 0.0171546 10
-2.61624 5.76746 1.00307 0.016884 10
-2.61616 5.76729 1.231 0.0129049 10
-2.61654 5.76813 1.46228 0.0125986 10
-2.62546 5.78778 1.70293 0.0122485 10
-2.63995 5.76614 -1.69927 0.0157569 10
-2.64312 5.77308 -1.46587 0.0162041 10
-2.63186 5.74848 -1.22893 0.016595 10
-2.63667 5.75898 -1.00319 0.0169259 10
-2.6373 5.76036 -0.777887 0.0171941 10
-2.64219 5.77105 -0.555303 0.0173969 10
-2.63657 5.75876 -0.331931 0.0175327 10
-2.63855 5.7631 -0.110637 0.0176001 10
-2.64325 5.77336 0.110834 0.0175985 10
-2.63412 5.75342 0.331623 0.017528 10
-2.63837 5.76271 0.5545 0.0173892 10
-2.63255 5.74998 0.776486 0.0171834 10
-2.63913 5.76437 1.00412 0.0169124 10
-2.63467 5.75463 1.23025 0.0129266 10
-2.64193 5.77048 1.46521 0.0126198 10
-2.63739 5.76056 1.69762 0.0122691 10
-2.69969 5.84266 -1.72458 0.00217226 10
-2.69844 5.83997 -1.48523 0.0022371 10
-2.70586 5.85602 -1.25394 0.00229426 10
-2.70122 5.84596 -1.01997 0.00234322 10
-2.70218 5.84805 -0.790998 0.00238354 10
-2.69875 5.84062 -0.5629 0.00241487 10
-2.69235 5.82677 -0.336391 0.00243692 10
-2.70182 5.84727 -0.112433 0.00244948 10
-2.7007 5.84485 0.112387 0.00245245 10
-2.69036 5.82248 0.336143 0.0024458 10
-2.69159 5.82513 0.561407 0.00242959 10
-2.69778 5.83854 0.789712 0.00240396 10
-2.69181 5.82561 1.01642 0.00236915 10
-2.69322 5.82867 1.24808 0.0018132 10
-2.68774 5.81681 1.47935 0.00177254 10
-2.69001 5.82171 1.7184 0.00172563 10
-2.79867 6.00177 -1.77442 0.00200574 10
-2.79174 5.98692 -1.52508 0.00206578 10
-2.78877 5.98055 -1.28268 0.00211872 10
-2.79028 5.98378 -1.04571 0.00216408 10
-2.79204 5.98755 -0.81118 0.00220146 10
-2.7913 5.98596 -0.577843 0.00223051 10
-2.78507 5.97261 -0.34537 0.00225098 10
-2.78557 5.97367 -0.11505 0.00226268 10
-2.77877 5.95909 0.114769 0.00226549 10
-2.77682 5.95492 0.344347 0.00225941 10
-2.78357 5.96939 0.576243 0.00224447 10
-2.78387 5.97004 0.808807 0.00222082 10
-2.77924 5.96009 1.04157 0.00218868 10
-2.77946 5.96057 1.27839 0.00167507 10
-2.77872 5.95899 1.51796 0.0016375 10
-2.77687 5.95502 1.7606 0.00159414 10
-2.8482 6.05273 -1.79241 0.0139763 10
-2.85431 6.06572 -1.54768 0.0143746 10
-2.84805 6.05241 -1.30022 0.0147227 10
-2.84425 6.04435 -1.05803 0.0150175 10
-2.84904 6.05452 -0.821596 0.0152563 10
-2.85008 6.05674 -0.585632 0.015437 10
-2.84822 6.05278 -0.350579 0.0155579 10
-2.84883 6.05407 -0.116789 0.015618 10
-2.84252 6.04066 0.116531 0.0156166 10
-2.85472 6.0666 0.351379 0.0155538 10
-2.84658 6.0493 0.584913 0.0154302 10
-2.8546 6.06634 0.823199 0.0152468 10
-2.81287 5.97766 1.04635 0.00246636 10
-2.85192 6.06063 1.30198 0.0114682 10
-2.84727 6.05076 1.54386 0.0111949 10
-2.85512 6.06743 1.79677 0.0108827 10
-2.86762 6.0392 -1.79136 0.0139977 10
-2.86825 6.04053 -1.5438 0.0143965 10
-2.86745 6.03884 -1.29944 0.0147452 10
-2.86373 6.031 -1.05743 0.0150404 10
-2.86967 6.0435 -0.821455 0.0152796 10
-2.8677 6.03936 -0.584916 0.0154605 10
-2.86531 6.03432 -0.350087 0.0155816 10
-2.87 6.04421 -0.116792 0.0156418 10
-2.86455 6.03274 0.11657 0.0156404 10
-2.87079 6.04587 0.350756 0.0155775 10
-2.86372 6.03098 0.584104 0.0154537 10
-2.86671 6.03727 0.820608 0.0152701 10
-2.83312 5.96655 1.04613 0.00246664 10
-2.86643 6.0367 1.29898 0.0114857 10
-2.86973 6.04363 1.54459 0.011212 10
-2.8637 6.03094 1.78891 0.0108993 10
-2.89065 6.03325 -1.79258 0.0140185 10
-2.88971 6.0313 -1.54401 0.0144179 10
-2.88899 6.0298 -1.29966 0.014767 10
-2.8824 6.01603 -1.05657 0.0150627 10
-2.88573 6.02299 -0.820031 0.0153022 10
-2.88347 6.01827 -0.583845 0.0154835 10
-2.89147 6.03497 -0.350708 0.0156047 10
-2.88659 6.02477 -0.11661 0.0156649 10
-2.88415 6.01969 0.116512 0.0156636 10
-2.88669 6.02499 0.350127 0.0156006 10
-2.89088 6.03374 0.585346 0.0154766 10
-2.88324 6.01778 0.819322 0.0152927 10
-2.86597 5.98174 1.05054 0.00246693 10
-2.88582 6.02317 1.29823 0.0115027 10
-2.89072 6.03339 1.54454 0.0112287 10
-2.88989 6.03166 1.79211 0.0109155 10
-2.91245 6.02469 -1.79304 0.0140387 10
-2.90308 6.00532 -1.53994 0.0144388 10
-2.91171 6.02316 -1.30041 0.0147884 10
-2.90915 6.01786 -1.05867 0.0150845 10
-2.9047 6.00866 -0.819455 0.0153243 10
-2.9128 6.02542 -0.585521 0.0155058 10
-2.90352 6.00623 -0.349624 0.0156272 10
-2.90676 6.01292 -0.116576 0.0156875 10
-2.91081 6.0213 0.116739 0.0156861 10
-2.91124 6.02218 0.350553 0.0156231 10
-2.91328 6.02641 0.585617 0.0154989 10
-2.90695 6.01331 0.820089 0.0153148 10
-2.88624 5.97047 1.05033 0.00246721 10
-2.75118 5.69109 1.22871 0.0167323 10
-2.90398 6.00717 1.54041 0.0112449 10
-2.90993 6.01948 1.79149 0.0109313 10
-2.92886 6.00505 -1.79023 0.0140585 10
-2.92288 5.9928 -1.53934 0.014459 10
-2.92349 5.99404 -1.29632 0.0148091 10
-2.92752 6.00232 -1.05772 0.0151056 10
-2.93085 6.00914 -0.82091 0.0153458 10
-2.9246 5.99633 -0.583683 0.0155275 10
-2.92558 5.99833 -0.349757 0.0156491 10
-2.93017 6.00773 -0.116673 0.0157095 10
-2.93017 6.00774 0.116674 0.0157081 10
-2.92771 6.0027 0.350011 0.015645 10
-2.93009 6.00758 0.584778 0.0155207 10
-2.92427 5.99564 0.819066 0.0153363 10
-2.90144 5.94884 1.0483 0.00246749 10
-2.76335 5.66572 1.22531 0.0167557 10
-2.9312 6.00986 1.54372 0.0112607 10
-2.93109 6.00962 1.79159 0.0109467 10
-2.9456 5.98625 -1.78768 0.0140776 10
-2.94466 5.98433 -1.53979 0.0144788 10
-2.94227 5.97949 -1.29538 0.0148293 10
-2.95325 6.00179 -1.05944 0.0151262 10
-2.94843 5.99201 -0.819971 0.0153667 10
-2.9515 5.99823 -0.584868 0.0155487 10
-2.94165 5.97823 -0.349181 0.0156704 10
-2.9449 5.98482 -0.116427 0.0157309 10
-2.94406 5.98313 0.116394 0.0157295 10
-2.94284 5.98063 0.349322 0.0156663 10
-2.95263 6.00053 0.585091 0.0155418 10
-2.9522 5.99966 0.821018 0.0153572 10
-2.92522 5.94483 1.04938 0.00246778 10
-2.78345 5.65672 1.22546 0.0167785 10
-2.94526 5.98556 1.54011 0.0112761 10
-2.94236 5.97966 1.78571 0.0109616 10
-2.97247 5.988 -1.79129 0.0140963 10
-2.96949 5.98201 -1.54185 0.0144979 10
-2.97112 5.9853 -1.29888 0.0148489 10
-2.96515 5.97326 -1.05622 0.0151462 10
-2.96925 5.98153 -0.81995 0.015387 10
-2.96316 5.96925 -0.583047 0.0155692 10
-2.96763 5.97825 -0.349785 0.0156912 10
-2.96264 5.96821 -0.116305 0.0157517 10
-2.97015 5.98333 0.116599 0.0157503 10
-2.97146 5.98597 0.350237 0.015687 10
-2.9651 5.97317 0.583429 0.0155623 10
-2.96484 5.97263 0.81873 0.0153775 10
-2.94455 5.93176 1.04888 0.00246806 10
-2.8094 5.6595 1.22818 0.0168006 10
-2.96705 5.97709 1.54058 0.011291 10
-2.97407 5.99123 1.79226 0.0109761 10
-2.98617 5.96324 -1.78699 0.0141144 10
-2.98237 5.95566 -1.53774 0.0145165 10
-2.98444 5.95979 -1.2956 0.014868 10
-2.99148 5.97384 -1.05817 0.0151656 10
-2.98593 5.96277 -0.818802 0.0154068 10
-2.99163 5.97415 -0.584541 0.0155892 10
-2.98982 5.97053 -0.349942 0.0157113 10
-2.98373 5.95838 -0.116315 0.0157719 10
-2.9933 5.97747 0.116688 0.0157705 10
-2.9888 5.96849 0.349823 0.0157071 10
-2.99316 5.97719 0.584839 0.0155823 10
-2.98558 5.96206 0.818705 0.0153972 10
-2.96832 5.9276 1.04998 0.00246834 10
-2.82734 5.64607 1.2274 0.0168221 10
-2.99106 5.97301 1.54222 0.0113055 10
-2.99277 5.97643 1.79094 0.0109903 10
-3.00283 5.9446 -1.78453 0.014132 10
-3.00358 5.94608 -1.53796 0.0145346 10
-3.00713 5.9531 -1.29642 0.0148865 10
-3.01165 5.96206 -1.05793 0.0151845 10
-3.00688 5.95262 -0.818846 0.0154259 10
-3.00376 5.94644 -0.582853 0.0156086 10
-3.00834 5.95551 -0.349675 0.0157308 10
-3.00721 5.95327 -0.11642 0.0157915 10
-3.00818 5.95519 0.116457 0.0157901 10
-3.0102 5.95919 0.349891 0.0157266 10
-3.00087 5.94072 0.582292 0.0156017 10
-3.00217 5.9433 0.817563 0.0154163 10
-2.98912 5.91746 1.05002 0.00246862 10
-2.83701 5.61633 1.22308 0.0168429 10
-3.00645 5.95176 1.53943 0.0113196 10
-3.00867 5.95616 1.788 0.0110039 10
-3.02882 5.9444 -1.78764 0.014149 10
-3.02223 5.93146 -1.5369 0.0145521 10
-3.0256 5.93808 -1.29544 0.0149044 10
-3.02989 5.9465 -1.05704 0.0152028 10
-3.01978 5.92665 -0.816718 0.0154445 10
-3.02985 5.94641 -0.583883 0.0156273 10
-3.02733 5.94148 -0.349469 0.0157497 10
-3.02824 5.94327 -0.11643 0.0158105 10
-3.02475 5.9364 0.116296 0.0158091 10
-3.02812 5.94302 0.34956 0.0157455 10
-3.02003 5.92715 0.581991 0.0156204 10
-3.02412 5.93518 0.817893 0.0154349 10
-2.99781 5.88353 1.04585 0.00246891 10
-2.86355 5.62004 1.22606 0.0168631 10
-3.02304 5.93305 1.53731 0.0113332 10
-3.02407 5.93508 1.78483 0.0110172 10
-3.04501 5.92496 -1.78498 0.0141655 10
-3.04208 5.91924 -1.53647 0.014569 10
-3.05086 5.93633 -1.29737 0.0149217 10
-3.04946 5.93361 -1.05664 0.0152204 10
-3.04598 5.92683 -0.818203 0.0154624 10
-3.0445 5.92396 -0.582718 0.0156455 10
-3.04305 5.92114 -0.348896 0.015768 10
-3.03999 5.91517 -0.116087 0.0158288 10
-3.04597 5.92682 0.116315 0.0158274 10
-3.03965 5.91452 0.348506 0.0157638 10
-3.0487 5.93212 0.583521 0.0156386 10
-3.04643 5.92771 0.818324 0.0154528 10
-3.02555 5.88709 1.04835 0.00246919 10
-2.87654 5.59714 1.22325 0.0168826 10
-3.04251 5.92008 1.53669 0.0113464 10
-3.04493 5.9248 1.78493 0.01103 10
-3.06731 5.91744 -1.78593 0.0141814 10
-3.07136 5.92525 -1.54081 0.0145854 10
-3.06239 5.90795 -1.2935 0.0149385 10
-3.06843 5.91961 -1.05605 0.0152375 10
-3.05933 5.90204 -0.816251 0.0154798 10
-3.0695 5.92166 -0.583543 0.0156631 10
-3.06185 5.90692 -0.348686 0.0157857 10
-3.06672 5.91631 -0.116319 0.0158466 10
-3.07129 5.92512 0.116492 0.0158452 10
-3.06979 5.92223 0.349589 0.0157815 10
-3.06701 5.91687 0.58307 0.0156561 10
-3.06383 5.91073 0.817452 0.0154702 10
-3.04513 5.87465 1.04803 0.00246947 10
-2.90022 5.5951 1.225 0.0169015 10
-3.06671 5.91628 1.53847 0.0113592 10
-3.0661 5.91511 1.78522 0.0110425 10
-3.09074 5.91203 -1.78754 0.0141968 10
-3.07955 5.89064 -1.53459 0.0146012 10
-3.07835 5.88835 -1.29155 0.0149547 10
-3.08177 5.89488 -1.05355 0.015254 10
-3.07823 5.88811 -0.815805 0.0154965 10
-3.09143 5.91336 -0.583785 0.01568 10
-3.08002 5.89153 -0.34841 0.0158028 10
-3.07888 5.88936 -0.115999 0.0158638 10
-3.08452 5.90015 0.116212 0.0158624 10
-3.08375 5.89866 0.348832 0.0157986 10
-3.08712 5.90511 0.58297 0.0156731 10
-3.09098 5.91251 0.819185 0.0154869 10
-3.07142 5.87509 1.05001 0.00246975 10
-2.91484 5.57557 1.22295 0.0169198 10
-3.08189 5.89512 1.53576 0.0113715 10
-3.08755 5.90595 1.7857 0.0110544 10
-3.10593 5.89092 -1.78442 0.0142116 10
-3.10445 5.88812 -1.53675 0.0146165 10
-3.10922 5.89717 -1.29586 0.0149703 10
-3.10371 5.88672 -1.05402 0.01527 10
-3.10804 5.89493 -0.818247 0.0155127 10
-3.10651 5.89203 -0.582745 0.0156964 10
-3.10211 5.88367 -0.348583 0.0158193 10
-3.1063 5.89164 -0.116257 0.0158803 10
-3.10322 5.88578 0.116142 0.0158789 10
-3.10519 5.88951 0.348929 0.0158151 10
-3.11016 5.89895 0.58343 0.0156894 10
-3.10374 5.88677 0.817115 0.0155031 10
-3.0889 5.85862 1.04899 0.00247003 10
-2.94124 5.57856 1.22585 0.0169374 10
-3.09888 5.87755 1.53399 0.0113834 10
-3.10869 5.89615 1.78601 0.011066 10
-3.12909 5.88496 -1.78591 0.0142259 10
-3.12538 5.87799 -1.53694 0.0146312 10
-3.11869 5.86541 -1.29127 0.0149853 10
-3.12355 5.87455 -1.05378 0.0152853 10
-3.12523 5.8777 -0.817366 0.0155283 10
-3.12381 5.87503 -0.582139 0.0157121 10
-3.12379 5.875 -0.348714 0.0158351 10
-3.11863 5.86529 -0.115952 0.0158962 10
-3.12018 5.86821 0.116009 0.0158948 10
-3.11882 5.86564 0.348158 0.0158309 10
-3.12877 5.88436 0.583064 0.0157052 10
-3.12688 5.88081 0.817797 0.0155187 10
-3.10047 5.83114 1.046 0.00247031 10
-2.94902 5.5463 1.22102 0.0169543 10
-3.12441 5.87616 1.53646 0.0113948 10
-3.12235 5.87229 1.78207 0.0110771 10
-3.13989 5.85587 -1.7804 0.0142397 10
-3.14729 5.86968 -1.53763 0.0146453 10
-3.14946 5.87373 -1.29551 0.0149998 10
-3.14555 5.86643 -1.05429 0.0153 10
-3.14099 5.85792 -0.816134 0.0155432 10
-3.14612 5.8675 -0.582478 0.0157273 10
-3.14382 5.8632 -0.348662 0.0158504 10
-3.13831 5.85292 -0.115923 0.0159115 10
-3.1435 5.8626 0.116114 0.0159101 10
-3.14277 5.86124 0.348545 0.0158462 10
-3.14351 5.86263 0.581994 0.0157203 10
-3.14808 5.87114 0.817977 0.0155336 10
-3.13281 5.84267 1.05002 0.00247059 10
-2.98021 5.55807 1.22589 0.0169706 10
-3.14163 5.85912 1.53487 0.0114058 10
-3.13779 5.85195 1.77921 0.0110878 10
-3.16081 5.8458 -1.78069 0.0142528 10
-3.16888 5.86072 -1.53817 0.0146588 10
-3.15982 5.84397 -1.29137 0.0150137 10
-3.16611 5.85559 -1.05432 0.0153142 10
-3.16428 5.85221 -0.816873 0.0155576 10
-3.16594 5.85529 -0.582359 0.0157418 10
-3.16175 5.84754 -0.348385 0.015865 10
-3.16554 5.85454 -0.116173 0.0159262 10
-3.1648 5.85317 0.116146 0.0159248 10
-3.16116 5.84645 0.34832 0.0158608 10
-3.17033 5.8634 0.583166 0.0157348 10
-3.16755 5.85825 0.817716 0.015548 10
-3.14228 5.81153 1.04639 0.00247087 10
-2.98569 5.52192 1.22021 0.0169863 10
-3.16555 5.85456 1.53656 0.0114164 10
-3.16874 5.86046 1.78515 0.0110981 10
-3.18526 5.84218 -1.78296 0.0142655 10
-3.17585 5.82493 -1.53168 0.0146718 10
-3.17615 5.82548 -1.28973 0.0150269 10
-3.18627 5.84403 -1.05424 0.0153277 10
-3.18356 5.83906 -0.816583 0.0155713 10
-3.18693 5.84524 -0.582463 0.0157557 10
-3.17759 5.82812 -0.347887 0.0158791 10
-3.1861 5.84373 -0.116178 0.0159403 10
-3.18418 5.8402 0.116108 0.0159389 10
-3.18024 5.83298 0.348177 0.0158749 10
-3.18899 5.84903 0.58284 0.0157488 10
-3.17963 5.83185 0.815575 0.0155617 10
-3.16976 5.81375 1.04878 0.00247115 10
-3.00955 5.5199 1.22207 0.0170012 10
-3.18415 5.84015 1.53568 0.0114265 10
-3.18976 5.85044 1.78548 0.0111079 10
-3.20697 5.83346 -1.7837 0.0142775 10
-3.20369 5.82749 -1.53529 0.0146842 10
-3.20566 5.83108 -1.29344 0.0150396 10
-3.20573 5.83121 -1.05394 0.0153407 10
-3.2052 5.83025 -0.816911 0.0155845 10
-3.20673 5.83303 -0.582358 0.015769 10
-3.20544 5.83068 -0.348706 0.0158925 10
-3.19762 5.81645 -0.115857 0.0159538 10
-3.19502 5.81172 0.115763 0.0159524 10
-3.20461 5.82917 0.348615 0.0158883 10
-3.19873 5.81847 0.580904 0.0157621 10
-3.20273 5.82574 0.816279 0.0155749 10
-3.18365 5.79105 1.04668 0.00247142 10
-3.02627 5.50477 1.22106 0.0170156 10
-3.20877 5.83673 1.53772 0.0114362 10
-3.20238 5.82512 1.78115 0.0111173 10
-3.2172 5.80399 -1.77811 0.0142891 10
-3.21993 5.8089 -1.53334 0.0146961 10
-3.21999 5.80903 -1.29103 0.0150518 10
-3.22493 5.81793 -1.05357 0.015353 10
-3.22564 5.81922 -0.816938 0.015597 10
-3.21643 5.8026 -0.580437 0.0157817 10
-3.22314 5.8147 -0.348421 0.0159052 10
-3.22057 5.81006 -0.115953 0.0159666 10
-3.21839 5.80613 0.115875 0.0159652 10
-3.22067 5.81024 0.348153 0.0159011 10
-3.21782 5.8051 0.580687 0.0157747 10
-3.22835 5.8241 0.817624 0.0155874 10
-3.20369 5.77961 1.04663 0.0024717 10
-3.0508 5.50379 1.22319 0.0170292 10
-3.22312 5.81467 1.53486 0.0114454 10
-3.21615 5.80209 1.77753 0.0111263 10
-3.23715 5.79221 -1.77796 0.0143 10
-3.23481 5.78801 -1.5308 0.0147073 10
-3.2465 5.80893 -1.29352 0.0150633 10
-3.24326 5.80313 -1.05293 0.0153648 10
-3.23949 5.79639 -0.815316 0.015609 10
-3.2398 5.79695 -0.580999 0.0157938 10
-3.23498 5.78831 -0.347514 0.0159174 10
-3.2338 5.78621 -0.115702 0.0159788 10
-3.24626 5.80851 0.116148 0.0159774 10
-3.23486 5.78811 0.347502 0.0159132 10
-3.24352 5.80361 0.581666 0.0157868 10
-3.24625 5.80849 0.817018 0.0155993 10
-3.22459 5.76973 1.04687 0.00247198 10
-3.06658 5.487 1.22183 0.0170422 10
-3.24036 5.79794 1.53342 0.0114541 10
-3.23992 5.79717 1.77948 0.0111348 10
-3.25906 5.7839 -1.77889 0.0143104 10
-3.25434 5.77553 -1.53049 0.014718 10
-3.25487 5.77647 -1.28881 0.0150742 10
-3.2616 5.7884 -1.05232 0.0153759 10
-3.25579 5.7781 -0.814337 0.0156203 10
-3.26174 5.78866 -0.581307 0.0158052 10
-3.25899 5.78377 -0.347922 0.015929 10
-3.2586 5.78309 -0.115866 0.0159904 10
-3.25364 5.77429 0.11569 0.015989 10
-3.26671 5.79747 0.348747 0.0159248 10
-3.2558 5.77812 0.580248 0.0157983 10
-3.26121 5.78771 0.815692 0.0156107 10
-3.24541 5.75968 1.04709 0.00247226 10
-3.07693 5.46067 1.21835 0.0170545 10
-3.26469 5.79388 1.53536 0.0114625 10
-3.26176 5.78869 1.78036 0.011143 10
-3.27633 5.76739 -1.77732 0.0143202 10
-3.27781 5.76999 -1.53205 0.0147281 10
-3.27255 5.76073 -1.28784 0.0150846 10
-3.27459 5.76433 -1.05001 0.0153865 10
-3.2742 5.76363 -0.813904 0.015631 10
-3.27477 5.76464 -0.580039 0.0158161 10
-3.27263 5.76088 -0.34723 0.0159399 10
-3.27904 5.77215 -0.115876 0.0160014 10
-3.27407 5.76341 0.1157 0.016 10
-3.28479 5.78228 0.34852 0.0159357 10
-3.28468 5.78209 0.581794 0.0158091 10
-3.28148 5.77645 0.815714 0.0156214 10
-3.26342 5.74465 1.04643 0.00247253 10
-3.09586 5.4497 1.21831 0.0170662 10
-3.27852 5.77124 1.53238 0.0114704 10
-3.2774 5.76928 1.7779 0.0111506 10
-3.29532 5.75395 -1.77671 0.0143295 10
-3.29839 5.75931 -1.53226 0.0147376 10
-3.30194 5.76552 -1.29148 0.0150943 10
-3.29413 5.75187 -1.04983 0.0153964 10
-3.30518 5.77117 -0.816593 0.0156411 10
-3.29934 5.76097 -0.580825 0.0158263 10
-3.30194 5.76552 -0.348203 0.0159502 10
-3.29681 5.75655 -0.115793 0.0160117 10
-3.2928 5.74955 0.115652 0.0160103 10
-3.30542 5.77158 0.348569 0.015946 10
-3.29898 5.76034 0.580761 0.0158193 10
-3.2979 5.75846 0.814794 0.0156315 10
-3.2883 5.74169 1.04797 0.00247281 10
-3.1144 5.43805 1.21813 0.0170772 10
-3.29494 5.75329 1.53066 0.0114778 10
-3.30093 5.76374 1.77973 0.0111578 10
-3.3174 5.74591 -1.77779 0.0143382 10
-3.31819 5.74728 -1.53213 0.0147466 10
-3.3142 5.74037 -1.28843 0.0151035 10
-3.31582 5.74317 -1.05035 0.0154058 10
-3.31527 5.74222 -0.814129 0.0156506 10
-3.32552 5.75998 -0.581891 0.0158359 10
-3.32243 5.75462 -0.348243 0.0159599 10
-3.31349 5.73914 -0.115675 0.0160214 10
-3.31456 5.74099 0.115712 0.01602 10
-3.31607 5.74361 0.347576 0.0159557 10
-3.32634 5.7614 0.582035 0.0158289 10
-3.32103 5.7522 0.815543 0.015641 10
-3.30989 5.7329 1.04847 0.00247309 10
-3.13949 5.43776 1.22051 0.0170876 10
-3.32133 5.75271 1.53358 0.0114848 10
-3.31927 5.74915 1.77879 0.0111646 10
-3.33617 5.73211 -1.77711 0.0143464 10
-3.34196 5.74205 -1.53384 0.014755 10
-3.34095 5.74033 -1.29103 0.0151121 10
-3.34136 5.74103 -1.05208 0.0154145 10
-3.33075 5.7228 -0.813018 0.0156595 10
-3.34455 5.74652 -0.581708 0.0158449 10
-3.34446 5.74636 -0.348447 0.0159689 10
-3.33197 5.72489 -0.115621 0.0160305 10
-3.33293 5.72655 0.115654 0.0160291 10
-3.33904 5.73704 0.347882 0.0159647 10
-3.33726 5.73399 0.580439 0.0158379 10
-3.3331 5.72684 0.813593 0.0156499 10
-3.32494 5.71281 1.04691 0.00247336 10
-3.15619 5.42288 1.21964 0.0170972 10
-3.33346 5.72746 1.52994 0.0114913 10
-3.34266 5.74327 1.78057 0.011171 10
-3.35044 5.71069 -1.77409 0.014354 10
-3.3569 5.7217 -1.53152 0.0147628 10
-3.35165 5.71275 -1.28745 0.0151201 10
-3.36019 5.72731 -1.05171 0.0154227 10
-3.36243 5.73112 -0.815864 0.0156678 10
-3.36091 5.72854 -0.581072 0.0158532 10
-3.35187 5.71313 -0.347139 0.0159774 10
-3.35371 5.71626 -0.115682 0.016039 10
-3.35165 5.71275 0.115611 0.0160376 10
-3.35063 5.711 0.34701 0.0159731 10
-3.36451 5.73467 0.581694 0.0158463 10
-3.36229 5.73088 0.815829 0.0156581 10
-3.34499 5.7014 1.04695 0.00247364 10
-3.17968 5.41963 1.22139 0.0171062 10
-3.35671 5.72138 1.53144 0.0114974 10
-3.3659 5.73704 1.78227 0.0111769 10
-3.38005 5.71536 -1.77919 0.014361 10
-3.37733 5.71076 -1.53174 0.01477 10
-3.37497 5.70676 -1.28875 0.0151275 10
-3.38321 5.7207 -1.05266 0.0154302 10
-3.37666 5.70962 -0.814475 0.0156754 10
-3.36977 5.69798 -0.579162 0.015861 10
-3.3715 5.7009 -0.347109 0.0159852 10
-3.37878 5.7132 -0.115859 0.0160468 10
-3.38109 5.71712 0.115938 0.0160454 10
-3.38422 5.7224 0.348418 0.015981 10
-3.38515 5.72398 0.581804 0.015854 10
-3.37806 5.712 0.814814 0.0156658 10
-3.36856 5.69593 1.0481 0.00247391 10
-3.19705 5.40592 1.22081 0.0171146 10
-3.37275 5.70301 1.52966 0.011503 10
-3.37898 5.71355 1.77863 0.0111824 10
-3.39676 5.69812 -1.77751 0.0143675 10
-3.39157 5.6894 -1.52918 0.0147767 10
-3.40297 5.70853 -1.29183 0.0151343 10
-3.39141 5.68914 -1.04903 0.0154371 10
-3.39079 5.6881 -0.813089 0.0156825 10
-3.40229 5.70739 -0.581321 0.0158681 10
-3.39872 5.70141 -0.347861 0.0159923 10
-3.38945 5.68585 -0.115543 0.016054 10
-3.40414 5.71049 0.116044 0.0160526 10
-3.39848 5.701 0.347836 0.0159881 10
-3.39726 5.69895 0.580462 0.0158611 10
-3.39385 5.69323 0.813822 0.0156728 10
-3.38045 5.67076 1.04564 0.00247418 10
-3.21637 5.39551 1.22099 0.0171222 10
-3.39334 5.69239 1.52998 0.0115082 10
-3.39065 5.68787 1.77431 0.0111874 10
-3.41584 5.68492 -1.7771 0.0143734 10
-3.41919 5.6905 -1.53267 0.0147827 10
-3.42048 5.69264 -1.29092 0.0151405 10
-3.42055 5.69276 -1.05189 0.0154435 10
-3.41364 5.68126 -0.81381 0.0156889 10
-3.4093 5.67403 -0.579132 0.0158746 10
-3.40995 5.67511 -0.34698 0.0159989 10
-3.41047 5.67598 -0.115584 0.0160606 10
-3.42293 5.69672 0.116006 0.0160592 10
-3.41076 5.67646 0.347062 0.0159947 10
-3.418 5.6885 0.580609 0.0158676 10
-3.4143 5.68235 0.813965 0.0156792 10
-3.40081 5.6599 1.04582 0.00247446 10
-3.2345 5.38311 1.22073 0.0171292 10
-3.4152 5.68385 1.53088 0.0115129 10
-3.41461 5.68287 1.77646 0.011192 10
-3.4369 5.67499 -1.77773 0.0143787 10
-3.42881 5.66164 -1.52811 0.0147882 10
-3.43047 5.66438 -1.28722 0.0151461 10
-3.43075 5.66484 -1.04894 0.0154492 10
-3.42983 5.66332 -0.81295 0.0156947 10
-3.43166 5.66634 -0.579566 0.0158805 10
-3.44169 5.6829 -0.348189 0.0160048 10
-3.43609 5.67365 -0.11578 0.0160665 10
-3.44062 5.68114 0.115933 0.0160651 10
-3.43417 5.67049 0.347428 0.0160006 10
-3.43693 5.67504 0.580456 0.0158735 10
-3.43307 5.66867 0.813718 0.015685 10
-3.43264 5.66797 1.04952 0.00247473 10
-3.24993 5.36627 1.21948 0.0171356 10
-3.44227 5.68386 1.53411 0.0115172 10
-3.44177 5.68304 1.78025 0.0111961 10
-3.45792 5.66498 -1.77837 0.0143835 10
-3.44744 5.64782 -1.52762 0.0147931 10
-3.4551 5.66036 -1.28904 0.0151511 10
-3.44783 5.64846 -1.04812 0.0154543 10
-3.45171 5.65482 -0.813454 0.0156999 10
-3.45221 5.65562 -0.5797 0.0158857 10
-3.45801 5.66514 -0.347838 0.0160101 10
-3.44903 5.65043 -0.115551 0.0160719 10
-3.44873 5.64992 0.115541 0.0160705 10
-3.46034 5.66895 0.348072 0.0160059 10
-3.46178 5.6713 0.581307 0.0158788 10
-3.45027 5.65246 0.813115 0.0156902 10
-3.43758 5.63166 1.04501 0.002475 10
-3.26413 5.34751 1.2178 0.0171412 10
-3.44852 5.64959 1.5281 0.011521 10
-3.4599 5.66823 1.77939 0.0111999 10
-3.47304 5.64534 -1.776 0.0143877 10
-3.4733 5.64577 -1.53034 0.0147974 10
-3.46982 5.64011 -1.28718 0.0151555 10
-3.48089 5.65811 -1.05216 0.0154588 10
-3.48001 5.65667 -0.815463 0.0157045 10
-3.47347 5.64604 -0.579957 0.0158904 10
-3.47111 5.64222 -0.347172 0.0160148 10
-3.47532 5.64905 -0.11577 0.0160765 10
-3.4801 5.65683 0.115929 0.0160751 10
-3.47803 5.65346 0.347864 0.0160105 10
-3.47427 5.64734 0.58009 0.0158834 10
-3.48092 5.65816 0.815677 0.0156948 10
-3.47201 5.64367 1.04948 0.00247528 10
-3.28213 5.33503 1.21756 0.0171462 10
-3.47284 5.64501 1.53013 0.0115243 10
-3.4747 5.64804 1.77685 0.0112031 10
-3.48633 5.62288 -1.77275 0.0143913 10
-3.48735 5.62452 -1.52787 0.0148011 10
-3.49646 5.63922 -1.28975 0.0151594 10
-3.50134 5.64709 -1.05238 0.0154627 10
-3.48661 5.62333 -0.812406 0.0157084 10
-3.48958 5.62812 -0.579363 0.0158944 10
-3.48846 5.62631 -0.346941 0.0160188 10
-3.48616 5.6226 -0.115477 0.0160806 10
-3.49122 5.63077 0.115644 0.0160792 10
-3.4877 5.62509 0.346866 0.0160146 10
-3.49844 5.64241 0.580834 0.0158874 10
-3.50105 5.64661 0.81577 0.0156988 10
-3.48562 5.62173 1.04765 0.00247555 10
-3.30272 5.32674 1.21829 0.0171505 10
-3.49057 5.62972 1.52928 0.0115273 10
-3.48929 5.62764 1.77425 0.011206 10
-3.51841 5.63063 -1.77905 0.0143944 10
-3.50579 5.61044 -1.52736 0.0148043 10
-3.5085 5.61478 -1.28696 0.0151626 10
-3.51258 5.6213 -1.04985 0.015466 10
-3.5203 5.63366 -0.815669 0.0157118 10
-3.51315 5.62222 -0.580014 0.0158978 10
-3.50536 5.60975 -0.346672 0.0160222 10
-3.50777 5.6136 -0.115543 0.016084 10
-3.51165 5.61982 0.115671 0.0160826 10
-3.5171 5.62854 0.347833 0.016018 10
-3.50751 5.61319 0.579083 0.0158908 10
-3.51579 5.62644 0.814624 0.0157021 10
-3.50244 5.60508 1.04682 0.00247582 10
-3.33092 5.33059 1.22182 0.0171541 10
-3.52045 5.6339 1.53374 0.0115297 10
-3.5135 5.62277 1.77657 0.0112083 10
-3.52554 5.59847 -1.77277 0.0143969 10
-3.53999 5.62141 -1.5337 0.0148069 10
-3.52719 5.60109 -1.28663 0.0151652 10
-3.53764 5.61767 -1.05148 0.0154687 10
-3.53008 5.60568 -0.813397 0.0157145 10
-3.53525 5.61389 -0.580425 0.0159005 10
-3.53068 5.60663 -0.347239 0.016025 10
-3.53534 5.61402 -0.115805 0.0160868 10
-3.53004 5.60561 0.115631 0.0160854 10
-3.53541 5.61413 0.347703 0.0160208 10
-3.54024 5.62181 0.581244 0.0158935 10
-3.53918 5.62012 0.815493 0.0157048 10
-3.51655 5.58418 1.04521 0.00247609 10
-3.3418 5.30669 1.21901 0.0171571 10
-3.53876 5.61945 1.53316 0.0115317 10
-3.53578 5.61473 1.77792 0.0112103 10
-3.55351 5.59944 -1.77699 0.0143988 10
-3.5487 5.59185 -1.529 0.0148089 10
-3.55864 5.60752 -1.29096 0.0151672 10
-3.54631 5.58809 -1.04825 0.0154707 10
-3.54724 5.58956 -0.812849 0.0157166 10
-3.55648 5.60412 -0.580695 0.0159026 10
-3.54636 5.58817 -0.34686 0.0160271 10
-3.55625 5.60376 -0.115848 0.0160889 10
-3.55442 5.60087 0.115789 0.0160875 10
-3.55336 5.5992 0.347544 0.0160229 10
-3.55432 5.60072 0.580342 0.0158957 10
-3.55375 5.59983 0.814342 0.0157069 10
-3.54744 5.58987 1.04858 0.00247636 10
-3.35656 5.28909 1.21765 0.0171594 10
-3.54774 5.59034 1.52859 0.0115333 10
-3.54785 5.59051 1.77416 0.0112118 10
-3.57128 5.58426 -1.77612 0.0144002 10
-3.5786 5.59569 -1.53346 0.0148103 10
-3.56797 5.57908 -1.28727 0.0151687 10
-3.56334 5.57185 -1.04753 0.0154722 10
-3.57686 5.59299 -0.815159 0.0157181 10
-3.57639 5.59225 -0.580755 0.0159041 10
-3.57484 5.58983 -0.347735 0.0160286 10
-3.57919 5.59662 -0.115958 0.0160905 10
-3.579 5.59633 0.115952 0.0160891 10
-3.5744 5.58914 0.347693 0.0160244 10
-3.57067 5.5833 0.579826 0.0158972 10
-3.5715 5.5846 0.813936 0.0157084 10
-3.5638 5.57256 1.04766 0.00247663 10
-3.37259 5.27357 1.21678 0.017161 10
-3.57141 5.58445 1.53038 0.0115343 10
-3.57797 5.59472 1.77945 0.0112129 10
-3.59186 5.57347 -1.77667 0.014401 10
-3.58438 5.56187 -1.52761 0.0148111 10
-3.58297 5.55968 -1.28567 0.0151695 10
-3.58406 5.56138 -1.04791 0.0154731 10
-3.58664 5.56537 -0.812954 0.0157189 10
-3.58319 5.56003 -0.578705 0.015905 10
-3.59117 5.57241 -0.34743 0.0160295 10
-3.59145 5.57284 -0.115725 0.0160913 10
-3.59253 5.57451 0.115759 0.0160899 10
-3.59126 5.57255 0.347438 0.0160253 10
-3.58867 5.56852 0.579588 0.015898 10
-3.58772 5.56705 0.813199 0.0157093 10
-3.58851 5.56827 1.04921 0.0024769 10
-3.40036 5.27633 1.22015 0.0171619 10
-3.58457 5.56216 1.52769 0.011535 10
-3.59273 5.57482 1.7771 0.0112135 10
-3.61706 5.56978 -1.77951 0.0144012 10
-3.60308 5.54826 -1.52732 0.0148113 10
-3.61579 5.56782 -1.29047 0.0151697 10
-3.6083 5.55629 -1.04931 0.0154733 10
-3.60978 5.55858 -0.813797 0.0157192 10
-3.61788 5.57104 -0.581161 0.0159053 10
-3.61074 5.56005 -0.347442 0.0160298 10
-3.60747 5.55501 -0.115615 0.0160916 10
-3.60778 5.55549 0.115625 0.0160902 10
-3.61133 5.56095 0.347499 0.0160256 10
-3.60556 5.55207 0.579183 0.0158983 10
-3.61667 5.56918 0.815349 0.0157095 10
-3.6046 5.55059 1.04824 0.00247717 10
-3.41651 5.26096 1.21934 0.0171622 10
-3.61187 5.5618 1.53104 0.0115352 10
-3.61134 5.56098 1.77669 0.0112137 10
-3.62868 5.54521 -1.77569 0.0144008 10
-3.62239 5.5356 -1.5273 0.014811 10
-3.63736 5.55847 -1.29123 0.0151694 10
-3.62968 5.54674 -1.0499 0.0154729 10
-3.63045 5.54792 -0.814086 0.0157188 10
-3.6371 5.55807 -0.58113 0.0159049 10
-3.62669 5.54217 -0.347114 0.0160294 10
-3.62564 5.54057 -0.115577 0.0160912 10
-3.63213 5.55048 0.115784 0.0160898 10
-3.63328 5.55224 0.347745 0.0160252 10
-3.63615 5.55661 0.580977 0.0158979 10
-3.63706 5.55802 0.815568 0.0157091 10
-3.61714 5.52757 1.04627 0.00247744 10
-3.42676 5.23665 1.21647 0.0171618 10
-3.63364 5.55279 1.53205 0.0115349 10
-3.63488 5.55468 1.77872 0.0112134 10
-3.64862 5.53341 -1.77598 0.0143999 10
-3.64481 5.52765 -1.52861 0.01481 10
-3.64755 5.5318 -1.28799 0.0151684 10
-3.64303 5.52494 -1.04817 0.0154719 10
-3.64219 5.52367 -0.812389 0.0157178 10
-3.65583 5.54435 -0.581026 0.0159039 10
-3.64454 5.52723 -0.346973 0.0160284 10
-3.64869 5.53353 -0.115696 0.0160902 10
-3.64626 5.52984 0.115618 0.0160888 10
-3.64245 5.52406 0.346774 0.0160242 10
-3.64557 5.52879 0.579395 0.0158969 10
-3.64583 5.52919 0.813201 0.0157082 10
-3.64341 5.52552 1.04828 0.00247771 10
-3.44895 5.2306 1.21786 0.0171607 10
-3.64541 5.52856 1.52886 0.0115342 10
-3.65476 5.54273 1.77897 0.0112127 10
-3.66941 5.5229 -1.77671 0.0143985 10
-3.66878 5.52197 -1.53057 0.0148085 10
-3.66253 5.51255 -1.28647 0.0151669 10
-3.67518 5.53159 -1.05186 0.0154704 10
-3.66837 5.52134 -0.813925 0.0157162 10
-3.66295 5.51318 -0.579095 0.0159023 10
-3.67665 5.5338 -0.348189 0.0160267 10
-3.66672 5.51886 -0.115656 0.0160886 10
-3.67584 5.53258 0.115943 0.0160872 10
-3.674 5.52982 0.347938 0.0160225 10
-3.6633 5.51371 0.57915 0.0158953 10
-3.66857 5.52165 0.81397 0.0157065 10
-3.65409 5.49985 1.04583 0.00247798 10
-3.46285 5.21201 1.21634 0.017159 10
-3.67074 5.5249 1.53139 0.011533 10
-3.66526 5.51667 1.7747 0.0112115 10
-3.6914 5.51416 -1.77803 0.0143964 10
-3.68114 5.49883 -1.52771 0.0148064 10
-3.68699 5.50757 -1.28831 0.0151647 10
-3.69167 5.51455 -1.05107 0.0154682 10
-3.68568 5.5056 -0.813496 0.015714 10
-3.68641 5.5067 -0.579762 0.0159 10
-3.69548 5.52025 -0.348146 0.0160245 10
-3.68424 5.50346 -0.115602 0.0160863 10
-3.68258 5.50097 0.115549 0.0160849 10
-3.69387 5.51784 0.347994 0.0160203 10
-3.68497 5.50455 0.579536 0.015893 10
-3.68379 5.50278 0.813079 0.0157043 10
-3.67771 5.4937 1.04709 0.00247825 10
-3.48941 5.21242 1.21927 0.0171566 10
-3.69551 5.52029 1.53367 0.0115313 10
-3.68613 5.50627 1.77549 0.0112099 10
-3.70531 5.49335 -1.77548 0.0143938 10
-3.70657 5.49521 -1.53029 0.0148037 10
-3.70919 5.49911 -1.28935 0.015162 10
-3.69963 5.48493 -1.04787 0.0154654 10
-3.71392 5.50611 -0.815482 0.0157112 10
-3.71214 5.50347 -0.580784 0.0158971 10
-3.70357 5.49077 -0.3471 0.0160216 10
-3.71442 5.50685 -0.115945 0.0160834 10
-3.71347 5.50544 0.115915 0.016082 10
-3.71267 5.50427 0.347953 0.0160173 10
-3.70395 5.49133 0.579502 0.0158901 10
-3.71026 5.50068 0.814678 0.0157015 10
-3.69838 5.48307 1.04752 0.00247851 10
-3.50112 5.19062 1.21702 0.0171534 10
-3.71421 5.50654 1.53345 0.0115292 10
-3.71167 5.50277 1.77852 0.0112079 10
-3.72669 5.48366 -1.77654 0.0143906 10
-3.73003 5.48857 -1.53206 0.0148004 10
-3.73306 5.49303 -1.29097 0.0151586 10
-3.7265 5.48339 -1.05006 0.015462 10
-3.73317 5.4932 -0.815495 0.0157077 10
-3.71941 5.47295 -0.578929 0.0158936 10
-3.72802 5.48562 -0.347595 0.016018 10
-3.73178 5.49115 -0.115888 0.0160798 10
-3.71948 5.47305 0.115505 0.0160784 10
-3.72243 5.4774 0.347074 0.0160138 10
-3.72833 5.48607 0.580317 0.0158866 10
-3.7195 5.47308 0.812508 0.015698 10
-3.70805 5.45624 1.04486 0.00247878 10
-3.52411 5.18558 1.21871 0.0171497 10
-3.73272 5.49253 1.53316 0.0115267 10
-3.72626 5.48302 1.77633 0.0112054 10
-3.74875 5.47491 -1.77793 0.0143869 10
-3.74117 5.46383 -1.52879 0.0147966 10
-3.74771 5.47339 -1.28942 0.0151547 10
-3.74687 5.47217 -1.05041 0.0154579 10
-3.74442 5.46859 -0.813777 0.0157036 10
-3.73949 5.46138 -0.579083 0.0158895 10
-3.74217 5.4653 -0.347133 0.0160139 10
-3.75075 5.47783 -0.115882 0.0160757 10
-3.73977 5.4618 0.115543 0.0160742 10
-3.75324 5.48146 0.34816 0.0160097 10
-3.74871 5.47486 0.580511 0.0158825 10
-3.74248 5.46575 0.813355 0.0156939 10
-3.7352 5.45512 1.04714 0.00247905 10
-3.54703 5.18031 1.22038 0.0171452 10
-3.74178 5.46474 1.52904 0.0115237 10
-3.75467 5.48356 1.78074 0.0112025 10
-3.76992 5.46481 -1.77892 0.0143826 10
-3.76907 5.46359 -1.53239 0.0147922 10
-3.77031 5.46538 -1.29063 0.0151501 10
-3.76662 5.46003 -1.0506 0.0154533 10
-3.7686 5.4629 -0.814883 0.0156989 10
-3.76715 5.4608 -0.580411 0.0158847 10
-3.76723 5.46091 -0.347687 0.0160091 10
-3.76393 5.45612 -0.1157 0.0160708 10
-3.77353 5.47005 0.115995 0.0160694 10
-3.76225 5.45369 0.347228 0.0160049 10
-3.77169 5.46738 0.581111 0.0158778 10
-3.76014 5.45064 0.813054 0.0156892 10
-3.75192 5.43872 1.04649 0.00247931 10
-3.56414 5.16652 1.22005 0.0171401 10
-3.76619 5.4594 1.53122 0.0115202 10
-3.76201 5.45334 1.77518 0.0111991 10
-3.78179 5.44129 -1.77555 0.0143777 10
-3.78326 5.44339 -1.53042 0.0147871 10
-3.79026 5.45347 -1.29093 0.015145 10
-3.78975 5.45274 -1.05173 0.0154481 10
-3.79069 5.45409 -0.815537 0.0156936 10
-3.78836 5.45073 -0.580743 0.0158794 10
-3.79161 5.45541 -0.348178 0.0160037 10
-3.77834 5.43632 -0.115559 0.0160654 10
-3.77936 5.43778 0.11559 0.016064 10
-3.79373 5.45847 0.348373 0.0159995 10
-3.78155 5.44094 0.579701 0.0158724 10
-3.78171 5.44116 0.813604 0.0156839 10
-3.77912 5.43744 1.04878 0.00247958 10
-3.57512 5.14393 1.21766 0.0171343 10
-3.79299 5.4574 1.53436 0.0115163 10
-3.79289 5.45725 1.78076 0.0111953 10
-4.77345 6.8172 -2.22994 0.00861266 10
-4.76033 6.79846 -1.91606 0.00886256 10
-4.76367 6.80322 -1.61437 0.00908105 10
-4.76467 6.80466 -1.31569 0.00926613 10
-4.76463 6.8046 -1.01996 0.0094161 10
-4.76506 6.80522 -0.726824 0.00952959 10
-4.76386 6.8035 -0.435275 0.00960555 10
-4.77663 6.82174 -0.145362 0.00964327 10
-6.83599 9.76282 1.04271 0.000361843 10
-4.87977 6.96904 1.04461 0.00110334 10
-3.78275 5.40233 1.04455 0.00247984 10
-3.59472 5.1338 1.21822 0.0171279 10
-4.76253 6.8016 1.91695 0.00690208 10
-4.76161 6.80029 2.22441 0.00670618 10
-4.78453 6.7825 -2.22404 0.00860899 10
-4.79936 6.80353 -1.9222 0.00885879 10
-4.79538 6.79788 -1.61706 0.00907719 10
-4.79021 6.79055 -1.31619 0.00926219 10
-4.79896 6.80295 -1.02222 0.0094121 10
-4.79874 6.80265 -0.728334 0.00952555 10
-4.79066 6.79119 -0.435555 0.00960147 10
-4.79971 6.80402 -0.145341 0.00963918 10
-6.86516 9.73198 1.04197 0.000361916 10
-4.9072 6.9564 1.04527 0.0011035 10
-3.80989 5.40086 1.04683 0.00248011 10
-3.61607 5.12611 1.21939 0.0171207 10
-4.79799 6.80158 1.92165 0.00689914 10
-4.79312 6.79468 2.22804 0.00670332 10
-4.81865 6.78051 -2.22889 0.00860498 10
-4.81893 6.78089 -1.92055 0.00885466 10
-4.82052 6.78313 -1.61755 0.00907296 10
-4.81396 6.7739 -1.31621 0.00925788 10
-4.82422 6.78834 -1.02254 0.00940772 10
-4.8247 6.78901 -0.728673 0.00952112 10
-4.81222 6.77146 -0.435364 0.00959701 10
-4.82366 6.78755 -0.145348 0.0096347 10
-6.8998 9.70897 1.04208 0.00036199 10
-4.93371 6.9424 1.04575 0.00110365 10
-3.82158 5.37748 1.04488 0.00248037 10
-3.63288 5.11197 1.21903 0.0171129 10
-4.81695 6.77811 1.91976 0.00689593 10
-4.82667 6.79179 2.2326 0.0067002 10
-4.83669 6.75582 -2.22631 0.00860063 10
-4.83651 6.75557 -1.91815 0.00885018 10
-4.83629 6.75526 -1.61492 0.00906838 10
-4.84315 6.76484 -1.31773 0.0092532 10
-4.84994 6.77433 -1.02298 0.00940297 10
-4.83417 6.7523 -0.726539 0.00951631 10
-4.83412 6.75224 -0.43521 0.00959216 10
-4.844 6.76603 -0.145248 0.00962984 10
-6.93944 9.69291 1.04295 0.000362063 10
-4.96207 6.93095 1.04663 0.00110381 10
-3.84649 5.37272 1.04656 0.00248063 10
-3.66019 5.1125 1.2222 0.0171045 10
-4.8497 6.77399 1.92338 0.00689244 10
-4.84679 6.76993 2.23096 0.0066968 10
-4.85729 6.7348 -2.22496 0.00859592 10
-4.87254 6.75594 -1.92307 0.00884535 10
-4.86576 6.74654 -1.61688 0.00906343 10
-4.87017 6.75266 -1.31866 0.00924816 10
-4.86236 6.74183 -1.02062 0.00939784 10
-4.8574 6.73495 -0.726492 0.00951112 10
-4.85842 6.73637 -0.435278 0.00958693 10
-4.85984 6.73834 -0.145017 0.00962458 10
-6.97304 9.66836 1.04292 0.000362136 10
-4.98146 6.90697 1.04563 0.00110396 10
-3.86176 5.35446 1.04562 0.00248089 10
-3.67566 5.09642 1.22141 0.0170953 10
-4.8712 6.75409 1.92254 0.00688867 10
-4.8648 6.74521 2.2284 0.00669315 10
-4.89286 6.73444 -2.23047 0.00859088 10
-4.89053 6.73124 -1.92088 0.00884017 10
-4.89453 6.73675 -1.61862 0.00905812 10
-4.89365 6.73553 -1.31864 0.00924274 10
-4.88982 6.73027 -1.02145 0.00939234 10
-4.89197 6.73323 -0.728144 0.00950556 10
-4.88718 6.72664 -0.435749 0.00958132 10
-4.89438 6.73654 -0.145345 0.00961895 10
-7.00432 9.64063 1.04256 0.000362209 10
-5.00548 6.88946 1.04561 0.00110411 10
-3.88755 5.35075 1.04754 0.00248116 10
-3.69127 5.0806 1.2207 0.0170855 10
-4.89995 6.74421 1.92459 0.00688463 10
-4.89996 6.74421 2.23371 0.00668921 10
-4.91391 6.714 -2.22937 0.00858549 10
-4.90604 6.70325 -1.91777 0.00883463 10
-4.91721 6.71851 -1.61835 0.00905245 10
-4.9184 6.72014 -1.31898 0.00923695 10
-4.90996 6.70861 -1.02076 0.00938647 10
-4.92162 6.72454 -0.729059 0.00949961 10
-4.91258 6.71219 -0.435921 0.00957533 10
-4.90928 6.70768 -0.145091 0.00961294 10
-7.03126 9.60699 1.04157 0.000362282 10
-5.02218 6.86195 1.04409 0.00110427 10
-3.89779 5.32566 1.04528 0.00248142 10
-3.70492 5.06213 1.21936 0.0170751 10
-4.91238 6.71191 1.92025 0.00688032 10
-4.91126 6.71039 2.22817 0.00668502 10
-4.93718 6.69664 -2.22931 0.00857977 10
-4.94333 6.70498 -1.92319 0.00882873 10
-4.94453 6.7066 -1.61963 0.00904641 10
-4.94345 6.70514 -1.31942 0.0092308 10
-4.94198 6.70314 -1.02255 0.00938021 10
-4.93617 6.69526 -0.727748 0.00949328 10
-4.94231 6.70358 -0.43648 0.00956896 10
