VERSION 0.7
FIELDS x y z intensity label
SIZE 4 4 4 4 4
TYPE F F F F F
COUNT 1 1 1 1 1
WIDTH 1142
HEIGHT 1
VIEWPOINT 4.57615 17.8894 2.72834 0.878923 -0.000431495 0.000812659 0.476963
POINTS 1142
DATA ascii
-6.10285 -9.99807 -2.70428 0.000179539 4
-7.24486 -11.869 -2.70294 0.000124121 4
-9.03 -14.7935 -2.74508 0.000104547 1
-10.851 -17.7768 -2.55722 4.09903e-05 4
-15.0766 -24.6994 -2.53168 0.000165571 10
-15.0806 -24.7059 4.58442 0.000125023 10
-15.1574 -24.8318 5.65497 7.66291e-05 10
-15.0695 -24.6878 7.75005 0.000114414 10
-5.22086 -8.62066 -2.70049 3.42633e-05 4
-6.05855 -10.0039 -2.7001 3.07132e-05 4
-7.20186 -11.8917 -2.70237 6.13991e-05 4
-8.97394 -14.8177 -2.74374 0.000104561 1
-10.788 -17.813 -2.557 4.2833e-05 4
-14.887 -24.5814 -2.51424 0.000170455 10
-14.8787 -24.5676 4.54909 0.000128716 10
-14.8685 -24.5508 7.69072 0.000117813 10
-5.19074 -8.63885 -2.70049 0.000274126 4
-6.02843 -10.033 -2.70227 0.000153579 4
-8.9192 -14.844 -2.74283 0.000104574 1
-10.7337 -17.8638 -2.5589 4.92662e-05 4
-14.6888 -24.4463 -2.49517 0.00017543 10
-8.68025 -14.4464 -0.883261 0.00105702 8
-8.67405 -14.436 -0.293971 0.00123125 8
-14.6877 -24.4445 4.51678 0.000132479 10
-14.2663 -23.7432 7.42208 0.000132424 10
-5.16654 -8.66695 -2.70362 0.00014088 4
-5.99337 -10.054 -2.70227 0.000500944 4
-7.12168 -11.9467 -2.70351 4.00509e-05 4
-8.87387 -14.8861 -2.74485 0.000104587 1
-10.6613 -17.8845 -2.55651 4.43777e-05 4
-14.5049 -24.3323 -2.47834 0.000180495 10
-8.6328 -14.4817 -0.88357 0.00107458 8
-8.63944 -14.4928 -0.29451 0.00125387 8
-14.5063 -24.3345 0.494506 0.000121089 10
-14.4923 -24.311 4.48273 0.000136308 10
-14.5734 -24.4471 6.57079 8.11449e-05 10
-14.0838 -23.6258 7.36997 0.000136244 10
-5.13258 -8.67872 -2.70169 0.000312242 4
-5.96392 -10.0844 -2.70485 4.72627e-05 4
-7.07632 -11.9654 -2.70213 9.74669e-05 4
-8.82086 -14.9152 -2.74454 0.0001046 1
-10.6037 -17.9299 -2.5577 3.82632e-05 4
-14.3162 -24.2073 -2.46051 0.00018565 10
-8.60638 -14.5526 -0.88606 0.00110376 8
-8.60597 -14.5519 -0.295099 0.00122818 8
-14.3882 -24.3291 0.493372 0.00024721 10
-14.3096 -24.1961 4.45231 0.000140207 10
-13.9142 -23.5276 7.32414 8.43432e-05 10
-5.0928 -8.68047 -2.69668 0.000346537 4
-5.92192 -10.0937 -2.70176 0.000103987 4
-7.03977 -11.999 -2.70415 7.34414e-05 4
-8.76832 -14.9452 -2.74441 0.000104614 1
-10.541 -17.9667 -2.55769 3.73512e-05 4
-14.1278 -24.0802 -2.44257 0.000190897 10
-8.56366 -14.5964 -0.886901 0.00112061 8
-8.56574 -14.5999 -0.295465 0.00119078 8
-14.1821 -24.1727 0.489194 0.000253462 10
-13.7536 -23.4424 1.4244 0.000325676 10
-13.7571 -23.4484 2.37847 0.000322478 10
-13.7554 -23.4455 3.33762 0.000317765 10
-14.1285 -24.0814 4.4221 0.000144175 10
-13.7606 -23.4544 5.2858 0.000304016 10
-13.7621 -23.457 6.27871 0.000295132 10
-13.7577 -23.4495 7.28484 0.000285032 10
-5.0621 -8.69755 -2.69648 0.000411304 4
-5.88258 -10.1073 -2.69989 0.000115813 4
-6.99706 -12.0222 -2.70385 0.000170935 4
-8.70995 -14.9652 -2.74248 0.000104627 1
-10.4694 -17.9882 -2.55552 3.70514e-05 4
-13.9508 -23.9699 -2.42642 0.000196235 10
-8.53192 -14.6593 -0.888909 0.00114305 8
-8.5286 -14.6536 -0.295947 0.00114781 8
-13.9697 -24.0023 0.484756 0.000259926 10
-13.7026 -23.5434 1.42762 0.00032343 10
-13.6992 -23.5377 2.38267 0.000320253 10
-13.7006 -23.54 3.34425 0.000315571 10
-13.9439 -23.958 4.39047 0.000148213 10
-13.7084 -23.5533 5.29727 0.000301911 10
-13.6975 -23.5347 6.28667 0.000293084 10
-13.7062 -23.5496 7.30103 0.00028305 10
-5.04315 -8.73499 -2.70262 0.000590339 4
-5.84971 -10.132 -2.70103 0.000170188 4
-6.95088 -12.0393 -2.70223 3.20536e-05 4
-8.47095 -14.6721 -2.68333 0.000923375 8
-8.46959 -14.6698 -2.07987 0.000939591 8
-8.46855 -14.668 -1.4818 0.000951845 8
-8.47173 -14.6735 -0.887969 0.000960012 8
-8.47415 -14.6777 -0.295834 0.000964012 8
-13.7778 -23.8638 0.480984 0.000135273 10
-13.6334 -23.6138 1.429 0.000321181 10
-13.6381 -23.622 2.38637 0.000318024 10
-13.6461 -23.6357 3.35106 0.000313372 10
-13.773 -23.8555 4.36285 0.000152319 10
-13.6394 -23.6242 5.30247 0.000299801 10
-13.6434 -23.6311 6.29965 0.000291032 10
-13.6446 -23.6332 7.31213 0.000281064 10
-5.00489 -8.73903 -2.69844 0.000140929 4
-5.81377 -10.1514 -2.70077 0.000122924 4
-6.90636 -12.0592 -2.70127 3.60639e-05 4
-8.61162 -15.0367 -2.7445 0.000104654 1
-10.3551 -18.081 -2.55838 4.34966e-05 4
-13.5913 -23.7318 -2.39265 0.000207186 10
-8.46004 -14.772 -0.892142 0.00119255 8
-8.46461 -14.78 -0.2973 0.00106901 8
-13.5907 -23.7307 0.477342 0.000138973 10
-13.5745 -23.7023 1.43148 0.000318926 10
-13.5896 -23.7287 2.39235 0.00031579 10
-13.5872 -23.7246 3.35692 0.000311169 10
-13.5957 -23.7395 4.33293 0.000156496 10
-13.5843 -23.7196 5.31321 0.000297688 10
-13.589 -23.7276 6.31272 0.000288977 10
-13.5806 -23.7131 7.32215 0.000279075 10
-4.97278 -8.75367 -2.69759 0.000262833 4
-5.77434 -10.1647 -2.69893 0.000172581 4
-6.87331 -12.0992 -2.70485 4.14109e-05 4
-8.55298 -15.056 -2.74255 0.000104667 1
-10.2892 -18.1122 -2.5577 3.70704e-05 4
-13.4194 -23.6224 -2.37689 0.000212802 10
-8.41923 -14.8205 -0.89329 0.00120221 8
-8.4135 -14.8104 -0.297319 0.0010331 8
-13.4859 -23.7395 0.47657 0.000271592 10
-13.4157 -23.6159 1.42342 0.000167734 10
-13.4161 -23.6166 2.3763 0.000166178 10
-13.4107 -23.6071 3.33364 0.000163839 10
-13.4163 -23.617 4.30199 0.000160743 10
-13.4122 -23.6098 5.2781 0.000156926 10
-13.4188 -23.6214 6.27195 0.000152428 10
-13.4094 -23.6048 7.27422 0.000147298 10
-4.93937 -8.76596 -2.69605 0.000121902 4
-5.74131 -10.1892 -2.70009 9.93012e-05 4
-6.834 -12.1284 -2.70602 5.47748e-05 4
-8.50846 -15.1001 -2.74516 0.000104681 1
-10.2224 -18.1419 -2.55683 4.04474e-05 4
-13.2461 -23.5081 -2.36072 0.000218509 10
-8.38874 -14.8876 -0.895563 0.00116569 8
-8.38984 -14.8896 -0.298318 0.00100333 8
-13.2743 -23.5581 0.471995 0.000278686 10
-13.2455 -23.5069 1.41406 0.000172228 10
-13.2543 -23.5227 2.36218 0.000170632 10
-13.2409 -23.4989 3.31181 0.000168234 10
-13.2454 -23.5067 4.27346 0.000165061 10
-13.2494 -23.5139 5.24629 0.000161146 10
-13.2449 -23.5058 6.22896 0.000156534 10
-13.2371 -23.492 7.22517 0.000151275 10
-4.91206 -8.7891 -2.69787 0.00012572 4
-5.7072 -10.2118 -2.7008 8.74869e-05 4
-6.77746 -12.1268 -2.70038 2.93944e-05 4
-8.45458 -15.1277 -2.74479 0.000104694 1
-10.1542 -18.1688 -2.55561 4.04544e-05 4
-13.0819 -23.4074 -2.34601 0.000224311 10
-8.3442 -14.9302 -0.896367 0.00112381 8
-8.35194 -14.944 -0.298823 0.000956649 8
-13.073 -23.3914 0.467737 0.000150446 10
-13.0859 -23.4144 1.40573 0.000176797 10
-13.0802 -23.4042 2.34569 0.000175161 10
-13.0748 -23.3946 3.29067 0.000172703 10
-13.0686 -23.3836 4.24276 0.00016945 10
-13.0703 -23.3865 5.20765 0.000165437 10
-13.0764 -23.3975 6.18812 0.000160709 10
-13.0736 -23.3925 7.18049 0.000155318 10
-4.89067 -8.823 -2.70302 0.000125729 4
-5.67609 -10.2399 -2.70297 0.000172624 4
-6.73561 -12.1514 -2.70059 4.54323e-05 4
-8.40065 -15.1552 -2.74444 0.000104708 1
-10.0957 -18.2131 -2.55687 3.89287e-05 4
-12.9212 -23.3104 -2.33175 0.000230206 10
-12.9211 -23.3103 -1.39677 0.000232491 10
-8.31495 -15.0006 -0.299371 0.000927562 8
-12.9188 -23.3062 0.465129 0.000233745 10
-12.9089 -23.2882 1.39545 0.000181438 10
-12.9053 -23.2818 2.32889 0.000179762 10
-12.9152 -23.2997 3.27095 0.000177242 10
-12.9013 -23.2745 4.21477 0.000173909 10
-12.9125 -23.2948 5.17716 0.000169797 10
-12.9034 -23.2784 6.14467 0.000164952 10
-12.9111 -23.2923 7.13584 0.000159426 10
-4.84919 -8.82065 -2.6971 0.000175272 4
-5.63697 -10.2536 -2.70137 0.00012534 4
-6.69403 -12.1764 -2.70094 0.000112256 4
-8.33854 -15.1677 -2.74143 0.000104721 1
-10.0335 -18.2508 -2.55724 3.70959e-05 4
-12.7524 -23.1965 -2.31589 0.000236195 10
-12.7447 -23.1826 -1.38644 0.000238536 10
-12.744 -23.1812 -0.461744 0.000239749 10
-12.7414 -23.1764 0.461649 0.000239819 10
-12.7463 -23.1853 1.38661 0.000186154 10
-12.7422 -23.178 2.31405 0.000184436 10
-12.7434 -23.1801 3.24791 0.000181855 10
-12.7499 -23.192 4.19174 0.00017844 10
-12.7355 -23.1658 5.13858 0.000174227 10
-12.7455 -23.184 6.10795 0.000169262 10
-12.7424 -23.1783 7.08726 0.000163601 10
-4.81975 -8.84005 -2.69787 0.000278168 4
-5.60718 -10.2843 -2.70428 0.000290908 4
-6.64952 -12.1961 -2.70014 3.8759e-05 4
-8.28481 -15.1954 -2.74119 0.000104735 1
-9.96767 -18.282 -2.55671 4.35416e-05 4
-12.5907 -23.093 -2.30115 0.000242278 10
-12.591 -23.0936 -1.37848 0.000244676 10
-12.5873 -23.0868 -0.458986 0.000245917 10
-12.5894 -23.0906 0.45906 0.000245989 10
-12.5776 -23.069 1.37701 0.000190944 10
-12.5764 -23.0667 2.29853 0.000189184 10
-12.5863 -23.085 3.2284 0.000186541 10
-12.5762 -23.0664 4.16108 0.000183042 10
-12.5814 -23.0759 5.10888 0.000178726 10
-12.5801 -23.0735 6.06725 0.000173641 10
-12.5721 -23.0588 7.03725 0.000167842 10
-4.78674 -8.85289 -2.69667 0.000163864 4
-5.56217 -10.287 -2.69988 8.98817e-05 4
-6.61513 -12.2344 -2.7035 8.01992e-05 4
-8.2306 -15.2222 -2.74082 0.000104749 1
-9.89865 -18.3072 -2.55538 3.43486e-05 4
-12.453 -23.0313 -2.29066 0.000453917 10
-12.4548 -23.0347 -1.37236 0.000458161 10
-12.4526 -23.0306 -0.457001 0.000460239 10
-12.4489 -23.0238 0.456866 0.000460129 10
-12.4267 -22.9827 1.36926 0.000195809 10
-12.4188 -22.9681 2.28437 0.000194007 10
-12.4265 -22.9823 3.20796 0.000191299 10
-12.4228 -22.9755 4.13684 0.000187716 10
-12.4149 -22.9608 5.07376 0.000183297 10
-12.4112 -22.954 6.02439 0.000178089 10
-12.4229 -22.9757 6.99863 0.000172149 10
-4.75859 -8.87474 -2.69825 0.000198176 4
-5.52652 -10.3069 -2.70002 7.56962e-05 4
-6.56441 -12.2426 -2.70022 9.49121e-05 4
-8.17667 -15.2494 -2.74057 0.000104762 1
-9.8355 -18.3431 -2.55559 3.71153e-05 4
-12.3941 -23.1149 -2.29466 0.000450541 10
-12.3868 -23.1014 -1.37375 0.000454754 10
-12.3902 -23.1077 -0.45767 0.000456817 10
-12.3955 -23.1174 0.457862 0.000456709 10
-12.2666 -22.8771 1.36042 0.000200748 10
-12.2665 -22.8769 2.27103 0.000198903 10
-12.2636 -22.8715 3.1865 0.000196131 10
-12.2652 -22.8744 4.1109 0.000192462 10
-12.2593 -22.8636 5.04279 0.000187937 10
-12.2555 -22.8564 5.98752 0.000182605 10
-12.2577 -22.8605 6.95046 0.000176524 10
-4.72471 -8.88589 -2.69661 0.000110529 4
-5.48708 -10.3197 -2.69833 0.000172697 4
-6.52321 -12.2684 -2.70087 4.54555e-05 4
-8.12791 -15.2864 -2.74209 0.000104776 1
-9.77523 -18.3845 -2.55659 3.71217e-05 4
-12.3385 -23.2053 -2.29934 0.000447161 10
-12.3415 -23.2111 -1.3777 0.000451344 10
-12.3308 -23.1908 -0.458461 0.000453393 10
-12.3308 -23.1908 0.45846 0.000453284 10
-12.1478 -22.8468 1.35608 0.000368164 10
-12.1418 -22.8353 2.26269 0.000364589 10
-12.1516 -22.8537 3.17809 0.00035932 10
-12.1521 -22.8547 4.09971 0.000352414 10
-12.1533 -22.8569 5.03194 0.000343947 10
-12.1439 -22.8393 5.97188 0.00033401 10
-12.1492 -22.8493 6.9341 0.000322711 10
-4.69657 -8.90784 -2.69828 0.000202016 4
-5.45476 -10.3459 -2.70019 0.000127759 4
-6.47892 -12.2884 -2.70028 0.00010028 4
-8.08028 -15.3256 -2.74406 0.00010479 1
-9.70426 -18.4058 -2.55482 3.5594e-05 4
-12.2777 -23.2868 -2.30316 0.000443776 10
-12.2733 -23.2785 -1.37915 0.000447929 10
-12.2803 -23.2917 -0.459605 0.000449963 10
-12.2809 -23.2929 0.459628 0.000449855 10
-12.086 -22.9232 1.35811 0.000365388 10
-12.0948 -22.9399 2.26885 0.000361839 10
-12.0833 -22.918 3.18114 0.000356607 10
-12.0941 -22.9386 4.10715 0.00034975 10
-12.0904 -22.9315 5.03904 0.000341343 10
-12.093 -22.9363 5.98619 0.000331477 10
-12.0943 -22.939 6.94846 0.000320258 10
-4.66733 -8.92776 -2.69937 0.000163911 4
-5.41661 -10.361 -2.69919 0.00025554 4
-6.43899 -12.3167 -2.70154 6.41857e-05 4
-8.01752 -15.3361 -2.74091 0.000104803 1
-12.2243 -23.383 -2.30844 0.000440389 10
-20.1378 -38.5199 -2.27797 5.0958e-05 10
-20.1254 -38.4962 -0.758239 5.12554e-05 10
-20.1349 -38.5145 0.758599 5.12722e-05 10
-12.221 -23.3766 1.38243 0.000346341 10
-12.2304 -23.3947 4.18115 0.000331457 10
-12.2317 -23.3972 5.13195 0.000323456 10
-4.63888 -8.9493 -2.70096 0.00014105 4
-5.38826 -10.395 -2.70313 6.1524e-05 4
-6.39262 -12.3326 -2.70013 5.0819e-05 4
-7.97081 -15.3772 -2.74327 0.000104817 1
-9.57641 -18.4748 -2.55506 2.94674e-05 4
-12.1573 -23.4538 -2.31122 0.000436997 10
-19.8692 -38.3316 -2.26272 5.23955e-05 10
-19.8728 -38.3384 -0.753761 5.27007e-05 10
-19.8794 -38.3513 0.754012 5.27177e-05 10
-12.1695 -23.4773 1.38586 0.000343675 10
-12.1692 -23.4767 4.18819 0.000328898 10
-12.1645 -23.4676 5.13806 0.000320956 10
-4.61115 -8.97233 -2.70304 0.000579491 4
-5.35174 -10.4134 -2.70302 7.80948e-05 4
-6.35725 -12.3699 -2.70341 0.000102986 4
-7.91479 -15.4005 -2.74248 0.000104831 1
-9.51962 -18.5232 -2.55714 2.94725e-05 4
-12.101 -23.546 -2.31613 0.000433604 10
-19.6144 -38.1655 -2.24885 5.38582e-05 10
-19.626 -38.1881 -0.749453 5.41711e-05 10
-19.6147 -38.166 0.749019 5.41885e-05 10
-12.101 -23.546 1.38742 0.000341007 10
-12.15 -23.6414 2.32552 0.000213728 10
-12.1429 -23.6275 3.26179 0.000210619 10
-12.1119 -23.5671 4.19676 0.000326338 10
-12.1067 -23.5571 5.14835 0.000318453 10
-12.1415 -23.6248 6.13235 0.000195693 10
-12.1475 -23.6365 7.12082 0.000189031 10
-4.57237 -8.97377 -2.69865 0.000209699 4
-5.30369 -10.4091 -2.69709 7.33681e-05 4
-6.30875 -12.3816 -2.70115 8.56075e-05 4
-7.856 -15.4183 -2.74074 0.000104845 1
-9.45137 -18.5494 -2.55618 3.5926e-05 4
-12.0437 -23.6372 -2.32095 0.000430208 10
-19.3685 -38.0128 -2.23586 5.53464e-05 10
-19.373 -38.0216 -0.744854 5.56673e-05 10
-19.3615 -37.999 0.744411 5.5685e-05 10
-12.056 -23.6612 1.39172 0.000338336 10
-12.0501 -23.6496 4.20394 0.000323775 10
-12.055 -23.6592 5.16145 0.000315949 10
-4.53919 -8.98606 -2.69756 0.000213528 4
-5.27275 -10.4383 -2.69987 9.94104e-05 4
-6.27428 -12.421 -2.70494 4.68215e-05 4
-7.80281 -15.4469 -2.74097 0.000104858 1
-10.0901 -19.975 -2.74778 4.14955e-05 1
-11.9897 -23.7355 -2.32649 0.000426809 10
-19.1203 -37.8517 -2.22245 5.68603e-05 10
-19.1247 -37.8606 -0.740387 5.71891e-05 10
-19.1172 -37.8457 0.740095 5.72072e-05 10
-11.9866 -23.7295 1.39327 0.000335664 10
-11.9989 -23.7538 4.21498 0.000321211 10
-11.9981 -23.7522 5.17257 0.000313442 10
-4.50609 -8.99845 -2.69655 8.38919e-05 4
-6.22081 -12.4227 -2.70056 3.47853e-05 4
-7.75575 -15.4879 -2.74342 0.000104872 1
-10.0167 -20.0029 -2.74678 4.15029e-05 1
-11.9292 -23.8221 -2.33087 0.000423409 10
-18.8781 -37.6987 -2.20958 5.83999e-05 10
-18.8755 -37.6936 -0.735828 5.87368e-05 10
-18.8741 -37.6906 0.73577 5.87553e-05 10
-11.9377 -23.8391 1.39725 0.000332991 10
-11.9314 -23.8264 4.22044 0.000318645 10
-11.9295 -23.8227 5.17881 0.000310935 10
-4.4801 -9.0251 -2.69983 0.000144915 4
-5.20175 -10.4789 -2.70091 0.000120733 4
-6.17681 -12.4431 -2.7003 9.76765e-05 4
-7.69529 -15.5021 -2.74116 0.000104886 1
-9.94795 -20.04 -2.7471 4.15104e-05 1
-11.8687 -23.9093 -2.33534 0.000420007 10
-18.6343 -37.5386 -2.19637 5.99653e-05 10
-18.6352 -37.5403 -0.731561 6.03105e-05 10
-18.6342 -37.5383 0.731523 6.03292e-05 10
-11.8775 -23.9271 1.39997 0.000330316 10
-11.8787 -23.9295 4.23134 0.000316079 10
-11.8708 -23.9136 5.18953 0.000308427 10
-4.44716 -9.03781 -2.69897 0.000228829 4
-5.16957 -10.5059 -2.70322 8.52308e-05 4
-6.1411 -12.4803 -2.70372 3.0778e-05 4
-7.63948 -15.5255 -2.74056 0.0001049 1
-9.18061 -18.6575 -2.55316 3.59513e-05 4
-11.8171 -24.0154 -2.34167 0.000416604 10
-14.4564 -29.3794 -1.71601 0.00013574 10
-14.4523 -29.371 -0.571377 0.000136465 10
-14.4526 -29.3715 0.571386 0.000136504 10
-11.8186 -24.0186 1.4029 0.000327641 10
-11.8345 -24.0509 2.34513 0.000122622 10
-11.8383 -24.0585 3.29227 0.000120898 10
-11.8135 -24.0081 4.23793 0.000313511 10
-11.8203 -24.0219 5.20406 0.000305917 10
-11.8353 -24.0525 6.18881 0.000112492 10
-11.84 -24.0621 7.18568 0.000108715 10
-4.4137 -9.04942 -2.69782 0.000160192 4
-5.13051 -10.5191 -2.70198 0.000144431 4
-6.09326 -12.493 -2.70184 5.75475e-05 4
-7.48334 -15.3431 -2.70375 3.56342e-05 4
-9.12581 -18.7107 -2.55607 4.85582e-05 4
-11.7482 -24.0873 -2.34466 0.0004132 10
-14.275 -29.2681 -1.70659 0.000139056 10
-14.2749 -29.2679 -0.568398 0.000139798 10
-14.2736 -29.2653 0.568347 0.000139837 10
-11.7591 -24.1097 1.40581 0.000324964 10
-11.714 -24.0173 2.33784 0.000195289 10
-11.7063 -24.0016 3.27886 0.000192545 10
-11.762 -24.1156 4.24963 0.000310943 10
-11.7528 -24.0969 5.21138 0.000303407 10
-11.7161 -24.0216 6.17029 0.000179168 10
-11.7039 -23.9965 7.15387 0.000173156 10
-4.38449 -9.06974 -2.6993 0.000263192 4
-5.0936 -10.5366 -2.7019 0.000111293 4
-6.05124 -12.5176 -2.70257 2.9446e-05 4
-9.05992 -18.7413 -2.55593 4.08822e-05 4
-11.6893 -24.1805 -2.34974 0.000409796 10
-11.7374 -24.2799 -1.41334 0.000163276 10
-11.7419 -24.2893 -0.470913 0.000164106 10
-11.7405 -24.2865 0.470858 0.00016415 10
-11.6932 -24.1886 1.40802 0.000322288 10
-11.5642 -23.9218 2.3246 0.000199781 10
-11.5574 -23.9077 3.2605 0.000196977 10
-11.6961 -24.1945 4.25632 0.000308374 10
-11.6982 -24.1988 5.22457 0.000300897 10
-11.5568 -23.9065 6.13032 0.000183309 10
-11.5521 -23.8966 7.112 0.000177167 10
-4.34751 -9.07396 -2.69602 0.000228879 4
-5.05475 -10.5501 -2.70081 8.52529e-05 4
-6.01104 -12.546 -2.70416 0.000117796 4
-7.37511 -15.393 -2.70341 0.000132014 4
-8.98668 -18.7567 -2.55372 3.5663e-05 4
-11.6305 -24.2746 -2.35493 0.000406391 10
-11.639 -24.2926 -1.4117 0.000270956 10
-11.6339 -24.2818 -0.469978 0.000272191 10
-11.6384 -24.2912 0.470158 0.000272124 10
-11.6388 -24.2921 1.41168 0.000319611 10
-11.4571 -23.9129 2.31984 0.000331453 10
-11.4502 -23.8984 3.25377 0.000326633 10
-11.6349 -24.2839 4.26486 0.000305805 10
-11.6337 -24.2815 5.23362 0.000298387 10
-11.4541 -23.9066 6.12006 0.000303493 10
-11.4597 -23.9183 7.1065 0.000293165 10
-4.32591 -9.11035 -2.70233 8.39286e-05 4
-5.01074 -10.5526 -2.69696 0.000151574 4
-5.96644 -12.5653 -2.70381 8.96952e-05 4
-7.32067 -15.4173 -2.70316 0.000113547 4
-8.92566 -18.7974 -2.55501 4.02817e-05 4
-11.5777 -24.3825 -2.36146 0.000402986 10
-11.6667 -24.57 -1.42545 0.000161459 10
-11.6557 -24.5469 -0.474317 0.000162281 10
-11.6635 -24.5633 0.474634 0.000162324 10
-11.5701 -24.3665 1.41365 0.000316934 10
-11.5756 -24.3782 2.36105 0.000313824 10
-11.5727 -24.372 3.31272 0.000309241 10
-11.5775 -24.3822 4.275 0.000303237 10
-11.5764 -24.3799 5.24608 0.000295877 10
-11.5822 -24.3921 6.23398 0.000287242 10
-11.5782 -24.3836 7.23272 0.000277425 10
-4.98136 -10.5859 -2.70102 0.000149218 4
-5.91277 -12.5653 -2.69935 0.000295892 4
-7.26562 -15.4402 -2.70272 0.000126767 4
-8.85718 -18.8225 -2.5542 3.69059e-05 4
-11.5175 -24.4759 -2.3666 0.000399582 10
-11.5095 -24.4589 -1.41666 0.000266418 10
-11.5171 -24.475 -0.472149 0.000267634 10
-11.514 -24.4684 0.472022 0.000267567 10
-11.5115 -24.4632 1.41692 0.000314257 10
-11.5152 -24.471 2.36612 0.000311172 10
-11.5109 -24.4619 3.31947 0.000306625 10
-11.523 -24.4877 4.28642 0.000300669 10
-11.5205 -24.4824 5.25945 0.000293367 10
-11.5135 -24.4674 6.2429 0.000284801 10
-11.5222 -24.486 7.2511 0.000275062 10
-4.26206 -9.14001 -2.70224 0.00019459 4
-4.94537 -10.6054 -2.70156 0.000127913 4
-5.87053 -12.5894 -2.70011 0.000121851 4
-7.20893 -15.4596 -2.70169 0.000141971 4
-8.78903 -18.8481 -2.5535 3.87581e-05 4
-11.4516 -24.5581 -2.37067 0.000396178 10
-17.0127 -36.4838 -2.1097 7.16538e-05 10
-17.0156 -36.49 -0.70278 7.20601e-05 10
-17.0076 -36.4729 0.702451 7.20814e-05 10
-11.4597 -24.5754 1.42109 0.000311581 10
-11.4553 -24.566 2.37143 0.00030852 10
-11.4576 -24.5708 3.3288 0.00030401 10
-11.4553 -24.566 4.29311 0.000298101 10
-11.4593 -24.5746 5.27064 0.000290858 10
-11.4562 -24.5678 6.25828 0.00028236 10
-11.4607 -24.5775 7.26631 0.0002727 10
-4.22046 -9.13392 -2.69606 0.000122105 4
-4.91006 -10.6263 -2.70252 0.000189517 4
-5.83307 -12.6239 -2.70313 3.08006e-05 4
-7.15499 -15.4848 -2.70171 0.000138028 4
-8.72293 -18.8781 -2.55343 4.70718e-05 4
-11.3869 -24.6434 -2.37505 0.000392776 10
-11.4319 -24.7408 -1.42834 0.000163262 10
-11.4242 -24.7242 -0.475406 0.000164093 10
-11.4201 -24.7154 0.475237 0.000164136 10
-11.3998 -24.6715 1.42434 0.000308906 10
-11.394 -24.6589 2.37654 0.000305869 10
-11.3929 -24.6564 3.33499 0.000301396 10
-11.3932 -24.6572 4.30207 0.000295534 10
-11.4005 -24.673 5.28317 0.000288349 10
-11.3937 -24.6583 6.27115 0.00027992 10
-11.3988 -24.6694 7.28167 0.000270339 10
-4.19747 -9.16807 -2.7018 0.000141194 4
-4.86292 -10.6215 -2.69696 0.000135042 4
-5.78314 -12.6315 -2.70041 5.75899e-05 4
-7.11018 -15.53 -2.70524 0.00013012 4
-8.66216 -18.9198 -2.55496 4.52339e-05 4
-11.3338 -24.7551 -2.38199 0.000389375 10
-11.3346 -24.757 -1.42698 0.000259616 10
-11.333 -24.7535 -0.475205 0.000260802 10
-11.3263 -24.7389 0.474924 0.000260737 10
-11.3262 -24.7385 1.42591 0.000306231 10
-11.3324 -24.7521 2.3817 0.00030322 10
-11.3385 -24.7655 3.34437 0.000298782 10
-11.3329 -24.7531 4.31187 0.000292968 10
-11.3325 -24.7524 5.29168 0.000285842 10
-11.3358 -24.7596 6.28683 0.000277481 10
-11.3399 -24.7685 7.29919 0.000267978 10
-4.15928 -9.16907 -2.6978 0.00024043 4
-4.82607 -10.639 -2.69711 0.000248784 4
-5.73765 -12.6486 -2.69977 8.17059e-05 4
-7.05642 -15.5558 -2.70543 4.29388e-05 4
-8.59564 -18.949 -2.55483 2.95458e-05 4
-11.2635 -24.8303 -2.38543 0.000385975 10
-11.3409 -25.0008 -1.43874 0.000161492 10
-11.3407 -25.0004 -0.479183 0.000162314 10
-11.3314 -24.9798 0.478788 0.000162357 10
-11.2728 -24.8506 1.4301 0.000303558 10
-11.2674 -24.8388 2.38625 0.000300571 10
-11.278 -24.8622 3.35209 0.00029617 10
-11.2779 -24.8621 4.32397 0.000290404 10
-11.2729 -24.8509 5.30428 0.000283336 10
-11.2785 -24.8633 6.30313 0.000275044 10
-11.2783 -24.8629 7.31539 0.000265619 10
-4.13213 -9.19441 -2.701 3.81662e-05 4
-4.79569 -10.6709 -2.70093 0.000106631 4
-5.7003 -12.6837 -2.70301 0.000100469 4
-8.52177 -18.9618 -2.55253 3.78624e-05 4
-11.2016 -24.9248 -2.39073 0.000382577 10
-11.2056 -24.9335 -1.43261 0.000255086 10
-11.2105 -24.9444 -0.477356 0.000256252 10
-11.207 -24.9366 0.477207 0.000256188 10
-11.2079 -24.9387 1.43291 0.000300887 10
-11.204 -24.9301 2.39125 0.000297924 10
-11.2052 -24.9327 3.35631 0.000293559 10
-11.2088 -24.9407 4.3308 0.000287841 10
-11.2179 -24.961 5.3194 0.000280831 10
-11.2084 -24.9399 6.31257 0.000272608 10
-11.2168 -24.9585 7.33193 0.000263262 10
-4.76009 -10.6913 -2.70188 0.000118489 4
-5.64635 -12.6819 -2.6984 4.15315e-05 4
-6.94479 -15.5983 -2.70432 3.17172e-05 4
-8.45539 -18.9911 -2.55249 4.12559e-05 4
-11.144 -25.0298 -2.39706 0.000379182 10
-15.7972 -35.481 -2.03546 8.31269e-05 10
-15.7922 -35.47 -0.677723 8.35923e-05 10
-15.7924 -35.4703 0.677729 8.3616e-05 10
-11.1457 -25.0336 1.43611 0.000298217 10
-11.1526 -25.0492 2.39892 0.000295279 10
-11.1471 -25.0368 3.36505 0.00029095 10
-11.1464 -25.0352 4.34045 0.000285279 10
-11.1457 -25.0337 5.32657 0.000278328 10
-11.1492 -25.0415 6.32841 0.000270174 10
-11.1553 -25.0552 7.34887 0.000260906 10
-4.06765 -9.22259 -2.70087 0.000209946 4
-4.71424 -10.6886 -2.69701 5.92498e-05 4
-5.60214 -12.7018 -2.69845 4.15359e-05 4
-6.88704 -15.615 -2.70304 2.9078e-05 4
-8.39676 -19.038 -2.55484 4.15712e-05 4
-11.0782 -25.1177 -2.40176 0.000375789 10
-11.0968 -25.1598 -1.44112 0.000163209 10
-11.0958 -25.1575 -0.47994 0.00016404 10
-11.0917 -25.1482 0.479762 0.000164082 10
-11.0848 -25.1327 1.43957 0.00029555 10
-11.0819 -25.1259 2.40255 0.000292636 10
-11.0806 -25.123 3.37143 0.000288344 10
-11.0921 -25.1492 4.35347 0.00028272 10
-11.0864 -25.1361 5.34009 0.000275827 10
-11.0831 -25.1288 6.34066 0.000267742 10
-11.0922 -25.1494 7.3651 0.000258552 10
-4.03255 -9.23014 -2.69894 0.000507724 4
-4.68551 -10.7247 -2.70198 0.000184875 4
-5.56119 -12.729 -2.70011 3.88603e-05 4
-8.32472 -19.0545 -2.55314 3.94228e-05 4
-11.0167 -25.2162 -2.40749 0.000372399 10
-15.5073 -35.4948 -2.02999 0.000128676 10
-15.5137 -35.5095 -0.676393 0.000129323 10
-15.5062 -35.4923 0.676064 0.000129287 10
-11.0228 -25.2302 1.44295 0.000292884 10
-11.0257 -25.2369 2.40946 0.000289995 10
-11.0222 -25.2288 3.38044 0.000285739 10
-11.0294 -25.2453 4.3634 0.000280163 10
-11.0257 -25.2369 5.35329 0.000273329 10
-11.0297 -25.2459 6.36045 0.000265312 10
-11.0264 -25.2384 7.37985 0.0002562 10
-3.99958 -9.24248 -2.69845 0.000206159 4
-4.64432 -10.7324 -2.69981 0.000156447 4
-5.52026 -12.7566 -2.70184 4.82455e-05 4
-8.26298 -19.0946 -2.55463 3.57334e-05 4
-10.9593 -25.3255 -2.41425 0.000369013 10
-10.995 -25.408 -1.4509 0.000161478 10
-11.0008 -25.4213 -0.483496 0.000162301 10
-10.9959 -25.41 0.483281 0.000162342 10
-10.9581 -25.3226 1.44603 0.000290222 10
-10.9557 -25.3172 2.41346 0.000287357 10
-10.9581 -25.3227 3.38787 0.000283137 10
-10.9579 -25.3222 4.37006 0.000277608 10
-10.9597 -25.3263 5.36411 0.000270833 10
-10.9642 -25.3369 6.37368 0.000262884 10
-10.9674 -25.3442 7.39954 0.00025385 10
-3.96833 -9.25881 -2.69916 0.000167994 4
-4.60322 -10.7401 -2.6977 0.000101936 4
-5.47894 -12.7833 -2.70344 6.96954e-05 4
-6.7242 -15.6887 -2.70346 6.47908e-05 4
-8.19312 -19.116 -2.55365 4.62153e-05 4
-10.8939 -25.4173 -2.41936 0.00036563 10
-10.8992 -25.4298 -1.44997 0.000243792 10
-10.898 -25.427 -0.482878 0.000244909 10
-10.8999 -25.4313 0.482959 0.000244846 10
-10.9005 -25.4328 1.45014 0.000287561 10
-10.9029 -25.4384 2.42137 0.000284721 10
-10.8955 -25.4212 3.39594 0.000280537 10
-10.9004 -25.4325 4.38251 0.000275057 10
-10.8999 -25.4314 5.37827 0.000268339 10
-10.8965 -25.4235 6.38587 0.000260459 10
-10.9008 -25.4335 7.41445 0.000251504 10
-3.93508 -9.27046 -2.69853 0.000271101 4
-4.56345 -10.7508 -2.69637 0.000128024 4
-5.42768 -12.7868 -2.70015 0.000280152 4
-8.11967 -19.1287 -2.55155 3.63626e-05 4
-10.8253 -25.5029 -2.4239 0.00036225 10
-10.8951 -25.6673 -1.46134 0.000159804 10
-10.8988 -25.6759 -0.486879 0.000160619 10
-10.9013 -25.6819 0.486992 0.00016066 10
-10.8353 -25.5264 1.45331 0.000284904 10
-10.8334 -25.5218 2.4257 0.000282089 10
-10.8325 -25.5197 3.40403 0.000277941 10
-10.8343 -25.5239 4.39171 0.000272508 10
-10.835 -25.5257 5.39019 0.000265848 10
-10.8309 -25.5161 6.39958 0.000258037 10
-10.8399 -25.5373 7.43363 0.000249159 10
-3.9009 -9.27987 -2.69729 8.78281e-05 4
-4.53329 -10.7843 -2.70077 9.95834e-05 4
-5.38372 -12.8074 -2.70051 0.000241305 4
-6.61762 -15.7427 -2.70474 5.15822e-05 4
-8.05697 -19.1668 -2.55285 3.82185e-05 4
-10.7651 -25.6092 -2.43042 0.000358875 10
-10.7682 -25.6166 -1.4563 0.00023929 10
-10.767 -25.6137 -0.484984 0.000240387 10
-10.7698 -25.6203 0.485109 0.000240326 10
-10.7687 -25.6178 1.45637 0.00028225 10
-10.7733 -25.6286 2.43226 0.000279459 10
-10.771 -25.6231 3.41279 0.000275348 10
-10.7727 -25.6273 4.40301 0.000269962 10
-10.777 -25.6375 5.40583 0.000263361 10
-10.7737 -25.6297 6.4186 0.000255618 10
-10.7751 -25.6328 7.45045 0.000246818 10
-4.49218 -10.7918 -2.69871 0.000237124 4
-5.33549 -12.8177 -2.69874 0.000282893 4
-6.55567 -15.749 -2.70187 2.91016e-05 4
-7.9909 -19.1969 -2.55314 5.1481e-05 4
-10.6969 -25.6976 -2.43525 0.000355504 10
-15.0668 -36.1956 0.684347 0.000122861 10
-10.7009 -25.7072 1.45932 0.0002796 10
-10.7049 -25.7169 2.43708 0.000276833 10
-10.7121 -25.7342 3.42259 0.000272758 10
-10.7021 -25.7102 4.4108 0.000267419 10
-10.7077 -25.7237 5.41607 0.000260877 10
-10.7112 -25.7321 6.43485 0.000253202 10
-10.7141 -25.7389 7.47037 0.00024448 10
-3.83152 -9.29595 -2.69413 0.000244428 4
-4.45649 -10.8123 -2.69993 0.000284574 4
-5.29451 -12.8454 -2.70068 0.000248061 4
-6.49895 -15.7676 -2.70116 3.17515e-05 4
-7.92267 -19.2218 -2.55276 4.13156e-05 4
-10.6407 -25.8163 -2.44297 0.000352138 10
-10.6511 -25.8415 -1.46482 0.000161409 10
-10.6432 -25.8224 -0.487518 0.000162232 10
-10.6489 -25.8361 0.487774 0.000162273 10
-10.636 -25.8049 1.46275 0.000276953 10
-10.6455 -25.8279 2.44406 0.000274211 10
-10.6421 -25.8196 3.42898 0.000270172 10
-10.6372 -25.8077 4.42113 0.00026488 10
-10.6396 -25.8137 5.42717 0.000258396 10
-10.6467 -25.8309 6.45024 0.00025079 10
-10.6428 -25.8213 7.48347 0.000242146 10
-3.79938 -9.31009 -2.69436 0.000106945 4
-4.41615 -10.8215 -2.69836 0.000166016 4
-5.2533 -12.8728 -2.70256 0.000256134 4
-7.85412 -19.2459 -2.55231 3.48471e-05 4
-10.5738 -25.9103 -2.44835 0.000348777 10
-14.8865 -36.4783 0.68771 0.00012031 10
-10.5788 -25.9226 1.46732 0.00027431 10
-10.577 -25.9182 2.4491 0.000271593 10
-10.5789 -25.9228 3.43776 0.000267589 10
-10.5798 -25.925 4.43488 0.000262345 10
-10.5787 -25.9224 5.44224 0.000255919 10
-10.5832 -25.9334 6.46655 0.000172692 10
-10.5776 -25.9197 7.50122 0.000239815 10
-3.77637 -9.34685 -2.70117 9.54939e-05 4
-4.37937 -10.8393 -2.69898 0.00017789 4
-5.20493 -12.8827 -2.7008 0.000293714 4
-6.3876 -15.8099 -2.70069 4.89636e-05 4
-7.79021 -19.2814 -2.55339 3.91716e-05 4
-10.5125 -26.0193 -2.45517 0.000345421 10
-10.5419 -26.0922 -1.47482 0.000159762 10
-10.541 -26.09 -0.491167 0.000160578 10
-10.5344 -26.0735 0.490856 0.000160618 10
-10.5121 -26.0184 1.47065 0.000271672 10
-10.4344 -25.8261 2.43693 0.000192222 10
-10.4381 -25.8352 3.4213 0.000189488 10
-10.5088 -26.0101 4.44312 0.000259815 10
-10.5106 -26.0146 5.45386 0.000253446 10
-10.4361 -25.8302 6.43169 0.000176179 10
-10.5128 -26.0201 7.51962 0.000237488 10
-3.73636 -9.34157 -2.69586 0.000236843 4
-4.34555 -10.8647 -2.7015 0.000156557 4
-6.33717 -15.8441 -2.70274 8.13965e-05 4
-7.72402 -19.3114 -2.55378 4.34977e-05 4
-10.448 -26.1218 -2.46138 0.000342071 10
-10.4447 -26.1136 -1.47397 0.000228091 10
-10.4452 -26.1148 -0.490945 0.000229139 10
-10.4489 -26.124 0.491119 0.00022908 10
-10.4488 -26.1238 1.47454 0.000269038 10
-10.2924 -25.7328 2.42473 0.00019605 10
-10.2966 -25.7432 3.40433 0.000193265 10
-10.4475 -26.1205 4.45573 0.000257288 10
-10.4461 -26.1172 5.46769 0.000250978 10
-10.2937 -25.736 6.39926 0.000179705 10
-10.2915 -25.7306 7.42551 0.000173616 10
-3.70577 -9.35971 -2.69734 0.000194837 4
-4.30153 -10.8644 -2.69769 6.64242e-05 4
-6.28569 -15.8758 -2.7044 3.70636e-05 4
-7.65354 -19.3306 -2.55277 3.94945e-05 4
-10.375 -26.2042 -2.46572 0.000338727 10
-10.4244 -26.3289 -1.48406 0.000158164 10
-10.4292 -26.3412 -0.494515 0.000158973 10
-10.4286 -26.3397 0.494485 0.000159011 10
-10.3815 -26.2207 1.47796 0.000266408 10
-10.2234 -25.8212 2.42969 0.000276437 10
-10.2194 -25.8113 3.40859 0.00027237 10
-10.3808 -26.219 4.46633 0.000254766 10
-10.3796 -26.2159 5.48074 0.000248513 10
-10.2216 -25.8167 6.41042 0.000252856 10
-10.2258 -25.8274 7.44312 0.000244153 10
-3.67005 -9.36486 -2.69512 0.000221596 4
-4.26393 -10.8803 -2.69791 0.00017082 4
-5.0689 -12.9343 -2.70035 8.45204e-05 4
-7.58588 -19.3569 -2.55272 3.57984e-05 4
-10.3132 -26.3162 -2.47286 0.000335388 10
-10.3149 -26.3204 -1.48154 0.000223638 10
-10.313 -26.3156 -0.493354 0.000224667 10
-10.3092 -26.306 0.493174 0.000224608 10
-10.3171 -26.3262 1.48186 0.000263784 10
-10.3146 -26.3198 4.47733 0.000252248 10
-10.3121 -26.3135 5.49357 0.000246054 10
-10.316 -26.3234 7.57563 0.000230533 10
-3.64157 -9.38852 -2.69825 0.000401195 4
-4.22952 -10.9044 -2.70021 0.000204053 4
-5.0238 -12.9521 -2.70039 5.36695e-05 4
-6.16947 -15.9058 -2.70211 2.91294e-05 4
-7.51926 -19.3858 -2.55306 4.44475e-05 4
-10.2416 -26.4044 -2.47777 0.000332057 10
-10.3064 -26.5714 -1.49363 0.000156611 10
-10.3042 -26.5659 -0.49737 0.000157412 10
-10.3089 -26.578 0.497597 0.000157451 10
-10.2533 -26.4346 1.48594 0.000261164 10
-10.2821 -26.5088 2.48757 0.000163626 10
-10.2836 -26.5127 3.49165 0.000161204 10
-10.2495 -26.4248 4.48908 0.000249736 10
-10.2499 -26.4258 5.50952 0.000243599 10
-10.2831 -26.5114 6.56493 0.000149589 10
-10.2491 -26.4236 7.59413 0.000228223 10
-3.61093 -9.40678 -2.69986 0.000301875 4
-4.18727 -10.9082 -2.69753 0.000106782 4
-4.97788 -12.9678 -2.70002 3.08633e-05 4
-7.44559 -19.3964 -2.55102 3.79726e-05 4
-10.1772 -26.5124 -2.48456 0.000328732 10
-10.1766 -26.5109 -1.48822 0.000219202 10
-10.1834 -26.5287 -0.496005 0.000220211 10
-10.1813 -26.5233 0.495904 0.000220153 10
-10.1841 -26.5306 1.48933 0.00025855 10
-10.1781 -26.5148 4.49831 0.000247229 10
-10.181 -26.5225 5.52224 0.00024115 10
-10.1813 -26.5233 7.61251 0.000225918 10
-3.57488 -9.41093 -2.69746 0.00017961 4
-4.15412 -10.9358 -2.70075 0.00012103 4
-4.93157 -12.9824 -2.69947 0.000161044 4
-7.38131 -19.4314 -2.55222 4.63165e-05 4
-10.1102 -26.6152 -2.49087 0.000325415 10
-10.117 -26.6331 -1.49309 0.000328512 10
-10.1095 -26.6134 -0.496926 0.000330026 10
-10.1137 -26.6245 0.497132 0.000329938 10
-10.1167 -26.6323 1.49305 0.000255941 10
-10.1199 -26.6408 4.51366 0.000244727 10
-10.1211 -26.644 5.54014 0.000238705 10
-10.117 -26.6332 7.63389 0.000223619 10
-3.54247 -9.42459 -2.69781 0.000248416 4
-4.11271 -10.9417 -2.69864 4.0347e-05 4
-4.88514 -12.9967 -2.69887 4.69761e-05 4
-6.00527 -15.9768 -2.70332 5.89451e-05 4
-10.049 -26.7351 -2.49879 0.000322104 10
-10.0483 -26.733 -1.49672 0.000325172 10
-10.0506 -26.7391 -0.498615 0.000326671 10
-10.0505 -26.7389 0.49861 0.000326584 10
-10.0492 -26.7354 1.49685 0.000253338 10
-10.0476 -26.7312 4.52301 0.000242231 10
-10.0466 -26.7287 5.55042 0.000236266 10
-10.0509 -26.74 7.65439 0.000221324 10
-3.50465 -9.42373 -2.69405 0.000225502 4
-4.0787 -10.9673 -2.70143 8.78218e-05 4
-5.94057 -15.9737 -2.69928 4.17309e-05 4
-7.23931 -19.4659 -2.55005 4.47891e-05 4
-9.97559 -26.8235 -2.50379 0.000318802 10
-9.97774 -26.8293 -1.50015 0.00032184 10
-9.97726 -26.828 -0.49962 0.000323324 10
-9.97775 -26.8293 0.499644 0.000323238 10
-9.98354 -26.8449 1.50102 0.000250742 10
-10.008 -26.9106 2.51191 0.000157087 10
-10.0113 -26.9195 3.52647 0.000154756 10
-9.98365 -26.8452 4.53638 0.00023974 10
-9.9833 -26.8443 5.56716 0.000233834 10
-10.0099 -26.9158 6.62982 0.000143576 10
-9.98547 -26.8501 7.67588 0.000219036 10
-3.47555 -9.44626 -2.697 5.73354e-05 4
-4.03102 -10.956 -2.69516 0.000109194 4
-4.79633 -13.036 -2.70002 3.75891e-05 4
-7.1783 -19.51 -2.55253 4.41795e-05 4
-9.90515 -26.9214 -2.50968 0.000315507 10
-13.9503 -37.9158 0.705197 0.000107751 10
-9.90905 -26.932 1.50395 0.000185883 10
-9.89995 -26.9073 2.50836 0.000184122 10
-9.90545 -26.9222 3.52228 0.000181483 10
-9.90677 -26.9258 4.54412 0.000177996 10
-9.90221 -26.9134 5.57429 0.000173699 10
-9.9058 -26.9232 6.62307 0.000168641 10
-9.9053 -26.9218 7.68644 0.000162877 10
-3.43884 -9.44814 -2.6941 0.000279053 4
-3.99424 -10.9741 -2.69617 0.000142439 4
-4.75055 -13.052 -2.69988 5.77324e-05 4
-5.83479 -16.031 -2.702 0.00012589 4
-7.10816 -19.5295 -2.55181 3.55355e-05 4
-9.84078 -27.0373 -2.51727 0.000312221 10
-12.0173 -33.0173 -1.84141 0.000127527 10
-12.015 -33.0109 -0.613187 0.000128217 10
-12.019 -33.0219 0.61339 0.000128249 10
-9.76193 -26.8207 1.49582 0.000189369 10
-9.76298 -26.8236 2.49737 0.000187577 10
-9.76376 -26.8257 3.50517 0.000184891 10
-9.76243 -26.8221 4.52084 0.000181343 10
-9.75781 -26.8094 5.54565 0.00017697 10
-9.76148 -26.8194 6.58913 0.000171822 10
-9.7591 -26.8129 7.64558 0.000165957 10
-3.40945 -9.47012 -2.69695 8.02818e-05 4
-3.95545 -10.9867 -2.69585 0.000137704 4
-5.78102 -16.0574 -2.70305 0.00013651 4
-7.03693 -19.5458 -2.55072 3.77055e-05 4
-9.77354 -27.1471 -2.52429 0.000308943 10
-11.8491 -32.9122 -1.83324 0.000130036 10
-11.8481 -32.9093 -0.610528 0.000130738 10
-11.851 -32.9174 0.610678 0.00013077 10
-9.63173 -26.7532 1.49017 0.000192891 10
-9.62582 -26.7367 2.48614 0.000191067 10
-9.62161 -26.725 3.48761 0.000188334 10
-9.62792 -26.7426 4.50175 0.000184723 10
-9.62147 -26.7247 5.52115 0.000180274 10
-9.62017 -26.721 6.55666 0.000230573 10
-9.62928 -26.7463 7.61697 0.000222591 10
-3.37971 -9.49133 -2.69962 0.00024851 4
-3.92048 -11.01 -2.6982 0.0001021 4
-5.72006 -16.0638 -2.70074 0.000123936 4
-6.96498 -19.5599 -2.54937 2.99845e-05 4
-9.70048 -27.2421 -2.52997 0.000305673 10
-11.6847 -32.8145 -1.82551 0.000132572 10
-11.6796 -32.8 -0.60774 0.000174499 10
-11.676 -32.7901 0.607556 0.00017445 10
-9.55767 -26.841 1.4932 0.000252061 10
-9.55743 -26.8404 2.49266 0.000249551 10
-9.55829 -26.8428 3.4986 0.000245855 10
-9.55922 -26.8454 4.51341 0.000241014 10
-9.55363 -26.8297 5.53593 0.000235083 10
-9.5528 -26.8274 6.57453 0.000228127 10
-9.55835 -26.843 7.63494 0.000220224 10
-3.34743 -9.50554 -2.70032 0.000183529 4
-3.8857 -11.034 -2.70075 0.000116357 4
-4.61366 -13.1012 -2.69991 0.000150422 4
-5.66564 -16.0884 -2.70155 0.000122628 4
-6.9042 -19.6055 -2.55216 4.11204e-05 4
-9.62957 -27.3446 -2.53635 0.000302413 10
-11.5982 -32.9349 -1.82994 0.000171711 10
-11.5912 -32.915 -0.609117 0.000172545 10
-11.5957 -32.9278 0.609353 0.000172496 10
-9.48176 -26.9249 1.49601 0.000249384 10
-9.48493 -26.9339 2.49825 0.000246899 10
-9.48718 -26.9403 3.50697 0.000243239 10
-9.49045 -26.9496 4.52533 0.000238447 10
-9.48589 -26.9366 5.55113 0.000232575 10
-9.49247 -26.9553 6.59773 0.000225689 10
-9.48416 -26.9317 7.65072 0.000217864 10
-3.3067 -9.49555 -2.69418 9.55954e-05 4
-3.84691 -11.0468 -2.70057 0.000417973 4
-4.56618 -13.1123 -2.69889 7.79056e-05 4
-5.59889 -16.0778 -2.69646 0.000206814 4
-6.83203 -19.6189 -2.55078 4.20557e-05 4
-9.55892 -27.4495 -2.54297 0.000299163 10
-11.5142 -33.0642 -1.83488 0.000169772 10
-11.5075 -33.0449 -0.610775 0.000170598 10
-11.5082 -33.0471 0.610815 0.000170549 10
-9.41221 -27.0282 1.49992 0.000246715 10
-9.41938 -27.0488 2.50584 0.000244254 10
-9.41533 -27.0371 3.51528 0.000240631 10
-9.4173 -27.0428 4.53544 0.000235887 10
-9.42143 -27.0546 5.56864 0.000230074 10
-9.41895 -27.0475 6.61221 0.000223257 10
-9.42408 -27.0623 7.67841 0.000215512 10
-3.2813 -9.52958 -2.70057 0.000133844 4
-3.79966 -11.035 -2.69443 0.000130628 4
-4.52375 -13.1379 -2.7009 0.000134335 4
-5.52052 -16.0327 -2.68566 0.000128735 4
-6.76906 -19.6588 -2.55288 0.00021215 4
-9.4968 -27.5807 -2.55204 0.000295921 10
-13.3586 -38.7962 0.71621 0.000100408 10
-9.34853 -27.1501 1.50486 0.000244053 10
-9.34844 -27.1498 2.51217 0.000241617 10
-9.34614 -27.1431 3.5248 0.000238031 10
-9.346 -27.1427 4.5467 0.000233334 10
-9.34876 -27.1508 5.58167 0.00022758 10
-9.35121 -27.1579 6.63116 0.000220832 10
-9.3527 -27.1622 7.69746 0.000213166 10
-3.24251 -9.52481 -2.696 0.000367143 4
-3.76356 -11.0554 -2.69618 0.000232777 4
-4.47082 -13.1329 -2.69665 0.000110167 4
-5.43629 -15.969 -2.67178 0.000178867 4
-6.71925 -19.7377 -2.56006 0.000244635 4
-9.42128 -27.6748 -2.55769 0.00029269 10
-13.2607 -38.9531 0.718248 9.92007e-05 10
-9.28192 -27.2654 1.50945 0.000241399 10
-9.27672 -27.2502 2.51844 0.000238988 10
-9.28268 -27.2677 3.53674 0.000235438 10
-9.28192 -27.2655 4.5618 0.00023079 10
-9.27808 -27.2542 5.59624 0.000225094 10
-9.2842 -27.2721 6.65111 0.000218415 10
-9.28082 -27.2622 7.71658 0.000210827 10
-3.20609 -9.52668 -2.69335 0.000110916 4
-3.72318 -11.0632 -2.6949 0.000185288 4
-4.43116 -13.1669 -2.70044 6.58385e-05 4
-6.66043 -19.7911 -2.56396 0.000204671 4
-9.35492 -27.7976 -2.566 0.000289469 10
-13.1592 -39.1018 0.720138 9.79981e-05 10
-9.20972 -27.3661 1.51324 0.000238754 10
-9.21208 -27.3731 2.52682 0.000236367 10
-9.21034 -27.368 3.54555 0.000232854 10
-9.20846 -27.3624 4.57261 0.000228253 10
-9.21129 -27.3708 5.61355 0.000222616 10
-9.21494 -27.3816 6.66993 0.000216006 10
-9.21308 -27.3761 7.73966 0.000208496 10
-3.17299 -9.53835 -2.6935 0.000252449 4
-3.68859 -11.0883 -2.69786 0.000114034 4
-4.38584 -13.1843 -2.70085 9.13778e-05 4
-6.60754 -19.863 -2.57027 0.000181422 4
-9.28156 -27.9014 -2.57258 0.000286258 10
-13.0583 -39.2548 0.722111 9.68005e-05 10
-9.13636 -27.4649 1.51693 0.000236117 10
-9.1336 -27.4566 2.53157 0.000233755 10
-9.14215 -27.4823 3.55621 0.000230277 10
-9.14025 -27.4766 4.58634 0.000225724 10
-9.14062 -27.4777 5.6289 0.000220146 10
-9.14255 -27.4835 6.68693 0.000213604 10
-9.14356 -27.4865 7.76181 0.000206173 10
-3.14332 -9.56047 -2.69663 3.82528e-05 4
-3.65118 -11.1051 -2.69883 0.000140179 4
-4.33925 -13.1979 -2.70051 0.00013305 4
-5.24157 -15.9423 -2.65799 3.7243e-05 4
-6.56133 -19.9564 -2.57938 0.000216722 4
-9.20468 -27.9962 -2.57834 0.000283058 10
-12.9603 -39.419 -2.17466 9.515e-05 10
-12.9589 -39.4147 -0.724217 9.56372e-05 10
-12.958 -39.4121 0.724169 9.5608e-05 10
-9.06432 -27.5693 1.52093 0.000233489 10
-9.06844 -27.5818 2.54017 0.000231151 10
-9.06377 -27.5676 3.56313 0.00022771 10
-9.06637 -27.5755 4.59754 0.000223204 10
-9.06925 -27.5843 5.64421 0.000217684 10
-9.06865 -27.5824 6.70326 0.000211211 10
-9.06929 -27.5844 7.78046 0.000203857 10
-3.1099 -9.57129 -2.6966 0.000168325 4
-3.60829 -11.1052 -2.69577 0.000118807 4
-4.29406 -13.2157 -2.70108 4.97313e-05 4
-5.19455 -15.9872 -2.66243 4.48358e-05 4
-6.50634 -20.0245 -2.58522 0.000193731 4
-9.13759 -28.1226 -2.58703 0.000279869 10
-12.8554 -39.5649 -2.18021 9.39682e-05 10
-12.8543 -39.5615 -0.726086 9.44496e-05 10
-12.8629 -39.5879 0.72657 9.44207e-05 10
-8.99562 -27.6857 1.52561 0.000230869 10
-8.99641 -27.6881 2.54706 0.000228556 10
-8.99821 -27.6936 3.57534 0.000225151 10
-8.99886 -27.6957 4.6123 0.000220692 10
-9.00014 -27.6996 5.66134 0.00021523 10
-8.99651 -27.6884 6.72133 0.000208825 10
-8.99939 -27.6973 7.80339 0.000201549 10
-3.07332 -9.57227 -2.69384 0.000103299 4
-3.5675 -11.1115 -2.69426 9.74304e-05 4
-4.24398 -13.2184 -2.69859 3.76386e-05 4
-5.13259 -15.9861 -2.65926 5.03611e-05 4
-6.45051 -20.091 -2.59089 0.000207445 4
-9.05995 -28.2184 -2.59292 0.000276691 10
-12.6667 -39.452 -2.17155 7.74088e-05 10
-8.92056 -27.7843 1.52932 0.000228259 10
-8.9259 -27.8009 2.55455 0.00022597 10
-8.92583 -27.8007 3.58512 0.000222601 10
-8.93059 -27.8155 4.62705 0.000218189 10
-8.92809 -27.8077 5.67704 0.000212785 10
-8.92487 -27.7977 6.74027 0.000206448 10
-8.93075 -27.816 7.82801 0.00019925 10
-3.04608 -9.60246 -2.69932 0.000137742 4
-3.53273 -11.1366 -2.69734 6.65439e-05 4
-4.19527 -13.2252 -2.69695 6.04973e-05 4
-5.08192 -16.0202 -2.66196 4.89882e-05 4
-6.39294 -20.1531 -2.59601 0.000198608 4
-8.99268 -28.3485 -2.60197 0.000273525 10
-12.4785 -39.3373 -2.16282 7.88883e-05 10
-8.85192 -27.9048 1.53424 0.000225658 10
-8.84952 -27.8972 2.56055 0.000223393 10
-8.85248 -27.9066 3.59476 0.00022006 10
-8.85028 -27.8996 4.63587 0.000215695 10
-8.85817 -27.9245 5.69453 0.000210349 10
-8.85385 -27.9109 6.76017 0.00020408 10
-8.85603 -27.9177 7.84789 0.000196959 10
-3.011 -9.60812 -2.69794 6.88763e-05 4
-3.49389 -11.149 -2.69738 0.000185389 4
-4.15262 -13.251 -2.69925 0.000298486 4
-5.02531 -16.0358 -2.66161 3.17432e-05 4
-6.33937 -20.2289 -2.60291 0.00016956 4
-8.92077 -28.4662 -2.6099 0.00027037 10
-12.2893 -39.2152 -2.15374 8.03833e-05 10
-8.77789 -28.0103 1.53835 0.000223066 10
-8.77785 -28.0101 2.56808 0.000220826 10
-8.78071 -28.0193 3.60531 0.000217528 10
-8.77955 -28.0156 4.65002 0.00021321 10
-8.78179 -28.0227 5.70827 0.000207922 10
-8.78138 -28.0214 6.77948 0.000201721 10
-8.78555 -28.0347 7.87211 0.000194676 10
-2.97536 -9.61182 -2.69605 8.80154e-05 4
-3.45747 -11.1693 -2.69935 9.9834e-05 4
-4.10816 -13.2713 -2.70045 0.000215149 4
-6.28903 -20.3166 -2.61135 0.000272016 4
-8.83974 -28.5566 -2.61534 0.000267227 10
-12.0945 -39.0709 -2.14348 8.18936e-05 10
-8.70977 -28.1367 1.54361 0.000220484 10
-8.70954 -28.136 2.57682 0.000218268 10
-8.70723 -28.1285 3.61544 0.000215006 10
-8.70917 -28.1348 4.66473 0.000210735 10
-8.71298 -28.1471 5.72738 0.000205504 10
-8.71155 -28.1425 6.80137 0.00019937 10
-8.70876 -28.1335 7.89125 0.000192403 10
-2.94326 -9.62698 -2.6974 6.8887e-05 4
-3.41182 -11.1596 -2.69411 0.00014501 4
-4.05427 -13.2609 -2.69544 0.000258207 4
-4.90852 -16.055 -2.65905 4.27963e-05 4
-6.2334 -20.3885 -2.61778 0.000214483 4
-8.76789 -28.6784 -2.62368 0.000264097 10
-8.80103 -28.7869 -1.57759 0.000146129 10
-8.80088 -28.7864 -0.525427 0.000146884 10
-8.79752 -28.7754 0.525225 0.000146917 10
-8.63559 -28.2457 1.54793 0.000217912 10
-8.63077 -28.23 2.58265 0.00021572 10
-8.63661 -28.2491 3.62703 0.000212494 10
-8.63924 -28.2577 4.68007 0.000208269 10
-8.63536 -28.245 5.74112 0.000203095 10
-8.6401 -28.2605 6.82256 0.000197029 10
-8.63984 -28.2596 7.91813 0.000190138 10
-2.90483 -9.62125 -2.69294 0.000264087 4
-3.37289 -11.1715 -2.69414 0.000130759 4
-4.0137 -13.294 -2.6993 0.000236717 4
-6.18114 -20.4729 -2.62583 0.000222243 4
-8.6944 -28.7972 -2.63176 0.000260978 10
-8.6933 -28.7936 -1.57628 0.000174044 10
-8.69989 -28.8154 -0.525399 0.000174855 10
-8.69872 -28.8115 0.525328 0.000174805 10
-8.5633 -28.363 1.55271 0.00021535 10
-8.56098 -28.3553 2.59137 0.000213182 10
-8.55892 -28.3485 3.63594 0.000209991 10
-8.55855 -28.3473 4.68994 0.000205813 10
-8.56101 -28.3554 5.75747 0.000200696 10
-8.56172 -28.3578 6.83879 0.000194697 10
-8.5617 -28.3577 7.93719 0.000187882 10
-2.87368 -9.63958 -2.69525 3.06212e-05 4
-3.33824 -11.1979 -2.69767 7.84626e-05 4
-3.96759 -13.309 -2.69952 8.33981e-05 4
-6.12723 -20.5534 -2.63339 0.000226552 4
-8.61887 -28.9114 -2.63943 0.000257873 10
-8.65066 -29.018 -1.58691 0.00014485 10
-8.64498 -28.999 -0.528193 0.000145599 10
-8.64763 -29.0079 0.528355 0.000145632 10
-8.48483 -28.4618 1.55649 0.000212799 10
-8.48887 -28.4753 2.59961 0.000210654 10
-8.49229 -28.4868 3.64986 0.000207499 10
-8.49085 -28.482 4.70729 0.000203367 10
-8.49354 -28.491 5.77894 0.000198307 10
-8.49354 -28.491 6.86373 0.000192374 10
-8.49468 -28.4948 7.96722 0.000185636 10
-2.84398 -9.66303 -2.69901 0.000290924 4
-3.29863 -11.2078 -2.69726 4.28017e-05 4
-4.74278 -16.1146 -2.66055 3.93616e-05 4
-6.06737 -20.6151 -2.63858 0.000229124 4
-8.54782 -29.043 -2.6487 0.00025478 10
-8.54213 -29.0237 -1.58558 0.000169913 10
-8.5472 -29.0409 -0.52841 0.000170705 10
-8.54608 -29.0371 0.52834 0.000170656 10
-8.41537 -28.593 1.56205 0.000210258 10
-8.41142 -28.5795 2.60643 0.000208137 10
-8.41745 -28.6 3.66058 0.000205017 10
-8.41028 -28.5757 4.71789 0.000200932 10
-8.41273 -28.584 5.79181 0.000195928 10
-8.41598 -28.595 6.88167 0.000190062 10
-8.41472 -28.5907 7.98578 0.000183399 10
-2.80633 -9.65946 -2.69526 0.000321572 4
-3.26212 -11.2283 -2.69944 7.37207e-05 4
-3.86951 -13.3189 -2.69599 0.000213923 4
-6.01017 -20.6871 -2.64509 0.00022202 4
-8.46676 -29.1428 -2.65509 0.000251701 10
-8.49427 -29.2375 -1.59563 0.000143593 10
-8.48959 -29.2214 -0.531151 0.000144336 10
-8.49273 -29.2322 0.531347 0.000144368 10
-8.33969 -28.7054 1.56659 0.000207728 10
-8.3348 -28.6886 2.6137 0.000205631 10
-8.33969 -28.7054 3.67032 0.000202545 10
-8.33656 -28.6946 4.7327 0.000198506 10
-8.34266 -28.7156 5.81255 0.000193559 10
-8.3437 -28.7192 6.9045 0.000187759 10
-8.34523 -28.7245 8.01495 0.000181171 10
-2.77242 -9.66856 -2.69509 0.000359883 4
-3.21909 -11.2263 -2.69624 0.00012605 4
-3.82779 -13.3491 -2.69937 0.000302755 4
-4.62971 -16.1457 -2.66028 4.97338e-05 4
-5.95696 -20.7744 -2.65357 8.53759e-05 4
-8.38753 -29.2508 -2.66224 0.000248635 10
-8.38968 -29.2583 -1.59515 0.000165817 10
-11.0175 -38.4227 -0.697699 6.94135e-05 10
-11.019 -38.4277 0.697789 6.93919e-05 10
-8.26655 -28.8289 1.57174 0.000205208 10
-8.26426 -28.8209 2.62312 0.000203135 10
-8.26745 -28.832 3.68279 0.000200085 10
-8.26152 -28.8113 4.74716 0.000196091 10
-8.26568 -28.8258 5.82898 0.0001912 10
-8.26219 -28.8137 6.92024 0.000185466 10
-8.2678 -28.8332 8.03719 0.000178954 10
-2.7364 -9.67023 -2.69287 0.000509235 4
-3.17871 -11.2333 -2.69525 0.000211689 4
-3.78057 -13.3603 -2.69894 0.000247614 4
-5.65139 -19.9716 -2.54849 4.37409e-05 4
-8.31258 -29.376 -2.67098 0.000245583 10
-8.32811 -29.4309 -1.60297 0.000142356 10
-8.33359 -29.4503 -0.534241 0.000143094 10
-8.33095 -29.441 0.534072 0.000143126 10
-8.18633 -28.9299 1.57568 0.0002027 10
-8.18533 -28.9263 2.6301 0.00020065 10
-8.18434 -28.9228 3.69072 0.000197635 10
-8.18481 -28.9245 4.76107 0.000193687 10
