VERSION 0.7
FIELDS x y z intensity label
SIZE 4 4 4 4 4
TYPE F F F F F
COUNT 1 1 1 1 1
WIDTH 1142
HEIGHT 1
VIEWPOINT 31.0474 7.49179 2.7273 0.999995 -0.000124147 0.000944306 -0.00305826
POINTS 1142
DATA ascii
-8.99223 -4.3858 -2.68077 0.000322017 4
-10.4674 -5.1053 -2.68871 0.000576116 4
-12.2934 -5.99592 -2.65868 0.000318622 4
-14.5575 -7.10015 -2.5653 0.000114069 4
-28.4886 -13.8948 -2.77309 4.11913e-05 4
-32.011 -15.6128 -1.86653 0.000182921 10
-36.8771 -17.9862 -0.716173 0.000115033 10
-36.8688 -17.9821 0.716012 0.000114996 10
-32.0288 -15.6215 4.37546 0.000138762 10
-32.0889 -15.6508 5.65468 8.61387e-05 10
-32.0454 -15.6296 8.23132 0.000128141 10
-9.01018 -4.43356 -2.69072 0.000308149 4
-10.3945 -5.11473 -2.67455 0.000219992 4
-12.2145 -6.01028 -2.64612 9.5755e-05 4
-14.5305 -7.14991 -2.56494 9.83145e-05 4
-28.4975 -14.0225 -2.77869 4.65443e-05 4
-32.0252 -15.7583 -1.87055 0.000181621 10
-45.4681 -22.3731 -0.884527 5.37876e-05 10
-45.4875 -22.3826 0.884904 5.37688e-05 10
-32.0375 -15.7644 4.38414 0.000137773 10
-32.0939 -15.7922 5.66524 8.55237e-05 10
-32.046 -15.7686 8.24555 0.000127223 10
-9.00492 -4.47008 -2.69379 0.00035654 4
-10.3039 -5.1149 -2.65581 0.000757451 4
-12.138 -6.02537 -2.6341 0.000463701 4
-14.5014 -7.19855 -2.56421 9.15646e-05 4
-32.0215 -15.8956 -1.87357 0.000180318 10
-45.4914 -22.5821 -0.886508 5.33545e-05 10
-45.4791 -22.576 0.886267 5.33359e-05 10
-32.041 -15.9053 4.39219 0.000136783 10
-32.1214 -15.9452 5.67988 4.14631e-05 10
-32.1068 -15.9379 6.96756 4.03861e-05 10
-31.9957 -15.8828 8.24684 3.28436e-05 10
-32.1128 -15.9409 9.60644 3.76888e-05 10
-9.0191 -4.51643 -2.70273 0.000342513 4
-10.2386 -5.12709 -2.64357 0.000698599 4
-12.0307 -6.02454 -2.61536 0.000387372 4
-14.4787 -7.25037 -2.56465 0.000103578 4
-32.0175 -16.0332 -1.87659 0.000179012 10
-31.9946 -16.0217 1.87525 6.88812e-05 10
-32.0033 -16.0261 3.13137 6.81657e-05 10
-32.0364 -16.0426 4.39921 0.00013579 10
-32.0144 -16.0316 5.67081 6.57147e-05 10
-32.0218 -16.0353 6.96123 6.40085e-05 10
-31.9589 -16.0038 8.2517 3.28423e-05 10
-32.0133 -16.0311 9.59336 5.97354e-05 10
-9.04315 -4.56802 -2.7147 0.000341382 4
-10.1568 -5.13057 -2.62707 0.000664068 4
-11.948 -6.03538 -2.60195 0.00058677 4
-14.4658 -7.3072 -2.56688 9.98302e-05 4
-32.0238 -16.1764 -1.88026 0.000177704 10
-50.9622 -25.7428 -0.996597 3.37833e-05 10
-31.7168 -16.0213 1.86224 7.09695e-05 10
-31.7346 -16.0303 3.11053 7.02339e-05 10
-32.0307 -16.1798 4.40615 0.000134795 10
-31.7408 -16.0334 5.63222 6.77138e-05 10
-31.7329 -16.0294 6.91054 6.59593e-05 10
-31.8843 -16.1059 8.2469 3.2841e-05 10
-31.7274 -16.0267 9.52439 6.15649e-05 10
-9.04274 -4.6075 -2.71939 0.000255172 4
-10.0821 -5.13708 -2.61236 0.000588816 4
-11.8665 -6.04629 -2.58878 0.000542569 4
-14.4311 -7.35301 -2.56526 8.85756e-05 4
-32.0082 -16.309 -1.88268 0.000176393 10
-45.6508 -23.2603 -0.894313 3.38748e-05 10
-45.6693 -23.2696 0.894673 3.38629e-05 10
-31.6572 -16.1301 1.86203 0.000142518 10
-31.6771 -16.1403 3.1104 0.000141008 10
-32.0198 -16.3149 4.41247 0.000133798 10
-31.658 -16.1306 5.6275 0.000135884 10
-31.673 -16.1382 6.90972 0.000132332 10
-32.0334 -16.3218 8.30016 0.000123531 10
-31.6866 -16.1451 9.52899 0.000123454 10
-9.07351 -4.66315 -2.73352 0.000339056 4
-10.0076 -5.14323 -2.59771 0.000646138 4
-11.7745 -6.05128 -2.5733 0.000477598 4
-14.42 -7.41085 -2.56786 9.75882e-05 4
-32.0134 -16.4527 -1.88635 0.000175079 10
-32.0195 -16.4558 1.88671 0.000136383 10
-32.0306 -16.4615 3.15073 0.000134932 10
-32.0218 -16.457 4.42063 0.0001328 10
-32.031 -16.4617 5.70398 0.000130011 10
-32.0399 -16.4663 7.00226 0.000126599 10
-32.0218 -16.457 8.31198 0.000122604 10
-32.0339 -16.4632 9.65067 0.000118074 10
-9.09215 -4.71292 -2.74408 0.00022769 4
-9.9192 -5.14162 -2.5794 0.000647609 4
-11.6861 -6.0575 -2.55858 0.000228054 4
-14.396 -7.46219 -2.56822 9.0086e-05 4
-19.4504 -10.0821 -2.68998 5.34945e-05 4
-32.0237 -16.5995 -1.89036 0.000173764 10
-32.0229 -16.5991 1.89031 0.000135358 10
-32.0176 -16.5964 3.15514 0.000133917 10
-32.012 -16.5934 4.42725 0.0001318 10
-32.0279 -16.6017 5.71371 0.00012903 10
-32.0424 -16.6092 7.01543 0.000125642 10
-32.0215 -16.5984 8.32689 0.000121676 10
-32.0415 -16.6087 9.67037 0.000117177 10
-9.08879 -4.7515 -2.74805 0.000601289 1
-9.8502 -5.14956 -2.56611 0.000825706 4
-11.6847 -6.10861 -2.56293 0.000241747 4
-14.3563 -7.50532 -2.5658 9.08413e-05 4
-19.4097 -10.1471 -2.68923 5.29686e-05 4
-32.0069 -16.7328 -1.89281 0.000172446 10
-32.0215 -16.7404 1.89367 0.000134331 10
-32.0308 -16.7453 3.16218 0.000132901 10
-32.0187 -16.739 4.43623 0.000130798 10
-32.038 -16.7491 5.72591 0.000128048 10
-32.0199 -16.7396 7.02325 0.000124684 10
-32.0321 -16.746 8.34481 0.000120745 10
-32.0307 -16.7453 9.68469 0.000116279 10
-9.07511 -4.78476 -2.74895 0.000601306 1
-9.80497 -5.16957 -2.55901 0.000411115 4
-11.6569 -6.14601 -2.56153 0.00021743 4
-14.3259 -7.55321 -2.56506 8.70921e-05 4
-19.3768 -10.2163 -2.68961 5.87993e-05 4
-32.0048 -16.8742 -1.89615 0.000171127 10
-45.6457 -24.0662 -0.900707 3.27393e-05 10
-45.6445 -24.0656 0.900682 3.27276e-05 10
-32.0222 -16.8834 1.89718 0.000133303 10
-32.0129 -16.8785 4.44357 0.000129795 10
-32.103 -16.926 5.74806 8.05605e-05 10
-32.0223 -16.8834 8.35754 0.000119814 10
-9.04071 -4.80703 -2.74359 0.000601324 1
-9.76933 -5.19444 -2.55443 0.000338577 4
-11.6421 -6.19023 -2.56301 0.000197671 4
-15.3704 -8.17258 -2.75716 0.000102646 1
-19.3294 -10.2776 -2.68799 5.53601e-05 4
-32.0059 -17.0178 -1.89973 0.000169805 10
-32.0281 -17.0296 1.90104 0.000132273 10
-32.0298 -17.0305 4.45413 0.00012879 10
-32.1047 -17.0704 5.75898 7.99358e-05 10
-32.042 -17.037 8.37816 0.000118881 10
-9.0413 -4.8479 -2.74889 0.000601342 1
-9.7568 -5.23155 -2.55591 0.00034665 4
-11.6121 -6.22633 -2.56116 0.00017487 4
-15.3547 -8.23314 -2.7595 0.000102651 1
-19.2975 -10.3472 -2.68856 5.85429e-05 4
-31.9987 -17.1575 -1.90284 0.000168483 10
-41.4136 -22.2058 -0.820236 3.69278e-05 10
-41.4135 -22.2057 0.820235 3.69247e-05 10
-32.0072 -17.1621 1.90335 0.000131243 10
-32.0092 -17.1632 4.45958 0.000127785 10
-32.0305 -17.1746 8.39078 0.000117948 10
-9.01744 -4.87571 -2.7468 0.000601359 1
-9.73239 -5.26228 -2.55432 0.000341287 4
-11.5881 -6.26568 -2.56069 0.000214415 4
-15.3291 -8.28843 -2.76007 0.000102657 1
-19.2527 -10.4099 -2.68737 4.9275e-05 4
-32.015 -17.3104 -1.90739 0.000167158 10
-32.2969 -17.4629 -0.640875 8.68257e-05 10
-32.3008 -17.465 0.640952 8.6819e-05 10
-32.0228 -17.3147 1.90786 0.000130211 10
-32.024 -17.3153 4.47003 0.000126778 10
-32.0219 -17.3142 8.40432 0.000117013 10
-9.00335 -4.90879 -2.74771 0.000601377 1
-10.1446 -5.53099 -2.66754 0.000385 4
-11.56 -6.30271 -2.55931 0.000200738 4
-15.2948 -8.33898 -2.75911 0.000102662 1
-32.0167 -17.4561 -1.91111 0.000165832 10
-32.0443 -17.4711 -0.637068 8.92778e-05 10
-32.0421 -17.4699 0.637024 8.9271e-05 10
-32.0223 -17.4591 1.91145 0.000129178 10
-32.0221 -17.459 3.19092 8.15837e-05 10
-32.009 -17.4519 4.47641 0.00012577 10
-32.0314 -17.4641 5.77833 7.85964e-05 10
-32.0344 -17.4657 7.09223 7.65257e-05 10
-32.0308 -17.4638 8.4226 0.000116077 10
-32.0414 -17.4695 9.77863 7.1353e-05 10
-8.97085 -4.93177 -2.74303 0.000601395 1
-10.1373 -5.57305 -2.67074 0.000237304 4
-11.5387 -6.34347 -2.5595 0.000212913 4
-15.2643 -8.39162 -2.75888 0.000102668 1
-32.0179 -17.602 -1.91484 0.000164505 10
-32.0119 -17.5987 -0.637643 0.00016531 10
-32.0087 -17.5969 0.637578 0.000165257 10
-32.0096 -17.5974 1.91435 0.000128144 10
-32.0279 -17.6075 3.19759 0.000126774 10
-32.0154 -17.6006 4.48586 0.000124761 10
-32.0263 -17.6066 5.78846 0.000122129 10
-32.0267 -17.6068 7.1041 0.00011891 10
-32.0202 -17.6033 8.43592 0.000115141 10
-32.0285 -17.6078 9.79337 0.000110868 10
-8.95809 -4.96555 -2.74441 0.000601414 1
-10.1188 -5.60893 -2.67099 0.000239734 4
-11.5117 -6.38105 -2.55843 0.000231173 4
-15.2344 -8.44457 -2.75879 0.000102674 1
-18.3477 -10.1703 -2.57577 3.67193e-05 4
-31.9971 -17.7363 -1.91729 0.000163177 10
-31.9957 -17.7355 -0.638549 0.000163976 10
-32.0157 -17.7466 0.638947 0.000163923 10
-32.0173 -17.7475 1.91849 0.000127109 10
-32.0162 -17.7469 3.2026 0.000125749 10
-32.0054 -17.7409 4.49312 0.000123752 10
-32.0104 -17.7437 5.79676 0.00012114 10
-32.0357 -17.7577 7.11979 0.000117944 10
-32.0307 -17.7549 8.45495 0.000114204 10
-32.0266 -17.7526 9.8117 0.000109963 10
-8.93524 -4.99374 -2.74273 0.000601432 1
-10.1019 -5.64575 -2.67172 0.000167094 4
-11.5027 -6.42864 -2.56139 0.000152094 4
-15.1872 -8.48783 -2.75559 0.000102679 1
-18.3121 -10.2343 -2.57577 4.35888e-05 4
-32.0075 -17.8884 -1.92164 0.000161848 10
-32.003 -17.8859 -0.639937 0.000162641 10
-32.0224 -17.8967 0.640325 0.000162588 10
-32.0204 -17.8956 1.92242 0.000126073 10
-32.0092 -17.8894 3.20813 0.000124724 10
-32.0294 -17.9007 4.50524 0.000122741 10
-32.0083 -17.8888 5.80764 0.000120149 10
-32.0092 -17.8894 7.12775 0.000116978 10
-32.0122 -17.891 8.4665 0.000113266 10
-32.0227 -17.8969 9.82957 0.000109057 10
-8.91813 -5.02511 -2.74285 0.000601451 1
-10.0681 -5.67306 -2.668 0.000300295 4
-11.4655 -6.4605 -2.55813 0.000214462 4
-15.1749 -8.5506 -2.75875 0.000102685 1
-18.2618 -10.29 -2.57373 3.40377e-05 4
-31.9994 -18.0307 -1.92492 0.000160518 10
-45.6481 -25.7214 -0.914575 3.04631e-05 10
-45.6505 -25.7227 0.914622 3.0452e-05 10
-32.0098 -18.0366 1.92555 0.000125037 10
-32.0155 -18.0398 3.21505 0.000123698 10
-32.0222 -18.0436 4.51305 0.000121731 10
-32.0087 -18.036 5.81909 0.000119158 10
-32.013 -18.0384 7.14255 0.000116011 10
-32.0268 -18.0462 8.48696 0.000112328 10
-32.0166 -18.0404 9.84697 0.000108151 10
-8.90897 -5.061 -2.74544 0.00060147 1
-10.0528 -5.7108 -2.66923 0.000324524 4
-11.4412 -6.49952 -2.55775 0.000174923 4
-15.1425 -8.60213 -2.75831 0.000102691 1
-18.2367 -10.3599 -2.57527 2.95613e-05 4
-31.9955 -18.176 -1.92849 0.000159187 10
-45.6499 -25.9327 -0.916419 3.01787e-05 10
-45.634 -25.9237 0.9161 3.01677e-05 10
-32.0181 -18.1888 1.92985 0.000124 10
-31.8124 -18.072 3.20097 7.01947e-05 10
-32.019 -18.1893 4.52152 0.000120719 10
-31.8068 -18.0688 5.79382 6.7656e-05 10
-31.8053 -18.0679 7.11026 6.58887e-05 10
-32.0108 -18.1847 8.4995 0.000111389 10
-31.7953 -18.0622 9.79825 6.14634e-05 10
-8.8678 -5.07863 -2.7382 0.00115959 4
-10.0352 -5.74721 -2.66986 0.000477117 4
-11.4337 -6.54814 -2.56116 0.000184058 4
-15.1002 -8.64798 -2.75609 0.000102697 1
-18.2164 -10.4326 -2.57753 0.0001567 4
-32.0136 -18.3344 -1.93343 0.000157856 10
-32.0137 -18.3344 1.93343 0.000122963 10
-31.6509 -18.1266 3.19106 0.000126221 10
-32.0069 -18.3305 4.52881 0.000119707 10
-31.6682 -18.1366 5.78008 0.000121598 10
-31.6509 -18.1266 7.08983 0.000118393 10
-32.0211 -18.3387 8.51919 0.00011045 10
-31.6738 -18.1397 9.78024 0.000110389 10
-8.80857 -5.08563 -2.72538 0.000941029 4
-10.0212 -5.78575 -2.67149 0.000174384 4
-11.4152 -6.59058 -2.56216 0.000170376 4
-15.0811 -8.70706 -2.75812 0.000102703 1
-18.2103 -10.5137 -2.58185 8.77359e-05 4
-32.0052 -18.4782 -1.93681 0.000156525 10
-32.0177 -18.4854 1.93756 0.000121925 10
-32.0227 -18.4883 4.54015 0.000118695 10
-32.0761 -18.5192 7.19952 7.17068e-05 10
-32.014 -18.4833 8.5344 0.00010951 10
-8.74558 -5.09004 -2.71137 0.00062007 4
-9.99658 -5.81815 -2.67032 0.000244632 4
-11.3779 -6.62209 -2.55895 0.000254054 4
-15.0406 -8.75381 -2.75629 0.000102709 1
-18.22 -10.6043 -2.58845 0.000177859 4
-31.9951 -18.6216 -1.94011 0.000155193 10
-32.0194 -18.6357 1.94159 0.000120888 10
-32.0156 -18.6335 4.54834 0.000117683 10
-32.0942 -18.6792 7.21816 7.10927e-05 10
-32.0081 -18.6292 8.55013 0.000108571 10
-8.67697 -5.09074 -2.69559 0.00114199 4
-9.98212 -5.85647 -2.6719 0.000242219 4
-11.3518 -6.66003 -2.55829 0.000251023 4
-15.0275 -8.81657 -2.75951 0.000102715 1
-18.2063 -10.6816 -2.59179 0.000143953 4
-32.0061 -18.7779 -1.94475 0.000153861 10
-32.003 -18.776 1.94456 0.00011985 10
-32.0235 -18.788 4.55875 0.000116671 10
-32.0901 -18.8271 7.23198 7.04786e-05 10
-32.0083 -18.7791 8.56762 0.000107631 10
-8.61235 -5.09333 -2.68102 0.000796174 4
-9.94412 -5.88093 -2.66721 0.000343964 4
-11.3371 -6.70474 -2.56024 0.000167356 4
-14.9784 -8.8582 -2.75616 0.000102721 1
-18.2008 -10.7639 -2.59634 0.000174401 4
-32.0031 -18.9266 -1.94856 0.000152529 10
-32.0137 -18.9329 4.56675 0.000115658 10
-32.0719 -18.9673 7.24276 6.98644e-05 10
-32.0302 -18.9426 8.59115 0.000106692 10
-8.57171 -5.10976 -2.67391 0.00118172 4
-9.9369 -5.92358 -2.6708 0.00042876 4
-11.3137 -6.7443 -2.56025 0.000167364 4
-14.941 -8.90663 -2.75499 0.000102727 1
-18.2165 -10.8592 -2.60397 0.000172065 4
-32.0097 -19.0816 -1.95301 0.000151197 10
-32.1685 -19.1763 -0.653701 5.79599e-05 10
-32.1811 -19.1838 0.653957 5.79557e-05 10
-32.0168 -19.0859 4.57667 0.000114646 10
-32.0136 -19.0839 8.60449 0.000105753 10
-8.49257 -5.10285 -2.65476 0.00100856 4
-9.91916 -5.96003 -2.67161 0.000327033 4
-11.2956 -6.78707 -2.56151 0.000185631 4
-14.9132 -8.96076 -2.75561 0.000102734 1
-18.2076 -10.9402 -2.60814 0.000176738 4
-32.0065 -19.2314 -1.9569 0.000149866 10
-31.9884 -19.2206 -0.651402 9.9477e-05 10
-31.9939 -19.2238 0.651512 9.94442e-05 10
-32.0107 -19.234 3.26724 4.36361e-05 10
-32.0019 -19.2287 4.58409 0.000113634 10
-32.027 -19.2438 5.91784 4.20483e-05 10
-32.0233 -19.2416 7.26195 6.91163e-05 10
-32.0112 -19.2343 8.62185 0.000104814 10
-32.022 -19.2407 10.01 3.81765e-05 10
-8.44075 -5.1119 -2.64413 0.000529907 4
-9.87469 -5.98032 -2.66524 0.000529354 4
-11.2706 -6.8257 -2.56122 0.000216072 4
-14.8806 -9.01198 -2.75537 0.00010274 1
-18.2042 -11.0248 -2.61315 0.000138095 4
-31.986 -19.3714 -1.95977 0.000148534 10
-32.1163 -19.4503 -0.655384 5.81952e-05 10
-32.1081 -19.4454 0.655216 5.81911e-05 10
-31.8045 -19.2615 3.25304 6.97367e-05 10
-32.0043 -19.3825 4.59411 0.000112622 10
-31.8126 -19.2664 5.89062 6.72026e-05 10
-31.809 -19.2642 7.22856 6.54386e-05 10
-32.0234 -19.3941 8.64332 0.000103875 10
-31.8121 -19.2661 9.96539 6.10224e-05 10
-8.38427 -5.11778 -2.63201 0.000790826 4
-9.80956 -5.98778 -2.65329 0.000776419 4
-11.2538 -6.86936 -2.56285 0.000219126 4
-14.8472 -9.06274 -2.75503 0.000102746 1
-18.1971 -11.1076 -2.61768 0.000140407 4
-31.9933 -19.5288 -1.96438 0.000147204 10
-32.0094 -19.5386 -0.65459 9.77106e-05 10
-31.9902 -19.5269 0.654198 9.76783e-05 10
-31.6382 -19.312 3.2429 0.000117722 10
-32.014 -19.5414 4.60526 0.000111611 10
-31.6393 -19.3127 5.87098 0.000113388 10
-31.6606 -19.3257 7.21012 0.000110385 10
-32.0173 -19.5434 8.66003 0.000102937 10
-31.6633 -19.3274 9.93985 0.000102885 10
-8.32788 -5.12335 -2.61991 0.00120159 4
-9.74981 -5.99812 -2.64277 0.000848951 4
-11.2111 -6.89709 -2.55858 0.000190223 4
-14.8323 -9.1249 -2.75817 0.000102752 1
-18.1878 -11.1892 -2.62195 0.000162591 4
-31.9827 -19.6759 -1.96793 0.000145874 10
-32.0541 -19.7198 -0.656908 5.84224e-05 10
-32.0399 -19.7111 0.656617 5.84183e-05 10
-32.0025 -19.688 1.96915 0.000113626 10
-32.0124 -19.6941 3.28828 0.000112401 10
-32.012 -19.6939 4.61484 0.0001106 10
-32.0029 -19.6883 5.95115 0.000108246 10
-32.0196 -19.6985 7.30747 0.000105368 10
-32.0056 -19.6899 8.67539 0.000101999 10
-32.0168 -19.6968 10.0723 9.81803e-05 10
-8.26572 -5.12496 -2.60597 0.00107775 4
-9.6875 -6.00651 -2.63155 0.000683334 4
-11.1878 -6.93673 -2.55878 0.000208494 4
-14.7835 -9.16613 -2.75502 0.000102759 1
-18.2001 -11.2845 -2.62938 0.000152008 4
-31.9927 -19.8363 -1.9728 0.000144545 10
-35.7499 -22.1659 0.73423 6.10027e-05 10
-31.9917 -19.8357 1.97274 0.000112591 10
-32.0121 -19.8484 3.29535 0.000111375 10
-32.0105 -19.8474 4.62458 0.00010959 10
-32.0009 -19.8414 5.96363 0.000107256 10
-32.0142 -19.8497 7.32203 0.000104402 10
-32.0211 -19.8539 8.69834 0.000101062 10
-32.0244 -19.8559 10.0965 9.72757e-05 10
-8.21766 -5.13496 -2.59645 0.00141494 4
-9.62008 -6.01129 -2.61892 0.000837383 4
-11.1745 -6.98262 -2.5613 0.000199373 4
-14.758 -9.22183 -2.75626 0.000102765 1
-18.1733 -11.356 -2.63122 3.38944e-05 4
-31.9966 -19.9937 -1.97733 0.000143216 10
-31.9997 -19.9956 -0.658638 9.50646e-05 10
-31.997 -19.9939 0.658582 9.50329e-05 10
-31.7979 -19.8695 1.96505 7.02486e-05 10
-31.7975 -19.8693 3.28038 6.95097e-05 10
-32.0073 -20.0004 4.63418 0.000108581 10
-31.7937 -19.8669 5.93789 6.69782e-05 10
-31.7902 -19.8647 7.28659 6.5216e-05 10
-32.0214 -20.0092 8.71734 0.000100125 10
-31.7903 -19.8648 10.0445 6.08046e-05 10
-8.14922 -5.13184 -2.58047 0.00115039 4
-9.55885 -6.01953 -2.60796 0.000786511 4
-11.1427 -7.01694 -2.55961 0.000143069 4
-14.7343 -9.27865 -2.75785 0.000102772 1
-18.1876 -11.4533 -2.63906 0.000161206 4
-31.993 -20.1471 -1.98144 0.000141889 10
-32.1608 -20.2527 -0.663404 5.74483e-05 10
-32.1659 -20.2559 0.663509 5.74443e-05 10
-31.6317 -19.9195 1.95906 0.000114717 10
-31.6303 -19.9186 3.27028 0.000113481 10
-32.0073 -20.1561 4.64434 0.000107572 10
-31.6503 -19.9312 5.92408 0.000109292 10
-31.6377 -19.9233 7.26754 0.00010639 10
-32.0199 -20.164 8.73604 9.91896e-05 10
-31.6473 -19.9294 10.0212 9.91425e-05 10
-8.08928 -5.13361 -2.56715 0.00121613 4
-9.48087 -6.01674 -2.59239 0.000933404 4
-11.1261 -7.06086 -2.56145 0.000200915 4
-14.6851 -9.31947 -2.75473 0.000102778 1
-18.1798 -11.5373 -2.64376 0.000155272 4
-31.9807 -20.2956 -1.98506 0.000140563 10
-31.994 -20.304 -0.661423 9.33039e-05 10
-32.0049 -20.3109 0.661647 9.32727e-05 10
-31.6438 -20.0818 1.96414 0.000113648 10
-32.0129 -20.316 4.65541 0.000106564 10
-32.0128 -20.3159 8.75339 9.8255e-05 10
-8.04225 -5.14323 -2.55791 0.00109196 4
-9.42822 -6.0296 -2.58374 0.000829619 4
-11.0859 -7.08973 -2.55787 0.000103507 4
-14.6662 -9.3794 -2.7573 0.000102785 1
-18.18 -11.6266 -2.64967 0.000122499 4
-31.9838 -20.4545 -1.98967 0.000139239 10
-32.0939 -20.5249 -0.664965 5.76664e-05 10
-32.1 -20.5288 0.665091 5.76625e-05 10
-31.6397 -20.2344 1.96826 0.00011258 10
-32.0689 -20.5089 3.33035 6.80111e-05 10
-31.9929 -20.4603 4.66285 0.000105558 10
-32.0608 -20.5037 6.02756 6.54871e-05 10
-31.6395 -20.2343 7.30024 0.000104397 10
-32.021 -20.4783 8.77514 9.73212e-05 10
-32.0698 -20.5095 10.2001 5.93734e-05 10
-8.02318 -5.17058 -2.55756 0.000519376 4
-9.36179 -6.03326 -2.57129 0.000735744 4
-11.0655 -7.1312 -2.55888 0.000243558 4
-14.6201 -9.422 -2.7548 0.000102792 1
-18.175 -11.713 -2.65489 0.000110749 4
-31.9938 -20.6186 -1.99475 0.000137915 10
-31.9957 -20.6198 -0.664417 9.15467e-05 10
-34.4007 -22.1697 0.714358 6.90711e-05 10
-31.6281 -20.3829 1.97196 0.000111514 10
-32.0092 -20.6285 4.6757 0.000104552 10
-31.6519 -20.3983 7.31948 0.000103403 10
-32.02 -20.6355 8.79455 9.63886e-05 10
-8.00178 -5.19642 -2.55651 0.000644915 4
-9.31097 -6.04661 -2.56311 0.00102219 4
-11.035 -7.16618 -2.55759 0.000194856 4
-14.5867 -9.47269 -2.75472 0.000102798 1
-18.154 -11.7894 -2.65782 0.000178214 4
-31.9899 -20.7745 -1.99902 0.000136594 10
-32.025 -20.7973 -0.666529 5.78762e-05 10
-32.0189 -20.7933 0.666401 5.78722e-05 10
-31.6241 -20.5369 1.97616 0.000110448 10
-31.994 -20.7772 4.68405 0.000103548 10
-31.6475 -20.5521 7.33499 0.000102409 10
-32.0054 -20.7845 8.81041 9.54571e-05 10
-7.96469 -5.21195 -2.55046 0.000476129 4
-9.25732 -6.05782 -2.55415 0.000368502 4
-11.0169 -7.20923 -2.55922 0.000187254 4
-14.5739 -9.53689 -2.75858 0.000102805 1
-18.1581 -11.8824 -2.66448 0.000144303 4
-31.9825 -20.9288 -2.00311 0.000135274 10
-33.8591 -22.1568 0.706307 7.24714e-05 10
-31.6329 -20.7 1.98121 0.000109385 10
-32.0555 -20.9765 3.35159 6.60711e-05 10
-32.0014 -20.9411 4.6958 0.000102545 10
-32.0685 -20.9851 6.07 6.36138e-05 10
-31.6419 -20.7058 7.3504 0.000101417 10
-32.0075 -20.9451 8.83105 9.45269e-05 10
-32.0669 -20.984 10.2685 5.76629e-05 10
-7.95301 -5.24404 -2.55256 0.000567047 4
-9.25576 -6.10304 -2.55958 0.000376588 4
-10.9891 -7.24596 -2.55862 0.000220758 4
-14.5337 -9.5832 -2.75728 0.000102812 1
-18.1536 -11.9701 -2.66993 0.000149973 4
-31.9805 -21.0873 -2.00759 0.000133956 10
-33.6052 -22.1585 0.702619 7.42088e-05 10
-31.6364 -20.8604 1.98598 0.000108322 10
-31.9437 -21.0629 3.34756 6.74655e-05 10
-31.9962 -21.0976 4.70581 0.000101544 10
-31.9454 -21.0641 6.06057 6.49934e-05 10
-31.6331 -20.8582 7.36524 0.000100427 10
-32.0087 -21.1059 8.85167 9.35982e-05 10
-31.9589 -21.073 10.2574 5.89668e-05 10
-7.94573 -5.27913 -2.55613 0.000666629 4
-9.22291 -6.12768 -2.5564 0.000433094 4
-10.9668 -7.28631 -2.55934 0.000223815 4
-14.4992 -9.63325 -2.7571 0.000102819 1
-17.456 -11.5978 -2.57327 4.18735e-05 4
-31.9769 -21.2454 -2.012 0.00013264 10
-33.4479 -22.2227 -0.700948 0.00011468 10
-33.3587 -22.1634 0.699079 7.59711e-05 10
-31.6236 -21.0107 1.98977 0.000107261 10
-31.719 -21.074 3.33171 6.90443e-05 10
-32.0093 -21.2669 4.71863 0.000100544 10
-31.708 -21.0668 6.02945 6.65185e-05 10
-31.6352 -21.0184 7.38277 9.94374e-05 10
-31.9976 -21.2591 8.86905 9.26709e-05 10
-31.7121 -21.0695 10.2017 6.03603e-05 10
-8.27504 -5.53966 -2.66827 0.000308845 4
-9.19859 -6.15792 -2.5556 0.000363169 4
-10.9527 -7.33223 -2.56202 0.000140082 4
-14.4724 -9.68842 -2.75842 0.000102826 1
-17.406 -11.6523 -2.57188 4.18772e-05 4
-31.9828 -21.4106 -2.01706 0.000131326 10
-33.0858 -22.149 0.694977 7.77584e-05 10
-31.623 -21.1697 1.99437 0.000106202 10
-31.6273 -21.1727 3.32983 0.000105051 10
-31.9947 -21.4186 4.72747 9.95451e-05 10
-31.6481 -21.1865 6.03208 0.000101151 10
-31.6357 -21.1783 7.4001 9.84499e-05 10
-32.0046 -21.4252 8.89169 9.17451e-05 10
-31.641 -21.1818 10.2026 9.17065e-05 10
-8.24902 -5.56403 -2.66612 0.000406596 4
-9.19133 -6.19963 -2.55958 0.000322831 4
-10.9102 -7.35902 -2.55806 0.000242111 4
-14.4251 -9.72986 -2.75586 0.000102833 1
-17.3854 -11.7266 -2.57486 3.94878e-05 4
-31.9771 -21.5688 -2.02144 0.000130014 10
-32.8507 -22.1581 0.691658 7.95708e-05 10
-31.9905 -21.5779 2.02229 0.000101269 10
-31.9975 -21.5826 3.37671 0.000100167 10
-31.9827 -21.5726 4.73679 9.85484e-05 10
-32.0019 -21.5855 6.11384 9.6433e-05 10
-32.0055 -21.5879 7.50416 9.38468e-05 10
-32.0144 -21.594 8.91529 9.08209e-05 10
-32.0049 -21.5876 10.3442 8.73921e-05 10
-8.24209 -5.60132 -2.67019 0.000191576 4
-9.16832 -6.23078 -2.55921 0.000260967 4
-10.8922 -7.40231 -2.55988 0.0002071 4
-14.3899 -9.7794 -2.75565 0.00010284 1
-17.3426 -11.786 -2.57461 4.12865e-05 4
-31.9921 -21.7418 -2.02718 0.000128705 10
-32.5883 -22.147 0.687756 8.14081e-05 10
-31.9929 -21.7424 2.02723 0.000100249 10
-31.9818 -21.7348 3.38303 9.91571e-05 10
-32.0012 -21.748 4.75075 9.75536e-05 10
-31.991 -21.741 6.12621 9.5458e-05 10
-32.0057 -21.7511 7.52198 9.2896e-05 10
-32.0106 -21.7544 8.93533 8.98985e-05 10
-31.9968 -21.745 10.366 8.65019e-05 10
-8.20104 -5.61537 -2.66322 0.000746784 4
-9.1471 -6.26315 -2.55937 0.000360527 4
-10.8581 -7.43471 -2.55796 0.000220817 4
-14.3493 -9.82516 -2.75441 0.000102847 1
-17.2829 -11.8339 -2.57186 3.62038e-05 4
-31.9845 -21.9003 -2.03152 0.000127398 10
-32.3463 -22.148 -0.684278 8.32761e-05 10
-32.3379 -22.1422 0.6841 8.32706e-05 10
-31.9802 -21.8973 2.03125 9.92306e-05 10
-31.9907 -21.9045 3.39204 9.8149e-05 10
-32.0035 -21.9132 4.76242 9.65606e-05 10
-32.0012 -21.9116 6.14277 9.44848e-05 10
-32.007 -21.9156 7.54021 9.19469e-05 10
-32.0084 -21.9166 8.95601 8.89779e-05 10
-31.994 -21.9067 10.3898 8.56136e-05 10
-8.20123 -5.65765 -2.66968 0.000164221 4
-9.1075 -6.28284 -2.55442 0.000204487 4
-10.8365 -7.47558 -2.55899 0.00020103 4
-14.3165 -9.8763 -2.75472 0.000102854 1
-17.2558 -11.904 -2.57399 3.38133e-05 4
-31.9834 -22.0639 -2.03633 0.000126094 10
-32.1136 -22.1537 -0.680986 8.51637e-05 10
-32.112 -22.1526 0.680953 8.51581e-05 10
-31.9856 -22.0654 2.03647 9.82144e-05 10
-31.9866 -22.0661 3.39976 9.7143e-05 10
-31.9927 -22.0703 4.77225 9.55696e-05 10
-32.0005 -22.0757 6.1574 9.35135e-05 10
-31.9859 -22.0656 7.55334 9.09998e-05 10
-32.0042 -22.0782 8.97633 8.80591e-05 10
-32.0081 -22.0809 10.4193 8.47271e-05 10
-8.16396 -5.67409 -2.66398 0.000441848 4
-9.09082 -6.31828 -2.55591 0.000357868 4
-10.8084 -7.51203 -2.55854 0.000161442 4
-14.2904 -9.93206 -2.75635 0.000102861 1
-17.2165 -11.9658 -2.57434 4.42905e-05 4
-31.9769 -22.2245 -2.04085 0.000124792 10
-31.9766 -22.2243 -0.679722 0.000125412 10
-31.9855 -22.2305 0.679911 0.000125368 10
-31.9979 -22.2391 2.04219 9.72003e-05 10
-31.9812 -22.2275 3.40741 9.61391e-05 10
-31.9998 -22.2404 4.78486 9.45808e-05 10
-31.9933 -22.2359 6.17092 9.25444e-05 10
-31.997 -22.2385 7.57424 9.00548e-05 10
-32.0001 -22.2407 8.99692 8.71425e-05 10
-32.0036 -22.2431 10.4431 8.38426e-05 10
-8.14587 -5.7038 -2.66456 0.000344108 4
-9.06643 -6.34838 -2.55526 0.000349812 4
-10.78 -7.54825 -2.55804 0.000150789 4
-14.2509 -9.97862 -2.75544 0.000102868 1
-17.153 -12.0106 -2.57109 4.10025e-05 4
-31.9744 -22.3887 -2.04566 0.000123493 10
-31.9778 -22.3911 -0.681406 0.000124107 10
-31.9794 -22.3922 0.681439 0.000124064 10
-31.9802 -22.3928 2.04603 6.65631e-05 10
-31.972 -22.387 3.41473 6.58547e-05 10
-31.9762 -22.39 4.79299 6.48051e-05 10
-31.9846 -22.3959 6.18428 6.34275e-05 10
-32.0032 -22.4089 7.59419 8.91119e-05 10
-31.9753 -22.3893 9.01184 5.97585e-05 10
-31.9713 -22.3866 10.458 5.75119e-05 10
-8.12321 -5.73029 -2.66367 0.000574838 4
-9.04096 -6.3777 -2.55435 0.000325609 4
-11.5636 -8.15724 -2.75072 0.000209854 1
-14.2312 -10.039 -2.75839 0.000102876 1
-17.1198 -12.0767 -2.57243 3.77139e-05 4
-31.9823 -22.561 -2.05119 0.000122198 10
-31.9721 -22.5538 -0.682957 0.000122805 10
-31.9894 -22.5661 0.683327 0.000122762 10
-31.7252 -22.3797 2.0347 6.80364e-05 10
-31.7429 -22.3921 3.39859 6.73135e-05 10
-31.7374 -22.3883 4.76888 6.62424e-05 10
-31.738 -22.3887 6.15167 6.48364e-05 10
-31.9962 -22.5708 7.61117 8.81712e-05 10
-31.7343 -22.3861 8.9659 6.10917e-05 10
-31.7387 -22.3892 10.4074 5.87986e-05 10
-8.11674 -5.76826 -2.66814 0.000453632 4
-9.01487 -6.40653 -2.55328 0.00031755 4
-11.5292 -8.19337 -2.74932 0.000209866 1
-14.1807 -10.0777 -2.75539 0.000102883 1
-17.0684 -12.1299 -2.57105 3.86155e-05 4
-31.9747 -22.7233 -2.05578 0.000120905 10
-31.9693 -22.7194 -0.684588 0.000121507 10
-31.9828 -22.729 0.684875 0.000121464 10
-31.6223 -22.4728 2.03312 9.78003e-05 10
-31.634 -22.4811 3.39531 9.67336e-05 10
-31.6246 -22.4744 4.76369 9.51673e-05 10
-31.636 -22.4825 6.14707 9.31206e-05 10
-31.9936 -22.7366 7.62938 8.72328e-05 10
-31.6459 -22.4896 8.96305 8.76912e-05 10
-31.6425 -22.4872 10.4015 8.43744e-05 10
-8.10142 -5.80004 -2.66974 0.000594437 4
-9.0024 -6.44508 -2.5561 0.000201842 4
-11.5016 -8.23435 -2.74958 0.000209877 1
-14.1513 -10.1313 -2.75653 0.00010289 1
-17.0282 -12.191 -2.5714 5.14923e-05 4
-31.9722 -22.8898 -2.06074 0.000119616 10
-31.9821 -22.8969 -0.686569 0.000120211 10
-31.9805 -22.8958 0.686535 0.000120169 10
-32.0399 -22.9383 2.06511 5.90573e-05 10
-32.0466 -22.9431 4.83928 5.74595e-05 10
-31.9908 -22.9032 7.64774 8.62967e-05 10
-8.08241 -5.82922 -2.67017 0.000899512 4
-8.98759 -6.48205 -2.5583 0.000355259 4
-11.473 -8.27455 -2.74962 0.000209889 1
-14.1206 -10.1841 -2.75747 0.000102898 1
-17.0016 -12.2619 -2.57382 3.89223e-05 4
-31.9655 -23.0542 -2.06548 0.000118329 10
-31.9719 -23.0588 -0.688073 0.000118919 10
-31.9815 -23.0658 0.688279 0.000118877 10
-32.0417 -23.1092 4.8507 5.68398e-05 10
-31.9864 -23.0693 7.66589 8.53632e-05 10
-8.94907 -6.50188 -2.55378 0.000274531 4
-11.4515 -8.32001 -2.75142 0.000209901 1
-14.0882 -10.2357 -2.7581 0.000102905 1
-16.9487 -12.314 -2.57231 4.28187e-05 4
-31.9791 -23.2342 -2.07159 0.000117047 10
-31.9726 -23.2295 -0.68983 0.00011763 10
-31.9741 -23.2306 0.689862 0.000117589 10
-31.9792 -23.2342 7.68354 8.44322e-05 10
-8.02887 -5.87624 -2.66597 0.000148627 4
-8.92577 -6.53268 -2.55363 0.000244936 4
-11.4072 -8.34883 -2.74777 0.000209913 1
-14.03 -10.2684 -2.75372 0.000102913 1
-16.9013 -12.3699 -2.57165 3.4438e-05 4
-31.9682 -23.3972 -2.07616 0.000115768 10
-31.9804 -23.4061 -0.691757 0.000116345 10
-31.9863 -23.4104 0.691884 0.000116304 10
-31.9802 -23.406 7.70339 8.35038e-05 10
-8.01542 -5.90947 -2.66833 0.000441987 4
-8.90072 -6.56218 -2.553 0.000320316 4
-11.3867 -8.39502 -2.74987 0.000209926 1
-13.9978 -10.3201 -2.75445 0.00010292 1
-16.8719 -12.4391 -2.57377 4.16292e-05 4
-31.9688 -23.5694 -2.08153 0.000114492 10
-31.9805 -23.578 -0.693534 0.000115064 10
-31.9747 -23.5738 0.693408 0.000115023 10
-31.9946 -23.5884 7.72662 8.25781e-05 10
-7.98416 -5.92955 -2.6648 0.000496767 4
-8.88798 -6.60079 -2.55594 0.000358017 4
-11.3568 -8.43432 -2.74975 0.000209938 1
-13.9602 -10.3677 -2.75414 0.000102928 1
-16.8086 -12.4832 -2.57075 3.86381e-05 4
-31.9637 -23.7383 -2.08658 0.000113221 10
-31.9729 -23.7451 -0.695163 0.000113786 10
-31.9698 -23.7428 0.695095 0.000113746 10
-31.9888 -23.7569 7.7452 8.16554e-05 10
-32.0553 -23.8064 9.21823 5.00687e-05 10
-7.9675 -5.96045 -2.66617 0.000524169 4
-8.86563 -6.63234 -2.55615 0.000441486 4
-11.3374 -8.48147 -2.7522 0.00020995 1
-13.9288 -10.4201 -2.75512 0.000102935 1
-16.7725 -12.5474 -2.5719 3.35496e-05 4
-31.9701 -23.9167 -2.09244 0.000111953 10
-31.9702 -23.9168 -0.696916 0.000112513 10
-31.9615 -23.9103 0.696725 0.000112472 10
-31.9845 -23.9274 7.76434 8.07355e-05 10
-32.0535 -23.9791 9.24171 4.95029e-05 10
-7.91533 -5.96463 -2.65566 0.00117292 4
-8.8403 -6.66164 -2.55554 0.000355359 4
-11.2954 -8.51171 -2.7492 0.000209963 1
-13.8838 -10.4622 -2.75342 0.000102943 1
-16.7348 -12.6106 -2.57286 4.07428e-05 4
-31.9713 -24.0921 -2.09801 0.000110689 10
-31.9756 -24.0953 -0.698862 0.000111243 10
-31.9645 -24.087 0.69862 0.000111203 10
-31.9782 -24.0973 7.7832 7.98185e-05 10
-7.86685 -5.97126 -2.64637 0.00147676 4
-8.80875 -6.6862 -2.55315 0.000328454 4
-11.2663 -8.55156 -2.74935 0.000209975 1
-13.8625 -10.5222 -2.75647 0.000102951 1
-16.6785 -12.6597 -2.57099 3.86497e-05 4
-31.9628 -24.2611 -2.103 0.00010943 10
-31.9763 -24.2713 -0.700726 0.000109978 10
-31.9779 -24.2726 0.70076 0.000109938 10
-31.9737 -24.2694 2.10372 4.07293e-05 10
-31.9832 -24.2765 3.51294 4.02921e-05 10
-31.9947 -24.2853 4.93197 3.96444e-05 10
-31.9925 -24.2836 6.36149 3.87942e-05 10
-31.9794 -24.2737 7.80405 7.89047e-05 10
-31.9977 -24.2876 9.2743 3.65307e-05 10
-31.9862 -24.2788 10.76 4.6863e-05 10
-7.82813 -5.98506 -2.64036 0.00142624 4
-8.80455 -6.73159 -2.55873 0.000368856 4
-11.2335 -8.58869 -2.74866 0.000209988 1
-13.8134 -10.5611 -2.75401 0.000102959 1
-16.6348 -12.7183 -2.57108 3.47582e-05 4
-31.9668 -24.4404 -2.10886 0.000108175 10
-31.96 -24.4352 -0.702232 0.000108716 10
-31.9726 -24.4449 0.702508 0.000108677 10
-31.789 -24.3045 2.09713 6.48402e-05 10
-31.7951 -24.3092 3.50159 6.4145e-05 10
-31.8051 -24.3168 4.91579 6.3115e-05 10
-31.7967 -24.3104 6.33939 6.17629e-05 10
-31.9873 -24.4562 7.82678 7.79939e-05 10
-31.7845 -24.301 9.23701 5.81631e-05 10
-31.8045 -24.3164 10.7274 5.59594e-05 10
-7.77126 -5.98468 -2.62821 0.0012852 4
-8.77426 -6.75709 -2.55676 0.000320409 4
-11.2054 -8.62928 -2.74912 0.00021 1
-13.7835 -10.6147 -2.75543 0.000102966 1
-16.6028 -12.7858 -2.573 3.53611e-05 4
-31.9524 -24.6066 -2.11356 0.000106924 10
-31.9709 -24.6209 -0.704356 0.00010746 10
-31.9616 -24.6138 0.704152 0.000107421 10
-31.6036 -24.3381 2.09049 8.6525e-05 10
-31.6168 -24.3482 3.49128 8.55721e-05 10
-31.6112 -24.3439 4.89892 8.41735e-05 10
-31.6109 -24.3437 6.31924 8.23466e-05 10
-31.9863 -24.6327 7.84751 7.70864e-05 10
-31.6274 -24.3564 9.21604 7.75021e-05 10
-31.6373 -24.364 10.6996 7.45441e-05 10
-7.71754 -5.98634 -2.61709 0.00101043 4
-8.74245 -6.78134 -2.55438 0.000409282 4
-11.1876 -8.67795 -2.75217 0.000210013 1
-13.7507 -10.6662 -2.7563 0.000102974 1
-16.5497 -12.8373 -2.57171 3.62639e-05 4
-31.9578 -24.789 -2.11963 0.000105678 10
-31.9752 -24.8025 -0.706355 0.000106207 10
-31.9572 -24.7886 0.705957 0.000106169 10
-31.9626 -24.7928 2.11995 8.23076e-05 10
-31.9707 -24.799 3.53991 8.13971e-05 10
-31.987 -24.8116 4.97055 8.00608e-05 10
-31.9814 -24.8073 6.41058 7.83153e-05 10
-31.9852 -24.8103 7.86845 7.61822e-05 10
-31.9829 -24.8085 9.34479 7.36878e-05 10
-31.9779 -24.8046 10.844 7.08628e-05 10
-7.6793 -5.99972 -2.61121 0.0011945 4
-8.73407 -6.8238 -2.55887 0.000358139 4
-11.1417 -8.70486 -2.74835 0.000210026 1
-13.716 -10.7161 -2.75682 0.000102982 1
-16.5166 -12.9042 -2.57355 3.47689e-05 4
-31.9711 -24.9785 -2.12628 0.000104436 10
-31.9703 -24.978 -0.708168 0.00010496 10
-31.9754 -24.9819 0.708281 0.000104921 10
-31.9797 -24.9852 2.12685 8.13401e-05 10
-31.9772 -24.9833 3.55026 8.04394e-05 10
-31.966 -24.9746 4.98081 7.91176e-05 10
-31.9745 -24.9812 6.42663 7.73912e-05 10
-31.9856 -24.9899 7.88995 7.52814e-05 10
-31.9931 -24.9958 9.37321 7.28143e-05 10
-31.993 -24.9957 10.8787 7.00203e-05 10
-7.63471 -6.00793 -2.60317 0.00142366 4
-8.69978 -6.84606 -2.55581 0.000350078 4
-11.1156 -8.74714 -2.74943 0.000210038 1
-13.6603 -10.7496 -2.75314 0.00010299 1
-16.4661 -12.9575 -2.57271 3.9269e-05 4
-31.9575 -25.1481 -2.13121 0.000103199 10
-31.9638 -25.153 -0.709964 0.000103717 10
-31.9655 -25.1544 0.710002 0.000103679 10
-31.9713 -25.1589 2.13213 8.03762e-05 10
-31.9794 -25.1653 3.56024 7.94854e-05 10
-31.9701 -25.158 4.9951 7.81781e-05 10
-31.9658 -25.1546 6.4425 7.64706e-05 10
-31.9742 -25.1612 7.90876 7.4384e-05 10
-31.9749 -25.1617 9.39354 7.19442e-05 10
-31.9805 -25.1661 10.9042 6.91811e-05 10
-7.59114 -6.01666 -2.59545 0.00137815 4
-8.67099 -6.87254 -2.55439 0.000393185 4
-11.0789 -8.78103 -2.74791 0.000210051 1
-13.6302 -10.8031 -2.75466 0.000102998 1
-16.4181 -13.0128 -2.5723 3.47762e-05 4
-31.955 -25.3272 -2.13692 0.000101966 10
-31.9644 -25.3346 -0.711937 0.000102479 10
-31.9669 -25.3366 0.711992 0.000102441 10
-31.9726 -25.3412 2.1381 7.94162e-05 10
-31.974 -25.3423 3.56946 7.85352e-05 10
-31.9638 -25.3342 5.0079 7.72423e-05 10
-31.9654 -25.3354 6.4602 7.55537e-05 10
-31.9673 -25.3369 7.92887 7.34902e-05 10
-31.9842 -25.3504 9.42223 7.10776e-05 10
-31.9855 -25.3514 10.936 6.83453e-05 10
-7.52984 -6.01099 -2.58165 0.00144658 4
-8.65249 -6.90719 -2.55602 0.000298943 4
-11.0641 -8.83239 -2.75188 0.000210064 1
-13.594 -10.8519 -2.75499 0.000103006 1
-16.363 -13.0624 -2.57078 3.77781e-05 4
-31.9632 -25.5159 -2.14341 0.000100739 10
-31.9553 -25.5096 -0.713714 0.000101245 10
-31.9585 -25.5122 0.713786 0.000101208 10
-31.9733 -25.5239 2.14409 7.84599e-05 10
-31.9713 -25.5223 3.57908 7.75886e-05 10
-31.9733 -25.524 5.02332 7.63101e-05 10
-31.9785 -25.5281 6.48082 7.46403e-05 10
-31.9767 -25.5267 7.95327 7.26e-05 10
-31.9774 -25.5272 9.44641 7.02144e-05 10
-31.9794 -25.5288 10.9643 6.75129e-05 10
-7.50055 -6.0306 -2.57881 0.00155873 4
-8.62763 -6.93679 -2.55582 0.000293572 4
-11.0261 -8.8652 -2.7501 0.000210077 1
-13.5521 -10.8962 -2.75419 0.000103015 1
-16.3322 -13.1314 -2.57313 3.11852e-05 4
-31.9654 -25.7008 -2.14956 9.95167e-05 10
-31.8693 -25.6236 -0.713787 8.01448e-05 10
-31.9601 -25.6965 0.715819 9.99801e-05 10
-31.868 -25.6225 2.14301 6.21467e-05 10
-31.8744 -25.6277 3.57823 6.14758e-05 10
-31.9793 -25.712 5.03834 7.53819e-05 10
-31.8672 -25.6219 6.47636 5.91775e-05 10
-31.9867 -25.7179 7.97802 7.17136e-05 10
-31.8874 -25.6382 9.44622 5.5705e-05 10
-31.8813 -25.6332 10.9613 5.35799e-05 10
-7.45464 -6.03665 -2.57026 0.00111543 4
-8.59343 -6.95882 -2.55287 0.000266652 4
-10.9851 -8.89552 -2.74759 0.000210091 1
-13.5195 -10.9479 -2.75531 0.000103023 1
-31.9455 -25.869 -2.15429 9.82993e-05 10
-31.6423 -25.6234 -0.710702 8.17097e-05 10
-31.955 -25.8766 0.717723 9.87573e-05 10
-31.6455 -25.626 2.13405 6.33607e-05 10
-31.6405 -25.6219 3.56198 6.26778e-05 10
-31.9639 -25.8839 5.05012 7.44576e-05 10
-31.6529 -25.632 6.45094 6.03378e-05 10
-31.9859 -25.9016 8.00033 7.08309e-05 10
-31.651 -25.6305 9.40263 5.68021e-05 10
-31.6509 -25.6304 10.9128 5.46382e-05 10
-7.39731 -6.0331 -2.55774 0.00129086 4
-8.57446 -6.99316 -2.55447 0.000439056 4
-10.9695 -8.94647 -2.75148 0.000210104 1
-13.4721 -10.9876 -2.75344 0.000103031 1
-31.961 -26.0668 -2.16145 9.70873e-05 10
-31.9552 -26.062 0.719766 9.75398e-05 10
-32.0381 -26.1297 3.617 4.73905e-05 10
-31.9789 -26.0814 5.06684 7.35372e-05 10
-31.9712 -26.0751 8.01939 6.9952e-05 10
-31.6198 -25.7885 10.933 6.7633e-05 10
-7.36175 -6.04701 -2.55272 0.000676075 4
-8.56343 -7.03408 -2.55848 0.000369041 4
-10.9393 -8.98567 -2.75178 0.000210117 1
-13.4419 -11.0413 -2.75514 0.000103039 1
-16.1765 -13.2875 -2.57039 3.68943e-05 4
-31.9646 -26.256 -2.16788 9.58806e-05 10
-32.0186 -26.3004 -0.723259 9.56719e-05 10
-31.969 -26.2596 0.722139 9.63277e-05 10
-32.0339 -26.313 2.17258 4.73284e-05 10
-32.0345 -26.3135 3.62694 4.68004e-05 10
-31.957 -26.2498 5.07786 7.26209e-05 10
-32.0473 -26.3239 6.56862 4.50141e-05 10
-31.979 -26.2678 8.04428 6.9077e-05 10
-31.6104 -25.9651 10.9611 6.67856e-05 10
-7.33001 -6.06391 -2.54904 0.000602427 4
-8.52092 -7.04912 -2.55312 0.000366367 4
-10.8986 -9.01614 -2.74944 0.00021013 1
-13.3929 -11.0796 -2.75301 0.000103048 1
-16.1292 -13.3432 -2.57026 3.35985e-05 4
-31.9634 -26.4424 -2.17405 9.46794e-05 10
-31.9504 -26.4317 0.723798 9.51211e-05 10
-32.024 -26.4926 3.6362 4.62129e-05 10
-31.9584 -26.4382 5.0927 7.17088e-05 10
-31.9797 -26.4559 8.06764 6.82061e-05 10
-31.6137 -26.1531 10.9938 6.5942e-05 10
-7.31606 -6.09551 -2.55157 0.000455091 4
-8.50452 -7.0857 -2.5556 0.000307118 4
-10.863 -9.05068 -2.7484 0.000210144 1
-13.3632 -11.1338 -2.75488 0.000103056 1
-16.0948 -13.4097 -2.57222 3.63023e-05 4
-31.9575 -26.626 -2.17995 9.34836e-05 10
-31.9643 -26.6316 0.726214 9.392e-05 10
-32.0373 -26.6925 3.64826 4.56282e-05 10
-31.9588 -26.6271 5.10756 7.08008e-05 10
-31.9738 -26.6396 8.08956 6.73391e-05 10
-31.975 -26.6406 11.1517 6.25945e-05 10
-7.30588 -6.13036 -2.55547 0.000411767 4
-8.48302 -7.1181 -2.55659 0.000185897 4
-10.8322 -9.08933 -2.74863 0.000210158 1
-13.3286 -11.184 -2.75577 0.000103064 1
-16.0321 -13.4525 -2.56969 3.15054e-05 4
-31.9544 -26.813 -2.18611 9.22935e-05 10
-31.9537 -26.8123 -0.728095 9.27598e-05 10
-31.9579 -26.8159 0.728192 9.27245e-05 10
-31.9554 -26.8138 2.18618 4.58869e-05 10
-31.9681 -26.8244 3.65102 4.53737e-05 10
-31.9656 -26.8224 5.12358 6.98971e-05 10
-31.9729 -26.8285 6.6106 4.36381e-05 10
-31.9648 -26.8217 8.11093 6.64764e-05 10
-31.9711 -26.827 9.63536 4.10335e-05 10
-31.9729 -26.8284 11.1836 6.1788e-05 10
-7.2757 -6.14844 -2.55241 0.000637184 4
-8.4537 -7.14393 -2.55525 7.81346e-05 4
-10.8091 -9.13443 -2.75085 0.000210171 1
-13.2833 -11.2252 -2.75448 0.000103073 1
-15.9907 -13.5132 -2.5706 4.11116e-05 4
-31.9377 -26.9894 -2.1914 9.11092e-05 10
-31.742 -26.8241 -0.725402 7.81542e-05 10
-31.9586 -27.0071 0.73035 9.15348e-05 10
-31.7524 -26.8328 2.17868 6.06016e-05 10
-31.7427 -26.8247 3.63595 5.99442e-05 10
-31.9593 -27.0077 5.13764 6.89979e-05 10
-31.7431 -26.825 6.5824 5.76918e-05 10
-31.968 -27.015 8.1356 6.56179e-05 10
-31.7386 -26.8212 9.59343 5.42894e-05 10
-31.9721 -27.0185 11.2162 6.09856e-05 10
-7.25014 -6.17035 -2.55098 0.000676226 4
-8.42029 -7.16622 -2.5527 0.000226333 4
-10.7737 -9.16915 -2.74996 0.000210185 1
-13.2358 -11.2645 -2.75277 0.000103081 1
-15.9704 -13.5919 -2.57495 0.000200285 4
-31.9459 -27.1881 -2.19847 8.99306e-05 10
-31.5915 -26.8865 -0.724102 9.39658e-05 10
-31.9532 -27.1943 0.732392 9.0351e-05 10
-31.5999 -26.8936 2.17465 7.28151e-05 10
-31.5998 -26.8935 3.63031 7.20021e-05 10
-31.9726 -27.2108 5.15501 6.81031e-05 10
-31.6054 -26.8983 6.57327 6.92522e-05 10
-31.9615 -27.2013 8.15806 6.47636e-05 10
-31.6111 -26.9032 9.58324 6.51258e-05 10
-31.9646 -27.204 11.2468 6.01872e-05 10
-7.22221 -6.19018 -2.54874 0.000368473 4
-8.40554 -7.20441 -2.55583 0.000304488 4
-10.7507 -9.21443 -2.75227 0.000210199 1
-13.2092 -11.3217 -2.75545 0.00010309 1
-15.9484 -13.6695 -2.57908 0.00015042 4
-31.9401 -27.376 -2.20463 8.87579e-05 10
-31.947 -27.3818 -0.734436 8.92073e-05 10
-31.9511 -27.3854 0.734531 8.9173e-05 10
-31.9485 -27.3831 2.2052 6.91256e-05 10
-31.9623 -27.395 3.68292 6.83501e-05 10
-31.953 -27.387 5.16724 6.72128e-05 10
-31.9524 -27.3865 6.66528 6.57277e-05 10
-31.9561 -27.3897 8.18106 6.39137e-05 10
-31.9734 -27.4045 9.722 6.17933e-05 10
-31.9752 -27.406 11.2841 5.9393e-05 10
-7.20147 -6.21614 -2.54906 0.000624265 4
-8.36969 -7.22452 -2.55259 0.000406904 4
-10.7109 -9.24537 -2.75032 0.000210212 1
-13.1745 -11.3719 -2.75647 0.000103099 1
-15.9668 -13.7822 -2.58982 0.000137203 4
-31.9453 -27.5745 -2.21162 8.75912e-05 10
-31.9517 -27.5799 -0.736753 8.80351e-05 10
-31.9586 -27.5859 0.736912 8.80011e-05 10
-31.9453 -27.5744 2.21161 6.82167e-05 10
-31.9523 -27.5805 3.69284 6.74507e-05 10
-31.9675 -27.5936 5.18512 6.63271e-05 10
-31.9552 -27.5829 6.68591 6.48601e-05 10
-31.974 -27.5992 8.21025 6.30681e-05 10
-31.9703 -27.596 9.75029 6.09738e-05 10
-31.9613 -27.5882 11.3132 5.86029e-05 10
-7.19384 -6.25351 -2.55407 0.000602616 4
-8.35702 -7.26464 -2.55644 0.000353029 4
-10.6692 -9.27459 -2.74792 0.000210226 1
-13.1184 -11.4036 -2.75304 0.000103107 1
-15.9671 -13.88 -2.59771 0.00020732 4
-31.9511 -27.7746 -2.21871 8.64307e-05 10
-31.9442 -27.7687 -0.738812 8.6869e-05 10
-31.9599 -27.7823 0.739174 8.68353e-05 10
-31.9532 -27.7765 2.21886 6.73125e-05 10
-31.964 -27.7859 3.70538 6.65558e-05 10
-31.9666 -27.7881 5.20068 6.54459e-05 10
-31.9513 -27.7749 6.70535 6.3997e-05 10
-31.9569 -27.7797 8.23071 6.22271e-05 10
-31.9687 -27.7899 9.77932 6.01585e-05 10
-31.9695 -27.7907 11.3503 5.7817e-05 10
-7.17441 -6.28072 -2.55494 0.000576631 4
-8.31831 -7.28213 -2.55236 0.000326097 4
-10.6493 -9.32275 -2.75116 0.00021024 1
-13.0842 -11.4544 -2.75425 0.000103116 1
-15.9686 -13.9795 -2.60588 0.000236171 4
-31.9436 -27.9645 -2.22496 8.52763e-05 10
-31.9512 -27.9711 -0.741227 8.57091e-05 10
-31.9477 -27.9681 0.741146 8.56756e-05 10
-31.9491 -27.9693 2.22534 6.64131e-05 10
-31.9498 -27.9699 3.71503 6.56657e-05 10
-31.9558 -27.9752 5.21478 6.45696e-05 10
-31.955 -27.9745 6.72657 6.31385e-05 10
-31.9578 -27.977 8.25604 6.13906e-05 10
-31.9753 -27.9923 9.8112 5.93477e-05 10
-31.9756 -27.9926 11.3871 5.70354e-05 10
-7.14933 -6.30298 -2.55383 0.000594 4
-8.30893 -7.3253 -2.55731 0.000288383 4
-10.614 -9.35751 -2.75047 0.000210254 1
-13.0515 -11.5065 -2.7558 0.000103125 1
-15.9523 -14.0638 -2.6112 0.000189999 4
-31.9411 -28.1599 -2.23162 8.41282e-05 10
-31.9532 -28.1706 -0.743551 8.45555e-05 10
-31.9518 -28.1693 0.743518 8.45224e-05 10
-31.9506 -28.1683 2.23228 6.55187e-05 10
-31.9438 -28.1623 3.72574 6.47805e-05 10
-31.96 -28.1765 5.23149 6.3698e-05 10
-31.9619 -28.1782 6.74868 6.22848e-05 10
-31.9552 -28.1723 8.28072 6.05587e-05 10
-31.9721 -28.1872 9.84033 5.85414e-05 10
-31.9595 -28.1761 11.4163 5.62582e-05 10
-7.12758 -6.32816 -2.55394 0.000598364 4
-8.27038 -7.34279 -2.55332 0.000312657 4
-10.5662 -9.38112 -2.74655 0.000210268 1
-13.0014 -11.5432 -2.75371 0.000103133 1
-15.9506 -14.1616 -2.619 0.000210878 4
-31.9421 -28.3595 -2.23859 8.29866e-05 10
-31.9357 -28.3538 -0.745442 8.34083e-05 10
-31.9556 -28.3715 0.745905 8.33756e-05 10
-31.9535 -28.3696 2.23939 6.46293e-05 10
-13.8806 -12.3238 1.62396 0.000689376 10
-13.8839 -12.3267 2.27966 0.000680181 10
-13.8698 -12.3141 2.93763 0.000668079 10
-13.866 -12.3108 3.60428 0.000653192 10
-13.8829 -12.3258 4.28607 0.000635672 10
-13.864 -12.309 4.96772 0.000615695 10
-7.09771 -6.34609 -2.55116 0.000650426 4
-8.25877 -7.38419 -2.55768 0.000377365 4
-10.5411 -9.42482 -2.74855 0.000210283 1
-12.9689 -11.5956 -2.75539 0.000103142 1
-15.958 -14.2681 -2.62839 0.000208394 4
-31.9393 -28.557 -2.24537 8.18512e-05 10
-31.951 -28.5675 -0.748121 8.22675e-05 10
-31.9381 -28.556 0.74782 8.2235e-05 10
-31.9367 -28.5547 2.24518 6.37447e-05 10
-13.7698 -12.3116 1.61601 0.000699414 10
-13.7711 -12.3127 2.26818 0.000690092 10
-13.7743 -12.3156 2.92649 0.000677822 10
-13.7857 -12.3258 3.59457 0.000662729 10
-13.7668 -12.309 4.26348 0.000644966 10
-13.7735 -12.3149 4.95064 0.000624711 10
-7.0737 -6.36919 -2.5505 0.000516029 4
-8.22691 -7.40754 -2.5558 0.000361212 4
-10.5155 -9.46817 -2.75047 0.000210297 1
-12.9143 -11.6281 -2.75239 0.000103151 1
-15.9484 -14.36 -2.63503 0.000176713 4
-31.9322 -28.7518 -2.25191 8.07225e-05 10
-31.9515 -28.7693 -0.750481 8.11334e-05 10
-31.953 -28.7706 0.750514 8.11013e-05 10
-31.9426 -28.7613 2.25265 6.28654e-05 10
-13.7196 -12.3532 1.61518 0.000790454 10
-13.7338 -12.366 2.26914 0.000779703 10
-13.7197 -12.3533 2.92404 0.000765626 10
-13.7285 -12.3612 3.59089 0.000748366 10
-13.7224 -12.3557 4.26306 0.000728098 10
-13.7364 -12.3683 4.9528 0.000705026 10
-7.05594 -6.39793 -2.55213 0.000503043 4
-8.20408 -7.439 -2.55676 0.000334275 4
-10.4685 -9.49229 -2.74685 0.000210311 1
-12.8899 -11.6878 -2.75586 0.00010316 1
-15.9503 -14.4629 -2.64368 0.000223306 4
-31.8265 -28.8585 -2.25155 7.20832e-05 10
-31.8347 -28.8659 -0.750099 7.24741e-05 10
-31.9489 -28.9695 0.752789 7.99741e-05 10
-31.8384 -28.8693 2.25239 5.6194e-05 10
-13.7212 -12.4416 1.62046 0.000781531 10
-13.7314 -12.4508 2.2759 0.000770894 10
-13.7211 -12.4416 2.93358 0.000756968 10
-13.7214 -12.4418 3.60036 0.000739893 10
-13.7265 -12.4465 4.27781 0.000719842 10
-13.7296 -12.4492 4.966 0.000697018 10
-7.04131 -6.4296 -2.55495 0.00059414 4
-8.18038 -7.46971 -2.55749 0.000326206 4
-10.4479 -9.5402 -2.75014 0.000210326 1
-12.832 -11.7172 -2.75222 0.000103169 1
-13.8752 -12.6698 -2.30706 0.000855705 10
-13.8816 -12.6756 -1.64462 0.000867219 10
-13.8783 -12.6726 -0.984932 0.000874947 10
-13.8928 -12.6859 -0.328388 0.00087881 10
-13.8802 -12.6743 0.328089 0.00087877 10
-13.8909 -12.6841 0.985828 0.000874825 10
-13.7314 -12.5385 1.62683 0.000772641 10
-13.7248 -12.5325 2.28206 0.000762118 10
-13.7229 -12.5307 2.9433 0.000748342 10
-13.7326 -12.5396 3.61476 0.000731452 10
-13.734 -12.5408 4.29374 0.000711618 10
-13.7198 -12.5279 4.97825 0.000689042 10
-7.01711 -6.45256 -2.55432 0.000555135 4
-8.15034 -7.49462 -2.55626 0.000288479 4
-10.4113 -9.57365 -2.74929 0.00021034 1
-12.7903 -11.7613 -2.75206 0.000103178 1
-13.7765 -12.6681 -2.29799 0.000867852 10
-13.7886 -12.6793 -1.63884 0.000879521 10
-13.787 -12.6778 -0.981589 0.000887354 10
-13.7789 -12.6703 -0.326739 0.000891269 10
-13.7898 -12.6804 0.326998 0.000891228 10
-13.7754 -12.6671 0.980764 0.000887231 10
-13.7235 -12.6194 1.6311 0.000763786 10
-13.7181 -12.6144 2.28824 0.000753377 10
-13.7226 -12.6186 2.95267 0.00073975 10
-13.7244 -12.6202 3.62419 0.000723044 10
-13.724 -12.6199 4.30437 0.000703426 10
-13.7351 -12.63 4.99975 0.000681096 10
-6.99311 -6.47569 -2.5538 0.000589859 4
-8.10976 -7.50972 -2.55174 0.000366685 4
-10.3684 -9.60122 -2.7468 0.000210355 1
-12.7648 -11.8203 -2.75543 0.000103187 1
-13.6914 -12.6784 -2.29116 0.000880077 10
-13.6883 -12.6755 -1.63217 0.000891902 10
-13.6832 -12.6708 -0.977344 0.000899839 10
-13.6918 -12.6788 -0.325722 0.000903808 10
-13.6859 -12.6733 0.32558 0.000903767 10
-13.694 -12.6808 0.978117 0.000899716 10
-13.6827 -12.6703 1.6315 0.000695267 10
-13.6946 -12.6813 2.29169 0.000478136 10
-13.7029 -12.689 2.95793 0.000469486 10
-13.7017 -12.6879 3.62987 0.00045888 10
-13.6794 -12.6672 4.30422 0.000641055 10
-13.6888 -12.6759 4.99896 0.000620889 10
-6.96938 -6.49905 -2.5534 0.000576876 4
-8.68818 -8.10186 -2.74262 0.000373467 1
-10.3509 -9.65235 -2.75107 0.000210369 1
-12.721 -11.8625 -2.7549 0.000103196 1
-13.6013 -12.6834 -2.28348 0.000892378 10
-13.5929 -12.6756 -1.62606 0.000904361 10
-13.596 -12.6784 -0.974268 0.000912403 10
-13.5987 -12.681 -0.324558 0.000916424 10
-13.5879 -12.6709 0.3243 0.000916383 10
-13.5991 -12.6814 0.974494 0.000912278 10
-13.5971 -12.6795 1.62656 0.000704979 10
-13.6712 -12.7486 2.29521 0.000437796 10
